0 0 0 0 0 0 0 0 0 0 0 0 0 0 0 0 0 0 0 0 0 0 0 0 0 0 0 0 0 0 0 0 0 2004 2004 2001 1983 1965 1965 1983 1999 2030 2043 2060 2070 2102 2127 2132 2136 2141 2149 2153 2157 2162 2166 2166 2171 2176 2181 2183 2191 2198 2203 2205 2216 2221 2239 2253 2266 2266 2266 2257 2240 2221 2201 2201 2201 2204 2260 0 0 0 2527 2543 2620 2674 2721 2794 2961 3149 3273 3320 3333 3338 3346 3351 3413 3474 3533 3533 3533 3531 3512 3407 3318 3298 3272 3235 3152 3131 3092 3076 3073 3065 3065 3065 3155 3162 3162 3162 3107 2993 2828 2774 0 0 0 0 0 0 0 0 0 0 0 0 0 0 3081 3147 3239 3239 3239 3184 3017 0 0 0 0 0 0 0 0 0 0 0 0 0 0 0 0 0 0 0 0 0 0 0 0 0 0 0 0 0 0 0 0 0 0 0 0 0 0 0 0 0 0 0 0 0 0 0 0 0 0 0 0 0 0 0 0 0 0 0 0 0 0 0 0 0 0 0 0 0 0 0 0 0 0 0 0 0 0 0 0 0 0 0 0 3002 3038 3069 3098 3102 3137 3137 3215 3215 3210 3194 3194 3176 3176 0 3119 3102 3061 3033 3033 3033 3044 3093 3162 3256 3357 3357 3364 3378 3378 3397 3416 3416 3416 3419 3435 3435 3435 3437 3437 3437 3437 3407 3357 3328 3286 3230 3230 3230 3257 3257 3257 3252 3230 3230 3230 3234 3234 3234 3216 3184 3175 3150 3094 3069 3015 2912 2861 2770 2639 2590 2563 2563 2563 2516 0 0 0 0 0 0 0 0 0 0 0 0 0 1703 1703 1702 1702 1702 1704 1704 1706 1706 1708 1708 1709 1709 1708 1708 1708 1708 1707 1707 1707 1708 1708 1709 1709 1710 1710 1710 1711 1712 1713 1714 1715 1716 1716 1717 1718 1718 1720 1720 1721 1721 1722 1722 1723 1723 1723 1723 1724 1724 1724 1724 1723 1723 1722 1720 1720 1720 1720 1720 1722 1723 1726 1729 1729 1730 1730 1730 1730 1730 1731 1731 1731 1735 1737 1738 1739 1741 1743 1744 1745 1746 1747 1748 1748 1749 1749 1750 1750 1750 1751 1751 1752 1752 1752 1752 1752 1753 1754 1755 1755 1756 1756 1756 1757 1758 1760 1761 1763 1763 1764 1764 1765 1765 1765 1765 1765 1764 1763 1762 1759 1756 1754 1752 1749 1748 1748 1747 1747 1747 1747 1749 1753 1755 1756 1758 1760 1762 1763 1767 1769 1769 1772 1772 1772 1772 1772 1771 1769 1769 1764 1762 1760 1760 1760 1761 1761 1761 1760 1760 1760 1763 1779 1786 1788 1789 1791 1794 1796 1797 1797 1797 1797 1797 1795 1794 1793 1791 1786 1781 1776 1772 1767 1760 1755 1751 1748 1744 1741 1738 1735 1732 1728 1726 1723 1721 1720 1719 1719 1718 1718 1718 1719 1722 1723 1724 1724 1726 1729 1731 1733 1735 1736 1739 1743 1746 1746 1746 1746 1748 1749 1751 1762 1786 1814 1846 0 0 2032 2067 2068 2074 2076 2076 2076 2070 0 0 0 0 0 0 0 0 0 0 0 0 0 0 0 0 0 0 2660 2663 2824 0 2929 2929 2929 2905 2903 2888 2855 2852 2848 2848 2848 2860 2886 2932 2940 2940 2940 2922 2922 2922 2927 2927 2927 2762 2706 2629 0 0 0 0 0 0 0 0 0 0 0 0 0 0 0 0 0 0 0 0 0 0 0 0 0 0 0 0 0 0 0 0 0 0 0 0 0 0 0 0
0 0 0 0 0 0 0 0 0 0 0 0 0 0 0 0 0 0 0 0 0 0 0 0 0 0 0 0 0 0 0 0 0 1975 1973 1950 1943 1943 1950 1965 1999 2030 2057 2060 2087 2107 2130 2137 2141 2142 2148 2153 2157 2162 2166 2166 2171 2175 2180 2182 2188 2198 2202 2202 2217 2221 2239 2253 2266 2266 2266 2257 2247 2230 2201 2201 2201 2229 2275 2316 0 0 0 0 0 2625 2687 2794 2948 3121 3141 3188 3199 3201 3201 3205 3205 3240 3249 3261 3261 3261 3193 3192 3177 3177 3169 3162 3124 3087 3077 3076 3073 3065 3065 3065 3155 3420 3420 3420 3269 3157 2953 2774 0 0 0 0 0 2683 2748 2846 2891 2964 3029 3076 3080 3297 3481 3499 3499 3499 3477 3388 3139 2940 0 0 0 0 0 0 0 0 0 0 0 0 0 0 0 0 0 0 0 0 0 0 0 0 0 0 0 0 0 0 0 0 0 0 0 0 0 0 0 0 0 0 0 0 0 0 0 0 0 0 0 0 0 0 0 0 0 0 0 0 0 0 0 0 0 0 0 0 0 0 0 0 0 0 0 0 0 0 0 0 2918 2968 3000 3026 3070 3102 3104 3114 3142 3230 3253 0 3231 3230 3231 3215 3215 3215 3167 3167 3186 3186 3188 3191 3206 3212 3295 3394 3414 3414 3414 3414 3414 3418 3425 3429 3429 3432 3435 3435 3435 3435 3401 3345 3332 3293 3286 3210 3184 3178 3178 3178 3213 3219 3219 3219 3187 3172 3172 3172 3161 3142 3083 3055 3053 3013 2946 2904 2828 2747 2719 2708 2639 2590 2580 2580 2580 2580 2580 0 0 0 0 0 0 0 0 0 0 0 0 0 0 1718 1713 1707 1706 1706 1707 1709 1709 1709 1709 1709 1709 1709 1709 1708 1707 1707 1707 1708 1708 1709 1710 1710 1710 1711 1711 1712 1712 1713 1715 1716 1716 1716 1718 1718 1719 1719 1720 1721 1721 1722 1722 1722 1723 1723 1723 1723 1723 1723 1723 1723 1722 1720 1720 1720 1720 1721 1722 1723 1726 1729 1729 1730 1730 1730 1731 1731 1732 1732 1732 1735 1737 1738 1740 1741 1742 1744 1745 1746 1746 1747 1748 1749 1749 1750 1750 1750 1751 1751 1752 1752 1752 1752 1752 1753 1754 1754 1754 1754 1755 1755 1755 1756 1757 1760 1760 1761 1762 1762 1763 1763 1763 1763 1763 1763 1763 1762 1759 1756 1752 1750 1746 1746 1745 1745 1745 1745 1745 1749 1753 1755 1755 1757 1760 1762 1764 1767 1769 1770 1772 1773 1774 1776 1776 1776 1773 1773 1765 1763 1762 1762 1762 1763 1763 1763 1763 1763 1763 1770 1780 1787 1788 1790 1792 1794 1796 1797 1797 1797 1797 1797 1795 1794 1793 1790 1784 1779 1775 1770 1766 1759 1754 1751 1747 1744 1741 1737 1734 1731 1727 1724 1721 1720 1718 1717 1716 1716 1716 1716 1717 1720 1721 1721 1722 1725 1728 1731 1733 1734 1736 1739 1742 1745 1745 1745 1743 1743 1743 1747 1759 1794 1817 0 0 0 2037 2067 2068 2074 2076 2076 2076 0 0 0 0 0 0 0 0 0 0 0 0 0 0 0 0 0 0 2715 2828 2831 2889 2908 2929 2929 2929 2905 2901 2888 2855 2852 2848 2848 2848 2860 2911 2935 2939 2939 2939 2920 2920 2913 2909 2909 2830 2762 2706 2629 0 0 0 0 0 0 0 0 0 0 0 0 0 0 0 0 0 0 0 0 0 0 0 0 0 0 0 0 0 0 0 0 0 0 0 0 0 0 0 0
0 0 0 0 0 0 0 0 0 0 0 0 0 0 0 0 0 0 0 0 0 0 0 0 0 0 0 0 0 0 0 0 0 1904 1904 1907 1911 1928 1943 1965 1999 2038 2063 2065 2093 2107 2130 2137 2141 2142 2146 2151 2157 2162 2166 2166 2171 2175 2180 2182 2186 2193 2200 2202 2216 2223 2239 2253 2257 2257 2257 2257 2247 2246 2243 2243 2243 2250 2281 2309 2329 2331 2333 0 0 0 2529 2697 2893 3019 3024 3025 3033 3040 3040 3040 3054 3054 3064 3121 3143 3148 3173 3173 3173 3147 3133 3122 3115 3077 3077 3077 3110 3114 3216 3276 3502 3502 3502 3420 3346 3237 3032 2774 0 0 0 0 2948 3183 3247 3249 3249 3252 3268 3311 3338 3461 3520 3553 3553 3553 3538 3491 3345 3247 0 0 0 0 0 0 0 0 0 0 0 0 0 0 0 0 0 0 0 0 0 0 0 0 0 0 0 0 0 0 0 0 0 0 0 0 0 0 0 0 0 0 0 0 0 0 0 0 0 0 0 0 0 0 0 0 0 0 0 0 0 0 0 0 0 0 0 0 0 0 0 0 0 0 0 0 0 2760 2814 2866 2945 2992 3034 3069 3080 3117 3121 3138 3144 3270 3345 3345 3345 3322 3322 3319 3303 3303 3323 3323 3356 3362 3362 3362 3339 3339 3339 3406 3432 3432 3432 3437 3423 3423 3429 3437 3442 3442 3442 3391 3378 3346 3341 3340 3324 3285 3248 3210 3184 3172 3172 3172 3180 3180 3180 3158 3144 3140 3131 3113 3013 2959 2926 2916 2912 2907 2848 2763 2747 2726 2719 2708 2639 2638 2638 2638 2638 2638 2609 2546 0 0 0 0 0 0 0 0 0 0 0 0 0 0 1740 1720 1713 1710 1709 1709 1708 1708 1708 1708 1709 1709 1709 1708 1706 1706 1706 1707 1708 1709 1710 1710 1710 1711 1711 1712 1712 1713 1715 1715 1715 1716 1717 1718 1719 1719 1719 1720 1721 1721 1722 1722 1722 1722 1723 1723 1723 1723 1723 1723 1723 1721 1721 1721 1721 1721 1721 1723 1726 1729 1729 1730 1730 1730 1731 1731 1732 1732 1732 1736 1737 1739 1740 1741 1742 1743 1744 1745 1746 1747 1748 1749 1749 1749 1750 1750 1751 1751 1752 1752 1752 1752 1751 1751 1751 1751 1751 1754 1754 1754 1754 1754 1755 1757 1758 1758 1759 1760 1761 1762 1762 1762 1761 1761 1761 1758 1757 1755 1751 1748 1745 1744 1743 1743 1743 1743 1745 1749 1753 1755 1755 1757 1760 1762 1764 1767 1769 1770 1772 1774 1776 1777 1778 1778 1778 1774 1772 1769 1767 1766 1767 1767 1767 1767 1767 1767 1770 1772 1781 1788 1789 1792 1792 1794 1796 1797 1797 1797 1797 1796 1795 1793 1793 1790 1784 1779 1774 1770 1764 1759 1754 1751 1747 1744 1740 1736 1732 1730 1726 1722 1720 1717 1716 1715 1714 1713 1713 1713 1714 1717 1717 1719 1721 1724 1727 1729 1731 1733 1735 1737 1740 1742 1743 1743 1743 1743 1743 1744 1759 1805 1828 0 0 0 2038 2067 2068 2073 2074 2074 2073 0 0 0 0 0 0 0 0 0 0 0 0 0 0 0 0 2523 2716 2888 2891 2891 2915 2917 2917 2908 2908 2905 2901 2888 2870 2870 2870 2881 2885 2906 2911 2935 2939 2939 2939 2888 2885 2871 2871 2833 2761 2714 2685 2629 0 0 0 0 0 0 0 0 0 0 0 0 0 0 0 0 0 0 0 0 0 0 0 0 0 0 0 0 0 0 0 0 0 0 0 0 0 0 0 0
0 0 0 0 0 0 0 0 0 0 0 0 0 0 0 0 0 0 0 0 0 0 0 0 0 0 0 0 0 0 0 0 0 0 1898 1902 1904 1928 1960 2001 2031 2063 2067 2077 2093 2107 2130 2137 2141 2141 2142 2149 2153 2158 2163 2166 2171 2175 2179 2182 2186 2191 2198 2199 2216 2223 2235 2247 2247 2249 2247 2247 2246 2246 2243 2243 2243 2250 2281 2309 2320 2329 2331 2336 0 0 0 2544 2647 2844 2879 2879 2879 2838 2748 2674 2674 2674 2687 2839 3006 3095 3154 3154 3154 3138 3070 3055 3055 3055 3073 3077 3177 3182 3305 3406 3550 3550 3550 3492 3357 3237 3040 2774 0 0 0 2984 3220 3351 3358 3358 3358 3358 3358 3366 3410 3497 3535 3559 3559 3559 3538 3491 3345 3247 0 0 0 0 0 0 0 0 0 0 0 0 0 0 0 0 0 0 0 0 0 0 0 0 0 0 0 0 0 0 0 0 0 0 0 0 0 0 0 0 0 0 0 0 0 0 0 0 0 0 0 0 0 0 0 0 0 0 0 0 0 0 0 0 0 0 0 0 0 0 0 0 0 0 0 2773 2799 2810 2834 2879 2960 2996 3053 3131 3159 3197 3213 3215 3278 3347 3401 3406 3408 3408 3430 3435 3435 3435 3430 3420 3410 3403 3398 3394 3388 3388 3394 3414 3432 3448 3448 3448 3441 3437 3437 3437 3442 3442 3442 3391 3341 3330 3299 3299 3291 3285 3248 3210 3184 3169 3165 3165 3165 3148 3095 3072 3060 3047 3019 2949 2901 2864 2864 2849 2846 2841 2745 2745 2730 2726 2719 2719 2719 2736 2749 2766 2766 2766 2660 2557 0 0 0 0 0 0 0 0 0 0 0 0 0 0 0 0 0 1712 1710 1709 1708 1708 1708 1708 1709 1709 1709 1708 1706 1706 1706 1707 1708 1709 1710 1710 1711 1711 1711 1711 1712 1713 1714 1714 1715 1716 1716 1717 1718 1719 1719 1720 1721 1721 1721 1721 1722 1722 1723 1723 1723 1723 1723 1723 1723 1722 1722 1721 1721 1721 1722 1722 1724 1726 1727 1728 1728 1729 1731 1732 1732 1732 1736 1736 1738 1738 1740 1741 1742 1743 1744 1744 1746 1747 1747 1747 1748 1749 1750 1750 1750 1751 1751 1751 1751 1751 1750 1750 1751 1751 1751 1752 1752 1752 1753 1753 1753 1754 1755 1756 1757 1759 1760 1760 1760 1760 1760 1760 1758 1757 1757 1755 1751 1746 1744 1743 1743 1743 1743 1743 1745 1748 1752 1753 1754 1756 1760 1762 1764 1767 1769 1771 1773 1774 1776 1777 1778 1778 1778 1778 1778 1775 1775 1774 1772 1772 1772 1772 1774 1778 1780 1781 1786 1788 1791 1792 1793 1794 1796 1797 1797 1797 1797 1796 1795 1793 1793 1789 1783 1779 1774 1770 1764 1758 1754 1751 1748 1744 1739 1736 1732 1728 1724 1721 1718 1715 1714 1713 1712 1711 1711 1711 1713 1715 1716 1717 1719 1722 1725 1726 1728 1730 1733 1736 1737 1738 1738 1738 1738 1738 1738 1738 1759 1805 1837 0 0 2007 2038 2060 2061 2061 2063 2061 0 0 0 0 0 0 0 0 0 0 0 0 0 0 0 0 2571 2750 2876 2915 2917 2917 2917 2917 2917 2908 2908 2903 2886 2872 2872 2872 2899 2899 2904 2906 2911 2935 2939 2939 2939 2867 2822 2816 2813 2756 2729 2678 2613 0 0 0 0 0 0 0 0 0 0 0 0 0 0 0 0 0 0 0 0 0 0 0 0 0 0 0 0 0 0 0 0 0 0 0 0 0 0 0 0 0
0 0 0 0 0 0 0 0 0 0 0 0 0 0 0 0 0 0 0 0 0 0 0 0 0 0 0 0 0 0 0 0 0 0 0 0 0 1968 2006 2033 2072 2077 2079 2081 2095 2104 2106 2125 2137 2141 2142 2149 2153 2156 2159 2163 2169 2170 2176 2182 2186 2189 2195 2199 2210 2223 2227 2239 2239 2239 2241 2241 2243 2243 2243 2243 2243 2250 2281 2291 2304 2314 2315 2327 2363 0 0 0 2514 2648 2688 2688 2688 2633 2522 0 0 0 0 0 2611 2773 2933 3110 3110 3110 3068 3048 2971 2971 2971 3067 3177 3203 3305 3406 3550 3550 3550 3492 3370 3237 3043 2774 0 0 2624 2987 3293 3427 3427 3427 3401 3396 3396 3396 3429 3497 3535 3559 3559 3559 3538 3491 3345 3247 0 0 0 0 0 0 0 0 0 0 0 0 0 0 0 0 0 0 0 0 0 0 0 0 0 0 0 0 0 0 0 0 0 0 0 0 0 0 0 0 0 0 0 0 0 0 0 0 0 0 0 0 0 0 0 0 0 0 0 0 0 0 0 0 0 0 0 0 0 0 0 0 0 0 2872 2889 2894 2903 2907 2932 2960 3001 3122 3216 3275 3323 3356 3395 3429 3429 3429 3434 3434 3464 3464 3464 3461 3456 3454 3430 3411 3403 3402 3400 3402 3402 3418 3426 3432 3448 3462 3462 3462 3437 3437 3437 3442 3442 3442 3391 3341 3330 3299 3291 3288 3285 3268 3230 3215 3207 3197 3172 3159 3117 3065 3046 2998 2976 2939 2838 2788 2788 2788 2841 2841 2841 2745 2745 2745 2772 2783 2783 2783 2770 2766 2766 2766 2766 2689 2604 2538 0 0 2428 2414 2389 2360 0 0 0 0 0 0 0 0 0 0 0 0 1716 1710 1708 1708 1708 1712 1712 1712 1709 1706 1706 1706 1707 1707 1707 1709 1710 1711 1711 1711 1711 1712 1713 1714 1714 1715 1715 1716 1717 1718 1718 1719 1719 1719 1720 1720 1721 1722 1722 1722 1722 1723 1723 1723 1723 1723 1722 1722 1721 1721 1721 1722 1722 1723 1725 1725 1727 1728 1729 1730 1731 1731 1735 1736 1737 1737 1738 1740 1741 1742 1743 1743 1744 1746 1747 1747 1747 1748 1748 1749 1749 1750 1750 1750 1749 1749 1749 1750 1750 1750 1750 1750 1750 1750 1750 1750 1750 1752 1754 1754 1754 1755 1757 1758 1759 1759 1760 1760 1760 1758 1756 1755 1748 1746 1745 1744 1743 1743 1742 1742 1742 1745 1748 1750 1752 1754 1756 1760 1762 1764 1767 1770 1771 1774 1774 1776 1778 1779 1780 1781 1781 1781 1781 1780 1778 1778 1777 1777 1777 1778 1779 1782 1786 1788 1790 1792 1793 1794 1794 1796 1796 1797 1797 1797 1796 1796 1794 1793 1789 1782 1778 1774 1769 1763 1758 1755 1752 1748 1744 1739 1735 1731 1727 1724 1720 1717 1714 1712 1710 1710 1710 1710 1710 1711 1713 1714 1715 1718 1720 1722 1723 1724 1728 1730 1732 1733 1735 1735 1735 1735 1735 1737 1738 1756 1805 1837 0 0 2007 2037 2053 2061 2061 2061 2056 0 0 0 0 0 0 0 0 0 0 0 0 0 0 0 2601 2788 2901 2924 2924 2924 2915 2915 2915 2908 2908 2908 2893 2879 2879 2879 2886 2900 2900 2900 2906 2906 2931 2931 2931 2919 2847 2751 2733 2702 2692 2672 2640 0 0 0 0 0 0 0 0 0 0 0 0 0 0 0 0 0 0 0 0 0 0 0 0 0 0 0 0 0 0 0 0 0 0 0 0 0 0 0 0 0 0
0 0 0 0 0 0 0 0 0 0 0 0 0 0 0 0 0 0 0 0 0 0 0 0 0 0 0 0 0 0 0 0 0 0 0 0 0 0 2046 2073 2086 2086 2091 2091 2096 2104 2106 2125 2137 2141 2142 2149 2153 2156 2158 2163 2169 2169 2174 2181 2186 2189 2192 2198 2205 2212 2225 2227 2234 2236 2236 2236 2234 2231 2231 2231 2237 2242 2257 2273 2288 2299 2314 2327 2345 0 0 0 0 0 0 0 0 0 0 0 0 0 0 0 0 2561 2882 3040 3048 3048 3040 3016 2945 2945 2945 3060 3177 3203 3305 3406 3500 3500 3500 3492 3370 3237 3063 2789 2789 2789 2789 3152 3293 3427 3427 3427 3401 3396 3396 3396 3429 3497 3535 3535 3535 3512 3475 3395 3175 0 0 0 0 0 0 0 0 0 0 0 0 0 0 0 0 0 0 0 0 0 0 0 0 0 0 0 0 0 0 0 0 0 0 0 0 0 0 0 0 0 0 0 0 0 0 0 0 0 0 0 0 0 0 0 0 0 0 0 0 0 0 0 0 0 0 0 2568 2568 2571 2571 2615 2781 2895 2943 2985 3038 3173 3173 3173 3173 3173 3178 3261 3340 3373 3412 3438 3448 3448 3438 3437 3437 3437 3464 3471 3475 3475 3471 3458 3452 3416 3416 3413 3416 3416 3421 3427 3428 3432 3448 3468 3468 3468 3463 3456 3456 3453 3446 3446 3418 3381 3330 3299 3291 3289 3288 3270 3268 3256 3234 3198 3178 3159 3117 3065 3046 2998 2976 2939 2838 2788 2788 2788 2841 2841 2841 2762 2762 2762 2772 2783 2783 2783 2770 2766 2766 2766 2766 2713 2637 2563 0 2448 2429 2414 2389 2367 2336 2304 2293 2286 0 0 0 0 0 0 0 0 0 0 0 1708 1708 1713 1713 1713 1709 1706 1706 1706 1706 1706 1707 1707 1708 1710 1711 1711 1711 1711 1713 1714 1714 1715 1715 1716 1716 1717 1718 1718 1719 1719 1719 1720 1720 1721 1722 1722 1722 1723 1723 1723 1723 1723 1722 1722 1722 1722 1722 1722 1722 1723 1725 1725 1727 1728 1728 1729 1731 1732 1735 1736 1737 1737 1738 1740 1741 1741 1742 1743 1744 1746 1746 1747 1747 1748 1748 1748 1749 1749 1749 1748 1748 1748 1748 1748 1748 1748 1744 1743 1743 1743 1743 1743 1744 1745 1747 1749 1752 1755 1757 1757 1758 1759 1759 1759 1759 1758 1754 1751 1746 1745 1744 1744 1743 1743 1742 1742 1742 1745 1748 1750 1752 1754 1757 1760 1762 1762 1765 1769 1771 1774 1774 1776 1778 1779 1781 1782 1783 1783 1783 1783 1783 1783 1781 1781 1781 1781 1781 1784 1787 1789 1790 1792 1793 1794 1794 1796 1796 1797 1797 1797 1797 1796 1795 1793 1788 1782 1777 1774 1768 1763 1758 1755 1752 1748 1744 1739 1734 1730 1726 1722 1719 1716 1712 1710 1709 1709 1708 1708 1709 1710 1711 1713 1714 1717 1718 1719 1721 1723 1726 1728 1730 1732 1734 1734 1734 1734 1735 1736 1738 1752 1797 0 0 0 2007 2018 2045 2061 2061 2061 2055 0 0 0 0 0 0 0 0 0 0 0 0 0 2530 2718 2856 2901 2934 2934 2924 2924 2908 2888 2886 2877 2877 2877 2861 2863 2879 2879 2892 2898 2898 2898 2898 2898 2905 2906 2906 2906 2816 2706 2594 0 0 0 0 0 0 0 0 0 0 0 0 0 0 0 0 0 0 0 0 0 0 0 0 0 0 0 0 0 0 0 0 0 0 0 0 0 0 0 0 0 0 0 0 0 0
0 0 0 0 0 0 0 0 0 0 0 0 0 0 0 0 0 0 0 0 0 0 0 0 0 0 0 0 0 0 0 0 0 0 0 0 0 2068 2076 2080 2103 2103 2103 2103 2103 2104 2106 2125 2135 2140 2144 2150 2153 2156 2158 2163 2168 2169 2174 2181 2186 2189 2191 2197 2202 2210 2220 2223 2227 2229 2230 2230 2229 2229 2224 2224 2224 2233 2246 2260 2274 2275 2276 2284 2294 2298 0 0 0 0 0 0 0 0 2281 2287 2308 2308 2309 0 0 0 2631 2727 2790 2909 2909 2909 2909 2909 2939 2983 3156 3203 3274 3346 3462 3482 3482 3482 3362 3237 3112 2890 2789 2789 2789 3164 3301 3427 3427 3427 3401 3396 3396 3396 3429 3442 3442 3442 3385 3215 3111 2942 0 0 0 0 0 0 0 0 0 0 0 0 0 0 0 0 0 0 0 0 0 0 0 0 0 0 0 0 0 0 0 0 0 0 0 0 0 0 0 0 0 0 0 0 0 0 0 0 0 0 0 0 0 0 0 0 0 0 0 0 0 0 0 0 0 0 2601 2637 2637 2642 2647 2647 2702 2856 2964 3112 3163 3184 3283 3306 3312 3317 3327 3345 3426 3427 3432 3432 3438 3448 3448 3438 3438 3438 3438 3465 3472 3480 3480 3472 3466 3454 3435 3426 3417 3421 3426 3426 3434 3442 3444 3449 3468 3469 3469 3469 3470 3470 3467 3467 3452 3447 3440 3399 3365 3324 3308 3292 3282 3273 3266 3240 3228 3184 3159 3117 3065 3046 2998 2976 2939 2838 2788 2788 2788 2846 2846 2846 2817 2809 2809 2799 2799 2799 2783 2761 2759 2759 2759 2755 2747 2671 2577 0 2452 2430 2414 2389 2369 2344 2318 2301 2296 2286 2263 2232 0 0 0 0 0 0 0 0 0 0 1717 1716 1713 1709 1707 1707 1707 1707 1706 1706 1706 1706 1708 1711 1711 1711 1711 1712 1714 1714 1715 1715 1715 1716 1717 1718 1718 1719 1719 1719 1720 1720 1721 1721 1722 1722 1723 1723 1723 1723 1723 1723 1723 1723 1722 1723 1723 1723 1724 1725 1725 1727 1728 1728 1729 1731 1732 1735 1736 1737 1737 1738 1739 1741 1741 1742 1743 1744 1744 1745 1746 1746 1746 1747 1747 1747 1747 1747 1747 1746 1746 1746 1746 1745 1742 1739 1738 1738 1738 1740 1741 1742 1742 1743 1743 1748 1755 1756 1757 1757 1758 1759 1759 1759 1755 1751 1748 1746 1745 1744 1744 1743 1743 1743 1743 1743 1745 1748 1750 1752 1754 1757 1760 1761 1762 1765 1770 1772 1774 1775 1777 1778 1780 1781 1782 1783 1784 1785 1785 1785 1785 1784 1784 1784 1784 1784 1784 1787 1789 1790 1793 1793 1794 1795 1796 1796 1797 1797 1797 1797 1796 1795 1793 1788 1783 1777 1774 1768 1762 1758 1755 1752 1748 1744 1739 1734 1729 1726 1722 1718 1715 1711 1709 1708 1708 1707 1707 1708 1708 1711 1711 1713 1715 1717 1718 1720 1721 1723 1725 1728 1731 1732 1733 1733 1734 1734 1734 1735 1750 1786 0 0 0 2004 2004 2042 2063 2063 2063 2055 0 0 0 0 0 0 0 0 0 0 0 0 2581 2776 2897 2901 2916 2934 2934 2911 2911 2892 2876 2875 2875 2875 2879 2879 2879 2879 2879 2895 2896 2896 2896 2896 2896 2900 2900 2900 2826 2682 2509 0 0 0 0 0 0 0 0 0 0 0 0 0 0 0 0 0 0 0 0 0 0 0 0 0 0 0 0 0 0 0 0 0 0 0 0 0 0 0 0 0 0 0 0 0 0 0
0 0 0 0 0 0 0 0 0 0 0 0 0 0 0 0 0 0 0 0 0 0 0 0 0 0 0 0 0 0 0 0 0 0 0 0 2074 2076 2083 2104 2107 2107 2107 2107 2110 2114 2121 2129 2139 2146 2151 2152 2156 2158 2158 2163 2169 2170 2174 2181 2186 2186 2190 2196 2201 2209 2216 2216 2220 2225 2225 2225 2225 2221 2221 2221 2224 2226 2229 2233 2237 2238 2239 2242 2244 2245 2250 2266 2268 2269 2271 2274 2275 2275 2281 2286 2292 2294 2295 2312 0 0 0 2523 2559 2631 2681 2739 2799 2841 2898 2950 3038 3188 3248 3276 3424 3453 3453 3453 3357 3233 3134 2988 2789 2789 2789 3164 3293 3409 3409 3409 3359 3257 3209 3159 3155 3149 3061 2973 2910 2881 0 0 0 0 0 0 0 0 0 0 0 0 0 0 0 0 0 0 0 0 0 0 0 0 0 0 0 0 0 0 0 0 0 0 0 0 0 0 0 0 0 0 0 0 0 0 0 0 0 0 0 0 0 0 0 0 0 0 0 0 0 0 0 0 0 0 0 2606 2606 2660 2676 2696 2742 2750 2891 3028 3185 3292 3336 3345 3348 3348 3353 3359 3377 3410 3426 3427 3432 3432 3438 3438 3438 3434 3434 3434 3446 3465 3471 3480 3480 3471 3466 3454 3412 3403 3403 3403 3415 3421 3434 3442 3442 3442 3449 3460 3460 3467 3470 3470 3467 3467 3452 3447 3440 3416 3398 3352 3348 3347 3337 3332 3282 3263 3234 3234 3234 3215 3215 3211 3211 3211 3273 3286 3286 3286 3203 3190 3180 3111 2980 2868 2822 2810 2809 2799 2783 2761 2759 2759 2759 2755 2748 2677 2580 2498 2452 2431 2410 2380 2369 2346 2321 2310 2302 2296 2283 2265 2245 0 0 0 0 0 0 0 0 0 0 0 1713 1709 1708 1708 1707 1707 1706 1706 1705 1705 1705 1708 1710 1711 1711 1712 1714 1715 1715 1715 1715 1716 1717 1717 1718 1718 1718 1719 1719 1720 1721 1721 1722 1722 1722 1723 1723 1723 1723 1723 1723 1723 1723 1723 1723 1724 1725 1726 1727 1728 1728 1728 1729 1731 1733 1735 1736 1737 1737 1737 1739 1740 1741 1742 1743 1743 1744 1745 1745 1746 1746 1746 1747 1747 1747 1746 1746 1745 1745 1743 1741 1741 1738 1735 1734 1733 1733 1733 1733 1733 1737 1738 1739 1743 1749 1756 1756 1756 1757 1758 1758 1758 1755 1751 1748 1746 1744 1743 1743 1743 1743 1743 1743 1743 1744 1747 1750 1752 1754 1757 1760 1761 1762 1765 1770 1772 1775 1776 1777 1779 1780 1781 1783 1784 1784 1785 1786 1786 1786 1786 1786 1785 1785 1786 1787 1788 1789 1791 1793 1794 1794 1795 1796 1797 1798 1799 1799 1799 1799 1796 1793 1788 1783 1777 1774 1768 1762 1758 1755 1752 1748 1744 1739 1734 1729 1725 1721 1717 1713 1710 1708 1707 1707 1707 1706 1706 1706 1708 1710 1711 1713 1715 1716 1718 1719 1721 1724 1726 1728 1731 1731 1731 1731 1731 1731 1733 1750 1781 0 0 1956 1995 2004 2041 2064 2064 2064 2055 0 0 0 0 0 0 0 0 0 0 0 2628 2771 2895 2901 2901 2901 2896 2896 2891 2887 2883 2861 2858 2858 2858 2879 2879 2879 2879 2879 2898 2898 2898 2889 2862 2859 2833 2827 2756 2707 2504 0 0 0 0 0 0 0 0 0 0 0 0 0 0 0 0 0 0 0 0 0 0 0 0 0 0 0 0 0 0 0 0 0 0 0 0 0 0 0 0 0 0 0 0 0 0 0 0
0 0 0 0 0 0 0 0 0 0 0 0 0 0 0 0 0 0 0 0 0 0 0 0 0 0 0 0 0 0 0 0 0 0 0 2071 2074 2076 2091 2105 2108 2110 2110 2110 2113 2121 2125 2130 2139 2146 2151 2152 2156 2158 2158 2163 2169 2169 2173 2177 2180 2186 2187 2193 2200 2204 2204 2204 2210 2210 2207 2210 2211 2213 2216 2217 2219 2222 2224 2228 2230 2232 2237 2241 2242 2243 2247 2249 2252 2256 2263 2268 2275 2275 2281 2286 2287 2291 2294 2294 2315 0 0 2447 2475 2503 2533 2553 2583 2615 2711 2845 2962 3055 3118 3121 3285 3357 3357 3357 3328 3233 3134 2988 2802 2802 2802 3164 3274 3356 3356 3356 3356 2883 2880 2797 2744 2744 2744 2853 0 0 0 0 2739 0 0 0 0 0 0 0 0 0 0 0 0 0 0 0 0 0 0 0 0 0 0 0 0 0 0 0 0 0 0 0 0 0 0 0 0 0 0 0 0 0 0 0 0 0 0 0 0 0 0 0 0 0 0 0 0 0 0 0 0 0 0 2719 2742 2742 2742 2760 2760 2851 2957 3044 3186 3251 3298 3320 3336 3345 3354 3362 3382 3394 3397 3410 3426 3427 3432 3432 3432 3432 3429 3426 3426 3426 3446 3464 3464 3464 3459 3456 3454 3454 3412 3403 3403 3403 3415 3421 3427 3434 3438 3440 3442 3449 3452 3459 3467 3470 3484 3484 3484 3447 3440 3416 3398 3352 3348 3347 3337 3345 3332 3325 3302 3265 3255 3245 3235 3211 3211 3211 3273 3312 3344 3348 3348 3348 3319 3272 3225 3152 3101 2948 2810 2799 2784 2763 2759 2759 2759 2755 2748 2689 2621 2537 2470 2435 2410 2376 2369 2346 2332 2316 2310 2306 2300 2282 2261 2246 2237 2229 0 0 0 0 0 0 0 0 0 0 1709 1709 1708 1708 1708 1708 1705 1705 1705 1708 1709 1710 1711 1713 1714 1715 1715 1716 1716 1716 1717 1717 1718 1718 1718 1718 1719 1720 1720 1721 1722 1722 1722 1723 1723 1723 1723 1723 1723 1723 1723 1723 1724 1725 1725 1726 1727 1728 1729 1729 1731 1732 1733 1734 1736 1736 1736 1737 1738 1740 1741 1742 1742 1743 1744 1744 1744 1745 1745 1745 1745 1745 1745 1744 1744 1744 1743 1742 1738 1737 1734 1733 1730 1730 1730 1732 1733 1733 1734 1736 1738 1742 1746 1750 1754 1755 1756 1757 1757 1757 1756 1751 1748 1746 1744 1743 1743 1743 1743 1743 1743 1744 1744 1745 1750 1752 1754 1757 1759 1762 1762 1768 1770 1772 1776 1776 1777 1779 1781 1782 1784 1785 1785 1786 1787 1787 1787 1787 1788 1788 1788 1788 1789 1789 1790 1791 1793 1794 1795 1796 1797 1797 1798 1800 1800 1800 1800 1799 1793 1788 1786 1781 1775 1769 1762 1758 1755 1752 1747 1743 1738 1733 1729 1724 1719 1715 1711 1709 1708 1707 1706 1706 1706 1706 1706 1708 1709 1710 1712 1714 1715 1716 1718 1721 1722 1724 1726 1727 1727 1728 1728 1728 1729 1730 1743 1781 0 0 1943 1968 2004 2036 2064 2066 2066 2066 0 0 0 0 0 0 0 0 0 0 2645 2818 2896 2904 2904 2896 2865 2863 2863 2863 2861 2861 2861 2858 2858 2858 2903 2909 2909 2909 2910 2910 2903 2897 2889 2853 2766 2674 2669 2622 0 0 0 0 0 0 0 0 0 0 0 0 0 0 0 0 0 0 0 0 0 0 0 0 0 0 0 0 0 0 0 0 0 0 0 0 0 0 0 0 0 0 0 0 0 0 0 0 0 0
0 0 0 0 0 0 0 0 0 0 0 0 0 0 0 0 0 0 0 0 0 0 0 0 0 0 0 0 0 0 0 0 0 0 2062 2071 2072 2074 2094 2108 2109 2111 2111 2119 2122 2123 2125 2130 2135 2146 2150 2152 2156 2157 2158 2161 2167 2169 2173 2173 2174 2174 2182 2189 2193 2193 2193 2193 2193 2195 2196 2202 2207 2213 2213 2214 2216 2222 2223 2224 2227 2229 2234 2238 2241 2241 2247 2249 2252 2256 2263 2266 2274 2280 2282 2286 2287 2287 2294 2294 2315 2369 2420 2439 2460 2475 2489 2499 2505 2512 2558 2636 2683 2788 2909 3076 3081 3226 3229 3229 3226 3193 3134 2988 2802 2802 2802 2942 3250 3250 3250 3112 2989 2880 0 0 0 0 2744 2853 0 2877 2877 2877 2852 2824 0 0 0 0 0 0 0 0 0 0 0 0 0 0 0 0 0 0 0 0 0 0 0 0 0 0 0 0 0 0 0 0 0 0 0 0 0 0 0 0 0 0 0 0 0 0 0 0 0 0 0 0 0 0 0 0 0 0 0 0 2710 2814 2838 2852 2872 2921 2990 3145 3229 3290 3309 3313 3320 3320 3336 3345 3354 3363 3382 3394 3397 3410 3416 3417 3419 3426 3426 3426 3424 3424 3424 3425 3446 3455 3455 3455 3416 3390 3390 3390 3390 3390 3390 3379 3375 3375 3375 3375 3397 3415 3415 3415 3413 3411 3411 3411 3411 3411 3411 3416 3398 3389 3389 3352 3348 3347 3337 3345 3332 3325 3302 3265 3255 3245 3235 3211 3211 3211 3273 3312 3344 3365 3365 3365 3322 3297 3297 3296 3296 3225 3070 3033 2928 2837 2791 2791 2788 2782 2748 2711 2653 2569 2494 2436 2410 2375 2365 2345 2332 2325 2319 2317 2316 2305 2282 2263 2258 2254 2249 0 0 0 0 0 0 0 0 0 0 0 1713 1711 1711 1709 1705 1705 1705 1708 1709 1710 1711 1713 1713 1715 1716 1716 1716 1716 1717 1717 1718 1718 1718 1718 1719 1719 1720 1721 1722 1722 1722 1723 1723 1723 1723 1724 1724 1724 1724 1724 1725 1725 1726 1727 1727 1728 1729 1729 1731 1732 1733 1734 1735 1736 1736 1737 1738 1739 1741 1741 1742 1742 1743 1744 1744 1744 1744 1744 1744 1744 1744 1743 1741 1741 1741 1736 1735 1734 1733 1729 1729 1729 1730 1732 1733 1733 1734 1736 1738 1740 1745 1748 1751 1751 1754 1757 1757 1757 1757 1752 1748 1747 1744 1743 1743 1743 1743 1743 1744 1744 1744 1745 1748 1752 1753 1757 1759 1763 1767 1770 1772 1774 1776 1776 1778 1780 1781 1782 1784 1785 1786 1786 1787 1787 1788 1788 1789 1789 1789 1790 1790 1790 1791 1792 1793 1794 1796 1796 1797 1797 1799 1800 1800 1800 1800 1799 1799 1797 1791 1785 1777 1772 1767 1758 1755 1752 1747 1742 1738 1732 1728 1722 1717 1713 1709 1707 1706 1706 1705 1705 1704 1704 1704 1706 1708 1709 1710 1711 1714 1715 1717 1720 1721 1722 1723 1724 1724 1724 1726 1725 1727 1728 1737 1781 0 0 1943 1962 2006 2036 2064 2075 2075 2075 0 0 0 0 0 0 0 0 0 2698 2860 2909 2913 2922 2913 2909 2865 2863 2863 2863 2861 2861 2861 2858 2858 2858 2909 2934 2947 2947 2934 2912 2894 2894 2859 2686 2628 2622 0 0 0 0 0 0 0 0 0 0 0 0 0 0 0 0 0 0 0 0 0 0 0 0 0 0 0 0 0 0 0 0 0 0 0 0 0 0 0 0 0 0 0 0 0 0 0 0 0 0 0 0
0 0 0 0 0 0 0 0 0 0 0 0 0 0 0 0 0 0 0 0 0 0 0 0 0 0 0 0 0 0 0 0 0 0 2043 2046 2050 2072 2094 2107 2109 2110 2111 2119 2122 2123 2125 2129 2132 2140 2148 2152 2155 2157 2157 2159 2163 2164 2164 2164 2164 2166 2167 2180 2181 2184 2187 2188 2189 2191 2194 2200 2207 2212 2213 2214 2216 2219 2222 2223 2224 2227 2234 2238 2241 2242 2247 2249 2252 2256 2263 2266 2275 2281 2283 2286 2286 2287 2294 2304 2315 2369 2418 2436 2459 2472 2487 2487 2498 2507 2516 2527 2544 2598 2705 2815 2820 2984 3019 3079 3079 3079 3034 2977 2802 2634 2634 2634 2726 2726 2726 2586 0 0 0 0 0 0 2744 2853 2877 2899 2899 2877 2852 2824 2632 0 0 0 0 0 0 0 0 0 0 0 0 0 0 0 0 0 0 0 0 0 0 0 0 0 0 0 0 0 0 0 0 0 0 0 0 0 0 0 0 0 0 0 0 0 0 0 0 0 0 0 0 0 0 2593 2599 2622 2625 0 2749 2826 2899 2959 3075 3106 3184 3252 3288 3302 3316 3316 3320 3326 3334 3341 3354 3363 3382 3394 3396 3397 3398 3399 3403 3404 3404 3404 3404 3404 3404 3410 3410 3410 3339 3307 3304 3289 3289 3289 3283 3275 3275 3275 3279 3281 3281 3281 3270 3270 3270 3306 3306 3306 3288 3288 3288 3339 3339 3339 3241 3209 3209 3203 3203 3221 3225 3258 3302 3302 3302 3265 3248 3245 3235 3204 3204 3204 3211 3312 3344 3365 3365 3365 3326 3300 3300 3299 3296 3294 3274 3253 3240 3140 3037 2923 2856 2826 2748 2743 2676 2593 2503 2459 2408 2369 2358 2346 2332 2327 2326 2326 2325 2314 2298 2280 2273 2266 2262 2255 2239 0 0 0 0 0 0 0 0 0 0 0 1714 1712 1710 1708 1707 1707 1708 1710 1712 1713 1713 1713 1716 1717 1717 1717 1717 1718 1718 1718 1718 1718 1719 1719 1720 1721 1722 1722 1722 1723 1723 1723 1723 1724 1724 1724 1724 1724 1725 1725 1726 1727 1727 1728 1729 1729 1731 1732 1733 1734 1735 1735 1736 1737 1738 1739 1741 1741 1742 1742 1743 1743 1743 1743 1744 1744 1744 1744 1743 1743 1741 1737 1736 1736 1735 1734 1731 1729 1729 1729 1730 1732 1733 1734 1735 1736 1736 1740 1741 1745 1748 1751 1754 1756 1757 1757 1757 1756 1756 1752 1749 1743 1743 1743 1744 1744 1744 1745 1745 1745 1746 1748 1751 1757 1759 1764 1767 1771 1772 1774 1776 1777 1779 1781 1781 1783 1784 1785 1786 1786 1787 1788 1788 1788 1789 1789 1789 1790 1791 1792 1793 1793 1793 1795 1796 1797 1798 1799 1800 1800 1801 1802 1803 1808 1808 1808 1798 1787 1780 1776 1770 1764 1755 1751 1747 1742 1737 1731 1727 1720 1715 1711 1709 1706 1705 1705 1704 1703 1703 1703 1704 1705 1708 1708 1708 1708 1711 1713 1716 1717 1720 1721 1722 1722 1722 1723 1723 1724 1724 1727 1734 1783 0 0 1925 1961 2006 2033 2049 2077 2077 2077 0 0 0 0 0 0 0 0 2581 2805 2919 2919 2919 2916 2901 2896 2863 2863 2863 2863 2869 2887 2887 2888 2890 2890 2949 2949 2949 2947 2934 2912 2891 2787 2617 2580 0 0 0 0 0 0 0 0 0 0 0 0 0 0 0 0 0 0 0 0 0 0 0 0 0 0 0 0 0 0 0 0 0 0 0 0 0 0 0 0 0 0 0 0 0 0 0 0 0 0 0 0 0 0
0 0 0 0 0 0 0 0 0 0 0 0 0 0 0 0 0 0 0 0 0 0 0 0 0 0 0 0 0 0 0 0 0 0 2006 2037 2046 2072 2094 2107 2108 2109 2111 2120 2122 2123 2124 2127 2131 2137 2148 2152 2154 2154 2155 2155 2156 2160 2164 2164 2164 2165 2165 2168 2176 2181 2182 2183 2186 2189 2192 2199 2206 2212 2213 2214 2216 2218 2221 2222 2223 2227 2232 2234 2241 2241 2244 2251 2255 2257 2266 2266 2275 2281 2283 2285 2286 2287 2299 2311 2325 2368 2407 2434 2450 2471 2478 2479 2496 2507 2515 2526 2530 2530 2540 2615 2617 2686 2714 2723 2782 2793 2793 2793 2647 0 0 0 0 0 0 0 0 0 0 0 0 2713 2847 2909 2909 2910 2910 2881 2852 2824 2632 2544 0 0 0 0 0 0 0 0 0 0 0 0 0 0 0 0 0 0 0 0 0 0 0 0 0 0 0 0 0 0 0 0 0 0 0 0 0 0 0 0 0 0 0 0 0 0 0 0 0 0 0 0 2634 2644 2652 2701 2716 2756 2867 2966 3052 3184 3231 3252 3267 3268 3288 3302 3321 3326 3334 3335 3335 3335 3353 3362 3377 3377 3377 3354 3345 3343 3343 3341 3341 3322 3255 3255 3255 3278 3282 3282 3282 3282 3283 3289 3289 3289 3283 3269 3269 3269 3279 3279 3279 3261 3261 3261 3265 3265 3265 3257 3199 3177 3177 3174 3071 3052 2945 2945 2945 2980 3044 3081 3082 3084 3163 3199 3200 3218 3218 3218 3218 3166 3149 3149 3149 3240 3327 3365 3365 3365 3326 3312 3302 3299 3297 3297 3275 3253 3240 3213 3208 3192 3121 2998 2874 2811 2724 2603 2516 2461 2412 2369 2356 2347 2332 2327 2327 2326 2326 2314 2300 2285 2279 2275 2266 2258 2248 2231 2210 0 0 0 0 0 0 0 0 0 0 0 1725 1712 1711 1711 1711 1711 1712 1713 1713 1713 1715 1717 1717 1717 1717 1718 1718 1718 1718 1718 1719 1719 1720 1721 1721 1722 1722 1723 1723 1723 1723 1723 1724 1724 1724 1724 1725 1726 1726 1727 1727 1728 1729 1729 1731 1732 1732 1734 1735 1735 1736 1737 1738 1739 1740 1741 1741 1742 1742 1742 1743 1743 1743 1743 1743 1743 1743 1742 1740 1737 1736 1736 1735 1732 1726 1726 1726 1729 1729 1732 1734 1734 1735 1736 1736 1738 1741 1745 1748 1751 1754 1756 1757 1757 1757 1757 1757 1757 1756 1752 1747 1745 1745 1745 1747 1747 1747 1747 1747 1748 1751 1757 1760 1765 1769 1771 1773 1775 1777 1778 1779 1781 1782 1783 1784 1785 1785 1787 1787 1788 1788 1789 1789 1789 1790 1790 1792 1792 1793 1794 1794 1795 1796 1797 1799 1800 1801 1802 1803 1804 1804 1813 1813 1813 1808 1795 1783 1777 1770 1765 1756 1751 1746 1741 1735 1731 1724 1717 1713 1710 1708 1706 1705 1704 1703 1701 1701 1701 1703 1704 1706 1707 1708 1708 1709 1711 1713 1716 1718 1719 1720 1722 1722 1722 1723 1723 1724 1726 1734 1783 0 0 1913 1961 2006 2033 2049 2077 2077 2077 2074 0 0 0 0 0 0 2529 2651 2858 2919 2919 2919 2901 2896 2888 2863 2863 2863 2863 2869 2887 2901 2925 2931 2937 2949 2949 2949 2947 2934 2824 2722 2588 2530 0 0 0 0 0 0 0 0 0 0 0 0 0 0 0 0 0 0 0 0 0 0 0 0 0 0 0 0 0 0 0 0 0 0 0 0 0 0 0 0 0 0 0 0 0 0 0 0 0 0 0 0 0 0 0
0 0 0 0 0 0 0 0 0 0 0 0 0 0 0 0 0 0 0 0 0 0 0 0 0 0 0 0 0 0 0 0 0 0 2006 2037 2046 2072 2094 2107 2108 2111 2111 2119 2119 2120 2124 2127 2131 2137 2142 2145 2145 2146 2148 2152 2155 2157 2162 2162 2163 2164 2164 2167 2174 2177 2179 2181 2185 2187 2192 2199 2204 2208 2210 2211 2213 2216 2219 2221 2223 2226 2229 2233 2238 2241 2244 2251 2258 2262 2266 2267 2275 2280 2282 2283 2285 2287 2300 2311 2325 2368 2407 2420 2443 2459 2466 2474 2491 2507 2515 2520 2524 2526 2528 2528 2553 2554 2570 2576 2587 2635 2635 2635 0 0 0 0 0 0 0 0 0 0 0 0 2563 2713 2883 2928 2928 2928 2915 2897 2820 2747 2632 2544 0 0 0 0 0 0 0 0 0 0 0 0 0 0 0 0 0 0 0 0 0 0 0 0 0 0 0 0 0 0 0 0 0 0 0 0 0 0 0 0 0 0 0 0 0 0 0 0 0 0 0 0 2674 2698 2748 2873 2940 2981 3045 3062 3070 3184 3231 3252 3268 3273 3288 3304 3321 3322 3322 3322 3322 3322 3331 3349 3349 3349 3315 3276 3253 3234 3234 3234 3247 3247 3252 3252 3252 3259 3274 3281 3281 3281 3283 3289 3289 3289 3283 3269 3269 3269 3258 3259 3259 3258 3258 3259 3258 3242 3147 3044 3004 3001 3001 2997 2994 2991 2945 2945 2945 2980 3044 3081 3081 3081 3081 3081 3094 3118 3118 3118 3064 3033 3033 3033 3069 3117 3281 3336 3336 3336 3326 3300 3300 3299 3297 3297 3275 3253 3240 3213 3208 3192 3152 3123 3053 2988 2840 2649 2539 2468 2413 2369 2356 2347 2335 2327 2327 2326 2326 2314 2300 2291 2284 2280 2270 2260 2250 2238 2222 2216 2204 2190 0 0 0 0 0 0 0 0 0 0 1727 1716 1713 1713 1713 1713 1715 1716 1716 1716 1717 1717 1717 1718 1718 1718 1718 1718 1718 1719 1720 1720 1721 1722 1722 1723 1723 1723 1723 1724 1724 1724 1724 1724 1725 1726 1726 1727 1727 1728 1729 1729 1731 1732 1732 1734 1734 1735 1736 1737 1738 1739 1740 1741 1741 1742 1742 1742 1742 1743 1743 1743 1743 1743 1742 1742 1740 1736 1736 1735 1733 1729 1725 1725 1725 1728 1729 1732 1734 1734 1735 1736 1736 1738 1741 1744 1747 1751 1756 1756 1757 1757 1758 1758 1758 1757 1756 1755 1752 1749 1749 1749 1749 1749 1749 1749 1749 1749 1751 1757 1763 1768 1770 1771 1774 1775 1777 1778 1779 1781 1782 1783 1784 1784 1785 1787 1787 1788 1788 1789 1789 1789 1790 1791 1792 1792 1793 1794 1795 1795 1797 1798 1800 1800 1801 1803 1804 1806 1811 1818 1818 1818 1818 1803 1787 1777 1770 1765 1756 1749 1743 1738 1733 1729 1723 1716 1712 1710 1707 1706 1704 1703 1701 1701 1701 1701 1702 1704 1705 1706 1707 1707 1708 1708 1712 1713 1716 1717 1719 1721 1722 1722 1723 1723 1723 1724 1734 1783 1824 0 0 1954 1998 2033 2049 2077 2078 2078 2078 2074 0 0 0 0 0 2737 2872 2875 2919 2919 2919 2896 2888 2867 2865 2863 2863 2863 2869 2887 2901 2925 2931 2933 2931 2933 2933 2893 2825 2670 0 0 0 0 0 0 0 0 0 0 0 0 0 0 0 0 0 0 0 0 0 0 0 0 0 0 0 0 0 0 0 0 0 0 0 0 0 0 0 0 0 0 0 0 0 0 0 0 0 0 0 0 0 0 0 0 0 0
0 0 0 0 0 0 0 0 0 0 0 0 0 0 0 0 0 0 0 0 0 0 0 0 0 0 0 0 0 0 0 0 0 0 2006 2037 2067 2075 2094 2103 2104 2111 2112 2117 2118 2120 2122 2126 2131 2136 2140 2140 2143 2144 2145 2148 2153 2156 2161 2162 2163 2164 2164 2167 2171 2175 2177 2180 2182 2184 2189 2195 2202 2206 2209 2210 2213 2215 2218 2221 2224 2226 2229 2233 2237 2241 2244 2252 2260 2262 2266 2267 2273 2279 2280 2281 2282 2291 2301 2311 2325 2352 2386 2414 2435 2440 2450 2457 2491 2507 2507 2507 2512 2512 2512 2525 2533 2535 2535 2535 2527 2505 2482 0 0 0 2419 2386 0 0 0 0 0 0 0 2582 2679 2789 2883 2928 2928 2928 2891 2881 2748 2668 2610 2549 0 0 0 0 0 0 0 0 0 0 0 0 0 0 0 0 0 0 0 0 0 0 0 0 0 0 0 0 0 0 0 0 0 0 0 0 0 0 0 0 0 0 0 0 0 0 0 0 0 0 0 0 2725 2762 2869 2988 2993 3014 3045 3062 3070 3184 3231 3252 3268 3280 3293 3302 3316 3322 3322 3322 3313 3305 3304 3302 3301 3301 3282 3276 3253 3234 3234 3234 3247 3247 3247 3234 3234 3234 3245 3247 3255 3279 3305 3311 3311 3311 3288 3269 3269 3269 3258 3259 3259 3258 3196 3153 3101 2983 2907 2907 2907 2972 2994 2994 2994 2991 2945 2945 2945 2980 3044 3081 3081 3081 3081 3081 3081 3082 3082 3082 3055 3027 3027 3027 3052 3115 3130 3204 3218 3247 3296 3296 3297 3297 3296 3294 3274 3243 3223 3213 3208 3192 3152 3126 3058 3008 2917 2730 2570 0 2414 2375 2356 2347 2336 2327 2326 2323 2318 2310 2300 2294 2290 2288 2282 2269 2254 2243 2236 2228 2223 2212 2204 2191 0 0 0 0 0 0 0 0 0 0 1713 1713 1713 1715 1715 1715 1715 1715 1717 1717 1717 1718 1718 1718 1718 1718 1718 1719 1720 1720 1721 1722 1722 1723 1723 1723 1723 1723 1724 1724 1724 1725 1725 1726 1726 1727 1728 1728 1729 1730 1731 1731 1732 1734 1734 1735 1736 1737 1738 1739 1739 1741 1741 1741 1742 1742 1742 1742 1742 1743 1743 1742 1742 1741 1738 1735 1735 1734 1732 1729 1724 1724 1724 1724 1729 1732 1734 1735 1735 1735 1736 1738 1742 1745 1747 1751 1756 1756 1756 1757 1758 1758 1758 1757 1757 1756 1755 1753 1753 1753 1753 1753 1752 1751 1751 1751 1756 1760 1763 1768 1771 1772 1775 1775 1777 1778 1779 1781 1782 1783 1784 1784 1785 1786 1787 1788 1788 1789 1789 1789 1790 1791 1792 1792 1793 1794 1795 1796 1797 1798 1800 1800 1801 1804 1812 1817 1821 1831 1831 1831 1818 1804 1788 1777 1768 1765 1756 1747 1741 1736 1732 1726 1721 1716 1711 1709 1706 1705 1704 1702 1701 1701 1701 1701 1702 1703 1704 1706 1706 1706 1707 1708 1710 1712 1714 1716 1719 1720 1722 1722 1722 1722 1723 1724 1732 1776 1805 0 0 1952 1988 2045 2059 2082 2082 2082 2078 2078 0 0 0 0 2548 2819 2872 2875 2905 2905 2905 2889 2886 2870 2867 2865 2857 2857 2857 2870 2901 2925 2925 2931 2925 2916 2891 2747 2641 0 0 0 0 0 0 0 0 0 0 0 0 0 0 0 0 0 0 0 0 0 0 0 0 0 0 0 0 0 0 0 0 0 0 0 0 0 0 0 0 0 0 0 0 0 0 0 0 0 0 0 0 0 0 0 0 0 0 0
0 0 0 0 0 0 0 0 0 0 0 0 0 0 0 0 0 0 0 0 0 0 0 0 0 0 0 0 0 0 0 0 0 0 2016 2043 2070 2078 2093 2098 2103 2108 2112 2115 2117 2119 2122 2126 2131 2136 2136 2138 2141 2142 2145 2148 2150 2153 2157 2161 2161 2163 2164 2166 2170 2173 2176 2178 2182 2184 2187 2191 2198 2204 2208 2209 2210 2213 2216 2221 2224 2226 2229 2233 2235 2238 2244 2253 2260 2263 2264 2267 2272 2275 2277 2278 2279 2287 2301 2306 2320 2328 2385 2406 2435 2435 2450 2457 2491 2507 2507 2507 2507 2507 2507 2507 2515 2516 2517 2516 2516 2504 2480 2473 2468 2473 2480 2502 2502 2510 2510 0 0 0 0 2582 2711 2789 2883 2928 2928 2928 2881 2794 2686 2637 2609 2544 0 0 0 0 0 0 0 0 0 0 0 0 0 0 0 0 0 0 0 0 0 0 0 0 0 0 0 0 0 0 0 0 0 0 0 0 0 0 0 0 0 0 0 0 0 0 0 0 0 0 0 2700 2759 2859 2995 2995 3001 3014 3045 3070 3104 3137 3140 3198 3255 3273 3283 3299 3316 3322 3322 3322 3292 3266 3264 3264 3266 3275 3275 3275 3253 3234 3234 3234 3251 3251 3251 3232 3231 3231 3232 3243 3246 3279 3305 3311 3311 3311 3288 3269 3269 3269 3257 3257 3196 3056 2954 2855 2796 2796 2796 2811 2894 2968 2994 2994 2997 3001 3010 3026 3048 3052 3088 3088 3088 3088 3076 3076 3076 3081 3081 3081 3033 3016 3016 3016 3052 3115 3130 3148 3154 3170 3176 3182 3189 3241 3264 3264 3264 3225 3214 3209 3191 3178 3152 3132 3080 3027 2920 2771 2619 0 0 2379 2361 2347 2338 2326 2325 2317 2312 2309 2300 2295 2291 2289 2284 2277 2262 2252 2245 2239 2230 2223 2219 2214 2204 2190 0 0 0 0 0 0 0 0 0 0 1720 1719 1719 1715 1715 1715 1715 1716 1717 1718 1718 1718 1718 1718 1718 1719 1720 1720 1721 1722 1722 1723 1723 1723 1723 1723 1724 1724 1724 1725 1726 1726 1726 1727 1728 1728 1729 1730 1731 1731 1732 1733 1734 1734 1736 1737 1737 1739 1739 1740 1740 1740 1741 1741 1742 1742 1742 1742 1742 1742 1741 1741 1738 1736 1735 1734 1732 1729 1724 1724 1724 1724 1728 1732 1734 1735 1735 1735 1737 1740 1744 1746 1748 1751 1756 1756 1757 1757 1758 1758 1758 1758 1758 1758 1758 1757 1757 1755 1754 1754 1753 1754 1754 1755 1759 1762 1765 1769 1772 1773 1775 1775 1777 1778 1779 1780 1781 1783 1783 1784 1785 1786 1787 1788 1788 1789 1789 1789 1790 1791 1792 1792 1793 1794 1795 1796 1797 1798 1799 1800 1802 1805 1814 1822 1826 1831 1831 1831 1818 1804 1788 1776 1766 1760 1756 1745 1736 1733 1728 1724 1719 1715 1711 1707 1705 1704 1704 1702 1701 1701 1701 1701 1702 1702 1703 1704 1705 1706 1706 1708 1709 1711 1712 1715 1717 1720 1721 1722 1722 1722 1722 1722 1727 1763 1777 0 0 1952 1988 2045 2059 2083 2083 2083 2089 2089 0 0 0 2568 2790 2844 2873 2875 2877 2882 2882 2882 2875 2870 2867 2865 2857 2857 2857 2870 2872 2872 2874 2872 2862 2861 2754 2634 0 0 0 0 0 0 0 0 0 0 0 0 0 0 0 0 0 0 0 0 0 0 0 0 0 0 0 0 0 0 0 0 0 0 0 0 0 0 0 0 0 0 0 0 0 0 0 0 0 0 0 0 0 0 0 0 0 0 0 0
0 0 0 0 0 0 0 0 0 0 0 0 0 0 0 0 0 0 0 0 0 0 0 0 0 0 0 0 0 0 1894 1905 1925 1974 2027 2047 2073 2079 2092 2094 2101 2108 2112 2115 2117 2119 2122 2126 2131 2133 2135 2137 2141 2142 2145 2148 2150 2152 2156 2158 2159 2160 2162 2164 2168 2172 2175 2178 2182 2184 2187 2191 2196 2202 2206 2208 2209 2210 2215 2219 2223 2227 2230 2233 2235 2237 2244 2253 2260 2262 2263 2264 2267 2268 2269 2273 2279 2287 2288 2295 2300 2327 2378 2404 2433 2435 2450 2457 2509 2516 2516 2516 2507 2507 2507 2507 2510 2511 2511 2511 2510 2498 2495 2490 2487 2490 2495 2506 2529 2539 2542 2542 2539 2542 2542 2582 2711 2789 2883 2902 2902 2902 2820 2693 2640 2611 2581 2544 0 0 0 0 0 0 0 0 0 0 0 0 0 0 0 0 0 0 0 2520 2542 2545 2549 2582 2596 2596 2596 0 0 0 0 0 0 0 0 0 0 2517 2520 2520 0 0 0 0 0 0 0 0 0 0 0 2759 2841 2974 2995 2995 3001 3001 3014 3038 3071 3097 3110 3192 3250 3267 3268 3268 3268 3247 3246 3233 3233 3233 3252 3253 3262 3266 3280 3280 3280 3259 3259 3259 3259 3259 3253 3231 3228 3224 3224 3224 3243 3279 3305 3311 3311 3311 3288 3269 3179 3096 3019 2965 2889 2771 2689 0 0 0 0 2808 2894 2962 2993 2994 3015 3047 3075 3106 3114 3124 3143 3151 3151 3151 3116 3088 3087 3081 3059 3012 3006 3006 3006 3024 3052 3115 3130 3148 3148 3148 3094 3094 3094 3151 3200 3223 3223 3223 3208 3208 3190 3153 3145 3132 3091 3047 2948 2821 2646 2525 0 2394 2369 2347 2338 2330 2325 2317 2312 2309 2300 2296 2293 2289 2284 2278 2268 2258 2253 2250 2239 2234 2229 2222 2215 2209 2199 2180 0 0 0 0 0 0 0 0 0 0 1724 1715 1715 1715 1715 1715 1716 1717 1717 1717 1717 1717 1718 1719 1720 1720 1722 1722 1722 1723 1723 1723 1723 1724 1724 1724 1725 1725 1726 1726 1726 1727 1728 1728 1729 1730 1731 1731 1732 1733 1734 1734 1736 1737 1737 1738 1738 1739 1739 1739 1740 1741 1741 1741 1741 1741 1741 1741 1741 1741 1738 1736 1735 1734 1732 1729 1725 1724 1724 1724 1728 1732 1734 1735 1735 1735 1738 1741 1745 1747 1750 1752 1756 1757 1757 1757 1758 1760 1760 1760 1760 1760 1759 1759 1758 1758 1757 1756 1756 1756 1756 1757 1759 1764 1767 1769 1772 1773 1774 1775 1777 1777 1778 1779 1780 1781 1782 1783 1784 1785 1786 1787 1788 1788 1788 1789 1790 1790 1791 1792 1792 1793 1795 1796 1797 1797 1799 1800 1802 1806 1814 1822 1826 1831 1831 1831 1816 1804 1788 1776 1764 1760 1755 1741 1736 1729 1726 1723 1719 1714 1710 1707 1705 1704 1704 1702 1701 1701 1701 1701 1702 1702 1702 1704 1705 1705 1705 1707 1709 1711 1712 1714 1716 1719 1720 1720 1720 1719 1719 1719 1727 1756 1777 0 0 1952 1988 2045 2059 2084 2084 2084 2092 2092 0 0 0 2674 2790 2862 2862 2863 2863 2863 2868 2869 2873 2873 2873 2869 2857 2857 2857 2855 2855 2860 2855 2831 2825 2692 2517 0 0 0 0 0 0 0 0 0 0 0 0 0 0 0 0 0 0 0 0 0 0 0 0 0 0 0 0 0 0 0 0 0 0 0 0 0 0 0 0 0 0 0 0 0 0 0 0 0 0 0 0 0 0 0 0 0 0 0 0 0
0 0 0 0 0 0 0 0 0 0 0 0 0 0 0 0 0 0 0 0 0 1961 1961 1944 1917 1908 1879 1879 1879 1890 1895 1905 1945 1977 2032 2049 2076 2088 2092 2094 2100 2104 2109 2111 2116 2118 2120 2124 2128 2133 2135 2137 2141 2142 2146 2148 2150 2152 2155 2157 2159 2159 2161 2163 2166 2170 2174 2178 2183 2185 2187 2191 2196 2202 2205 2206 2207 2209 2213 2218 2223 2227 2230 2232 2233 2236 2243 2255 2262 2262 2262 2263 2263 2264 2264 2273 2278 2282 2282 2290 2300 2315 2365 2371 2433 2488 2506 2522 2549 2549 2549 2540 2532 2526 2513 2511 2499 2505 2508 2505 2499 2498 2497 2496 2496 2497 2508 2509 2538 2546 2558 2558 2546 2564 2564 2564 2711 2787 2807 2809 2817 2817 2817 2691 2578 2552 2547 0 0 0 0 0 0 0 0 0 0 0 0 0 0 0 0 0 0 0 2520 2527 2545 2552 2570 2586 2596 2596 2596 2571 0 0 0 0 0 0 0 0 2558 2581 2584 2584 2584 0 0 0 0 0 0 0 0 2851 2891 2967 2970 2978 2990 2990 2995 3001 3001 3032 3062 3069 3100 3173 3183 3183 3183 3183 3183 3189 3204 3210 3212 3232 3237 3246 3251 3255 3280 3290 3290 3290 3284 3284 3262 3259 3251 3228 3224 3216 3185 3185 3169 3165 3165 3096 3059 3051 3046 2991 2890 2833 2737 2594 2564 2551 0 0 0 0 0 0 2886 2952 2993 2994 3026 3051 3097 3130 3136 3143 3151 3152 3151 3151 3116 3087 3050 3022 2996 2996 2996 3005 3011 3024 3065 3115 3136 3136 3136 3101 3079 3079 3079 3103 3117 3137 3142 3149 3149 3153 3153 3153 3145 3132 3119 3062 3012 2860 2654 2527 0 2400 2377 2354 2342 2333 2325 2317 2312 2309 2304 2299 2293 2290 2284 2278 2271 2264 2258 2254 2247 2243 2237 2232 2226 2218 2212 2206 2196 2187 0 0 0 0 0 0 0 0 0 0 1722 1718 1715 1715 1715 1717 1717 1717 1717 1717 1717 1720 1720 1721 1721 1722 1722 1723 1723 1723 1723 1724 1724 1724 1725 1725 1725 1726 1726 1727 1727 1728 1729 1730 1730 1731 1732 1733 1734 1734 1736 1736 1737 1738 1738 1738 1739 1739 1740 1740 1741 1741 1741 1741 1741 1741 1741 1741 1741 1737 1734 1734 1733 1731 1728 1726 1726 1726 1728 1732 1735 1735 1735 1735 1738 1741 1746 1746 1747 1752 1756 1757 1757 1757 1760 1761 1761 1761 1761 1761 1761 1760 1759 1758 1758 1758 1758 1758 1759 1760 1763 1764 1767 1769 1772 1773 1774 1775 1776 1777 1777 1779 1780 1781 1782 1783 1784 1785 1785 1786 1787 1788 1788 1789 1790 1790 1791 1792 1792 1793 1793 1794 1795 1796 1797 1801 1803 1807 1814 1822 1826 1826 1826 1826 1814 1797 1785 1770 1763 1759 1753 1739 1734 1729 1726 1723 1719 1714 1710 1707 1705 1704 1704 1703 1702 1702 1702 1702 1702 1702 1702 1704 1704 1704 1705 1706 1709 1710 1711 1713 1716 1719 1720 1720 1720 1719 1719 1719 1727 1730 1777 0 0 1957 1996 2045 2059 2084 2092 2092 2093 2093 0 0 2514 2674 2790 2843 2843 2860 2860 2860 2868 2870 2873 2873 2898 2898 2898 2889 2874 2874 2874 2835 2831 2791 2656 2511 0 0 0 0 0 0 0 0 0 0 0 0 0 0 0 0 0 0 0 0 0 0 0 0 0 0 0 0 0 0 0 0 0 0 0 0 0 0 0 0 0 0 0 0 0 0 0 0 0 0 0 0 0 0 0 0 0 0 0 0 0 0
0 0 0 0 0 0 0 0 0 0 0 0 0 0 0 0 0 0 0 0 1948 1948 1948 1944 1917 1908 1893 1893 1893 1923 1927 1933 1947 1990 2032 2054 2079 2089 2092 2095 2100 2104 2109 2110 2112 2116 2119 2124 2127 2130 2134 2137 2142 2144 2147 2149 2150 2152 2155 2156 2158 2158 2160 2163 2166 2170 2174 2179 2185 2187 2187 2190 2194 2198 2200 2202 2203 2208 2213 2217 2223 2227 2227 2230 2230 2230 2242 2255 2262 2262 2262 2261 2261 2261 2264 2270 2277 2278 2278 2284 2284 2284 2285 0 0 2517 2521 2537 2582 2607 2618 2630 2630 2618 2591 2513 2511 2508 2508 2505 2504 2505 2508 2511 2511 2516 2521 2521 2541 2558 2573 2573 2573 2570 2570 2570 2584 2668 2703 2703 2703 2698 2681 2632 2577 2542 2525 2520 0 0 0 0 0 0 0 0 0 0 0 0 0 0 0 0 0 2520 2527 2545 2552 2563 2586 2622 2622 2622 2617 2596 0 0 0 0 0 0 0 0 2558 2631 2631 2631 2614 2608 0 0 0 0 0 0 2853 2957 2985 2985 2995 2995 2990 2990 2995 3001 3001 3032 3057 3071 3071 3154 3173 3173 3173 3173 3173 3180 3192 3198 3203 3229 3235 3240 3244 3255 3262 3290 3290 3290 3284 3272 3262 3259 3251 3215 3175 3148 3093 3053 3007 2948 2923 2918 2918 2923 2918 2893 2890 2833 2737 2594 2564 0 0 0 0 0 0 0 2808 2865 2940 2989 3034 3051 3097 3130 3136 3143 3151 3152 3151 3151 3116 3087 3034 3018 2989 2989 2989 3005 3011 3024 3065 3115 3148 3148 3148 3101 3079 3079 3079 3103 3103 3103 3083 3083 3083 3121 3145 3145 3145 3137 3121 3077 3023 2887 2673 2527 0 2402 2381 2363 2350 2344 2331 2318 2312 2309 2304 2299 2293 2289 2284 2278 2272 2267 2264 2257 2252 2249 2245 2241 2234 2228 2221 2215 2208 2203 2193 2175 0 0 0 0 0 0 0 0 0 0 1717 1717 1717 1717 1717 1717 1717 1717 1717 1720 1721 1721 1721 1721 1722 1723 1723 1723 1723 1724 1724 1724 1725 1725 1725 1725 1726 1726 1727 1727 1729 1729 1730 1731 1732 1732 1733 1734 1735 1735 1736 1737 1737 1738 1738 1739 1739 1740 1740 1740 1741 1741 1741 1741 1741 1741 1741 1737 1736 1735 1735 1734 1733 1729 1729 1729 1729 1732 1734 1735 1735 1736 1738 1741 1746 1748 1749 1752 1755 1757 1758 1759 1761 1761 1762 1762 1762 1761 1761 1760 1760 1760 1760 1760 1760 1760 1760 1761 1763 1764 1767 1769 1770 1771 1772 1773 1774 1776 1777 1777 1779 1781 1781 1782 1783 1783 1785 1786 1786 1787 1788 1788 1789 1790 1790 1791 1791 1791 1792 1793 1795 1796 1797 1801 1806 1811 1814 1819 1826 1826 1826 1817 1799 1785 1776 1770 1761 1759 1749 1738 1732 1729 1726 1722 1717 1714 1710 1708 1706 1705 1704 1703 1703 1702 1702 1702 1702 1702 1702 1704 1704 1704 1705 1706 1708 1710 1711 1712 1716 1719 1719 1719 1719 1720 1720 1722 1727 1730 0 0 0 1959 2008 2045 2059 2090 2091 2091 2093 2100 0 0 2514 2674 2782 2838 2838 2860 2860 2860 2868 2870 2873 2873 2899 2948 2948 2948 2929 2903 2874 2833 2770 2652 2536 0 0 0 0 0 0 0 0 0 0 0 0 0 0 0 0 0 0 0 0 0 0 0 0 0 0 0 0 0 0 0 0 0 0 0 0 0 0 0 0 0 0 0 0 0 0 0 0 0 0 0 0 0 0 0 0 0 0 0 0 0 0 0
0 0 0 0 0 0 0 0 0 0 0 0 0 0 0 0 0 0 0 0 1939 1939 1939 1917 1915 1908 1907 1907 1907 1948 1957 1959 1972 1991 2034 2062 2091 2092 2093 2098 2100 2104 2109 2110 2112 2116 2119 2124 2127 2130 2134 2138 2142 2144 2147 2149 2150 2152 2154 2155 2158 2158 2160 2163 2166 2170 2174 2180 2185 2187 2188 2190 2193 2198 2200 2200 2203 2208 2213 2217 2222 2224 2224 2226 2226 2226 2242 2255 2262 2262 2262 2260 2260 2260 2262 2270 2276 2277 2277 2277 2269 2269 0 0 0 2555 2600 2661 2866 2866 2866 2865 2846 2812 2786 2726 2626 2585 2514 2514 2514 2524 2541 2541 2541 2526 2526 2526 2541 2558 2573 2579 2579 2579 2584 2584 2584 2603 2604 2605 2605 2605 2605 2572 2526 2526 2524 2518 0 0 0 0 0 0 0 0 0 0 0 0 0 0 0 0 0 2520 2527 2545 2552 2563 2570 2624 2624 2624 2617 2596 0 0 0 0 0 0 0 0 2558 2665 2665 2665 2635 2619 2541 0 0 0 0 2833 2921 2957 3001 3001 3001 3001 2997 2997 3001 3004 3015 3038 3057 3071 3071 3103 3151 3162 3163 3169 3169 3176 3176 3177 3179 3186 3194 3225 3227 3232 3238 3262 3262 3262 3262 3223 3222 3216 3185 3118 3103 3025 2958 2880 2880 2880 2911 2911 2911 2917 2898 2892 2890 2833 2737 2594 2564 0 0 0 0 0 0 2626 2808 2865 2865 2976 3026 3051 3097 3130 3136 3136 3136 3098 3050 3025 3022 3018 3004 3003 3018 3018 3030 3030 3054 3054 3065 3112 3138 3138 3138 3101 3079 3079 3079 3103 3103 3103 3080 3080 3080 3121 3161 3161 3161 3141 3122 3082 3024 2887 2673 2525 2433 2403 2391 2371 2356 2347 2331 2318 2312 2309 2304 2299 2293 2288 2284 2278 2272 2267 2264 2257 2253 2251 2246 2241 2236 2231 2226 2222 2218 2211 2204 2195 2176 2155 2136 0 0 0 0 0 0 0 0 1725 1718 1717 1717 1717 1717 1717 1717 1720 1721 1721 1721 1721 1721 1723 1723 1723 1723 1724 1724 1724 1724 1725 1725 1725 1725 1726 1727 1727 1727 1729 1729 1730 1731 1732 1733 1733 1734 1735 1735 1736 1737 1737 1738 1738 1739 1740 1740 1740 1740 1741 1741 1741 1741 1741 1741 1738 1738 1738 1738 1738 1738 1735 1732 1731 1731 1731 1733 1735 1736 1736 1738 1741 1747 1749 1750 1753 1755 1758 1759 1760 1761 1762 1762 1762 1762 1762 1762 1761 1761 1761 1761 1761 1761 1761 1761 1761 1761 1764 1765 1766 1768 1770 1770 1770 1772 1774 1775 1776 1778 1779 1779 1781 1782 1783 1784 1785 1786 1787 1787 1787 1789 1789 1790 1790 1790 1791 1791 1792 1793 1795 1797 1801 1809 1812 1814 1817 1820 1820 1820 1807 1790 1778 1771 1763 1756 1750 1742 1737 1731 1729 1726 1721 1717 1714 1710 1708 1707 1707 1706 1705 1705 1705 1704 1703 1703 1703 1703 1704 1704 1704 1705 1706 1708 1710 1711 1712 1715 1718 1718 1718 1719 1719 1720 1723 1727 1730 0 0 0 1970 2017 2051 2068 2090 2091 2091 2093 2100 0 0 2514 2628 2735 2828 2834 2860 2860 2860 2873 2877 2881 2887 2911 2962 2962 2962 2929 2903 2874 2820 2709 2599 0 0 0 0 0 0 0 0 0 0 0 0 0 0 0 0 0 0 0 0 0 0 0 0 0 0 0 0 0 0 0 0 0 0 0 0 0 0 0 0 0 0 0 0 0 0 0 0 0 0 0 0 0 0 0 0 0 0 0 0 0 0 0 0
0 0 0 0 0 0 0 0 0 0 0 0 0 0 0 0 0 0 0 0 1915 1915 1915 1908 1905 1902 1902 1902 1925 1948 1957 1959 1972 1996 2034 2062 2093 2099 2099 2100 2101 2106 2110 2110 2112 2114 2118 2123 2127 2130 2134 2139 2142 2144 2147 2149 2150 2152 2154 2155 2158 2158 2160 2163 2166 2170 2179 2184 2185 2188 2188 2190 2193 2198 2200 2200 2203 2207 2212 2216 2220 2220 2220 2220 2220 2224 2242 2254 2259 2259 2259 2256 2256 2256 2256 2261 2262 2275 2275 2275 0 0 0 0 0 2555 2741 2905 2955 2955 2955 2952 2952 2951 2951 2950 2869 2727 2694 2639 2636 2624 2593 2591 2571 2562 2556 2556 2562 2564 2576 2580 2580 2580 2584 2584 2584 2595 2596 2599 2599 2599 2599 2572 2526 2526 2524 2518 0 0 0 0 0 0 0 0 0 0 0 0 0 0 0 0 0 2563 2565 2586 2569 2569 2586 2624 2624 2624 2617 0 0 0 0 0 0 0 0 0 0 2665 2686 2686 2686 2620 2620 2620 2685 2743 2829 2916 2921 2957 3001 3001 3007 3013 3045 3079 3079 3079 3064 3049 3049 3057 3064 3100 3109 3134 3149 3151 3157 3157 3157 3139 3125 3122 3122 3122 3152 3166 3208 3208 3208 3153 3102 3054 3044 3042 2991 2991 2978 2967 2903 2870 2870 2870 2884 2891 2897 2897 2897 2897 2897 2914 2914 2895 2732 2588 0 0 0 0 2650 2673 2808 2865 2865 2976 3026 3026 3032 3033 3047 3064 3064 3064 3050 3025 3022 3022 3004 3022 3022 3054 3054 3054 3051 3051 3051 3096 3138 3138 3138 3101 3096 3096 3096 3099 3099 3099 3080 3080 3080 3121 3159 3159 3159 3149 3122 3082 3023 2887 2673 2517 2427 2412 2396 2376 2360 2347 2331 2318 2311 2306 2302 2297 2292 2288 2284 2278 2272 2267 2264 2257 2253 2251 2246 2241 2236 2231 2227 2223 2222 2219 2212 2205 2192 2179 2173 2161 0 0 0 0 0 0 0 0 0 1727 1723 1721 1720 1720 1720 1720 1720 1720 1721 1721 1721 1723 1723 1723 1723 1724 1724 1724 1724 1724 1724 1725 1725 1725 1725 1726 1727 1728 1728 1730 1730 1730 1732 1733 1733 1734 1735 1736 1736 1737 1738 1738 1739 1740 1740 1740 1740 1741 1741 1741 1741 1741 1741 1738 1738 1738 1738 1738 1738 1736 1733 1733 1733 1733 1733 1736 1736 1737 1738 1741 1747 1749 1751 1753 1756 1758 1759 1761 1762 1762 1762 1762 1762 1762 1762 1762 1761 1761 1761 1761 1761 1761 1761 1760 1760 1760 1762 1762 1762 1764 1766 1769 1770 1772 1775 1776 1777 1777 1779 1780 1781 1782 1784 1784 1785 1786 1787 1787 1788 1788 1789 1789 1790 1790 1790 1791 1793 1795 1797 1801 1809 1812 1814 1817 1817 1817 1815 1803 1786 1772 1761 1757 1750 1742 1734 1732 1729 1728 1725 1721 1716 1713 1710 1709 1708 1708 1708 1707 1707 1706 1705 1705 1704 1704 1704 1704 1704 1706 1706 1706 1708 1709 1711 1712 1715 1718 1718 1718 1719 1719 1720 1723 1724 0 0 0 0 1985 2027 2061 2072 2090 2091 2092 2101 2108 0 0 0 2592 2681 2777 2818 2828 2834 2888 2906 2908 2912 2945 3012 3012 3012 2967 2929 2903 2825 2724 2650 2474 0 0 0 0 0 0 0 0 0 0 0 0 0 0 0 0 0 0 0 0 0 0 0 0 0 0 0 0 0 0 0 0 0 0 0 0 0 0 0 0 0 0 0 0 0 0 0 0 0 0 0 0 0 0 0 0 0 0 0 0 0 0 0 0
0 0 0 0 0 0 0 0 0 0 0 0 0 0 0 0 0 0 0 0 1902 1902 1902 1901 1893 1893 1893 1900 1927 1948 1957 1959 1972 2003 2045 2066 2093 2099 2099 2100 2101 2106 2110 2111 2112 2114 2118 2122 2127 2133 2135 2140 2142 2143 2145 2147 2148 2151 2154 2155 2158 2158 2160 2163 2167 2170 2179 2184 2186 2188 2189 2190 2193 2200 2200 2202 2203 2206 2211 2215 2217 2217 2217 2217 2217 2224 2236 2245 2247 2251 2253 2253 2253 2253 2226 2226 2226 0 0 0 0 0 0 0 0 2555 2751 2907 2955 2990 3010 3022 3025 3025 3010 2995 2942 2885 2816 2793 2662 2662 2662 2662 2662 2640 2635 2632 2607 2586 2586 2586 2586 2586 2574 2574 2574 2591 2591 2596 2599 2599 2599 2572 2526 2526 2524 2518 0 0 0 0 0 0 0 0 0 0 0 0 0 0 2684 2691 2691 2691 2679 2663 2604 2604 2604 2624 2624 2624 0 0 0 0 0 0 0 0 0 0 0 0 2713 2713 2713 2674 2674 2674 2721 2865 2911 2916 2921 2944 2948 2997 3000 3013 3045 3079 3079 3079 3071 3055 3045 3045 3045 3057 3084 3088 3088 3084 3080 3076 3073 3070 3070 3070 3070 3070 3083 3144 3144 3144 3132 3056 2964 2855 2855 2855 2913 2967 2967 2967 2903 2870 2870 2870 2899 2899 2899 2895 2895 2895 2945 2976 2976 2976 2910 2710 2687 0 0 2730 2753 2762 2865 2888 2891 2989 3030 3030 3032 3033 3045 3064 3064 3064 3050 3025 3022 3022 3022 3079 3083 3083 3083 3069 3041 3041 3041 3065 3103 3103 3103 3101 3101 3101 3109 3109 3109 3099 3099 3099 3125 3150 3159 3159 3159 3149 3122 3082 3016 2880 2653 2508 2427 2412 2404 2383 2360 2347 2331 2318 2311 2306 2301 2296 2292 2289 2284 2278 2272 2265 2260 2256 2253 2251 2246 2241 2238 2233 2228 2224 2222 2220 2214 2209 2199 2192 2186 2185 2182 2166 0 0 0 0 0 0 0 0 0 0 1731 1724 1724 1722 1720 1720 1720 1720 1720 1723 1723 1723 1723 1723 1724 1724 1724 1724 1724 1725 1725 1725 1725 1726 1727 1727 1728 1728 1729 1729 1730 1732 1732 1734 1734 1735 1735 1737 1737 1738 1739 1739 1740 1740 1740 1740 1741 1741 1741 1741 1741 1739 1739 1739 1738 1738 1738 1736 1733 1733 1733 1733 1733 1736 1738 1739 1740 1743 1747 1749 1751 1753 1756 1758 1759 1761 1762 1762 1762 1762 1762 1762 1762 1762 1762 1762 1762 1762 1761 1761 1760 1758 1758 1758 1759 1759 1761 1761 1764 1768 1769 1771 1773 1774 1775 1777 1778 1779 1781 1781 1783 1783 1785 1786 1787 1787 1787 1788 1788 1789 1789 1790 1790 1790 1791 1793 1797 1802 1809 1812 1814 1814 1814 1813 1808 1791 1779 1764 1756 1749 1742 1735 1732 1728 1727 1726 1723 1720 1716 1713 1710 1710 1710 1709 1708 1708 1708 1707 1706 1705 1705 1705 1705 1705 1705 1706 1707 1707 1708 1709 1711 1712 1715 1717 1717 1717 1717 1717 1718 1723 1724 0 0 0 0 1985 2043 2063 2072 2090 2090 2092 2101 2114 0 0 0 2592 2681 2774 2813 2838 2858 2916 2929 2934 2948 2980 3012 3012 3012 2967 2912 2846 2759 2657 2402 0 0 0 0 0 0 0 0 0 0 0 0 0 0 0 0 0 0 0 0 0 0 0 0 0 0 0 0 0 0 0 0 0 0 0 0 0 0 0 0 0 0 0 0 0 0 0 0 0 0 0 0 0 0 0 0 0 0 0 0 0 0 0 0 0
0 0 0 0 0 0 0 0 0 0 0 0 0 0 0 0 0 0 0 0 1899 1899 1899 1898 1889 1889 1889 1900 1927 1937 1941 1954 1966 2003 2045 2066 2083 2099 2099 2100 2101 2106 2110 2111 2112 2114 2118 2122 2127 2134 2140 2142 2142 2143 2144 2147 2148 2151 2154 2157 2159 2160 2161 2166 2169 2170 2179 2184 2186 2188 2190 2199 2200 2201 2204 2204 2205 2206 2207 2213 2213 2213 2211 2209 2206 2199 2199 0 0 0 0 0 0 0 0 0 0 0 0 0 0 0 0 0 0 2563 2763 2907 2955 2990 3010 3022 3025 3025 3010 3001 2962 2921 2916 2906 2826 2826 2786 2780 2755 2717 2665 2648 2640 2639 2622 2621 2620 2597 2594 2594 2594 2595 2596 2599 2599 2614 2614 2614 2607 2607 2599 2583 0 0 0 0 0 0 0 0 0 0 0 0 2612 2661 2684 2699 2701 2701 2699 2691 2656 2604 2558 2558 2555 2521 0 0 0 0 0 0 0 0 0 0 0 0 0 2749 2759 2766 2773 2799 2866 2899 2911 2911 2911 2916 2921 2946 2966 2994 3045 3079 3079 3079 3071 3059 3045 3044 3044 3044 3041 3040 3032 3032 3032 3052 3058 3067 3070 3067 3065 3070 3070 3095 3095 3095 3071 2989 2956 2855 2855 2855 2913 2967 2967 2967 2903 2899 2899 2899 2913 2913 2913 2895 2895 2895 2967 2996 2996 2996 2954 2954 2954 2954 2954 2958 2958 2979 2979 2990 2992 2992 3030 3030 3032 3033 3045 3064 3064 3064 3064 3064 3101 3141 3170 3170 3170 3147 3106 3069 3041 3041 3041 3058 3069 3071 3071 3073 3084 3103 3113 3113 3113 3113 3113 3138 3145 3157 3162 3162 3162 3149 3121 3076 3016 2849 2627 2488 2427 2415 2408 2383 2360 2338 2324 2317 2311 2305 2301 2295 2292 2289 2284 2278 2271 2265 2260 2256 2253 2250 2246 2241 2238 2233 2228 2225 2223 2221 2218 2215 2208 2199 2198 2196 2194 2193 2170 2154 0 0 0 0 0 0 0 0 0 0 0 1727 1725 1722 1720 1720 1720 1722 1723 1723 1723 1723 1724 1724 1724 1724 1724 1724 1725 1725 1725 1726 1726 1727 1728 1728 1728 1729 1729 1731 1731 1732 1733 1735 1735 1736 1737 1738 1738 1738 1740 1740 1740 1740 1741 1741 1741 1741 1741 1740 1740 1740 1740 1740 1740 1739 1733 1733 1733 1733 1734 1738 1739 1739 1740 1744 1748 1752 1753 1754 1756 1758 1759 1761 1762 1762 1762 1762 1763 1762 1762 1762 1762 1762 1762 1762 1761 1760 1758 1755 1753 1752 1752 1752 1758 1761 1764 1767 1767 1768 1770 1772 1774 1776 1776 1779 1779 1780 1782 1783 1784 1785 1786 1787 1787 1787 1788 1788 1789 1789 1790 1790 1791 1792 1797 1802 1809 1812 1812 1812 1808 1802 1792 1781 1769 1758 1750 1743 1736 1733 1728 1726 1724 1723 1721 1719 1716 1713 1712 1711 1711 1710 1710 1709 1708 1708 1708 1707 1707 1707 1707 1707 1707 1707 1708 1708 1709 1709 1711 1712 1714 1715 1715 1716 1716 1716 1718 1720 1723 0 0 0 0 1985 2045 2063 2072 2080 2090 2092 2107 2124 2148 0 0 2592 2681 2773 2813 2844 2877 2922 2929 2936 2958 2980 3012 3012 3012 2944 2851 2719 2706 0 0 0 0 0 0 0 0 0 0 0 0 0 0 0 0 0 0 0 0 0 0 0 0 0 0 0 0 0 0 0 0 0 0 0 0 0 0 0 0 0 0 0 0 0 0 0 0 0 0 0 0 0 0 0 0 0 0 0 0 0 0 0 0 0 0 0
0 0 0 0 0 0 0 0 0 0 0 0 0 0 0 0 0 0 0 0 0 1905 1882 1882 1881 1882 1884 1900 1926 1927 1927 1932 1965 2003 2045 2066 2076 2091 2098 2099 2100 2106 2110 2110 2110 2111 2111 2116 2127 2134 2140 2141 2141 2142 2142 2145 2147 2151 2155 2158 2160 2160 2164 2166 2169 2170 2174 2184 2186 2188 2190 2199 2200 2201 2204 2204 2205 2206 2206 2206 2205 2200 2195 2194 2187 2181 0 0 0 0 0 0 0 0 0 0 0 0 0 0 0 0 0 0 0 2563 2763 2907 2945 2971 3010 3022 3025 3025 3010 3001 2968 2958 2950 2911 2867 2841 2835 2804 2786 2717 2665 2665 2652 2648 2648 2666 2643 2643 2598 2598 2598 2603 2604 2605 2605 2615 2620 2620 2620 2621 2617 2617 2614 2599 2582 2548 2548 2548 2559 2565 2565 2593 2593 2614 2625 2661 2684 2699 2701 2713 2713 2713 2675 2625 2557 2519 2519 2514 0 0 0 0 0 0 0 0 0 0 2715 2744 2793 2824 2839 2846 2851 2861 2880 2882 2899 2899 2898 2898 2904 2912 2938 2945 2995 3065 3065 3065 3058 3055 3045 3039 3039 3035 3022 3020 3020 3020 3032 3052 3057 3063 3063 3061 3058 3061 3061 3058 3058 3051 3026 2989 2956 2855 2855 2855 2913 2983 2983 2983 2956 2956 2956 3013 3014 3014 3013 2905 2905 2905 2969 3004 3004 3004 3004 3006 3000 3006 3006 3001 3001 3001 3001 3002 3003 3003 3030 3030 3030 3042 3042 3060 3060 3060 3062 3062 3101 3141 3182 3189 3189 3189 3120 3077 3045 3045 3045 3051 3054 3054 3054 3071 3082 3106 3124 3124 3125 3127 3145 3151 3160 3160 3160 3160 3150 3135 3108 3071 2994 2835 2615 0 2432 2419 2408 2383 2356 2338 2324 2317 2311 2306 2300 2294 2292 2290 2285 2278 2271 2265 2260 2256 2253 2250 2246 2241 2238 2233 2229 2225 2223 2222 2221 2218 2216 2211 2203 2202 2198 2193 2186 2175 2164 2148 0 0 0 0 0 0 0 0 0 0 0 1724 1721 1721 1721 1721 1721 1721 1721 1722 1722 1722 1722 1722 1722 1724 1724 1725 1726 1726 1727 1727 1727 1727 1728 1728 1728 1730 1731 1732 1732 1734 1734 1735 1736 1737 1738 1738 1739 1740 1740 1740 1740 1741 1741 1741 1741 1740 1740 1740 1740 1740 1740 1739 1736 1736 1736 1736 1736 1738 1739 1741 1741 1746 1750 1752 1754 1755 1756 1758 1759 1760 1762 1762 1762 1762 1762 1762 1762 1762 1762 1762 1761 1761 1761 1760 1756 1753 1749 1749 1749 1752 1753 1755 1758 1763 1764 1766 1767 1770 1771 1774 1776 1777 1778 1778 1781 1782 1783 1785 1786 1787 1787 1787 1787 1788 1788 1789 1790 1790 1790 1792 1797 1802 1809 1809 1809 1804 1799 1791 1782 1772 1763 1752 1745 1738 1731 1729 1726 1725 1723 1722 1720 1718 1716 1714 1713 1713 1712 1711 1711 1710 1710 1709 1709 1708 1708 1709 1708 1708 1708 1708 1708 1708 1709 1710 1712 1713 1713 1714 1714 1715 1716 1716 1718 1720 1724 0 0 0 0 1984 2050 2063 2070 2079 2093 2106 2115 2124 2135 0 0 2600 2696 2773 2818 2845 2888 2922 2934 2938 2958 2980 3010 3010 3010 2897 2741 2690 2689 0 0 0 0 0 0 0 0 0 0 0 0 0 0 0 0 0 0 0 0 0 0 0 0 0 0 0 0 0 0 0 0 0 0 0 0 0 0 0 0 0 0 0 0 0 0 0 0 0 0 0 0 0 0 0 0 0 0 0 0 0 0 0 0 0 0 0
0 0 0 0 0 0 0 0 0 0 0 0 0 0 0 0 0 0 0 0 0 0 0 0 0 0 0 1883 1916 1916 1920 1920 1944 1988 2044 2061 2075 2091 2098 2098 2100 2104 2104 2104 2103 2103 2103 2109 2119 2134 2134 2134 2140 2140 2140 2145 2147 2155 2158 2158 2160 2160 2160 2165 2167 2169 2171 2175 2181 2188 2190 2199 2200 2201 2204 2204 2204 2204 2199 2198 2196 2188 0 0 0 0 0 0 0 0 0 0 0 0 0 0 0 0 0 0 0 0 0 0 2535 2645 2763 2898 2916 2933 2937 2960 2970 2983 2983 2983 2972 2968 2954 2936 2874 2841 2835 2804 2786 2737 2698 2681 2681 2698 2716 2734 2734 2734 2658 2629 2616 2616 2626 2626 2626 2626 2626 2622 2622 2622 2622 2620 2620 2620 2595 2595 2595 2608 2618 2618 2619 2628 2641 2641 2641 2647 2661 2691 2692 2713 2713 2713 2707 2626 2557 2480 2480 2463 0 0 0 0 0 0 0 0 2759 2764 2785 2799 2812 2861 2861 2861 2861 2861 2880 2880 2880 2857 2857 2857 2883 2895 2910 2931 2943 2960 2993 3037 3039 3039 3037 3028 3026 3026 3020 3008 3008 3008 3032 3050 3057 3057 3060 3057 3057 3050 3038 3038 3036 3028 3026 2989 2965 2965 2965 3013 3015 3023 3021 3015 3015 3015 3014 3014 3014 3014 3013 2980 2980 2980 2996 3000 3003 3003 3003 3003 3013 3013 3014 3014 3013 3012 3014 3018 3034 3070 3071 3071 3071 3060 3060 3054 3060 3060 3060 3060 3101 3141 3182 3198 3198 3198 3141 3097 3079 3067 3065 3058 3054 3054 3054 3071 3082 3120 3127 3130 3131 3141 3159 3169 3169 3169 3163 3161 3150 3135 3108 3071 2994 2816 2606 0 2441 2429 2408 2378 2356 2338 2324 2317 2312 2306 2300 2294 2292 2290 2285 2278 2271 2265 2260 2256 2253 2250 2247 2243 2240 2236 2232 2229 2226 2224 2221 2218 2216 2211 2209 2204 2198 2193 2186 2177 2170 2165 2154 2135 0 0 0 0 0 0 0 0 0 0 0 1725 1722 1722 1721 1721 1721 1721 1721 1721 1721 1721 1721 1724 1724 1725 1726 1726 1727 1727 1727 1727 1727 1728 1728 1729 1729 1731 1731 1733 1734 1735 1736 1737 1738 1738 1739 1740 1740 1740 1740 1740 1741 1741 1741 1741 1741 1741 1741 1741 1741 1739 1737 1737 1737 1738 1738 1741 1741 1742 1745 1749 1750 1753 1754 1755 1756 1757 1759 1760 1760 1761 1762 1762 1762 1762 1762 1762 1762 1762 1761 1760 1760 1758 1756 1753 1749 1749 1749 1749 1750 1751 1753 1753 1754 1760 1766 1769 1770 1773 1775 1776 1778 1778 1780 1781 1782 1784 1785 1786 1786 1787 1787 1787 1787 1787 1788 1788 1789 1792 1794 1798 1801 1801 1801 1794 1788 1780 1772 1766 1755 1747 1738 1735 1731 1728 1726 1724 1722 1721 1719 1718 1716 1715 1714 1714 1713 1712 1711 1711 1711 1711 1710 1710 1710 1710 1710 1710 1709 1709 1709 1709 1710 1711 1712 1713 1713 1714 1714 1714 1716 1716 1718 1720 1724 0 0 0 0 1984 2050 2063 2070 2079 2096 2106 2115 2124 2130 0 0 2607 2696 2773 2821 2851 2892 2922 2932 2940 2958 2978 2978 2978 2916 2747 2657 2628 0 0 0 0 0 0 0 0 0 0 0 0 0 0 0 0 0 0 0 0 0 0 0 0 0 0 0 0 0 0 0 0 0 0 0 0 0 0 0 0 0 0 0 0 0 0 0 0 0 0 0 0 0 0 0 0 0 0 0 0 0 0 0 0 0 0 0 0
0 0 0 0 0 0 0 0 0 0 0 0 0 0 0 0 0 0 0 0 0 0 0 0 0 0 0 0 0 1904 1909 1914 1931 1964 2033 2046 2075 2088 2096 2098 2100 2104 2104 2104 2100 2100 2100 2103 2107 2110 2117 2119 2120 2126 2140 2145 2147 2155 2158 2158 2159 2160 2160 2163 2163 2163 2163 2165 2165 2165 2165 2165 2183 2186 2186 2186 0 0 0 0 0 0 0 0 0 0 0 0 0 0 0 0 0 0 0 0 0 0 0 0 0 0 0 0 2535 2645 2751 2880 2916 2916 2916 2912 2912 2912 2968 2972 2972 2968 2954 2936 2874 2841 2835 2804 2789 2752 2731 2731 2731 2788 2803 2803 2803 2796 2749 2689 2686 2683 2673 2673 2660 2637 2626 2622 2620 2620 2622 2623 2623 2623 2618 2610 2610 2610 2620 2640 2641 2647 2647 2647 2641 2641 2641 2641 2678 2678 2707 2707 2707 2642 2557 2480 2480 0 2480 0 2742 2744 2744 2742 0 0 2794 2802 2811 2832 2859 2861 2861 2861 2861 2861 2851 2851 2812 2812 2812 2822 2852 2888 2896 2908 2917 2919 2925 2925 2924 2924 2928 2948 2994 2998 2998 3006 3006 3006 3032 3050 3055 3057 3060 3057 3055 3050 3035 3035 3033 3026 3020 3006 2994 2994 2994 3013 3017 3028 3025 3018 3018 3018 3015 3015 3014 3014 3013 3008 3007 2998 2998 2998 3003 3003 3003 3006 3018 3018 3021 3022 3024 3036 3044 3048 3062 3070 3076 3076 3076 3060 3057 3049 3045 3038 3038 3049 3072 3130 3182 3198 3198 3198 3141 3098 3097 3090 3090 3068 3054 3054 3054 3081 3114 3122 3128 3133 3136 3143 3160 3169 3169 3169 3163 3161 3150 3135 3108 3071 2994 2804 2604 2492 2448 2431 2405 2378 2356 2342 2325 2320 2314 2307 2300 2294 2293 2290 2285 2278 2273 2268 2263 2257 2254 2250 2247 2245 2241 2238 2236 2232 2228 2224 2221 2218 2216 2212 2209 2204 2197 2192 2186 2177 2171 2166 2162 2157 2147 2146 2135 0 0 0 0 0 0 0 0 0 0 1722 1721 1721 1721 1721 1721 1721 1721 1721 1721 1722 1724 1724 1726 1726 1726 1726 1726 1726 1726 1727 1727 1728 1729 1730 1731 1732 1733 1734 1736 1737 1737 1738 1739 1739 1740 1740 1740 1740 1741 1741 1741 1741 1741 1741 1741 1742 1742 1742 1738 1738 1738 1738 1739 1741 1741 1743 1748 1751 1752 1753 1754 1756 1756 1757 1759 1760 1760 1761 1761 1762 1762 1762 1762 1762 1762 1761 1760 1759 1759 1755 1754 1752 1749 1743 1743 1743 1743 1743 1744 1745 1745 1756 1763 1764 1768 1771 1774 1774 1776 1778 1779 1781 1781 1783 1784 1785 1785 1786 1786 1787 1787 1787 1787 1787 1787 1789 1792 1795 1795 1795 1790 1784 1775 1768 1762 1755 1749 1742 1738 1734 1731 1728 1726 1724 1722 1721 1719 1718 1717 1716 1715 1715 1714 1713 1712 1712 1712 1712 1712 1712 1712 1711 1711 1710 1710 1710 1710 1710 1711 1713 1713 1713 1713 1714 1714 1714 1714 1717 1718 1725 1736 0 0 0 1962 1984 2050 2063 2070 2077 2096 2106 2115 2121 2124 0 0 2610 2706 2774 2825 2851 2892 2897 2929 2938 2951 2951 2951 2896 2769 2653 2544 0 0 0 0 0 0 0 0 0 0 0 0 0 0 0 0 0 0 0 0 0 0 0 0 0 0 0 0 0 0 0 0 0 0 0 0 0 0 0 0 0 0 0 0 0 0 0 0 0 0 0 0 0 0 0 0 0 0 0 0 0 0 0 0 0 0 0 0 0
0 0 0 0 0 0 0 0 0 0 0 0 0 0 0 0 0 0 0 0 0 0 0 0 0 0 0 0 0 0 0 0 0 0 0 2046 2074 2083 2090 2098 2100 2104 2104 2104 2091 2091 2091 2095 2101 2104 2105 2108 2119 2123 2125 2144 2147 2153 2155 2155 2158 2160 2160 2160 0 0 0 0 0 0 0 0 0 0 0 0 0 0 0 0 0 0 0 0 0 0 0 0 0 0 0 0 0 0 0 0 0 0 0 0 0 0 0 0 2535 2645 2807 2880 2916 2916 2916 2911 2909 2909 2909 2911 2954 2954 2954 2936 2874 2839 2805 2789 2789 2789 2789 2794 2798 2798 2829 2860 2872 2872 2872 2801 2783 2779 2768 2752 2712 2682 2645 2622 2620 2620 2622 2629 2629 2629 2622 2622 2622 2626 2633 2640 2641 2653 2653 2641 2638 2638 2638 2641 2651 2674 2674 2674 2674 2664 2601 2480 2480 2480 2599 2739 2764 2769 2771 2771 2771 2776 2807 2817 2824 2834 2862 2862 2862 2844 2831 2806 2805 2804 2804 2806 2811 2822 2852 2888 2888 2888 2891 2891 2897 2897 2897 2896 2896 2896 2902 2919 2952 2960 2972 3004 3032 3043 3043 3043 3043 3043 3036 3036 3032 3032 3030 3022 3020 3006 2994 2994 2994 3016 3024 3029 3029 3024 3024 3023 3008 3008 3008 3010 3012 3012 3010 3008 3005 3005 3004 3003 3003 3003 3003 3013 3025 3043 3055 3059 3061 3062 3062 3070 3076 3087 3087 3087 3063 3060 3028 3028 3028 3028 3053 3087 3147 3198 3198 3198 3141 3110 3106 3102 3095 3073 3073 3073 3096 3117 3119 3123 3130 3135 3137 3143 3161 3170 3170 3170 3170 3162 3157 3140 3115 3080 3000 2797 2604 2504 2450 2431 2401 2378 2364 2350 2334 2324 2316 2312 2304 2296 2293 2290 2286 2282 2275 2271 2264 2259 2255 2251 2248 2245 2242 2238 2236 2232 2228 2224 2221 2218 2215 2213 2209 2204 2197 2192 2185 2179 2173 2171 2170 2170 2162 2162 2155 2144 2132 2111 0 0 0 0 0 0 0 0 0 1731 1722 1722 1721 1721 1721 1721 1721 1722 1723 1723 1723 1726 1726 1726 1726 1726 1726 1726 1727 1727 1729 1729 1730 1731 1733 1733 1735 1736 1736 1738 1738 1739 1739 1740 1740 1740 1741 1741 1741 1741 1741 1741 1741 1743 1743 1743 1743 1741 1740 1740 1740 1741 1745 1750 1751 1752 1752 1753 1755 1756 1756 1757 1759 1759 1760 1761 1761 1762 1762 1762 1762 1761 1761 1760 1758 1757 1757 1755 1752 1749 1742 1736 1736 1736 1740 1742 1742 1743 1745 1751 1753 1759 1766 1769 1770 1771 1775 1777 1778 1780 1781 1781 1783 1784 1784 1785 1785 1785 1785 1785 1784 1784 1784 1784 1787 1787 1787 1786 1781 1773 1765 1758 1753 1750 1746 1742 1738 1733 1730 1727 1726 1724 1722 1721 1719 1719 1717 1717 1716 1716 1716 1715 1715 1715 1715 1715 1714 1714 1713 1713 1712 1712 1712 1712 1712 1712 1713 1713 1713 1714 1715 1715 1715 1715 1715 1717 1718 1729 1748 0 0 0 1966 2014 2057 2070 2072 2079 2096 2096 2097 2099 2124 0 0 2630 2709 2775 2830 2864 2892 2895 2926 2938 2938 2938 2866 2763 2718 0 0 0 0 0 0 0 0 0 0 0 0 0 0 0 0 0 0 0 0 0 0 0 0 0 0 0 0 0 0 0 0 0 0 0 0 0 0 0 0 0 0 0 0 0 0 0 0 0 0 0 0 0 0 0 0 0 0 0 0 0 0 0 0 0 0 0 0 0 0 0
0 0 0 0 0 0 0 0 0 0 0 0 0 0 0 0 0 0 0 0 0 0 0 0 0 0 0 0 0 0 0 0 0 0 0 2045 2070 2075 2088 2098 2100 2100 2100 2100 2091 2091 2091 2091 2096 2098 2100 2103 2113 2118 2125 2144 0 0 0 0 0 0 0 0 0 0 0 0 0 0 0 0 0 0 0 0 0 0 0 0 0 0 0 0 0 0 0 0 0 0 0 0 0 0 0 0 0 0 0 0 0 0 0 0 2575 2645 2807 2880 2918 2918 2918 2911 2909 2908 2901 2901 2901 2936 2936 2936 2874 2805 2805 2805 2805 2826 2826 2826 2826 2836 2836 2860 2872 2872 2872 2857 2828 2801 2783 2752 2718 2686 2672 2636 2635 2635 2636 2639 2645 2645 2645 2626 2626 2626 2640 2644 2650 2653 2653 2650 2633 2633 2633 2641 2651 2674 2674 2686 2686 2686 2663 2549 2549 2549 2652 2768 2775 2783 2783 2782 2782 2788 2807 2822 2824 2853 2867 2867 2867 2793 2750 2750 2750 2769 2793 2794 2801 2801 2809 2830 2830 2830 2824 2824 2824 2864 2864 2866 2866 2866 2867 2875 2878 2940 2960 2962 2985 3002 3002 3013 3026 3039 3022 3022 3029 3029 3022 3020 3020 3006 2994 2994 2994 3006 3010 3015 3025 3025 3025 3020 3008 3008 3008 3010 3012 3013 3013 3013 3013 3011 3007 3001 3002 3002 3002 3013 3029 3043 3055 3059 3061 3062 3062 3064 3076 3113 3113 3113 3109 3071 3027 3015 3015 3015 3040 3054 3073 3121 3121 3121 3114 3113 3111 3110 3103 3099 3099 3099 3116 3120 3122 3125 3130 3133 3136 3143 3161 3169 3170 3170 3170 3170 3158 3147 3125 3094 3000 2785 2604 2504 2450 2431 2401 2378 2365 2350 2334 2326 2318 2312 2304 2298 2294 2290 2287 2283 2279 2272 2266 2260 2255 2251 2248 2245 2242 2238 2236 2232 2228 2224 2221 2218 2215 2212 2209 2203 2197 2192 2185 2179 2179 2178 2178 2178 2178 2173 2160 2147 2140 2132 2124 2112 0 0 0 0 0 0 0 0 1736 1722 1722 1722 1722 1722 1722 1722 1722 1723 1723 1724 1726 1726 1726 1726 1726 1726 1726 1727 1728 1729 1729 1731 1733 1733 1734 1735 1736 1738 1738 1739 1739 1739 1740 1740 1741 1741 1741 1741 1741 1741 1742 1743 1743 1743 1744 1744 1744 1746 1747 1747 1750 1752 1752 1753 1753 1754 1755 1756 1756 1757 1758 1759 1759 1760 1761 1761 1762 1762 1761 1761 1761 1758 1757 1756 1755 1753 1750 1745 1739 1736 1735 1735 1735 1737 1740 1742 1744 1750 1751 1755 1761 1764 1766 1770 1773 1777 1778 1779 1780 1781 1782 1783 1784 1784 1784 1784 1784 1783 1783 1781 1781 1781 1781 1781 1781 1778 1773 1765 1761 1757 1753 1747 1744 1741 1738 1733 1730 1727 1725 1724 1722 1721 1719 1719 1718 1717 1717 1717 1717 1717 1717 1717 1717 1716 1716 1715 1715 1715 1714 1714 1713 1713 1713 1713 1714 1714 1714 1715 1715 1715 1715 1715 1715 1715 1726 1734 1761 0 0 0 1985 2037 2066 2071 2074 2079 2079 2091 2093 2093 0 0 0 2647 2720 2805 2835 2865 2868 2895 2898 2898 2898 2875 2728 2696 2641 0 0 0 0 0 0 0 0 0 0 0 0 0 0 0 0 0 0 0 0 0 0 0 0 0 0 0 0 0 0 0 0 0 0 0 0 0 0 0 0 0 0 0 0 0 0 0 0 0 0 0 0 0 0 0 0 0 0 0 0 0 0 0 0 0 0 0 0 0 0 0
0 0 0 0 0 0 0 0 0 0 0 0 0 0 0 0 0 0 0 0 0 0 0 0 0 0 0 0 0 0 0 0 0 0 0 2045 2070 2073 2085 2097 2100 2100 2100 2094 2086 2086 2086 2090 2091 0 0 0 0 0 0 0 0 0 0 0 0 0 0 0 0 0 0 0 0 0 0 0 0 0 0 0 0 0 0 0 0 0 0 0 0 0 0 0 0 0 0 0 0 0 0 0 0 0 0 0 0 0 0 2509 2575 2645 2882 2911 2918 2918 2918 2915 2912 2911 2901 2900 2886 2886 2882 2851 2794 2794 2794 2805 2807 2826 2841 2841 2845 2854 2857 2863 2872 2872 2872 2857 2828 2801 2783 2752 2721 2691 2689 2666 2666 2666 2670 2670 2676 2676 2666 2652 2651 2651 2651 2657 2657 2668 2668 2650 2642 2642 2642 2648 2651 2674 2674 2697 2697 2697 2695 2661 2661 2661 2689 2769 2790 2796 2801 2796 2802 2803 2807 2822 2824 2847 2847 2847 2820 2793 2750 2750 2750 2769 2793 2793 2793 2801 2801 2791 2791 2791 2791 2791 2798 2861 2861 2861 2834 2834 2834 2850 2867 2940 2943 2952 2952 2972 2994 3001 3012 3013 3012 3013 3015 3013 3012 3004 2990 2990 2989 2990 2990 3003 3010 3015 3023 3023 3023 3018 3012 3012 3010 3010 3012 3013 3014 3014 3016 3014 3007 3001 3002 3002 3002 3012 3029 3043 3055 3059 3059 3059 3059 3059 3071 3113 3113 3113 3109 3071 3043 3015 3002 3002 3002 3012 3037 3069 3079 3082 3089 3108 3108 3108 3105 3105 3105 3105 3118 3123 3127 3130 3131 3133 3136 3143 3159 3169 3170 3171 3171 3171 3165 3150 3137 3105 3000 2781 2604 2504 2450 2420 2397 2378 2365 2350 2334 2326 2320 2312 2304 2299 2294 2291 2288 2283 2279 2274 2266 2260 2255 2251 2248 2244 2242 2238 2234 2232 2228 2224 2220 2217 2214 2211 2209 2203 2197 2192 2185 2182 2181 2180 2180 2180 2178 2173 2163 2156 2151 2150 2147 2139 2121 2095 0 0 0 0 0 0 0 0 1727 1727 1727 1727 1727 1725 1722 1722 1722 1724 1726 1726 1726 1726 1726 1726 1726 1727 1727 1728 1729 1731 1733 1733 1734 1735 1736 1738 1738 1739 1739 1739 1739 1740 1740 1740 1741 1741 1741 1742 1742 1743 1744 1744 1744 1744 1746 1746 1747 1748 1750 1752 1753 1754 1755 1755 1756 1757 1757 1757 1758 1759 1759 1760 1761 1761 1761 1761 1761 1761 1760 1758 1757 1756 1755 1752 1750 1743 1736 1736 1735 1735 1735 1735 1739 1742 1744 1745 1749 1754 1754 1755 1755 1766 1771 1777 1778 1779 1780 1780 1781 1782 1783 1783 1783 1783 1782 1782 1781 1781 1778 1778 1778 1778 1778 1774 1768 1764 1761 1756 1750 1745 1742 1739 1736 1733 1730 1727 1725 1724 1722 1721 1719 1719 1718 1718 1718 1718 1718 1718 1718 1718 1718 1718 1717 1717 1716 1716 1715 1715 1715 1715 1715 1715 1715 1715 1715 1715 1716 1716 1715 1715 1715 1715 1727 1740 0 0 0 0 1999 2047 2067 2071 2075 2082 2082 2089 2093 2093 0 0 0 2657 2747 2826 2854 2868 2872 2887 2887 2887 2869 2761 2654 2640 0 0 0 0 0 0 0 0 0 0 0 0 0 0 0 0 0 0 0 0 0 0 0 0 0 0 0 0 0 0 0 0 0 0 0 0 0 0 0 0 0 0 0 0 0 0 0 0 0 0 0 0 0 0 0 0 0 0 0 0 0 0 0 0 0 0 0 0 0 0 0 0
0 0 0 0 0 0 0 0 0 0 0 0 0 0 0 0 0 0 0 0 0 0 0 0 0 0 0 0 0 0 0 0 0 0 0 0 2067 2069 2076 2076 2076 0 0 0 2072 2075 2072 2072 0 0 0 0 0 0 0 0 0 0 0 0 0 0 0 0 0 0 0 0 0 0 0 0 0 0 0 0 0 0 0 0 0 0 0 0 0 0 0 0 0 0 0 0 0 0 0 0 0 0 0 0 0 0 0 2586 2660 2814 2883 2914 2920 2920 2922 2922 2922 2918 2917 2899 2884 2883 2874 2799 2767 2767 2767 2831 2832 2833 2841 2845 2854 2859 2863 2863 2863 2863 2863 2857 2828 2786 2755 2738 2718 2704 2699 2699 2699 2708 2708 2708 2696 2691 2678 2672 2672 2672 2683 2683 2683 2672 2668 2668 2672 2750 2750 2750 2714 2699 2697 2697 2699 2699 2697 2698 2698 2698 2728 2769 2790 2796 2801 2802 2803 2806 2823 2850 2865 2865 2865 2847 2820 2793 2750 2750 2750 2769 2793 2793 2793 2785 2784 2781 2780 2780 2780 2780 2780 2773 2781 2781 2794 2816 2822 2850 2867 2925 2940 2944 2944 2960 2960 2977 2977 2960 2950 2952 2951 2950 2950 2951 2951 2969 2977 2983 2984 2998 3007 3016 3025 3025 3025 3020 3015 3014 3014 3014 3021 3024 3027 3030 3032 3032 3030 3017 3005 3004 3004 3005 3027 3039 3049 3053 3053 3053 3048 3048 3048 3059 3100 3100 3100 3071 3047 3035 3002 3002 3002 3012 3022 3063 3069 3069 3077 3097 3105 3105 3105 3105 3105 3107 3118 3123 3129 3129 3129 3132 3132 3145 3161 3169 3184 3185 3185 3185 3172 3154 3138 3107 2976 2756 2602 2495 2427 2410 2396 2378 2365 2346 2333 2326 2320 2312 2306 2301 2297 2293 2288 2285 2280 2275 2268 2261 2256 2252 2248 2243 2240 2236 2232 2229 2226 2223 2220 2217 2214 2211 2208 2203 2200 2197 2192 2186 2183 2183 2181 2180 2179 2174 2174 2172 2172 2168 2161 2151 2136 2127 2120 2111 0 0 0 0 0 0 0 0 0 1730 1728 1727 1722 1722 1722 1724 1726 1726 1726 1726 1726 1726 1726 1726 1727 1727 1729 1731 1733 1733 1734 1736 1737 1738 1739 1739 1739 1739 1739 1740 1740 1740 1740 1741 1741 1742 1743 1743 1743 1744 1744 1744 1746 1747 1748 1748 1750 1752 1754 1754 1755 1755 1756 1757 1757 1757 1758 1758 1759 1760 1760 1761 1761 1761 1761 1760 1759 1758 1757 1755 1755 1752 1747 1740 1736 1736 1735 1735 1735 1735 1739 1742 1744 1745 1747 1749 1749 1752 1753 1754 1767 1775 1778 1778 1778 1780 1780 1782 1782 1782 1782 1782 1781 1781 1780 1778 1777 1777 1776 1776 1774 1769 1765 1762 1758 1753 1748 1744 1740 1737 1735 1731 1729 1726 1724 1724 1722 1721 1720 1719 1719 1719 1719 1719 1719 1719 1720 1719 1719 1719 1719 1719 1717 1717 1716 1716 1716 1716 1716 1715 1716 1716 1716 1716 1716 1716 1716 1716 1716 1717 1728 1751 0 0 0 0 2014 2055 2067 2072 2076 2088 2088 2089 2095 0 0 0 2579 2674 2794 2858 2860 2868 2873 2873 2868 2859 2746 2617 2597 0 0 0 0 0 0 0 0 0 0 0 0 0 0 0 0 0 0 0 0 0 0 0 0 0 0 0 0 0 0 0 0 0 0 0 0 0 0 0 0 0 0 0 0 0 0 0 0 0 0 0 0 0 0 0 0 0 0 0 0 0 0 0 0 0 0 0 0 0 0 0 0 0
0 0 0 0 0 0 0 0 0 0 0 0 0 0 0 0 0 0 0 0 0 0 0 0 0 0 0 0 0 0 0 0 0 0 0 0 0 0 0 0 0 0 0 0 0 0 0 0 0 0 0 0 0 0 0 0 0 0 0 0 0 0 0 0 0 0 0 0 0 0 0 0 0 0 0 0 0 0 0 0 0 0 0 0 0 0 0 0 0 0 0 0 0 0 0 0 0 0 0 0 0 0 2647 2709 2766 2822 2892 2930 2930 2931 2935 2951 2951 2951 2932 2896 2874 2855 2795 2736 2736 2736 2773 2831 2831 2831 2832 2841 2854 2859 2859 2859 2859 2835 2776 2776 2761 2757 2755 2738 2738 2738 2746 2764 2769 2772 2776 2791 2791 2776 2802 2812 2815 2857 2857 2857 2785 2740 2739 2739 2740 2769 2876 2876 2876 2853 2820 2783 2782 2765 2755 2753 2755 2761 2761 2781 2801 2809 2819 2831 2849 2856 2890 2893 2893 2893 2884 2847 2820 2817 2815 2815 2817 2817 2815 2815 2805 2785 2784 2781 2780 2780 2780 2780 2780 2773 2781 2781 2794 2816 2822 2850 2906 2906 2927 2940 2927 2921 2921 2908 2871 2871 2871 2913 2914 2917 2917 2936 2944 2952 2970 2979 2981 2989 3007 3027 3034 3034 3027 3024 3018 3018 3018 3021 3022 3024 3027 3030 3032 3032 3030 3017 3014 3011 3011 3011 3022 3022 3025 3035 3036 3036 3037 3043 3043 3052 3057 3060 3061 3060 3057 3050 3026 3012 3012 3012 3022 3060 3061 3063 3077 3090 3103 3103 3103 3103 3103 3109 3118 3123 3131 3131 3131 3133 3133 3145 3161 3177 3197 3197 3197 3196 3187 3172 3146 3107 2976 2756 2593 0 2426 2410 2396 2377 2365 2345 2333 2326 2320 2312 2306 2303 2299 2294 2289 2285 2280 2275 2268 2261 2256 2252 2248 2243 2240 2235 2232 2229 2226 2223 2219 2217 2213 2211 2208 2204 2203 2198 2195 2192 2187 2184 2183 2182 2179 2179 2179 2177 2177 2173 2169 2155 2149 2140 2134 2127 2123 2113 0 0 0 0 0 0 0 0 0 1737 1726 1725 1725 1725 1726 1726 1726 1726 1726 1726 1726 1726 1727 1727 1728 1731 1733 1733 1734 1736 1737 1738 1738 1739 1739 1739 1739 1739 1739 1740 1740 1741 1741 1742 1743 1743 1743 1744 1744 1745 1746 1748 1748 1749 1750 1752 1753 1755 1755 1755 1756 1757 1757 1757 1758 1758 1758 1759 1760 1761 1761 1761 1760 1760 1759 1758 1756 1755 1755 1749 1741 1737 1736 1736 1735 1735 1735 1735 1737 1741 1742 1742 1743 1744 1745 1747 1749 1754 1766 1772 1778 1778 1778 1778 1780 1780 1780 1780 1780 1780 1780 1780 1779 1776 1776 1775 1774 1773 1768 1764 1760 1758 1754 1750 1746 1743 1739 1737 1733 1731 1728 1726 1724 1724 1722 1721 1720 1720 1719 1719 1720 1720 1721 1721 1721 1721 1721 1721 1720 1720 1718 1718 1718 1718 1717 1717 1717 1717 1717 1717 1717 1717 1717 1717 1717 1717 1719 1720 1731 0 0 0 0 1994 2035 2060 2069 2071 2076 2088 2088 2090 2099 0 0 0 2581 2701 2834 2863 2880 2880 2880 2880 2859 2775 2626 0 0 0 0 0 0 0 0 0 0 0 0 0 0 0 0 0 0 0 0 0 0 0 0 0 0 0 0 0 0 0 0 0 0 0 0 0 0 0 0 0 0 0 0 0 0 0 0 0 0 0 0 0 0 0 0 0 0 0 0 0 0 0 0 0 0 0 0 0 0 0 0 0 0 0
0 0 0 0 0 0 0 0 0 0 0 0 0 0 0 0 0 0 0 0 0 0 0 0 0 0 0 0 0 0 0 0 0 0 0 0 0 0 0 0 0 0 0 0 0 0 0 0 0 0 0 0 0 0 0 0 0 0 0 0 0 0 0 0 0 0 0 0 0 0 0 0 0 0 0 0 0 0 0 0 0 0 0 0 0 0 0 0 0 0 0 0 0 0 0 0 0 0 0 0 0 2700 2760 2782 2813 2851 2894 2931 2935 2967 2994 2994 2994 2953 2932 2896 2841 2819 2773 2729 2729 2729 2780 2831 2831 2831 2832 2833 2843 2859 2859 2859 2852 2816 2772 2772 2761 2757 2755 2738 2738 2738 2764 2796 2796 2796 2797 2802 2802 2809 2812 2824 2872 2898 2904 2904 2898 2809 2809 2809 2872 2878 2880 2880 2878 2857 2821 2800 2792 2792 2792 2811 2851 2857 2866 2872 2878 2878 2878 2888 2888 2888 2905 2905 2905 2893 2876 2855 2851 2851 2851 2851 2851 2840 2830 2819 2810 2802 2800 2785 2785 2785 2781 2781 2781 2781 2781 2781 2794 2828 2870 2915 2940 2940 2915 2898 2889 2888 2868 2848 2847 2847 2847 2912 2913 2917 2917 2936 2944 2952 2973 2979 2980 2989 3010 3059 3059 3059 3041 3037 3035 3032 3027 3027 3024 3024 3027 3030 3032 3032 3030 3014 3011 3011 3012 3011 3011 3012 3014 3016 3028 3028 3034 3036 3036 3045 3052 3052 3052 3052 3052 3052 3052 3052 3049 3049 3043 3043 3051 3063 3077 3087 3090 3090 3095 3097 3100 3112 3118 3123 3134 3134 3134 3143 3143 3145 3167 3196 3209 3209 3209 3196 3187 3172 3146 3105 2976 2756 2582 0 2426 2407 2394 2377 2362 2344 2333 2326 2321 2313 2306 2303 2299 2294 2289 2285 2280 2275 2268 2262 2257 2253 2249 2243 2240 2235 2232 2229 2226 2223 2219 2217 2213 2211 2208 2206 2203 2200 2196 2192 2190 2185 2183 2182 2182 2182 2182 2182 2182 2176 2172 2166 2159 2150 2141 2133 2128 2119 2110 2094 0 0 0 0 0 0 0 0 0 1728 1728 1728 1727 1727 1727 1727 1727 1727 1727 1727 1727 1727 1727 1730 1733 1734 1734 1736 1737 1738 1738 1738 1738 1738 1739 1739 1739 1739 1740 1741 1741 1742 1743 1743 1743 1744 1744 1745 1746 1748 1748 1749 1750 1752 1753 1754 1755 1755 1756 1756 1757 1757 1757 1758 1758 1759 1760 1760 1760 1760 1760 1760 1759 1757 1756 1755 1753 1745 1733 1733 1733 1734 1734 1735 1735 1735 1737 1739 1739 1740 1740 1740 1743 1743 1745 1754 1766 1772 1776 1777 1777 1777 1778 1779 1780 1780 1780 1779 1778 1778 1776 1774 1773 1771 1770 1766 1763 1760 1757 1753 1749 1747 1744 1742 1739 1736 1733 1731 1728 1726 1724 1724 1722 1721 1721 1721 1720 1720 1721 1721 1722 1722 1723 1723 1723 1722 1722 1721 1720 1720 1720 1719 1719 1719 1719 1719 1718 1718 1718 1718 1718 1718 1719 1720 1724 1724 1733 0 0 0 0 2011 2049 2064 2070 2071 2076 2088 2088 2091 2099 0 0 0 2594 2749 2837 2903 2903 2903 2896 2872 2795 2690 2534 0 0 0 0 0 0 0 0 0 0 0 0 0 0 0 0 0 0 0 0 0 0 0 0 0 0 0 0 0 0 0 0 0 0 0 0 0 0 0 0 0 0 0 0 0 0 0 0 0 0 0 0 0 0 0 0 0 0 0 0 0 0 0 0 0 0 0 0 0 0 0 0 0 0 0
0 0 0 0 0 0 0 0 0 0 0 0 0 0 0 0 0 0 0 0 0 0 0 0 0 0 0 0 0 0 0 0 0 0 0 0 0 0 0 0 0 0 0 0 0 0 0 0 0 0 0 0 0 0 0 0 0 0 0 0 0 0 0 0 0 0 0 0 0 0 0 0 0 0 0 0 0 0 0 0 0 0 0 0 0 0 0 0 0 0 0 0 0 0 0 0 0 0 0 0 2711 2749 2773 2824 2865 2904 2940 2941 2956 2977 2994 2994 2994 2953 2932 2854 2820 2746 2727 2727 2727 2732 2780 2796 2807 2823 2823 2823 2813 2793 2773 2773 2772 2772 2772 2772 2772 2761 2757 2751 2751 2751 2767 2799 2802 2802 2805 2805 2805 2809 2812 2824 2872 2898 2904 2904 2899 2899 2872 2872 2872 2880 2883 2883 2880 2857 2821 2810 2810 2810 2823 2848 2868 2870 2883 2892 2911 2912 2926 2934 2934 2934 2910 2909 2905 2893 2876 2855 2855 2855 2865 2865 2865 2843 2835 2822 2822 2817 2814 2814 2814 2814 2825 2835 2835 2837 2843 2870 2889 2904 2914 2915 2915 2915 2911 2874 2859 2853 2852 2848 2847 2847 2847 2889 2903 2912 2917 2936 2944 2952 2971 2973 2976 2989 3029 3064 3073 3073 3073 3065 3057 3050 3028 3027 3027 3027 3025 3024 3020 3004 3004 3004 3008 3011 3012 3011 3011 3012 3013 3014 3023 3027 3029 3030 3034 3034 3036 3038 3039 3043 3047 3050 3050 3051 3051 3049 3040 3027 3027 3040 3072 3082 3082 3083 3090 3095 3099 3107 3118 3123 3137 3153 3154 3155 3159 3172 3200 3216 3216 3216 3211 3196 3187 3172 3146 3107 2993 2776 2582 0 2426 2407 2390 2377 2361 2345 2334 2327 2322 2314 2307 2304 2299 2294 2289 2283 2279 2275 2268 2262 2258 2253 2249 2244 2240 2235 2232 2229 2226 2223 2219 2217 2213 2212 2211 2209 2205 2201 2198 2196 2193 2188 2187 2184 2184 2184 2184 2184 2183 2180 2179 2178 2176 2174 2170 2158 2143 2141 2136 2124 2109 2103 0 0 0 0 0 0 0 0 0 1730 1730 1729 1729 1729 1728 1729 1729 1729 1728 1729 1730 1730 1732 1734 1734 1736 1737 1738 1738 1738 1738 1738 1738 1738 1739 1739 1740 1740 1740 1741 1741 1742 1743 1744 1744 1745 1746 1748 1748 1749 1750 1752 1753 1754 1754 1755 1756 1756 1757 1757 1757 1758 1758 1759 1759 1759 1760 1760 1760 1760 1758 1757 1756 1755 1751 1744 1733 1733 1733 1733 1733 1735 1735 1735 1736 1736 1736 1737 1737 1740 1743 1743 1745 1758 1766 1772 1772 1773 1775 1775 1776 1778 1778 1778 1778 1777 1776 1774 1774 1773 1771 1766 1764 1764 1760 1757 1754 1750 1746 1745 1744 1741 1739 1736 1733 1731 1728 1726 1726 1724 1722 1722 1722 1722 1721 1722 1722 1722 1722 1723 1723 1723 1723 1723 1723 1722 1722 1722 1722 1722 1721 1720 1720 1720 1720 1719 1719 1718 1718 1718 1719 1725 1726 1730 1745 0 0 0 1980 2015 2055 2064 2070 2071 2073 2083 2091 2098 2099 0 0 0 2596 2751 2878 2903 2903 2903 2896 2839 2706 2585 0 0 0 0 0 0 0 0 0 0 0 0 0 0 0 0 0 0 0 0 0 0 0 0 0 0 0 0 0 0 0 0 0 0 0 0 0 0 0 0 0 0 0 0 0 0 0 0 0 0 0 0 0 0 0 0 0 0 0 0 0 0 0 0 0 0 0 0 0 0 0 0 0 0 0 0
0 0 0 0 0 0 0 0 0 0 0 0 0 0 0 0 0 0 0 0 0 0 0 0 0 0 0 0 0 0 0 0 0 0 0 0 0 0 0 0 0 0 0 0 0 0 0 0 0 0 0 0 0 0 0 0 0 0 0 0 0 0 0 0 0 0 0 0 0 0 0 0 0 0 0 0 0 0 0 0 0 0 0 0 0 0 0 0 0 0 0 0 0 0 0 0 0 0 0 0 2711 2749 2773 2824 2865 2913 2940 2956 2965 2977 2994 2994 2994 2935 2784 2701 2685 2685 2685 2696 2727 2745 2773 2773 2773 2768 2748 2745 2745 2748 2748 2755 2773 2773 2773 2776 2785 2790 2790 2790 2796 2796 2799 2818 2818 2818 2805 2805 2805 2812 2818 2837 2878 2898 2904 2904 2899 2899 2872 2872 2872 2877 2878 2878 2877 2857 2821 2821 2821 2850 2851 2868 2869 2870 2883 2892 2911 2912 2926 2934 2934 2934 2910 2905 2898 2896 2876 2861 2861 2861 2879 2879 2879 2876 2835 2822 2822 2822 2822 2832 2833 2834 2837 2837 2838 2839 2849 2876 2889 2904 2914 2914 2914 2882 2859 2850 2850 2849 2848 2848 2848 2848 2854 2889 2903 2912 2934 2957 2967 2971 2973 2975 2975 2995 3038 3067 3080 3080 3080 3068 3066 3063 3046 3036 3025 3025 3021 3020 3020 3002 3001 3001 3001 3008 3011 3011 3011 3011 3011 3011 3012 3017 3021 3021 3021 3019 3019 3019 3029 3041 3047 3050 3050 3051 3051 3049 3040 3021 3009 3009 3009 3073 3077 3082 3088 3090 3098 3107 3114 3123 3142 3171 3171 3176 3178 3199 3230 3230 3230 3216 3211 3184 3165 3148 3136 3104 2993 2803 2582 0 2426 2407 2390 2376 2361 2344 2336 2330 2325 2320 2310 2304 2299 2293 2286 2282 2279 2275 2268 2263 2258 2254 2250 2245 2241 2237 2233 2231 2227 2224 2221 2219 2216 2214 2212 2210 2207 2202 2201 2198 2194 2192 2190 2190 2188 2188 2187 2186 2184 2183 2182 2181 2181 2181 2180 2168 2163 2160 2159 2159 2159 2159 2147 2120 0 0 0 0 0 0 0 0 0 1730 1730 1730 1729 1730 1731 1730 1730 1730 1730 1730 1730 1732 1734 1736 1737 1737 1737 1738 1738 1738 1738 1738 1738 1739 1739 1740 1740 1741 1741 1742 1743 1743 1744 1745 1746 1748 1748 1749 1751 1752 1753 1754 1754 1755 1755 1756 1756 1757 1757 1757 1758 1758 1759 1759 1760 1760 1760 1759 1758 1755 1755 1752 1751 1743 1733 1731 1731 1731 1731 1731 1731 1731 1730 1730 1730 1734 1736 1740 1743 1743 1752 1762 1768 1772 1772 1772 1774 1774 1775 1776 1777 1777 1777 1776 1774 1772 1771 1770 1769 1766 1762 1760 1757 1754 1752 1747 1745 1743 1742 1740 1738 1736 1733 1731 1729 1727 1726 1724 1723 1723 1723 1722 1722 1723 1723 1724 1724 1725 1725 1725 1725 1724 1724 1723 1723 1723 1722 1722 1721 1721 1721 1721 1720 1720 1719 1718 1718 1718 1720 1727 1731 1731 1770 0 0 0 2002 2038 2055 2064 2068 2070 2070 2073 2090 2091 0 0 0 0 2625 2797 2878 2903 2903 2903 2843 2730 2536 0 0 0 0 0 0 0 0 0 0 0 0 0 0 0 0 0 0 0 0 0 0 0 0 0 0 0 0 0 0 0 0 0 0 0 0 0 0 0 0 0 0 0 0 0 0 0 0 0 0 0 0 0 0 0 0 0 0 0 0 0 0 0 0 0 0 0 0 0 0 0 0 0 0 0 0 0
