0 0 0 0 0 0 0 0 0 0 0 0 0 0 0 0 0 0 0 0 0 0 0 0 1765 1800 1812 1845 1845 1845 1843 1759 1735 1735 1735 1787 1831 1831 1831 1792 0 0 0 0 0 0 0 0 1911 1945 1947 1957 2004 2020 2029 2030 2032 2034 2035 2035 2034 2028 2020 2020 2020 2029 2029 2031 2032 2032 2035 2035 2035 2024 1999 1995 1992 1990 1990 1978 1978 1978 1979 1982 1983 1986 1989 2003 2010 2016 2016 2022 2026 2028 2031 2035 2040 2043 2047 2050 2054 2058 2062 2066 2070 2075 2080 2084 2088 2091 2097 2101 2107 2121 2123 2124 2127 2134 2147 2156 2167 2173 2181 2187 2188 2189 2193 2199 2206 2210 2216 2218 2219 2222 2225 2230 2238 2245 2249 2250 2252 2258 2261 2263 2263 2263 2250 2248 2248 2248 2240 2237 2237 2209 2209 0 0 2337 2358 2367 2382 2387 2388 2388 2393 2396 2400 2402 2405 2407 2410 2416 2425 2434 2442 2445 2449 2456 2465 2472 2477 2481 2482 2489 2498 2498 2498 2505 2505 2531 2546 2568 2578 2578 2586 2654 2854 3036 3208 3259 3342 3384 3397 3400 3412 3415 3416 3435 3442 3444 3444 3455 3455 3462 3484 3486 3486 3487 3486 3485 3478 3475 3470 3469 3469 3469 3470 3472 3481 3481 3481 3481 3481 3482 3486 3486 3488 3488 3488 3489 3488 3488 3487 3486 3486 3486 3487 3487 3490 3490 3490 3498 3502 3504 3505 3505 3506 3509 3513 3506 3506 3497 3463 3427 3358 3158 2761 2761 2761 3182 3461 3507 3507 3514 3514 3518 3520 3520 3520 3520 3517 3511 3455 3363 3068 2677 0 0 2304 2273 2262 2250 2236 2225 2212 2202 2187 2176 2167 2163 2154 2146 2145 2144 2143 2139 2136 2132 2129 2126 2123 2122 2120 2118 2117 2117 2116 2114 2113 2112 2111 2110 2110 2109 2109 2109 2108 2108 2108 2108 2108 2108 2108 2108 2108 2108 2109 2110 2110 2111 2112 2113 2113 2115 2117 2118 2120 2121 2123 2125 2127 2128 2129 2131 2134 2136 2137 2140 2143 2145 2149 2152 2154 2159 2166 2173 2178 2180 2183 2189 2194 2199 2202 2206 2213 2221 2223 2225 2228 2235 2237 2237 2237 2222 2222 2222 2222 0 0 0 0 0 2356 2356 2359 2363 2366 2369 2369 2369 2346 2289 2264 2244 2220 2204 2194 2190 2184 2178 2173 2167 2159 2148 2139 2132 2126 2117 2112 2106 2101 2096 2093 2088 2084 2080 2076 2072 2067 2061 2054 2050 2045 2038 2033 2030 2028 2026 2024 2021 2018 2016 2013 2011 2008 2004 2002 1997 1994 1991 1989 1987 1986 1984 1981 1979 1977 1976 1975 1974 1973 1972 1972 1970 1969 1968 1967 1966 1965 1964 1962 1962 1961 1960 1959 1957 1956 1955 1955 1955 1955 1956 1956 1956 1957 1957 1957 1957 1957 1957 1957 1957 1957 1958 1959 1959 1960 1960 1960 1960 1961 1965 1966 1966 1966 1967 1970 1973 1973 1978 1978 1978 0 0 0 0 0 0 0 0 0 0 0 0 0 0 0 0 0 0 0 0 0 0 0 0 2473 2479 2479 2479 2463 2442 2421 2403 2385 2376 2359 2348 2319 2298 0 0 0 0 0 0 0 0 0 0 0 0 0 0 0 0 0 0 0 0 0 0 0 0 0 0 0 0 0 0 0 0 0 0 0 0 0 0 0 0 0 0 0 0 0 0 0 0 0 0 0 0 0 0 0 0 0 0 0 0 0 0 0 0 0 0 0 0 0 0 0 0 0 0 0 0 0 0 0 0 0 1204 1204 1204 1204 1205 1213 1217 1218 1218
0 0 0 0 0 0 0 0 0 0 0 0 0 0 0 0 0 0 0 0 0 0 0 0 0 1800 1819 1842 1842 1842 1808 1759 1735 1735 1735 1787 1830 1830 1830 1792 0 0 0 0 0 0 0 0 1911 1935 1947 1950 1981 2002 2008 2008 2011 2011 2019 2019 2019 2015 2007 2007 2007 2022 2022 2022 2022 2021 2021 2021 2021 2003 1993 1956 1956 1956 1958 1970 1974 1977 1979 1980 1983 1986 1989 2001 2008 2013 2016 2022 2026 2028 2029 2032 2037 2043 2047 2051 2056 2059 2062 2067 2070 2075 2080 2084 2088 2091 2101 2106 2118 2129 2132 2135 2138 2146 2154 2163 2170 2176 2183 2187 2189 2189 2194 2199 2206 2210 2213 2217 2221 2224 2225 2230 2238 2245 2252 2257 2257 2258 2261 2266 2266 2266 2263 2248 2247 2240 2235 2231 2215 2201 2201 0 0 2330 2357 2367 2378 2381 2384 2386 2390 2395 2400 2402 2405 2407 2410 2413 2422 2433 2442 2444 2445 2454 2465 2471 2476 2481 2482 2489 2499 2499 2499 2505 2505 2533 2554 2585 2615 2629 2749 2991 3157 3207 3261 3321 3364 3384 3397 3400 3412 3415 3416 3432 3440 3442 3442 3455 3455 3456 3478 3483 3485 3485 3485 3474 3474 3469 3469 3469 3469 3469 3470 3470 3481 3481 3481 3479 3479 3479 3484 3486 3488 3488 3486 3484 3484 3484 3483 3483 3486 3486 3486 3486 3486 3487 3487 3487 3492 3497 3499 3500 3500 3504 3504 3500 3496 3495 3459 3427 3358 3162 2816 2816 2816 3019 3393 3501 3501 3507 3513 3513 3520 3520 3520 3519 3511 3468 3433 3392 3227 2867 2528 0 0 2277 2264 2250 2236 2225 2212 2202 2192 2179 2171 2164 2156 2149 2148 2146 2144 2139 2136 2132 2130 2127 2124 2122 2120 2118 2117 2117 2116 2116 2114 2113 2111 2110 2110 2110 2109 2109 2109 2109 2109 2109 2109 2109 2109 2109 2110 2110 2110 2111 2111 2112 2113 2115 2115 2116 2118 2119 2120 2121 2123 2125 2127 2128 2129 2132 2135 2136 2138 2140 2143 2145 2149 2152 2154 2159 2165 2173 2178 2180 2183 2189 2194 2198 2202 2206 2216 2222 2224 2225 2228 2235 2236 2236 2236 2236 2236 2263 2263 0 0 0 0 2355 2356 2374 2379 2383 2384 2383 2383 2371 2346 2303 2264 2244 2220 2204 2194 2188 2182 2177 2172 2165 2157 2147 2139 2132 2126 2122 2116 2109 2102 2096 2092 2089 2086 2080 2077 2072 2067 2062 2056 2052 2047 2040 2034 2031 2029 2027 2026 2022 2019 2016 2013 2011 2008 2005 2002 1998 1994 1991 1990 1988 1987 1985 1982 1979 1977 1976 1975 1974 1974 1972 1971 1970 1969 1968 1967 1966 1965 1964 1963 1962 1961 1961 1960 1957 1956 1956 1956 1956 1956 1956 1956 1956 1957 1957 1957 1957 1957 1957 1957 1957 1957 1957 1959 1959 1959 1959 1960 1960 1961 1965 1966 1966 1967 1967 1970 1973 1979 1986 1986 1986 0 0 0 0 0 0 0 0 0 0 0 0 0 0 0 0 0 0 0 0 0 0 0 2445 2473 2479 2479 2479 2458 2432 2418 2403 2385 2373 2359 2346 2319 2298 0 0 0 0 0 0 0 0 0 0 0 0 0 0 0 0 0 0 0 0 0 0 0 0 0 0 0 0 0 0 0 0 0 0 0 0 0 0 0 0 0 0 0 0 0 0 0 0 0 0 0 0 0 0 0 0 0 0 0 0 0 0 0 0 0 0 0 0 0 0 0 0 0 0 0 0 0 0 0 0 0 1195 1195 1195 1195 1205 1212 1217 1218 1218
0 0 0 0 0 0 0 0 0 0 0 0 0 0 0 0 0 0 0 0 0 0 0 0 0 1800 1833 1834 1834 1834 1808 1759 1754 1754 1754 1806 1830 1830 1830 1792 0 0 0 0 0 0 0 0 1866 1899 1923 1943 1981 1985 1998 2008 2011 2011 2019 2019 2019 2015 2007 2004 2001 1989 1989 1989 1991 1991 1991 1984 1983 1971 1970 1956 1955 1955 1955 1960 1973 1977 1980 1983 1984 1986 1994 2001 2008 2013 2016 2022 2025 2025 2026 2026 2034 2042 2047 2051 2056 2059 2062 2067 2071 2076 2080 2084 2090 2097 2102 2106 2120 2130 2137 2141 2145 2152 2160 2167 2173 2176 2183 2187 2189 2189 2194 2201 2205 2208 2213 2217 2221 2224 2228 2232 2238 2245 2252 2257 2259 2262 2265 2269 2275 2275 2275 2261 2240 2234 2232 2229 2213 2183 2183 0 0 2322 2355 2367 2372 2375 2376 2378 2388 2395 2399 2401 2404 2406 2410 2413 2422 2433 2444 2444 2445 2454 2465 2468 2469 2474 2482 2489 2499 2499 2499 2504 2504 2533 2596 2661 2811 2953 3136 3185 3228 3292 3331 3361 3365 3384 3397 3419 3426 3445 3445 3445 3442 3442 3442 3452 3455 3456 3469 3469 3470 3474 3470 3469 3469 3468 3468 3467 3466 3464 3464 3466 3468 3468 3469 3472 3472 3472 3482 3486 3488 3488 3486 3484 3484 3484 3483 3483 3487 3487 3487 3487 3487 3487 3487 3486 3487 3491 3492 3496 3496 3498 3503 3498 3495 3493 3459 3427 3358 3172 2826 2826 2826 2971 3340 3449 3478 3485 3490 3505 3524 3524 3524 3519 3490 3452 3433 3405 3276 3017 2708 0 0 2292 2265 2250 2236 2227 2215 2202 2193 2183 2176 2170 2164 2154 2152 2148 2144 2142 2136 2133 2131 2128 2125 2122 2120 2118 2117 2117 2117 2116 2115 2113 2112 2111 2110 2110 2110 2110 2110 2110 2110 2110 2110 2110 2110 2110 2110 2110 2111 2111 2112 2113 2114 2115 2116 2117 2119 2120 2120 2122 2124 2125 2127 2128 2129 2132 2135 2137 2140 2143 2146 2149 2152 2153 2154 2159 2165 2172 2176 2179 2183 2189 2194 2198 2202 2209 2218 2223 2224 2226 2228 2235 2235 2235 2230 2230 2230 2268 0 0 0 0 2356 2356 2356 2374 2387 2422 2422 2422 2417 2396 2360 2307 2264 2244 2216 2209 2194 2188 2180 2176 2170 2164 2157 2147 2138 2132 2126 2122 2116 2109 2102 2096 2092 2090 2088 2085 2079 2072 2067 2064 2057 2055 2048 2042 2036 2035 2032 2030 2027 2024 2021 2017 2013 2011 2008 2005 2002 1999 1996 1992 1991 1988 1987 1985 1982 1980 1978 1977 1976 1975 1974 1972 1971 1970 1969 1967 1967 1966 1965 1964 1963 1963 1963 1961 1960 1958 1956 1956 1956 1956 1956 1956 1956 1956 1957 1957 1957 1957 1957 1957 1957 1957 1957 1957 1958 1959 1959 1959 1960 1960 1962 1965 1966 1966 1966 1966 1966 1973 1981 1986 1986 1986 0 0 0 0 0 0 0 0 0 0 0 0 0 0 0 0 0 0 0 0 0 0 0 2445 2463 2463 2463 2459 2438 2428 2407 2392 2383 2372 2362 2346 2319 0 0 0 0 0 0 0 0 0 0 0 0 0 0 0 0 0 0 0 0 0 0 0 0 0 0 0 0 0 0 0 0 0 0 0 0 0 0 0 0 0 0 0 0 0 0 0 0 0 0 0 0 0 0 0 0 0 0 0 0 0 0 0 0 0 0 0 0 0 0 0 0 0 0 0 0 0 0 0 0 0 0 0 1194 1194 1194 1197 1211 1217 1223 1223
0 0 0 0 0 0 0 0 0 0 0 0 0 0 0 0 0 0 0 0 0 0 0 0 0 0 1833 1833 1833 1831 1808 1792 1791 1791 1792 1806 1827 1827 1827 1801 0 0 0 0 0 0 0 0 1864 1883 1916 1943 1981 1985 1998 2008 2011 2011 2019 2019 2019 2015 2007 2004 2001 1989 1978 1977 1976 1973 1966 1966 1966 1966 1966 1956 1951 1951 1951 1960 1973 1977 1980 1984 1987 1990 1994 1999 2003 2010 2014 2018 2023 2024 2024 2025 2026 2038 2045 2051 2056 2059 2062 2067 2071 2076 2083 2088 2095 2101 2106 2112 2120 2132 2139 2144 2147 2153 2163 2169 2175 2176 2183 2186 2189 2189 2194 2201 2205 2208 2213 2217 2224 2229 2233 2237 2240 2245 2252 2257 2259 2262 2266 2269 2277 2280 2280 2280 2244 2234 2226 2214 2199 2180 2180 2180 0 2320 2354 2359 2363 2369 2372 2378 2383 2389 2395 2400 2400 2406 2408 2411 2420 2431 2444 2445 2445 2454 2462 2466 2467 2470 2477 2486 2499 2499 2504 2504 2504 2598 2787 2959 3152 3211 3248 3265 3302 3347 3366 3369 3371 3384 3396 3419 3437 3446 3446 3446 3451 3451 3451 3452 3452 3455 3468 3468 3469 3473 3469 3468 3468 3468 3467 3466 3464 3462 3459 3459 3459 3464 3466 3472 3472 3472 3480 3484 3486 3486 3486 3484 3486 3486 3484 3488 3488 3488 3488 3488 3481 3481 3481 3481 3481 3487 3492 3495 3495 3496 3498 3498 3495 3493 3458 3409 3331 3198 2845 2845 2845 2954 3294 3431 3462 3483 3484 3499 3511 3516 3516 3511 3475 3440 3430 3406 3334 3145 2797 2553 0 0 2274 2250 2236 2227 2215 2205 2197 2187 2178 2173 2168 2163 2158 2156 2151 2144 2139 2135 2131 2128 2125 2122 2122 2122 2121 2118 2117 2117 2116 2115 2113 2111 2111 2111 2112 2112 2112 2111 2111 2111 2111 2112 2112 2112 2112 2111 2111 2112 2112 2113 2114 2115 2117 2119 2120 2120 2122 2123 2125 2126 2128 2129 2130 2132 2136 2139 2143 2146 2149 2153 2156 2158 2159 2161 2165 2171 2175 2179 2182 2188 2193 2198 2204 2210 2218 2223 2225 2226 2230 2235 2235 2235 2215 2215 2215 0 0 0 0 0 2356 2356 2356 2378 2400 2422 2446 2446 2446 2400 2360 2310 2280 2232 2214 2209 2193 2188 2179 2174 2168 2163 2157 2146 2138 2132 2128 2122 2116 2109 2102 2096 2093 2090 2090 2087 2081 2075 2070 2065 2060 2056 2050 2045 2042 2039 2035 2032 2029 2024 2021 2017 2013 2011 2007 2005 2002 1999 1996 1993 1991 1988 1987 1984 1982 1980 1978 1977 1976 1975 1974 1972 1971 1970 1968 1967 1967 1966 1965 1964 1964 1964 1963 1962 1960 1959 1958 1957 1956 1956 1956 1956 1956 1956 1956 1956 1956 1957 1957 1957 1957 1957 1957 1957 1958 1958 1958 1959 1959 1960 1962 1965 1966 1966 1966 1966 1966 1973 1976 1976 1976 1971 0 0 0 0 0 0 0 0 0 0 0 0 0 0 0 0 0 0 0 0 0 0 0 2434 2434 2438 2438 2434 2418 2418 2402 2390 2378 2372 2360 2346 2325 0 0 0 0 0 0 0 0 0 0 0 0 0 0 0 0 0 0 0 0 0 0 0 0 0 0 0 0 0 0 0 0 0 0 0 0 0 0 0 0 0 0 0 0 0 0 0 0 0 0 0 0 0 0 0 0 0 0 0 0 0 0 0 0 0 0 0 0 0 0 0 0 0 0 0 0 0 0 0 0 0 0 0 1193 1193 1193 1193 1205 1217 1223 1223
0 0 0 0 0 0 0 0 0 0 0 0 0 0 0 0 0 0 0 0 0 0 0 0 0 0 1833 1833 1833 1829 1808 1792 1791 1791 1792 1806 1810 1810 1810 1810 1810 1809 0 0 0 0 0 0 1863 1879 1913 1943 1981 1985 1998 2010 2016 2017 2025 2025 2025 2015 2007 2004 1999 1983 1976 1975 1973 1971 1966 1966 1964 1964 1964 1956 1955 1955 1955 1962 1971 1977 1980 1984 1989 1991 1994 1997 2002 2005 2011 2017 2020 2022 2023 2024 2026 2034 2044 2049 2054 2057 2062 2066 2071 2076 2083 2092 2098 2106 2112 2121 2124 2132 2140 2145 2147 2157 2166 2172 2175 2177 2178 2182 2187 2190 2195 2201 2205 2208 2213 2220 2225 2229 2233 2237 2242 2246 2251 2256 2260 2263 2266 2273 2282 2292 2292 2292 2267 2234 2226 2214 2199 2180 2180 2180 0 2319 2343 2349 2357 2363 2372 2378 2383 2386 2388 2395 2399 2402 2405 2405 2413 2429 2444 2445 2445 2454 2462 2466 2467 2470 2477 2486 2501 2501 2505 2512 2662 2847 2983 3074 3180 3268 3303 3313 3328 3347 3366 3369 3371 3383 3395 3419 3437 3446 3446 3446 3451 3451 3451 3451 3452 3452 3466 3467 3467 3467 3467 3467 3466 3465 3459 3459 3459 3459 3459 3459 3459 3464 3466 3470 3472 3472 3479 3480 3481 3482 3481 3481 3482 3482 3483 3483 3486 3483 3483 3482 3480 3480 3480 3479 3479 3480 3480 3480 3489 3494 3497 3497 3492 3492 3458 3409 3331 3198 2866 2803 2803 2803 3259 3413 3460 3479 3483 3485 3492 3508 3508 3492 3470 3440 3426 3406 3381 3301 2967 2643 0 0 0 2260 2239 2225 2214 2205 2197 2189 2183 2173 2169 2164 2160 2158 2153 2147 2141 2137 2132 2129 2127 2125 2124 2124 2123 2122 2120 2118 2117 2115 2115 2113 2112 2112 2112 2112 2112 2112 2111 2111 2111 2112 2112 2112 2112 2112 2112 2113 2113 2114 2114 2115 2117 2119 2120 2121 2122 2125 2126 2128 2130 2130 2130 2133 2136 2140 2145 2148 2152 2155 2158 2160 2162 2164 2167 2171 2175 2179 2182 2188 2193 2198 2205 2211 2218 2225 2228 2229 2232 2235 2235 2235 2212 2212 0 0 0 0 0 0 2382 2378 2378 2378 2402 2422 2446 2446 2446 2407 2363 2324 2280 2228 2209 2208 2193 2188 2179 2172 2165 2163 2156 2146 2137 2132 2128 2121 2113 2106 2101 2096 2093 2090 2090 2087 2082 2076 2071 2066 2063 2059 2054 2050 2046 2042 2038 2032 2030 2026 2022 2017 2014 2011 2007 2005 2002 1999 1997 1993 1991 1987 1985 1984 1982 1980 1978 1977 1976 1975 1974 1972 1971 1970 1968 1967 1966 1966 1965 1964 1964 1964 1964 1963 1961 1961 1959 1958 1957 1957 1957 1957 1956 1956 1956 1956 1956 1956 1956 1956 1957 1957 1957 1957 1958 1958 1958 1958 1959 1960 1962 1965 1967 1967 1967 1967 1967 1972 1972 1972 1963 1958 0 0 0 0 0 0 0 0 0 0 0 0 0 0 0 0 0 0 0 0 0 0 0 2412 2412 2412 2410 2399 2398 2396 2393 2385 2377 2372 2359 2346 2325 0 0 0 0 0 0 0 0 0 0 0 0 0 0 0 0 0 0 0 0 0 0 0 0 0 0 0 0 0 0 0 0 0 0 0 0 0 0 0 0 0 0 0 0 0 0 0 0 0 0 0 0 0 0 0 0 0 0 0 0 0 0 0 0 0 0 0 0 0 0 0 0 0 0 0 0 0 0 0 0 0 0 0 0 1181 1181 1201 1205 1217 1223 1223
0 0 0 0 0 0 0 0 0 0 0 0 0 0 0 0 0 0 0 0 0 0 0 0 0 0 0 1822 1822 1822 1808 1792 1791 1791 1792 1798 1802 1802 1804 1809 1810 1812 1812 1812 0 0 0 0 1860 1876 1910 1952 1997 2005 2016 2017 2021 2022 2025 2025 2025 2015 2007 2004 1999 1979 1974 1973 1972 1968 1963 1963 1963 1963 1963 1956 1955 1955 1955 1962 1971 1975 1978 1984 1989 1991 1993 1996 2000 2005 2011 2016 2020 2022 2023 2023 2025 2034 2044 2048 2049 2053 2059 2064 2071 2077 2083 2092 2100 2108 2114 2121 2127 2135 2140 2146 2149 2161 2166 2172 2175 2176 2178 2182 2187 2192 2196 2202 2209 2213 2217 2222 2226 2229 2233 2237 2242 2246 2251 2254 2260 2263 2268 2275 2282 2294 2294 2294 2285 2240 2226 2214 2199 2187 2187 2187 2247 2319 2339 2349 2357 2363 2373 2377 2378 2380 2385 2394 2399 2402 2405 2405 2413 2426 2438 2446 2446 2458 2467 2469 2469 2470 2477 2486 2501 2512 2602 2888 3047 3067 3105 3165 3232 3296 3323 3336 3338 3347 3366 3369 3371 3381 3394 3419 3437 3446 3446 3446 3447 3447 3451 3451 3451 3452 3454 3465 3465 3466 3467 3467 3466 3465 3459 3459 3458 3457 3457 3458 3458 3462 3464 3466 3468 3471 3477 3478 3479 3481 3479 3479 3482 3482 3483 3483 3483 3481 3478 3478 3478 3478 3483 3483 3483 3479 3479 3479 3484 3486 3495 3495 3484 3481 3459 3409 3331 3198 2907 2735 2735 2735 3235 3412 3460 3467 3469 3475 3475 3482 3482 3482 3460 3429 3409 3405 3381 3328 3090 2813 2533 0 0 2260 2240 2228 2215 2203 2200 2192 2183 2176 2169 2164 2160 2158 2156 2151 2144 2138 2133 2130 2128 2126 2126 2124 2124 2122 2121 2118 2117 2115 2115 2113 2113 2113 2112 2112 2112 2112 2111 2111 2111 2112 2113 2113 2114 2114 2114 2114 2114 2114 2116 2117 2119 2121 2121 2122 2123 2125 2126 2129 2130 2130 2131 2133 2137 2141 2146 2149 2153 2155 2158 2161 2162 2166 2168 2171 2175 2179 2182 2188 2193 2200 2206 2211 2219 2225 2231 2236 2236 2237 2237 2236 2212 2212 0 0 0 0 0 0 0 2382 2384 2402 2402 2424 2446 2446 2446 2407 2374 2341 2280 2228 2202 2191 2188 2187 2180 2172 2163 2159 2151 2143 2136 2130 2126 2120 2112 2106 2101 2096 2093 2091 2090 2088 2083 2077 2074 2070 2066 2063 2059 2052 2047 2042 2038 2033 2030 2026 2023 2018 2015 2011 2007 2005 2002 1999 1997 1994 1991 1987 1985 1983 1981 1980 1978 1977 1976 1974 1973 1972 1971 1969 1968 1967 1966 1966 1965 1965 1965 1965 1965 1964 1963 1961 1960 1958 1957 1957 1957 1957 1957 1956 1956 1956 1956 1956 1956 1956 1956 1956 1957 1957 1957 1958 1958 1958 1958 1960 1963 1968 1971 1971 1971 1971 1971 1966 1966 1966 1957 1952 0 0 0 0 0 0 0 0 0 0 0 0 0 0 0 0 0 0 0 0 0 0 2399 2399 2399 2384 2375 2375 2375 2382 2382 2382 2377 2368 2356 2346 2325 0 0 0 0 0 0 0 0 0 0 0 0 0 0 0 0 0 0 0 0 0 0 0 0 0 0 0 0 0 0 0 0 0 0 0 0 0 0 0 0 0 0 0 0 0 0 0 0 0 0 0 0 0 0 0 0 0 0 0 0 0 0 0 0 0 0 0 0 0 0 0 0 0 0 0 0 0 0 0 0 0 0 0 0 0 1198 1205 1205 1217 1221 1221
0 0 0 0 0 0 0 0 0 0 0 0 0 0 0 0 0 0 0 0 0 0 0 0 0 0 0 0 0 0 0 1764 1755 1747 1747 1747 1757 1758 1767 1798 1801 1812 1812 1812 1821 1815 1815 1828 1844 1866 1908 1952 2007 2014 2016 2017 2021 2022 2025 2025 2025 2015 2002 1993 1987 1977 1974 1973 1972 1968 1963 1959 1958 1939 1939 1939 1942 1953 1963 1967 1971 1972 1977 1982 1989 1990 1992 1995 1999 2003 2009 2014 2019 2022 2022 2023 2025 2031 2039 2044 2049 2053 2058 2064 2071 2077 2083 2092 2100 2108 2115 2122 2128 2135 2140 2148 2155 2161 2166 2172 2175 2175 2178 2182 2187 2193 2198 2205 2212 2215 2217 2222 2226 2229 2233 2238 2243 2246 2251 2254 2260 2267 2272 2275 2282 2294 2295 2295 2295 2269 2227 2219 2203 2192 2192 2192 2247 2314 2339 2349 2357 2376 2376 2376 2378 2378 2378 2389 2398 2402 2405 2405 2413 2425 2438 2447 2450 2461 2470 2481 2493 2495 2495 2501 2669 2853 3000 3138 3179 3211 3218 3234 3268 3297 3331 3338 3339 3340 3341 3343 3368 3380 3386 3410 3427 3427 3427 3393 3393 3393 3419 3447 3451 3451 3453 3456 3458 3464 3464 3464 3461 3461 3456 3455 3455 3455 3456 3460 3462 3464 3466 3466 3468 3471 3474 3476 3476 3474 3474 3472 3469 3469 3469 3469 3476 3476 3476 3476 3476 3476 3483 3483 3483 3479 3473 3466 3466 3466 3475 3478 3478 3478 3459 3446 3358 3223 2910 2725 2725 2725 3219 3404 3416 3421 3423 3424 3430 3430 3444 3444 3444 3407 3392 3384 3381 3329 3214 2910 2604 0 0 2265 2245 2228 2218 2203 2200 2192 2183 2176 2169 2164 2161 2158 2156 2153 2148 2139 2134 2131 2129 2128 2126 2125 2124 2122 2121 2119 2117 2115 2115 2113 2113 2113 2113 2113 2113 2112 2112 2112 2112 2113 2113 2114 2114 2114 2114 2115 2116 2118 2120 2121 2122 2122 2122 2122 2123 2125 2128 2130 2131 2131 2132 2135 2138 2144 2148 2151 2154 2155 2158 2161 2163 2166 2169 2173 2176 2180 2183 2192 2198 2202 2206 2213 2219 2226 2234 2238 2239 2240 2240 2240 2212 2212 0 0 0 0 0 0 0 0 2426 2426 2421 2421 2421 2421 2421 2407 2374 2354 2299 2228 2202 2192 2191 2187 2182 2172 2163 2151 2142 2136 2131 2130 2126 2120 2112 2106 2101 2096 2093 2092 2090 2088 2083 2077 2074 2071 2067 2063 2060 2053 2047 2042 2038 2033 2030 2026 2023 2019 2015 2011 2008 2005 2002 1999 1997 1995 1991 1987 1985 1983 1981 1980 1978 1977 1976 1974 1973 1972 1971 1969 1968 1967 1967 1966 1965 1965 1965 1965 1965 1965 1964 1962 1960 1958 1958 1957 1957 1957 1957 1956 1956 1956 1956 1955 1955 1955 1955 1956 1956 1957 1957 1957 1958 1958 1958 1960 1963 1968 1973 1973 1973 1971 1971 1968 1968 1966 1954 1945 0 0 0 0 0 0 0 0 0 0 0 0 0 0 0 0 0 0 0 0 0 0 2388 2388 2388 2372 2362 2362 2362 2379 2379 2379 2377 2360 2346 2329 2303 0 0 0 0 0 0 0 0 0 0 0 0 0 0 0 0 0 0 0 0 0 0 0 0 0 0 0 0 0 0 0 0 0 0 0 0 0 0 0 0 0 0 0 0 0 0 0 0 0 0 0 0 0 0 0 0 0 0 0 0 0 0 0 0 0 0 0 0 0 0 0 0 0 0 0 0 0 0 0 0 0 0 0 0 0 1201 1212 1212 1219 1220 1220
0 0 0 0 0 0 0 0 0 0 0 0 0 0 0 0 0 0 0 0 0 0 0 0 0 0 0 0 0 0 0 1696 1696 1712 1713 1717 1717 1730 1754 1781 1801 1810 1811 1811 1821 1815 1815 1819 1828 1866 1908 1954 2007 2014 2016 2017 2017 2017 2016 2015 2008 1996 1981 1972 1971 1971 1971 1971 1968 1955 1947 1944 1942 1932 1932 1932 1937 1953 1963 1968 1971 1972 1975 1980 1987 1988 1989 1993 1997 2002 2008 2012 2017 2020 2022 2023 2025 2031 2039 2044 2049 2053 2058 2063 2071 2077 2082 2089 2100 2108 2115 2122 2128 2137 2140 2149 2155 2161 2165 2170 2175 2175 2178 2183 2190 2194 2198 2206 2212 2216 2217 2222 2226 2229 2233 2238 2243 2248 2251 2254 2262 2272 2273 2275 2282 2294 2295 2297 2297 2295 2257 2230 2215 2215 2215 2216 2252 2299 2339 2349 2364 2374 2374 2374 2369 2369 2369 2382 2394 2402 2408 2417 2418 2426 2438 2446 2450 2458 2469 2514 2516 2555 2619 2762 2886 3000 3109 3210 3273 3277 3286 3287 3287 3308 3338 3339 3339 3339 3339 3339 3345 3368 3383 3402 3402 3402 3393 3352 3352 3352 3367 3447 3449 3451 3451 3451 3455 3455 3455 3455 3442 3442 3442 3447 3455 3456 3459 3460 3460 3462 3466 3465 3466 3468 3466 3465 3461 3461 3458 3456 3447 3447 3447 3447 3453 3453 3455 3457 3457 3473 3478 3479 3479 3479 3473 3442 3442 3442 3450 3478 3485 3485 3478 3446 3358 3240 2953 2574 2574 2574 3198 3355 3365 3376 3403 3423 3424 3430 3442 3442 3442 3403 3381 3379 3377 3340 3226 3002 2640 0 0 2267 2246 2232 2220 2206 2200 2192 2182 2176 2169 2164 2161 2158 2156 2153 2148 2142 2136 2132 2130 2129 2128 2125 2124 2123 2121 2119 2117 2116 2115 2114 2114 2113 2113 2113 2113 2113 2112 2112 2112 2113 2114 2114 2114 2115 2115 2115 2116 2118 2120 2122 2123 2123 2123 2124 2125 2127 2129 2132 2134 2134 2136 2139 2141 2144 2148 2152 2156 2160 2162 2163 2164 2166 2170 2176 2179 2183 2189 2196 2199 2205 2210 2214 2219 2227 2235 2241 2241 2242 2242 2241 2230 2221 0 0 0 0 0 0 0 0 0 2427 2426 2417 2413 2412 2395 2387 2374 2359 2321 2265 2202 2191 2191 2187 2184 2173 2163 2151 2142 2136 2131 2129 2128 2121 2112 2108 2102 2098 2094 2092 2090 2088 2083 2079 2074 2071 2067 2063 2060 2055 2047 2042 2037 2033 2030 2026 2023 2019 2015 2012 2009 2007 2003 2000 1997 1995 1991 1988 1985 1983 1981 1980 1977 1976 1975 1974 1973 1972 1971 1969 1968 1967 1967 1966 1965 1965 1965 1965 1965 1965 1964 1962 1960 1959 1958 1958 1957 1957 1957 1956 1956 1956 1956 1955 1955 1955 1955 1955 1955 1956 1956 1957 1957 1958 1958 1960 1963 1968 1973 1973 1973 1972 1972 1970 1970 1966 1954 1933 0 0 0 0 0 0 0 0 0 0 0 0 0 0 0 0 0 0 0 0 0 0 2375 2375 2375 2357 2349 2349 2349 2362 2362 2362 2362 2353 2327 2309 2292 0 0 0 0 0 0 0 0 0 0 0 0 0 0 0 0 0 0 0 0 0 0 0 0 0 0 0 0 0 0 0 0 0 0 0 0 0 0 0 0 0 0 0 0 0 0 0 0 0 0 0 0 0 0 0 0 0 0 0 0 0 0 0 0 0 0 0 0 0 0 0 0 0 0 0 0 0 0 0 0 0 0 0 0 0 1206 1217 1217 1219 1220 1220
0 0 0 0 0 0 0 0 0 0 0 0 0 0 0 0 0 0 0 0 0 0 0 0 0 0 0 0 0 0 0 1655 1678 1700 1700 1700 1700 1720 1740 1762 1779 1796 1808 1808 1808 1773 1773 1773 1819 1866 1905 1954 2007 2007 2007 2003 2001 2000 2000 2000 1988 1971 1952 1952 1952 1950 1950 1950 1940 1939 1938 1938 1926 1926 1926 1932 1938 1953 1963 1969 1971 1972 1974 1979 1983 1987 1989 1991 1995 2002 2007 2011 2017 2020 2023 2023 2025 2031 2039 2044 2049 2053 2058 2064 2071 2077 2082 2089 2100 2108 2115 2122 2129 2137 2140 2149 2155 2161 2163 2168 2172 2173 2178 2183 2190 2195 2200 2206 2213 2217 2219 2222 2226 2229 2233 2238 2243 2248 2254 2258 2272 2273 2274 2275 2282 2291 2296 2297 2297 2296 2294 2249 2233 2228 2228 2228 2254 2295 2342 2349 2364 2372 2372 2372 2369 2369 2369 2377 2389 2406 2411 2418 2418 2426 2435 2444 2450 2465 2489 2514 2569 2747 2849 2926 2971 3063 3163 3250 3321 3321 3321 3321 3321 3321 3338 3339 3339 3339 3328 3328 3328 3335 3366 3366 3366 3364 3355 3328 3328 3328 3367 3435 3442 3444 3450 3447 3450 3451 3450 3447 3442 3442 3442 3445 3455 3456 3459 3456 3456 3456 3456 3456 3460 3463 3463 3463 3452 3452 3452 3446 3446 3441 3441 3441 3444 3444 3444 3444 3444 3451 3456 3456 3456 3455 3452 3437 3437 3437 3445 3477 3482 3482 3477 3446 3358 3240 2956 2574 2574 2574 3121 3334 3353 3376 3402 3423 3424 3430 3441 3441 3441 3403 3379 3377 3371 3343 3245 3031 2711 0 0 2267 2249 2236 2220 2206 2195 2179 2167 2164 2164 2164 2161 2158 2155 2153 2148 2142 2136 2132 2130 2130 2128 2127 2125 2123 2121 2119 2118 2116 2115 2115 2115 2114 2114 2114 2114 2113 2113 2113 2113 2114 2114 2115 2115 2115 2116 2116 2117 2118 2120 2122 2123 2125 2125 2125 2126 2129 2131 2133 2135 2136 2137 2139 2141 2144 2149 2153 2156 2160 2163 2165 2166 2167 2173 2176 2180 2185 2190 2197 2202 2208 2215 2221 2228 2235 2241 2241 2243 2245 2245 2243 2230 2177 0 0 0 0 0 0 0 0 0 0 0 2413 2402 2389 2372 2372 2364 2364 2364 0 0 0 2198 2190 2190 2184 2170 2151 2142 2136 2131 2129 2128 2121 2118 2109 2103 2098 2095 2092 2090 2088 2083 2079 2075 2071 2067 2063 2060 2055 2049 2042 2037 2033 2029 2026 2023 2019 2015 2012 2010 2007 2004 2001 1998 1995 1992 1989 1985 1983 1981 1980 1977 1977 1975 1974 1973 1972 1970 1968 1967 1967 1967 1966 1965 1965 1965 1965 1965 1964 1964 1962 1960 1959 1959 1958 1958 1957 1957 1956 1956 1956 1956 1955 1955 1955 1955 1955 1955 1955 1955 1956 1957 1957 1958 1960 1963 1967 1973 1973 1973 1972 1972 1970 1970 1966 1954 1926 0 0 0 0 0 0 0 0 0 0 0 0 0 0 0 0 0 0 0 0 0 0 2363 2363 2363 2346 2343 2343 2342 2342 2343 2343 2342 2334 2320 2297 2273 0 0 0 0 0 0 0 0 0 0 0 0 0 0 0 0 0 0 0 0 0 0 0 0 0 0 0 0 0 0 0 0 0 0 0 0 0 0 0 0 0 0 0 0 0 0 0 0 0 0 0 0 0 0 0 0 0 0 0 0 0 0 0 0 0 0 0 0 0 0 0 0 0 0 0 0 0 0 0 0 0 0 0 0 0 1232 1232 1220 1218 1218 1218
0 0 0 0 0 0 0 0 0 0 0 0 0 0 0 0 0 0 0 0 0 0 0 0 1688 1688 1666 1626 1619 1619 1619 1651 1678 1685 1686 1688 1698 1707 1740 1762 1773 1786 1786 1786 1778 1773 1773 1773 1819 1869 1905 1954 1998 1998 1998 1998 1995 1990 1988 1975 1974 1950 1934 1934 1934 1929 1929 1933 1933 1931 1931 1931 1923 1923 1923 1934 1942 1953 1963 1972 1972 1974 1976 1978 1982 1987 1989 1991 1995 2000 2005 2011 2017 2020 2023 2026 2029 2035 2041 2047 2053 2055 2059 2064 2071 2077 2082 2089 2100 2107 2115 2122 2129 2137 2140 2149 2153 2156 2158 2161 2161 2168 2177 2183 2190 2195 2202 2208 2214 2217 2219 2222 2226 2231 2235 2238 2243 2249 2257 2270 2273 2275 2275 2275 2282 2291 2293 2293 2295 2295 2295 2288 2235 2230 2230 2230 2254 2294 2348 2353 2364 2366 2366 2366 2366 2366 2369 2377 2385 2406 2418 2418 2419 2425 2433 2447 2456 2486 2506 2638 2899 2943 2996 3016 3054 3107 3188 3250 3321 3335 3335 3335 3335 3335 3338 3338 3338 3332 3309 3309 3309 3317 3325 3325 3325 3316 3301 3278 3278 3278 3364 3399 3423 3431 3439 3439 3440 3440 3440 3436 3436 3436 3436 3441 3443 3450 3450 3447 3447 3447 3446 3446 3448 3452 3452 3452 3447 3442 3442 3442 3437 3436 3436 3436 3426 3426 3426 3426 3426 3440 3440 3440 3430 3427 3426 3419 3419 3419 3438 3462 3462 3462 3459 3431 3351 3240 2976 2594 2594 2594 3106 3332 3350 3375 3393 3416 3421 3430 3430 3428 3428 3383 3379 3377 3371 3343 3257 3084 2796 2521 0 0 2265 2244 2225 2206 2195 2177 2161 2161 2161 2160 2160 2158 2155 2152 2147 2142 2137 2132 2131 2130 2128 2128 2127 2125 2123 2122 2120 2119 2118 2118 2117 2117 2117 2118 2118 2118 2118 2118 2117 2115 2115 2115 2115 2116 2116 2117 2117 2118 2120 2121 2123 2125 2126 2127 2129 2131 2133 2134 2136 2137 2139 2140 2142 2145 2149 2153 2157 2160 2163 2166 2169 2173 2174 2176 2180 2185 2190 2197 2204 2213 2218 2222 2228 2235 2241 2241 2245 2254 2254 2254 2230 2168 0 0 0 0 0 0 0 0 0 0 0 0 0 0 2347 2347 2372 2376 2376 2376 0 0 2206 2194 2191 2186 2178 2165 2145 2138 2132 2129 2128 2124 2119 2112 2103 2098 2095 2092 2090 2088 2084 2079 2075 2071 2067 2063 2060 2055 2050 2043 2037 2033 2029 2026 2023 2020 2016 2013 2010 2007 2004 2001 1998 1996 1993 1989 1986 1983 1981 1980 1978 1977 1976 1975 1974 1972 1970 1968 1967 1967 1967 1966 1965 1965 1965 1965 1965 1964 1963 1962 1961 1960 1959 1958 1958 1957 1957 1957 1957 1956 1956 1955 1955 1955 1955 1955 1955 1955 1955 1956 1957 1957 1958 1959 1961 1963 1963 1963 1969 1969 1969 1969 1969 1966 1954 1926 0 0 0 0 0 0 0 0 0 0 0 0 0 0 0 0 0 0 0 0 0 2354 2354 2354 2343 2334 2329 2324 2324 2324 2324 2331 2331 2331 2316 2292 0 0 0 0 0 0 0 0 0 0 0 0 0 0 0 0 0 0 0 0 0 0 0 0 0 0 0 0 0 0 0 0 0 0 0 0 0 0 0 0 0 0 0 0 0 0 0 0 0 0 0 0 0 0 0 0 0 0 0 0 0 0 0 0 0 0 0 0 0 0 0 0 0 0 0 0 0 0 0 0 0 0 0 0 0 0 0 1232 1219 1217 1215 1215
0 0 0 0 0 0 0 0 0 0 0 0 0 0 0 0 0 0 0 0 0 0 0 1701 1701 1688 1637 1616 1616 1616 1616 1632 1651 1651 1652 1660 1688 1707 1740 1762 1773 1786 1786 1786 1778 1773 1773 1773 1839 1869 1905 1954 1980 1980 1985 1985 1981 1981 1981 1959 1957 1940 1925 1922 1922 1918 1918 1918 1924 1929 1929 1929 1923 1923 1923 1934 1942 1955 1967 1973 1974 1975 1976 1978 1982 1987 1989 1991 1995 2000 2005 2009 2019 2022 2029 2032 2038 2041 2046 2053 2056 2057 2061 2067 2072 2080 2088 2091 2097 2106 2115 2121 2129 2134 2138 2142 2144 2149 2149 2150 2156 2165 2173 2181 2188 2194 2202 2208 2214 2216 2220 2225 2229 2233 2236 2238 2243 2252 2262 2273 2277 2279 2282 2282 2286 2287 2288 2289 2295 2295 2295 2288 2236 2230 2230 2230 2254 2293 2348 2357 2362 2365 2365 2366 2367 2367 2370 2377 2385 2406 2416 2417 2418 2434 2441 0 0 2568 2734 2950 3017 3081 3081 3098 3109 3144 3188 3250 3321 3335 3335 3335 3317 3317 3317 3332 3332 3332 3295 3288 3288 3288 3305 3305 3305 3284 3276 3273 3273 3273 3346 3399 3413 3420 3433 3433 3435 3436 3433 3434 3436 3436 3436 3440 3442 3445 3445 3440 3436 3431 3431 3431 3441 3442 3442 3442 3441 3429 3429 3428 3427 3421 3418 3418 3418 3418 3418 3418 3418 3422 3422 3422 3407 3401 3401 3401 3408 3419 3419 3419 3419 3417 3412 3353 3283 3184 2988 2603 2603 2603 3098 3328 3349 3360 3390 3421 3424 3424 3424 3421 3404 3382 3382 3380 3370 3370 3282 3125 2887 2561 0 0 2266 2250 2234 2211 2195 2177 2161 2161 2161 2160 2160 2159 2155 2152 2147 2141 2137 2134 2132 2131 2129 2128 2128 2127 2125 2123 2122 2122 2122 2121 2120 2120 2120 2120 2119 2119 2119 2118 2118 2117 2117 2116 2116 2116 2116 2117 2117 2118 2119 2121 2123 2125 2127 2130 2131 2133 2134 2136 2137 2139 2140 2143 2143 2146 2149 2153 2157 2161 2164 2167 2170 2173 2174 2176 2180 2185 2190 2197 2204 2213 2218 2222 2228 2235 2237 2241 2245 2253 2253 2253 2220 2168 0 0 0 0 0 0 0 0 0 0 0 0 0 0 0 0 2372 2409 2409 0 0 0 2210 2194 2192 2187 2179 2167 2156 2144 2140 2138 2132 2127 2120 2112 2104 2098 2095 2092 2090 2088 2084 2080 2077 2072 2067 2063 2060 2055 2050 2043 2037 2033 2029 2026 2023 2020 2017 2015 2011 2008 2004 2001 1999 1996 1993 1990 1986 1984 1982 1980 1978 1977 1976 1975 1974 1972 1970 1968 1968 1967 1967 1966 1966 1965 1965 1965 1964 1963 1963 1962 1961 1960 1959 1959 1958 1958 1958 1957 1957 1957 1956 1956 1955 1955 1955 1955 1955 1955 1955 1956 1957 1957 1958 1958 1959 1960 1960 1960 1963 1967 1968 1968 1968 1959 1940 1921 0 0 0 0 0 0 0 0 0 0 0 0 0 0 0 0 0 0 0 0 0 2345 2345 2345 2322 2314 2313 2313 2314 2316 2319 2330 2330 2330 2315 0 0 0 0 0 0 0 0 0 0 0 0 0 0 0 0 0 0 0 0 0 0 0 0 0 0 0 0 0 0 0 0 0 0 0 0 0 0 0 0 0 0 0 0 0 0 0 0 0 0 0 0 0 0 0 0 0 0 0 0 0 0 0 0 0 0 0 0 0 0 0 0 0 0 0 0 0 0 0 0 0 0 0 0 0 0 0 0 1219 1219 1217 1213 1213
0 0 0 0 0 0 0 0 0 0 0 0 0 0 0 0 0 0 0 0 0 0 1686 1686 1667 1648 1635 1612 1602 1602 1602 1603 1610 1615 1616 1640 1688 1707 1765 1773 1775 1786 1786 1786 1786 1786 1789 1803 1839 1869 1900 1954 1968 1968 1973 1975 1975 1975 1975 1952 1929 1928 1917 1916 1916 1914 1916 1916 1918 1925 1925 1925 1923 1923 1923 1935 1950 1955 1967 1973 1976 1976 1976 1978 1982 1987 1991 1995 1998 2000 2005 2009 2019 2026 2032 2036 2042 2046 2049 2053 2058 2058 2065 2071 2078 2084 2088 2091 2097 2106 2111 2116 2123 2130 2132 2134 2136 2137 2140 2146 2153 2162 2169 2176 2184 2192 2202 2208 2214 2216 2220 2225 2229 2233 2236 2237 2243 2252 2262 2273 2282 2282 2283 2284 2286 2286 2287 2287 2293 2293 2293 2288 2241 2230 2230 2230 2254 2293 2348 2361 2362 2365 2366 2368 2369 2374 2378 2381 2385 2404 2416 2417 0 0 0 2521 2686 2846 2970 3067 3117 3152 3155 3164 3170 3170 3188 3234 3300 3335 3335 3335 3283 3283 3283 3309 3309 3309 3274 3266 3266 3266 3279 3279 3279 3270 3261 3261 3261 3273 3345 3393 3395 3402 3406 3414 3417 3425 3432 3434 3434 3434 3432 3414 3414 3414 3414 3414 3398 3398 3398 3416 3425 3433 3435 3433 3425 3421 3420 3419 3397 3397 3397 3396 3396 3396 3396 3396 3396 3401 3401 3401 3384 3375 3375 3375 3406 3406 3406 3397 3389 3386 3362 3301 3232 3151 2990 2673 2673 2673 3082 3291 3323 3352 3393 3421 3423 3423 3421 3416 3396 3382 3382 3373 3370 3370 3282 3160 2983 2737 0 0 2266 2250 2236 2218 2199 2177 2161 2161 2161 2160 2160 2159 2155 2152 2146 2141 2137 2135 2133 2131 2129 2129 2128 2128 2126 2125 2123 2123 2122 2122 2122 2121 2121 2121 2121 2120 2119 2119 2119 2119 2118 2116 2116 2116 2116 2117 2118 2118 2118 2120 2122 2125 2127 2130 2132 2134 2135 2136 2139 2141 2143 2146 2147 2149 2150 2153 2157 2161 2164 2167 2170 2173 2175 2178 2182 2185 2190 2197 2204 2213 2218 2222 2228 2233 2234 2237 2247 2253 2253 2253 2219 2164 0 0 0 0 0 0 0 0 0 0 0 0 0 0 0 0 0 0 0 0 0 0 2213 2200 2199 2189 2179 2168 2156 2145 2140 2138 2132 2128 2120 2112 2104 2098 2094 2092 2091 2088 2084 2081 2077 2074 2069 2063 2060 2054 2050 2043 2039 2034 2030 2026 2023 2020 2017 2015 2011 2008 2004 2002 1999 1996 1994 1991 1987 1985 1982 1980 1979 1978 1978 1975 1975 1973 1970 1969 1969 1969 1968 1967 1966 1966 1965 1965 1964 1963 1962 1962 1961 1961 1960 1959 1958 1958 1958 1957 1957 1957 1956 1956 1956 1956 1956 1956 1955 1955 1955 1957 1957 1957 1957 1957 1957 1956 1956 1956 1956 1956 1964 1964 1964 1952 1940 1916 0 0 0 0 0 0 0 0 0 0 0 0 0 0 0 0 0 0 0 0 0 2357 2357 2341 2318 2309 2308 2307 2308 2309 2315 2315 2315 2312 2291 0 0 0 0 0 0 0 0 0 0 0 0 0 0 0 0 0 0 0 0 0 0 0 0 0 0 0 0 0 0 0 0 0 0 0 0 0 0 0 0 0 0 0 0 0 0 0 0 0 0 0 0 0 0 0 0 0 0 0 0 0 0 0 0 0 0 0 0 0 0 0 0 0 0 0 0 0 0 0 0 0 0 0 0 0 0 0 0 1217 1217 1215 1213 1213
0 0 0 0 0 0 0 0 0 0 0 0 0 0 0 0 0 0 0 0 0 0 1690 1690 1606 1606 1606 1595 1591 1579 1579 1579 1585 1597 1598 0 0 1769 1793 1794 1796 1796 1794 1786 1786 1786 1789 1803 1839 1868 1900 1942 1955 1956 1957 1957 1958 1958 1958 1937 1924 1923 1913 1913 1913 1913 1913 1914 1914 1916 1919 1919 1920 1920 1926 1936 1950 1959 1967 1973 1976 1977 1977 1978 1982 1991 1996 2000 2000 2002 2005 2009 2020 2026 2036 2040 2045 2046 2050 2054 2060 2067 2071 2075 2080 2085 2089 2091 2097 2102 2106 2111 2116 2124 2127 2127 2127 2131 2135 2141 2152 2160 2165 2176 2184 2192 2200 2206 2210 2215 2220 2225 2229 2233 2236 2236 2243 2252 2262 2273 2282 2282 2283 2284 2283 2285 2286 2286 2292 2292 2292 2288 2261 2232 2232 2232 2239 2293 2344 2361 2361 2361 2362 2364 2369 2374 2378 2381 2382 2404 2417 0 0 2735 2851 2856 2923 3008 3083 3141 3188 3190 3190 3190 3190 3190 3193 3226 3272 3286 3286 3286 3239 3239 3239 3238 3238 3237 3237 3237 3247 3249 3258 3258 3261 3261 3261 3261 3261 3273 3321 3342 3361 3375 3386 3396 3404 3414 3424 3432 3432 3424 3392 3392 3392 3385 3385 3383 3380 3380 3383 3403 3410 3416 3422 3422 3422 3412 3410 3395 3388 3388 3388 3396 3396 3396 3385 3385 3385 3393 3393 3393 3374 3360 3360 3360 3390 3391 3391 3391 3389 3386 3356 3292 3225 3142 2995 2677 2677 2677 2924 3264 3307 3336 3390 3420 3420 3420 3412 3411 3384 3382 3382 3370 3370 3370 3282 3164 2987 2738 0 0 2285 2250 2237 2220 2201 2182 2168 2162 2161 2161 2161 2159 2155 2152 2146 2141 2137 2135 2134 2132 2130 2129 2129 2129 2128 2127 2125 2123 2123 2122 2122 2121 2121 2121 2121 2120 2120 2120 2119 2119 2118 2117 2117 2117 2117 2117 2118 2118 2118 2120 2122 2126 2127 2130 2132 2135 2136 2138 2140 2143 2145 2148 2150 2151 2152 2154 2158 2161 2164 2167 2170 2173 2175 2179 2183 2186 2190 2195 2201 2207 2214 2219 2226 2228 2232 2237 2247 2251 2251 2251 2218 2133 0 0 0 0 0 0 0 0 0 0 0 0 0 0 0 0 0 0 0 0 0 0 2233 2229 2206 2191 2180 2168 2158 2147 2140 2138 2134 2128 2120 2113 2105 2098 2095 2093 2093 2089 2086 2083 2078 2075 2070 2065 2060 2054 2050 2043 2039 2035 2030 2027 2023 2020 2017 2015 2011 2008 2004 2002 2000 1997 1994 1992 1989 1986 1983 1981 1980 1979 1978 1975 1975 1973 1971 1971 1970 1969 1968 1966 1966 1966 1965 1965 1964 1963 1962 1962 1961 1961 1960 1959 1959 1958 1958 1958 1957 1957 1957 1957 1957 1957 1957 1956 1956 1956 1956 1956 1956 1956 1954 1953 1953 1953 1952 1950 1950 1950 1952 1952 1952 1952 1940 1916 0 0 0 0 0 0 0 0 0 0 0 0 0 0 0 0 0 0 0 0 2368 2368 2368 2338 2317 2297 2297 2297 2302 2305 2305 2302 2295 2282 2255 0 0 0 0 0 0 0 0 0 0 0 0 0 0 0 0 0 0 0 0 0 0 0 0 0 0 0 0 0 0 0 0 0 0 0 0 0 0 0 0 0 0 0 0 0 0 0 0 0 0 0 0 0 0 0 0 0 0 0 0 0 0 0 0 0 0 0 0 0 0 0 0 0 0 0 0 0 0 0 0 0 0 0 0 0 0 0 0 0 1217 1215 1213 1213
0 0 0 0 0 0 0 0 0 0 0 0 0 0 0 0 0 0 0 0 0 0 0 1690 1606 1606 1606 1595 1591 1574 1574 1574 1574 1588 1594 0 0 1774 1793 1794 1796 1796 1794 1786 1786 1786 1789 1803 1816 1854 1896 1919 1927 1927 1927 1926 1925 1924 1920 1906 1904 1904 1904 1909 1909 1912 1912 1913 1913 1913 1913 1916 1917 1921 1928 1937 1950 1959 1967 1972 1975 1976 1977 1980 1985 1994 1999 2004 2004 2005 2008 2014 2020 2030 2037 2045 2046 2050 2053 2057 2064 2071 2077 2081 2084 2086 2089 2090 2091 2097 2102 2109 2113 2118 2120 2124 2127 2131 2135 2141 2148 2154 2163 2176 2184 2192 2200 2203 2207 2213 2219 2224 2227 2227 2229 2235 2241 2250 2261 2273 2280 2282 2282 2281 2281 2282 2282 2285 2290 2290 2290 2282 2268 2232 2232 2232 2233 2290 2339 2361 2361 2361 2362 2364 2369 2374 2378 2382 2392 2404 0 0 2512 2736 2853 3059 3061 3061 3112 3158 3199 3202 3203 3203 3202 3203 3208 3226 3235 3235 3235 3226 3199 3199 3196 3193 3193 3190 3190 3190 3218 3235 3247 3258 3261 3270 3280 3285 3287 3306 3318 3321 3333 3361 3382 3386 3394 3409 3423 3423 3423 3423 3364 3353 3351 3351 3353 3361 3369 3369 3379 3399 3400 3410 3413 3413 3413 3388 3381 3368 3367 3367 3367 3391 3391 3391 3374 3374 3374 3386 3386 3386 3362 3360 3360 3360 3375 3377 3386 3386 3386 3386 3352 3290 3224 3136 2995 2677 2677 2677 2922 3255 3295 3334 3377 3416 3416 3416 3409 3392 3369 3357 3351 3351 3350 3326 3268 3169 2998 2739 0 0 2292 2255 2237 2220 2201 2182 2169 2163 2162 2161 2158 2155 2153 2149 2146 2141 2137 2137 2134 2133 2131 2130 2130 2130 2129 2128 2127 2124 2123 2122 2122 2122 2121 2121 2121 2121 2120 2120 2119 2119 2119 2117 2117 2117 2117 2117 2118 2118 2118 2120 2122 2126 2128 2130 2132 2135 2136 2138 2140 2144 2147 2149 2150 2152 2154 2156 2160 2163 2165 2167 2170 2173 2176 2179 2184 2186 2190 2195 2200 2206 2211 2217 2226 2228 2232 2238 2247 2247 2247 2241 2211 2133 0 0 0 0 0 0 0 0 0 0 0 0 0 0 0 0 0 0 0 0 0 0 2234 2233 2209 2191 2181 2169 2159 2148 2144 2138 2134 2127 2120 2113 2105 2098 2095 2094 2093 2090 2086 2083 2080 2076 2073 2067 2060 2054 2050 2044 2039 2035 2030 2027 2023 2021 2017 2015 2011 2008 2004 2002 2000 1997 1995 1992 1989 1987 1984 1981 1980 1979 1978 1975 1975 1973 1971 1971 1970 1969 1968 1966 1966 1966 1966 1965 1963 1963 1962 1962 1961 1961 1960 1960 1959 1959 1958 1958 1958 1957 1957 1957 1957 1957 1957 1956 1956 1956 1955 1955 1955 1953 1949 1949 1949 1948 1948 1949 1950 1950 1950 1951 1951 1950 1947 1916 0 0 0 0 0 0 0 0 0 0 0 0 0 0 0 0 0 0 0 0 2368 2368 2368 2338 2305 2290 2290 2290 2296 2296 2296 2288 2285 2271 2238 0 0 0 0 0 0 0 0 0 0 0 0 0 0 0 0 0 0 0 0 0 0 0 0 0 0 0 0 0 0 0 0 0 0 0 0 0 0 0 0 0 0 0 0 0 0 0 0 0 0 0 0 0 0 0 0 0 0 0 0 0 0 0 0 0 0 0 0 0 0 0 0 0 0 0 0 0 0 0 0 0 0 0 0 0 0 0 0 0 1215 1215 1213 1213
0 0 0 0 0 0 0 0 0 0 0 0 0 0 0 0 0 0 0 0 0 0 0 0 0 1606 1606 1595 1591 1574 1573 1573 1574 1579 0 0 0 1780 1793 1794 1794 1794 1781 1778 1778 1778 1780 1782 1811 1839 1864 1879 1879 1888 1889 1889 1894 1894 1894 1894 1894 1900 1901 1906 1909 1909 1909 1909 1911 1913 1913 1914 1917 1921 1928 1937 1947 1959 1966 1970 1974 1977 1977 1980 1987 1994 1999 2004 2009 2009 2013 2017 2024 2033 2040 2045 2048 2057 2061 2066 2066 2071 2077 2086 2091 2091 2091 2091 2092 2096 2102 2108 2111 2114 2120 2124 2127 2131 2135 2141 2145 2151 2161 2172 2183 2191 2199 2203 2203 2208 2216 2221 2222 2224 2225 2231 2238 2246 2257 2267 2276 2276 2276 2276 2276 2278 2282 2286 2286 2286 2282 2278 2268 2232 2204 2204 2204 0 2335 2356 2359 2359 2359 2360 2360 2378 2383 2388 0 0 0 2606 2771 2923 3014 3061 3061 3064 3115 3162 3202 3202 3203 3206 3206 3208 3212 3217 3217 3217 3205 3168 3168 3161 3155 3161 3167 3167 3169 3190 3218 3235 3247 3258 3316 3318 3324 3324 3324 3324 3325 3325 3331 3355 3378 3379 3388 3394 3422 3422 3422 3405 3361 3348 3348 3348 3348 3360 3361 3369 3377 3384 3390 3398 3398 3398 3374 3357 3344 3343 3343 3344 3353 3388 3388 3388 3351 3351 3351 3385 3385 3385 3361 3345 3345 3345 3350 3350 3357 3382 3382 3382 3351 3289 3209 3122 2995 2673 0 0 2922 3240 3293 3330 3377 3398 3405 3405 3405 3386 3361 3347 3339 3332 3318 3299 3248 3176 3070 2834 2545 0 0 2255 2237 2220 2201 2182 2171 2163 2162 2158 2155 2151 2150 2148 2146 2142 2140 2138 2136 2134 2132 2131 2130 2130 2129 2128 2127 2125 2124 2123 2123 2122 2122 2122 2121 2121 2121 2120 2119 2119 2119 2118 2117 2117 2117 2117 2118 2119 2120 2123 2124 2126 2128 2130 2132 2135 2136 2138 2140 2144 2147 2149 2150 2152 2155 2159 2162 2165 2166 2167 2170 2174 2177 2179 2184 2187 2191 2195 2200 2206 2211 2217 2226 2228 2232 2240 2240 2240 2240 2237 2209 2133 0 0 0 0 0 0 0 0 0 0 0 0 0 0 0 0 0 0 0 0 0 0 2237 2233 2213 2194 2181 2171 2161 2148 2144 2141 2135 2128 2120 2113 2107 2102 2098 2096 2094 2090 2086 2083 2080 2077 2073 2067 2061 2054 2050 2044 2040 2035 2031 2027 2024 2021 2018 2014 2010 2006 2003 2002 2000 1997 1995 1992 1989 1987 1984 1982 1980 1979 1976 1974 1973 1973 1971 1971 1970 1969 1967 1966 1966 1966 1966 1965 1963 1963 1963 1962 1962 1961 1961 1960 1959 1959 1958 1958 1958 1958 1958 1957 1957 1957 1956 1955 1955 1955 1955 1955 1953 1949 1948 1948 1948 1948 1947 1947 1947 1948 1949 1950 1950 1949 1947 1916 0 0 0 0 0 0 0 0 0 0 0 0 0 0 0 0 0 0 0 0 2368 2368 2368 2323 2295 2288 2288 2288 2290 2290 2290 2288 2282 2265 0 0 0 0 0 0 0 0 0 0 0 0 0 0 0 0 0 0 0 0 0 0 0 0 0 0 0 0 0 0 0 0 0 0 0 0 0 0 0 0 0 0 0 0 0 0 0 0 0 0 0 0 0 0 0 0 0 0 0 0 0 0 0 0 0 0 0 0 0 0 0 0 0 0 0 0 0 0 0 0 0 0 0 0 0 0 0 0 0 0 0 1226 1214 1214
0 0 0 0 0 0 0 0 0 0 0 0 0 0 0 0 0 0 0 0 0 0 0 0 0 0 0 0 1627 1588 1574 1574 1574 1579 0 0 1758 1780 1783 1783 1783 1780 1777 1771 1769 1769 1769 1782 1796 1825 1850 1863 1864 1866 1874 1888 1889 1889 1889 1889 1889 1891 1898 1899 1904 1905 1906 1906 1910 1913 1913 1914 1916 1921 1928 1937 1944 1954 1965 1969 1974 1977 1978 1981 1988 1996 2001 2004 2009 2013 2019 2023 2029 2036 2043 2048 2053 2057 2061 2066 2066 2071 2077 2086 2091 2091 2091 2091 2092 2096 2102 2108 2111 2114 2120 2124 2128 2133 2137 2141 2145 2149 2160 2171 2183 2191 2196 2196 2198 2202 2209 2216 2218 2220 2221 2228 2236 2242 2250 2257 2264 2267 2269 2270 2275 2276 2283 2283 2283 2278 2277 2271 2268 2216 2203 2203 2203 0 2306 2340 2340 2344 2348 2359 2360 2378 0 0 0 2633 2728 2829 2920 3014 3061 3065 3080 3082 3125 3165 3202 3202 3203 3206 3206 3208 3212 3212 3212 3187 3163 3132 3132 3132 3144 3146 3148 3162 3169 3190 3218 3235 3261 3273 3316 3318 3324 3324 3324 3324 3314 3314 3314 3326 3333 3342 3360 3391 3420 3420 3420 3399 3346 3343 3340 3340 3340 3340 3355 3368 3377 3380 3380 3396 3396 3396 3338 3328 3319 3319 3324 3328 3336 3368 3368 3368 3337 3337 3337 3379 3379 3379 3354 3337 3336 3315 3315 3315 3330 3375 3375 3375 3330 3253 3165 3073 2958 2614 2614 0 2922 3215 3272 3309 3342 3362 3372 3379 3379 3379 3360 3347 3339 3322 3298 3277 3244 3203 3127 2865 2572 0 0 2255 2224 2208 2198 2182 2171 2164 2160 2158 2154 2151 2148 2148 2146 2142 2141 2140 2139 2136 2134 2133 2132 2130 2129 2128 2127 2125 2125 2124 2123 2122 2122 2122 2122 2121 2121 2121 2119 2119 2119 2119 2119 2119 2119 2120 2122 2122 2122 2123 2125 2126 2128 2130 2132 2134 2136 2138 2140 2144 2147 2149 2150 2152 2155 2160 2163 2166 2166 2167 2171 2175 2178 2182 2184 2190 2192 2196 2200 2206 2211 2217 2228 2232 2235 2243 2243 2243 2238 2237 2204 2135 0 0 0 0 0 0 0 0 0 0 0 0 0 0 0 0 0 0 0 0 0 0 2237 2232 2223 2204 2185 2178 2167 2158 2149 2141 2135 2128 2120 2113 2107 2104 2101 2099 2096 2091 2087 2083 2080 2077 2073 2067 2061 2054 2050 2044 2040 2035 2031 2027 2025 2022 2019 2013 2009 2005 2003 2002 2000 1997 1995 1992 1989 1987 1984 1982 1980 1978 1975 1973 1973 1973 1971 1969 1968 1968 1967 1967 1967 1967 1967 1965 1963 1963 1963 1962 1962 1962 1961 1960 1959 1959 1959 1959 1958 1958 1958 1958 1957 1957 1956 1956 1956 1955 1955 1954 1952 1949 1948 1948 1947 1946 1946 1946 1947 1948 1948 1948 1948 1948 1947 1916 0 0 0 0 0 0 0 0 0 0 0 0 0 0 0 0 0 0 0 0 2345 2345 2345 2314 2290 2288 2285 2283 2283 2283 2283 2282 2281 2259 0 0 0 0 0 0 0 0 0 0 0 0 0 0 0 0 0 0 0 0 0 0 0 0 0 0 0 0 0 0 0 0 0 0 0 0 0 0 0 0 0 0 0 0 0 0 0 0 0 0 0 0 0 0 0 0 0 0 0 0 0 0 0 0 0 0 0 0 0 0 0 0 0 0 0 0 0 0 0 0 0 0 0 0 0 0 0 0 0 0 0 1217 1217 1217
0 0 0 0 0 0 0 0 0 0 0 0 0 0 0 0 0 0 0 0 0 0 1731 1738 1738 1726 1726 1702 1627 1600 1580 1579 1579 1579 0 0 1758 1780 1783 1783 1783 1780 1777 1771 1769 1769 1769 1782 1796 1825 1850 1860 1862 1863 1870 1883 1886 1886 1886 1886 1886 1889 1894 1898 1900 1901 1902 1904 1910 1913 1913 1914 1915 1921 1930 1937 1939 1949 1956 1968 1972 1977 1978 1986 1993 1996 2001 2004 2009 2013 2019 2025 2031 2038 2044 2048 2053 2057 2061 2066 2066 2070 2077 2086 2091 2091 2091 2092 2093 2096 2102 2108 2111 2114 2123 2127 2131 2134 2138 2141 2145 2149 2156 2171 2183 2191 2193 2194 2194 2200 2205 2211 2216 2217 2218 2225 2235 2240 2244 2248 2254 2258 2263 2268 2275 2277 2281 2281 2281 2278 2271 2266 2266 2188 2167 2167 0 0 2286 2315 2331 2335 2335 2359 0 0 0 2579 2740 2870 2944 2998 3037 3061 3065 3084 3084 3108 3125 3162 3171 3171 3187 3187 3187 3206 3206 3206 3192 3163 3137 3131 3131 3127 3127 3131 3145 3157 3164 3172 3192 3235 3261 3273 3316 3318 3324 3324 3324 3324 3297 3292 3286 3284 3284 3284 3319 3341 3341 3341 3321 3321 3321 3334 3334 3336 3336 3336 3347 3348 3351 3359 3361 3373 3373 3373 3325 3296 3296 3296 3297 3323 3336 3336 3336 3336 3312 3312 3312 3377 3377 3377 3340 3314 3297 3297 3297 3307 3311 3325 3325 3311 3279 3200 3118 3022 2897 2600 2600 2600 2924 3215 3243 3283 3310 3328 3328 3331 3331 3341 3341 3341 3339 3322 3292 3259 3242 3206 3127 2959 2708 0 0 2254 2224 2206 2182 2176 2173 2163 2159 2158 2154 2150 2147 2147 2146 2145 2145 2142 2140 2136 2134 2133 2132 2131 2130 2128 2127 2126 2125 2124 2124 2123 2123 2123 2123 2122 2122 2121 2120 2120 2120 2121 2121 2121 2121 2123 2124 2124 2124 2125 2125 2127 2129 2132 2132 2134 2135 2138 2141 2144 2147 2148 2149 2152 2156 2160 2164 2166 2167 2167 2171 2175 2178 2182 2186 2191 2196 2200 2203 2208 2212 2222 2229 2237 2239 2243 2243 2243 2237 2237 2203 2202 0 0 0 0 0 0 0 0 0 0 0 0 0 0 0 0 0 0 0 0 2352 2280 2234 2232 2223 2204 2197 2182 2167 2160 2155 2146 2138 2130 2121 2113 2107 2105 2103 2101 2096 2093 2089 2083 2080 2077 2073 2067 2061 2057 2051 2046 2040 2036 2032 2029 2026 2022 2020 2014 2009 2005 2003 2002 2000 1998 1996 1994 1991 1987 1984 1982 1980 1978 1975 1973 1973 1973 1971 1969 1968 1968 1967 1967 1967 1967 1967 1965 1964 1964 1964 1963 1963 1963 1962 1961 1960 1960 1959 1959 1959 1958 1958 1958 1958 1957 1956 1956 1956 1955 1955 1953 1951 1949 1948 1947 1945 1945 1945 1946 1946 1946 1946 1946 1947 1947 1947 1924 0 0 0 0 0 0 0 0 0 0 0 0 0 0 0 0 0 0 0 2330 2330 2330 2311 2296 2288 2283 2283 2283 2283 2282 2282 2277 2269 0 0 0 0 0 0 0 0 0 0 0 0 0 0 0 0 0 0 0 0 0 0 0 0 0 0 0 0 0 0 0 0 0 0 0 0 0 0 0 0 0 0 0 0 0 0 0 0 0 0 0 0 0 0 0 0 0 0 0 0 0 0 0 0 0 0 0 0 0 0 0 0 0 0 0 0 0 0 0 0 0 0 0 0 0 0 0 0 0 0 0 0 0 1219 1219
0 0 0 0 0 0 0 0 0 0 0 0 0 0 0 0 0 0 0 0 0 1745 1745 1745 1738 1726 1726 1702 1644 1607 1585 1585 1585 1587 0 0 1758 1780 1780 1780 1780 1777 1776 1771 1769 1769 1769 1793 1796 1825 1847 1854 1859 1860 1866 1878 1884 1884 1884 1884 1884 1889 1894 1898 1898 1900 1901 1904 1909 1913 1913 1914 1914 1921 1930 1937 1939 1944 1952 1963 1967 1973 1978 1986 1996 2002 2002 2004 2007 2013 2019 2025 2031 2038 2044 2048 2053 2057 2058 2062 2065 2068 2069 2078 2083 2087 2091 2091 2094 2099 2103 2110 2116 2119 2123 2127 2131 2134 2138 2141 2144 2148 2151 2165 2176 2184 2188 2188 2192 2199 2204 2210 2216 2217 2218 2225 2231 2236 2238 2243 2250 2256 2261 2266 2275 2277 2277 2277 2274 2274 2271 2266 2266 2188 2141 0 0 0 0 2307 2324 2329 0 0 0 2559 2670 2756 2877 2977 3083 3134 3134 3134 3098 3098 3098 3108 3125 3158 3165 3166 3166 3166 3166 3180 3180 3180 3156 3139 3132 3123 3111 3111 3111 3123 3145 3157 3164 3172 3192 3235 3261 3261 3261 3264 3264 3271 3271 3271 3267 3244 3244 3243 3243 3244 3267 3274 3274 3274 3274 3276 3283 3314 3314 3317 3325 3324 3323 3323 3323 3314 3314 3314 3323 3323 3323 3287 3269 3269 3269 3286 3327 3327 3327 3300 3267 3242 3241 3241 3241 3263 3263 3263 3260 3260 3260 3277 3288 3304 3304 3304 3276 3144 3059 2979 2839 2551 2551 2551 2924 3215 3242 3263 3277 3280 3280 3284 3284 3294 3321 3322 3322 3322 3292 3259 3242 3208 3132 2963 2726 0 0 2254 2224 2206 2183 2176 2173 2163 2159 2156 2154 2150 2147 2147 2146 2146 2145 2144 2141 2137 2134 2133 2132 2131 2130 2128 2128 2127 2126 2126 2124 2124 2124 2124 2123 2123 2122 2122 2122 2122 2122 2123 2123 2123 2123 2125 2125 2125 2125 2125 2125 2128 2131 2133 2134 2134 2135 2138 2141 2144 2147 2148 2149 2152 2156 2160 2164 2166 2166 2167 2171 2175 2178 2182 2186 2191 2198 2204 2207 2213 2219 2223 2231 2237 2239 2246 2249 2249 2249 2236 2236 2203 0 0 0 0 0 0 0 0 0 0 0 0 0 0 0 0 0 0 0 2346 2338 2280 2232 2229 2223 2204 2197 2184 2170 2160 2155 2149 2142 2132 2124 2113 2108 2105 2105 2101 2098 2094 2091 2086 2080 2077 2073 2068 2062 2057 2053 2048 2043 2039 2033 2029 2026 2023 2020 2014 2009 2005 2003 2002 2001 2000 1997 1994 1991 1987 1985 1982 1981 1978 1975 1973 1973 1973 1971 1969 1968 1968 1968 1968 1968 1968 1967 1966 1966 1966 1965 1965 1964 1964 1962 1962 1961 1960 1960 1960 1959 1959 1958 1958 1958 1957 1956 1956 1955 1955 1955 1953 1951 1950 1949 1949 1945 1941 1937 1935 1933 1933 1933 1934 1943 1943 1943 1943 0 0 0 0 0 0 0 0 0 0 0 0 0 0 0 0 0 0 0 2316 2316 2296 2290 2288 2288 2288 2288 2288 2285 2283 2282 2277 2264 0 0 0 0 0 0 0 0 0 0 0 0 0 0 0 0 0 0 0 0 0 0 0 0 0 0 0 0 0 0 0 0 0 0 0 0 0 0 0 0 0 0 0 0 0 0 0 0 0 0 0 0 0 0 0 0 0 0 0 0 0 0 0 0 0 0 0 0 0 0 0 0 0 0 0 0 0 0 0 0 0 0 0 0 0 0 0 0 0 0 0 0 0 1235 1235
0 0 0 0 0 0 0 0 0 0 0 0 0 0 0 0 0 0 0 0 0 1745 1745 1745 1738 1726 1708 1656 1644 1631 1620 1620 1620 1643 1647 1697 1749 1779 1779 1780 1782 1782 1780 1780 1783 1783 1783 1801 1818 1825 1840 1854 1855 1859 1866 1871 1882 1882 1884 1884 1884 1889 1894 1897 1898 1900 1901 1904 1908 1912 1913 1914 1914 1921 1930 1937 1939 1942 1949 1956 1967 1971 1978 1986 1996 2002 2002 2004 2007 2013 2019 2025 2031 2038 2044 2048 2050 2052 2053 2056 2058 2061 2069 2076 2077 2083 2088 2091 2094 2099 2103 2110 2116 2119 2123 2127 2131 2135 2138 2141 2144 2148 2149 2156 2165 2174 2177 2184 2190 2196 2203 2209 2214 2214 2216 2217 2225 2229 2234 2243 2250 2255 2259 2265 2275 2277 2277 2277 2274 2274 2272 2266 2266 0 0 0 0 0 0 0 0 0 0 0 2685 2805 2823 2896 2966 3061 3143 3143 3143 3135 3098 3098 3098 3108 3125 3125 3125 3123 3123 3123 3138 3161 3161 3161 3138 3125 3122 3112 3111 3109 3109 3109 3145 3159 3159 3167 3185 3231 3231 3231 3220 3220 3220 3220 3221 3234 3234 3234 3225 3219 3218 3218 3218 3224 3245 3251 3255 3258 3258 3281 3286 3290 3290 3286 3274 3261 3252 3252 3252 3262 3282 3282 3282 3280 3261 3261 3261 3276 3296 3296 3296 3283 3263 3242 3238 3237 3237 3228 3227 3227 3238 3239 3242 3242 3243 3243 3242 3232 3232 3138 3054 2975 2834 2548 2548 2548 3080 3218 3236 3250 3261 3261 3261 3261 3261 3283 3306 3338 3338 3338 3292 3259 3242 3208 3137 2978 2764 0 0 0 2231 2206 2183 2176 2174 2163 2159 2156 2154 2151 2147 2147 2146 2146 2145 2144 2141 2137 2135 2133 2132 2132 2130 2129 2128 2127 2126 2126 2125 2125 2125 2124 2124 2123 2122 2122 2122 2123 2123 2123 2123 2124 2124 2125 2126 2126 2127 2127 2127 2129 2131 2134 2134 2134 2136 2138 2142 2146 2147 2148 2149 2152 2157 2161 2165 2166 2166 2167 2169 2173 2178 2183 2186 2192 2198 2205 2212 2218 2221 2224 2231 2237 2239 2246 2254 2254 2254 2234 2234 2191 0 0 0 0 0 0 0 0 0 0 0 0 0 0 0 0 0 0 0 2311 2280 2274 2229 2221 2213 2202 2197 2184 2170 2161 2156 2150 2142 2134 2124 2115 2109 2108 2106 2103 2099 2096 2092 2088 2083 2077 2073 2069 2064 2060 2057 2051 2045 2040 2034 2030 2027 2025 2021 2016 2010 2005 2005 2005 2004 2003 2000 1995 1992 1988 1986 1984 1981 1978 1976 1975 1973 1973 1972 1970 1969 1969 1969 1969 1969 1969 1969 1968 1966 1966 1966 1966 1965 1964 1964 1963 1962 1961 1960 1960 1959 1959 1958 1958 1958 1957 1956 1956 1956 1955 1955 1953 1951 1951 1951 1949 1947 1941 1937 1935 1929 1928 1928 1928 1937 1945 1945 1945 0 0 0 0 0 0 0 0 0 0 0 0 0 0 0 0 0 0 0 2313 2313 2279 2277 2277 2277 2288 2291 2291 2291 2290 2283 2277 2261 0 0 0 0 0 0 0 0 0 0 0 0 0 0 0 0 0 0 0 0 0 0 0 0 0 0 0 0 0 0 0 0 0 0 0 0 0 0 0 0 0 0 0 0 0 0 0 0 0 0 0 0 0 0 0 0 0 0 0 0 0 0 0 0 0 0 0 0 0 0 0 0 0 0 0 0 0 0 0 0 0 0 0 0 0 0 0 0 0 0 0 0 0 0 1278
0 0 0 0 0 0 0 0 0 0 0 0 0 0 0 0 0 0 0 0 1740 1737 1737 1737 1717 1700 1668 1656 1644 1631 1625 1625 1625 1648 1652 1695 1742 1764 1770 1772 1774 1783 1802 1802 1802 1808 1808 1808 1818 1825 1840 1849 1853 1858 1866 1868 1873 1876 1879 1883 1885 1892 1894 1897 1898 1900 1901 1902 1907 1912 1914 1914 1914 1930 1933 1937 1939 1939 1943 1950 1959 1966 1974 1986 1996 2002 2002 2004 2006 2013 2019 2025 2030 2035 2040 2044 2045 2046 2049 2053 2056 2058 2063 2069 2077 2082 2087 2091 2094 2099 2103 2110 2116 2119 2121 2124 2127 2135 2138 2140 2141 2144 2145 2150 2157 2163 2169 2176 2186 2195 2199 2202 2204 2205 2207 2213 2223 2229 2234 2242 2249 2252 2256 2259 2264 2270 2274 2274 2275 2276 2274 2274 2274 0 0 0 0 0 0 0 0 0 0 2592 2774 2868 2937 2981 3046 3087 3143 3143 3143 3135 3098 3098 3098 3097 3097 3087 3086 3070 3070 3070 3087 3137 3138 3138 3138 3122 3120 3096 3076 3076 3076 3106 3138 3138 3147 3150 3150 3184 3206 3206 3206 3197 3185 3185 3185 3209 3216 3223 3223 3218 3216 3199 3199 3199 3221 3241 3242 3245 3245 3246 3246 3246 3246 3232 3203 3203 3203 3208 3208 3233 3239 3243 3250 3250 3251 3251 3251 3266 3296 3296 3296 3283 3263 3242 3238 3237 3228 3210 3195 3195 3195 3220 3220 3220 3200 3200 3200 3197 3192 3087 3007 2917 2766 2534 2534 2534 3085 3218 3230 3234 3239 3244 3255 3256 3259 3283 3300 3328 3347 3347 3347 3311 3274 3239 3169 3050 2867 2630 0 0 0 2220 2194 2191 2177 2164 2159 2156 2154 2151 2148 2147 2146 2146 2145 2144 2141 2138 2135 2134 2132 2132 2130 2130 2129 2128 2128 2126 2125 2125 2125 2125 2124 2124 2123 2123 2123 2124 2124 2124 2124 2126 2127 2128 2128 2128 2129 2129 2130 2131 2132 2134 2134 2136 2137 2139 2143 2146 2147 2149 2150 2153 2157 2161 2165 2167 2167 2167 2169 2173 2178 2184 2186 2192 2198 2207 2216 2220 2223 2225 2231 2237 2239 2246 2254 2254 2254 2233 2233 2188 0 0 0 0 0 0 0 0 0 0 0 0 0 0 0 0 0 0 0 2279 2279 2274 2229 2208 2202 2192 2191 2184 2171 2161 2158 2151 2143 2134 2124 2116 2111 2108 2107 2104 2102 2099 2094 2089 2085 2081 2077 2073 2069 2066 2062 2056 2049 2041 2036 2033 2030 2027 2024 2019 2013 2009 2007 2006 2006 2004 2000 1996 1993 1990 1987 1985 1982 1979 1977 1976 1975 1974 1973 1971 1970 1970 1970 1970 1970 1970 1970 1968 1967 1967 1966 1966 1965 1965 1964 1963 1962 1962 1961 1960 1959 1959 1959 1958 1958 1958 1958 1958 1958 1958 1955 1953 1952 1952 1951 1950 1947 1941 1937 1935 1929 1928 1928 1928 1934 1944 1946 1946 0 0 0 0 0 0 0 0 0 0 0 0 0 0 0 0 0 0 2310 2310 2310 2272 2269 2269 2269 2288 2291 2306 2306 2306 2302 2285 0 0 0 0 0 0 0 0 0 0 0 0 0 0 0 0 0 0 0 0 0 0 0 0 0 0 0 0 0 0 0 0 0 0 0 0 0 0 0 0 0 0 0 0 0 0 0 0 0 0 0 0 0 0 0 0 0 0 0 0 0 0 0 0 0 0 0 0 0 0 0 0 0 0 0 0 0 0 0 0 0 0 0 0 0 0 0 0 0 0 0 0 0 0 0 0
0 0 0 0 0 0 0 0 0 0 0 0 0 0 0 0 0 0 0 1716 1713 1709 1704 1701 1692 1669 1667 1656 1654 1646 1632 1632 1632 1648 1652 1695 1733 1745 1758 1770 1774 1789 1805 1805 1805 1808 1808 1808 1818 1821 1826 1833 1844 1858 1865 1865 1865 1869 1877 1882 1885 1892 1894 1897 1897 1900 1900 1904 1907 1912 1915 1919 1925 1930 1934 1938 1939 1940 1940 1946 1956 1963 1970 1979 1989 1995 2001 2003 2006 2012 2018 2025 2028 2031 2035 2037 2038 2040 2045 2049 2051 2057 2061 2069 2077 2082 2086 2089 2091 2096 2099 2104 2111 2114 2116 2120 2127 2133 2137 2137 2137 2139 2142 2143 2149 2156 2161 2168 2176 2184 2188 2199 2204 2205 2205 2208 2217 2226 2233 2241 2249 2252 2252 2253 2257 2260 2272 2276 2277 2281 2281 2281 2274 0 0 0 0 0 0 0 0 0 0 2656 2850 2948 3009 3024 3046 3087 3143 3143 3143 3134 3099 3099 3099 3099 3099 3087 3086 3070 3070 3070 3087 3115 3137 3137 3137 3122 3120 3053 3053 3053 3054 3087 3124 3124 3133 3133 3133 3154 3205 3205 3205 3183 3168 3168 3168 3206 3215 3215 3218 3215 3215 3199 3195 3195 3195 3233 3233 3233 3225 3225 3217 3215 3215 3189 3180 3180 3180 3202 3202 3202 3203 3210 3230 3243 3243 3247 3247 3265 3292 3292 3292 3283 3274 3273 3269 3269 3238 3209 3191 3191 3191 3220 3220 3220 3197 3197 3197 3192 3175 3084 2970 2879 2743 2596 2596 2596 3103 3218 3224 3229 3232 3233 3249 3255 3255 3277 3295 3311 3343 3343 3343 3311 3283 3268 3209 3087 2929 2769 2589 0 0 2220 2194 2191 2183 2166 2159 2156 2155 2152 2152 2149 2146 2146 2145 2144 2142 2138 2135 2134 2132 2132 2131 2130 2129 2128 2128 2127 2125 2125 2125 2124 2124 2124 2124 2124 2124 2125 2126 2126 2127 2127 2128 2128 2128 2129 2130 2131 2132 2132 2133 2134 2136 2136 2138 2140 2144 2146 2148 2149 2151 2153 2157 2162 2165 2167 2167 2168 2169 2173 2178 2184 2186 2192 2198 2208 2216 2222 2224 2226 2231 2234 2236 2244 2254 2254 2254 2233 2181 2145 0 0 0 0 0 0 0 0 0 0 0 0 0 0 0 0 0 0 0 2274 2274 2274 2229 2208 2197 2192 2191 2186 2171 2161 2159 2154 2146 2136 2125 2119 2114 2111 2108 2104 2102 2099 2095 2091 2087 2084 2080 2077 2075 2072 2065 2058 2052 2047 2040 2036 2033 2030 2026 2022 2016 2012 2009 2008 2008 2004 2000 1997 1994 1992 1990 1987 1986 1984 1980 1978 1975 1974 1973 1971 1971 1971 1971 1971 1971 1971 1971 1969 1967 1967 1966 1966 1966 1965 1965 1965 1963 1962 1961 1960 1960 1959 1959 1959 1958 1958 1958 1958 1958 1958 1956 1955 1952 1952 1952 1950 1947 1941 1940 1940 1935 1928 1928 1928 1932 1932 1943 1943 0 0 0 0 0 0 0 0 0 0 0 0 0 0 0 0 0 0 2294 2294 2294 2272 2259 2259 2259 2271 2288 2306 2307 2307 2307 2285 0 0 0 0 0 0 0 0 0 0 0 0 0 0 0 0 0 0 0 0 0 0 0 0 0 0 0 0 0 0 0 0 0 0 0 0 0 0 0 0 0 0 0 0 0 0 0 0 0 0 0 0 0 0 0 0 0 0 0 0 0 0 0 0 0 0 0 0 0 0 0 0 0 0 0 0 0 0 0 0 0 0 0 0 0 0 0 0 0 0 0 0 0 0 0 0
0 0 0 0 0 0 0 0 0 0 0 0 0 0 0 0 0 0 0 1712 1710 1684 1681 1662 1659 1659 1659 1665 1665 1665 1646 1646 1646 1654 1689 1695 1733 1745 1758 1770 1774 1797 1805 1805 1805 1808 1808 1808 1808 1812 1816 1826 1841 1858 1858 1863 1864 1864 1874 1880 1885 1892 1894 1894 1896 1897 1900 1904 1909 1913 1918 1923 1930 1936 1938 1938 1939 1940 1940 1946 1953 1962 1966 1973 1982 1990 1997 2001 2006 2012 2018 2025 2028 2028 2030 2033 2036 2039 2042 2045 2051 2057 2061 2069 2077 2082 2086 2088 2089 2092 2095 2101 2106 2109 2111 2116 2123 2130 2131 2131 2132 2133 2136 2142 2147 2155 2161 2167 2169 2176 2187 2198 2203 2204 2205 2205 2213 2221 2231 2241 2249 2250 2250 2252 2253 2257 2267 2277 2281 2282 2282 2282 2274 0 0 0 0 0 0 0 0 0 0 2685 2905 2993 3021 3024 3046 3087 3116 3123 3123 3123 3097 3097 3097 3097 3097 3087 3086 3070 3070 3070 3087 3110 3137 3156 3156 3156 3114 3053 3046 3046 3046 3061 3095 3105 3114 3123 3130 3146 3191 3191 3191 3172 3159 3159 3159 3176 3189 3210 3212 3212 3212 3199 3178 3178 3178 3207 3207 3207 3211 3211 3205 3205 3205 3188 3180 3180 3180 3188 3191 3195 3196 3197 3230 3236 3238 3247 3247 3265 3283 3298 3298 3298 3277 3274 3273 3269 3238 3205 3191 3191 3191 3199 3199 3199 3197 3197 3192 3176 3136 3058 2959 2864 2619 2619 2619 2730 3122 3211 3211 3215 3215 3215 3235 3249 3255 3277 3293 3304 3336 3336 3336 3311 3283 3268 3211 3112 2986 2843 2637 0 0 2220 2194 2191 2183 2175 2162 2156 2155 2155 2154 2150 2148 2146 2146 2144 2142 2138 2135 2134 2132 2132 2131 2130 2129 2128 2128 2127 2126 2125 2125 2124 2124 2124 2124 2125 2125 2125 2126 2126 2127 2127 2128 2129 2129 2129 2130 2132 2133 2134 2135 2135 2136 2137 2139 2141 2144 2146 2148 2149 2152 2153 2157 2162 2166 2168 2168 2169 2171 2176 2182 2186 2188 2192 2199 2210 2218 2224 2225 2227 2229 2232 2232 2238 2248 2248 2248 2233 2172 2121 0 0 0 0 0 0 0 0 0 0 0 0 0 0 0 0 0 0 0 0 2281 2281 2232 2208 2197 2192 2191 2186 2173 2163 2161 2159 2150 2138 2128 2121 2117 2112 2108 2105 2102 2101 2096 2093 2089 2087 2083 2080 2078 2074 2067 2058 2053 2049 2045 2039 2035 2033 2028 2023 2018 2013 2011 2010 2008 2005 2001 1998 1996 1993 1991 1989 1987 1985 1983 1978 1976 1974 1973 1972 1972 1971 1971 1971 1971 1971 1971 1969 1968 1967 1966 1966 1966 1966 1966 1965 1964 1963 1962 1960 1960 1959 1959 1959 1958 1958 1958 1958 1958 1958 1956 1955 1952 1952 1951 1950 1947 1945 1942 1942 1942 1938 1923 1918 1918 1918 1937 1937 0 0 0 0 0 0 0 0 0 0 0 0 0 0 0 0 0 0 2291 2291 2291 2269 2254 2251 2251 2251 2277 2306 2307 2307 2307 2285 0 0 0 0 0 0 0 0 0 0 0 0 0 0 0 0 0 0 0 0 0 0 0 0 0 0 0 0 0 0 0 0 0 0 0 0 0 0 0 0 0 0 0 0 0 0 0 0 0 0 0 0 0 0 0 0 0 0 0 0 0 0 0 0 0 0 0 0 0 0 0 0 0 0 0 0 0 0 0 0 0 0 0 0 0 0 0 0 0 0 0 0 0 0 0 0
0 0 0 0 0 0 0 0 0 0 0 0 0 0 0 0 0 0 0 1707 1705 1683 1658 1643 1643 1643 1658 1667 1667 1667 1663 1663 1663 1677 1706 1710 1733 1745 1758 1775 1783 1797 1802 1804 1804 1804 1802 1802 1802 1806 1815 1820 1839 1855 1856 1857 1861 1861 1868 1877 1884 1887 1889 1889 1890 1896 1900 1904 1910 1914 1920 1928 1935 1940 1940 1940 1939 1939 1939 1942 1948 1954 1962 1966 1976 1985 1992 1998 2004 2010 2018 2024 2027 2027 2030 2033 2036 2039 2042 2045 2051 2057 2061 2070 2080 2083 2085 2087 2089 2090 2094 2097 2102 2104 2106 2111 2119 2125 2126 2127 2127 2128 2135 2142 2146 2155 2159 2160 2166 2174 2186 2197 2199 2200 2201 2202 2203 2215 2228 2241 2249 2249 2249 2250 2251 2251 2264 2273 2281 2281 2281 2281 0 0 0 0 0 0 0 0 0 0 0 2685 2924 2993 3021 3024 3039 3069 3104 3104 3104 3100 3097 3097 3097 3097 3097 3080 3050 3050 3050 3051 3066 3110 3137 3168 3168 3168 3114 3053 3041 3041 3031 3041 3054 3055 3113 3125 3130 3146 3175 3175 3175 3123 3123 3123 3159 3164 3170 3176 3194 3207 3207 3207 3178 3178 3178 3186 3193 3198 3200 3201 3200 3200 3194 3182 3180 3180 3180 3185 3191 3195 3196 3197 3230 3238 3238 3238 3238 3238 3252 3298 3298 3298 3277 3274 3273 3269 3238 3200 3200 3200 3205 3205 3205 3201 3198 3197 3192 3137 3090 3038 2938 2841 2606 2606 2606 2773 3137 3210 3210 3215 3215 3215 3226 3249 3254 3263 3271 3287 3287 3287 3283 3278 3277 3268 3216 3116 2991 2847 2642 0 0 2220 2189 2183 2181 2175 2163 2159 2156 2156 2155 2152 2149 2148 2146 2144 2142 2138 2135 2134 2132 2132 2131 2130 2130 2130 2129 2127 2127 2125 2125 2124 2124 2124 2124 2125 2125 2125 2127 2127 2127 2128 2129 2130 2130 2131 2131 2132 2134 2135 2136 2136 2136 2138 2140 2142 2144 2146 2148 2150 2153 2156 2159 2163 2166 2168 2169 2169 2171 2176 2182 2187 2189 2192 2200 2211 2220 2224 2227 2227 2227 2227 2227 2230 2237 2237 2237 2233 0 0 0 0 0 0 0 0 0 0 0 0 0 0 0 0 0 0 0 0 0 0 2281 2281 2232 2215 2197 2193 2191 2187 2178 2169 2168 2159 2150 2139 2129 2122 2119 2115 2111 2108 2105 2102 2099 2097 2093 2090 2085 2080 2078 2075 2067 2059 2054 2049 2046 2042 2039 2034 2029 2025 2019 2015 2012 2010 2009 2005 2002 2000 1997 1995 1993 1990 1987 1985 1983 1979 1976 1975 1973 1973 1972 1971 1971 1971 1971 1971 1971 1969 1968 1967 1967 1966 1966 1966 1966 1966 1964 1963 1962 1960 1959 1959 1959 1959 1958 1958 1958 1956 1956 1956 1955 1955 1952 1952 1951 1950 1947 1945 1942 1942 1942 1938 1926 1918 1918 1918 1937 1941 0 0 0 0 0 0 0 0 0 0 0 0 0 0 0 0 0 0 2283 2283 2283 2269 2254 2231 2231 2231 2259 2289 2305 2305 2305 0 0 0 0 0 0 0 0 0 0 0 0 0 0 0 0 0 0 0 0 0 0 0 0 0 0 0 0 0 0 0 0 0 0 0 0 0 0 0 0 0 0 0 0 0 0 0 0 0 0 0 0 0 0 0 0 0 0 0 0 0 0 0 0 0 0 0 0 0 0 0 0 0 0 0 0 0 0 0 0 0 0 0 0 0 0 0 0 0 0 0 0 0 0 0 0 0
0 0 0 0 0 0 0 0 0 0 0 0 0 0 0 0 0 0 0 0 1662 1658 1629 1625 1625 1625 1653 1667 1681 1681 1681 1683 1683 1697 1718 1745 1747 1764 1771 1776 1783 1794 1794 1795 1795 1794 1795 1796 1798 1799 1811 1820 1836 1845 1851 1853 1853 1858 1863 1868 1875 1878 1879 1880 1888 1895 1900 1905 1910 1916 1920 1928 1935 1940 1940 1940 1938 1938 1938 1940 1942 1947 1955 1964 1970 1981 1988 1994 2000 2008 2017 2023 2027 2027 2030 2033 2036 2039 2042 2045 2050 2058 2063 2070 2080 2083 2085 2086 2088 2090 2094 2097 2100 2102 2104 2108 2115 2120 2122 2124 2126 2128 2135 2142 2146 2153 2155 2156 2162 2171 2184 2195 2198 2200 2200 2200 2200 2206 2219 2233 2242 2242 2242 2243 2243 2243 2261 2272 2281 2281 2281 2270 0 0 0 0 0 0 0 0 0 0 0 2685 2924 2993 2998 3009 3021 3041 3076 3076 3076 3054 3054 3054 3066 3080 3080 3080 3050 3050 3050 3051 3077 3110 3130 3171 3171 3171 3110 3047 3044 3029 3023 3023 3029 3050 3110 3125 3125 3125 3115 3115 3114 3115 3119 3123 3159 3159 3164 3176 3183 3207 3207 3207 3176 3176 3176 3179 3186 3189 3198 3200 3200 3200 3184 3182 3180 3178 3180 3182 3191 3196 3220 3222 3243 3243 3243 3238 3202 3202 3202 3239 3276 3276 3276 3244 3226 3224 3180 3180 3180 3200 3202 3202 3212 3212 3202 3194 3194 3137 3069 3000 2910 2803 2583 2583 2583 2790 3137 3189 3199 3205 3209 3215 3226 3255 3256 3256 3260 3260 3266 3268 3268 3268 3268 3268 3223 3159 3077 2896 2646 0 0 2220 2189 2181 2179 2175 2165 2159 2157 2157 2156 2152 2149 2149 2146 2143 2141 2137 2135 2133 2130 2130 2130 2130 2130 2130 2130 2127 2127 2125 2125 2125 2125 2125 2125 2125 2125 2126 2127 2128 2128 2129 2129 2130 2131 2131 2132 2132 2134 2135 2136 2137 2137 2138 2140 2142 2145 2146 2148 2150 2153 2156 2160 2164 2166 2169 2170 2171 2172 2176 2182 2188 2194 2200 2206 2211 2220 2223 2226 2226 2226 2221 2221 2221 2232 2233 2233 2233 0 0 0 0 0 0 0 0 0 0 0 0 0 0 0 0 0 0 0 0 0 0 2269 2269 2245 2223 2210 2203 2200 2193 2188 2180 2168 2159 2150 2141 2129 2125 2121 2118 2115 2112 2109 2107 2102 2100 2095 2090 2085 2080 2078 2075 2068 2059 2054 2051 2046 2043 2039 2035 2029 2025 2021 2017 2013 2011 2009 2005 2003 2000 1999 1997 1994 1990 1988 1986 1983 1980 1977 1975 1973 1973 1972 1971 1971 1971 1971 1971 1971 1969 1968 1968 1967 1967 1966 1966 1966 1966 1964 1963 1962 1960 1959 1959 1959 1959 1957 1956 1955 1954 1953 1952 1950 1949 1947 1944 1944 1944 1942 1942 1942 1942 1942 1938 1926 1916 1916 1916 1937 1941 0 0 0 0 0 0 0 0 0 0 0 0 0 0 0 0 0 0 2283 2283 2283 2269 2254 2231 2231 2231 2237 2263 2294 2294 2294 0 0 0 0 0 0 0 0 0 0 0 0 0 0 0 0 0 0 0 0 0 0 0 0 0 0 0 0 0 0 0 0 0 0 0 0 0 0 0 0 0 0 0 0 0 0 0 0 0 0 0 0 0 0 0 0 0 0 0 0 0 0 0 0 0 0 0 0 0 0 0 0 0 0 0 0 0 0 0 0 0 0 0 0 0 0 0 0 0 0 0 0 0 0 0 0 0
0 0 0 0 0 0 0 0 0 0 0 0 0 0 0 0 0 0 0 0 0 1634 1624 1605 1605 1605 1653 1673 1684 1687 1701 1703 1715 1737 1750 1762 1762 1764 1771 1776 1783 1783 1786 1786 1786 1790 1791 1792 1794 1799 1809 1819 1828 1835 1844 1845 1849 1854 1856 1863 1867 1874 1874 1878 1887 1896 1902 1907 1910 1917 1920 1928 1935 1940 1940 1940 1939 1939 1939 1940 1942 1946 1950 1960 1964 1973 1984 1990 1999 2007 2015 2021 2027 2027 2033 2035 2037 2041 2042 2045 2050 2058 2063 2070 2080 2083 2085 2085 2087 2090 2093 2097 2100 2101 2102 2105 2112 2117 2120 2123 2126 2128 2134 2142 2146 2152 2155 2156 2158 2166 2178 2190 2198 2198 2198 2199 2199 2199 2208 2219 2232 2239 2239 2240 2242 2243 2256 2270 2278 2278 2278 2270 0 0 0 0 0 0 0 0 0 0 0 2670 2924 2969 2980 2987 2991 3011 3026 3026 3026 3004 3004 3004 3016 3029 3033 3033 3033 3033 3033 3051 3077 3110 3130 3171 3171 3171 3110 3044 3043 3025 3016 3016 3016 3048 3103 3119 3119 3119 3092 3092 3090 3092 3119 3123 3145 3145 3159 3173 3173 3207 3207 3207 3166 3161 3161 3161 3184 3186 3190 3191 3191 3191 3180 3180 3180 3176 3180 3182 3194 3229 3246 3270 3271 3271 3271 3238 3185 3185 3185 3220 3249 3249 3249 3200 3174 3162 3162 3162 3173 3202 3202 3202 3212 3212 3212 3212 3212 3137 3066 2978 2871 2726 0 0 0 2847 3137 3142 3165 3201 3215 3225 3226 3236 3251 3256 3256 3254 3254 3264 3264 3263 3263 3263 3223 3187 3126 2972 2692 0 0 2224 2189 2176 2167 2166 2165 2165 2163 2162 2159 2157 2153 2149 2146 2142 2140 2137 2134 2132 2130 2130 2130 2130 2130 2130 2130 2128 2127 2125 2125 2125 2125 2125 2125 2126 2126 2126 2127 2128 2129 2129 2130 2130 2131 2131 2132 2132 2134 2135 2137 2137 2137 2139 2140 2143 2145 2147 2148 2152 2156 2159 2162 2165 2166 2169 2170 2172 2174 2177 2182 2189 2195 2200 2206 2211 2220 2223 2223 2223 2213 2213 2213 2219 2231 2232 2232 2232 0 0 0 0 0 0 0 0 0 0 0 0 0 0 0 0 0 0 0 0 0 0 2269 2269 2245 2236 2225 2211 2205 2198 2188 2180 2168 2159 2150 2141 2130 2126 2124 2123 2118 2114 2109 2107 2105 2103 2099 2091 2085 2079 2078 2075 2069 2061 2055 2051 2048 2045 2039 2035 2030 2025 2022 2018 2014 2011 2008 2005 2003 2001 1999 1997 1994 1991 1988 1986 1983 1980 1977 1976 1975 1973 1972 1970 1970 1970 1970 1970 1970 1969 1968 1968 1967 1967 1966 1966 1966 1965 1964 1962 1961 1959 1959 1959 1958 1958 1956 1955 1954 1951 1950 1949 1945 1943 1942 1941 1939 1938 1939 1939 1939 1939 1939 1938 1926 1916 1916 1916 1937 1937 0 0 0 0 0 0 0 0 0 0 0 0 0 0 0 0 0 0 2283 2283 2283 2272 2256 2236 2233 2233 2233 2260 2260 2260 2260 0 0 0 0 0 0 0 0 0 0 0 0 0 0 0 0 0 0 0 0 0 0 0 0 0 0 0 0 0 0 0 0 0 0 0 0 0 0 0 0 0 0 0 0 0 0 0 0 0 0 0 0 0 0 0 0 0 0 0 0 0 0 0 0 0 0 0 0 0 0 0 0 0 0 0 0 0 0 0 0 0 0 0 0 0 0 0 0 0 0 0 0 0 0 0 0 0
0 0 0 0 0 0 0 0 0 0 0 0 0 0 0 0 0 0 0 0 0 1596 1596 1596 1602 1605 1653 1673 1687 1698 1725 1735 1752 1753 1759 1762 1762 1764 1771 1776 1776 1777 1777 1777 1786 1790 1791 1792 1794 1799 1808 1815 1825 1825 1829 1835 1845 1850 1854 1858 1867 1874 1874 1878 1887 1896 1903 1907 1911 1917 1923 1926 1932 1936 1939 1939 1939 1939 1939 1940 1942 1946 1950 1958 1964 1973 1981 1990 1999 2007 2015 2021 2026 2030 2033 2035 2039 2041 2042 2045 2050 2058 2063 2070 2075 2078 2080 2083 2086 2089 2093 2097 2100 2100 2102 2105 2110 2116 2120 2123 2124 2127 2134 2142 2146 2151 2155 2156 2158 2166 2174 2180 2185 2191 2193 2193 2197 2199 2208 2219 2221 2232 2235 2238 2240 2243 2256 2270 2278 2278 2278 0 0 0 0 0 0 0 0 0 0 0 0 2608 2884 2947 2947 2947 2952 2968 2983 2983 2983 2946 2939 2937 2933 2913 2913 2913 2939 2945 2958 2997 3052 3077 3130 3164 3164 3164 0 0 2998 2998 2998 2998 2998 3037 3081 3081 3081 3081 3081 3085 3086 3111 3130 3132 3140 3140 3141 3141 3141 3141 3141 3140 3101 3101 3101 3131 3155 3177 3186 3186 3186 3163 3163 3163 3163 3166 3174 3182 3194 3229 3246 3270 3271 3271 3271 3238 3184 3184 3184 3208 3208 3208 3195 3168 3164 3162 3162 3162 3176 3202 3202 3202 3212 3212 3212 3212 3212 3137 3060 2953 2824 2664 0 0 0 2858 3086 3099 3148 3192 3215 3233 3255 3255 3255 3255 3252 3251 3251 3252 3252 3255 3255 3255 3223 3187 3129 2975 2734 0 0 2228 2189 2176 2167 2167 2167 2166 2165 2165 2161 2158 2156 2149 2144 2139 2135 2134 2132 2130 2128 2128 2128 2130 2130 2130 2130 2129 2127 2126 2126 2126 2126 2126 2126 2126 2126 2126 2128 2129 2129 2129 2130 2131 2131 2132 2133 2133 2135 2137 2138 2139 2140 2140 2142 2143 2147 2148 2149 2153 2156 2161 2163 2165 2166 2169 2171 2175 2177 2179 2183 2189 2195 2200 2206 2208 2216 2220 2220 2220 2213 2213 2213 2219 2230 2230 2230 2222 0 0 0 0 0 0 0 0 0 0 0 0 0 0 0 0 0 0 0 0 0 0 0 2245 2245 2236 2225 2211 2205 2198 2188 2180 2168 2158 2150 2142 2134 2127 2124 2123 2119 2114 2111 2109 2106 2103 2099 2091 2085 2079 2075 2074 2069 2062 2056 2051 2049 2046 2040 2035 2030 2026 2022 2019 2015 2011 2008 2005 2003 2001 1999 1997 1995 1991 1989 1986 1983 1981 1979 1976 1975 1973 1971 1970 1969 1969 1968 1969 1969 1968 1968 1968 1968 1967 1966 1965 1965 1965 1963 1962 1960 1958 1957 1956 1956 1956 1955 1955 1954 1951 1949 1946 1942 1938 1938 1938 1938 1938 1934 1933 1930 1928 1928 1925 1924 1916 1916 1916 1937 1937 0 0 0 0 0 0 0 0 0 0 0 0 0 0 0 0 0 0 2298 2295 2289 2281 2267 2248 2233 2233 2233 2259 2259 2259 0 0 0 0 0 0 0 0 0 0 0 0 0 0 0 0 0 0 0 0 0 0 0 0 0 0 0 0 0 0 0 0 0 0 0 0 0 0 0 0 0 0 0 0 0 0 0 0 0 0 0 0 0 0 0 0 0 0 0 0 0 0 0 0 0 0 0 0 0 0 0 0 0 0 0 0 0 0 0 0 0 0 0 0 0 0 0 0 0 0 0 0 0 0 0 0 0 0
0 0 0 0 0 0 0 0 0 0 0 0 0 0 0 0 0 0 0 0 0 0 1594 1595 1601 1605 1663 1710 1735 1742 1743 1753 1758 1759 1762 1762 1762 1763 1764 1764 1766 1766 1767 1774 1784 1789 1791 1792 1794 1800 1808 1814 1818 1818 1822 1830 1840 1849 1854 1858 1867 1874 1874 1878 1887 1898 1906 1912 1916 1919 1923 1925 1928 1935 1939 1939 1939 1939 1939 1941 1942 1946 1950 1958 1964 1973 1981 1990 1999 2007 2014 2021 2026 2030 2033 2035 2039 2041 2042 2044 2047 2051 2060 2069 2072 2075 2077 2080 2085 2090 2094 2097 2099 2100 2101 2105 2110 2115 2118 2122 2124 2127 2131 2136 2140 2147 2151 2155 2158 2165 2173 2176 2182 2188 2193 2193 2194 2199 2208 2217 2220 2228 2228 2229 2234 2248 0 0 0 0 0 0 0 0 0 0 0 0 0 0 0 0 0 0 2847 2922 2922 2922 2920 2911 2909 2906 2896 2852 2852 2850 2840 2830 2830 2830 2867 2931 2958 2985 3038 3038 3038 0 0 0 0 0 0 0 2976 0 2997 3008 3023 3025 3033 3041 3062 3071 3084 3111 3130 3132 3139 3139 3139 0 3084 3084 3084 3084 3069 3069 3069 3086 3113 3136 3157 3157 3157 3133 3133 3133 3133 3133 3139 3148 3194 3229 3246 3270 3271 3271 3271 3238 3179 3179 3179 3205 3205 3205 3182 3164 3158 3156 3156 3156 3176 3198 3198 3198 3198 3198 3209 3209 3209 3137 3055 2917 2787 2568 0 0 0 2954 3077 3080 3126 3176 3215 3233 3255 3255 3255 3236 3236 3236 3242 3247 3252 3247 3247 3237 3218 3187 3132 2975 2755 0 0 2228 2195 2176 2167 2167 2167 2166 2166 2166 2163 2159 2156 2149 2144 2139 2135 2134 2130 2126 2126 2126 2128 2131 2132 2132 2132 2129 2127 2127 2127 2129 2129 2129 2129 2128 2128 2128 2128 2129 2130 2130 2130 2131 2131 2132 2133 2134 2135 2137 2138 2139 2140 2141 2145 2147 2149 2149 2150 2153 2157 2162 2165 2165 2166 2168 2171 2175 2180 2183 2186 2191 2195 2199 2203 2208 2212 2214 2214 2214 2213 2213 2213 2221 2231 2231 2231 2210 0 0 0 0 0 0 0 0 0 0 0 0 0 0 0 0 0 0 0 0 0 0 0 2227 2227 2225 2225 2211 2205 2198 2184 2172 2160 2154 2150 2141 2138 2131 2126 2123 2120 2116 2113 2109 2107 2103 2099 2093 2085 2079 2075 2074 2069 2062 2056 2053 2051 2047 2040 2035 2029 2026 2023 2020 2016 2012 2009 2005 2003 2001 2000 1997 1995 1993 1990 1986 1984 1982 1980 1977 1975 1973 1971 1969 1968 1968 1968 1968 1968 1968 1968 1968 1968 1967 1967 1965 1965 1965 1963 1962 1960 1958 1957 1956 1955 1955 1954 1954 1953 1951 1949 1945 1941 1936 1936 1935 1934 1934 1928 1920 1919 1916 1915 1913 1910 1910 1910 1919 1937 1937 0 0 0 0 0 0 0 0 0 0 0 0 0 0 0 0 0 2327 2325 2310 2298 2294 2269 2249 2233 2233 2233 2259 2259 2259 0 0 0 0 0 0 0 0 0 0 0 0 0 0 0 0 0 0 0 0 0 0 0 0 0 0 0 0 0 0 0 0 0 0 0 0 0 0 0 0 0 0 0 0 0 0 0 0 0 0 0 0 0 0 0 0 0 0 0 0 0 0 0 0 0 0 0 0 0 0 0 0 0 0 0 0 0 0 0 0 0 0 0 0 0 0 0 0 0 0 0 0 0 0 0 0 0 0
0 0 0 0 0 0 0 0 0 0 0 0 0 0 0 0 0 0 0 0 0 0 0 0 0 0 1732 1746 1752 1753 1753 1757 1758 1758 1758 1754 1747 1747 1747 1748 1749 1755 1761 1771 1784 1789 1793 1801 1803 1806 1806 1808 1809 1813 1817 1826 1840 1849 1854 1858 1868 1876 1883 1887 1893 1902 1910 1915 1918 1921 1923 1925 1928 1935 1940 1941 1941 1942 1944 1946 1946 1948 1953 1958 1966 1974 1981 1990 2000 2010 2014 2020 2026 2030 2032 2035 2039 2039 2042 2044 2047 2049 2055 2063 2067 2072 2075 2079 2085 2089 2094 2097 2099 2100 2101 2104 2109 2114 2118 2121 2124 2127 2128 2129 2129 2131 2139 2147 2156 2164 2173 2175 2179 2187 2192 2193 2193 2202 2211 2213 2220 2222 2229 2248 2255 0 0 0 0 0 0 0 0 0 0 0 0 0 0 0 0 0 0 0 2819 2912 2912 2912 2869 2835 2825 2796 2780 2777 2777 2777 2770 2784 2788 2794 2843 2923 2940 2940 2940 0 0 0 0 0 0 0 0 0 0 0 0 2979 2981 2998 2998 3007 3022 3042 3084 3111 3130 3132 3132 3132 3091 0 0 3042 3059 3061 3061 3061 3064 3086 3113 3136 3136 3136 3120 3100 3100 3100 3103 3106 3109 3122 3133 3152 3171 3178 3234 3234 3234 3223 3174 3170 3168 3168 3168 3163 3164 3158 3157 3157 3158 3158 3176 3176 3176 3169 3112 3112 3112 3113 3113 3113 3010 2883 2760 2537 0 0 0 2979 3077 3080 3100 3144 3198 3233 3237 3237 3237 3208 3208 3208 3241 3241 3241 3237 3230 3215 3196 3168 3141 3011 2757 0 0 2227 2201 2181 2170 2169 2169 2168 2168 2166 2163 2161 2156 2149 2144 2139 2135 2134 2130 2126 2126 2126 2131 2135 2135 2135 2135 2132 2131 2131 2130 2130 2130 2129 2129 2129 2129 2129 2129 2129 2130 2130 2131 2131 2131 2132 2133 2134 2135 2137 2138 2139 2140 2141 2145 2148 2149 2149 2150 2153 2157 2164 2165 2166 2166 2168 2171 2175 2180 2184 2188 2192 2194 2196 2201 2205 2205 2205 2208 2208 2210 2220 2222 2225 2231 2231 2231 2192 0 0 0 0 0 0 0 0 0 0 0 0 0 0 0 0 0 0 0 0 0 0 0 2220 2220 2220 2213 2205 2201 2192 2179 2168 2153 2146 2144 2141 2138 2133 2128 2125 2120 2116 2113 2112 2110 2108 2105 2099 2089 2080 2075 2074 2070 2063 2057 2054 2053 2048 2040 2033 2027 2025 2023 2020 2017 2012 2008 2005 2003 2001 2000 1997 1995 1993 1990 1986 1984 1982 1981 1977 1975 1972 1970 1969 1968 1968 1967 1967 1968 1968 1969 1969 1969 1967 1967 1965 1965 1965 1963 1962 1960 1958 1957 1956 1955 1954 1954 1952 1952 1951 1948 1945 1940 1936 1933 1933 1933 1933 1924 1917 1915 1915 1914 1913 1912 1912 1912 1919 1919 1919 0 0 0 0 0 0 0 0 0 0 0 0 0 0 0 0 2347 2352 2352 2352 2302 2296 2280 2256 2244 2244 2244 2249 2249 2249 0 0 0 0 0 0 0 0 0 0 0 0 0 0 0 0 0 0 0 0 0 0 0 0 0 0 0 0 0 0 0 0 0 0 0 0 0 0 0 0 0 0 0 0 0 0 0 0 0 0 0 0 0 0 0 0 0 0 0 0 0 0 0 0 0 0 0 0 0 0 0 0 0 0 0 0 0 0 0 0 0 0 0 0 0 0 0 0 0 0 0 0 0 0 0 0 0 0
0 0 0 0 0 0 0 0 0 0 0 0 0 0 0 0 0 0 0 0 0 0 0 0 0 0 1732 1746 1752 1753 1753 1757 1755 1755 1755 1742 1741 1741 1741 1744 1749 1755 1759 1769 1781 1789 1793 1801 1803 1803 1803 1803 1803 1806 1811 1826 1838 1850 1857 1863 1872 1877 1884 1891 1899 1905 1911 1915 1918 1921 1923 1925 1928 1935 1940 1941 1941 1942 1944 1948 1948 1950 1954 1960 1969 1979 1984 1992 2002 2010 2014 2018 2023 2025 2028 2034 2037 2038 2041 2044 2047 2049 2052 2056 2060 2065 2071 2077 2083 2089 2092 2097 2099 2101 2101 2105 2106 2112 2117 2120 2122 2125 2125 2126 2128 2128 2135 2143 2156 2164 2167 2168 2175 2187 2192 2193 2193 2202 2211 2211 2214 2222 2234 0 0 0 0 0 0 0 0 0 0 0 0 0 0 0 0 0 0 0 0 0 0 2892 2892 2892 2845 2797 2790 2740 0 0 0 2702 2752 2757 2766 2771 2836 2919 2925 2925 0 0 0 0 0 0 0 0 0 0 0 0 0 0 2963 2980 2980 2980 3007 3008 3019 3021 3027 3056 3084 3084 3084 0 0 3042 3054 3057 3059 3059 3061 3086 3113 3130 3130 3130 3116 3100 3078 3078 3078 3081 3102 3102 3102 3080 3080 3080 3168 3182 3182 3182 3155 3140 3132 3117 3117 3117 3119 3157 3157 3165 3165 3153 3150 3150 3124 3124 3110 3080 3069 3058 3055 3015 2924 2841 2730 0 0 0 2617 3021 3077 3080 3100 3144 3198 3226 3226 3226 3224 3208 3208 3208 3241 3241 3241 3237 3200 3195 3180 3166 3141 3062 2773 0 0 2224 2211 2207 2192 2178 2177 2174 2171 2171 2167 2164 2158 2150 2145 2140 2139 2135 2130 2130 2130 2130 2134 2138 2139 2139 2139 2137 2134 2132 2132 2131 2130 2129 2129 2129 2129 2129 2130 2130 2130 2131 2131 2131 2131 2132 2133 2134 2135 2136 2136 2137 2139 2141 2145 2148 2149 2149 2151 2153 2160 2165 2166 2166 2167 2169 2172 2175 2180 2184 2188 2192 2193 2195 2198 2198 2200 2201 2201 2203 2210 2224 2229 2234 2234 2234 2230 2183 0 0 0 0 0 0 0 0 0 0 0 0 0 0 0 0 0 0 0 0 0 0 0 2196 2211 2211 2211 2205 2198 2184 2175 2159 2148 2146 2144 2143 2139 2134 2130 2126 2122 2119 2115 2112 2111 2110 2108 2105 2096 2086 2080 2075 2070 2065 2061 2059 2056 2048 2040 2033 2026 2024 2023 2020 2017 2012 2008 2005 2003 2003 2001 1998 1995 1993 1990 1986 1984 1982 1981 1978 1975 1971 1968 1968 1968 1967 1967 1967 1967 1968 1969 1969 1969 1970 1970 1970 1970 1968 1965 1963 1960 1960 1958 1956 1953 1950 1950 1950 1950 1950 1948 1945 1940 1936 1933 1933 1933 1925 1918 1914 1914 1914 1913 1913 1912 1912 1912 1919 1919 1919 0 0 0 0 0 0 0 0 0 0 0 0 0 0 0 0 2347 2355 2355 2355 2334 2307 2281 2261 2261 2259 2259 2259 2259 0 0 0 0 0 0 0 0 0 0 0 0 0 0 0 0 0 0 0 0 0 0 0 0 0 0 0 0 0 0 0 0 0 0 0 0 0 0 0 0 0 0 0 0 0 0 0 0 0 0 0 0 0 0 0 0 0 0 0 0 0 0 0 0 0 0 0 0 0 0 0 0 0 0 0 0 0 0 0 0 0 0 0 0 0 0 0 0 0 0 0 0 0 0 0 0 0 0 0
0 0 0 0 0 0 0 0 0 0 0 0 0 0 0 0 0 0 0 0 0 0 0 0 0 1722 1732 1746 1752 1752 1752 1750 1749 1747 1741 1736 1736 1736 1736 1738 1749 1754 1759 1768 1776 1782 1793 1801 1801 1801 1793 1793 1793 1804 1811 1826 1838 1850 1857 1864 1873 1879 1887 1894 1901 1905 1911 1916 1918 1921 1924 1927 1928 1934 1937 1941 1941 1942 1944 1948 1949 1951 1956 1963 1970 1979 1989 1992 2002 2010 2014 2018 2021 2023 2026 2029 2034 2036 2040 2043 2047 2049 2049 2051 2056 2062 2069 2077 2083 2088 2092 2094 2098 2102 2102 2105 2106 2110 2115 2119 2121 2124 2124 2124 2124 2124 2134 2141 2150 2161 2165 2167 2171 2176 2187 2192 2193 2202 2211 2214 2217 0 0 0 0 2522 2629 2705 2705 0 0 0 0 0 0 0 0 0 0 0 0 0 0 0 0 0 2845 2845 2845 0 0 0 0 0 0 0 2736 2736 2739 2756 2822 2822 2822 0 0 0 0 0 0 0 0 0 0 0 0 0 0 0 0 0 0 2970 2991 2991 2991 2975 2975 2975 2975 2975 2974 0 0 3037 3037 3041 3041 3041 3074 3084 3113 3117 3117 3117 3104 3074 3068 3068 3068 3081 3102 3102 3102 3080 3080 3080 3158 3158 3158 3153 3153 3125 3077 3025 3025 3025 3094 3158 3195 3195 3195 3166 3121 3121 3118 3110 3110 3076 3032 3021 2993 2953 2870 2797 2607 0 0 0 2948 3033 3077 3082 3100 3144 3198 3225 3225 3225 3216 3208 3208 3208 3241 3241 3241 3237 3200 3181 3160 3155 3141 3063 2832 0 0 2216 2211 2208 2204 2194 2192 2186 2182 2178 2173 2168 2161 2156 2153 2148 2145 2142 2139 2136 2136 2136 2138 2140 2140 2140 2139 2137 2134 2132 2132 2131 2129 2129 2129 2129 2129 2130 2130 2130 2130 2131 2131 2131 2131 2131 2133 2133 2134 2134 2135 2136 2138 2141 2144 2148 2149 2149 2151 2155 2160 2165 2166 2167 2167 2169 2172 2175 2180 2184 2188 2192 2193 2195 2195 2196 2196 2200 2201 2203 2220 2232 2243 2247 2247 2247 2230 2183 0 0 0 0 0 0 0 0 0 0 0 0 0 0 0 0 0 0 0 0 0 0 0 2154 2194 2205 2205 2205 2198 2182 2167 2152 2146 2144 2144 2143 2139 2136 2132 2127 2125 2120 2116 2112 2111 2111 2111 2107 2101 2092 2084 2078 2073 2073 2073 2059 2056 2050 2040 2033 2026 2024 2021 2019 2017 2012 2008 2006 2003 2003 2001 1998 1995 1993 1989 1986 1984 1982 1981 1978 1973 1970 1967 1967 1967 1967 1967 1967 1967 1968 1969 1970 1972 1974 1974 1974 1974 1969 1966 1963 1962 1960 1959 1956 1953 1949 1949 1949 1949 1949 1948 1944 1939 1936 1934 1933 1931 1925 1918 1914 1914 1914 1915 1915 1915 1915 1916 1914 1912 1890 0 0 0 0 0 0 0 0 0 0 0 0 0 0 0 0 2347 2368 2383 2383 2383 2372 2300 2266 2266 2265 2259 2259 0 0 0 0 0 0 0 0 0 0 0 0 0 0 0 0 0 0 0 0 0 0 0 0 0 0 0 0 0 0 0 0 0 0 0 0 0 0 0 0 0 0 0 0 0 0 0 0 0 0 0 0 0 0 0 0 0 0 0 0 0 0 0 0 0 0 0 0 0 0 0 0 0 0 0 0 0 0 0 0 0 0 0 0 0 0 0 0 0 0 0 0 0 0 0 0 0 0 0 0
0 0 0 0 0 0 0 0 0 0 0 0 0 0 0 0 0 0 0 0 0 0 0 0 1718 1727 1730 1743 1743 1743 1740 1740 1737 1735 1735 1734 1731 1731 1731 1735 1746 1753 1759 1767 1772 1779 1784 1793 1793 1793 1792 1792 1792 1804 1811 1826 1841 1853 1858 1868 1874 1879 1890 1897 1901 1905 1911 1916 1918 1921 1924 1927 1928 1930 1931 1934 1937 1941 1944 1949 1951 1954 1957 1963 1970 1979 1989 1992 2000 2009 2013 2017 2020 2022 2024 2026 2029 2033 2036 2043 2048 2049 2049 2051 2056 2062 2069 2077 2081 2088 2092 2094 2098 2102 2102 2104 2106 2110 2114 2117 2119 2121 2121 2122 2123 2123 2129 2141 2145 2159 2165 2167 2171 2172 2173 2186 2196 2202 2212 2214 0 0 0 0 2549 2653 2727 2800 2800 2800 0 0 0 0 0 0 0 0 0 0 0 0 0 0 0 0 0 0 0 0 0 0 0 0 0 0 0 0 0 0 0 0 0 0 0 0 0 0 0 0 0 0 0 0 0 0 0 0 0 0 0 0 0 0 0 2882 2904 2928 2960 2960 2960 0 0 0 3033 3037 3041 3041 3074 3074 3074 0 0 0 0 3012 3062 3068 3068 3081 3105 3105 3105 3074 3074 3074 3154 3154 3154 3138 3136 3099 3031 3005 3005 3005 3094 3145 3195 3195 3195 3158 3107 3107 3107 3097 3097 3076 3032 3021 2962 2902 2830 2713 0 0 0 0 2948 3033 3080 3101 3123 3181 3218 3222 3222 3222 3214 3204 3204 3204 3241 3252 3252 3252 3200 3181 3160 3155 3148 3073 2873 2589 0 2216 2211 2208 2204 2200 2197 2197 2189 2180 2174 2172 2168 2163 2160 2155 2152 2149 2145 2140 2140 2140 2141 2141 2141 2141 2140 2138 2135 2132 2132 2130 2127 2127 2127 2128 2130 2130 2130 2130 2130 2131 2131 2131 2131 2131 2132 2132 2133 2133 2134 2136 2138 2141 2144 2147 2149 2149 2151 2155 2160 2165 2167 2167 2169 2170 2172 2175 2179 2183 2188 2192 2193 2193 2194 2195 2196 2200 2201 2213 2225 2235 2243 2247 2247 2247 2226 2183 0 0 0 0 0 0 0 0 0 0 0 0 0 0 0 0 0 0 0 0 0 0 0 0 2180 2205 2205 2205 2195 2182 2167 2152 2150 2147 2146 2146 2143 2140 2136 2133 2128 2122 2116 2113 2113 2113 2112 2112 2106 2096 2088 2083 2074 2073 2073 2068 2057 2050 2040 2034 2026 2024 2021 2019 2017 2012 2008 2006 2004 2003 2001 1998 1994 1990 1987 1983 1981 1980 1979 1977 1973 1970 1967 1967 1966 1965 1965 1965 1966 1968 1970 1972 1973 1975 1975 1975 1974 1973 1968 1965 1963 1963 1960 1957 1953 1947 1944 1944 1943 1943 1943 1943 1940 1937 1934 1933 1931 1925 1918 1918 1918 1920 1920 1920 1916 1914 1912 1905 1886 1798 0 0 0 0 0 0 0 0 0 0 0 0 0 0 0 0 0 2371 2396 2402 2402 2402 2371 2311 2267 2267 2262 2256 0 0 0 0 0 0 0 0 0 0 0 0 0 0 0 0 0 0 0 0 0 0 0 0 0 0 0 0 0 0 0 0 0 0 0 0 0 0 0 0 0 0 0 0 0 0 0 0 0 0 0 0 0 0 0 0 0 0 0 0 0 0 0 0 0 0 0 0 0 0 0 0 0 0 0 0 0 0 0 0 0 0 0 0 0 0 0 0 0 0 0 0 0 0 0 0 0 0 0 0
0 0 0 0 0 0 0 0 0 0 0 0 0 0 0 0 0 0 0 1679 1708 1729 1729 1729 1729 1729 1730 1736 1736 1736 1736 1735 1732 1732 1731 1730 1730 1725 1725 1725 1733 1744 1752 1764 1770 1773 1783 1787 1787 1787 1789 1790 1792 1805 1821 1826 1848 1855 1866 1873 1875 1882 1890 1897 1901 1905 1910 1916 1918 1920 1924 1926 1927 1927 1928 1930 1932 1934 1941 1949 1955 1960 1962 1964 1970 1979 1989 1992 1998 2005 2013 2017 2020 2022 2024 2026 2029 2033 2036 2043 2048 2049 2051 2051 2056 2062 2069 2077 2081 2088 2092 2094 2098 2102 2102 2103 2106 2109 2112 2115 2116 2116 2121 2122 2123 2123 2129 2139 2142 2158 2162 2171 2172 2172 2173 2186 2196 2202 0 0 0 2506 2628 2638 2656 2723 2816 2822 2822 2822 0 0 0 0 0 0 0 0 0 0 0 0 0 0 0 0 0 0 0 0 0 0 0 0 0 0 0 0 0 0 0 0 0 0 0 0 0 0 0 0 0 0 0 0 0 0 0 0 0 0 0 0 0 0 0 0 0 0 0 0 0 0 0 0 0 0 0 0 0 0 0 0 0 0 0 0 0 3132 3148 3148 3142 3132 3105 3074 3074 3074 3154 3154 3154 3126 3076 3075 3017 2992 2992 2992 3061 3138 3195 3195 3195 3158 3099 3099 3099 3094 3094 3080 3032 3021 2956 2862 2783 2638 0 0 0 2752 2948 3033 3080 3101 3147 3193 3218 3218 3218 3218 3214 3204 3204 3204 3241 3252 3252 3252 3208 3181 3160 3156 3155 3073 2928 2600 0 2216 2208 2207 2204 2200 2199 2197 2189 2180 2175 2173 2170 2168 2164 2159 2156 2154 2150 2146 2144 2144 2143 2143 2143 2142 2141 2138 2136 2133 2132 2130 2127 2127 2127 2128 2130 2130 2131 2131 2131 2131 2131 2131 2131 2131 2131 2131 2132 2133 2134 2136 2137 2140 2143 2147 2149 2151 2152 2156 2160 2164 2167 2169 2172 2173 2174 2175 2179 2183 2187 2189 2191 2191 2192 2195 2200 2204 2211 2216 2225 2237 2244 2247 2247 2247 2218 2185 0 0 0 0 0 0 0 0 0 0 0 0 0 0 0 0 0 0 0 0 0 0 0 0 2175 2206 2206 2206 2198 2182 2167 2155 2155 2152 2147 2147 2144 2140 2136 2133 2128 2122 2116 2116 2116 2116 2116 2116 2110 2097 2088 2083 2082 2081 2081 2076 2066 2054 2052 2042 2032 2025 2021 2019 2017 2012 2008 2007 2005 2001 1998 1995 1992 1990 1987 1983 1981 1979 1978 1976 1973 1970 1967 1967 1964 1964 1964 1964 1965 1968 1970 1972 1975 1975 1975 1975 1974 1973 1969 1965 1963 1963 1960 1957 1953 1947 1943 1942 1942 1942 1942 1942 1940 1937 1935 1933 1931 1927 1920 1920 1920 1920 1920 1920 1916 1914 1902 1895 0 0 0 0 0 0 0 0 0 0 0 0 0 0 0 0 0 0 0 0 2402 2402 2402 2402 2371 2324 2291 2268 2254 2236 0 0 0 0 0 0 0 0 0 0 0 0 0 0 0 0 0 0 0 0 0 0 0 0 0 0 0 0 0 0 0 0 0 0 0 0 0 0 0 0 0 0 0 0 0 0 0 0 0 0 0 0 0 0 0 0 0 0 0 0 0 0 0 0 0 0 0 0 0 0 0 0 0 0 0 0 0 0 0 0 0 0 0 0 0 0 0 0 0 0 0 0 0 0 0 0 0 0 0 0
0 0 0 0 0 0 0 0 0 0 0 0 0 0 0 0 0 0 1662 1679 1708 1729 1730 1730 1730 1730 1730 1731 1731 1733 1731 1731 1727 1727 1727 1726 1726 1715 1715 1715 1715 1729 1744 1758 1765 1770 1781 1785 1787 1787 1789 1790 1793 1806 1831 1836 1858 1874 1875 1879 1881 1882 1890 1896 1897 1900 1902 1909 1915 1918 1919 1923 1923 1924 1926 1927 1930 1934 1941 1952 1965 1965 1967 1969 1969 1975 1978 1991 1998 2005 2013 2017 2020 2022 2024 2026 2029 2033 2036 2043 2048 2051 2054 2056 2059 2065 2073 2077 2081 2088 2095 2097 2100 2102 2102 2103 2106 2108 2110 2112 2113 2115 2121 2122 2123 2123 2129 2139 2142 2158 2162 2172 2173 2175 2178 2186 0 0 0 0 2603 2675 2704 2709 2731 2772 2831 2831 2831 2822 0 0 0 0 0 0 0 0 0 0 0 0 0 0 0 0 0 0 0 0 0 0 0 0 0 0 0 0 0 0 0 0 0 0 0 0 0 0 0 0 0 0 0 0 0 0 0 0 0 0 0 0 0 0 0 0 0 0 0 0 0 0 0 0 0 0 0 0 0 0 0 0 0 0 0 0 0 3210 3210 3210 3206 3195 3111 3074 3074 3074 3082 3082 3082 3075 3061 3040 3001 2981 2981 2981 3058 3138 3167 3167 3167 3124 3094 3094 3094 3096 3096 3096 3071 3020 2951 2847 2744 2607 0 0 0 2752 2959 3033 3085 3101 3147 3193 3218 3218 3218 3201 3197 3194 3194 3194 3225 3252 3252 3252 3208 3192 3191 3175 3157 3128 2948 2611 0 2233 2208 2202 2201 2200 2200 2199 2189 2182 2176 2174 2172 2169 2164 2161 2159 2156 2153 2150 2148 2146 2144 2144 2144 2143 2141 2138 2136 2133 2132 2130 2127 2127 2127 2128 2130 2131 2131 2132 2133 2133 2132 2132 2131 2131 2131 2131 2132 2134 2134 2136 2138 2140 2143 2147 2153 2153 2154 2157 2160 2164 2167 2169 2172 2173 2175 2177 2179 2182 2186 2188 2190 2190 2192 2195 2203 2210 2215 2216 2225 2239 2250 2250 2250 2247 2218 2189 0 0 0 0 0 0 0 0 0 0 0 0 0 0 0 0 0 0 0 0 0 0 0 0 0 2208 2208 2208 2198 2189 2184 2178 2174 2166 2162 2151 2145 2144 2136 2133 2128 2122 2116 2116 2116 2117 2117 2117 2111 2101 2092 2087 2087 2086 2085 2079 2068 2058 2052 2042 2040 2033 2026 2022 2019 2016 2012 2009 2005 2001 1998 1994 1992 1990 1987 1983 1981 1979 1977 1975 1973 1971 1967 1964 1963 1963 1963 1963 1965 1967 1970 1972 1975 1975 1975 1975 1974 1973 1969 1965 1963 1963 1960 1957 1953 1950 1945 1942 1941 1941 1941 1941 1939 1937 1935 1933 1933 1930 1922 1922 1922 1920 1920 1920 1914 1913 1902 1895 0 0 0 0 0 0 0 0 0 0 0 0 0 0 0 0 0 0 0 0 2402 2402 2402 2402 2371 2324 2306 2279 2254 2228 2180 0 0 0 0 0 0 0 0 0 0 0 0 0 0 0 0 0 0 0 0 0 0 0 0 0 0 0 0 0 0 0 0 0 0 0 0 0 0 0 0 0 0 0 0 0 0 0 0 0 0 0 0 0 0 0 0 0 0 0 0 0 0 0 0 0 0 0 0 0 0 0 0 0 0 0 0 0 0 0 0 0 0 0 0 0 0 0 0 0 0 0 0 0 0 0 0 0 0 0
0 0 0 0 0 0 0 0 0 0 0 0 0 0 0 0 1627 1651 1662 1679 1708 1729 1732 1732 1731 1731 1731 1730 1729 1728 1728 1727 1726 1725 1725 1724 1722 1714 1714 1714 1715 1727 1744 1752 1760 1770 1780 1785 1787 1789 1794 1796 1797 1814 1839 1861 1867 1874 1879 1879 1881 1882 1890 1896 1897 1900 1902 1904 1912 1915 1919 1919 1921 1922 1925 1927 1930 1934 1941 1953 1965 1967 1969 1971 1971 1975 1978 1991 1998 2005 2013 2019 2022 2023 2024 2027 2029 2033 2040 2043 2048 2051 2055 2057 2061 2067 2073 2080 2084 2094 2101 2102 2102 2102 2102 2103 2106 2107 2110 2112 2113 2115 2123 2126 2128 2128 2129 2139 2145 2158 2162 2175 2175 2178 0 0 0 0 2522 2605 2674 2704 2709 2723 2731 2772 2831 2831 2831 2793 0 0 0 0 0 0 0 0 0 0 0 0 0 0 0 0 0 0 0 0 0 0 0 0 0 0 0 0 0 0 0 0 0 0 0 0 0 0 0 0 0 0 0 0 0 0 0 0 0 0 0 0 0 0 0 0 0 0 0 0 0 0 0 0 0 0 0 0 0 0 0 0 0 0 0 0 0 3210 3210 3210 3206 3195 3111 3041 0 0 0 2952 3033 3033 3033 3001 2998 2970 0 0 0 3063 3101 3101 3101 3051 3051 3051 3066 3090 3090 3090 3082 3020 2933 2816 2679 0 0 0 0 2752 2959 3033 3090 3097 3147 3193 3193 3193 3182 3171 3158 3158 3158 3161 3178 3214 3222 3222 3222 3213 3206 3202 3158 3140 2948 2615 0 2239 2219 2202 2202 2200 2200 2199 2191 2182 2176 2175 2173 2169 2165 2162 2160 2156 2154 2152 2150 2148 2147 2146 2145 2144 2142 2140 2137 2135 2132 2131 2129 2129 2129 2130 2131 2131 2133 2133 2134 2134 2134 2133 2131 2131 2131 2131 2132 2134 2135 2137 2138 2140 2143 2148 2153 2154 2154 2157 2160 2164 2167 2169 2172 2173 2175 2177 2180 2182 2186 2188 2190 2190 2192 2195 2203 2211 2216 2218 2225 2239 2254 2254 2254 2247 2218 2189 0 0 0 0 0 0 0 0 0 0 0 0 0 0 0 0 0 0 0 0 0 0 0 0 0 2205 2215 2215 2215 2215 2206 2190 2183 2177 2167 2156 2147 2144 2136 2130 2127 2120 2116 2116 2116 2120 2120 2120 2114 2106 2097 2092 2091 2090 2087 2079 2068 2058 2052 2042 2040 2035 2029 2025 2021 2018 2013 2009 2005 2001 1998 1994 1992 1990 1987 1985 1982 1979 1977 1975 1972 1971 1967 1964 1962 1960 1960 1960 1962 1964 1967 1971 1974 1974 1974 1973 1973 1970 1969 1963 1962 1961 1960 1957 1954 1950 1946 1942 1939 1939 1939 1939 1939 1937 1935 1933 1933 1930 1922 1918 1918 1917 1917 1917 1914 1913 1902 1895 0 0 0 0 0 0 0 0 0 0 0 0 0 0 0 0 0 0 0 0 2398 2398 2398 2379 2352 2324 2306 2283 2254 2228 2180 0 0 0 0 0 0 0 0 0 0 0 0 0 0 0 0 0 0 0 0 0 0 0 0 0 0 0 0 0 0 0 0 0 0 0 0 0 0 0 0 0 0 0 0 0 0 0 0 0 0 0 0 0 0 0 0 0 0 0 0 0 0 0 0 0 0 0 0 0 0 0 0 0 0 0 0 0 0 0 0 0 0 0 0 0 0 0 0 0 0 0 0 0 0 0 0 0 0 0
