0 0 0 0 0 0 0 0 0 2960 2960 2983 2983 2983 3039 3062 3069 3069 3069 3071 3093 3095 3107 3108 3108 3108 3108 3108 3109 3110 3116 3126 3126 3126 3123 3123 3123 3127 3136 3144 3147 3148 3153 3154 3181 3181 3181 3181 3183 3183 3192 3196 3201 3217 3225 3227 3227 3225 3225 3227 3228 3241 3251 3262 3269 3282 3291 3299 3309 3323 3332 3336 3337 3339 3346 3356 3361 3361 3362 3363 3367 3372 3380 3390 3398 3408 3416 3416 3416 3409 3409 3409 3420 3430 3435 3435 3436 3436 3436 3438 3438 3438 3437 3437 3437 3450 3454 3454 3454 3452 3444 3443 3440 3438 3438 3360 3354 3354 3360 3494 3505 3506 3509 3516 3520 3528 3528 3530 3531 3532 3535 3535 3535 3535 3535 3536 3537 3538 3541 3543 3545 3545 3545 3542 3536 3536 3536 3537 3537 3537 3533 3513 3495 3485 3485 3481 3481 3481 3481 3481 3481 3479 3473 3462 3457 3452 3452 3452 3459 3459 3459 3456 3456 3456 3457 3457 3457 3457 3449 3444 3444 3444 3453 3459 3459 3459 3452 3438 3436 3432 3432 3432 3437 3442 3442 3442 3435 3423 3422 3410 3404 3400 3392 3376 3345 3268 3176 3161 3156 3083 2772 2579 2510 2461 2454 2442 2439 2436 2431 2423 2416 2414 2414 2414 2410 2407 2405 2405 2404 2402 2399 2393 2388 2383 2381 2378 2374 2373 2359 2353 2350 2349 2349 2348 2348 2348 2348 2348 2348 2349 2350 2351 2353 2355 2355 2355 2349 2344 2326 2307 2290 2278 2268 2250 2231 2213 2195 2188 2183 2182 2180 2174 2158 2146 2131 2088 2034 1990 1990 1990 2004 2021 2033 2065 2075 2080 2081 2082 2084 2085 2085 2085 2084 2083 2081 2081 2080 2080 2077 2075 2072 2070 2069 2067 2063 2060 2056 2055 2053 2051 2051 2050 2048 2047 2046 2045 2044 2043 2041 2040 2039 2039 2038 2037 2036 2035 2034 2032 2030 2028 2025 2023 2021 2017 2012 2008 2002 1998 1994 1992 1989 1983 1979 1976 1974 1973 1973 1973 1973 1973 1974 1976 1977 1980 1983 1985 1987 1990 1992 1995 1997 1999 2000 2002 2002 2003 2003 2003 2003 2003 2003 2002 2001 1999 1999 1997 1995 1993 1991 1990 1987 1982 1978 1975 1972 1968 1964 1960 1956 1953 1948 1943 1943 1938 1928 1917 0 0 0 0 0 0 1525 1511 1502 1499 1495 1495 1493 1493 1492 1491 1491 1489 1487 1486 1485 1484 1484 1484 1483 1482 1482 1482 1481 1480 1480 1479 1478 1477 1476 1475 1474 1474 1472 1471 1470 1469 1468 1466 1464 1463 1461 1457 1453 1453 1453 1448 1443 1440 1438 1437 1436 1434 1433 1433 1433 1434 1436 1440 1441 1441 1442 1442 1442 1442 1443 1443 1444 1444 1444 1444 1443 1443 1443 1442 1442 1441 1441 1440 1439 1439 1438 1438 1437 1437 1436 1435 1435 1435 1434 1434 1432 1432 1431 1430 1429 1428 1427 1426 1426 1425 1424 1423 1422 1421 1420 1419 1418 1418 1417 1416 1416 1415 1415 1415 1414 1413 1413 1413 1413 1414 1414 1414 1413 1412 1411 1409 1408 1407 1406 1403 1401 1400 1399 1399 1398 1398 1396 1394 1394 1394 1392 1391 1390 1390 1389 1389 1388 1388 1388 1388 1389 1390 1391 1392 1393 1394 1395 1396 1397 1399 1399 1400 1402 1402 1402 1402 1402 1402 1402 1400 1398 1393 1391 1391 1390 1389 1381 1372 1372 1372 1386 1394 1394 1394 0 0 0 0 0 0 0 0 0 0 0 0 0 0 0 0 0 0 0 0 0 0 0 0 0 0 0 0 0 0 0 0 0 0 0 0 0 0 0 0 0 0 0 0 0 0 0 0 0 0 0 0 0 0
0 0 0 0 0 0 0 0 0 2973 2973 2983 2983 2983 3039 3062 3071 3071 3071 3075 3093 3095 3107 3108 3108 3108 3108 3108 3111 3111 3119 3126 3130 3139 3141 3141 3139 3143 3143 3144 3147 3148 3153 3157 3183 3197 3197 3197 3196 3196 3196 3198 3213 3234 3247 3247 3250 3250 3250 3241 3241 3241 3251 3257 3269 3283 3291 3299 3313 3327 3338 3344 3345 3350 3356 3359 3361 3362 3365 3367 3368 3372 3380 3390 3398 3408 3423 3423 3423 3411 3411 3411 3422 3433 3436 3436 3436 3437 3437 3439 3439 3439 3437 3437 3437 3450 3457 3457 3457 3454 3445 3436 3434 3434 3433 3364 3361 3361 3361 3494 3502 3506 3509 3524 3528 3528 3529 3529 3530 3532 3535 3537 3537 3537 3537 3537 3537 3539 3543 3544 3547 3548 3551 3551 3551 3542 3542 3542 3541 3537 3533 3513 3495 3485 3485 3480 3480 3480 3482 3488 3488 3488 3477 3462 3457 3452 3452 3452 3459 3459 3459 3455 3455 3455 3457 3457 3457 3457 3449 3449 3449 3452 3453 3462 3462 3462 3457 3456 3450 3438 3438 3438 3440 3442 3442 3442 3435 3423 3422 3410 3404 3401 3397 3383 3350 3326 3294 3227 3156 3067 2749 2563 2490 2461 2454 2446 2442 2436 2430 2423 2416 2413 2412 2411 2410 2408 2408 2407 2405 2402 2401 2395 2390 2385 2381 2379 2377 2375 2361 2353 2353 2353 2351 2349 2349 2349 2349 2351 2352 2352 2353 2355 2358 2359 2361 2361 2361 2353 2333 2307 2290 2278 2268 2250 2237 2223 2208 2196 2187 2187 2183 2178 2166 2150 2141 2126 2092 2015 2015 2015 2020 2035 2061 2080 2083 2084 2084 2086 2088 2088 2088 2088 2086 2083 2081 2081 2080 2080 2078 2075 2072 2070 2069 2066 2063 2059 2056 2054 2053 2051 2051 2050 2048 2047 2046 2045 2044 2043 2041 2040 2039 2039 2038 2036 2035 2034 2033 2032 2030 2028 2024 2022 2019 2017 2012 2008 2002 1997 1994 1992 1987 1982 1979 1976 1974 1972 1972 1972 1972 1973 1973 1974 1977 1978 1981 1984 1986 1989 1992 1995 1997 1998 1999 2000 2000 2002 2002 2002 2002 2002 2002 2001 2000 1998 1997 1996 1995 1993 1991 1989 1986 1982 1978 1975 1973 1970 1965 1960 1955 1951 1948 1941 1940 1928 1915 0 0 0 0 0 0 1512 1508 1504 1499 1497 1495 1493 1492 1492 1491 1490 1489 1488 1487 1486 1485 1485 1484 1484 1483 1482 1482 1481 1481 1480 1480 1479 1478 1478 1476 1475 1475 1474 1473 1472 1471 1469 1469 1468 1465 1463 1462 1458 1454 1453 1453 1453 1448 1442 1441 1440 1439 1435 1433 1433 1433 1435 1438 1441 1442 1443 1443 1443 1443 1444 1444 1444 1444 1444 1444 1444 1444 1444 1443 1442 1442 1441 1441 1440 1439 1438 1438 1438 1437 1436 1436 1435 1435 1434 1434 1433 1432 1432 1431 1430 1429 1428 1427 1426 1426 1425 1424 1423 1422 1421 1420 1419 1418 1418 1417 1416 1416 1415 1415 1415 1414 1414 1413 1413 1413 1414 1414 1414 1413 1412 1411 1409 1407 1406 1405 1403 1401 1400 1399 1397 1397 1395 1394 1393 1393 1391 1391 1389 1388 1388 1388 1387 1387 1387 1387 1388 1388 1390 1391 1392 1393 1394 1395 1396 1397 1399 1401 1402 1403 1404 1404 1404 1404 1402 1402 1400 1400 1395 1392 1392 1390 1389 1385 1382 1382 1382 1401 1406 1406 1406 0 0 0 0 0 0 0 0 0 0 0 0 0 0 0 0 0 0 0 0 0 0 0 0 0 0 0 0 0 0 0 0 0 0 0 0 0 0 0 0 0 0 0 0 0 0 0 0 0 0 0 0 0 0
0 0 0 0 0 0 0 0 0 2988 3007 3024 3024 3046 3058 3065 3071 3071 3085 3093 3104 3107 3107 3108 3108 3109 3109 3109 3113 3113 3119 3126 3130 3145 3147 3147 3148 3148 3151 3151 3152 3153 3153 3188 3215 3215 3215 3205 3198 3198 3198 3200 3215 3241 3250 3259 3262 3262 3262 3249 3249 3249 3252 3262 3269 3283 3291 3299 3313 3326 3338 3355 3358 3358 3363 3366 3366 3367 3367 3367 3368 3373 3385 3390 3398 3409 3423 3423 3423 3421 3421 3421 3422 3435 3436 3436 3437 3438 3439 3440 3440 3440 3439 3439 3439 3450 3457 3461 3461 3461 3447 3436 3431 3427 3426 3366 3360 3360 3360 3494 3500 3506 3509 3524 3527 3527 3527 3526 3526 3526 3529 3537 3538 3538 3539 3539 3539 3540 3543 3546 3547 3548 3551 3551 3551 3547 3542 3540 3538 3538 3533 3522 3508 3499 3485 3480 3480 3480 3482 3491 3491 3491 3490 3476 3465 3465 3465 3469 3469 3469 3465 3456 3456 3456 3457 3457 3457 3455 3451 3451 3451 3452 3453 3467 3476 3476 3476 3474 3458 3445 3445 3445 3445 3447 3448 3448 3457 3457 3448 3445 3434 3416 3397 3386 3355 3341 3326 3283 3226 3046 2719 2553 2487 2464 2457 2452 2442 2436 2429 2423 2416 2413 2412 2411 2410 2408 2408 2407 2405 2402 2401 2397 2393 2386 2383 2380 2378 2376 2364 2360 2355 2353 2353 2353 2352 2352 2352 2354 2355 2356 2357 2357 2360 2362 2362 2362 2362 2359 2342 2314 2290 2278 2268 2254 2241 2231 2219 2202 2195 2188 2184 2178 2172 2157 2147 2128 2111 2080 2066 2063 2063 2063 2081 2088 2088 2088 2089 2089 2090 2090 2090 2090 2088 2085 2082 2082 2081 2080 2078 2075 2073 2070 2068 2065 2062 2059 2055 2054 2053 2051 2051 2050 2048 2047 2045 2045 2044 2043 2041 2040 2039 2038 2037 2036 2035 2034 2033 2031 2030 2027 2024 2021 2017 2015 2012 2008 2002 1997 1993 1992 1987 1981 1977 1975 1973 1972 1971 1971 1971 1971 1971 1972 1975 1977 1980 1982 1985 1988 1990 1994 1997 1997 1998 1998 1999 2000 2001 2001 2001 2001 2001 2000 2000 1997 1996 1995 1993 1992 1990 1988 1984 1981 1978 1977 1975 1970 1965 1960 1955 1949 1943 1935 1925 0 0 0 0 0 0 0 1512 1506 1504 1500 1499 1497 1494 1493 1491 1491 1490 1490 1489 1488 1487 1486 1485 1485 1484 1484 1483 1482 1482 1481 1481 1480 1480 1479 1478 1478 1476 1475 1475 1474 1473 1472 1471 1470 1470 1469 1466 1464 1463 1459 1456 1455 1454 1454 1450 1447 1446 1444 1442 1440 1439 1439 1439 1439 1440 1443 1444 1444 1444 1444 1444 1445 1445 1445 1445 1445 1445 1444 1444 1444 1443 1442 1442 1441 1440 1440 1439 1438 1438 1438 1437 1436 1436 1435 1435 1434 1433 1432 1432 1431 1431 1430 1429 1428 1427 1426 1425 1425 1424 1423 1422 1421 1420 1419 1418 1418 1417 1417 1416 1416 1415 1415 1415 1414 1414 1414 1414 1414 1414 1414 1413 1412 1411 1409 1407 1406 1405 1403 1401 1400 1399 1397 1394 1394 1393 1393 1392 1390 1389 1389 1388 1387 1387 1387 1387 1387 1387 1388 1388 1390 1391 1392 1393 1395 1396 1396 1398 1400 1403 1404 1405 1406 1407 1407 1407 1403 1402 1401 1400 1397 1394 1394 1392 1391 1387 1387 1387 1393 1405 1407 1407 1407 0 0 0 0 0 0 0 0 0 0 0 0 0 0 0 0 0 0 0 0 0 0 0 0 0 0 0 0 0 0 0 0 0 0 0 0 0 0 0 0 0 0 0 0 0 0 0 0 0 0 0 0 0 0
0 0 0 0 0 0 0 0 2988 3037 3041 3046 3052 3052 3058 3065 3069 3071 3085 3100 3107 3107 3107 3107 3107 3109 3109 3109 3113 3114 3119 3123 3130 3147 3151 3161 3161 3163 3168 3176 3180 3183 3197 3222 3222 3222 3219 3208 3203 3203 3203 3205 3222 3246 3250 3259 3266 3266 3266 3261 3256 3256 3256 3262 3267 3283 3290 3299 3309 3326 3338 3355 3360 3366 3370 3375 3375 3375 3374 3374 3374 3375 3385 3391 3404 3409 3424 3424 3429 3432 3432 3432 3433 3434 3435 3435 3436 3437 3439 3442 3443 3443 3443 3443 3448 3454 3457 3463 3463 3463 3452 3436 3431 3427 3416 3366 3363 3363 3363 3477 3495 3501 3506 3524 3527 3527 3527 3526 3526 3526 3529 3537 3541 3542 3543 3543 3545 3545 3547 3547 3550 3550 3551 3551 3551 3547 3542 3540 3540 3538 3530 3525 3519 3513 3497 3480 3480 3480 3482 3491 3495 3495 3495 3487 3487 3487 3489 3489 3489 3483 3468 3457 3450 3450 3450 3453 3454 3455 3455 3454 3454 3455 3455 3467 3482 3482 3482 3476 3463 3461 3457 3455 3455 3455 3452 3452 3457 3460 3469 3469 3469 3448 3418 3391 3368 3343 3326 3283 3226 3044 2714 2527 2473 2464 2460 2455 2442 2434 2428 2423 2418 2413 2412 2411 2411 2408 2408 2407 2405 2402 2401 2397 2394 2390 2385 2382 2381 2376 2369 2361 2356 2356 2355 2354 2354 2354 2354 2356 2357 2359 2360 2360 2361 2362 2364 2364 2364 2364 2351 2323 2296 2286 2272 2255 2243 2231 2224 2206 2197 2191 2184 2180 2176 2168 2152 2131 2121 2100 2093 2093 2093 2093 2093 2096 2096 2096 2094 2094 2093 2092 2090 2090 2088 2086 2084 2083 2081 2080 2078 2075 2073 2070 2068 2064 2061 2057 2054 2052 2051 2050 2049 2049 2048 2046 2045 2045 2044 2043 2041 2040 2039 2038 2037 2036 2034 2033 2032 2031 2028 2026 2023 2021 2017 2015 2011 2006 2001 1996 1993 1990 1987 1979 1976 1975 1973 1972 1971 1971 1970 1970 1971 1971 1973 1976 1979 1980 1983 1986 1988 1992 1995 1996 1998 1998 1998 1999 1999 2000 2000 2000 2000 2000 1998 1997 1996 1994 1993 1992 1989 1986 1983 1979 1978 1977 1975 1970 1965 1956 1947 1940 1930 1925 0 0 0 0 0 0 1517 1505 1503 1503 1501 1500 1497 1497 1494 1493 1491 1491 1490 1490 1489 1488 1487 1486 1485 1485 1484 1484 1483 1482 1482 1481 1481 1480 1480 1479 1478 1478 1477 1476 1475 1474 1473 1472 1471 1471 1470 1469 1467 1466 1464 1462 1461 1459 1456 1455 1453 1449 1446 1444 1444 1444 1444 1444 1443 1443 1443 1444 1445 1445 1445 1445 1445 1446 1446 1446 1445 1445 1445 1444 1444 1444 1443 1442 1442 1441 1440 1440 1439 1438 1438 1437 1437 1436 1435 1434 1433 1433 1433 1432 1431 1431 1430 1429 1429 1428 1426 1426 1425 1425 1424 1423 1422 1421 1420 1420 1419 1419 1418 1417 1416 1416 1416 1415 1415 1415 1414 1414 1414 1414 1414 1413 1413 1411 1411 1409 1407 1406 1405 1403 1401 1400 1398 1396 1394 1394 1393 1392 1391 1390 1389 1388 1388 1387 1387 1387 1387 1387 1387 1388 1388 1390 1391 1393 1395 1396 1396 1397 1399 1401 1404 1406 1408 1408 1408 1408 1408 1405 1402 1402 1400 1399 1396 1395 1394 1394 1389 1389 1389 1394 1405 1408 1408 1408 0 0 0 0 0 0 0 0 0 0 0 0 0 0 0 0 0 0 0 0 0 0 0 0 0 0 0 0 0 0 0 0 0 0 0 0 0 0 0 0 0 0 0 0 0 0 0 0 0 0 0 0 0 0
0 0 0 0 0 0 0 2895 2988 3041 3060 3060 3063 3063 3063 3069 3069 3071 3084 3100 3107 3107 3110 3110 3107 3110 3110 3110 3114 3116 3120 3123 3130 3145 3153 3168 3169 3170 3178 3192 3197 3199 3200 3222 3222 3222 3219 3214 3211 3207 3207 3211 3224 3246 3256 3260 3267 3268 3271 3278 3278 3278 3272 3272 3272 3277 3284 3299 3312 3327 3338 3355 3360 3366 3373 3376 3376 3376 3374 3374 3374 3376 3385 3394 3404 3409 3426 3433 3434 3443 3444 3444 3444 3442 3436 3436 3436 3440 3446 3448 3448 3448 3448 3452 3453 3454 3457 3463 3463 3463 3452 3436 3431 3427 3416 3366 3363 3363 3363 3476 3495 3495 3510 3524 3528 3528 3528 3526 3526 3526 3529 3537 3542 3546 3548 3550 3551 3553 3553 3553 3551 3551 3550 3547 3547 3547 3542 3540 3540 3538 3530 3527 3526 3522 3511 3492 3484 3484 3484 3492 3497 3497 3497 3488 3488 3488 3492 3492 3492 3492 3479 3464 3450 3450 3450 3453 3454 3456 3457 3457 3458 3458 3462 3474 3484 3484 3484 3482 3480 3476 3476 3475 3461 3460 3460 3459 3460 3469 3471 3469 3469 3469 3436 3412 3368 3343 3326 3283 3226 3020 2714 2527 2471 2464 2461 2455 2442 2434 2428 2424 2418 2414 2413 2412 2411 2409 2407 2406 2405 2402 2400 2397 2394 2393 2389 2385 2381 2376 2374 2371 2363 2360 2358 2357 2357 2357 2358 2359 2359 2360 2361 2361 2362 2363 2364 2366 2366 2366 2357 2333 2308 2295 2277 2255 2245 2233 2224 2207 2198 2191 2186 2183 2179 2169 2155 2142 2125 2107 2105 2102 2105 2106 2102 2100 2100 2098 2097 2096 2093 2092 2092 2091 2089 2088 2085 2083 2081 2080 2079 2076 2073 2070 2068 2064 2060 2056 2053 2052 2051 2050 2049 2048 2047 2045 2045 2044 2044 2042 2041 2040 2039 2038 2036 2036 2034 2032 2031 2029 2028 2026 2023 2020 2016 2014 2011 2006 2001 1996 1993 1988 1984 1979 1976 1975 1973 1972 1971 1970 1970 1970 1970 1971 1972 1974 1978 1979 1982 1984 1987 1989 1993 1995 1997 1998 1998 1998 1998 1999 1998 1998 1998 1998 1998 1997 1995 1994 1993 1992 1989 1985 1981 1979 1978 1977 1975 1970 1962 1954 1946 1936 1926 0 0 0 0 0 0 1513 1508 1502 1502 1500 1500 1499 1498 1497 1495 1493 1492 1491 1490 1489 1489 1488 1487 1486 1485 1485 1484 1484 1483 1482 1482 1481 1480 1480 1480 1479 1478 1478 1477 1476 1475 1475 1474 1473 1472 1471 1470 1469 1468 1467 1465 1464 1461 1460 1458 1456 1455 1452 1448 1445 1445 1445 1445 1445 1445 1446 1446 1446 1446 1446 1447 1447 1447 1447 1447 1446 1446 1445 1445 1445 1444 1444 1443 1443 1441 1441 1440 1440 1439 1438 1437 1437 1436 1435 1434 1433 1433 1432 1432 1432 1431 1430 1429 1429 1428 1427 1426 1426 1425 1425 1424 1423 1422 1421 1421 1420 1419 1419 1418 1418 1417 1416 1416 1415 1415 1415 1414 1414 1414 1414 1413 1413 1412 1411 1410 1409 1407 1406 1405 1403 1401 1400 1398 1396 1394 1394 1393 1392 1391 1390 1389 1388 1388 1387 1387 1387 1387 1387 1387 1388 1388 1391 1392 1394 1396 1397 1397 1398 1400 1402 1406 1407 1408 1410 1410 1410 1408 1406 1403 1403 1400 1399 1396 1396 1395 1393 1392 1392 1392 1394 1405 1408 1408 1408 0 0 0 0 0 0 0 0 0 0 0 0 0 0 0 0 0 0 0 0 0 0 0 0 0 0 0 0 0 0 0 0 0 0 0 0 0 0 0 0 0 0 0 0 0 0 0 0 0 0 0 0 0 0
0 0 0 0 0 0 2847 2895 2988 3039 3060 3060 3063 3063 3063 3068 3069 3076 3084 3100 3104 3107 3107 3107 3107 3110 3110 3110 3114 3116 3123 3125 3130 3145 3156 3170 3183 3187 3187 3192 3197 3199 3200 3221 3221 3222 3221 3220 3219 3216 3216 3220 3233 3249 3256 3262 3267 3284 3295 3299 3300 3300 3299 3281 3277 3277 3277 3292 3312 3329 3338 3355 3360 3366 3373 3376 3376 3377 3377 3377 3380 3386 3398 3401 3406 3418 3426 3434 3443 3451 3451 3451 3449 3443 3438 3438 3438 3444 3450 3452 3453 3453 3453 3453 3453 3454 3456 3463 3463 3463 3452 3440 3435 3431 3416 3361 3361 3361 3363 3454 3495 3495 3510 3524 3530 3533 3535 3536 3537 3537 3538 3542 3546 3550 3553 3555 3563 3563 3563 3559 3552 3551 3551 3547 3544 3540 3540 3540 3540 3538 3533 3527 3527 3522 3511 3498 3484 3484 3484 3493 3497 3497 3497 3491 3491 3491 3496 3496 3496 3494 3485 3472 3456 3453 3453 3453 3456 3456 3457 3459 3467 3467 3473 3481 3484 3484 3484 3484 3482 3481 3477 3477 3461 3461 3461 3463 3469 3470 3471 3470 3469 3469 3447 3412 3370 3343 3308 3279 3182 2951 2714 2527 2466 2462 2461 2456 2443 2436 2429 2424 2419 2415 2414 2413 2412 2409 2407 2406 2404 2401 2398 2397 2394 2393 2390 2388 2383 2380 2377 2377 2375 2365 2359 2359 2359 2360 2361 2361 2362 2362 2362 2363 2363 2364 2365 2369 2369 2369 2361 2340 2319 2303 2285 2269 2249 2234 2224 2211 2199 2191 2188 2188 2182 2171 2157 2148 2135 2127 2125 2124 2122 2114 2111 2110 2106 2102 2101 2099 2094 2094 2094 2091 2090 2088 2087 2085 2083 2080 2079 2076 2073 2071 2068 2064 2058 2055 2053 2052 2050 2049 2048 2047 2046 2045 2044 2044 2043 2042 2041 2040 2039 2038 2036 2035 2034 2032 2031 2029 2026 2024 2023 2019 2016 2013 2009 2004 1999 1995 1990 1985 1981 1977 1974 1973 1971 1970 1969 1969 1969 1969 1969 1970 1971 1974 1976 1978 1981 1982 1984 1988 1990 1993 1995 1997 1998 1998 1998 1998 1998 1998 1998 1997 1996 1995 1995 1993 1992 1991 1988 1984 1980 1978 1977 1975 1973 1967 1961 1954 1946 1934 0 0 0 0 0 0 1515 1510 1504 1502 1502 1500 1500 1499 1499 1498 1496 1494 1492 1491 1490 1489 1489 1488 1487 1486 1485 1484 1484 1484 1483 1482 1482 1481 1481 1480 1480 1479 1478 1478 1477 1476 1475 1475 1474 1473 1472 1471 1470 1470 1468 1467 1466 1464 1462 1460 1459 1457 1455 1454 1451 1448 1448 1448 1449 1449 1449 1448 1448 1448 1448 1448 1448 1448 1448 1447 1447 1447 1446 1446 1446 1445 1444 1443 1443 1443 1441 1441 1440 1440 1439 1438 1437 1437 1435 1434 1434 1433 1432 1432 1432 1430 1430 1430 1428 1428 1428 1427 1426 1426 1425 1425 1424 1423 1422 1421 1421 1421 1420 1419 1418 1418 1417 1416 1416 1415 1415 1415 1414 1414 1414 1413 1413 1412 1412 1411 1410 1408 1407 1406 1405 1403 1401 1400 1398 1396 1395 1394 1393 1392 1391 1390 1389 1388 1388 1388 1388 1387 1387 1388 1388 1389 1389 1392 1394 1396 1396 1397 1398 1399 1401 1403 1408 1409 1410 1411 1411 1411 1409 1407 1406 1405 1402 1400 1397 1397 1396 1393 1392 1392 1392 1394 1403 1405 1405 1403 1388 1368 1363 1358 0 0 0 0 0 0 0 0 0 0 0 0 0 0 0 0 0 0 0 0 0 0 0 0 0 0 0 0 0 0 0 0 0 0 0 0 0 0 0 0 0 0 0 0 0 0 0 0 0 0
0 0 0 0 0 0 2852 2926 2988 3029 3056 3056 3061 3074 3069 3069 3076 3079 3079 3099 3101 3103 3105 3110 3110 3110 3110 3110 3114 3116 3125 3125 3137 3150 3162 3182 3187 3187 3192 3192 3199 3200 3201 3209 3213 3218 3219 3225 3225 3225 3226 3232 3244 3265 3273 3276 3287 3307 3312 3312 3312 3300 3299 3289 3277 3277 3277 3282 3309 3329 3338 3351 3355 3365 3373 3376 3376 3379 3379 3379 3385 3391 3400 3407 3414 3418 3426 3436 3451 3453 3453 3453 3449 3444 3444 3444 3444 3450 3451 3452 3453 3453 3454 3455 3455 3455 3455 3454 3448 3445 3444 3441 3438 3431 3421 3360 3360 3360 3360 3454 3495 3502 3512 3524 3530 3535 3544 3550 3550 3550 3550 3551 3551 3551 3555 3562 3568 3569 3569 3569 3564 3561 3558 3551 3544 3542 3542 3540 3540 3538 3534 3528 3527 3522 3512 3498 3490 3490 3490 3494 3502 3502 3502 3502 3501 3501 3501 3500 3500 3495 3488 3476 3460 3460 3460 3459 3463 3466 3467 3467 3471 3479 3482 3482 3485 3485 3485 3484 3481 3479 3477 3477 3470 3463 3463 3463 3469 3469 3473 3469 3469 3469 3451 3413 3370 3337 3300 3251 3145 2889 2684 2522 2465 2461 2461 2455 2443 2441 2429 2426 2422 2418 2414 2413 2413 2409 2407 2406 2404 2401 2398 2396 2395 2393 2391 2388 2383 2382 2382 2381 2377 2372 2363 2363 2362 2362 2362 2363 2363 2363 2364 2364 2364 2366 2366 2369 2369 2369 2362 2345 2321 2304 2289 2271 2251 2235 2224 2218 2207 2201 2194 2189 2182 2172 2159 2150 2144 2143 2142 2137 2128 2120 2115 2110 2107 2104 2102 2101 2097 2096 2094 2093 2090 2090 2087 2086 2083 2082 2080 2076 2073 2071 2068 2062 2058 2055 2053 2052 2050 2049 2048 2047 2046 2044 2044 2043 2042 2042 2041 2040 2038 2038 2036 2035 2034 2032 2030 2028 2025 2023 2021 2018 2015 2011 2006 2000 1997 1992 1988 1982 1978 1975 1973 1971 1970 1969 1968 1968 1968 1968 1969 1970 1971 1973 1975 1976 1978 1980 1982 1985 1988 1991 1993 1994 1996 1996 1997 1997 1997 1997 1997 1996 1995 1993 1993 1993 1992 1989 1986 1982 1979 1978 1977 1974 1968 1964 1959 1954 1944 0 0 0 0 0 0 1516 1515 1509 1504 1500 1500 1499 1499 1499 1499 1498 1496 1494 1492 1491 1490 1489 1489 1488 1487 1486 1485 1484 1484 1483 1483 1482 1482 1481 1481 1480 1479 1479 1478 1478 1477 1476 1475 1475 1474 1473 1472 1471 1470 1470 1468 1467 1466 1465 1463 1461 1460 1458 1457 1455 1453 1451 1451 1451 1451 1451 1450 1449 1449 1449 1449 1449 1449 1449 1448 1448 1447 1447 1446 1446 1446 1445 1444 1443 1443 1442 1441 1441 1440 1440 1439 1438 1437 1436 1435 1434 1433 1433 1432 1431 1430 1429 1429 1429 1428 1428 1427 1426 1426 1426 1425 1425 1424 1423 1422 1422 1421 1421 1420 1419 1418 1418 1417 1416 1416 1415 1415 1415 1414 1414 1413 1412 1412 1412 1411 1410 1409 1408 1407 1405 1405 1403 1401 1400 1398 1396 1395 1394 1393 1392 1391 1390 1389 1388 1388 1388 1388 1388 1389 1389 1390 1391 1392 1395 1396 1396 1397 1398 1399 1400 1404 1409 1413 1414 1414 1414 1413 1412 1412 1411 1410 1405 1404 1401 1397 1397 1397 1393 1393 1393 1396 1396 1397 1400 1400 1400 1392 1391 1388 1381 1361 1359 0 0 0 0 0 0 0 0 0 0 0 0 0 0 0 0 0 0 0 0 0 0 0 0 0 0 0 0 0 0 0 0 0 0 0 0 0 0 0 0 0 0 0 0 0 0 0 0
0 0 0 0 0 0 0 2926 2988 3029 3032 3053 3054 3056 3070 3070 3075 3075 3075 3083 3088 3099 3102 3108 3111 3111 3115 3115 3115 3119 3128 3141 3153 3155 3174 3187 3187 3188 3188 3188 3191 3199 3201 3209 3213 3218 3222 3225 3229 3235 3237 3246 3259 3278 3287 3288 3300 3316 3316 3316 3312 3300 3299 3295 3291 3285 3285 3285 3308 3329 3348 3351 3354 3364 3373 3378 3378 3380 3380 3383 3388 3395 3403 3408 3414 3418 3426 3436 3451 3453 3453 3453 3448 3448 3448 3451 3452 3453 3453 3453 3453 3453 3455 3455 3456 3456 3455 3454 3448 3445 3444 3442 3439 3439 3423 3360 3358 3358 3360 3454 3515 3521 3529 3541 3550 3555 3556 3557 3557 3557 3552 3551 3551 3551 3557 3562 3568 3569 3569 3569 3564 3562 3558 3551 3544 3542 3542 3540 3540 3538 3535 3528 3527 3524 3514 3498 3491 3491 3491 3494 3504 3509 3518 3518 3518 3516 3510 3506 3506 3497 3494 3487 3475 3469 3469 3469 3471 3473 3476 3477 3481 3481 3482 3482 3485 3485 3485 3484 3481 3479 3477 3477 3471 3471 3471 3471 3471 3469 3469 3469 3464 3454 3451 3419 3377 3336 3290 3249 3123 2811 2573 2494 2464 2461 2459 2454 2446 2445 2433 2430 2426 2422 2415 2414 2413 2409 2406 2405 2404 2401 2398 2396 2395 2393 2392 2388 2385 2382 2382 2381 2378 2373 2367 2365 2365 2364 2365 2365 2365 2366 2366 2366 2367 2367 2367 2369 2369 2369 2364 2349 2323 2306 2292 2273 2254 2239 2228 2221 2216 2206 2198 2194 2185 2172 2159 2153 2151 2148 2144 2140 2131 2124 2118 2115 2110 2107 2104 2103 2099 2099 2098 2095 2093 2091 2089 2087 2085 2082 2080 2076 2073 2071 2066 2061 2056 2055 2052 2051 2050 2048 2047 2046 2045 2044 2044 2043 2042 2041 2041 2038 2038 2037 2036 2035 2032 2031 2029 2027 2023 2021 2018 2016 2013 2008 2004 1999 1994 1989 1983 1978 1975 1974 1971 1970 1969 1967 1967 1967 1967 1967 1967 1967 1969 1971 1973 1975 1977 1980 1981 1983 1987 1988 1990 1992 1994 1996 1996 1996 1996 1996 1996 1994 1992 1992 1992 1992 1991 1988 1983 1979 1975 1974 1973 1970 1965 1961 1955 1951 0 0 0 0 0 0 1511 1506 1506 1504 1504 1500 1500 1500 1499 1499 1498 1498 1496 1494 1492 1491 1490 1489 1488 1488 1486 1485 1484 1484 1484 1483 1483 1482 1482 1481 1481 1480 1480 1479 1478 1478 1477 1476 1475 1475 1474 1473 1472 1471 1470 1470 1468 1467 1466 1465 1463 1461 1460 1459 1458 1456 1453 1452 1452 1452 1452 1451 1451 1451 1451 1451 1451 1450 1450 1449 1449 1448 1448 1447 1446 1446 1446 1445 1444 1443 1443 1442 1441 1441 1440 1439 1439 1438 1436 1435 1434 1434 1432 1431 1431 1430 1430 1429 1428 1428 1428 1427 1426 1426 1426 1426 1425 1425 1424 1423 1423 1422 1421 1421 1420 1419 1418 1417 1417 1416 1416 1415 1415 1414 1414 1414 1413 1412 1412 1411 1411 1409 1408 1408 1407 1405 1404 1402 1401 1399 1398 1396 1395 1394 1393 1392 1391 1390 1390 1390 1390 1390 1390 1390 1390 1390 1391 1394 1394 1396 1397 1397 1399 1400 1401 1404 1410 1415 1417 1417 1417 1416 1416 1415 1415 1415 1413 1409 1405 1403 1400 1397 1397 1397 1396 1396 1396 1396 1397 1397 1397 1397 1397 1396 1395 1395 1383 1361 1353 0 0 0 0 0 0 0 0 0 0 0 0 0 0 0 0 0 0 0 0 0 0 0 0 0 0 0 0 0 0 0 0 0 0 0 0 0 0 0 0 0 0 0 0 0 0 0
0 0 0 0 0 0 2852 2937 2995 3019 3029 3042 3044 3054 3075 3075 3075 3075 3075 3083 3088 3099 3102 3108 3111 3112 3116 3116 3116 3129 3137 3142 3157 3165 3188 3194 3194 3194 3191 3191 3191 3199 3201 3209 3213 3218 3222 3226 3230 3236 3246 3248 3269 3278 3287 3288 3300 3316 3316 3316 3309 3299 3297 3294 3294 3287 3287 3287 3308 3331 3348 3349 3354 3360 3371 3377 3377 3380 3383 3386 3391 3398 3404 3410 3414 3417 3423 3436 3445 3445 3445 3445 3445 3448 3459 3459 3459 3454 3453 3453 3453 3453 3455 3456 3458 3458 3458 3454 3448 3446 3445 3444 3440 3440 3425 3379 3367 3367 3379 3475 3515 3521 3529 3543 3556 3564 3568 3568 3568 3565 3560 3559 3558 3558 3559 3563 3571 3571 3571 3569 3564 3562 3558 3554 3544 3543 3543 3543 3543 3543 3535 3528 3528 3524 3514 3503 3499 3499 3499 3500 3508 3517 3525 3525 3525 3523 3521 3520 3517 3506 3501 3501 3494 3481 3481 3481 3481 3481 3481 3481 3481 3481 3482 3482 3486 3486 3486 3484 3476 3476 3475 3476 3477 3477 3474 3477 3476 3474 3474 3469 3464 3454 3451 3419 3377 3325 3281 3242 3112 2782 2558 2481 2460 2457 2454 2454 2448 2445 2437 2430 2427 2422 2417 2414 2411 2409 2406 2404 2403 2401 2398 2396 2394 2393 2392 2389 2385 2385 2382 2382 2378 2374 2371 2368 2366 2365 2365 2365 2366 2367 2368 2368 2368 2368 2369 2369 2370 2370 2370 2353 2327 2309 2295 2277 2258 2244 2232 2224 2218 2208 2201 2195 2186 2175 2162 2156 2153 2149 2146 2140 2134 2128 2123 2118 2114 2110 2107 2105 2102 2101 2099 2097 2094 2092 2091 2087 2086 2082 2080 2076 2073 2070 2066 2061 2055 2052 2051 2050 2048 2048 2046 2045 2044 2044 2043 2043 2042 2041 2039 2038 2037 2036 2034 2034 2032 2030 2028 2026 2022 2020 2016 2013 2010 2007 2003 1999 1993 1987 1981 1976 1973 1972 1971 1970 1968 1967 1967 1966 1966 1966 1966 1966 1967 1969 1972 1974 1976 1979 1979 1982 1984 1987 1989 1991 1993 1993 1994 1994 1994 1994 1994 1991 1990 1990 1990 1990 1989 1986 1981 1975 1972 1971 1971 1969 1963 1956 1949 0 0 0 0 0 0 1516 1506 1504 1503 1502 1500 1500 1500 1500 1499 1499 1498 1497 1495 1494 1492 1492 1490 1489 1487 1487 1485 1485 1484 1484 1483 1483 1483 1482 1482 1482 1481 1481 1480 1479 1478 1477 1476 1476 1475 1475 1474 1473 1472 1471 1470 1469 1468 1467 1466 1465 1463 1462 1460 1459 1458 1456 1453 1452 1452 1452 1452 1452 1451 1451 1451 1451 1451 1451 1451 1450 1449 1449 1448 1447 1446 1446 1445 1444 1444 1443 1442 1442 1441 1441 1440 1439 1438 1437 1436 1435 1434 1433 1431 1430 1430 1429 1428 1428 1428 1427 1427 1427 1426 1426 1426 1425 1425 1425 1424 1423 1423 1422 1421 1420 1420 1419 1418 1417 1417 1416 1416 1415 1415 1414 1414 1413 1412 1412 1411 1410 1409 1408 1407 1407 1406 1405 1403 1400 1400 1399 1398 1396 1394 1393 1393 1392 1392 1391 1390 1390 1390 1391 1391 1391 1391 1391 1391 1395 1398 1398 1399 1400 1400 1402 1405 1412 1418 1420 1420 1421 1421 1421 1420 1417 1416 1416 1415 1413 1406 1403 1400 1398 1397 1397 1397 1397 1397 1396 1396 1396 1396 1395 1396 1396 1395 1395 1389 1382 1355 1338 0 0 0 0 0 0 0 0 0 0 0 0 0 0 0 0 0 0 0 0 0 0 0 0 0 0 0 0 0 0 0 0 0 0 0 0 0 0 0 0 0 0 0 0 0 0
0 0 0 0 0 0 2931 2937 2995 3006 3008 3013 3013 3038 3057 3071 3079 3083 3083 3083 3088 3099 3101 3107 3111 3116 3119 3121 3135 3139 3145 3153 3160 3169 3189 3194 3194 3194 3191 3191 3191 3201 3210 3217 3222 3232 3234 3235 3237 3241 3255 3260 3269 3278 3287 3288 3300 3316 3316 3316 3309 3299 3299 3299 3294 3294 3299 3299 3308 3335 3348 3349 3352 3354 3361 3370 3375 3380 3383 3389 3396 3399 3406 3411 3412 3414 3423 3435 3435 3435 3441 3441 3442 3448 3459 3459 3459 3454 3451 3451 3451 3452 3455 3456 3458 3458 3458 3457 3452 3452 3452 3452 3452 3452 3436 3379 3371 3371 3379 3479 3519 3521 3533 3549 3556 3564 3568 3579 3579 3579 3577 3571 3570 3566 3566 3566 3571 3571 3571 3569 3563 3562 3557 3555 3544 3543 3543 3543 3543 3543 3538 3531 3531 3531 3524 3519 3519 3517 3514 3517 3518 3518 3525 3525 3525 3524 3521 3520 3517 3515 3511 3508 3499 3488 3488 3488 3487 3487 3487 3481 3481 3481 3481 3482 3492 3492 3492 3486 3476 3475 3475 3476 3480 3480 3480 3477 3476 3476 3476 3476 3464 3454 3451 3419 3377 3324 3281 3239 3075 2746 2543 2477 2460 2457 2454 2454 2451 2445 2437 2430 2427 2422 2418 2414 2411 2407 2404 2403 2403 2400 2398 2396 2394 2392 2391 2389 2385 2385 2382 2382 2378 2375 2372 2371 2368 2366 2366 2366 2366 2369 2370 2370 2370 2370 2371 2372 2370 2370 2370 2361 2340 2314 2303 2285 2270 2250 2238 2227 2220 2212 2203 2195 2186 2177 2170 2159 2154 2151 2149 2145 2139 2132 2126 2121 2117 2115 2111 2108 2103 2101 2100 2098 2095 2092 2091 2089 2086 2082 2079 2074 2072 2069 2066 2060 2055 2052 2051 2050 2048 2047 2046 2045 2044 2043 2043 2042 2041 2040 2039 2038 2037 2035 2034 2032 2031 2029 2027 2025 2022 2018 2015 2009 2007 2006 2002 1998 1993 1987 1981 1976 1973 1971 1969 1969 1968 1967 1966 1966 1966 1966 1966 1966 1967 1968 1970 1973 1975 1977 1978 1980 1984 1985 1988 1989 1990 1991 1993 1993 1993 1993 1992 1990 1989 1989 1988 1988 1988 1985 1980 1973 1970 1968 1967 1966 1960 1951 0 0 0 0 0 0 1526 1509 1504 1503 1502 1500 1499 1499 1499 1499 1499 1498 1498 1495 1494 1493 1492 1492 1490 1488 1486 1484 1484 1484 1484 1484 1483 1482 1482 1482 1482 1482 1481 1481 1480 1479 1478 1477 1476 1476 1475 1475 1474 1473 1472 1471 1470 1469 1467 1467 1465 1464 1463 1462 1460 1459 1458 1456 1453 1452 1452 1452 1452 1452 1452 1451 1451 1451 1451 1451 1451 1450 1449 1449 1448 1447 1447 1446 1445 1444 1444 1443 1442 1442 1441 1441 1440 1439 1437 1436 1435 1434 1434 1431 1431 1428 1428 1428 1428 1427 1427 1427 1427 1426 1426 1426 1426 1425 1425 1425 1424 1423 1423 1422 1421 1420 1420 1419 1418 1417 1417 1416 1416 1415 1415 1414 1413 1413 1412 1411 1410 1409 1408 1408 1407 1406 1405 1405 1402 1399 1398 1398 1396 1395 1394 1393 1393 1393 1392 1392 1392 1392 1392 1392 1392 1392 1392 1392 1393 1396 1399 1399 1401 1402 1404 1406 1410 1416 1420 1429 1429 1429 1429 1424 1421 1419 1417 1417 1415 1413 1406 1403 1400 1398 1397 1397 1397 1397 1397 1396 1396 1397 1397 1397 1397 1397 1398 1398 1398 1382 1357 1351 0 0 0 0 0 0 0 0 0 0 0 0 0 0 0 0 0 0 0 0 0 0 0 0 0 0 0 0 0 0 0 0 0 0 0 0 0 0 0 0 0 0 0 0 0 0
0 0 0 0 0 0 2931 2937 2995 2995 2995 3002 3002 3008 3041 3066 3090 3093 3094 3094 3101 3104 3105 3105 3111 3119 3121 3121 3135 3149 3159 3167 3171 3183 3189 3194 3198 3199 3204 3208 3212 3215 3219 3224 3229 3233 3237 3239 3245 3250 3260 3261 3269 3274 3275 3277 3290 3309 3309 3309 3308 3299 3299 3299 3300 3310 3310 3320 3332 3342 3342 3346 3347 3347 3359 3367 3373 3381 3385 3390 3396 3399 3406 3410 3412 3412 3423 3434 3434 3434 3437 3437 3439 3448 3459 3459 3459 3458 3451 3451 3451 3452 3455 3458 3458 3458 3458 3457 3457 3457 3462 3464 3464 3464 3447 3389 3372 3372 3389 3479 3522 3527 3538 3550 3561 3568 3576 3579 3588 3590 3590 3588 3584 3577 3573 3571 3571 3571 3571 3569 3563 3562 3557 3555 3544 3543 3543 3543 3543 3543 3543 3543 3539 3538 3538 3536 3536 3533 3532 3528 3527 3527 3525 3525 3525 3524 3522 3520 3518 3518 3518 3513 3512 3512 3511 3510 3508 3506 3491 3479 3478 3478 3478 3482 3496 3496 3496 3493 3479 3476 3476 3476 3480 3480 3480 3476 3476 3476 3476 3476 3476 3472 3452 3433 3377 3324 3281 3216 2972 2691 2543 2473 2460 2457 2454 2454 2452 2444 2437 2430 2427 2422 2418 2415 2411 2406 2404 2403 2403 2400 2398 2395 2394 2392 2391 2389 2387 2385 2382 2382 2379 2378 2375 2373 2369 2366 2366 2366 2368 2370 2372 2372 2372 2372 2373 2373 2371 2371 2371 2368 2348 2318 2306 2288 2270 2254 2243 2233 2224 2213 2204 2195 2188 2182 2172 2162 2157 2154 2153 2150 2145 2138 2129 2124 2121 2117 2114 2109 2106 2103 2101 2098 2095 2092 2091 2089 2086 2082 2077 2073 2071 2069 2065 2060 2054 2052 2051 2049 2048 2047 2046 2045 2044 2043 2042 2042 2041 2040 2039 2037 2036 2035 2033 2031 2029 2028 2026 2024 2021 2018 2014 2009 2006 2003 2000 1996 1992 1987 1981 1975 1973 1971 1969 1967 1966 1965 1965 1964 1964 1964 1964 1966 1967 1967 1969 1972 1973 1976 1977 1980 1983 1984 1986 1987 1988 1990 1991 1991 1991 1991 1990 1989 1989 1989 1987 1987 1987 1984 1978 1973 1967 1965 1963 1962 0 0 0 0 0 0 0 1529 1513 1506 1504 1501 1500 1499 1499 1499 1499 1499 1499 1498 1496 1494 1493 1493 1492 1491 1490 1488 1486 1484 1484 1484 1484 1484 1483 1482 1482 1482 1482 1482 1481 1481 1480 1479 1478 1477 1476 1476 1475 1474 1473 1473 1472 1471 1469 1469 1467 1466 1465 1464 1463 1462 1460 1459 1456 1455 1453 1452 1452 1452 1452 1452 1452 1452 1451 1451 1451 1451 1451 1450 1450 1449 1448 1447 1447 1446 1445 1444 1444 1443 1442 1441 1441 1441 1440 1438 1437 1436 1434 1434 1431 1430 1428 1426 1426 1426 1427 1427 1427 1425 1425 1425 1425 1425 1425 1425 1425 1425 1424 1423 1423 1422 1421 1420 1420 1419 1418 1417 1417 1416 1416 1415 1414 1414 1413 1412 1412 1411 1410 1409 1408 1408 1406 1405 1404 1403 1401 1399 1397 1396 1395 1395 1394 1393 1393 1393 1393 1393 1393 1393 1393 1393 1393 1393 1393 1394 1396 1398 1401 1402 1402 1403 1404 1407 1413 1420 1431 1438 1438 1438 1430 1425 1422 1420 1417 1417 1415 1413 1406 1400 1398 1398 1397 1397 1397 1397 1397 1397 1397 1397 1397 1398 1398 1398 1399 1399 1399 1392 1378 1351 0 0 0 0 0 0 0 0 0 0 0 0 0 0 0 0 0 0 0 0 0 0 0 0 0 0 0 0 0 0 0 0 0 0 0 0 0 0 0 0 0 0 0 0 0 0
0 0 0 0 0 0 2931 2931 2978 2991 2991 2995 2995 2995 3012 3062 3090 3093 3094 3108 3108 3108 3114 3114 3114 3114 3120 3127 3135 3149 3163 3169 3180 3183 3189 3194 3196 3207 3227 3238 3238 3238 3238 3237 3237 3237 3239 3239 3246 3258 3261 3262 3263 3264 3268 3275 3285 3301 3301 3301 3301 3301 3301 3301 3305 3312 3320 3337 3347 3347 3347 3347 3347 3347 3359 3367 3373 3381 3383 3390 3396 3399 3406 3410 3410 3411 3421 3432 3432 3432 3434 3434 3435 3439 3447 3454 3454 3454 3453 3452 3452 3452 3455 3458 3461 3461 3461 3457 3457 3457 3462 3465 3465 3465 3459 3391 3372 3372 3391 3484 3522 3527 3538 3550 3562 3570 3577 3586 3590 3592 3592 3592 3591 3588 3586 3585 3581 3581 3578 3570 3563 3562 3557 3556 3544 3543 3543 3543 3547 3549 3549 3549 3549 3549 3549 3542 3536 3533 3532 3530 3530 3530 3527 3525 3525 3524 3522 3518 3517 3518 3518 3525 3525 3525 3525 3519 3515 3508 3496 3479 3478 3478 3478 3482 3498 3498 3498 3495 3491 3482 3480 3480 3480 3480 3480 3480 3475 3475 3475 3485 3485 3485 3459 3435 3377 3325 3285 3212 2928 2651 2511 2472 2464 2462 2455 2454 2452 2443 2437 2430 2423 2421 2418 2415 2411 2405 2404 2404 2403 2401 2398 2395 2394 2392 2392 2389 2387 2386 2386 2384 2383 2380 2380 2375 2370 2367 2367 2367 2369 2374 2374 2374 2374 2373 2373 2373 2372 2372 2372 2371 2350 2319 2307 2289 2271 2256 2246 2234 2224 2215 2206 2198 2192 2185 2177 2166 2160 2157 2155 2153 2149 2142 2134 2126 2123 2119 2116 2112 2107 2104 2102 2098 2095 2092 2091 2089 2085 2081 2076 2072 2070 2068 2065 2060 2054 2052 2051 2049 2048 2047 2046 2045 2044 2042 2041 2041 2040 2039 2037 2037 2035 2034 2033 2030 2029 2028 2026 2024 2021 2017 2012 2008 2005 2002 1999 1996 1992 1986 1981 1975 1972 1970 1967 1967 1965 1963 1963 1963 1963 1963 1963 1964 1965 1966 1967 1969 1972 1973 1975 1978 1982 1983 1984 1985 1986 1988 1990 1990 1990 1990 1989 1987 1987 1987 1986 1986 1985 1980 1975 1969 1965 1963 1958 1949 0 0 0 0 0 0 1523 1514 1511 1506 1502 1500 1499 1499 1499 1499 1499 1499 1498 1497 1495 1494 1492 1492 1491 1491 1489 1487 1484 1484 1484 1484 1484 1483 1483 1482 1482 1482 1482 1482 1482 1481 1480 1479 1478 1477 1476 1475 1475 1474 1473 1472 1470 1470 1469 1468 1466 1465 1464 1464 1462 1461 1460 1457 1455 1454 1453 1452 1452 1452 1452 1452 1451 1451 1451 1451 1451 1451 1451 1450 1450 1449 1448 1447 1447 1445 1445 1444 1443 1442 1442 1441 1441 1440 1438 1437 1435 1435 1434 1432 1431 1430 1428 1424 1424 1424 1424 1425 1425 1425 1425 1425 1425 1425 1425 1425 1425 1424 1424 1423 1423 1422 1421 1420 1420 1419 1418 1417 1416 1416 1416 1414 1414 1414 1413 1412 1411 1411 1410 1409 1408 1407 1406 1405 1404 1402 1400 1398 1397 1396 1395 1395 1394 1393 1393 1393 1393 1393 1394 1394 1394 1394 1394 1394 1396 1398 1398 1401 1403 1404 1404 1404 1408 1416 1428 1438 1444 1444 1444 1441 1437 1431 1422 1420 1417 1417 1415 1407 1401 1400 1398 1397 1397 1397 1397 1397 1397 1397 1397 1397 1397 1397 1397 1397 1399 1399 1399 1399 1394 1353 0 0 0 0 0 0 0 0 0 0 0 0 0 0 0 0 0 0 0 0 0 0 0 0 0 0 0 0 0 0 0 0 0 0 0 0 0 0 0 0 0 0 0 0 0 0
0 0 0 0 0 2819 2895 2898 2931 2982 2985 2991 2995 2995 3012 3053 3090 3093 3094 3111 3111 3111 3114 3114 3114 3114 3120 3130 3143 3157 3163 3169 3180 3181 3183 3187 3196 3207 3227 3238 3238 3238 3238 3238 3238 3239 3241 3241 3249 3260 3261 3263 3264 3266 3267 3271 3277 3282 3289 3299 3301 3301 3302 3302 3307 3314 3326 3339 3352 3352 3352 3347 3347 3347 3359 3367 3373 3382 3383 3390 3393 3397 3404 3407 3407 3410 3415 3426 3431 3431 3431 3431 3431 3434 3438 3448 3454 3454 3454 3453 3453 3453 3455 3458 3461 3461 3461 3458 3458 3458 3465 3470 3470 3470 3459 3393 3375 3375 3393 3489 3529 3533 3538 3551 3563 3570 3581 3588 3594 3595 3595 3595 3595 3595 3596 3597 3597 3597 3593 3580 3572 3566 3562 3556 3544 3544 3544 3544 3547 3551 3558 3558 3558 3558 3549 3542 3536 3533 3532 3531 3531 3531 3531 3531 3525 3520 3518 3518 3518 3520 3523 3525 3526 3526 3525 3521 3519 3510 3497 3479 3479 3479 3482 3494 3498 3498 3498 3495 3494 3493 3485 3480 3480 3480 3480 3480 3480 3480 3480 3483 3483 3483 3483 3441 3394 3346 3299 3212 2882 2627 2509 2472 2465 2465 2459 2458 2453 2443 2437 2430 2423 2421 2418 2415 2411 2405 2404 2404 2403 2401 2398 2395 2394 2392 2392 2390 2388 2387 2387 2386 2383 2381 2381 2377 2373 2368 2368 2368 2370 2374 2375 2375 2375 2375 2375 2375 2374 2375 2374 2372 2357 2323 2310 2291 2273 2257 2246 2234 2224 2215 2206 2202 2195 2188 2181 2171 2163 2160 2157 2154 2150 2145 2138 2131 2125 2120 2117 2113 2109 2106 2102 2099 2095 2092 2090 2087 2084 2079 2076 2072 2069 2068 2063 2059 2054 2052 2051 2049 2048 2047 2046 2045 2044 2042 2041 2040 2040 2038 2037 2036 2035 2034 2032 2030 2027 2026 2025 2023 2020 2016 2012 2008 2005 2001 1998 1996 1992 1986 1981 1975 1970 1969 1967 1965 1963 1963 1961 1961 1961 1961 1962 1962 1964 1965 1965 1967 1969 1971 1974 1977 1980 1981 1983 1983 1985 1986 1988 1988 1988 1988 1987 1985 1983 1983 1983 1982 1979 1976 1970 1963 1959 1958 1950 1921 0 0 0 0 0 1520 1511 1510 1509 1506 1502 1500 1499 1499 1499 1499 1499 1498 1498 1496 1495 1494 1492 1491 1489 1489 1488 1484 1483 1483 1483 1483 1483 1483 1483 1482 1482 1482 1482 1481 1481 1481 1480 1479 1478 1477 1476 1475 1475 1473 1472 1472 1470 1469 1468 1467 1466 1464 1464 1462 1462 1460 1457 1454 1453 1453 1453 1452 1450 1450 1450 1450 1450 1451 1451 1451 1451 1451 1451 1450 1450 1449 1448 1447 1447 1445 1445 1443 1442 1441 1440 1440 1440 1439 1438 1436 1435 1433 1431 1431 1429 1426 1424 1422 1421 1421 1422 1422 1423 1424 1424 1424 1425 1425 1425 1425 1424 1424 1424 1423 1422 1422 1421 1420 1420 1419 1418 1417 1416 1416 1415 1414 1414 1414 1413 1412 1411 1410 1410 1409 1408 1407 1406 1404 1403 1401 1399 1398 1397 1396 1394 1394 1394 1393 1393 1393 1393 1394 1395 1395 1395 1395 1395 1396 1398 1400 1404 1406 1412 1417 1424 1424 1432 1440 1446 1446 1446 1445 1444 1441 1437 1431 1422 1420 1413 1407 1405 1404 1401 1400 1398 1397 1397 1397 1397 1397 1397 1397 1397 1397 1397 1398 1398 1398 1401 1401 1401 1400 1400 1372 1368 0 0 0 0 0 0 0 0 0 0 0 0 0 0 0 0 0 0 0 0 0 0 0 0 0 0 0 0 0 0 0 0 0 0 0 0 0 0 0 0 0 0 0 0 0
2669 2680 2680 2722 2723 2820 2891 2898 2930 2974 2991 2995 3002 3006 3012 3052 3066 3072 3092 3113 3113 3113 3114 3114 3114 3120 3121 3134 3143 3156 3163 3169 3169 3169 3170 3170 3190 3207 3227 3238 3239 3241 3241 3239 3241 3241 3244 3247 3256 3265 3265 3265 3267 3267 3266 3266 3266 3266 3266 3281 3297 3299 3301 3303 3309 3321 3329 3346 3353 3353 3353 3353 3353 3355 3365 3373 3378 3382 3382 3389 3393 3396 3404 3404 3407 3407 3411 3419 3427 3429 3429 3431 3431 3432 3437 3445 3452 3455 3456 3458 3458 3459 3460 3461 3461 3461 3461 3458 3458 3458 3468 3470 3470 3470 3459 3391 3377 3377 3391 3505 3540 3545 3546 3558 3574 3583 3596 3597 3598 3599 3599 3599 3600 3600 3600 3606 3609 3609 3609 3597 3589 3580 3575 3564 3547 3545 3545 3545 3551 3558 3561 3561 3561 3559 3549 3542 3529 3529 3529 3530 3530 3532 3532 3532 3526 3520 3515 3515 3515 3523 3527 3527 3527 3527 3526 3522 3519 3511 3499 3486 3486 3486 3489 3494 3495 3495 3495 3495 3494 3493 3490 3486 3483 3483 3481 3481 3481 3481 3481 3483 3504 3504 3504 3474 3423 3385 3330 3203 2841 2611 2507 2472 2471 2468 2465 2464 2453 2443 2441 2431 2423 2421 2418 2416 2411 2405 2404 2403 2403 2401 2398 2396 2394 2393 2392 2390 2389 2387 2387 2386 2383 2381 2381 2379 2375 2374 2371 2371 2371 2374 2376 2377 2378 2380 2380 2380 2380 2380 2376 2373 2370 2331 2313 2296 2274 2259 2246 2235 2224 2215 2208 2204 2197 2190 2182 2173 2166 2161 2160 2155 2151 2146 2142 2133 2127 2123 2117 2113 2109 2107 2103 2100 2096 2092 2089 2087 2083 2079 2075 2071 2068 2067 2062 2058 2054 2053 2051 2050 2049 2048 2046 2045 2044 2042 2041 2040 2039 2038 2037 2035 2034 2033 2031 2029 2027 2025 2023 2021 2018 2015 2011 2007 2003 2001 1997 1995 1991 1986 1980 1974 1970 1967 1966 1964 1963 1962 1960 1960 1960 1960 1961 1961 1962 1963 1964 1965 1967 1969 1971 1974 1977 1979 1981 1982 1983 1985 1986 1986 1986 1986 1984 1981 1980 1980 1979 1978 1976 1970 1963 1955 1949 1941 1915 1871 0 0 0 0 1520 1511 1509 1509 1508 1506 1501 1500 1499 1499 1499 1498 1498 1497 1496 1495 1494 1491 1490 1489 1487 1486 1485 1484 1482 1482 1482 1482 1481 1481 1481 1481 1481 1481 1481 1481 1481 1481 1480 1479 1478 1477 1476 1475 1474 1473 1472 1470 1470 1469 1467 1466 1465 1463 1462 1461 1459 1457 1455 1454 1453 1452 1452 1451 1450 1450 1450 1450 1450 1450 1451 1451 1451 1450 1450 1450 1449 1448 1447 1447 1446 1445 1444 1443 1442 1441 1439 1439 1438 1436 1436 1434 1433 1431 1428 1425 1424 1424 1423 1420 1420 1420 1420 1420 1422 1423 1423 1423 1424 1424 1424 1424 1424 1424 1423 1423 1422 1421 1421 1420 1420 1419 1418 1417 1416 1416 1415 1414 1414 1413 1412 1412 1411 1410 1409 1408 1408 1407 1406 1404 1402 1401 1399 1398 1397 1396 1395 1394 1394 1393 1393 1393 1393 1395 1395 1397 1397 1398 1399 1399 1400 1402 1405 1422 1437 1442 1442 1442 1442 1446 1447 1447 1446 1445 1444 1441 1437 1431 1422 1418 1410 1407 1404 1402 1401 1399 1399 1398 1398 1397 1397 1397 1397 1397 1398 1399 1399 1399 1399 1399 1403 1406 1406 1406 1405 1383 1368 0 0 0 0 0 0 0 0 0 0 0 0 0 0 0 0 0 0 0 0 0 0 0 0 0 0 0 0 0 0 0 0 0 0 0 0 0 0 0 0 0 0 0 0 0
2677 2683 2683 2728 2742 2821 2885 2898 2930 2974 3009 3014 3015 3022 3022 3025 3044 3051 3089 3113 3113 3113 3117 3117 3125 3134 3141 3142 3146 3151 3156 3157 3157 3157 3162 3163 3190 3207 3214 3226 3230 3240 3241 3241 3246 3251 3252 3257 3266 3274 3278 3278 3278 3271 3267 3266 3266 3266 3266 3266 3279 3287 3301 3306 3313 3321 3341 3355 3363 3366 3366 3366 3367 3369 3376 3380 3380 3380 3382 3382 3387 3395 3402 3403 3403 3404 3404 3404 3417 3430 3430 3431 3432 3432 3437 3445 3452 3457 3458 3458 3462 3464 3466 3466 3466 3465 3465 3465 3465 3465 3474 3474 3474 3472 3468 3393 3387 3387 3393 3518 3553 3555 3560 3562 3576 3583 3596 3597 3600 3602 3602 3602 3604 3604 3605 3612 3620 3620 3620 3612 3606 3599 3591 3568 3555 3554 3554 3554 3563 3565 3565 3565 3561 3559 3549 3542 3529 3529 3529 3530 3533 3534 3534 3534 3530 3520 3518 3518 3518 3528 3528 3528 3528 3528 3527 3527 3520 3512 3506 3497 3490 3490 3490 3494 3494 3494 3494 3494 3493 3493 3490 3489 3486 3486 3484 3484 3483 3483 3483 3484 3504 3504 3504 3495 3462 3426 3377 3203 2813 2590 2501 2473 2473 2472 2471 2471 2460 2451 2445 2438 2425 2421 2419 2416 2412 2404 2404 2403 2403 2401 2398 2396 2395 2394 2393 2391 2390 2388 2387 2387 2384 2383 2382 2379 2377 2375 2374 2374 2374 2374 2377 2380 2381 2384 2384 2384 2384 2384 2380 2379 2377 2342 2323 2310 2284 2262 2248 2235 2224 2218 2211 2204 2197 2190 2183 2174 2169 2165 2160 2157 2151 2146 2142 2134 2128 2123 2117 2113 2110 2107 2103 2100 2096 2092 2089 2086 2082 2079 2075 2071 2068 2066 2060 2056 2054 2052 2051 2050 2049 2048 2046 2045 2044 2042 2041 2040 2039 2038 2037 2035 2033 2032 2030 2029 2027 2024 2022 2019 2016 2014 2011 2007 2002 1998 1996 1992 1987 1983 1977 1973 1969 1967 1966 1963 1961 1960 1959 1959 1959 1959 1959 1960 1962 1962 1963 1964 1965 1967 1969 1972 1977 1977 1978 1980 1982 1984 1986 1986 1986 1986 1983 1980 1980 1979 1978 1978 1975 1968 1958 1949 1937 0 0 0 0 0 0 1530 1515 1511 1509 1509 1507 1505 1501 1500 1499 1498 1498 1498 1497 1496 1494 1493 1491 1490 1490 1488 1487 1486 1484 1483 1482 1482 1481 1480 1480 1480 1480 1480 1480 1480 1480 1481 1480 1480 1479 1478 1477 1477 1476 1475 1474 1473 1471 1470 1469 1468 1466 1465 1464 1463 1462 1460 1459 1456 1454 1453 1451 1451 1450 1450 1449 1449 1449 1449 1449 1449 1450 1450 1450 1450 1449 1449 1448 1447 1447 1446 1445 1444 1443 1442 1441 1440 1438 1438 1437 1435 1434 1433 1432 1430 1426 1421 1420 1420 1420 1418 1418 1418 1418 1419 1419 1421 1421 1422 1422 1423 1423 1423 1423 1423 1423 1423 1422 1421 1421 1420 1420 1419 1418 1417 1416 1416 1415 1414 1414 1413 1412 1412 1411 1410 1409 1408 1408 1407 1405 1404 1402 1400 1399 1398 1397 1396 1395 1394 1394 1393 1393 1393 1393 1395 1396 1398 1401 1401 1401 1401 1402 1406 1412 1423 1452 1453 1453 1453 1447 1447 1446 1446 1443 1437 1431 1424 1422 1417 1414 1412 1409 1405 1403 1402 1401 1400 1399 1399 1398 1397 1397 1397 1397 1398 1399 1399 1399 1399 1399 1399 1403 1406 1406 1406 1405 1383 1368 0 0 0 0 0 0 0 0 0 0 0 0 0 0 0 0 0 0 0 0 0 0 0 0 0 0 0 0 0 0 0 0 0 0 0 0 0 0 0 0 0 0 0 0 0
2688 2707 2707 2739 2744 2830 2885 2906 2930 2974 3024 3029 3029 3029 3034 3034 3041 3048 3078 3113 3113 3113 3113 3113 3131 3136 3141 3142 3146 3151 3154 3154 3157 3157 3160 3162 3190 3206 3210 3212 3227 3240 3241 3246 3256 3261 3268 3274 3276 3279 3288 3288 3288 3285 3284 3284 3266 3266 3266 3266 3279 3287 3301 3307 3320 3336 3354 3368 3368 3370 3371 3374 3384 3384 3384 3380 3378 3378 3378 3382 3387 3395 3402 3403 3403 3404 3404 3404 3417 3426 3431 3431 3433 3434 3437 3445 3452 3457 3458 3460 3463 3468 3472 3472 3472 3469 3469 3469 3469 3470 3478 3481 3481 3481 3468 3401 3401 3401 3417 3525 3565 3568 3568 3568 3583 3593 3596 3597 3600 3602 3606 3606 3607 3608 3608 3614 3620 3622 3623 3623 3622 3615 3604 3576 3563 3563 3563 3566 3569 3569 3569 3565 3564 3560 3549 3542 3529 3529 3529 3530 3538 3539 3539 3538 3532 3523 3519 3519 3519 3529 3529 3529 3530 3529 3528 3527 3525 3517 3513 3503 3495 3491 3491 3491 3491 3491 3492 3491 3491 3490 3490 3489 3489 3487 3487 3487 3487 3490 3490 3490 3509 3519 3519 3519 3496 3468 3408 3171 2783 2580 2497 2473 2473 2472 2472 2472 2460 2452 2450 2445 2435 2426 2423 2417 2412 2404 2404 2403 2402 2400 2397 2396 2395 2394 2393 2392 2391 2388 2388 2387 2385 2383 2382 2379 2378 2377 2377 2376 2376 2376 2378 2381 2383 2386 2389 2389 2389 2390 2391 2387 2382 2356 2338 2322 2300 2275 2254 2234 2224 2218 2211 2204 2198 2190 2184 2175 2170 2166 2161 2157 2151 2146 2142 2134 2128 2123 2118 2115 2110 2107 2104 2101 2096 2092 2089 2085 2081 2078 2074 2071 2068 2064 2059 2055 2054 2052 2051 2050 2049 2048 2047 2045 2044 2042 2041 2040 2039 2038 2036 2035 2033 2032 2030 2028 2026 2023 2020 2017 2015 2014 2011 2006 2002 1997 1993 1989 1985 1979 1976 1973 1968 1966 1965 1962 1959 1959 1958 1957 1957 1957 1958 1958 1960 1961 1961 1962 1964 1966 1967 1972 1975 1976 1977 1978 1981 1983 1985 1985 1985 1985 1982 1980 1979 1978 1977 1977 1974 1965 1955 1944 0 0 0 0 1568 1537 1517 1511 1511 1509 1509 1506 1506 1504 1501 1500 1499 1498 1497 1497 1496 1495 1492 1490 1489 1489 1489 1488 1484 1484 1483 1483 1482 1482 1480 1479 1479 1479 1479 1480 1480 1480 1480 1479 1479 1479 1478 1478 1477 1476 1475 1474 1473 1472 1470 1469 1469 1467 1465 1464 1462 1461 1459 1456 1455 1455 1452 1450 1450 1450 1449 1448 1448 1448 1448 1448 1448 1448 1448 1449 1449 1449 1449 1447 1447 1447 1446 1446 1445 1443 1443 1442 1440 1439 1438 1437 1436 1433 1432 1432 1431 1429 1422 1418 1418 1417 1417 1416 1416 1416 1417 1418 1418 1420 1421 1421 1421 1422 1422 1422 1423 1423 1422 1422 1421 1421 1421 1420 1420 1419 1418 1417 1416 1416 1415 1414 1414 1412 1412 1412 1411 1410 1409 1408 1407 1406 1405 1404 1402 1400 1399 1398 1398 1397 1397 1395 1394 1394 1394 1394 1394 1395 1396 1400 1401 1401 1401 1401 1404 1413 1426 1444 1455 1455 1455 1453 1447 1445 1443 1440 1429 1421 1415 1413 1412 1411 1408 1404 1403 1403 1402 1402 1401 1400 1400 1400 1400 1399 1398 1398 1398 1399 1399 1400 1400 1400 1400 1400 1403 1406 1406 1406 1405 1383 1328 0 0 0 0 0 0 0 0 0 0 0 0 0 0 0 0 0 0 0 0 0 0 0 0 0 0 0 0 0 0 0 0 0 0 0 0 0 0 0 0 0 0 0 0 0
2725 2725 2727 2743 2773 2839 2891 2925 2954 2995 3041 3044 3046 3046 3046 3041 3041 3041 3078 3113 3113 3113 3113 3113 3131 3139 3141 3142 3145 3146 3151 3154 3157 3157 3159 3159 3192 3206 3210 3212 3227 3240 3251 3256 3261 3261 3274 3274 3276 3279 3290 3297 3297 3297 3287 3286 3278 3273 3273 3273 3279 3287 3307 3315 3326 3339 3355 3368 3368 3370 3371 3374 3384 3384 3384 3380 3378 3378 3378 3382 3387 3396 3404 3404 3404 3404 3404 3404 3417 3426 3431 3437 3439 3441 3442 3448 3455 3457 3458 3463 3465 3469 3476 3477 3477 3477 3475 3473 3473 3473 3479 3486 3486 3486 3468 3414 3414 3414 3440 3532 3573 3581 3583 3583 3584 3594 3594 3599 3601 3603 3607 3608 3609 3610 3612 3618 3622 3625 3626 3626 3626 3622 3608 3591 3572 3572 3572 3573 3574 3574 3574 3567 3564 3560 3552 3548 3539 3539 3539 3543 3543 3543 3542 3539 3534 3528 3528 3528 3538 3538 3538 3531 3531 3529 3528 3528 3525 3520 3520 3511 3503 3497 3491 3490 3490 3490 3490 3490 3490 3491 3490 3489 3490 3490 3490 3491 3491 3492 3492 3501 3518 3523 3527 3527 3527 3491 3408 3146 2783 2580 2497 2473 2473 2472 2472 2472 2461 2454 2450 2445 2437 2428 2423 2418 2413 2404 2404 2403 2402 2400 2396 2396 2396 2395 2394 2392 2391 2390 2388 2388 2385 2383 2382 2382 2380 2379 2377 2377 2377 2379 2380 2382 2386 2388 2391 2391 2391 2393 2395 2391 2388 2368 2347 2334 2308 2282 2255 2235 2224 2218 2211 2203 2197 2190 2183 2176 2170 2166 2161 2157 2150 2144 2139 2134 2128 2123 2119 2115 2113 2110 2106 2102 2096 2090 2086 2083 2079 2076 2072 2069 2067 2064 2059 2055 2054 2053 2051 2050 2050 2048 2047 2045 2044 2043 2041 2040 2039 2038 2036 2034 2033 2031 2029 2027 2024 2021 2019 2017 2015 2012 2009 2005 2000 1996 1991 1988 1981 1977 1975 1972 1968 1966 1963 1961 1958 1957 1957 1957 1956 1956 1956 1956 1958 1959 1960 1960 1962 1964 1966 1971 1972 1973 1975 1978 1979 1981 1983 1983 1983 1983 1982 1979 1977 1976 1976 1973 1964 1950 0 0 0 0 0 0 1538 1520 1513 1511 1510 1509 1509 1506 1503 1502 1501 1500 1499 1497 1496 1495 1494 1491 1490 1489 1489 1488 1487 1483 1483 1482 1482 1482 1482 1481 1480 1478 1478 1478 1477 1477 1477 1477 1478 1478 1478 1478 1477 1477 1475 1475 1475 1473 1473 1471 1470 1469 1468 1467 1465 1464 1461 1459 1456 1453 1453 1451 1450 1449 1449 1449 1448 1448 1446 1446 1446 1446 1446 1446 1447 1447 1448 1448 1448 1447 1447 1446 1446 1445 1445 1443 1443 1441 1440 1439 1438 1436 1435 1433 1431 1428 1427 1423 1420 1417 1416 1416 1414 1414 1414 1414 1415 1416 1417 1418 1420 1420 1421 1421 1421 1422 1422 1422 1422 1421 1421 1420 1420 1420 1420 1419 1418 1417 1416 1416 1415 1414 1413 1412 1412 1412 1411 1410 1409 1408 1407 1406 1405 1404 1402 1400 1399 1398 1398 1398 1398 1397 1395 1395 1394 1394 1395 1396 1398 1401 1401 1401 1401 1401 1405 1420 1440 1450 1456 1456 1456 1453 1443 1442 1434 1420 1409 1407 1407 1406 1406 1406 1402 1401 1401 1400 1400 1400 1400 1400 1400 1400 1400 1399 1399 1399 1399 1400 1401 1401 1401 1401 1401 1401 1403 1403 1403 1400 1393 1383 0 0 0 0 0 0 0 0 0 0 0 0 0 0 0 0 0 0 0 0 0 0 0 0 0 0 0 0 0 0 0 0 0 0 0 0 0 0 0 0 0 0 0 0 0 0
2742 2742 2763 2767 2826 2882 2916 2951 2992 3034 3052 3052 3055 3055 3052 3043 3043 3043 3078 3113 3113 3120 3120 3132 3141 3141 3141 3140 3140 3140 3145 3154 3162 3162 3167 3174 3193 3206 3208 3212 3225 3240 3251 3256 3262 3262 3274 3274 3276 3279 3291 3298 3303 3304 3304 3304 3299 3292 3292 3292 3294 3305 3312 3318 3326 3339 3355 3368 3368 3370 3371 3374 3384 3384 3384 3380 3380 3380 3382 3387 3391 3397 3408 3409 3409 3409 3409 3409 3417 3426 3435 3440 3445 3450 3451 3455 3458 3460 3461 3463 3465 3469 3476 3482 3484 3484 3484 3478 3478 3478 3482 3488 3488 3488 3477 3438 3438 3438 3459 3543 3574 3584 3592 3593 3594 3594 3594 3599 3601 3605 3609 3613 3613 3614 3615 3619 3623 3625 3626 3626 3626 3623 3610 3596 3581 3579 3578 3578 3578 3578 3578 3576 3568 3560 3557 3551 3542 3542 3542 3555 3555 3555 3550 3542 3540 3539 3539 3539 3546 3546 3546 3540 3534 3532 3531 3528 3525 3523 3523 3520 3513 3510 3500 3490 3490 3490 3490 3490 3490 3492 3490 3489 3490 3491 3491 3495 3495 3496 3498 3506 3518 3523 3527 3527 3527 3491 3408 3130 2757 2567 2497 2473 2471 2471 2470 2468 2461 2455 2451 2446 2437 2428 2423 2418 2414 2407 2404 2404 2402 2400 2396 2396 2396 2395 2394 2393 2392 2391 2390 2388 2387 2385 2384 2383 2382 2380 2379 2379 2379 2381 2383 2383 2386 2389 2391 2393 2395 2395 2396 2396 2395 2371 2348 2335 2313 2285 2255 2236 2224 2216 2207 2203 2197 2190 2182 2176 2170 2166 2161 2154 2148 2142 2136 2131 2126 2122 2119 2117 2114 2111 2106 2102 2095 2090 2086 2082 2079 2075 2072 2069 2067 2063 2058 2055 2054 2053 2052 2051 2050 2048 2047 2045 2044 2043 2042 2040 2039 2038 2036 2034 2032 2030 2029 2026 2023 2021 2019 2017 2014 2010 2006 2002 1998 1993 1990 1984 1980 1975 1973 1970 1968 1965 1963 1960 1957 1956 1955 1955 1955 1955 1955 1955 1955 1956 1956 1958 1960 1962 1965 1969 1972 1972 1975 1977 1979 1979 1979 1979 1977 1977 1976 1971 1970 1970 1968 1961 1945 0 0 0 0 0 0 0 1513 1512 1511 1510 1509 1508 1507 1503 1502 1502 1500 1499 1498 1496 1496 1494 1492 1490 1488 1488 1488 1486 1483 1482 1481 1481 1481 1481 1481 1481 1480 1477 1477 1477 1476 1476 1476 1476 1476 1477 1477 1477 1477 1476 1475 1474 1474 1473 1472 1471 1469 1468 1467 1465 1462 1461 1459 1456 1452 1451 1450 1448 1448 1448 1448 1448 1447 1446 1446 1444 1444 1444 1445 1446 1447 1447 1447 1447 1447 1447 1446 1446 1446 1445 1444 1443 1442 1440 1438 1438 1437 1436 1434 1433 1429 1422 1421 1421 1419 1417 1416 1415 1414 1413 1413 1413 1414 1415 1416 1417 1419 1419 1420 1420 1420 1420 1421 1421 1421 1421 1421 1420 1420 1420 1419 1419 1418 1417 1416 1416 1414 1413 1413 1412 1412 1412 1411 1410 1409 1408 1407 1406 1406 1404 1403 1401 1400 1399 1399 1398 1398 1398 1397 1396 1396 1396 1396 1398 1400 1405 1405 1405 1405 1405 1417 1434 1440 1450 1456 1456 1456 1451 1419 1418 1406 1402 1402 1402 1403 1403 1403 1401 1398 1398 1398 1399 1399 1399 1399 1400 1400 1400 1400 1399 1399 1399 1400 1400 1403 1403 1403 1402 1402 1402 1403 1403 1403 1399 1385 0 0 0 0 0 0 0 0 0 0 0 0 0 0 0 0 0 0 0 0 0 0 0 0 0 0 0 0 0 0 0 0 0 0 0 0 0 0 0 0 0 0 0 0 0 0 0
2750 2750 2763 2794 2856 2915 2952 2985 3028 3060 3060 3061 3063 3061 3056 3043 3043 3043 3078 3117 3120 3122 3122 3133 3137 3137 3137 3137 3137 3140 3145 3152 3162 3163 3167 3174 3198 3207 3208 3211 3225 3240 3251 3256 3262 3262 3269 3271 3272 3274 3290 3298 3303 3306 3308 3308 3308 3304 3299 3299 3299 3307 3312 3320 3326 3339 3355 3356 3360 3362 3364 3374 3378 3378 3378 3376 3376 3376 3389 3396 3398 3409 3418 3418 3419 3423 3423 3423 3432 3435 3439 3443 3447 3452 3456 3461 3462 3462 3462 3464 3465 3469 3476 3485 3489 3489 3489 3486 3483 3483 3483 3488 3488 3488 3487 3438 3438 3438 3475 3556 3577 3585 3594 3597 3597 3599 3599 3599 3601 3607 3611 3615 3617 3620 3622 3623 3623 3625 3629 3629 3629 3624 3611 3596 3590 3588 3587 3587 3585 3583 3583 3580 3573 3564 3560 3557 3551 3551 3551 3559 3559 3559 3559 3549 3549 3549 3549 3550 3550 3550 3546 3540 3534 3532 3531 3528 3524 3523 3523 3521 3520 3520 3510 3491 3490 3490 3490 3492 3492 3492 3492 3492 3492 3492 3494 3496 3497 3498 3500 3511 3518 3523 3527 3527 3527 3491 3355 3100 2757 2555 2495 2473 2471 2469 2468 2467 2461 2455 2455 2446 2437 2429 2423 2418 2414 2408 2406 2405 2404 2400 2396 2396 2396 2395 2395 2394 2394 2393 2391 2389 2388 2387 2385 2384 2383 2383 2382 2382 2382 2383 2385 2385 2387 2389 2391 2393 2395 2397 2397 2397 2397 2381 2350 2336 2316 2286 2261 2236 2223 2212 2206 2202 2196 2190 2182 2176 2170 2166 2160 2153 2148 2141 2135 2130 2126 2122 2119 2117 2114 2111 2106 2102 2095 2090 2085 2082 2078 2075 2072 2069 2067 2062 2058 2055 2054 2053 2052 2051 2050 2048 2047 2046 2044 2043 2042 2040 2039 2037 2036 2033 2032 2030 2027 2024 2022 2020 2018 2016 2012 2009 2005 2000 1995 1991 1986 1982 1978 1974 1971 1968 1966 1963 1961 1958 1956 1955 1953 1953 1953 1953 1953 1953 1953 1953 1955 1957 1959 1961 1963 1967 1971 1972 1974 1977 1978 1978 1978 1975 1973 1971 1969 1968 1964 1960 1952 0 0 0 0 0 0 0 1522 1514 1512 1511 1510 1509 1508 1507 1506 1503 1502 1502 1499 1499 1497 1496 1494 1492 1492 1490 1487 1486 1483 1482 1481 1480 1480 1480 1480 1479 1479 1478 1478 1477 1476 1474 1474 1474 1474 1474 1475 1476 1476 1476 1475 1475 1474 1474 1473 1473 1471 1470 1469 1468 1465 1462 1461 1460 1457 1454 1451 1449 1448 1447 1447 1447 1447 1447 1446 1446 1444 1444 1443 1443 1443 1444 1444 1445 1446 1446 1446 1446 1446 1446 1445 1445 1444 1443 1441 1440 1438 1437 1437 1434 1432 1431 1428 1422 1421 1419 1417 1417 1416 1415 1414 1413 1412 1412 1412 1414 1415 1416 1417 1417 1417 1418 1419 1420 1420 1421 1421 1421 1420 1420 1420 1420 1419 1419 1418 1417 1416 1415 1414 1413 1413 1412 1412 1412 1410 1410 1409 1408 1407 1406 1406 1405 1403 1401 1401 1400 1400 1399 1398 1398 1398 1398 1398 1398 1398 1399 1401 1405 1405 1405 1407 1409 1424 1434 1440 1450 1450 1450 1439 1429 1418 1400 1399 1399 1399 1398 1399 1399 1398 1398 1398 1398 1398 1398 1399 1399 1400 1400 1401 1401 1401 1400 1400 1400 1401 1403 1405 1405 1405 1404 1404 1404 1407 1407 1407 1389 1373 0 0 0 0 0 0 0 0 0 0 0 0 0 0 0 0 0 0 0 0 0 0 0 0 0 0 0 0 0 0 0 0 0 0 0 0 0 0 0 0 0 0 0 0 0 0 0
2763 2763 2792 2826 2907 2976 3020 3042 3073 3073 3073 3076 3076 3076 3077 3077 3085 3087 3087 3117 3122 3128 3128 3133 3137 3137 3137 3137 3137 3140 3145 3152 3167 3171 3176 3185 3206 3207 3211 3211 3217 3228 3241 3246 3260 3262 3267 3268 3269 3269 3288 3297 3303 3306 3309 3309 3309 3310 3308 3308 3312 3313 3320 3320 3323 3336 3350 3356 3359 3360 3364 3374 3378 3378 3378 3378 3378 3378 3390 3398 3411 3421 3427 3427 3429 3432 3435 3440 3443 3443 3444 3444 3447 3453 3457 3463 3463 3464 3466 3466 3466 3469 3476 3485 3489 3492 3492 3492 3487 3487 3487 3492 3492 3492 3487 3438 3438 3438 3479 3556 3579 3589 3598 3599 3601 3601 3601 3601 3603 3609 3612 3616 3622 3624 3626 3626 3627 3627 3629 3629 3629 3624 3611 3601 3596 3594 3592 3589 3585 3585 3583 3580 3573 3564 3560 3559 3557 3557 3557 3566 3567 3567 3567 3560 3560 3558 3558 3558 3558 3554 3548 3540 3534 3532 3531 3523 3523 3523 3524 3524 3524 3523 3511 3503 3499 3497 3497 3497 3502 3502 3502 3499 3495 3495 3495 3497 3500 3508 3514 3517 3518 3523 3523 3523 3511 3461 3285 2930 2675 2555 2495 2473 2472 2469 2468 2465 2461 2455 2455 2449 2437 2429 2423 2418 2415 2410 2406 2406 2405 2401 2398 2397 2397 2397 2395 2395 2395 2393 2392 2391 2390 2390 2388 2387 2385 2385 2385 2385 2385 2386 2387 2387 2388 2389 2392 2395 2397 2397 2397 2397 2397 2389 2360 2337 2320 2293 2261 2233 2219 2210 2202 2199 2194 2186 2178 2175 2169 2163 2155 2148 2143 2139 2135 2129 2125 2121 2119 2117 2114 2111 2106 2100 2094 2089 2085 2081 2078 2074 2070 2069 2065 2061 2058 2055 2054 2053 2052 2051 2050 2048 2047 2046 2045 2044 2042 2040 2039 2037 2035 2033 2031 2028 2026 2024 2021 2019 2017 2015 2012 2008 2003 1999 1993 1989 1985 1982 1977 1972 1970 1966 1964 1961 1958 1957 1955 1954 1951 1951 1951 1951 1951 1951 1951 1952 1952 1954 1957 1958 1960 1963 1968 1971 1973 1975 1975 1975 1974 1970 1968 1968 1967 1962 1962 1950 0 0 0 0 0 0 0 1520 1513 1510 1510 1510 1509 1508 1508 1507 1506 1503 1502 1502 1499 1498 1497 1495 1494 1492 1491 1489 1487 1485 1481 1481 1480 1478 1478 1478 1477 1477 1476 1476 1476 1475 1474 1472 1472 1472 1473 1474 1474 1474 1474 1474 1474 1474 1474 1474 1473 1472 1470 1469 1468 1468 1465 1462 1460 1459 1457 1454 1451 1449 1448 1447 1447 1447 1446 1445 1444 1443 1443 1442 1441 1441 1441 1441 1441 1442 1443 1444 1445 1445 1445 1445 1445 1445 1444 1443 1440 1439 1438 1436 1434 1431 1425 1424 1422 1420 1417 1415 1415 1415 1415 1415 1413 1412 1411 1411 1411 1412 1414 1416 1416 1416 1417 1417 1419 1419 1420 1420 1420 1420 1420 1420 1420 1420 1419 1419 1418 1417 1416 1415 1414 1413 1413 1412 1412 1412 1410 1410 1409 1408 1407 1406 1406 1405 1404 1403 1402 1402 1400 1400 1399 1399 1399 1399 1401 1401 1401 1401 1403 1406 1409 1410 1411 1418 1424 1434 1434 1434 1433 1422 1411 1401 1398 1398 1395 1395 1395 1395 1395 1395 1395 1396 1397 1397 1398 1398 1399 1399 1400 1401 1402 1402 1402 1402 1403 1403 1404 1407 1407 1407 1407 1407 1407 1407 1409 1409 1409 1389 0 0 0 0 0 0 0 0 0 0 0 0 0 0 0 0 0 0 0 0 0 0 0 0 0 0 0 0 0 0 0 0 0 0 0 0 0 0 0 0 0 0 0 0 0 0 0 0
2796 2796 2799 2855 2960 3040 3077 3083 3086 3086 3082 3086 3086 3095 3110 3110 3110 3110 3110 3124 3125 3125 3128 3132 3137 3138 3140 3143 3143 3145 3146 3155 3167 3180 3187 3197 3208 3208 3208 3208 3208 3209 3227 3233 3253 3257 3258 3261 3263 3268 3283 3294 3299 3306 3309 3312 3312 3312 3312 3312 3314 3316 3320 3322 3323 3336 3350 3356 3359 3360 3364 3377 3378 3378 3378 3378 3378 3385 3395 3417 3429 3434 3439 3439 3439 3439 3439 3448 3448 3449 3449 3449 3449 3453 3458 3466 3469 3469 3469 3469 3470 3470 3474 3485 3489 3493 3494 3494 3495 3495 3495 3495 3495 3495 3487 3434 3434 3434 3479 3556 3586 3600 3610 3610 3610 3607 3605 3605 3607 3609 3613 3618 3623 3624 3628 3629 3629 3629 3629 3629 3629 3624 3611 3601 3598 3596 3594 3591 3585 3585 3583 3580 3573 3564 3560 3559 3559 3560 3561 3571 3571 3571 3568 3565 3565 3564 3564 3564 3563 3554 3548 3541 3534 3523 3515 3515 3515 3523 3527 3527 3527 3525 3523 3521 3517 3511 3509 3509 3509 3512 3512 3512 3504 3497 3497 3497 3504 3513 3518 3523 3523 3523 3523 3523 3487 3421 3170 2852 2624 2524 2488 2473 2472 2469 2466 2465 2461 2457 2455 2449 2437 2429 2423 2418 2416 2413 2410 2408 2405 2401 2400 2400 2399 2398 2397 2397 2396 2394 2393 2392 2391 2391 2391 2390 2387 2387 2387 2387 2387 2389 2389 2389 2389 2390 2392 2395 2397 2398 2398 2398 2398 2389 2368 2338 2320 2295 2262 2237 2218 2206 2199 2196 2189 2181 2173 2167 2162 2157 2152 2146 2142 2137 2133 2129 2125 2121 2119 2117 2114 2109 2104 2098 2093 2088 2084 2081 2078 2074 2070 2068 2065 2061 2058 2055 2054 2053 2052 2051 2050 2048 2047 2046 2045 2044 2043 2041 2039 2037 2035 2033 2031 2028 2026 2023 2020 2018 2016 2013 2009 2006 2001 1998 1993 1988 1983 1979 1974 1970 1967 1965 1963 1960 1958 1956 1954 1952 1950 1949 1949 1949 1949 1949 1949 1949 1950 1950 1954 1956 1957 1960 1965 1970 1970 1973 1973 1973 1970 1965 1965 1965 1962 1960 0 0 0 0 0 0 0 0 1528 1513 1512 1510 1509 1509 1508 1508 1508 1506 1506 1504 1502 1501 1499 1498 1497 1495 1493 1490 1489 1486 1484 1482 1480 1479 1478 1477 1476 1475 1475 1475 1475 1474 1473 1473 1471 1471 1471 1472 1472 1473 1473 1474 1474 1473 1473 1473 1473 1473 1473 1471 1469 1468 1468 1468 1465 1462 1460 1459 1456 1454 1451 1449 1448 1446 1446 1445 1444 1444 1442 1441 1440 1440 1440 1440 1440 1440 1441 1441 1443 1444 1444 1444 1444 1444 1444 1444 1443 1442 1440 1439 1437 1434 1429 1424 1421 1420 1419 1417 1414 1413 1413 1413 1413 1413 1412 1411 1410 1410 1410 1411 1413 1413 1413 1414 1414 1415 1418 1419 1419 1419 1419 1419 1420 1420 1420 1420 1419 1419 1418 1417 1416 1415 1414 1413 1413 1412 1412 1412 1411 1410 1410 1409 1408 1407 1407 1406 1406 1405 1403 1402 1401 1401 1401 1401 1401 1401 1401 1401 1403 1403 1405 1410 1413 1416 1417 1418 1422 1422 1422 1418 1405 1397 1395 1395 1395 1395 1394 1394 1392 1392 1392 1393 1393 1394 1397 1397 1398 1398 1399 1400 1401 1402 1402 1403 1403 1404 1404 1404 1406 1407 1407 1407 1407 1408 1408 1410 1412 1412 1412 1399 0 0 0 0 0 0 0 0 0 0 0 0 0 0 0 0 0 0 0 0 0 0 0 0 0 0 0 0 0 0 0 0 0 0 0 0 0 0 0 0 0 0 0 0 0 0 0 0
2849 2849 2850 2912 3001 3059 3085 3092 3092 3086 3086 3092 3093 3104 3110 3110 3110 3115 3116 3124 3126 3127 3130 3132 3138 3140 3145 3146 3146 3147 3147 3155 3167 3181 3192 3204 3208 3208 3208 3202 3202 3202 3216 3219 3224 3232 3244 3250 3261 3267 3276 3287 3292 3299 3309 3312 3312 3315 3315 3315 3315 3320 3321 3323 3323 3336 3350 3359 3362 3364 3365 3381 3381 3381 3379 3379 3379 3386 3406 3428 3441 3448 3448 3448 3447 3447 3447 3449 3454 3455 3455 3456 3458 3458 3462 3470 3474 3474 3474 3474 3468 3468 3468 3468 3479 3493 3497 3498 3498 3498 3498 3498 3497 3496 3481 3417 3417 3417 3479 3555 3590 3607 3612 3616 3616 3612 3609 3609 3609 3612 3617 3621 3624 3627 3630 3631 3631 3631 3631 3630 3628 3624 3611 3601 3598 3596 3596 3591 3585 3585 3582 3580 3569 3562 3555 3554 3554 3554 3563 3574 3574 3574 3570 3567 3567 3565 3566 3566 3565 3557 3548 3542 3534 3523 3513 3513 3513 3522 3527 3529 3531 3532 3532 3531 3526 3516 3512 3512 3512 3515 3515 3515 3507 3500 3500 3500 3506 3513 3526 3526 3526 3526 3525 3516 3454 3385 3145 2808 2595 2509 2484 2473 2472 2469 2466 2465 2461 2457 2455 2449 2442 2433 2427 2420 2417 2415 2415 2412 2406 2405 2403 2401 2399 2399 2398 2398 2396 2396 2395 2394 2394 2393 2392 2391 2390 2389 2389 2389 2390 2391 2391 2392 2392 2392 2392 2397 2400 2401 2403 2403 2403 2390 2374 2345 2324 2300 2266 2238 2217 2206 2199 2194 2189 2181 2173 2166 2160 2155 2152 2146 2142 2137 2133 2129 2125 2121 2118 2116 2110 2106 2102 2098 2092 2087 2083 2080 2077 2073 2069 2066 2064 2061 2058 2055 2054 2053 2051 2051 2050 2048 2046 2046 2045 2045 2043 2042 2039 2037 2035 2033 2030 2028 2026 2023 2020 2017 2014 2010 2006 2002 1999 1995 1991 1987 1983 1978 1974 1970 1967 1964 1961 1959 1957 1954 1952 1950 1949 1947 1947 1947 1947 1947 1947 1947 1948 1948 1950 1952 1954 1957 1961 1965 1969 1969 1969 1968 1963 1959 1959 1958 1957 0 0 0 0 0 0 0 0 1527 1519 1513 1511 1509 1509 1508 1508 1508 1507 1505 1505 1504 1502 1501 1499 1498 1497 1495 1492 1489 1487 1486 1483 1481 1479 1477 1477 1475 1475 1474 1474 1474 1473 1473 1472 1471 1471 1471 1471 1471 1471 1472 1472 1473 1473 1473 1473 1473 1472 1472 1472 1471 1469 1468 1468 1467 1465 1461 1459 1458 1456 1454 1451 1449 1447 1445 1444 1443 1442 1442 1440 1439 1439 1439 1439 1438 1438 1438 1439 1440 1442 1443 1443 1443 1443 1443 1443 1443 1442 1442 1440 1439 1437 1433 1425 1420 1418 1417 1416 1413 1412 1411 1411 1411 1411 1410 1410 1408 1408 1408 1409 1410 1411 1411 1411 1412 1412 1412 1415 1418 1418 1418 1418 1418 1418 1418 1419 1419 1419 1418 1417 1417 1416 1415 1414 1413 1413 1412 1412 1412 1411 1411 1410 1409 1409 1408 1408 1407 1406 1405 1404 1403 1402 1402 1403 1403 1403 1403 1403 1403 1404 1404 1407 1416 1416 1418 1418 1413 1411 1402 1399 1399 1395 1392 1392 1392 1392 1392 1392 1391 1391 1391 1391 1392 1393 1394 1397 1398 1398 1398 1400 1400 1402 1403 1403 1404 1404 1406 1406 1407 1407 1408 1408 1409 1409 1409 1410 1418 1423 1423 1423 1406 0 0 0 0 0 0 0 0 0 0 0 0 0 0 0 0 0 0 0 0 0 0 0 0 0 0 0 0 0 0 0 0 0 0 0 0 0 0 0 0 0 0 0 0 0 0 0 0
2908 2909 2909 2953 3001 3059 3087 3087 3088 3088 3088 3089 3093 3104 3110 3115 3115 3116 3121 3124 3126 3128 3130 3133 3138 3140 3146 3148 3148 3148 3148 3157 3175 3190 3203 3213 3213 3213 3212 3202 3202 3202 3203 3208 3216 3216 3243 3250 3254 3265 3275 3280 3288 3295 3307 3315 3320 3320 3322 3322 3323 3325 3331 3332 3332 3343 3361 3367 3370 3370 3371 3383 3385 3385 3385 3385 3385 3393 3414 3431 3445 3451 3452 3452 3452 3451 3451 3451 3455 3463 3463 3463 3464 3464 3466 3470 3474 3475 3475 3475 3474 3468 3468 3468 3471 3483 3497 3498 3498 3498 3498 3498 3497 3496 3478 3415 3415 3415 3415 3539 3597 3608 3616 3617 3617 3617 3612 3612 3612 3615 3620 3623 3625 3627 3630 3633 3633 3633 3633 3630 3622 3615 3610 3600 3599 3597 3596 3591 3585 3584 3581 3577 3562 3559 3554 3553 3553 3553 3567 3578 3578 3578 3572 3569 3569 3566 3566 3566 3566 3563 3553 3543 3534 3523 3513 3513 3513 3522 3527 3530 3535 3535 3535 3535 3531 3524 3517 3515 3515 3515 3515 3515 3510 3505 3505 3505 3507 3513 3526 3526 3529 3529 3525 3516 3450 3374 3029 2758 2577 2488 2481 2474 2469 2469 2468 2465 2464 2457 2455 2450 2445 2438 2429 2423 2420 2417 2416 2414 2407 2405 2404 2403 2401 2400 2400 2398 2397 2396 2395 2395 2394 2394 2393 2392 2392 2392 2392 2392 2393 2393 2393 2393 2393 2394 2394 2397 2400 2402 2403 2403 2403 2392 2375 2354 2332 2314 2283 2238 2217 2206 2199 2194 2189 2181 2173 2166 2160 2155 2151 2146 2142 2137 2133 2129 2125 2121 2118 2116 2110 2106 2102 2097 2092 2087 2083 2080 2076 2071 2069 2066 2061 2058 2057 2055 2053 2053 2051 2051 2050 2048 2046 2046 2045 2045 2043 2042 2040 2038 2036 2034 2031 2028 2026 2022 2019 2015 2013 2009 2004 2000 1997 1993 1990 1986 1981 1978 1974 1970 1967 1964 1961 1958 1956 1954 1952 1949 1948 1946 1946 1945 1945 1945 1945 1945 1946 1947 1947 1949 1951 1955 1958 1960 1963 1963 1963 1962 1956 1955 1951 1949 0 0 0 0 0 0 0 1547 1528 1516 1516 1513 1510 1508 1508 1507 1507 1506 1505 1505 1505 1504 1502 1501 1499 1498 1497 1494 1492 1489 1487 1485 1482 1481 1478 1476 1475 1475 1473 1473 1473 1473 1473 1473 1471 1471 1469 1469 1469 1469 1470 1471 1471 1471 1471 1471 1471 1471 1471 1471 1471 1471 1469 1468 1468 1467 1464 1461 1458 1456 1454 1452 1449 1447 1446 1445 1443 1442 1440 1440 1439 1438 1438 1438 1438 1438 1438 1438 1438 1439 1439 1442 1442 1442 1442 1442 1442 1442 1442 1441 1440 1438 1434 1429 1424 1418 1417 1415 1414 1413 1411 1410 1410 1410 1409 1408 1407 1406 1406 1406 1407 1408 1408 1408 1409 1409 1409 1410 1411 1415 1417 1417 1417 1417 1417 1418 1418 1418 1418 1418 1417 1417 1416 1415 1414 1413 1413 1413 1412 1412 1411 1411 1411 1410 1409 1409 1408 1407 1407 1406 1404 1404 1403 1403 1403 1403 1404 1405 1405 1405 1406 1407 1409 1416 1416 1416 1413 1410 1402 1395 1393 1393 1390 1386 1386 1386 1389 1389 1389 1389 1389 1390 1390 1392 1393 1394 1396 1398 1398 1399 1400 1401 1403 1403 1404 1405 1409 1409 1410 1410 1410 1411 1411 1411 1412 1413 1416 1426 1432 1432 1432 1407 0 0 0 0 0 0 0 0 0 0 0 0 0 0 0 0 0 0 0 0 0 0 0 0 0 0 0 0 0 0 0 0 0 0 0 0 0 0 0 0 0 0 0 0 0 0 0 0
2911 2911 2929 2956 3003 3059 3088 3088 3088 3088 3088 3089 3094 3104 3108 3113 3115 3116 3121 3124 3126 3130 3139 3145 3149 3149 3149 3149 3149 3151 3153 3161 3180 3194 3204 3220 3237 3237 3237 3218 3217 3203 3203 3208 3216 3216 3242 3247 3250 3264 3269 3271 3273 3282 3306 3315 3320 3322 3323 3323 3332 3339 3346 3351 3354 3357 3371 3372 3372 3374 3378 3389 3394 3396 3396 3397 3397 3400 3417 3435 3449 3452 3456 3456 3456 3455 3455 3455 3462 3472 3472 3472 3469 3469 3469 3473 3475 3476 3476 3476 3476 3468 3468 3468 3471 3483 3495 3497 3498 3498 3501 3504 3504 3504 3477 3415 3402 3402 3402 3532 3604 3608 3616 3621 3621 3621 3618 3618 3618 3618 3622 3623 3625 3627 3630 3634 3634 3634 3633 3629 3622 3615 3610 3600 3599 3597 3597 3591 3585 3584 3580 3575 3560 3550 3545 3545 3545 3553 3568 3580 3583 3584 3584 3583 3574 3574 3569 3569 3569 3567 3559 3554 3546 3531 3519 3519 3519 3524 3527 3532 3537 3543 3543 3543 3541 3535 3530 3519 3519 3518 3518 3518 3516 3512 3510 3510 3510 3513 3526 3526 3526 3525 3525 3516 3447 3297 2987 2710 2531 2488 2481 2474 2472 2471 2468 2465 2465 2458 2455 2450 2447 2439 2432 2424 2420 2417 2417 2415 2411 2406 2405 2403 2402 2401 2401 2399 2398 2397 2396 2396 2395 2394 2393 2393 2392 2392 2392 2393 2393 2394 2395 2396 2396 2396 2397 2398 2400 2402 2404 2404 2404 2395 2380 2364 2344 2320 2296 2248 2217 2206 2199 2194 2188 2181 2174 2165 2159 2154 2151 2146 2142 2138 2133 2129 2125 2121 2119 2115 2110 2106 2102 2097 2091 2086 2082 2079 2074 2070 2068 2064 2060 2058 2056 2055 2053 2052 2051 2051 2049 2048 2047 2046 2045 2045 2043 2042 2041 2038 2036 2034 2031 2027 2025 2021 2018 2014 2011 2008 2003 1999 1995 1992 1989 1985 1981 1978 1974 1971 1967 1964 1960 1958 1955 1953 1950 1948 1946 1945 1944 1943 1943 1943 1943 1943 1944 1945 1945 1946 1948 1954 1956 1957 1957 1957 1954 1950 1950 1945 0 0 0 0 0 0 0 1539 1537 1524 1517 1516 1515 1513 1510 1507 1507 1506 1506 1505 1505 1504 1504 1503 1502 1501 1499 1497 1496 1494 1492 1489 1487 1485 1482 1480 1478 1476 1475 1474 1472 1471 1471 1471 1471 1471 1471 1470 1468 1468 1468 1468 1469 1469 1470 1470 1470 1470 1470 1470 1470 1470 1469 1469 1468 1468 1468 1464 1462 1460 1458 1456 1453 1450 1449 1447 1446 1444 1443 1442 1440 1440 1439 1438 1437 1437 1437 1437 1438 1438 1438 1438 1439 1440 1440 1441 1442 1442 1442 1442 1441 1440 1439 1436 1429 1425 1419 1416 1415 1415 1414 1413 1411 1410 1410 1409 1409 1408 1407 1406 1405 1405 1405 1406 1406 1407 1407 1407 1407 1408 1411 1415 1415 1416 1416 1416 1417 1418 1418 1418 1418 1418 1417 1417 1416 1415 1414 1413 1413 1413 1412 1412 1412 1411 1411 1410 1410 1409 1408 1408 1407 1406 1404 1404 1404 1404 1404 1404 1405 1405 1405 1406 1406 1407 1409 1416 1416 1416 1411 1408 1402 1393 1390 1387 1386 1384 1384 1384 1386 1386 1387 1387 1387 1389 1389 1391 1393 1394 1396 1398 1398 1400 1401 1402 1404 1405 1405 1408 1412 1414 1414 1414 1414 1415 1415 1415 1417 1418 1428 1429 1432 1440 1440 1440 0 0 0 0 0 0 0 0 0 0 0 0 0 0 0 0 0 0 0 0 0 0 0 0 0 0 0 0 0 0 0 0 0 0 0 0 0 0 0 0 0 0 0 0 0 0 0 0
2930 2930 2932 2958 3003 3059 3070 3078 3088 3089 3089 3089 3094 3104 3107 3111 3115 3115 3120 3121 3126 3128 3140 3154 3154 3155 3155 3154 3154 3155 3156 3163 3182 3196 3209 3228 3244 3249 3249 3249 3233 3229 3217 3216 3216 3216 3242 3247 3250 3260 3266 3267 3268 3271 3306 3315 3320 3322 3323 3328 3336 3345 3351 3353 3354 3359 3373 3374 3375 3378 3385 3394 3400 3404 3404 3404 3405 3406 3423 3438 3452 3457 3460 3464 3465 3465 3464 3464 3465 3476 3477 3477 3477 3474 3474 3474 3475 3478 3478 3478 3477 3473 3473 3473 3473 3483 3494 3495 3497 3498 3501 3506 3506 3506 3474 3417 3402 3402 3402 3532 3605 3610 3618 3621 3624 3624 3624 3624 3624 3623 3623 3624 3625 3627 3630 3634 3634 3634 3633 3629 3622 3615 3610 3600 3599 3599 3597 3591 3587 3584 3580 3575 3560 3550 3545 3545 3545 3553 3569 3581 3584 3586 3586 3586 3583 3582 3574 3569 3569 3567 3565 3562 3553 3540 3534 3527 3527 3527 3527 3530 3538 3546 3546 3546 3543 3541 3532 3527 3522 3520 3520 3521 3522 3530 3530 3530 3530 3531 3530 3525 3525 3525 3524 3510 3443 3195 2874 2623 2517 2488 2481 2474 2473 2472 2468 2468 2468 2461 2455 2453 2448 2441 2434 2427 2420 2418 2418 2417 2415 2410 2406 2405 2402 2402 2401 2399 2398 2397 2397 2397 2396 2395 2394 2393 2393 2393 2394 2394 2394 2395 2396 2397 2399 2399 2399 2399 2401 2402 2404 2406 2406 2406 2390 2372 2349 2329 2305 2258 2222 2206 2200 2194 2188 2181 2174 2165 2158 2154 2151 2146 2142 2139 2136 2131 2125 2121 2118 2114 2109 2106 2101 2096 2088 2084 2080 2074 2069 2068 2066 2063 2060 2058 2056 2055 2054 2052 2052 2051 2049 2048 2047 2046 2045 2045 2043 2042 2041 2039 2037 2034 2030 2027 2023 2020 2017 2014 2011 2008 2003 1999 1995 1992 1989 1985 1981 1978 1974 1971 1967 1963 1959 1956 1954 1951 1948 1947 1945 1943 1942 1942 1942 1941 1941 1941 1941 1943 1943 1944 1945 1949 1952 1952 1952 1948 1941 1940 1938 0 0 0 0 0 0 0 1539 1525 1516 1515 1515 1515 1514 1513 1509 1507 1506 1506 1505 1505 1505 1504 1504 1503 1502 1501 1499 1497 1496 1494 1492 1489 1487 1485 1482 1480 1478 1476 1475 1474 1471 1471 1470 1469 1469 1469 1469 1468 1467 1467 1467 1467 1468 1469 1469 1469 1469 1469 1469 1469 1469 1469 1469 1468 1468 1467 1466 1463 1461 1460 1458 1456 1452 1449 1448 1447 1446 1444 1443 1442 1440 1440 1439 1438 1437 1437 1437 1437 1437 1438 1438 1438 1439 1440 1440 1440 1441 1442 1442 1442 1441 1439 1436 1430 1426 1421 1419 1416 1415 1415 1414 1414 1411 1410 1410 1409 1408 1408 1407 1406 1405 1403 1403 1403 1405 1405 1405 1405 1405 1405 1405 1410 1413 1414 1414 1416 1417 1418 1418 1418 1418 1418 1417 1416 1415 1415 1414 1414 1413 1413 1413 1412 1412 1411 1411 1410 1410 1409 1409 1408 1408 1406 1405 1404 1404 1404 1405 1405 1406 1406 1406 1406 1406 1407 1409 1409 1409 1408 1404 1398 1393 1393 1389 1387 1386 1383 1383 1383 1384 1384 1385 1387 1387 1388 1389 1390 1393 1394 1396 1398 1400 1402 1404 1406 1408 1408 1408 1411 1413 1418 1418 1419 1419 1419 1419 1419 1421 1422 1433 1434 1435 1440 1440 1440 1427 0 0 0 0 0 0 0 0 0 0 0 0 0 0 0 0 0 0 0 0 0 0 0 0 0 0 0 0 0 0 0 0 0 0 0 0 0 0 0 0 0 0 0 0 0 0 0
2930 2930 2937 2998 3031 3059 3070 3085 3088 3089 3089 3089 3094 3104 3107 3111 3115 3119 3121 3124 3131 3133 3142 3161 3161 3161 3157 3157 3157 3159 3161 3174 3189 3196 3210 3229 3245 3256 3257 3260 3260 3257 3221 3221 3221 3225 3235 3242 3247 3249 3260 3264 3264 3266 3294 3315 3318 3322 3329 3330 3338 3348 3353 3354 3356 3360 3376 3381 3383 3390 3395 3403 3405 3410 3411 3415 3416 3419 3431 3447 3456 3460 3462 3467 3469 3469 3467 3467 3469 3484 3484 3484 3483 3481 3477 3479 3478 3478 3479 3480 3481 3486 3483 3483 3486 3489 3495 3495 3498 3501 3501 3506 3506 3506 3473 3415 3402 3402 3402 3532 3605 3612 3618 3621 3624 3624 3625 3625 3625 3625 3625 3625 3625 3627 3630 3634 3635 3635 3635 3630 3624 3621 3618 3606 3602 3602 3601 3598 3590 3588 3580 3577 3562 3550 3545 3545 3545 3553 3571 3582 3585 3588 3596 3599 3599 3599 3586 3577 3572 3570 3570 3564 3559 3552 3545 3544 3543 3537 3537 3537 3538 3546 3546 3546 3543 3541 3533 3532 3525 3522 3522 3522 3528 3530 3530 3530 3530 3531 3530 3525 3525 3525 3523 3504 3422 3184 2845 2596 2505 2488 2482 2477 2476 2474 2474 2470 2470 2464 2458 2454 2448 2442 2436 2430 2425 2423 2422 2422 2418 2410 2407 2406 2404 2402 2400 2399 2398 2398 2397 2397 2397 2396 2395 2395 2395 2395 2395 2395 2395 2396 2398 2398 2400 2400 2401 2401 2401 2402 2405 2407 2407 2407 2400 2383 2359 2332 2310 2274 2229 2209 2204 2195 2188 2181 2174 2165 2160 2154 2150 2146 2142 2139 2136 2131 2125 2121 2117 2114 2109 2106 2100 2095 2087 2083 2076 2071 2069 2066 2063 2062 2060 2058 2056 2055 2054 2053 2052 2051 2049 2048 2047 2046 2045 2045 2043 2042 2041 2039 2037 2034 2030 2027 2023 2020 2017 2014 2010 2007 2003 1999 1995 1992 1989 1985 1981 1978 1974 1971 1966 1962 1958 1955 1952 1949 1947 1945 1942 1941 1939 1939 1939 1939 1940 1940 1940 1940 1940 1941 1943 1945 1945 1945 1943 1939 1933 1929 0 0 0 0 0 0 1552 1533 1521 1515 1515 1514 1515 1515 1514 1513 1510 1508 1506 1506 1505 1505 1505 1504 1504 1503 1503 1501 1499 1498 1496 1494 1492 1489 1487 1485 1482 1480 1478 1476 1474 1474 1471 1471 1470 1468 1467 1467 1467 1466 1466 1466 1466 1466 1467 1468 1468 1469 1469 1469 1469 1469 1469 1469 1469 1468 1468 1467 1465 1463 1461 1460 1458 1456 1452 1449 1448 1447 1446 1444 1443 1442 1440 1439 1438 1438 1437 1436 1436 1436 1437 1437 1438 1438 1439 1440 1440 1440 1442 1442 1442 1442 1440 1437 1433 1430 1426 1421 1419 1416 1416 1415 1415 1414 1412 1410 1409 1409 1408 1407 1406 1406 1404 1403 1403 1403 1403 1403 1403 1403 1403 1403 1403 1405 1409 1411 1414 1416 1417 1417 1418 1418 1418 1418 1417 1416 1415 1415 1414 1414 1414 1413 1412 1412 1412 1412 1411 1410 1410 1409 1409 1409 1408 1407 1406 1405 1405 1405 1405 1405 1406 1406 1406 1405 1405 1405 1406 1406 1406 1404 1400 1395 1390 1389 1388 1386 1384 1383 1383 1383 1383 1383 1384 1385 1386 1388 1388 1390 1392 1394 1396 1399 1404 1406 1408 1409 1409 1410 1413 1415 1420 1420 1421 1423 1424 1424 1427 1427 1437 1437 1437 1438 1446 1448 1448 1448 1427 0 0 0 0 0 0 0 0 0 0 0 0 0 0 0 0 0 0 0 0 0 0 0 0 0 0 0 0 0 0 0 0 0 0 0 0 0 0 0 0 0 0 0 0 0 0 0
2930 2930 2988 3058 3062 3070 3083 3085 3089 3093 3099 3100 3102 3105 3107 3111 3115 3120 3124 3124 3133 3134 3158 3163 3163 3163 3163 3163 3167 3171 3172 3187 3198 3207 3216 3231 3245 3256 3268 3268 3268 3263 3250 3234 3234 3234 3237 3243 3248 3249 3259 3260 3262 3264 3294 3315 3318 3322 3329 3330 3341 3354 3355 3356 3361 3365 3385 3402 3402 3405 3405 3406 3407 3411 3414 3425 3427 3429 3441 3449 3458 3461 3468 3468 3469 3469 3469 3469 3473 3484 3484 3484 3488 3488 3491 3497 3505 3505 3505 3491 3491 3491 3495 3495 3497 3499 3497 3499 3500 3501 3501 3505 3505 3505 3473 3415 3415 3415 3415 3552 3615 3618 3620 3620 3624 3625 3625 3627 3626 3625 3625 3626 3626 3627 3630 3634 3635 3635 3635 3630 3629 3628 3623 3616 3609 3607 3607 3602 3599 3598 3591 3583 3577 3569 3561 3561 3561 3569 3575 3583 3591 3593 3604 3604 3604 3604 3599 3589 3581 3578 3575 3567 3560 3560 3557 3557 3557 3537 3537 3537 3538 3546 3546 3546 3543 3541 3536 3536 3535 3531 3530 3530 3530 3530 3530 3530 3530 3531 3532 3525 3525 3525 3522 3497 3421 3168 2824 2585 2496 2488 2484 2480 2477 2476 2476 2474 2470 2465 2459 2454 2448 2442 2437 2434 2429 2428 2427 2425 2419 2412 2407 2406 2404 2402 2400 2399 2399 2399 2398 2397 2397 2397 2397 2397 2397 2397 2397 2398 2398 2398 2399 2400 2402 2402 2403 2403 2403 2403 2405 2407 2407 2407 2406 2390 2363 2336 2311 2281 2240 2215 2205 2195 2187 2179 2173 2165 2160 2154 2150 2145 2142 2139 2136 2131 2125 2121 2117 2110 2108 2104 2098 2091 2083 2080 2074 2070 2068 2064 2063 2061 2060 2058 2056 2055 2054 2053 2052 2050 2049 2048 2047 2046 2045 2045 2043 2042 2041 2039 2037 2033 2029 2025 2022 2020 2016 2013 2010 2007 2004 2000 1997 1993 1989 1985 1981 1978 1973 1969 1965 1961 1957 1953 1950 1947 1945 1942 1940 1939 1938 1938 1938 1938 1939 1939 1939 1939 1939 1939 1939 1940 1940 1940 1936 1934 1922 0 0 0 0 0 0 1549 1529 1521 1516 1515 1514 1514 1514 1514 1514 1512 1510 1508 1507 1506 1505 1505 1505 1504 1504 1503 1503 1501 1499 1498 1497 1494 1493 1490 1488 1485 1482 1478 1477 1476 1474 1472 1471 1471 1470 1468 1466 1465 1465 1465 1465 1466 1466 1466 1467 1468 1468 1469 1469 1469 1469 1469 1469 1469 1469 1468 1468 1466 1464 1463 1461 1459 1458 1456 1452 1449 1448 1447 1446 1444 1443 1442 1440 1439 1439 1438 1437 1436 1436 1436 1436 1437 1438 1438 1439 1440 1440 1440 1442 1442 1442 1442 1439 1436 1433 1430 1426 1421 1419 1416 1416 1416 1415 1414 1412 1410 1409 1409 1408 1407 1406 1406 1404 1403 1403 1403 1403 1403 1403 1401 1401 1401 1402 1403 1405 1409 1412 1415 1417 1417 1417 1417 1417 1417 1416 1416 1415 1415 1414 1414 1413 1413 1413 1412 1412 1412 1411 1411 1410 1410 1409 1409 1408 1408 1406 1406 1405 1405 1405 1405 1405 1405 1405 1404 1402 1402 1402 1402 1402 1401 1398 1391 1389 1389 1387 1386 1384 1384 1383 1383 1383 1383 1383 1384 1386 1387 1388 1390 1392 1395 1397 1401 1407 1407 1410 1411 1411 1412 1418 1423 1423 1424 1427 1429 1431 1431 1433 1433 1439 1440 1442 1443 1446 1449 1449 1446 1434 0 0 0 0 0 0 0 0 0 0 0 0 0 0 0 0 0 0 0 0 0 0 0 0 0 0 0 0 0 0 0 0 0 0 0 0 0 0 0 0 0 0 0 0 0 0 0
2964 2964 3040 3071 3072 3078 3083 3086 3093 3100 3100 3100 3103 3107 3108 3114 3115 3122 3124 3135 3147 3161 3173 3173 3173 3168 3168 3168 3174 3182 3196 3203 3211 3220 3230 3234 3245 3253 3265 3265 3265 3263 3254 3251 3242 3242 3242 3251 3255 3255 3259 3260 3264 3266 3294 3315 3318 3322 3330 3339 3352 3355 3356 3357 3366 3382 3397 3417 3417 3417 3417 3414 3414 3414 3415 3425 3432 3441 3447 3456 3458 3461 3468 3471 3471 3473 3475 3476 3479 3487 3487 3487 3489 3489 3495 3498 3509 3511 3511 3511 3508 3508 3508 3508 3508 3505 3505 3505 3506 3506 3507 3507 3507 3504 3473 3414 3414 3414 3427 3576 3619 3620 3620 3621 3625 3625 3626 3626 3626 3627 3627 3627 3627 3627 3631 3635 3636 3637 3638 3638 3637 3637 3630 3625 3617 3613 3612 3611 3611 3608 3608 3607 3605 3596 3588 3576 3576 3576 3584 3587 3591 3594 3604 3604 3604 3604 3603 3592 3584 3579 3576 3569 3561 3561 3559 3558 3558 3542 3539 3539 3536 3539 3539 3539 3539 3539 3538 3537 3537 3536 3535 3530 3528 3528 3528 3528 3528 3534 3535 3525 3525 3525 3504 3469 3392 3091 2758 2575 2495 2487 2486 2482 2480 2478 2477 2474 2470 2465 2459 2454 2448 2442 2437 2434 2433 2432 2429 2426 2420 2413 2409 2408 2406 2402 2400 2400 2400 2399 2399 2399 2398 2398 2398 2398 2398 2399 2399 2399 2399 2400 2401 2401 2403 2403 2403 2404 2405 2405 2405 2408 2411 2411 2411 2396 2377 2340 2316 2292 2259 2219 2206 2197 2187 2179 2173 2165 2160 2156 2149 2144 2140 2138 2134 2131 2125 2117 2111 2107 2105 2100 2092 2086 2083 2079 2073 2070 2065 2064 2062 2061 2059 2058 2056 2055 2054 2052 2052 2050 2049 2047 2047 2046 2045 2044 2042 2041 2041 2039 2036 2033 2028 2024 2022 2020 2016 2013 2010 2007 2004 2000 1997 1993 1989 1985 1981 1977 1972 1967 1964 1961 1956 1952 1949 1946 1943 1941 1940 1938 1938 1937 1937 1937 1937 1937 1937 1937 1936 1935 1935 1935 1935 1935 1929 1921 0 0 0 0 0 0 1544 1530 1524 1521 1516 1514 1513 1513 1513 1513 1513 1511 1509 1508 1507 1506 1506 1505 1505 1504 1504 1504 1503 1502 1500 1498 1497 1495 1493 1490 1488 1486 1483 1478 1476 1475 1474 1472 1471 1470 1470 1468 1466 1464 1464 1464 1464 1465 1465 1466 1467 1468 1468 1468 1469 1469 1469 1470 1470 1470 1469 1469 1468 1466 1464 1462 1460 1459 1457 1456 1452 1449 1448 1447 1446 1445 1443 1442 1440 1439 1439 1438 1438 1437 1436 1436 1436 1437 1438 1438 1439 1440 1441 1441 1443 1443 1443 1441 1439 1436 1433 1430 1428 1423 1421 1416 1416 1416 1415 1414 1412 1410 1408 1408 1408 1407 1406 1405 1404 1403 1402 1402 1402 1402 1402 1401 1401 1401 1402 1403 1405 1407 1411 1412 1415 1416 1417 1417 1417 1417 1416 1416 1415 1415 1414 1414 1413 1413 1413 1413 1412 1412 1412 1411 1411 1410 1409 1409 1408 1408 1407 1406 1405 1405 1405 1405 1405 1405 1404 1404 1402 1400 1400 1400 1397 1397 1394 1391 1389 1388 1387 1387 1384 1384 1384 1383 1383 1383 1383 1384 1386 1387 1388 1390 1393 1395 1398 1402 1407 1408 1412 1412 1413 1417 1424 1427 1427 1428 1435 1438 1440 1442 1442 1445 1451 1463 1468 1468 1468 1465 1448 1446 1440 0 0 0 0 0 0 0 0 0 0 0 0 0 0 0 0 0 0 0 0 0 0 0 0 0 0 0 0 0 0 0 0 0 0 0 0 0 0 0 0 0 0 0 0 0 0 0
2992 2992 3040 3071 3085 3085 3091 3093 3098 3101 3101 3101 3104 3109 3120 3123 3124 3125 3137 3156 3177 3187 3187 3187 3176 3175 3175 3175 3192 3203 3215 3226 3233 3236 3238 3243 3246 3250 3261 3263 3263 3263 3263 3259 3257 3257 3253 3253 3259 3259 3259 3260 3267 3272 3297 3318 3321 3327 3335 3347 3356 3364 3366 3368 3379 3395 3417 3427 3427 3427 3424 3419 3418 3418 3418 3425 3434 3441 3448 3457 3464 3469 3474 3474 3474 3474 3475 3477 3480 3487 3487 3489 3490 3490 3497 3499 3513 3518 3520 3520 3520 3520 3520 3518 3518 3515 3515 3512 3510 3510 3508 3504 3504 3503 3474 3414 3414 3414 3465 3597 3620 3621 3623 3625 3625 3625 3626 3626 3626 3629 3629 3629 3629 3629 3631 3636 3640 3643 3644 3644 3644 3641 3636 3631 3621 3617 3617 3617 3617 3618 3622 3622 3622 3618 3601 3582 3582 3582 3588 3589 3593 3596 3604 3604 3605 3605 3605 3593 3584 3580 3576 3570 3569 3569 3569 3569 3569 3558 3544 3540 3539 3539 3539 3539 3539 3539 3539 3539 3537 3537 3535 3530 3528 3528 3528 3528 3528 3534 3535 3527 3527 3513 3481 3442 3344 3010 2683 2532 2488 2487 2486 2482 2482 2478 2477 2474 2469 2465 2459 2453 2446 2441 2437 2435 2433 2432 2430 2426 2420 2415 2411 2410 2408 2404 2402 2400 2400 2400 2400 2399 2399 2399 2399 2399 2400 2400 2400 2401 2401 2402 2403 2403 2405 2405 2405 2406 2406 2406 2407 2409 2411 2411 2411 2397 2380 2357 2325 2303 2279 2246 2216 2202 2187 2179 2173 2168 2164 2156 2148 2142 2139 2134 2132 2128 2120 2114 2109 2106 2102 2096 2089 2085 2082 2077 2072 2068 2065 2064 2062 2061 2059 2058 2057 2055 2054 2053 2052 2050 2049 2047 2047 2046 2044 2043 2042 2040 2039 2037 2035 2031 2027 2024 2021 2020 2016 2013 2010 2007 2004 2000 1997 1993 1989 1985 1979 1975 1970 1965 1962 1959 1955 1951 1947 1945 1943 1941 1938 1938 1935 1933 1931 1931 1931 1934 1936 1936 1936 1934 1932 1932 1932 1930 0 0 0 0 0 0 0 1539 1533 1527 1523 1521 1516 1514 1513 1513 1513 1513 1512 1511 1509 1508 1507 1506 1506 1506 1505 1504 1504 1504 1503 1502 1501 1499 1497 1495 1494 1490 1488 1487 1483 1478 1476 1475 1474 1472 1471 1470 1469 1468 1466 1464 1464 1464 1464 1465 1465 1465 1467 1468 1468 1469 1469 1469 1470 1470 1470 1470 1470 1469 1468 1466 1464 1463 1460 1459 1455 1455 1452 1450 1448 1447 1446 1445 1444 1442 1440 1439 1439 1439 1438 1437 1437 1437 1437 1437 1438 1438 1439 1440 1442 1442 1443 1443 1443 1440 1439 1436 1434 1432 1432 1427 1421 1416 1416 1414 1414 1413 1411 1409 1408 1407 1407 1405 1405 1404 1404 1403 1402 1401 1401 1400 1398 1398 1398 1400 1400 1403 1405 1407 1411 1412 1415 1416 1417 1417 1417 1417 1416 1416 1415 1415 1415 1414 1414 1414 1413 1413 1412 1412 1412 1412 1411 1410 1409 1409 1408 1408 1407 1406 1405 1405 1405 1405 1405 1405 1404 1403 1402 1400 1400 1399 1396 1395 1393 1391 1389 1388 1387 1386 1385 1385 1385 1385 1384 1384 1384 1384 1386 1387 1388 1390 1392 1396 1398 1402 1407 1409 1413 1417 1421 1426 1428 1429 1433 1436 1444 1450 1458 1462 1465 1466 1470 1478 1478 1478 1478 1470 1449 1448 1440 0 0 0 0 0 0 0 0 0 0 0 0 0 0 0 0 0 0 0 0 0 0 0 0 0 0 0 0 0 0 0 0 0 0 0 0 0 0 0 0 0 0 0 0 0 0 0
2996 2996 3040 3071 3085 3093 3103 3104 3104 3104 3104 3104 3105 3117 3128 3132 3139 3139 3143 3156 3177 3195 3195 3195 3192 3188 3188 3192 3205 3223 3233 3243 3247 3248 3248 3248 3250 3251 3252 3254 3261 3263 3265 3265 3265 3266 3266 3285 3285 3285 3285 3285 3288 3305 3331 3333 3342 3346 3347 3351 3372 3385 3387 3389 3396 3412 3426 3438 3438 3438 3435 3424 3421 3421 3421 3427 3436 3442 3449 3459 3467 3474 3477 3480 3480 3481 3481 3481 3484 3491 3493 3494 3500 3518 3518 3522 3524 3527 3527 3527 3527 3525 3525 3525 3523 3521 3518 3518 3516 3516 3509 3504 3502 3501 3476 3437 3437 3437 3477 3598 3620 3624 3626 3628 3628 3628 3626 3626 3626 3631 3631 3631 3631 3631 3632 3637 3641 3643 3644 3644 3644 3644 3643 3635 3629 3622 3618 3618 3618 3624 3629 3629 3629 3620 3604 3588 3588 3588 3588 3589 3593 3597 3598 3600 3604 3604 3604 3594 3585 3583 3576 3570 3570 3570 3576 3576 3576 3576 3559 3548 3539 3539 3539 3539 3540 3540 3540 3540 3538 3537 3535 3530 3528 3528 3528 3528 3530 3535 3535 3530 3530 3513 3481 3419 3268 2920 2641 2525 2487 2487 2486 2482 2482 2479 2476 2472 2469 2464 2460 2452 2446 2441 2437 2435 2434 2432 2431 2426 2420 2415 2412 2411 2411 2406 2402 2400 2400 2400 2400 2400 2399 2399 2399 2400 2401 2401 2401 2401 2402 2402 2403 2405 2406 2407 2407 2407 2407 2407 2409 2409 2411 2411 2411 2398 2382 2364 2339 2318 2296 2266 2228 2209 2196 2183 2176 2171 2164 2156 2148 2142 2137 2134 2130 2124 2119 2114 2109 2106 2099 2093 2088 2084 2080 2075 2071 2068 2065 2063 2062 2061 2059 2058 2057 2055 2054 2053 2052 2050 2049 2048 2047 2045 2044 2043 2041 2039 2038 2037 2034 2030 2027 2022 2021 2018 2015 2011 2008 2005 2002 1999 1996 1993 1987 1982 1978 1973 1969 1965 1961 1957 1952 1948 1945 1943 1941 1937 1936 1934 1932 1930 1927 1927 1927 1930 1934 1934 1934 1932 1931 1929 1922 0 0 0 0 0 0 0 1534 1532 1529 1527 1523 1519 1517 1517 1515 1514 1513 1513 1511 1510 1509 1508 1507 1507 1506 1506 1505 1505 1504 1504 1503 1502 1501 1500 1498 1496 1494 1493 1490 1488 1486 1481 1476 1475 1474 1472 1470 1470 1469 1468 1466 1464 1464 1464 1464 1465 1465 1465 1466 1467 1467 1469 1469 1470 1470 1470 1470 1470 1470 1469 1468 1466 1464 1463 1460 1459 1455 1455 1453 1450 1449 1449 1447 1446 1444 1441 1440 1439 1439 1439 1438 1437 1437 1437 1438 1438 1438 1438 1439 1441 1442 1442 1442 1442 1442 1440 1438 1436 1434 1432 1432 1428 1421 1417 1414 1413 1412 1412 1410 1409 1408 1407 1405 1405 1404 1403 1403 1403 1401 1401 1400 1398 1397 1397 1397 1400 1400 1403 1406 1407 1411 1412 1415 1416 1417 1417 1417 1417 1417 1416 1415 1415 1415 1414 1414 1414 1413 1413 1412 1412 1412 1412 1411 1410 1409 1409 1408 1408 1407 1406 1405 1405 1405 1404 1404 1404 1403 1402 1401 1400 1399 1398 1396 1395 1393 1391 1389 1388 1387 1386 1385 1385 1385 1385 1384 1384 1384 1384 1386 1387 1388 1390 1392 1396 1398 1402 1407 1409 1413 1423 1425 1431 1433 1435 1437 1441 1447 1456 1460 1467 1468 1470 1474 1482 1482 1482 1482 1480 1463 1450 1440 0 0 0 0 0 0 0 0 0 0 0 0 0 0 0 0 0 0 0 0 0 0 0 0 0 0 0 0 0 0 0 0 0 0 0 0 0 0 0 0 0 0 0 0 0 0 0
3002 3002 3040 3071 3093 3094 3100 3109 3109 3109 3109 3109 3109 3119 3140 3148 3148 3149 3152 3158 3177 3198 3204 3205 3206 3209 3209 3213 3219 3228 3233 3246 3253 3255 3255 3255 3253 3253 3253 3254 3261 3265 3267 3277 3282 3288 3306 3312 3313 3313 3315 3315 3315 3327 3354 3358 3366 3372 3374 3375 3392 3403 3406 3406 3411 3422 3435 3442 3445 3445 3445 3435 3425 3425 3425 3427 3439 3445 3452 3461 3467 3475 3480 3482 3484 3486 3488 3492 3492 3495 3499 3504 3517 3520 3523 3527 3540 3540 3540 3538 3535 3528 3528 3527 3527 3524 3524 3522 3521 3518 3510 3504 3502 3501 3484 3455 3455 3455 3505 3598 3620 3624 3631 3631 3631 3630 3629 3629 3629 3633 3633 3633 3632 3632 3632 3638 3642 3644 3645 3645 3646 3646 3645 3636 3629 3625 3618 3618 3618 3627 3632 3632 3632 3621 3604 3588 3588 3588 3588 3592 3596 3597 3598 3600 3604 3604 3604 3594 3590 3585 3576 3571 3571 3571 3576 3580 3580 3580 3573 3555 3547 3541 3541 3541 3543 3543 3543 3540 3540 3538 3535 3530 3530 3530 3530 3530 3531 3535 3535 3531 3531 3513 3481 3419 3191 2855 2606 2514 2487 2486 2483 2482 2482 2480 2476 2472 2469 2464 2460 2452 2446 2441 2437 2435 2434 2433 2430 2426 2421 2416 2412 2411 2411 2406 2402 2400 2400 2400 2400 2400 2400 2400 2400 2401 2402 2402 2402 2402 2403 2404 2404 2406 2407 2408 2408 2408 2408 2410 2410 2410 2410 2410 2410 2402 2385 2369 2349 2330 2310 2282 2241 2218 2203 2190 2181 2173 2164 2155 2147 2142 2136 2132 2128 2124 2119 2113 2109 2104 2098 2092 2087 2082 2079 2075 2071 2068 2065 2064 2062 2061 2059 2058 2057 2055 2054 2053 2052 2051 2050 2048 2047 2045 2044 2043 2041 2039 2037 2036 2034 2030 2026 2021 2019 2017 2014 2011 2007 2003 2000 1998 1994 1991 1987 1980 1976 1972 1968 1963 1959 1955 1949 1945 1944 1942 1940 1936 1933 1931 1929 1926 1925 1925 1925 1927 1927 1927 1928 1927 1927 1926 0 0 0 0 0 0 1543 1529 1528 1527 1526 1525 1523 1520 1517 1517 1516 1514 1513 1512 1511 1510 1509 1508 1507 1507 1506 1506 1505 1505 1504 1504 1503 1502 1501 1500 1498 1497 1495 1494 1492 1488 1486 1483 1478 1477 1475 1472 1470 1469 1469 1468 1466 1464 1464 1464 1464 1465 1465 1466 1466 1466 1467 1469 1469 1470 1470 1471 1471 1471 1470 1470 1468 1467 1465 1464 1462 1459 1455 1455 1453 1451 1449 1449 1449 1446 1445 1441 1440 1439 1439 1439 1438 1438 1438 1438 1438 1438 1438 1438 1439 1441 1443 1443 1443 1442 1441 1440 1439 1437 1435 1433 1432 1429 1422 1417 1414 1413 1412 1412 1410 1409 1407 1406 1405 1404 1403 1403 1402 1401 1401 1400 1400 1398 1397 1397 1397 1400 1400 1405 1408 1408 1411 1414 1416 1417 1417 1417 1417 1417 1417 1416 1416 1415 1415 1414 1414 1414 1413 1413 1412 1412 1412 1412 1411 1410 1409 1409 1408 1407 1407 1405 1405 1404 1404 1404 1403 1402 1402 1402 1401 1399 1399 1398 1396 1395 1393 1391 1389 1388 1387 1387 1385 1385 1385 1385 1385 1385 1385 1385 1386 1387 1388 1390 1392 1398 1400 1404 1407 1412 1419 1425 1427 1434 1437 1439 1442 1445 1451 1458 1460 1467 1468 1470 1474 1482 1483 1483 1483 1481 1470 1453 1446 1431 0 0 0 0 0 0 0 0 0 0 0 0 0 0 0 0 0 0 0 0 0 0 0 0 0 0 0 0 0 0 0 0 0 0 0 0 0 0 0 0 0 0 0 0 0 0
