3042 3042 3038 3040 3040 3040 3071 3088 3093 3131 3163 3178 3191 3208 3216 3222 3233 3236 3239 3254 3273 3279 3285 3289 3292 3294 3295 3297 3302 3308 3308 3308 3324 3344 3356 3362 3364 3370 3372 3373 3376 3378 3385 3385 3385 3384 3370 3370 3370 3374 3380 3384 3386 3392 3397 3409 3425 3437 3447 3458 3473 3485 3500 3510 3515 3516 3516 3520 3528 3542 3550 3558 3570 3573 3575 3580 3585 3589 3594 3598 3604 3608 3611 3614 3616 3621 3626 3629 3629 3632 3635 3636 3641 3653 3668 3672 3679 3682 3686 3688 3697 3706 3710 3712 3717 3720 3723 3727 3730 3736 3739 3743 3747 3749 3749 3752 3757 3761 3763 3763 3764 3767 3772 3777 3779 3781 3781 3783 3784 3788 3793 3796 3798 3799 3803 3808 3811 3811 3811 3811 3811 3810 3809 3809 3804 3803 3803 3801 3800 3799 3799 3798 3798 3796 3795 3795 3795 3795 3797 3797 3797 3791 3735 3735 3735 3765 3837 3845 3846 3848 3855 3863 3869 3870 3870 3870 3867 3862 3859 3854 3853 3853 3853 3853 3853 3849 3830 3810 3782 3765 3753 3742 3738 3737 3736 3728 3717 3706 3706 3706 3704 3706 3707 3715 3716 3717 3718 3719 3724 3735 3740 3742 3742 3743 3743 3740 3737 3737 3737 3737 3744 3744 3744 3741 3739 3733 3730 3720 3692 3656 3632 3624 3610 3587 3554 3522 3491 3450 3365 3152 2791 0 0 0 2126 2105 2094 2089 2088 2083 2076 2071 2065 2061 2058 2055 2051 2049 2046 2041 2031 2020 2004 0 0 0 1723 1713 1705 1703 1703 1702 1701 1700 1699 1699 1697 1697 1697 1696 1696 1696 1695 1695 1695 1694 1693 1692 1691 1691 1691 1690 1689 1687 1687 1687 1687 1687 1687 1687 1688 1689 1689 1689 1690 1691 1691 1691 1692 1692 1692 1692 1692 1692 1692 1691 1691 1691 1690 1689 1688 1687 1685 1685 1685 1677 1675 1673 1673 1673 1672 1671 1670 1670 1670 1672 1673 1674 1677 1679 1679 1679 1679 1680 1681 1683 1684 1685 1685 1686 1687 1687 1687 1687 1688 1688 1688 1688 1687 1687 1687 1686 1686 1685 1685 1682 1680 1678 1678 1677 1674 1669 1668 1668 1668 1669 1671 1671 1671 1671 1671 1672 1674 1674 1675 1676 1677 1677 1680 1681 1682 1683 1684 1684 1685 1686 1686 1686 1686 1687 1687 1687 1687 1686 1686 1685 1685 1683 1681 1680 1678 1677 1676 1673 1668 1665 1665 1664 1664 1664 1663 1663 1663 1664 1664 1666 1666 1667 1668 1669 1670 1671 1672 1673 1676 1677 1678 1679 1679 1679 1679 1680 1681 1681 1682 1683 1684 1684 1687 1691 1705 1748 1792 1816 1838 1849 1854 1858 1862 1865 1866 1867 1868 1869 1870 1872 1872 1873 1874 1874 1875 1876 1876 1877 1878 1879 1880 1881 1882 1883 1885 1886 1887 1889 1890 1892 1894 1896 1898 1901 1904 1908 1912 1917 1922 1927 1931 1933 1935 1938 1941 1943 1945 1947 1948 1950 1952 1954 1956 1957 1957 1958 1961 1965 1967 1968 1969 1977 1984 1989 1996 2005 2010 2013 2016 2018 2025 2033 2033 2033 2031 0 0 0 0 0 0 0 0 0 0 0 0 0 0 0 0 0 0 0 0 0 0 0 0 0 0 0 0 0 0 0 0 0 0 0 0 0 0 0 0 0 0 0 0 0 0 0 0 0 0 0 0 0 0 0 0 0 0 0 0 0 0 0 0 0 0 0 0 0 0 0 0 0 0 0 0 0 0 0 0 0 0 0 0 0 0 0 0 0 0 0 0 0 0 0 0 0 0 0 0 0 0 0 0 0 0 0 0 0
3050 3050 3038 3040 3040 3040 3083 3095 3120 3151 3171 3195 3210 3216 3216 3222 3231 3236 3238 3254 3273 3279 3283 3284 3285 3285 3291 3291 3303 3309 3309 3309 3329 3344 3356 3362 3364 3370 3372 3373 3376 3378 3385 3385 3385 3384 3379 3374 3374 3374 3380 3384 3386 3389 3397 3409 3418 3434 3447 3459 3473 3484 3494 3505 3514 3516 3516 3520 3528 3543 3549 3560 3570 3573 3576 3582 3588 3592 3595 3598 3602 3606 3610 3610 3613 3614 3618 3624 3629 3632 3638 3644 3652 3660 3670 3675 3681 3687 3687 3688 3697 3706 3710 3712 3716 3719 3723 3725 3730 3736 3739 3743 3747 3748 3749 3749 3752 3758 3761 3762 3764 3768 3773 3777 3779 3779 3779 3781 3782 3787 3792 3793 3797 3799 3803 3807 3810 3811 3811 3811 3811 3810 3809 3809 3804 3803 3803 3801 3800 3798 3797 3796 3796 3796 3795 3795 3795 3795 3797 3797 3797 3791 3742 3742 3742 3772 3837 3837 3842 3848 3859 3867 3870 3870 3870 3870 3867 3862 3859 3855 3852 3852 3852 3849 3849 3849 3830 3810 3782 3765 3753 3751 3748 3745 3745 3734 3717 3706 3706 3705 3704 3705 3707 3715 3718 3718 3720 3721 3725 3735 3740 3743 3743 3744 3744 3743 3736 3736 3736 3737 3741 3741 3741 3741 3726 3717 3717 3711 3682 3651 3632 3624 3610 3584 3554 3522 3496 3458 3387 3206 2842 0 0 0 2121 2104 2093 2089 2084 2081 2076 2070 2064 2058 2053 2053 2051 2049 2046 2041 2030 2020 2004 0 0 0 1728 1713 1706 1703 1703 1701 1700 1700 1698 1697 1696 1696 1696 1695 1693 1693 1693 1693 1693 1693 1691 1691 1691 1691 1690 1690 1689 1687 1686 1686 1685 1685 1685 1685 1686 1688 1688 1688 1689 1689 1690 1690 1690 1691 1691 1691 1691 1691 1691 1691 1691 1690 1690 1688 1688 1686 1685 1685 1685 1681 1678 1675 1674 1673 1672 1671 1671 1671 1671 1672 1673 1674 1677 1679 1679 1679 1679 1679 1681 1683 1684 1684 1684 1684 1685 1686 1686 1686 1686 1686 1687 1687 1686 1686 1686 1685 1684 1683 1683 1681 1679 1678 1677 1676 1673 1669 1668 1668 1668 1669 1669 1670 1670 1670 1670 1672 1674 1674 1675 1676 1676 1677 1679 1680 1681 1682 1683 1683 1683 1684 1684 1684 1684 1685 1685 1685 1685 1685 1685 1684 1683 1682 1681 1679 1678 1677 1676 1674 1669 1666 1666 1666 1666 1666 1666 1665 1665 1665 1665 1666 1667 1667 1668 1670 1670 1671 1672 1673 1676 1677 1678 1678 1678 1678 1678 1679 1679 1680 1681 1681 1682 1683 1685 1690 1705 1746 1791 1815 1840 1849 1854 1858 1861 1864 1866 1866 1868 1869 1870 1871 1872 1873 1874 1874 1875 1875 1876 1877 1878 1879 1880 1881 1882 1883 1885 1886 1887 1889 1890 1891 1894 1895 1898 1901 1904 1906 1911 1917 1922 1926 1929 1933 1935 1938 1941 1943 1945 1947 1948 1950 1952 1954 1956 1957 1957 1958 1961 1965 1966 1967 1969 1975 1979 1986 1988 1992 2001 2010 2013 2018 2025 2033 2033 2033 2031 2008 0 0 0 0 0 0 0 0 0 0 0 0 0 0 0 0 0 0 0 0 0 0 0 0 0 0 0 0 0 0 0 0 0 0 0 0 0 0 0 0 0 0 0 0 0 0 0 0 0 0 0 0 0 0 0 0 0 0 0 0 0 0 0 0 0 0 0 0 0 0 0 0 0 0 0 0 0 0 0 0 0 0 0 0 0 0 0 0 0 0 0 0 0 0 0 0 0 0 0 0 0 0 0 0 0 0 0 0
3035 3035 3035 3038 3043 3043 3089 3100 3126 3153 3177 3210 3212 3216 3216 3222 3225 3227 3238 3257 3260 3276 3277 3279 3283 3283 3286 3291 3302 3309 3311 3319 3331 3344 3348 3353 3355 3358 3361 3363 3368 3377 3382 3384 3384 3384 3380 3380 3380 3380 3380 3384 3386 3389 3397 3408 3418 3433 3447 3459 3473 3482 3491 3502 3512 3518 3523 3526 3533 3543 3548 3560 3570 3573 3576 3582 3590 3593 3595 3597 3599 3606 3610 3610 3610 3614 3617 3624 3632 3634 3645 3651 3658 3665 3673 3677 3682 3687 3687 3690 3697 3705 3710 3712 3716 3719 3723 3725 3729 3733 3737 3741 3745 3746 3746 3747 3749 3754 3757 3761 3764 3768 3773 3777 3778 3778 3779 3779 3782 3787 3791 3793 3795 3798 3802 3804 3805 3807 3807 3807 3802 3798 3798 3798 3798 3799 3800 3800 3800 3798 3796 3795 3795 3794 3794 3794 3795 3795 3796 3796 3796 3781 3742 3742 3742 3772 3822 3830 3836 3848 3865 3870 3871 3871 3871 3870 3867 3862 3859 3855 3852 3850 3850 3849 3845 3842 3827 3803 3780 3765 3753 3751 3748 3745 3745 3736 3718 3706 3706 3706 3707 3709 3711 3718 3721 3722 3722 3722 3726 3735 3739 3743 3745 3746 3746 3745 3736 3736 3736 3740 3741 3741 3741 3741 3725 3710 3708 3696 3672 3647 3625 3624 3610 3583 3551 3530 3498 3463 3398 3237 2915 2592 0 0 2120 2104 2092 2084 2081 2078 2074 2070 2063 2057 2051 2047 2045 2044 2040 2040 2030 2016 0 0 0 0 1728 1713 1705 1703 1703 1701 1699 1699 1698 1696 1696 1695 1695 1694 1692 1692 1692 1692 1692 1691 1690 1690 1690 1690 1689 1689 1688 1687 1685 1685 1684 1684 1684 1685 1686 1686 1687 1688 1688 1688 1689 1689 1689 1690 1690 1690 1690 1690 1690 1689 1689 1689 1688 1688 1687 1686 1685 1684 1684 1681 1678 1676 1674 1673 1672 1671 1671 1671 1671 1672 1673 1674 1675 1676 1677 1677 1678 1679 1680 1681 1683 1683 1683 1684 1684 1684 1685 1685 1685 1685 1685 1685 1685 1685 1685 1684 1684 1683 1682 1680 1679 1677 1675 1673 1670 1669 1667 1667 1667 1668 1669 1669 1669 1669 1669 1670 1672 1673 1674 1675 1675 1676 1677 1678 1680 1681 1682 1682 1682 1682 1682 1683 1683 1683 1684 1684 1684 1684 1683 1683 1682 1681 1681 1679 1678 1676 1676 1674 1669 1666 1666 1666 1668 1668 1668 1666 1665 1665 1665 1666 1667 1667 1668 1670 1670 1672 1672 1674 1675 1677 1677 1677 1677 1677 1677 1677 1677 1677 1678 1679 1682 1682 1684 1690 1702 1746 1791 1815 1842 1853 1856 1858 1860 1862 1865 1866 1868 1869 1870 1870 1872 1872 1874 1874 1875 1875 1876 1877 1878 1879 1880 1881 1882 1883 1885 1886 1887 1889 1890 1891 1893 1895 1897 1900 1904 1906 1910 1916 1920 1924 1926 1932 1935 1936 1941 1943 1945 1947 1949 1950 1952 1954 1956 1957 1958 1960 1961 1965 1966 1968 1971 1975 1979 1981 1982 1988 2000 2005 2012 2018 2025 2033 2036 2036 2036 1992 0 0 0 0 0 0 0 0 0 0 0 0 0 0 0 0 0 0 0 0 0 0 0 0 0 0 0 0 0 0 0 0 0 0 0 0 0 0 0 0 0 0 0 0 0 0 0 0 0 0 0 0 0 0 0 0 0 0 0 0 0 0 0 0 0 0 0 0 0 0 0 0 0 0 0 0 0 0 0 0 0 0 0 0 0 0 0 0 0 0 0 0 0 0 0 0 0 0 0 0 0 0 0 0 0 0 0 0
3035 3035 3038 3050 3051 3055 3093 3121 3130 3159 3187 3210 3212 3216 3216 3219 3225 3227 3238 3257 3260 3276 3276 3279 3281 3281 3285 3290 3300 3309 3316 3323 3333 3340 3346 3351 3355 3358 3361 3363 3365 3370 3375 3379 3380 3380 3380 3380 3374 3372 3372 3372 3376 3387 3397 3407 3413 3425 3444 3459 3472 3479 3488 3499 3510 3518 3526 3531 3535 3543 3548 3560 3570 3573 3576 3582 3590 3593 3595 3596 3599 3605 3609 3610 3610 3614 3617 3624 3632 3643 3654 3659 3664 3672 3676 3683 3688 3689 3690 3690 3697 3705 3710 3712 3716 3719 3724 3725 3729 3733 3736 3740 3741 3742 3742 3745 3748 3750 3754 3759 3764 3768 3773 3776 3778 3778 3779 3779 3782 3787 3791 3793 3795 3796 3800 3801 3801 3801 3801 3800 3794 3791 3791 3791 3795 3798 3800 3800 3800 3796 3795 3794 3794 3794 3794 3794 3794 3794 3794 3794 3790 3778 3742 3742 3742 3772 3803 3821 3836 3849 3865 3873 3873 3873 3871 3870 3866 3861 3858 3855 3853 3849 3845 3843 3842 3833 3822 3799 3780 3765 3749 3749 3748 3745 3745 3737 3720 3707 3705 3705 3705 3709 3712 3717 3720 3722 3722 3725 3728 3735 3739 3746 3746 3746 3746 3746 3736 3736 3736 3736 3740 3741 3741 3736 3722 3706 3696 3679 3655 3632 3625 3624 3610 3583 3551 3530 3500 3480 3401 3255 2964 2617 0 0 2116 2103 2092 2084 2081 2075 2071 2067 2062 2057 2049 2042 2041 2040 2035 2031 2027 2006 0 0 0 0 1728 1708 1704 1703 1702 1701 1698 1697 1695 1694 1694 1694 1694 1694 1690 1690 1690 1690 1690 1690 1689 1689 1689 1689 1688 1687 1686 1685 1684 1684 1683 1683 1683 1684 1685 1685 1685 1686 1686 1687 1688 1688 1688 1689 1689 1689 1689 1688 1688 1688 1687 1687 1687 1687 1686 1685 1685 1684 1682 1681 1678 1676 1674 1672 1671 1671 1671 1671 1671 1672 1673 1673 1673 1673 1675 1676 1678 1679 1680 1680 1681 1682 1682 1682 1682 1683 1683 1683 1683 1683 1684 1684 1684 1684 1684 1683 1682 1682 1681 1680 1678 1677 1675 1673 1670 1669 1667 1667 1667 1668 1668 1668 1668 1669 1669 1669 1669 1670 1673 1674 1674 1674 1675 1676 1678 1679 1680 1680 1681 1681 1681 1681 1681 1682 1682 1682 1682 1682 1682 1681 1681 1680 1679 1678 1677 1676 1675 1674 1669 1667 1667 1667 1668 1668 1668 1667 1667 1666 1666 1666 1667 1667 1668 1670 1670 1672 1672 1674 1675 1675 1676 1676 1676 1676 1676 1676 1676 1676 1677 1678 1679 1682 1684 1689 1700 1744 1790 1810 1842 1857 1857 1858 1860 1862 1865 1866 1868 1869 1870 1870 1871 1872 1873 1874 1875 1875 1876 1877 1878 1878 1880 1881 1882 1883 1885 1886 1887 1889 1890 1891 1893 1895 1897 1900 1903 1905 1908 1912 1917 1921 1923 1926 1933 1936 1940 1942 1945 1947 1949 1951 1952 1954 1955 1957 1959 1960 1962 1965 1966 1969 1971 1975 1979 1981 1982 1988 2000 2005 2012 2018 2031 2042 2044 2044 2044 1992 0 0 0 0 0 0 0 0 0 0 0 0 0 0 0 0 0 0 0 0 0 0 0 0 0 0 0 0 0 0 0 0 0 0 0 0 0 0 0 0 0 0 0 0 0 0 0 0 0 0 0 0 0 0 0 0 0 0 0 0 0 0 0 0 0 0 0 0 0 0 0 0 0 0 0 0 0 0 0 0 0 0 0 0 0 0 0 0 0 0 0 0 0 0 0 0 0 0 0 0 0 0 0 0 0 0 0 0
3035 3035 3059 3074 3087 3098 3118 3121 3134 3159 3191 3210 3212 3219 3219 3219 3225 3227 3238 3256 3260 3274 3274 3275 3278 3278 3285 3289 3299 3309 3316 3323 3333 3340 3346 3351 3355 3358 3361 3363 3365 3370 3375 3378 3380 3380 3380 3380 3377 3372 3372 3372 3376 3387 3395 3401 3402 3415 3438 3454 3469 3478 3486 3497 3508 3518 3526 3531 3535 3543 3547 3554 3562 3565 3570 3578 3590 3593 3595 3596 3599 3605 3609 3610 3610 3614 3617 3626 3640 3653 3664 3666 3676 3684 3689 3694 3697 3697 3698 3699 3699 3705 3711 3716 3719 3722 3724 3727 3729 3733 3736 3738 3738 3739 3739 3741 3743 3747 3751 3756 3763 3768 3772 3775 3778 3778 3779 3779 3782 3788 3791 3793 3794 3794 3794 3792 3792 3792 3794 3794 3794 3791 3791 3791 3791 3797 3798 3798 3798 3796 3795 3794 3794 3794 3794 3794 3794 3793 3793 3793 3786 3756 3740 3740 3740 3777 3793 3820 3836 3849 3865 3873 3873 3873 3871 3869 3866 3861 3858 3856 3854 3851 3845 3843 3836 3830 3822 3799 3780 3765 3749 3746 3746 3742 3742 3737 3726 3714 3711 3710 3710 3710 3713 3717 3720 3722 3726 3729 3730 3735 3739 3743 3746 3746 3746 3746 3739 3739 3739 3739 3739 3736 3736 3734 3721 3700 3683 3658 3631 3624 3616 3610 3610 3583 3551 3530 3506 3480 3403 3269 2997 2625 0 0 2115 2097 2091 2084 2079 2074 2070 2065 2059 2054 2048 2042 2041 2036 2034 2029 2020 1998 0 0 0 0 1718 1708 1703 1702 1702 1700 1696 1694 1693 1693 1692 1692 1692 1691 1689 1689 1689 1689 1689 1689 1689 1688 1688 1687 1686 1685 1683 1682 1682 1682 1682 1682 1682 1684 1684 1684 1684 1685 1686 1686 1687 1687 1687 1687 1687 1687 1687 1687 1687 1687 1686 1686 1685 1685 1685 1684 1683 1682 1679 1679 1678 1676 1673 1672 1670 1670 1670 1670 1671 1671 1671 1671 1671 1672 1672 1674 1678 1679 1679 1679 1680 1681 1681 1681 1682 1682 1682 1682 1682 1682 1682 1682 1682 1682 1682 1682 1681 1681 1680 1679 1677 1676 1675 1672 1670 1669 1668 1668 1668 1668 1668 1668 1668 1668 1668 1668 1669 1670 1671 1671 1672 1673 1674 1674 1676 1678 1678 1679 1679 1679 1679 1679 1680 1680 1681 1681 1680 1680 1680 1679 1679 1678 1678 1678 1677 1676 1675 1673 1669 1667 1667 1667 1668 1668 1668 1667 1667 1667 1667 1667 1667 1667 1668 1670 1672 1672 1672 1674 1674 1674 1675 1675 1675 1675 1675 1675 1675 1676 1676 1677 1678 1680 1682 1686 1698 1739 1783 1805 1842 1857 1859 1859 1860 1862 1865 1866 1868 1869 1870 1870 1871 1872 1873 1874 1875 1875 1876 1877 1878 1878 1880 1881 1882 1884 1885 1886 1887 1888 1889 1891 1893 1895 1897 1899 1901 1902 1906 1910 1915 1919 1923 1926 1930 1934 1939 1942 1944 1947 1950 1951 1952 1954 1955 1957 1959 1961 1963 1965 1966 1969 1971 1975 1979 1980 1981 1988 2000 2005 2012 2020 2035 2047 2052 2052 2052 1992 0 0 0 0 0 0 0 0 0 0 0 0 0 0 0 0 0 0 0 0 0 0 0 0 0 0 0 0 0 0 0 0 0 0 0 0 0 0 0 0 0 0 0 0 0 0 0 0 0 0 0 0 0 0 0 0 0 0 0 0 0 0 0 0 0 0 0 0 0 0 0 0 0 0 0 0 0 0 0 0 0 0 0 0 0 0 0 0 0 0 0 0 0 0 0 0 0 0 0 0 0 0 0 0 0 0 0 0
3036 3036 3067 3098 3109 3126 3149 3154 3165 3176 3200 3210 3212 3219 3219 3219 3236 3236 3238 3257 3260 3273 3274 3275 3276 3278 3278 3284 3293 3309 3316 3323 3333 3340 3346 3351 3358 3367 3367 3370 3371 3371 3375 3376 3377 3377 3377 3377 3377 3372 3372 3372 3376 3387 3395 3401 3402 3415 3438 3454 3468 3475 3482 3491 3508 3518 3526 3531 3535 3540 3547 3551 3554 3556 3560 3568 3581 3591 3595 3596 3599 3605 3609 3611 3614 3617 3623 3631 3645 3658 3668 3675 3686 3689 3692 3694 3697 3700 3703 3708 3711 3714 3715 3716 3719 3722 3725 3728 3729 3732 3734 3736 3737 3738 3738 3738 3742 3745 3750 3756 3763 3768 3771 3775 3778 3778 3779 3779 3782 3788 3791 3793 3793 3793 3791 3789 3789 3789 3790 3791 3791 3791 3790 3790 3790 3794 3796 3796 3796 3796 3796 3796 3795 3794 3794 3794 3794 3793 3793 3791 3773 3740 3722 3722 3722 3770 3793 3820 3834 3849 3865 3872 3872 3872 3871 3869 3866 3861 3858 3858 3855 3853 3847 3843 3836 3830 3822 3803 3780 3765 3749 3745 3745 3741 3741 3739 3730 3721 3720 3711 3711 3711 3714 3718 3721 3723 3727 3729 3732 3737 3739 3743 3746 3747 3747 3747 3739 3739 3737 3737 3737 3735 3735 3731 3716 3690 3669 3647 3628 3611 3609 3601 3600 3581 3559 3537 3506 3480 3403 3306 3052 2708 0 0 2115 2097 2090 2084 2078 2074 2069 2063 2058 2054 2048 2042 2040 2035 2034 2029 2020 1998 1967 0 0 0 1718 1702 1701 1700 1699 1698 1695 1693 1692 1691 1691 1691 1690 1688 1687 1687 1687 1689 1689 1689 1687 1687 1686 1685 1685 1683 1682 1682 1682 1681 1681 1681 1681 1682 1682 1683 1683 1683 1684 1685 1686 1686 1686 1686 1686 1685 1686 1685 1685 1685 1685 1684 1684 1683 1682 1681 1681 1681 1677 1677 1675 1674 1673 1672 1670 1670 1670 1670 1671 1671 1671 1671 1671 1672 1672 1673 1675 1677 1677 1678 1679 1680 1680 1680 1680 1680 1680 1680 1680 1680 1680 1680 1680 1680 1680 1680 1680 1680 1679 1678 1676 1675 1673 1672 1670 1669 1669 1668 1668 1668 1668 1668 1668 1668 1668 1668 1669 1670 1670 1671 1671 1672 1672 1672 1675 1675 1676 1676 1676 1676 1677 1678 1679 1679 1679 1678 1678 1678 1678 1678 1677 1676 1676 1675 1675 1675 1674 1672 1669 1668 1668 1668 1668 1668 1668 1667 1667 1667 1667 1667 1667 1667 1669 1670 1670 1671 1672 1672 1673 1673 1674 1674 1674 1674 1674 1674 1674 1675 1675 1677 1677 1678 1679 1686 1698 1732 1778 1805 1842 1857 1859 1861 1862 1865 1866 1867 1868 1869 1870 1870 1871 1872 1873 1874 1874 1875 1876 1877 1878 1879 1880 1881 1882 1884 1885 1886 1887 1888 1889 1891 1893 1895 1897 1899 1900 1901 1904 1908 1913 1919 1922 1925 1930 1934 1939 1942 1944 1947 1950 1951 1952 1953 1955 1957 1959 1962 1964 1966 1968 1969 1972 1975 1979 1980 1980 1986 1999 2000 2007 2022 2039 2048 2052 2052 2052 2034 0 0 0 0 0 0 0 0 0 0 0 0 0 0 0 0 0 0 0 0 0 0 0 0 0 0 0 0 0 0 0 0 0 0 0 0 0 0 0 0 0 0 0 0 0 0 0 0 0 0 0 0 0 0 0 0 0 0 0 0 0 0 0 0 0 0 0 0 0 0 0 0 0 0 0 0 0 0 0 0 0 0 0 0 0 0 0 0 0 0 0 0 0 0 0 0 0 0 0 0 0 0 0 0 0 0 0 0
3052 3052 3080 3110 3117 3135 3149 3155 3174 3190 3209 3223 3223 3223 3223 3226 3236 3238 3238 3257 3260 3273 3273 3274 3275 3278 3278 3284 3289 3298 3312 3322 3333 3341 3347 3353 3362 3372 3373 3373 3373 3373 3375 3376 3376 3376 3377 3377 3377 3380 3380 3380 3382 3389 3395 3401 3402 3415 3438 3454 3467 3475 3482 3491 3503 3513 3524 3528 3535 3540 3547 3549 3549 3550 3552 3558 3573 3583 3592 3596 3599 3605 3609 3616 3623 3627 3630 3635 3647 3659 3671 3675 3686 3689 3692 3694 3697 3700 3703 3708 3711 3714 3715 3716 3719 3722 3725 3728 3729 3729 3731 3734 3735 3736 3737 3738 3742 3745 3750 3756 3763 3768 3771 3776 3779 3779 3780 3780 3785 3788 3790 3790 3790 3790 3789 3789 3789 3789 3790 3793 3793 3793 3790 3790 3790 3793 3794 3794 3794 3795 3796 3796 3796 3795 3794 3794 3794 3793 3793 3786 3770 3733 3704 3704 3704 3759 3793 3820 3833 3849 3859 3869 3871 3871 3871 3869 3867 3863 3861 3859 3857 3855 3852 3845 3836 3830 3825 3803 3784 3768 3758 3745 3745 3744 3743 3743 3736 3732 3726 3715 3715 3715 3718 3720 3722 3724 3729 3732 3737 3740 3742 3745 3745 3747 3747 3747 3739 3739 3739 3737 3737 3733 3732 3730 3713 3689 3666 3645 3623 3605 3603 3593 3590 3581 3559 3537 3506 3462 3406 3319 3181 2825 0 0 0 2097 2090 2084 2078 2072 2066 2061 2056 2053 2048 2041 2040 2035 2033 2029 2020 1998 1967 0 0 0 1713 1701 1699 1699 1697 1694 1692 1691 1691 1690 1689 1688 1688 1686 1686 1686 1687 1687 1687 1687 1687 1686 1686 1685 1684 1683 1682 1682 1682 1681 1681 1680 1680 1680 1680 1682 1682 1683 1683 1684 1684 1685 1685 1685 1685 1684 1683 1683 1683 1683 1682 1682 1682 1681 1681 1681 1680 1679 1676 1676 1675 1674 1673 1672 1670 1670 1670 1670 1671 1671 1671 1671 1671 1672 1672 1673 1674 1674 1677 1678 1678 1679 1679 1679 1679 1679 1678 1678 1678 1678 1678 1679 1679 1679 1678 1677 1677 1677 1676 1676 1676 1675 1673 1672 1670 1669 1669 1668 1668 1668 1668 1668 1668 1668 1668 1668 1669 1670 1670 1670 1670 1670 1670 1671 1673 1673 1673 1673 1675 1676 1676 1676 1676 1676 1676 1676 1676 1676 1676 1676 1675 1675 1674 1674 1674 1674 1673 1671 1669 1668 1668 1668 1668 1668 1668 1667 1667 1667 1667 1667 1667 1668 1669 1669 1670 1671 1672 1672 1672 1672 1673 1673 1673 1673 1673 1673 1673 1673 1675 1676 1677 1677 1679 1686 1698 1721 1775 1802 1840 1856 1860 1862 1863 1865 1866 1867 1867 1869 1870 1870 1871 1872 1873 1873 1874 1875 1876 1877 1878 1879 1880 1881 1882 1884 1885 1886 1887 1888 1889 1891 1893 1894 1897 1899 1900 1901 1904 1908 1912 1919 1922 1925 1929 1934 1937 1940 1943 1947 1950 1951 1952 1953 1955 1957 1960 1963 1965 1967 1969 1971 1974 1976 1980 1981 1981 1986 1995 1998 2002 2020 2039 2048 2052 2052 2052 2034 0 0 0 0 0 0 0 0 0 0 0 0 0 0 0 0 0 0 0 0 0 0 0 0 0 0 0 0 0 0 0 0 0 0 0 0 0 0 0 0 0 0 0 0 0 0 0 0 0 0 0 0 0 0 0 0 0 0 0 0 0 0 0 0 0 0 0 0 0 0 0 0 0 0 0 0 0 0 0 0 0 0 0 0 0 0 0 0 0 0 0 0 0 0 0 0 0 0 0 0 0 0 0 0 0 0 0 0
3072 3072 3094 3110 3125 3142 3152 3160 3174 3190 3209 3223 3223 3233 3233 3236 3237 3238 3241 3257 3260 3265 3269 3274 3275 3278 3278 3284 3289 3295 3298 3321 3333 3342 3348 3353 3362 3375 3375 3375 3373 3373 3373 3374 3376 3376 3377 3383 3385 3385 3385 3385 3386 3393 3396 3404 3413 3430 3443 3454 3467 3475 3482 3491 3503 3513 3524 3528 3535 3540 3546 3549 3549 3550 3551 3558 3573 3582 3588 3596 3603 3609 3614 3621 3629 3633 3636 3642 3651 3659 3671 3675 3686 3687 3689 3691 3692 3696 3703 3708 3711 3714 3715 3715 3719 3721 3725 3728 3728 3729 3730 3733 3735 3735 3736 3738 3742 3745 3750 3756 3763 3768 3772 3776 3783 3783 3783 3785 3785 3788 3789 3789 3789 3789 3789 3789 3789 3789 3790 3795 3795 3795 3791 3791 3791 3793 3794 3794 3794 3795 3798 3798 3798 3798 3794 3794 3794 3794 3794 3786 3770 3733 3688 3688 3688 3759 3813 3820 3833 3845 3857 3864 3867 3869 3869 3869 3867 3864 3863 3859 3857 3855 3852 3846 3842 3834 3825 3803 3784 3768 3758 3745 3745 3744 3743 3743 3740 3737 3726 3718 3718 3718 3724 3725 3726 3726 3730 3734 3742 3742 3742 3746 3746 3747 3747 3747 3741 3732 3730 3729 3729 3726 3725 3725 3708 3685 3665 3645 3622 3605 3593 3592 3589 3581 3559 3537 3501 3458 3406 3339 3236 2926 2525 0 0 2103 2092 2084 2075 2069 2065 2061 2056 2051 2047 2041 2040 2036 2033 2027 2020 1994 1969 0 0 0 1713 1702 1698 1693 1692 1692 1691 1689 1689 1688 1687 1687 1686 1686 1686 1685 1685 1684 1684 1684 1685 1685 1685 1684 1683 1683 1682 1682 1682 1681 1680 1679 1679 1679 1679 1680 1681 1681 1683 1684 1684 1684 1684 1684 1684 1684 1682 1682 1682 1681 1681 1681 1680 1680 1680 1679 1679 1679 1676 1676 1675 1674 1673 1672 1672 1672 1672 1672 1672 1672 1672 1673 1673 1673 1673 1673 1674 1674 1675 1675 1676 1676 1676 1676 1676 1676 1676 1676 1676 1677 1677 1677 1676 1676 1675 1674 1674 1674 1674 1674 1674 1674 1673 1672 1670 1670 1669 1669 1668 1668 1668 1668 1668 1668 1668 1668 1668 1668 1669 1669 1669 1669 1670 1671 1671 1671 1671 1671 1671 1673 1675 1675 1675 1675 1674 1674 1674 1674 1674 1674 1674 1674 1674 1674 1673 1672 1672 1671 1669 1669 1668 1668 1668 1668 1668 1667 1667 1667 1667 1667 1667 1668 1669 1669 1670 1671 1671 1671 1672 1672 1672 1672 1672 1672 1672 1673 1673 1673 1674 1675 1675 1676 1678 1683 1712 1721 1773 1795 1828 1856 1860 1862 1864 1865 1866 1867 1868 1869 1870 1871 1871 1872 1873 1873 1874 1875 1876 1877 1878 1879 1880 1881 1882 1884 1885 1886 1887 1888 1889 1891 1893 1894 1897 1899 1900 1901 1904 1908 1912 1917 1922 1925 1929 1932 1936 1940 1943 1946 1948 1951 1952 1953 1956 1960 1962 1963 1965 1967 1969 1973 1975 1979 1980 1981 1982 1987 1994 1994 1996 2018 2039 2048 2048 2048 2042 2034 0 0 0 0 0 0 0 0 0 0 0 0 0 0 0 0 0 0 0 0 0 0 0 0 0 0 0 0 0 0 0 0 0 0 0 0 0 0 0 0 0 0 0 0 0 0 0 0 0 0 0 0 0 0 0 0 0 0 0 0 0 0 0 0 0 0 0 0 0 0 0 0 0 0 0 0 0 0 0 0 0 0 0 0 0 0 0 0 0 0 0 0 0 0 0 0 0 0 0 0 0 0 0 0 0 0 0 0
3083 3083 3110 3111 3117 3135 3149 3160 3175 3190 3209 3230 3233 3234 3238 3240 3241 3241 3246 3257 3260 3262 3267 3273 3275 3278 3287 3289 3289 3295 3298 3320 3330 3342 3348 3354 3363 3375 3375 3376 3376 3375 3375 3376 3376 3378 3383 3384 3387 3387 3387 3387 3389 3396 3405 3407 3427 3439 3452 3454 3467 3478 3485 3492 3503 3513 3524 3528 3536 3540 3546 3549 3549 3550 3550 3558 3573 3581 3588 3596 3603 3613 3620 3626 3630 3634 3639 3646 3652 3659 3671 3673 3677 3680 3681 3681 3685 3689 3695 3702 3706 3707 3708 3711 3719 3721 3724 3727 3728 3728 3730 3733 3735 3735 3736 3738 3742 3745 3750 3756 3763 3769 3773 3779 3783 3785 3785 3786 3788 3788 3789 3789 3789 3789 3789 3789 3789 3792 3792 3795 3795 3795 3795 3795 3795 3794 3794 3794 3794 3795 3798 3800 3800 3800 3798 3798 3796 3796 3796 3786 3770 3733 3688 3688 3688 3762 3813 3820 3829 3838 3851 3858 3864 3867 3867 3867 3867 3864 3863 3859 3857 3855 3852 3846 3842 3834 3825 3803 3784 3768 3758 3751 3745 3744 3743 3743 3740 3737 3727 3720 3720 3720 3728 3731 3731 3732 3732 3735 3745 3745 3745 3746 3746 3746 3746 3746 3739 3730 3725 3720 3720 3720 3714 3714 3708 3685 3662 3641 3620 3605 3593 3592 3589 3578 3562 3536 3495 3458 3406 3349 3238 2992 2561 0 0 2107 2094 2083 2070 2066 2063 2059 2055 2048 2044 2040 2040 2037 2033 2027 2020 1994 1969 0 0 0 1713 1703 1690 1690 1690 1689 1689 1687 1686 1686 1686 1686 1685 1685 1685 1684 1684 1684 1684 1684 1684 1684 1684 1684 1683 1682 1681 1681 1681 1680 1680 1679 1678 1678 1679 1680 1681 1681 1682 1683 1684 1684 1684 1684 1682 1681 1681 1680 1680 1680 1680 1679 1679 1679 1679 1678 1677 1677 1676 1676 1675 1674 1674 1674 1674 1674 1674 1673 1673 1673 1673 1673 1673 1673 1673 1673 1673 1674 1675 1675 1675 1674 1674 1673 1673 1673 1673 1673 1674 1674 1674 1674 1673 1673 1673 1672 1672 1672 1672 1672 1671 1671 1670 1670 1670 1670 1669 1669 1669 1668 1668 1668 1668 1668 1668 1668 1668 1668 1668 1669 1668 1669 1669 1669 1669 1669 1667 1667 1667 1669 1669 1670 1670 1671 1671 1671 1672 1672 1672 1673 1673 1673 1673 1673 1672 1672 1671 1670 1669 1669 1669 1669 1669 1669 1668 1668 1668 1668 1668 1668 1669 1669 1669 1669 1670 1670 1670 1671 1671 1672 1672 1672 1672 1672 1672 1672 1673 1673 1674 1674 1675 1675 1675 1682 1714 1721 1773 1795 1828 1854 1860 1862 1864 1865 1866 1867 1868 1869 1870 1871 1871 1872 1873 1873 1874 1876 1877 1877 1878 1879 1880 1881 1883 1884 1885 1886 1887 1888 1889 1891 1893 1895 1897 1899 1900 1902 1905 1908 1912 1915 1920 1924 1928 1931 1934 1939 1943 1945 1948 1950 1952 1954 1958 1960 1962 1964 1966 1969 1971 1975 1978 1980 1981 1981 1982 1987 1994 1994 1996 2010 2034 2040 2042 2042 2042 0 0 0 0 0 0 0 0 0 0 0 0 0 0 0 0 0 0 0 0 0 0 0 0 0 0 0 0 0 0 0 0 0 0 0 0 0 0 0 0 0 0 0 0 0 0 0 0 0 0 0 0 0 0 0 0 0 0 0 0 0 0 0 0 0 0 0 0 0 0 0 0 0 0 0 0 0 0 0 0 0 0 0 0 0 0 0 0 0 0 0 0 0 0 0 0 0 0 0 0 0 0 0 0 0 0 0 0 0
3083 3083 3109 3110 3110 3126 3140 3157 3174 3185 3203 3232 3238 3238 3238 3238 3250 3254 3255 3258 3261 3261 3265 3268 3275 3278 3287 3289 3289 3295 3298 3315 3327 3341 3348 3354 3363 3375 3377 3377 3377 3376 3376 3376 3377 3386 3391 3391 3391 3387 3387 3387 3393 3404 3407 3417 3433 3444 3455 3462 3471 3478 3488 3497 3507 3517 3526 3532 3536 3541 3547 3548 3549 3550 3554 3565 3576 3580 3586 3591 3603 3615 3626 3628 3631 3634 3640 3647 3653 3658 3661 3665 3670 3674 3681 3681 3685 3689 3695 3702 3706 3707 3708 3711 3719 3721 3724 3727 3727 3728 3730 3733 3735 3735 3736 3739 3743 3746 3750 3757 3764 3769 3775 3781 3783 3785 3786 3786 3788 3789 3789 3789 3789 3789 3789 3790 3794 3795 3797 3799 3799 3799 3800 3801 3800 3800 3800 3797 3797 3797 3800 3802 3802 3802 3801 3801 3798 3797 3796 3786 3778 3740 3688 3688 3688 3759 3813 3821 3822 3830 3846 3858 3864 3865 3866 3866 3866 3864 3863 3858 3855 3852 3848 3846 3842 3834 3817 3801 3782 3768 3758 3751 3745 3745 3744 3744 3743 3739 3728 3722 3722 3722 3730 3736 3736 3736 3738 3739 3746 3746 3746 3745 3745 3745 3745 3745 3736 3730 3721 3714 3714 3714 3714 3714 3708 3685 3662 3641 3620 3611 3601 3592 3590 3578 3562 3533 3495 3458 3415 3368 3259 3075 2601 0 0 0 2094 2079 2066 2063 2060 2057 2047 2039 2039 2039 2038 2037 2033 2027 2014 1994 1969 0 0 0 1713 1702 1689 1689 1689 1687 1687 1686 1686 1685 1685 1685 1684 1684 1684 1683 1683 1683 1683 1683 1684 1684 1684 1684 1683 1681 1681 1680 1678 1678 1678 1677 1677 1677 1678 1679 1680 1681 1682 1682 1682 1682 1682 1681 1680 1679 1679 1678 1678 1678 1678 1678 1677 1677 1677 1677 1676 1676 1676 1676 1676 1675 1675 1675 1675 1675 1675 1674 1673 1673 1673 1673 1673 1673 1673 1673 1673 1674 1674 1674 1673 1673 1673 1672 1672 1673 1673 1672 1672 1671 1670 1670 1670 1670 1670 1670 1669 1669 1669 1669 1669 1669 1670 1670 1670 1670 1669 1669 1669 1669 1668 1668 1668 1668 1668 1668 1668 1668 1668 1668 1668 1668 1668 1668 1667 1667 1666 1664 1664 1664 1665 1666 1668 1668 1669 1669 1669 1669 1670 1670 1670 1670 1670 1670 1670 1669 1669 1669 1669 1669 1669 1669 1669 1669 1668 1668 1668 1669 1669 1669 1669 1669 1669 1669 1670 1670 1670 1671 1671 1671 1671 1671 1671 1671 1671 1672 1672 1673 1674 1674 1674 1675 1675 1681 1714 1760 1773 1795 1828 1854 1861 1862 1864 1865 1866 1867 1868 1870 1870 1872 1872 1873 1873 1873 1875 1876 1877 1878 1878 1879 1880 1882 1883 1884 1885 1886 1887 1888 1889 1892 1893 1895 1897 1899 1902 1904 1906 1908 1912 1915 1918 1923 1927 1931 1933 1938 1942 1945 1947 1948 1951 1954 1958 1960 1963 1964 1966 1970 1972 1975 1979 1980 1982 1982 1984 1987 1994 1994 1996 2007 2026 2032 2042 2042 2042 0 0 0 0 0 0 0 0 0 0 0 0 0 0 0 0 0 0 0 0 0 0 0 0 0 0 0 0 0 0 0 0 0 0 0 0 0 0 0 0 0 0 0 0 0 0 0 0 0 0 0 0 0 0 0 0 0 0 0 0 0 0 0 0 0 0 0 0 0 0 0 0 0 0 0 0 0 0 0 0 0 0 0 0 0 0 0 0 0 0 0 0 0 0 0 0 0 0 0 0 0 0 0 0 0 0 0 0 0
3083 3083 3104 3105 3110 3117 3121 3157 3173 3181 3202 3232 3238 3245 3245 3245 3252 3255 3255 3258 3259 3261 3262 3264 3265 3278 3287 3289 3289 3295 3298 3315 3326 3340 3348 3354 3365 3375 3380 3380 3380 3378 3378 3378 3378 3390 3396 3396 3396 3395 3395 3395 3404 3414 3421 3428 3438 3447 3456 3462 3471 3479 3488 3499 3508 3519 3531 3537 3539 3543 3547 3548 3550 3553 3561 3570 3577 3581 3585 3590 3601 3615 3626 3628 3632 3635 3641 3647 3653 3658 3661 3665 3670 3674 3681 3681 3685 3689 3695 3702 3706 3707 3708 3711 3719 3722 3724 3727 3727 3728 3730 3735 3740 3740 3741 3741 3745 3747 3752 3757 3765 3773 3779 3783 3784 3784 3785 3788 3788 3790 3791 3791 3791 3792 3792 3797 3801 3807 3807 3807 3807 3805 3805 3805 3803 3803 3803 3801 3801 3801 3804 3807 3807 3807 3802 3802 3802 3797 3796 3787 3778 3744 3691 3691 3691 3759 3813 3821 3822 3830 3846 3858 3864 3865 3865 3865 3864 3863 3862 3858 3855 3852 3848 3843 3837 3828 3813 3796 3782 3768 3758 3751 3748 3748 3745 3745 3743 3741 3728 3722 3722 3722 3733 3741 3743 3744 3744 3749 3752 3752 3752 3746 3742 3738 3738 3736 3729 3722 3721 3714 3714 3714 3714 3714 3706 3685 3661 3641 3620 3613 3613 3609 3595 3578 3562 3533 3495 3467 3443 3395 3323 3113 2745 0 0 0 2094 2078 2064 2056 2054 2049 2041 2039 2039 2037 2037 2037 2031 2019 2004 1985 1959 0 0 0 1712 1700 1689 1689 1689 1687 1687 1686 1685 1684 1684 1684 1684 1684 1683 1683 1683 1683 1683 1683 1683 1683 1683 1683 1682 1681 1679 1679 1678 1677 1677 1677 1677 1677 1677 1679 1679 1680 1680 1681 1682 1682 1682 1679 1679 1678 1677 1675 1675 1675 1675 1676 1676 1676 1674 1674 1674 1675 1675 1675 1675 1675 1675 1675 1675 1675 1675 1674 1673 1673 1673 1673 1673 1673 1673 1673 1673 1673 1673 1673 1673 1672 1672 1672 1672 1672 1671 1671 1670 1668 1667 1667 1667 1667 1667 1667 1667 1667 1667 1668 1669 1669 1669 1669 1669 1669 1669 1669 1669 1669 1668 1668 1668 1668 1668 1669 1669 1669 1668 1668 1667 1667 1667 1667 1666 1663 1659 1658 1658 1658 1659 1660 1662 1664 1664 1664 1664 1664 1666 1666 1667 1667 1667 1667 1667 1667 1667 1668 1668 1668 1669 1669 1669 1669 1669 1669 1669 1669 1669 1669 1669 1669 1669 1669 1669 1670 1670 1670 1670 1671 1671 1671 1670 1670 1670 1671 1672 1673 1673 1673 1673 1673 1674 1679 1714 1760 1773 1797 1831 1854 1862 1862 1864 1865 1866 1868 1869 1870 1871 1872 1873 1873 1874 1874 1875 1876 1877 1878 1879 1880 1881 1882 1883 1884 1886 1887 1888 1889 1890 1892 1894 1896 1897 1900 1902 1904 1906 1908 1912 1915 1918 1922 1926 1929 1933 1937 1941 1944 1947 1948 1950 1954 1958 1961 1963 1965 1967 1970 1972 1976 1979 1980 1982 1983 1986 1991 1995 1998 1999 2005 2019 2032 2043 2043 2043 0 0 0 0 0 0 0 0 0 0 0 0 0 0 0 0 0 0 0 0 0 0 0 0 0 0 0 0 0 0 0 0 0 0 0 0 0 0 0 0 0 0 0 0 0 0 0 0 0 0 0 0 0 0 0 0 0 0 0 0 0 0 0 0 0 0 0 0 0 0 0 0 0 0 0 0 0 0 0 0 0 0 0 0 0 0 0 0 0 0 0 0 0 0 0 0 0 0 0 0 0 0 0 0 0 0 0 0 0
3076 3076 3085 3094 3096 3117 3121 3152 3170 3180 3199 3232 3233 3247 3247 3250 3254 3255 3255 3258 3258 3259 3259 3262 3264 3275 3286 3289 3290 3295 3298 3315 3326 3338 3347 3358 3370 3375 3380 3380 3380 3378 3378 3378 3379 3390 3400 3402 3405 3406 3408 3412 3415 3420 3422 3430 3439 3447 3458 3464 3472 3479 3489 3499 3509 3521 3533 3540 3543 3548 3548 3549 3551 3556 3565 3575 3577 3581 3585 3590 3601 3615 3626 3628 3633 3635 3641 3647 3653 3658 3661 3665 3670 3674 3681 3688 3692 3696 3699 3704 3708 3713 3715 3718 3721 3724 3727 3727 3728 3730 3733 3738 3744 3747 3747 3748 3748 3749 3754 3761 3768 3778 3784 3784 3784 3784 3784 3784 3789 3790 3794 3796 3796 3797 3799 3804 3808 3811 3811 3811 3811 3810 3810 3808 3808 3808 3806 3805 3805 3805 3808 3811 3811 3811 3807 3804 3804 3802 3798 3788 3778 3744 3691 3691 3691 3761 3813 3821 3822 3830 3846 3858 3865 3866 3866 3865 3864 3863 3862 3858 3855 3852 3848 3843 3837 3828 3813 3796 3782 3771 3760 3758 3755 3754 3753 3745 3743 3742 3735 3729 3729 3729 3741 3745 3747 3747 3753 3756 3756 3756 3755 3749 3743 3736 3734 3732 3729 3722 3721 3711 3711 3711 3711 3711 3706 3684 3659 3644 3635 3634 3633 3622 3598 3578 3562 3533 3507 3487 3478 3445 3345 3181 2877 2522 0 0 2094 2077 2064 2053 2050 2045 2041 2039 2038 2037 2036 2033 2023 2014 2002 1985 1956 0 0 0 1705 1688 1687 1687 1686 1686 1686 1685 1684 1683 1683 1683 1683 1683 1683 1683 1683 1683 1683 1683 1683 1683 1683 1683 1682 1680 1679 1678 1678 1677 1676 1676 1676 1676 1676 1675 1677 1677 1678 1678 1678 1678 1678 1677 1676 1676 1675 1675 1675 1674 1674 1673 1673 1673 1673 1673 1674 1675 1675 1675 1675 1675 1675 1675 1675 1675 1675 1675 1674 1674 1674 1674 1674 1673 1673 1673 1673 1673 1673 1673 1673 1672 1672 1672 1671 1669 1668 1667 1666 1666 1666 1666 1665 1664 1664 1664 1665 1665 1666 1668 1668 1669 1669 1669 1669 1669 1669 1669 1669 1669 1669 1669 1669 1669 1669 1669 1669 1669 1668 1668 1667 1666 1666 1666 1664 1661 1655 1654 1654 1654 1655 1655 1657 1659 1659 1660 1662 1662 1663 1665 1665 1665 1664 1664 1664 1664 1664 1665 1667 1667 1668 1668 1668 1668 1669 1669 1669 1669 1669 1669 1669 1669 1669 1669 1670 1670 1670 1670 1670 1670 1670 1670 1670 1670 1670 1670 1671 1671 1672 1672 1672 1673 1673 1678 1707 1760 1793 1800 1835 1856 1863 1864 1865 1867 1868 1869 1871 1871 1872 1873 1873 1874 1874 1875 1876 1877 1878 1878 1879 1880 1881 1883 1883 1884 1886 1888 1888 1889 1891 1893 1895 1896 1897 1900 1902 1904 1906 1909 1912 1915 1917 1922 1925 1928 1932 1936 1940 1944 1947 1948 1950 1954 1958 1961 1963 1965 1967 1970 1973 1976 1979 1980 1982 1984 1989 1993 1996 1998 1999 2005 2009 2030 2039 2039 2039 0 0 0 0 0 0 0 0 0 0 0 0 0 0 0 0 0 0 0 0 0 0 0 0 0 0 0 0 0 0 0 0 0 0 0 0 0 0 0 0 0 0 0 0 0 0 0 0 0 0 0 0 0 0 0 0 0 0 0 0 0 0 0 0 0 0 0 0 0 0 0 0 0 0 0 0 0 0 0 0 0 0 0 0 0 0 0 0 0 0 0 0 0 0 0 0 0 0 0 0 0 0 0 0 0 0 0 0 0
3054 3054 3059 3068 3081 3117 3121 3152 3169 3179 3189 3220 3232 3245 3250 3250 3252 3252 3252 3256 3258 3259 3262 3262 3264 3272 3281 3287 3289 3290 3295 3313 3327 3335 3347 3358 3370 3375 3380 3380 3380 3378 3378 3378 3381 3390 3400 3402 3405 3406 3415 3421 3421 3421 3426 3431 3439 3451 3463 3469 3475 3483 3491 3501 3513 3524 3536 3545 3548 3554 3554 3554 3556 3559 3569 3579 3583 3584 3585 3590 3601 3614 3620 3628 3633 3638 3642 3647 3654 3660 3664 3668 3671 3676 3684 3692 3698 3703 3704 3708 3711 3716 3720 3725 3726 3728 3731 3734 3736 3737 3738 3739 3746 3753 3753 3753 3753 3753 3756 3761 3770 3780 3784 3784 3784 3784 3784 3784 3790 3792 3797 3800 3800 3803 3804 3808 3809 3811 3813 3813 3814 3814 3815 3815 3815 3810 3807 3807 3807 3809 3812 3814 3814 3814 3811 3808 3804 3804 3800 3790 3775 3744 3691 3691 3691 3762 3827 3839 3841 3846 3861 3873 3873 3873 3870 3867 3864 3863 3862 3858 3858 3854 3849 3843 3837 3828 3813 3796 3787 3776 3765 3763 3760 3759 3759 3754 3749 3748 3745 3734 3734 3734 3741 3745 3747 3747 3753 3756 3756 3756 3755 3752 3743 3736 3734 3732 3729 3727 3725 3722 3724 3714 3709 3709 3693 3671 3659 3644 3635 3634 3633 3622 3598 3578 3562 3533 3507 3487 3478 3445 3345 3199 2942 2588 0 0 2099 2078 2058 2052 2050 2045 2041 2039 2037 2036 2035 2028 2022 2012 2001 1985 1955 0 0 0 1697 1685 1685 1685 1685 1685 1685 1685 1684 1683 1682 1682 1682 1682 1681 1681 1681 1681 1682 1682 1682 1682 1682 1682 1681 1679 1679 1678 1677 1676 1676 1676 1676 1675 1675 1675 1675 1675 1675 1675 1675 1675 1675 1674 1673 1673 1673 1673 1673 1673 1671 1669 1669 1669 1669 1673 1673 1674 1674 1674 1674 1674 1674 1674 1675 1675 1675 1675 1675 1675 1674 1674 1674 1673 1673 1673 1673 1673 1673 1673 1672 1672 1672 1671 1669 1667 1665 1664 1663 1663 1662 1662 1661 1661 1661 1661 1662 1662 1662 1666 1668 1668 1669 1668 1669 1669 1669 1669 1669 1669 1669 1669 1669 1669 1669 1669 1669 1669 1668 1668 1667 1666 1666 1665 1664 1661 1654 1653 1653 1653 1653 1653 1654 1656 1657 1658 1659 1660 1661 1661 1661 1661 1661 1661 1661 1662 1662 1663 1665 1666 1666 1667 1668 1668 1668 1669 1669 1669 1669 1669 1669 1669 1669 1669 1669 1669 1669 1669 1669 1669 1669 1669 1669 1669 1669 1669 1670 1671 1671 1671 1672 1673 1673 1678 1697 1759 1793 1800 1835 1856 1863 1866 1867 1868 1869 1870 1871 1872 1873 1873 1873 1874 1874 1876 1876 1877 1878 1878 1879 1881 1882 1883 1884 1885 1886 1888 1889 1890 1892 1893 1895 1896 1898 1900 1902 1904 1907 1909 1912 1915 1917 1922 1925 1927 1931 1934 1938 1942 1947 1948 1950 1954 1957 1961 1963 1965 1968 1971 1974 1977 1980 1983 1983 1985 1991 1995 1996 1998 1999 2002 2009 2023 2039 2039 2039 0 0 0 0 0 0 0 0 0 0 0 0 0 0 0 0 0 0 0 0 0 0 0 0 0 0 0 0 0 0 0 0 0 0 0 0 0 0 0 0 0 0 0 0 0 0 0 0 0 0 0 0 0 0 0 0 0 0 0 0 0 0 0 0 0 0 0 0 0 0 0 0 0 0 0 0 0 0 0 0 0 0 0 0 0 0 0 0 0 0 0 0 0 0 0 0 0 0 0 0 0 0 0 0 0 0 0 0 0
3023 3025 3025 3032 3075 3114 3117 3146 3163 3163 3169 3193 3232 3238 3254 3254 3254 3254 3256 3256 3258 3259 3265 3265 3267 3272 3280 3286 3289 3289 3289 3309 3330 3335 3347 3358 3370 3371 3373 3375 3375 3375 3376 3378 3381 3390 3395 3401 3405 3406 3415 3421 3424 3426 3427 3431 3444 3459 3472 3477 3482 3487 3493 3504 3513 3524 3536 3545 3548 3554 3556 3559 3561 3564 3573 3582 3588 3590 3594 3598 3604 3614 3617 3625 3634 3642 3645 3649 3655 3664 3668 3670 3675 3681 3689 3700 3705 3708 3708 3709 3712 3719 3726 3731 3732 3734 3736 3739 3739 3741 3741 3741 3749 3756 3759 3759 3760 3760 3763 3766 3770 3780 3786 3786 3786 3786 3786 3786 3791 3793 3799 3801 3803 3805 3809 3810 3811 3811 3814 3814 3815 3818 3818 3818 3818 3814 3810 3810 3810 3813 3816 3816 3816 3816 3814 3814 3814 3813 3813 3796 3775 3744 3682 3682 3682 3782 3856 3862 3863 3863 3872 3877 3877 3877 3875 3873 3870 3865 3863 3861 3859 3857 3852 3846 3840 3831 3820 3804 3788 3777 3768 3766 3766 3761 3761 3761 3758 3757 3752 3744 3744 3744 3744 3747 3747 3748 3753 3756 3756 3756 3755 3750 3746 3739 3734 3734 3734 3735 3735 3735 3709 3707 3699 3683 3670 3656 3646 3644 3635 3634 3633 3622 3598 3577 3559 3533 3507 3487 3478 3445 3361 3202 2947 2602 0 0 2109 2078 2057 2051 2049 2045 2042 2039 2037 2036 2033 2027 2021 2012 2001 1981 0 0 0 0 1695 1685 1685 1685 1685 1685 1684 1683 1683 1681 1681 1681 1681 1680 1680 1680 1680 1680 1680 1680 1681 1681 1681 1680 1680 1679 1678 1678 1677 1676 1676 1675 1674 1671 1671 1670 1670 1669 1670 1670 1670 1671 1671 1671 1670 1670 1670 1670 1670 1670 1668 1667 1667 1667 1667 1672 1673 1673 1673 1673 1673 1673 1673 1674 1675 1675 1675 1675 1675 1675 1674 1674 1674 1674 1674 1673 1673 1673 1673 1672 1672 1671 1671 1669 1668 1666 1664 1662 1662 1661 1660 1660 1660 1660 1660 1660 1660 1662 1662 1664 1667 1668 1668 1668 1668 1668 1669 1669 1669 1669 1669 1669 1669 1669 1669 1669 1669 1669 1668 1667 1667 1666 1666 1665 1663 1661 1654 1653 1653 1652 1652 1652 1652 1654 1655 1656 1657 1658 1658 1659 1659 1659 1659 1659 1659 1660 1661 1662 1663 1664 1665 1666 1667 1667 1668 1668 1668 1669 1669 1669 1669 1669 1669 1669 1669 1669 1669 1669 1669 1669 1669 1669 1668 1668 1668 1668 1669 1669 1669 1670 1672 1673 1673 1676 1697 0 1793 1806 1835 1856 1863 1869 1869 1870 1870 1870 1871 1872 1873 1874 1874 1875 1875 1876 1877 1878 1878 1879 1880 1882 1882 1883 1884 1886 1887 1888 1889 1890 1892 1893 1896 1896 1898 1900 1902 1905 1907 1910 1912 1913 1917 1920 1924 1926 1929 1932 1936 1941 1946 1948 1950 1953 1957 1960 1963 1966 1968 1972 1975 1978 1981 1983 1986 1987 1992 1994 1994 1995 1996 2000 2005 2011 2030 2030 2030 0 0 0 0 0 0 0 0 0 0 0 0 0 0 0 0 0 0 0 0 0 0 0 0 0 0 0 0 0 0 0 0 0 0 0 0 0 0 0 0 0 0 0 0 0 0 0 0 0 0 0 0 0 0 0 0 0 0 0 0 0 0 0 0 0 0 0 0 0 0 0 0 0 0 0 0 0 0 0 0 0 0 0 0 0 0 0 0 0 0 0 0 0 0 0 0 0 0 0 0 0 0 0 0 0 0 0 0 0
2978 2979 2979 3003 3058 3114 3117 3146 3149 3156 3167 3182 3213 3225 3240 3250 3250 3252 3256 3256 3263 3263 3266 3266 3267 3272 3276 3285 3288 3289 3289 3308 3332 3337 3347 3357 3364 3369 3371 3373 3374 3377 3378 3383 3387 3390 3394 3395 3401 3405 3415 3421 3424 3430 3434 3439 3450 3464 3476 3486 3488 3493 3495 3505 3513 3524 3536 3545 3548 3554 3556 3559 3562 3568 3576 3582 3590 3595 3600 3606 3608 3613 3617 3623 3634 3642 3647 3652 3660 3665 3668 3670 3676 3682 3695 3707 3713 3713 3714 3714 3714 3720 3728 3734 3736 3738 3740 3741 3743 3744 3744 3746 3752 3757 3760 3763 3766 3768 3770 3772 3775 3781 3787 3792 3792 3792 3791 3791 3791 3795 3799 3803 3805 3807 3810 3811 3811 3812 3815 3818 3818 3819 3821 3821 3821 3818 3814 3814 3814 3816 3819 3821 3821 3821 3821 3821 3821 3821 3821 3810 3775 3744 3682 3682 3682 3799 3864 3870 3871 3872 3873 3878 3883 3883 3883 3880 3878 3874 3870 3865 3861 3860 3855 3848 3840 3832 3822 3807 3790 3778 3770 3768 3767 3763 3766 3766 3765 3762 3762 3754 3753 3751 3750 3750 3751 3752 3757 3757 3757 3754 3753 3752 3750 3746 3742 3742 3742 3742 3742 3739 3710 3691 3675 3672 3656 3641 3631 3630 3630 3622 3610 3594 3584 3570 3559 3535 3493 3482 3471 3436 3364 3204 2958 2613 0 0 2110 2073 2057 2049 2049 2045 2042 2039 2037 2036 2032 2027 2021 2012 2001 1981 0 0 0 0 1694 1685 1685 1685 1685 1685 1684 1683 1682 1681 1681 1680 1680 1680 1680 1680 1679 1680 1680 1680 1680 1680 1680 1680 1680 1679 1678 1677 1677 1676 1674 1673 1672 1670 1668 1668 1667 1667 1665 1665 1665 1666 1667 1667 1667 1667 1667 1668 1668 1668 1666 1666 1666 1666 1666 1670 1672 1672 1672 1672 1672 1673 1673 1674 1674 1675 1675 1675 1675 1675 1674 1674 1674 1674 1674 1674 1673 1673 1673 1672 1670 1667 1666 1666 1666 1664 1663 1661 1660 1660 1659 1658 1658 1658 1659 1659 1660 1661 1661 1663 1666 1667 1667 1667 1668 1668 1668 1669 1669 1669 1669 1669 1669 1669 1669 1669 1669 1669 1668 1668 1667 1666 1666 1665 1663 1661 1655 1654 1652 1652 1651 1651 1651 1653 1654 1654 1655 1655 1655 1657 1657 1657 1658 1658 1659 1660 1660 1660 1661 1662 1664 1665 1665 1666 1667 1667 1668 1668 1668 1669 1669 1669 1669 1669 1669 1669 1669 1669 1668 1668 1668 1668 1668 1668 1668 1668 1668 1668 1668 1669 1669 1673 1673 1676 1695 1753 1786 1819 1831 1856 1866 1869 1870 1870 1871 1871 1871 1872 1874 1874 1875 1876 1877 1877 1878 1879 1880 1880 1881 1882 1883 1884 1885 1886 1888 1889 1889 1890 1892 1894 1896 1897 1898 1900 1902 1905 1907 1910 1912 1913 1916 1919 1923 1926 1929 1932 1935 1940 1944 1948 1950 1953 1956 1959 1963 1966 1969 1972 1975 1978 1981 1984 1987 1989 1992 1994 1994 1995 1996 1998 2002 2003 2013 2013 2013 0 0 0 0 0 0 0 0 0 0 0 0 0 0 0 0 0 0 0 0 0 0 0 0 0 0 0 0 0 0 0 0 0 0 0 0 0 0 0 0 0 0 0 0 0 0 0 0 0 0 0 0 0 0 0 0 0 0 0 0 0 0 0 0 0 0 0 0 0 0 0 0 0 0 0 0 0 0 0 0 0 0 0 0 0 0 0 0 0 0 0 0 0 0 0 0 0 0 0 0 0 0 0 0 0 0 0 0 0
2933 2933 2953 2981 3039 3107 3110 3122 3129 3139 3159 3178 3194 3201 3213 3239 3259 3260 3265 3265 3264 3265 3268 3268 3270 3272 3276 3282 3286 3291 3294 3309 3332 3338 3349 3350 3357 3364 3370 3371 3373 3381 3388 3393 3393 3394 3395 3395 3401 3405 3414 3421 3425 3431 3440 3452 3462 3476 3485 3493 3499 3500 3500 3505 3514 3522 3533 3539 3543 3547 3552 3560 3563 3569 3577 3584 3591 3595 3603 3606 3608 3613 3617 3623 3634 3642 3648 3653 3661 3666 3669 3672 3676 3685 3701 3714 3715 3716 3716 3716 3717 3721 3729 3735 3739 3741 3742 3742 3744 3745 3745 3750 3755 3761 3762 3766 3772 3774 3777 3780 3782 3783 3787 3792 3792 3792 3793 3793 3793 3796 3803 3808 3809 3810 3811 3811 3814 3818 3824 3824 3825 3828 3828 3828 3828 3826 3821 3821 3821 3821 3825 3826 3826 3826 3826 3827 3833 3833 3833 3824 3803 3747 3684 3684 3684 3799 3864 3875 3876 3879 3879 3880 3885 3889 3892 3892 3892 3885 3875 3868 3864 3861 3859 3852 3845 3836 3823 3810 3797 3779 3772 3772 3772 3773 3775 3777 3777 3774 3774 3770 3764 3760 3756 3754 3754 3754 3757 3757 3757 3754 3751 3751 3751 3752 3759 3761 3761 3759 3757 3742 3710 3691 3675 3672 3656 3641 3630 3626 3615 3603 3585 3575 3571 3569 3559 3535 3493 3465 3448 3418 3364 3236 3017 2673 0 0 0 2081 2057 2049 2048 2045 2042 2039 2037 2036 2031 2026 2021 2009 2000 1981 0 0 0 0 1693 1685 1685 1685 1685 1685 1684 1682 1681 1680 1680 1680 1679 1679 1679 1679 1679 1679 1679 1679 1679 1679 1679 1679 1678 1678 1677 1676 1675 1675 1673 1673 1671 1668 1667 1666 1664 1664 1662 1662 1662 1664 1665 1666 1667 1667 1667 1667 1667 1665 1665 1665 1665 1665 1666 1669 1671 1671 1671 1672 1672 1673 1673 1674 1674 1675 1675 1675 1675 1675 1674 1674 1674 1674 1674 1674 1673 1673 1671 1670 1668 1665 1665 1665 1664 1663 1660 1659 1658 1657 1656 1656 1656 1656 1658 1658 1659 1660 1660 1662 1665 1665 1665 1667 1667 1667 1668 1669 1669 1669 1669 1669 1669 1669 1669 1669 1669 1669 1668 1668 1667 1666 1665 1664 1662 1661 1655 1652 1652 1651 1651 1651 1651 1651 1652 1652 1653 1653 1654 1654 1655 1655 1656 1656 1658 1660 1660 1660 1661 1662 1662 1663 1665 1665 1666 1666 1667 1667 1668 1668 1668 1668 1669 1668 1668 1668 1668 1667 1667 1667 1667 1667 1667 1667 1666 1666 1667 1667 1667 1668 1668 1669 1671 1675 1693 1743 1781 1819 1831 1856 1866 1869 1870 1871 1871 1871 1872 1873 1875 1876 1876 1876 1877 1877 1879 1880 1881 1882 1882 1883 1884 1885 1886 1887 1889 1889 1890 1891 1893 1895 1896 1897 1899 1900 1903 1905 1908 1910 1911 1913 1915 1918 1921 1925 1929 1930 1934 1937 1943 1947 1950 1951 1955 1959 1962 1966 1969 1973 1975 1978 1981 1984 1987 1989 1992 1994 1994 1994 1995 1996 1998 1999 2006 2006 2006 0 0 0 0 0 0 0 0 0 0 0 0 0 0 0 0 0 0 0 0 0 0 0 0 0 0 0 0 0 0 0 0 0 0 0 0 0 0 0 0 0 0 0 0 0 0 0 0 0 0 0 0 0 0 0 0 0 0 0 0 0 0 0 0 0 0 0 0 0 0 0 0 0 0 0 0 0 0 0 0 0 0 0 0 0 0 0 0 0 0 0 0 0 0 0 0 0 0 0 0 0 0 0 0 0 0 0 0 0
2901 2901 2929 2975 3035 3038 3099 3099 3101 3105 3105 3140 3165 3181 3202 3226 3248 3260 3265 3269 3272 3273 3276 3276 3276 3277 3278 3278 3286 3287 3293 3308 3332 3337 3349 3350 3355 3362 3365 3369 3376 3384 3396 3401 3401 3401 3401 3401 3401 3405 3414 3421 3426 3432 3443 3459 3476 3488 3496 3503 3507 3508 3511 3511 3514 3519 3522 3531 3535 3543 3552 3560 3565 3572 3579 3586 3594 3599 3603 3606 3608 3614 3617 3623 3634 3642 3648 3654 3662 3666 3670 3673 3677 3685 3701 3714 3717 3717 3718 3719 3721 3726 3733 3737 3739 3741 3743 3744 3746 3747 3750 3753 3760 3763 3765 3767 3772 3776 3780 3783 3786 3788 3790 3794 3794 3794 3794 3794 3797 3801 3808 3813 3813 3813 3813 3813 3815 3821 3831 3832 3833 3835 3835 3833 3833 3833 3830 3830 3830 3832 3832 3832 3832 3832 3835 3838 3838 3838 3838 3832 3820 3779 3718 3718 3718 3799 3864 3880 3880 3880 3880 3880 3888 3896 3896 3896 3893 3886 3878 3872 3867 3865 3864 3858 3851 3840 3826 3814 3799 3784 3784 3784 3790 3794 3795 3795 3795 3793 3785 3782 3781 3777 3771 3760 3760 3760 3761 3761 3761 3754 3751 3751 3751 3752 3759 3761 3761 3759 3759 3743 3710 3691 3675 3672 3656 3641 3630 3626 3615 3603 3585 3575 3562 3560 3552 3519 3489 3464 3443 3409 3361 3263 3069 2728 0 0 0 2082 2057 2049 2048 2045 2040 2037 2036 2035 2031 2026 2017 2008 1998 1979 0 0 0 1718 1692 1685 1685 1685 1685 1685 1682 1681 1681 1680 1679 1678 1678 1678 1678 1678 1678 1678 1678 1678 1678 1678 1678 1678 1678 1678 1677 1675 1675 1673 1672 1671 1669 1667 1666 1666 1663 1661 1661 1661 1662 1663 1665 1666 1666 1667 1667 1667 1667 1665 1665 1665 1665 1665 1666 1669 1670 1671 1671 1671 1672 1672 1673 1673 1674 1674 1674 1674 1674 1674 1674 1674 1674 1673 1673 1673 1673 1672 1671 1669 1666 1663 1663 1662 1662 1660 1658 1657 1656 1655 1654 1654 1654 1654 1655 1658 1658 1658 1660 1661 1663 1665 1665 1666 1667 1667 1668 1668 1669 1669 1669 1669 1669 1669 1669 1668 1668 1668 1667 1667 1667 1666 1665 1662 1661 1660 1655 1651 1650 1650 1650 1650 1650 1650 1650 1650 1651 1652 1652 1652 1654 1654 1654 1655 1657 1660 1660 1660 1660 1661 1661 1662 1663 1664 1664 1666 1666 1666 1667 1667 1667 1667 1667 1667 1667 1667 1667 1667 1667 1667 1667 1666 1666 1666 1666 1666 1666 1667 1667 1667 1666 1666 1666 1669 1684 1732 1766 1819 1831 1855 1866 1871 1871 1871 1872 1872 1872 1874 1876 1876 1877 1878 1878 1879 1880 1881 1882 1882 1884 1884 1884 1885 1886 1888 1889 1890 1891 1891 1893 1895 1896 1898 1899 1901 1903 1905 1908 1909 1911 1913 1914 1917 1920 1925 1928 1930 1932 1934 1939 1945 1948 1951 1955 1959 1962 1966 1970 1973 1975 1978 1981 1984 1987 1989 1992 1993 1994 1994 1995 1996 1996 1999 2005 2005 2005 0 0 0 0 0 0 0 0 0 0 0 0 0 0 0 0 0 0 0 0 0 0 0 0 0 0 0 0 0 0 0 0 0 0 0 0 0 0 0 0 0 0 0 0 0 0 0 0 0 0 0 0 0 0 0 0 0 0 0 0 0 0 0 0 0 0 0 0 0 0 0 0 0 0 0 0 0 0 0 0 0 0 0 0 0 0 0 0 0 0 0 0 0 0 0 0 0 0 0 0 0 0 0 0 0 0 0 0 0
2838 2838 2875 2937 2995 2999 3061 3064 3069 3076 3076 3093 3127 3160 3194 3208 3210 3260 3265 3269 3272 3273 3276 3277 3277 3278 3278 3278 3287 3293 3293 3300 3332 3337 3344 3346 3347 3361 3370 3377 3378 3386 3398 3406 3408 3408 3408 3407 3407 3407 3414 3422 3430 3436 3449 3466 3479 3488 3496 3503 3511 3511 3514 3515 3516 3519 3522 3528 3534 3543 3552 3560 3568 3580 3588 3590 3594 3599 3603 3605 3608 3614 3618 3625 3634 3642 3647 3654 3664 3669 3672 3675 3680 3685 3701 3714 3717 3719 3720 3723 3725 3731 3735 3738 3740 3741 3743 3745 3749 3753 3757 3760 3764 3767 3769 3771 3774 3777 3783 3785 3789 3791 3791 3794 3794 3795 3795 3796 3798 3805 3812 3818 3818 3818 3815 3815 3815 3821 3831 3838 3839 3840 3841 3841 3841 3841 3841 3841 3842 3842 3842 3844 3844 3844 3850 3850 3850 3850 3847 3842 3838 3810 3747 3747 3747 3795 3857 3883 3883 3884 3885 3885 3898 3898 3898 3898 3893 3889 3882 3875 3870 3867 3866 3865 3858 3844 3827 3819 3801 3793 3793 3793 3797 3805 3805 3805 3804 3799 3792 3788 3788 3783 3776 3771 3770 3770 3768 3768 3768 3760 3751 3750 3750 3750 3759 3761 3761 3764 3764 3760 3745 3703 3688 3678 3666 3648 3639 3626 3615 3603 3585 3575 3560 3552 3552 3515 3480 3463 3441 3408 3357 3282 3126 2818 0 0 0 2083 2066 2052 2048 2045 2040 2035 2033 2033 2029 2020 2014 2008 1998 1979 0 0 0 1711 1692 1684 1683 1683 1683 1683 1681 1680 1679 1678 1678 1678 1678 1678 1678 1678 1677 1677 1677 1677 1677 1677 1677 1677 1677 1676 1675 1675 1673 1673 1672 1670 1668 1667 1666 1665 1663 1661 1661 1661 1661 1663 1665 1666 1666 1667 1667 1667 1666 1665 1665 1665 1665 1665 1666 1669 1670 1670 1671 1671 1671 1672 1673 1673 1673 1674 1674 1674 1674 1674 1674 1674 1673 1673 1672 1672 1672 1671 1670 1669 1666 1662 1662 1661 1659 1657 1656 1655 1654 1653 1652 1652 1652 1652 1655 1655 1657 1657 1658 1660 1663 1664 1664 1665 1666 1667 1667 1668 1668 1668 1668 1669 1669 1669 1668 1668 1668 1667 1667 1667 1666 1665 1663 1661 1660 1658 1654 1648 1648 1648 1648 1648 1648 1648 1648 1648 1649 1650 1650 1651 1652 1652 1653 1653 1655 1658 1658 1658 1659 1659 1661 1661 1662 1662 1664 1664 1665 1666 1666 1667 1667 1666 1667 1666 1666 1666 1666 1666 1666 1666 1666 1665 1664 1664 1664 1665 1665 1665 1665 1665 1665 1665 1665 1669 1680 1720 1766 1801 1842 1850 1866 1870 1871 1873 1873 1873 1873 1876 1877 1877 1878 1878 1879 1879 1880 1881 1883 1884 1884 1885 1885 1886 1888 1889 1889 1890 1891 1892 1893 1895 1897 1898 1899 1901 1903 1905 1908 1909 1911 1912 1913 1916 1920 1924 1928 1930 1932 1934 1938 1942 1947 1950 1955 1959 1963 1967 1969 1973 1975 1978 1980 1984 1987 1989 1991 1992 1994 1994 1994 1994 1994 1994 2001 2001 2001 0 0 0 0 0 0 0 0 0 0 0 0 0 0 0 0 0 0 0 0 0 0 0 0 0 0 0 0 0 0 0 0 0 0 0 0 0 0 0 0 0 0 0 0 0 0 0 0 0 0 0 0 0 0 0 0 0 0 0 0 0 0 0 0 0 0 0 0 0 0 0 0 0 0 0 0 0 0 0 0 0 0 0 0 0 0 0 0 0 0 0 0 0 0 0 0 0 0 0 0 0 0 0 0 0 0 0 0 0
2789 2789 2835 2907 2971 2975 3027 3039 3045 3053 3053 3053 3088 3131 3163 3207 3209 3245 3250 3265 3272 3273 3276 3287 3287 3287 3287 3289 3289 3294 3294 3295 3298 3317 3323 3329 3346 3361 3373 3378 3381 3386 3400 3406 3412 3412 3414 3414 3414 3414 3415 3422 3434 3444 3449 3466 3479 3488 3496 3503 3511 3511 3516 3519 3520 3521 3522 3528 3534 3542 3551 3560 3568 3580 3588 3590 3594 3599 3601 3602 3608 3614 3622 3630 3636 3642 3647 3655 3664 3673 3675 3677 3681 3685 3692 3703 3717 3721 3725 3728 3730 3733 3735 3739 3741 3742 3744 3748 3753 3757 3759 3761 3766 3770 3772 3774 3778 3781 3784 3786 3789 3791 3794 3795 3795 3795 3796 3797 3800 3805 3812 3819 3819 3819 3817 3817 3817 3821 3831 3838 3842 3842 3843 3843 3843 3845 3845 3846 3851 3851 3851 3852 3852 3853 3853 3853 3852 3850 3850 3845 3844 3817 3786 3786 3786 3795 3857 3885 3889 3889 3891 3891 3902 3902 3902 3899 3893 3889 3886 3880 3874 3872 3870 3865 3858 3844 3827 3819 3806 3798 3797 3797 3798 3805 3805 3805 3804 3801 3800 3799 3793 3784 3779 3779 3778 3777 3776 3773 3771 3765 3758 3751 3751 3751 3754 3759 3764 3765 3766 3766 3765 3731 3716 3699 3684 3670 3664 3663 3644 3625 3602 3586 3556 3540 3530 3504 3479 3457 3432 3395 3355 3296 3159 2865 2512 0 0 2092 2074 2064 2055 2045 2040 2034 2032 2030 2026 2018 2012 2007 1995 1977 0 0 0 1711 1692 1684 1682 1681 1681 1680 1679 1678 1678 1677 1677 1677 1677 1676 1676 1676 1676 1676 1676 1676 1676 1676 1676 1676 1676 1675 1675 1674 1673 1672 1671 1669 1667 1666 1664 1663 1663 1661 1661 1661 1661 1663 1663 1665 1666 1667 1667 1667 1666 1665 1665 1665 1665 1666 1666 1669 1669 1670 1670 1671 1671 1672 1672 1673 1673 1673 1674 1674 1674 1673 1673 1673 1673 1672 1672 1671 1670 1670 1669 1668 1666 1662 1661 1660 1657 1656 1655 1654 1652 1651 1651 1651 1651 1651 1653 1654 1655 1656 1657 1660 1663 1663 1663 1665 1666 1666 1666 1666 1667 1668 1668 1668 1668 1668 1668 1668 1668 1667 1667 1666 1665 1664 1661 1658 1658 1657 1654 1647 1647 1647 1647 1647 1647 1647 1648 1648 1648 1649 1649 1650 1650 1651 1651 1651 1652 1655 1656 1657 1657 1658 1660 1660 1661 1662 1663 1663 1664 1665 1666 1666 1666 1666 1666 1666 1666 1666 1666 1665 1665 1664 1664 1664 1663 1663 1663 1663 1664 1665 1665 1665 1664 1664 1664 1669 1680 1717 1765 1800 1842 1850 1865 1869 1872 1873 1873 1874 1874 1876 1877 1878 1878 1880 1880 1881 1881 1883 1883 1884 1885 1885 1886 1887 1888 1889 1890 1890 1891 1892 1893 1895 1897 1898 1899 1901 1903 1906 1907 1909 1910 1912 1913 1916 1920 1924 1927 1929 1931 1934 1936 1940 1945 1950 1954 1958 1964 1967 1969 1972 1975 1977 1980 1984 1987 1989 1991 1992 1994 1996 1996 1996 1996 1996 1999 1999 1999 0 0 0 0 0 0 0 0 0 0 0 0 0 0 0 0 0 0 0 0 0 0 0 0 0 0 0 0 0 0 0 0 0 0 0 0 0 0 0 0 0 0 0 0 0 0 0 0 0 0 0 0 0 0 0 0 0 0 0 0 0 0 0 0 0 0 0 0 0 0 0 0 0 0 0 0 0 0 0 0 0 0 0 0 0 0 0 0 0 0 0 0 0 0 0 0 0 0 0 0 0 0 0 0 0 0 0 0 0
2747 2747 2795 2873 2950 2951 3018 3018 3018 3031 3031 3031 3061 3129 3163 3174 3192 3201 3207 3230 3236 3243 3260 3287 3290 3291 3291 3302 3302 3295 3298 3302 3302 3307 3323 3329 3346 3361 3373 3379 3383 3386 3400 3406 3412 3412 3414 3414 3414 3414 3415 3423 3434 3444 3450 3466 3479 3487 3492 3493 3501 3510 3517 3526 3526 3528 3528 3531 3534 3540 3551 3560 3568 3580 3588 3590 3591 3595 3597 3602 3608 3616 3626 3634 3639 3642 3648 3656 3666 3673 3675 3679 3681 3685 3692 3703 3717 3723 3731 3733 3734 3734 3736 3740 3742 3744 3746 3753 3755 3757 3759 3762 3768 3773 3777 3778 3782 3785 3786 3787 3790 3791 3794 3797 3801 3801 3802 3803 3803 3808 3814 3819 3822 3822 3822 3821 3821 3821 3831 3839 3844 3844 3844 3844 3844 3845 3849 3851 3852 3852 3852 3852 3852 3853 3854 3854 3854 3854 3854 3851 3851 3817 3786 3786 3786 3795 3857 3888 3896 3900 3901 3901 3905 3905 3905 3898 3892 3888 3886 3882 3878 3874 3870 3865 3858 3844 3827 3819 3809 3804 3802 3802 3802 3805 3805 3805 3806 3806 3804 3801 3797 3785 3783 3783 3783 3783 3776 3773 3771 3768 3760 3752 3752 3751 3751 3754 3755 3765 3765 3765 3765 3755 3733 3715 3693 3670 3664 3663 3644 3625 3615 3586 3546 3539 3513 3491 3479 3457 3432 3395 3355 3307 3219 2962 2581 0 0 2099 2074 2064 2055 2049 2038 2033 2032 2028 2023 2015 2009 2003 1991 1970 0 0 0 1709 1692 1683 1679 1679 1678 1678 1677 1677 1676 1676 1676 1675 1675 1675 1675 1674 1674 1674 1674 1675 1675 1675 1675 1675 1675 1674 1674 1673 1672 1671 1670 1669 1667 1665 1663 1663 1662 1661 1661 1661 1660 1660 1661 1662 1665 1667 1667 1667 1667 1666 1665 1665 1665 1666 1666 1667 1668 1668 1669 1670 1671 1671 1672 1672 1672 1672 1673 1673 1673 1673 1673 1672 1672 1671 1670 1669 1669 1668 1668 1668 1666 1662 1661 1660 1657 1656 1653 1652 1651 1651 1651 1651 1651 1651 1652 1653 1654 1655 1656 1659 1662 1663 1663 1664 1665 1665 1665 1665 1666 1666 1667 1667 1668 1667 1667 1667 1667 1667 1667 1666 1664 1663 1660 1658 1658 1657 1654 1647 1647 1645 1645 1645 1645 1645 1646 1646 1647 1647 1648 1648 1650 1650 1650 1651 1652 1653 1655 1656 1657 1657 1658 1659 1661 1661 1662 1663 1663 1663 1664 1665 1665 1665 1665 1665 1665 1665 1665 1664 1664 1664 1663 1662 1662 1662 1662 1662 1662 1663 1663 1663 1663 1664 1664 1669 1679 1714 1764 1794 1842 1850 1863 1870 1872 1873 1874 1874 1875 1876 1878 1879 1880 1880 1881 1882 1882 1884 1884 1885 1885 1886 1887 1888 1889 1889 1890 1891 1891 1892 1893 1895 1897 1898 1900 1901 1903 1906 1907 1909 1910 1912 1913 1916 1920 1923 1926 1928 1930 1934 1936 1940 1944 1949 1954 1958 1964 1967 1969 1972 1975 1977 1980 1984 1986 1989 1991 1992 1994 1996 1996 1996 1995 1995 1995 1995 1995 0 0 0 0 0 0 0 0 0 0 0 0 0 0 0 0 0 0 0 0 0 0 0 0 0 0 0 0 0 0 0 0 0 0 0 0 0 0 0 0 0 0 0 0 0 0 0 0 0 0 0 0 0 0 0 0 0 0 0 0 0 0 0 0 0 0 0 0 0 0 0 0 0 0 0 0 0 0 0 0 0 0 0 0 0 0 0 0 0 0 0 0 0 0 0 0 0 0 0 0 0 0 0 0 0 0 0 0 0
2560 2560 2641 2737 2891 2894 3000 3000 3007 3009 3025 3027 3058 3104 3144 3164 3169 3177 3183 3195 3202 3209 3232 3263 3287 3303 3307 3308 3308 3308 3302 3302 3302 3304 3323 3328 3338 3361 3373 3379 3383 3386 3398 3405 3408 3409 3412 3412 3412 3414 3415 3423 3436 3445 3453 3460 3469 3475 3478 3479 3487 3503 3517 3530 3534 3538 3538 3538 3538 3540 3541 3552 3564 3577 3582 3587 3591 3595 3597 3602 3607 3616 3626 3634 3639 3642 3648 3656 3666 3674 3675 3680 3684 3685 3692 3703 3720 3732 3738 3738 3738 3738 3738 3740 3747 3750 3757 3758 3759 3760 3763 3766 3772 3778 3780 3782 3784 3786 3786 3788 3790 3792 3794 3797 3801 3806 3807 3809 3811 3812 3815 3819 3822 3822 3822 3822 3822 3822 3831 3839 3844 3844 3844 3845 3846 3847 3850 3851 3853 3853 3853 3853 3853 3853 3854 3855 3855 3858 3858 3858 3857 3817 3786 3786 3786 3798 3858 3889 3898 3901 3907 3908 3908 3908 3905 3898 3892 3888 3886 3882 3880 3875 3870 3867 3858 3844 3827 3819 3809 3804 3802 3798 3790 3790 3790 3793 3796 3801 3801 3801 3797 3786 3786 3786 3785 3785 3776 3773 3771 3768 3760 3752 3751 3750 3750 3750 3750 3763 3765 3770 3770 3770 3757 3730 3693 3670 3664 3663 3644 3625 3615 3586 3546 3515 3502 3491 3479 3457 3432 3395 3355 3312 3220 3015 2673 0 0 0 2074 2064 2055 2049 2038 2032 2029 2026 2020 2015 2009 2000 1987 1963 0 0 0 1708 1692 1683 1678 1677 1677 1677 1677 1676 1676 1675 1675 1674 1674 1674 1673 1673 1674 1673 1674 1674 1674 1674 1674 1674 1673 1673 1673 1672 1671 1670 1669 1668 1666 1664 1663 1662 1661 1661 1661 1660 1660 1660 1660 1661 1664 1666 1666 1666 1666 1666 1666 1666 1666 1666 1666 1667 1667 1667 1668 1669 1670 1670 1671 1671 1672 1672 1672 1672 1672 1672 1671 1671 1671 1671 1670 1668 1667 1667 1667 1666 1666 1663 1661 1660 1657 1656 1653 1651 1650 1650 1650 1650 1650 1651 1651 1652 1653 1654 1656 1658 1660 1661 1661 1662 1663 1663 1664 1664 1665 1666 1666 1666 1667 1667 1666 1666 1666 1666 1666 1665 1664 1663 1660 1658 1657 1657 1654 1647 1646 1645 1644 1644 1644 1644 1644 1644 1645 1645 1646 1647 1648 1649 1650 1650 1650 1652 1654 1656 1656 1656 1658 1659 1660 1660 1661 1662 1662 1663 1664 1664 1664 1664 1664 1664 1664 1663 1663 1663 1663 1662 1661 1661 1661 1661 1661 1661 1662 1662 1662 1662 1662 1662 1664 1669 1677 1705 1764 1794 1831 1856 1861 1870 1873 1874 1874 1874 1876 1877 1878 1880 1881 1882 1883 1883 1883 1884 1885 1886 1886 1887 1887 1888 1889 1889 1890 1891 1892 1893 1894 1895 1897 1899 1900 1901 1903 1906 1907 1909 1910 1912 1914 1916 1918 1922 1924 1927 1930 1933 1936 1940 1944 1949 1952 1957 1964 1967 1969 1972 1975 1977 1980 1984 1987 1989 1991 1992 1994 1996 1996 1996 1996 1996 1995 1992 1992 0 0 0 0 0 0 0 0 0 0 0 0 0 0 0 0 0 0 0 0 0 0 0 0 0 0 0 0 0 0 0 0 0 0 0 0 0 0 0 0 0 0 0 0 0 0 0 0 0 0 0 0 0 0 0 0 0 0 0 0 0 0 0 0 0 0 0 0 0 0 0 0 0 0 0 0 0 0 0 0 0 0 0 0 0 0 0 0 0 0 0 0 0 0 0 0 0 0 0 0 0 0 0 0 0 0 0 0 0
0 0 0 0 2623 2626 2752 2766 2944 2955 2990 2990 3030 3074 3104 3121 3146 3159 3164 3167 3169 3172 3187 3226 3265 3303 3307 3308 3308 3308 3302 3302 3302 3304 3322 3323 3338 3361 3373 3379 3383 3386 3391 3393 3395 3397 3398 3398 3398 3400 3407 3421 3436 3445 3450 3459 3464 3469 3469 3470 3482 3499 3516 3530 3534 3538 3538 3538 3538 3540 3541 3550 3564 3575 3582 3587 3591 3595 3597 3601 3607 3616 3626 3634 3639 3642 3652 3664 3677 3680 3683 3683 3685 3687 3689 3702 3720 3732 3742 3743 3743 3743 3743 3743 3747 3750 3758 3760 3760 3761 3768 3775 3780 3781 3782 3784 3785 3786 3787 3789 3791 3792 3793 3797 3801 3806 3807 3809 3811 3812 3815 3818 3822 3823 3824 3825 3825 3825 3831 3839 3844 3845 3845 3846 3846 3847 3850 3851 3854 3854 3854 3855 3855 3854 3855 3855 3855 3866 3866 3866 3853 3794 3772 3772 3772 3806 3868 3889 3898 3901 3907 3908 3908 3908 3905 3898 3891 3888 3886 3885 3880 3876 3871 3867 3858 3844 3827 3819 3809 3804 3802 3790 3789 3789 3789 3793 3794 3797 3797 3797 3797 3789 3788 3786 3786 3785 3776 3771 3768 3768 3760 3753 3753 3752 3751 3753 3754 3761 3765 3770 3770 3770 3757 3730 3693 3665 3657 3649 3631 3622 3615 3568 3526 3513 3502 3491 3479 3459 3439 3411 3368 3313 3236 3059 2681 0 0 0 2074 2058 2055 2049 2038 2029 2026 2022 2020 2014 2009 2000 1986 1961 0 0 0 1705 1689 1679 1677 1677 1677 1676 1676 1676 1674 1674 1673 1673 1672 1672 1672 1672 1672 1672 1672 1672 1672 1672 1673 1673 1673 1672 1672 1671 1670 1668 1668 1667 1665 1662 1662 1661 1661 1661 1661 1660 1660 1659 1659 1659 1662 1665 1666 1666 1666 1665 1665 1665 1665 1666 1666 1666 1666 1667 1667 1668 1668 1669 1669 1670 1670 1670 1671 1671 1671 1671 1671 1670 1669 1669 1668 1667 1666 1666 1665 1665 1665 1663 1661 1659 1657 1655 1653 1651 1649 1649 1649 1650 1650 1650 1651 1651 1653 1654 1655 1656 1658 1659 1659 1661 1662 1663 1663 1663 1663 1664 1664 1665 1665 1665 1665 1665 1665 1665 1664 1663 1663 1661 1659 1658 1657 1657 1654 1646 1645 1645 1643 1643 1643 1644 1644 1644 1644 1644 1644 1647 1647 1648 1649 1649 1649 1652 1653 1654 1655 1655 1657 1658 1659 1659 1659 1661 1662 1662 1662 1663 1663 1663 1663 1663 1662 1662 1662 1661 1661 1661 1660 1659 1659 1659 1659 1660 1660 1661 1661 1661 1661 1661 1664 1668 1676 1703 1763 1794 1828 1857 1861 1870 1873 1874 1874 1875 1877 1877 1879 1880 1882 1882 1883 1883 1885 1885 1885 1886 1887 1888 1888 1888 1889 1889 1890 1891 1892 1893 1894 1895 1897 1899 1900 1901 1903 1906 1908 1909 1911 1912 1914 1916 1918 1921 1923 1926 1929 1932 1936 1940 1944 1948 1951 1956 1962 1966 1969 1972 1975 1977 1980 1984 1987 1990 1992 1992 1994 1996 1998 2000 2000 2000 1997 1995 1992 0 0 0 0 0 0 0 0 0 0 0 0 0 0 0 0 0 0 0 0 0 0 0 0 0 0 0 0 0 0 0 0 0 0 0 0 0 0 0 0 0 0 0 0 0 0 0 0 0 0 0 0 0 0 0 0 0 0 0 0 0 0 0 0 0 0 0 0 0 0 0 0 0 0 0 0 0 0 0 0 0 0 0 0 0 0 0 0 0 0 0 0 0 0 0 0 0 0 0 0 0 0 0 0 0 0 0 0 0
0 0 0 0 0 2626 2750 2752 2766 2771 2785 2814 2841 2867 2942 3000 3009 3012 3017 3063 3104 3127 3137 3171 3238 3302 3303 3308 3308 3308 3302 3302 3302 3302 3322 3323 3338 3354 3354 3360 3366 3367 3384 3389 3391 3389 3389 3387 3387 3387 3400 3417 3436 3444 3449 3457 3457 3457 3464 3464 3478 3499 3515 3530 3534 3538 3538 3538 3538 3538 3540 3549 3561 3573 3578 3580 3588 3594 3596 3601 3607 3614 3623 3630 3634 3641 3652 3664 3677 3680 3683 3683 3685 3687 3689 3702 3720 3732 3742 3743 3743 3743 3743 3743 3747 3750 3758 3760 3760 3761 3768 3775 3780 3781 3782 3784 3785 3786 3787 3789 3791 3792 3793 3795 3798 3805 3807 3809 3811 3812 3814 3815 3817 3823 3827 3830 3830 3831 3832 3836 3842 3845 3847 3847 3847 3849 3852 3852 3854 3854 3854 3855 3855 3854 3855 3855 3855 3866 3866 3866 3846 3794 3772 3772 3772 3808 3868 3888 3898 3901 3907 3908 3908 3908 3903 3895 3891 3888 3886 3885 3881 3876 3872 3867 3861 3850 3833 3817 3807 3801 3794 3788 3787 3787 3787 3790 3793 3794 3796 3796 3796 3789 3788 3786 3786 3786 3776 3766 3759 3754 3752 3752 3752 3752 3752 3754 3754 3760 3766 3771 3771 3771 3757 3730 3693 3665 3657 3649 3631 3615 3588 3555 3526 3513 3504 3502 3502 3490 3459 3411 3378 3322 3241 3096 2695 0 0 0 2074 2057 2051 2044 2034 2029 2026 2022 2019 2014 2009 2000 1986 0 0 0 0 1703 1689 1679 1676 1676 1676 1676 1676 1675 1672 1672 1671 1671 1671 1671 1671 1671 1671 1671 1671 1671 1671 1671 1671 1671 1671 1671 1671 1669 1668 1668 1667 1666 1664 1662 1661 1660 1659 1659 1659 1659 1658 1658 1658 1658 1658 1662 1664 1664 1664 1665 1665 1665 1665 1665 1666 1666 1666 1666 1666 1667 1668 1668 1668 1668 1669 1669 1669 1669 1669 1669 1669 1668 1668 1667 1666 1665 1663 1663 1663 1663 1663 1663 1661 1658 1656 1655 1652 1651 1649 1649 1649 1650 1650 1650 1651 1651 1653 1653 1654 1654 1655 1657 1658 1660 1661 1661 1662 1662 1662 1662 1663 1663 1663 1663 1663 1663 1663 1663 1663 1663 1661 1659 1658 1658 1657 1655 1653 1644 1644 1644 1643 1643 1643 1644 1644 1644 1644 1644 1644 1647 1647 1647 1648 1648 1648 1651 1653 1653 1653 1655 1656 1657 1657 1658 1659 1659 1660 1661 1661 1661 1661 1661 1661 1661 1661 1661 1660 1660 1660 1659 1659 1658 1658 1658 1658 1659 1659 1660 1660 1660 1660 1660 1661 1665 1672 1702 0 1792 1828 1857 1861 1870 1873 1874 1874 1876 1877 1879 1880 1881 1882 1883 1883 1884 1885 1885 1886 1887 1887 1888 1888 1889 1890 1890 1891 1891 1892 1893 1894 1895 1897 1899 1901 1901 1903 1906 1908 1909 1911 1912 1914 1916 1918 1920 1922 1924 1928 1932 1936 1940 1943 1946 1950 1955 1961 1966 1969 1971 1974 1978 1981 1984 1987 1990 1992 1993 1994 1995 1997 2000 2000 2000 1998 1997 1992 1966 0 0 0 0 0 0 0 0 0 0 0 0 0 0 0 0 0 0 0 0 0 0 0 0 0 0 0 0 0 0 0 0 0 0 0 0 0 0 0 0 0 0 0 0 0 0 0 0 0 0 0 0 0 0 0 0 0 0 0 0 0 0 0 0 0 0 0 0 0 0 0 0 0 0 0 0 0 0 0 0 0 0 0 0 0 0 0 0 0 0 0 0 0 0 0 0 0 0 0 0 0 0 0 0 0 0 0 0
0 0 0 0 0 0 0 0 2498 2509 2531 2557 2607 2619 2667 2681 2695 2715 2719 2781 2840 2877 2906 2925 2990 2997 3045 3150 3198 3211 3223 3277 3288 3296 3314 3322 3328 3328 3330 3335 3335 3359 3376 3377 3378 3378 3378 3376 3376 3376 3390 3412 3436 3444 3447 3452 3452 3452 3462 3462 3469 3487 3501 3512 3518 3523 3526 3529 3536 3536 3537 3548 3561 3573 3578 3580 3588 3594 3596 3597 3597 3602 3611 3622 3628 3638 3652 3664 3677 3680 3683 3683 3685 3687 3689 3701 3715 3730 3742 3743 3743 3743 3741 3741 3741 3745 3747 3754 3760 3761 3768 3775 3780 3781 3782 3784 3785 3786 3787 3790 3793 3793 3794 3795 3798 3805 3807 3808 3809 3809 3811 3812 3817 3823 3829 3831 3832 3832 3832 3836 3840 3845 3847 3847 3848 3850 3852 3852 3855 3859 3859 3859 3859 3858 3857 3858 3858 3857 3857 3857 3836 3794 3772 3772 3772 3819 3868 3886 3894 3901 3906 3906 3906 3905 3900 3894 3891 3887 3886 3885 3881 3876 3872 3871 3866 3855 3842 3817 3803 3795 3787 3783 3783 3783 3786 3790 3790 3790 3790 3790 3790 3789 3788 3787 3786 3786 3776 3766 3759 3754 3753 3753 3753 3753 3753 3754 3754 3758 3767 3772 3772 3772 3746 3720 3698 3665 3657 3649 3631 3615 3588 3555 3526 3516 3516 3513 3506 3503 3459 3416 3378 3322 3244 3134 2818 0 0 0 2078 2054 2047 2036 2031 2028 2024 2022 2019 2014 2009 2000 1986 0 0 0 0 1699 1687 1679 1676 1676 1676 1674 1674 1673 1672 1671 1671 1670 1670 1670 1670 1670 1670 1670 1670 1670 1670 1670 1670 1670 1670 1670 1669 1668 1668 1666 1666 1666 1664 1662 1659 1658 1658 1658 1658 1657 1657 1657 1657 1657 1657 1658 1659 1659 1660 1660 1660 1661 1662 1663 1664 1664 1665 1665 1665 1666 1666 1666 1667 1667 1668 1668 1668 1667 1667 1667 1666 1666 1665 1665 1665 1663 1662 1662 1662 1661 1661 1659 1657 1655 1654 1653 1652 1651 1649 1649 1649 1650 1650 1650 1651 1651 1651 1653 1653 1653 1654 1655 1657 1658 1660 1660 1660 1661 1661 1661 1662 1662 1662 1662 1662 1661 1661 1661 1661 1660 1659 1658 1657 1656 1655 1654 1653 1644 1643 1643 1643 1644 1644 1644 1644 1644 1644 1644 1644 1647 1647 1647 1647 1648 1648 1650 1652 1652 1652 1653 1654 1655 1655 1656 1657 1659 1659 1659 1659 1659 1659 1659 1659 1659 1659 1659 1659 1658 1658 1658 1657 1657 1657 1657 1657 1657 1658 1658 1658 1658 1657 1657 1657 1657 1666 1694 0 1792 1827 1857 1864 1870 1871 1874 1875 1876 1878 1880 1880 1881 1883 1883 1884 1884 1885 1886 1886 1887 1888 1889 1889 1890 1890 1890 1891 1892 1893 1893 1894 1895 1898 1899 1901 1902 1904 1906 1908 1909 1911 1912 1914 1916 1918 1920 1922 1923 1927 1931 1934 1939 1941 1945 1950 1955 1961 1966 1968 1971 1975 1978 1981 1984 1987 1990 1992 1994 1995 1995 1996 2000 2002 2002 2002 2001 2001 1986 0 0 0 0 0 0 0 0 0 0 0 0 0 0 0 0 0 0 0 0 0 0 0 0 0 0 0 0 0 0 0 0 0 0 0 0 0 0 0 0 0 0 0 0 0 0 0 0 0 0 0 0 0 0 0 0 0 0 0 0 0 0 0 0 0 0 0 0 0 0 0 0 0 0 0 0 0 0 0 0 0 0 0 0 0 0 0 0 0 0 0 0 0 0 0 0 0 0 0 0 0 0 0 0 0 0 0 0
0 0 0 0 0 0 0 0 2498 2509 2531 2550 2577 2614 2623 2626 2632 2632 2650 2663 2671 2672 2680 2680 2683 2685 2762 2854 2930 2982 3013 3020 3025 3060 3088 3138 3203 3229 3273 3303 3335 3349 3359 3365 3365 3365 3356 3356 3356 3370 3383 3408 3428 3428 3434 3443 3443 3446 3456 3456 3458 3468 3477 3482 3487 3493 3500 3505 3514 3519 3526 3531 3540 3553 3566 3580 3588 3594 3594 3594 3594 3594 3603 3614 3625 3634 3647 3661 3669 3671 3671 3674 3675 3676 3681 3687 3704 3724 3739 3739 3739 3736 3727 3727 3727 3728 3732 3736 3745 3754 3762 3772 3776 3777 3778 3780 3780 3784 3787 3791 3796 3796 3796 3798 3798 3805 3807 3807 3807 3807 3807 3807 3816 3822 3829 3833 3833 3834 3835 3836 3840 3845 3847 3850 3852 3852 3853 3853 3856 3860 3860 3860 3859 3858 3857 3856 3853 3850 3847 3847 3829 3785 3785 3785 3792 3839 3868 3880 3888 3899 3906 3906 3906 3904 3900 3893 3891 3886 3886 3884 3881 3876 3873 3871 3867 3859 3842 3817 3799 3789 3782 3782 3782 3782 3786 3788 3789 3789 3789 3788 3788 3786 3786 3786 3784 3782 3782 3766 3759 3754 3754 3754 3755 3755 3755 3755 3755 3758 3767 3767 3767 3756 3740 3720 3698 3680 3668 3650 3633 3615 3588 3555 3538 3530 3528 3527 3524 3503 3461 3418 3378 3322 3259 3161 2889 2524 0 0 2085 2054 2046 2033 2028 2028 2024 2022 2018 2013 2009 2000 1979 0 0 0 0 1698 1679 1677 1675 1674 1674 1673 1672 1671 1670 1670 1669 1669 1669 1669 1669 1669 1669 1669 1668 1668 1668 1668 1668 1668 1668 1668 1668 1667 1666 1665 1665 1665 1663 1661 1660 1657 1657 1657 1657 1657 1657 1656 1656 1655 1655 1655 1655 1655 1655 1657 1658 1660 1661 1662 1662 1663 1663 1663 1664 1664 1664 1664 1665 1666 1666 1666 1666 1666 1665 1665 1664 1664 1663 1662 1662 1662 1661 1660 1660 1659 1658 1657 1655 1653 1653 1652 1652 1651 1649 1649 1649 1650 1650 1650 1650 1650 1650 1650 1652 1653 1653 1653 1655 1657 1659 1659 1659 1659 1660 1660 1660 1660 1660 1660 1660 1660 1660 1659 1659 1658 1658 1657 1656 1654 1654 1653 1651 1644 1643 1643 1643 1644 1644 1644 1644 1644 1644 1644 1644 1647 1647 1647 1647 1647 1647 1647 1650 1652 1652 1652 1653 1653 1654 1654 1655 1656 1656 1657 1657 1657 1657 1657 1657 1658 1658 1657 1657 1656 1656 1656 1656 1655 1655 1655 1655 1655 1656 1657 1657 1657 1657 1657 1657 1657 1663 1687 0 1792 1825 1857 1864 1865 1869 1874 1875 1877 1878 1880 1881 1881 1883 1884 1884 1885 1886 1886 1887 1887 1889 1889 1890 1891 1891 1891 1892 1893 1893 1893 1895 1896 1898 1899 1901 1902 1904 1906 1908 1909 1911 1912 1914 1915 1917 1920 1921 1923 1926 1931 1934 1938 1941 1945 1950 1955 1961 1966 1968 1971 1975 1978 1982 1985 1988 1991 1992 1994 1995 1996 1996 1998 2002 2003 2004 2004 2003 1987 0 0 0 0 0 0 0 0 0 0 0 0 0 0 0 0 0 0 0 0 0 0 0 0 0 0 0 0 0 0 0 0 0 0 0 0 0 0 0 0 0 0 0 0 0 0 0 0 0 0 0 0 0 0 0 0 0 0 0 0 0 0 0 0 0 0 0 0 0 0 0 0 0 0 0 0 0 0 0 0 0 0 0 0 0 0 0 0 0 0 0 0 0 0 0 0 0 0 0 0 0 0 0 0 0 0 0 0
0 0 0 0 0 0 0 2493 2498 2509 2531 2550 2577 2614 2623 2626 2632 2632 2642 2648 2651 2670 2672 2680 2683 2685 2708 2784 2818 2818 2818 2813 2813 2813 2824 2872 2949 3046 3086 3093 3095 3110 3143 3159 3169 3209 3268 3343 3345 3364 3366 3369 3374 3378 3388 3402 3406 3406 3430 3437 3442 3450 3457 3463 3464 3468 3473 3478 3482 3500 3513 3522 3525 3530 3541 3548 3564 3575 3583 3587 3588 3588 3590 3599 3610 3622 3630 3641 3648 3653 3658 3661 3663 3666 3669 3673 3688 3715 3719 3719 3719 3718 3718 3718 3720 3722 3725 3727 3735 3744 3755 3768 3770 3770 3773 3773 3773 3779 3784 3791 3796 3798 3798 3799 3801 3806 3807 3807 3807 3807 3807 3807 3814 3822 3829 3833 3835 3838 3839 3840 3840 3844 3850 3853 3853 3853 3853 3853 3856 3860 3860 3860 3859 3858 3857 3856 3850 3840 3840 3838 3821 3785 3785 3785 3792 3839 3864 3872 3878 3891 3898 3901 3901 3901 3895 3891 3888 3886 3885 3883 3881 3877 3873 3871 3867 3859 3842 3816 3797 3786 3782 3780 3780 3780 3783 3783 3785 3787 3787 3785 3785 3784 3784 3784 3783 3782 3782 3773 3759 3755 3755 3753 3755 3755 3754 3754 3758 3758 3768 3768 3768 3756 3740 3720 3712 3693 3668 3650 3633 3615 3591 3567 3552 3547 3536 3528 3527 3503 3461 3416 3373 3322 3259 3161 2967 2564 0 0 2085 2054 2038 2030 2025 2025 2024 2022 2017 2011 2004 1990 1970 0 0 0 0 1694 1677 1675 1673 1673 1672 1670 1669 1669 1669 1668 1668 1668 1668 1668 1668 1668 1668 1668 1667 1667 1667 1667 1667 1667 1667 1667 1666 1666 1665 1665 1664 1664 1663 1661 1660 1657 1657 1657 1656 1656 1656 1656 1655 1655 1655 1655 1655 1655 1655 1655 1657 1660 1660 1660 1661 1661 1661 1661 1661 1662 1662 1663 1664 1664 1664 1664 1664 1664 1663 1662 1661 1661 1660 1660 1660 1659 1659 1659 1659 1657 1656 1654 1653 1653 1652 1652 1652 1651 1649 1649 1649 1649 1650 1650 1650 1650 1650 1650 1650 1650 1651 1652 1654 1655 1657 1657 1658 1658 1659 1659 1659 1657 1657 1657 1658 1658 1658 1657 1657 1656 1656 1656 1655 1653 1652 1652 1651 1644 1643 1643 1643 1644 1644 1644 1644 1644 1644 1644 1644 1647 1647 1647 1647 1647 1647 1647 1649 1652 1652 1652 1652 1652 1652 1653 1654 1655 1655 1655 1655 1655 1655 1656 1656 1656 1656 1655 1655 1655 1655 1654 1654 1654 1654 1653 1653 1654 1654 1656 1656 1656 1656 1656 1657 1657 1662 1683 0 1782 1817 1855 1864 1865 1869 1872 1876 1877 1878 1880 1881 1882 1883 1884 1884 1885 1886 1887 1888 1888 1889 1890 1890 1891 1891 1892 1892 1893 1893 1895 1895 1896 1898 1900 1901 1902 1904 1907 1908 1909 1910 1912 1913 1915 1917 1919 1922 1923 1926 1929 1934 1938 1941 1945 1950 1955 1961 1966 1968 1971 1975 1978 1982 1986 1989 1991 1992 1995 1996 1997 1998 1999 2001 2006 2006 2006 2004 1987 0 0 0 0 0 0 0 0 0 0 0 0 0 0 0 0 0 0 0 0 0 0 0 0 0 0 0 0 0 0 0 0 0 0 0 0 0 0 0 0 0 0 0 0 0 0 0 0 0 0 0 0 0 0 0 0 0 0 0 0 0 0 0 0 0 0 0 0 0 0 0 0 0 0 0 0 0 0 0 0 0 0 0 0 0 0 0 0 0 0 0 0 0 0 0 0 0 0 0 0 0 0 0 0 0 0 0 0
0 0 0 0 0 0 2475 2521 2549 2550 2556 2564 2577 2614 2623 2626 2632 2632 2642 2648 2651 2670 2672 2680 2683 2685 2708 2784 2818 2818 2818 2813 2813 2813 2824 2872 2949 2989 3005 3005 3005 2984 2971 2971 2971 2982 3009 3010 3033 3033 3033 3039 3039 3039 3049 3098 3131 3187 3288 3377 3409 3426 3438 3445 3448 3448 3450 3448 3450 3452 3477 3491 3493 3498 3498 3503 3531 3553 3563 3569 3572 3575 3580 3586 3596 3605 3610 3618 3628 3641 3645 3654 3654 3655 3661 3661 3673 3692 3698 3702 3702 3705 3709 3710 3714 3719 3720 3721 3726 3739 3748 3761 3761 3761 3764 3764 3764 3775 3784 3791 3796 3798 3798 3799 3803 3806 3806 3806 3803 3802 3802 3802 3814 3822 3825 3831 3839 3840 3840 3844 3844 3844 3850 3853 3853 3853 3853 3853 3856 3856 3857 3859 3858 3857 3857 3847 3838 3833 3831 3829 3809 3780 3780 3780 3792 3839 3863 3865 3874 3878 3885 3892 3892 3892 3887 3885 3882 3882 3882 3882 3881 3877 3873 3871 3866 3859 3841 3816 3796 3786 3782 3780 3780 3780 3780 3781 3781 3782 3782 3784 3784 3784 3783 3783 3782 3780 3779 3773 3759 3755 3755 3753 3755 3757 3758 3759 3761 3762 3771 3771 3771 3754 3740 3728 3718 3693 3668 3650 3633 3615 3591 3567 3567 3554 3538 3527 3525 3486 3453 3410 3371 3320 3262 3169 2991 2616 0 0 2085 2049 2036 2027 2023 2022 2020 2019 2016 2007 1999 1988 1970 0 0 0 0 1693 1676 1675 1672 1670 1669 1669 1668 1668 1668 1667 1667 1667 1667 1667 1667 1667 1666 1666 1666 1666 1666 1666 1666 1666 1666 1666 1666 1664 1664 1664 1664 1663 1662 1661 1660 1657 1655 1655 1655 1655 1655 1654 1654 1654 1655 1655 1655 1654 1654 1654 1657 1659 1659 1659 1659 1659 1659 1659 1660 1660 1661 1661 1662 1662 1662 1662 1662 1662 1660 1659 1658 1658 1658 1658 1658 1658 1657 1657 1656 1655 1654 1653 1652 1652 1652 1652 1652 1651 1650 1650 1650 1650 1650 1650 1649 1649 1650 1650 1650 1650 1650 1652 1653 1654 1655 1655 1656 1657 1657 1657 1656 1656 1654 1654 1654 1654 1654 1654 1654 1654 1654 1654 1653 1653 1652 1651 1651 1644 1641 1641 1640 1640 1640 1641 1643 1643 1644 1644 1644 1645 1646 1646 1646 1646 1646 1646 1649 1650 1651 1651 1651 1651 1651 1651 1652 1652 1653 1653 1653 1654 1654 1654 1654 1654 1654 1653 1653 1653 1653 1653 1653 1652 1652 1652 1652 1652 1652 1654 1655 1655 1655 1654 1654 1654 1662 1681 0 0 1809 1847 1864 1865 1869 1872 1876 1877 1878 1880 1881 1883 1883 1884 1885 1886 1886 1888 1888 1889 1889 1890 1890 1891 1892 1892 1893 1894 1894 1895 1896 1897 1899 1900 1901 1903 1905 1907 1908 1909 1910 1911 1913 1915 1917 1919 1922 1923 1924 1929 1934 1938 1943 1947 1951 1956 1961 1966 1969 1971 1975 1978 1983 1986 1989 1992 1993 1995 1997 1998 1999 2001 2001 2003 2005 2005 2005 1989 0 0 0 0 0 0 0 0 0 0 0 0 0 0 0 0 0 0 0 0 0 0 0 0 0 0 0 0 0 0 0 0 0 0 0 0 0 0 0 0 0 0 0 0 0 0 0 0 0 0 0 0 0 0 0 0 0 0 0 0 0 0 0 0 0 0 0 0 0 0 0 0 0 0 0 0 0 0 0 0 0 0 0 0 0 0 0 0 0 0 0 0 0 0 0 0 0 0 0 0 0 0 0 0 0 0 0 0
2565 2565 2588 2597 2599 2599 2599 2599 2654 2668 2668 2701 2701 2678 2678 2678 2648 2644 2644 2648 2651 2670 2692 2697 2698 2708 2708 2784 2818 2818 2818 2813 2813 2813 2824 2872 2949 2989 3005 3005 3005 2984 2971 2964 2961 2961 2961 2963 2987 3022 3022 3022 2974 2941 2941 2941 2950 2974 2989 3016 3050 3066 3085 3097 3115 3162 3166 3224 3251 3298 3368 3444 3475 3475 3475 3463 3463 3463 3466 3477 3503 3527 3549 3571 3583 3587 3590 3596 3615 3632 3638 3651 3651 3652 3655 3655 3662 3669 3671 3674 3674 3684 3693 3695 3697 3699 3706 3716 3716 3726 3737 3747 3750 3750 3753 3753 3754 3766 3777 3790 3793 3797 3798 3799 3803 3806 3806 3806 3800 3800 3800 3800 3807 3809 3816 3830 3839 3840 3840 3844 3844 3844 3850 3850 3850 3848 3848 3848 3851 3853 3856 3856 3856 3856 3856 3847 3838 3833 3831 3829 3809 3774 3774 3774 3775 3829 3864 3865 3874 3878 3879 3884 3884 3884 3883 3880 3877 3877 3877 3877 3877 3877 3870 3866 3862 3853 3834 3815 3795 3786 3785 3782 3778 3778 3777 3777 3777 3777 3777 3778 3778 3778 3778 3774 3774 3773 3771 3769 3757 3756 3756 3755 3755 3756 3758 3769 3771 3773 3775 3775 3775 3753 3740 3739 3718 3693 3664 3641 3622 3610 3591 3567 3567 3554 3538 3523 3488 3473 3445 3409 3371 3318 3263 3197 2999 2652 0 0 0 2049 2033 2027 2022 2020 2017 2016 2016 2002 1996 1988 1970 0 0 0 1721 1688 1675 1675 1672 1669 1669 1668 1668 1668 1667 1666 1666 1666 1666 1666 1665 1665 1665 1665 1665 1664 1664 1665 1665 1665 1665 1665 1665 1663 1663 1663 1662 1661 1660 1660 1659 1656 1654 1653 1653 1653 1652 1652 1652 1653 1653 1653 1653 1653 1654 1654 1657 1659 1659 1659 1658 1658 1658 1658 1659 1659 1659 1660 1660 1660 1660 1660 1660 1659 1656 1655 1654 1654 1654 1655 1656 1656 1656 1655 1654 1654 1653 1653 1652 1652 1652 1652 1652 1651 1651 1650 1650 1650 1650 1650 1649 1649 1650 1650 1650 1650 1650 1651 1653 1653 1653 1654 1654 1654 1653 1652 1651 1651 1651 1651 1652 1652 1653 1653 1652 1652 1652 1651 1651 1651 1651 1650 1649 1644 1641 1641 1640 1640 1640 1641 1643 1643 1644 1644 1644 1645 1646 1646 1646 1646 1646 1646 1649 1649 1649 1650 1650 1649 1649 1649 1649 1649 1651 1651 1651 1652 1652 1652 1652 1651 1651 1651 1651 1651 1651 1651 1651 1651 1650 1650 1650 1650 1652 1653 1653 1654 1654 1654 1654 1654 1660 1676 0 0 1808 1840 1862 1868 1869 1872 1876 1878 1879 1880 1882 1883 1883 1885 1885 1886 1887 1888 1889 1889 1890 1891 1891 1892 1892 1893 1893 1894 1894 1895 1897 1899 1899 1901 1902 1904 1905 1907 1908 1909 1910 1911 1913 1915 1917 1919 1922 1923 1924 1929 1933 1939 1944 1948 1952 1957 1961 1966 1970 1973 1976 1980 1984 1987 1989 1992 1994 1996 1997 2001 2001 2001 2001 2003 2005 2005 2005 1989 0 0 0 0 0 0 0 0 0 0 0 0 0 0 0 0 0 0 0 0 0 0 0 0 0 0 0 0 0 0 0 0 0 0 0 0 0 0 0 0 0 0 0 0 0 0 0 0 0 0 0 0 0 0 0 0 0 0 0 0 0 0 0 0 0 0 0 0 0 0 0 0 0 0 0 0 0 0 0 0 0 0 0 0 0 0 0 0 0 0 0 0 0 0 0 0 0 0 0 0 0 0 0 0 0 0 0 0
2841 2850 2850 2851 2851 2887 2945 2971 2971 2971 2949 2882 2881 2870 2811 2762 2729 2729 2729 2733 2738 2745 2764 2788 2800 2808 2817 2846 2846 2852 2855 2856 2856 2859 2878 2927 2954 2989 3005 3005 3005 2984 2971 2964 2961 2961 2961 2963 2987 3022 3022 3022 2974 2941 2941 2941 2950 2974 2989 3016 3050 3066 3085 3097 3098 3098 3098 3103 3105 3105 3120 3133 3193 3224 3232 3256 3260 3286 3342 3410 3436 3478 3478 3478 3478 3478 3497 3526 3542 3558 3560 3577 3591 3599 3611 3631 3649 3649 3649 3649 3649 3653 3664 3672 3672 3683 3695 3703 3703 3706 3715 3727 3732 3733 3733 3740 3750 3757 3768 3779 3783 3786 3793 3799 3803 3804 3804 3804 3795 3795 3795 3796 3801 3808 3815 3826 3839 3840 3840 3840 3840 3840 3841 3841 3841 3835 3835 3835 3842 3844 3844 3848 3849 3849 3849 3847 3838 3833 3831 3829 3809 3774 3760 3760 3760 3825 3864 3865 3874 3877 3878 3879 3880 3880 3880 3880 3877 3872 3868 3868 3868 3866 3865 3861 3852 3837 3822 3810 3795 3786 3785 3783 3779 3775 3772 3772 3772 3771 3771 3773 3773 3773 3773 3773 3771 3766 3756 3753 3753 3753 3753 3753 3756 3758 3761 3772 3775 3779 3779 3775 3764 3754 3742 3739 3718 3685 3654 3628 3610 3589 3577 3567 3567 3554 3538 3502 3461 3432 3410 3383 3356 3315 3259 3212 3044 2682 0 0 0 2049 2033 2024 2022 2017 2017 2016 2012 1999 1995 1988 1971 0 0 0 1708 1682 1675 1675 1671 1669 1668 1668 1667 1667 1666 1666 1666 1665 1665 1664 1664 1664 1664 1664 1664 1664 1664 1664 1664 1664 1663 1662 1662 1662 1661 1661 1661 1660 1659 1657 1655 1654 1654 1653 1653 1652 1652 1652 1652 1652 1654 1654 1654 1654 1654 1656 1657 1658 1658 1658 1657 1656 1656 1656 1656 1657 1658 1658 1657 1657 1657 1657 1657 1657 1655 1654 1653 1651 1651 1651 1651 1651 1652 1652 1653 1653 1653 1652 1652 1652 1652 1652 1652 1653 1653 1652 1652 1652 1650 1650 1650 1650 1650 1650 1650 1650 1650 1651 1651 1652 1652 1652 1652 1651 1650 1650 1649 1648 1648 1648 1649 1649 1649 1650 1650 1650 1650 1650 1649 1649 1649 1649 1647 1644 1642 1641 1640 1640 1640 1641 1643 1643 1644 1644 1644 1645 1646 1646 1646 1646 1646 1646 1648 1648 1649 1649 1649 1649 1649 1649 1648 1648 1648 1648 1648 1649 1649 1649 1649 1649 1649 1649 1649 1649 1649 1649 1649 1649 1649 1649 1649 1650 1651 1651 1653 1653 1653 1653 1654 1654 1659 1671 0 0 1806 1838 1861 1870 1871 1874 1877 1878 1880 1880 1882 1883 1884 1885 1886 1886 1887 1888 1889 1890 1890 1891 1891 1892 1892 1894 1894 1895 1895 1896 1897 1899 1900 1902 1903 1904 1905 1907 1909 1909 1911 1911 1913 1915 1917 1920 1922 1923 1924 1928 1933 1939 1944 1948 1953 1957 1962 1966 1970 1974 1978 1981 1985 1987 1990 1992 1994 1997 1999 2001 2001 2002 2002 2003 2005 2005 2005 1989 1963 0 0 0 0 0 0 0 0 0 0 0 0 0 0 0 0 0 0 0 0 0 0 0 0 0 0 0 0 0 0 0 0 0 0 0 0 0 0 0 0 0 0 0 0 0 0 0 0 0 0 0 0 0 0 0 0 0 0 0 0 0 0 0 0 0 0 0 0 0 0 0 0 0 0 0 0 0 0 0 0 0 0 0 0 0 0 0 0 0 0 0 0 0 0 0 0 0 0 0 0 0 0 0 0 0 0 0
3022 3022 3033 3065 3068 3107 3150 3184 3184 3184 3186 3186 3186 3222 3238 3240 3240 3238 3217 3196 3171 3146 3116 3045 3045 3045 2995 2990 2988 2977 2975 2971 2975 2977 2990 2994 3001 3059 3080 3080 3080 3021 3018 2969 2961 2961 2961 2963 2987 3022 3022 3022 2974 2941 2941 2941 2950 2974 2989 3016 3050 3066 3085 3097 3098 3098 3098 3103 3105 3105 3120 3133 3142 3155 3161 3169 3215 3215 3215 3209 3209 3209 3215 3261 3264 3295 3353 3376 3379 3402 3406 3455 3474 3505 3540 3545 3545 3562 3562 3566 3566 3585 3604 3618 3620 3627 3647 3662 3666 3669 3684 3696 3707 3716 3725 3737 3748 3755 3756 3761 3772 3778 3787 3792 3794 3795 3795 3795 3791 3791 3791 3791 3796 3803 3811 3825 3825 3825 3825 3825 3825 3825 3833 3833 3833 3832 3830 3830 3830 3834 3835 3836 3842 3848 3848 3848 3843 3838 3831 3829 3808 3769 3724 3724 3724 3814 3856 3865 3874 3876 3877 3877 3879 3880 3880 3880 3877 3872 3868 3868 3866 3862 3862 3859 3845 3833 3820 3804 3792 3786 3785 3783 3778 3774 3766 3766 3766 3766 3766 3767 3767 3769 3770 3770 3770 3766 3756 3753 3753 3753 3753 3753 3756 3756 3762 3772 3775 3779 3779 3775 3764 3756 3744 3739 3718 3685 3651 3618 3600 3576 3560 3550 3550 3548 3529 3485 3427 3399 3387 3374 3336 3299 3263 3217 3074 2714 0 0 0 2049 2033 2024 2021 2017 2015 2010 2007 1998 1994 1988 1971 0 0 0 1698 1672 1672 1670 1670 1668 1668 1667 1667 1666 1666 1665 1664 1664 1663 1663 1663 1662 1662 1662 1662 1662 1662 1662 1662 1661 1661 1661 1660 1660 1660 1660 1660 1660 1659 1657 1655 1654 1654 1653 1653 1652 1652 1652 1652 1652 1655 1655 1655 1655 1655 1656 1656 1656 1656 1656 1655 1655 1654 1654 1654 1654 1654 1654 1654 1654 1654 1653 1652 1652 1652 1651 1651 1651 1649 1649 1649 1651 1651 1651 1652 1652 1652 1651 1651 1651 1653 1653 1653 1653 1653 1653 1653 1652 1651 1651 1650 1650 1650 1650 1650 1650 1650 1650 1650 1650 1650 1650 1650 1650 1649 1647 1646 1645 1645 1645 1647 1647 1647 1648 1647 1647 1647 1647 1647 1647 1647 1647 1645 1643 1643 1643 1643 1643 1643 1643 1644 1645 1645 1645 1646 1646 1646 1646 1646 1646 1646 1646 1648 1648 1648 1647 1645 1645 1645 1646 1646 1646 1646 1645 1642 1642 1642 1643 1644 1644 1645 1645 1646 1647 1647 1648 1648 1648 1648 1648 1648 1650 1650 1651 1651 1651 1651 1651 1651 1654 1659 1670 0 0 1803 1830 1862 1873 1874 1876 1878 1879 1880 1880 1882 1883 1884 1885 1886 1887 1887 1888 1889 1890 1891 1891 1892 1892 1894 1894 1894 1895 1896 1896 1898 1899 1900 1902 1903 1905 1905 1907 1909 1910 1911 1912 1913 1915 1917 1921 1922 1924 1924 1927 1932 1939 1944 1948 1953 1957 1962 1966 1970 1974 1978 1981 1985 1988 1991 1993 1995 1997 2000 2001 2001 2002 2002 2003 2008 2008 2008 1997 1977 0 0 0 0 0 0 0 0 0 0 0 0 0 0 0 0 0 0 0 0 0 0 0 0 0 0 0 0 0 0 0 0 0 0 0 0 0 0 0 0 0 0 0 0 0 0 0 0 0 0 0 0 0 0 0 0 0 0 0 0 0 0 0 0 0 0 0 0 0 0 0 0 0 0 0 0 0 0 0 0 0 0 0 0 0 0 0 0 0 0 0 0 0 0 0 0 0 0 0 0 0 0 0 0 0 0 0
3067 3067 3093 3104 3106 3120 3150 3184 3217 3221 3236 3247 3247 3247 3248 3248 3264 3267 3269 3273 3273 3269 3269 3273 3285 3285 3300 3302 3302 3321 3322 3325 3325 3325 3310 3277 3264 3264 3264 3264 3264 3253 3078 3018 2998 2996 2996 2996 3043 3072 3072 3072 3064 3033 3033 3033 3043 3047 3089 3098 3104 3106 3106 3106 3106 3103 3098 3103 3105 3105 3120 3133 3142 3155 3161 3169 3215 3215 3215 3209 3209 3209 3215 3261 3264 3292 3305 3310 3310 3311 3310 3310 3301 3301 3301 3312 3360 3415 3415 3435 3444 3444 3457 3512 3533 3533 3533 3548 3568 3568 3600 3626 3629 3638 3682 3715 3728 3728 3730 3730 3730 3749 3774 3774 3776 3776 3773 3773 3774 3774 3775 3778 3783 3790 3792 3792 3794 3795 3795 3797 3802 3811 3819 3829 3829 3829 3818 3818 3818 3825 3825 3827 3835 3848 3848 3848 3843 3838 3831 3829 3808 3764 3719 3719 3719 3812 3847 3865 3874 3876 3877 3877 3879 3880 3880 3880 3878 3872 3868 3868 3863 3862 3862 3856 3844 3833 3820 3804 3791 3785 3784 3782 3777 3772 3765 3763 3763 3760 3756 3756 3756 3763 3769 3769 3769 3764 3756 3753 3753 3753 3755 3756 3756 3756 3765 3775 3775 3775 3775 3775 3764 3757 3744 3736 3718 3685 3651 3618 3600 3576 3560 3539 3536 3530 3515 3474 3427 3399 3387 3374 3336 3299 3264 3217 3097 2748 0 0 0 2049 2033 2024 2021 2016 2009 2005 1999 1997 1993 1987 1971 0 0 0 1698 1672 1671 1670 1669 1667 1667 1667 1667 1665 1665 1664 1663 1663 1662 1662 1662 1662 1661 1660 1660 1660 1660 1660 1660 1660 1659 1659 1659 1659 1659 1658 1658 1658 1657 1657 1655 1654 1654 1654 1653 1654 1654 1654 1654 1654 1654 1654 1655 1655 1655 1655 1655 1655 1655 1653 1653 1653 1653 1653 1653 1651 1649 1648 1648 1648 1648 1648 1648 1648 1646 1646 1646 1647 1648 1648 1648 1648 1648 1649 1649 1649 1649 1649 1650 1650 1651 1652 1652 1653 1653 1653 1653 1652 1652 1651 1650 1650 1650 1650 1650 1649 1649 1649 1649 1649 1646 1644 1644 1643 1643 1641 1636 1636 1636 1636 1638 1640 1640 1640 1640 1640 1640 1640 1641 1642 1643 1643 1643 1643 1643 1643 1645 1645 1645 1645 1646 1646 1646 1646 1646 1647 1647 1647 1647 1647 1647 1647 1647 1647 1645 1645 1643 1643 1643 1643 1643 1643 1643 1641 1638 1638 1638 1638 1638 1639 1639 1640 1641 1644 1646 1646 1646 1647 1647 1647 1647 1648 1648 1650 1650 1650 1650 1651 1651 1654 1659 1670 0 0 1803 1830 1862 1874 1875 1876 1878 1879 1880 1881 1882 1883 1884 1885 1886 1887 1888 1889 1889 1890 1891 1892 1892 1893 1894 1895 1896 1896 1896 1897 1898 1899 1900 1902 1903 1905 1906 1907 1909 1910 1912 1913 1915 1916 1918 1921 1923 1924 1925 1927 1931 1937 1943 1948 1953 1957 1962 1966 1970 1974 1978 1981 1985 1988 1991 1993 1995 1998 2000 2001 2002 2003 2005 2008 2011 2015 2015 2015 2001 0 0 0 0 0 0 0 0 0 0 0 0 0 0 0 0 0 0 0 0 0 0 0 0 0 0 0 0 0 0 0 0 0 0 0 0 0 0 0 0 0 0 0 0 0 0 0 0 0 0 0 0 0 0 0 0 0 0 0 0 0 0 0 0 0 0 0 0 0 0 0 0 0 0 0 0 0 0 0 0 0 0 0 0 0 0 0 0 0 0 0 0 0 0 0 0 0 0 0 0 0 0 0 0 0 0 0
3095 3095 3114 3120 3121 3123 3154 3191 3217 3221 3238 3250 3250 3250 3250 3250 3277 3281 3282 3282 3282 3282 3282 3288 3305 3305 3307 3322 3322 3322 3323 3327 3336 3348 3354 3354 3362 3370 3377 3399 3399 3400 3400 3400 3398 3400 3398 3402 3402 3402 3390 3378 3369 3363 3360 3324 3288 3254 3254 3254 3228 3228 3221 3176 3176 3176 3178 3185 3185 3185 3178 3155 3155 3155 3161 3169 3215 3215 3215 3209 3209 3209 3215 3261 3264 3292 3305 3310 3310 3311 3310 3310 3301 3301 3301 3312 3360 3376 3376 3376 3313 3298 3298 3298 3324 3353 3363 3366 3374 3392 3440 3456 3475 3507 3570 3570 3576 3576 3576 3585 3596 3622 3637 3649 3670 3674 3696 3710 3717 3724 3736 3753 3766 3766 3766 3766 3766 3766 3766 3771 3779 3798 3810 3813 3813 3810 3810 3809 3803 3803 3805 3805 3820 3836 3843 3843 3843 3838 3831 3823 3808 3764 3710 3710 3710 3790 3842 3859 3866 3872 3874 3874 3878 3880 3880 3880 3880 3877 3873 3868 3862 3862 3859 3854 3844 3830 3816 3803 3789 3782 3780 3779 3779 3772 3765 3763 3763 3759 3756 3751 3751 3751 3757 3764 3764 3764 3758 3755 3755 3755 3755 3758 3761 3772 3778 3778 3778 3778 3775 3774 3768 3757 3743 3736 3718 3684 3650 3618 3600 3576 3560 3539 3536 3530 3512 3468 3427 3399 3387 3374 3336 3299 3264 3224 3116 2842 0 0 0 2055 2035 2030 2021 2017 2009 2005 1995 1990 1986 1983 1956 0 0 0 1698 1672 1670 1669 1668 1666 1666 1666 1665 1664 1663 1663 1663 1662 1661 1660 1660 1658 1658 1658 1658 1658 1658 1659 1659 1659 1659 1659 1658 1656 1653 1653 1653 1655 1655 1655 1655 1654 1654 1654 1654 1654 1654 1654 1654 1654 1654 1654 1655 1656 1656 1656 1656 1655 1654 1653 1652 1652 1651 1651 1650 1649 1647 1646 1645 1645 1645 1645 1645 1645 1645 1643 1642 1642 1642 1642 1642 1642 1644 1645 1646 1647 1648 1649 1650 1650 1651 1651 1652 1652 1653 1653 1653 1652 1652 1651 1650 1650 1650 1650 1650 1649 1649 1649 1649 1649 1646 1642 1639 1637 1636 1634 1634 1634 1633 1633 1633 1631 1630 1630 1630 1632 1632 1633 1633 1635 1641 1643 1643 1644 1644 1645 1646 1646 1646 1646 1646 1646 1646 1646 1646 1647 1647 1647 1647 1647 1647 1647 1646 1645 1640 1638 1637 1637 1637 1637 1637 1637 1637 1636 1633 1633 1633 1633 1635 1636 1637 1638 1640 1640 1642 1643 1644 1644 1645 1645 1646 1646 1647 1649 1649 1649 1649 1649 1649 1654 1663 1670 0 0 1799 1830 1861 1874 1875 1876 1878 1879 1879 1881 1882 1883 1885 1885 1886 1887 1888 1889 1890 1890 1891 1892 1893 1894 1894 1895 1896 1897 1897 1898 1898 1899 1900 1902 1903 1905 1906 1907 1908 1910 1912 1913 1915 1917 1918 1921 1923 1925 1926 1927 1930 1936 1943 1947 1953 1957 1961 1964 1967 1973 1977 1980 1985 1988 1991 1993 1995 1998 2000 2002 2003 2004 2006 2009 2013 2015 2015 2015 2001 0 0 0 0 0 0 0 0 0 0 0 0 0 0 0 0 0 0 0 0 0 0 0 0 0 0 0 0 0 0 0 0 0 0 0 0 0 0 0 0 0 0 0 0 0 0 0 0 0 0 0 0 0 0 0 0 0 0 0 0 0 0 0 0 0 0 0 0 0 0 0 0 0 0 0 0 0 0 0 0 0 0 0 0 0 0 0 0 0 0 0 0 0 0 0 0 0 0 0 0 0 0 0 0 0 0 0
3141 3141 3155 3155 3157 3157 3161 3191 3227 3242 3244 3250 3250 3253 3253 3253 3277 3281 3282 3282 3287 3287 3288 3291 3315 3315 3315 3323 3323 3329 3334 3336 3339 3349 3364 3376 3387 3405 3424 3434 3435 3435 3434 3423 3415 3411 3411 3411 3416 3418 3433 3456 3461 3461 3461 3438 3404 3404 3404 3406 3411 3421 3430 3434 3458 3463 3463 3463 3443 3421 3414 3400 3358 3315 3315 3315 3394 3394 3394 3353 3277 3274 3271 3271 3271 3292 3305 3310 3310 3311 3310 3310 3301 3301 3301 3312 3360 3376 3376 3376 3313 3298 3298 3298 3324 3353 3363 3366 3374 3392 3398 3408 3445 3445 3445 3411 3366 3366 3366 3395 3427 3447 3484 3543 3622 3627 3627 3622 3620 3620 3620 3688 3688 3688 3640 3640 3640 3659 3690 3714 3754 3786 3786 3786 3789 3789 3789 3797 3797 3797 3785 3785 3785 3801 3814 3814 3814 3810 3806 3798 3790 3746 3710 3710 3710 3774 3832 3858 3864 3864 3870 3874 3877 3883 3883 3883 3883 3877 3875 3872 3867 3862 3859 3852 3844 3830 3816 3803 3787 3779 3779 3779 3779 3772 3767 3765 3763 3757 3756 3750 3750 3750 3751 3752 3758 3758 3758 3755 3755 3755 3756 3767 3777 3779 3781 3779 3779 3778 3775 3775 3769 3757 3743 3734 3714 3684 3650 3617 3604 3588 3566 3539 3536 3525 3510 3468 3430 3409 3393 3374 3341 3308 3277 3245 3147 2917 2539 0 0 2057 2039 2030 2025 2017 2009 2003 1993 1984 1980 1969 1946 0 0 0 1693 1672 1669 1668 1667 1665 1665 1665 1665 1663 1662 1662 1661 1660 1659 1659 1657 1657 1657 1657 1658 1658 1658 1658 1658 1658 1656 1656 1655 1653 1652 1652 1652 1653 1653 1653 1653 1653 1653 1654 1654 1654 1655 1655 1655 1655 1655 1655 1656 1656 1656 1656 1655 1655 1654 1653 1651 1650 1650 1648 1645 1644 1642 1642 1642 1640 1640 1640 1640 1640 1640 1640 1640 1640 1638 1637 1637 1637 1641 1642 1644 1646 1648 1649 1650 1650 1651 1651 1651 1652 1652 1652 1652 1652 1652 1651 1650 1650 1649 1649 1649 1649 1648 1648 1648 1647 1643 1642 1638 1635 1632 1632 1632 1633 1633 1633 1631 1629 1626 1626 1626 1628 1630 1630 1631 1633 1641 1642 1643 1644 1644 1645 1646 1646 1646 1646 1647 1647 1646 1646 1647 1647 1647 1647 1647 1647 1647 1647 1646 1644 1640 1637 1631 1631 1631 1631 1631 1631 1631 1630 1627 1627 1627 1630 1632 1633 1634 1636 1638 1638 1638 1642 1643 1643 1643 1644 1645 1645 1646 1646 1647 1647 1647 1647 1648 1653 1663 1674 1704 1761 1795 1830 1860 1874 1875 1876 1877 1878 1879 1881 1883 1883 1885 1885 1887 1887 1888 1889 1890 1891 1892 1893 1893 1894 1895 1896 1896 1897 1898 1899 1899 1900 1901 1902 1903 1905 1906 1907 1908 1910 1912 1913 1915 1917 1920 1921 1923 1925 1926 1927 1930 1936 1941 1946 1950 1953 1956 1961 1965 1970 1975 1980 1984 1987 1991 1993 1996 1998 2000 2003 2003 2004 2006 2009 2013 2015 2015 2015 2001 0 0 0 0 0 0 0 0 0 0 0 0 0 0 0 0 0 0 0 0 0 0 0 0 0 0 0 0 0 0 0 0 0 0 0 0 0 0 0 0 0 0 0 0 0 0 0 0 0 0 0 0 0 0 0 0 0 0 0 0 0 0 0 0 0 0 0 0 0 0 0 0 0 0 0 0 0 0 0 0 0 0 0 0 0 0 0 0 0 0 0 0 0 0 0 0 0 0 0 0 0 0 0 0 0 0 0
