0 0 0 0 0 0 0 0 0 0 0 0 0 0 0 0 0 0 0 0 0 0 0 0 0 0 0 0 0 0 0 0 0 0 0 0 0 0 0 0 0 0 0 0 0 0 0 0 0 0 0 0 0 0 0 0 0 0 0 0 0 0 0 0 0 0 0 0 0 0 0 0 0 0 0 0 0 0 0 0 0 0 0 0 0 0 0 0 0 0 0 0 0 0 0 0 0 0 0 0 0 0 0 0 0 0 0 0 0 0 0 0 0 0 0 0 0 0 0 0 0 0 0 0 0 0 0 0 0 0 2630 3097 3541 3646 3652 3656 3669 3679 3681 3681 3681 3679 3679 3679 3678 3675 3670 3666 3666 3666 3674 3683 3689 3694 3697 3697 3697 3697 3695 3695 3697 3699 3699 3705 3708 3708 3708 3713 3713 3713 3730 3730 3730 3727 3706 3701 3698 3688 3684 3683 3660 3660 3653 3621 3585 3562 3552 3545 3518 3414 3343 3290 3246 3246 3246 3266 3266 3266 3237 3228 3228 3228 3272 3272 3272 3237 3125 2761 0 0 0 2159 2128 2101 2089 2078 2070 2062 2057 2053 2049 2045 2039 2034 2030 2025 2021 2016 2011 2007 2003 2000 1995 1991 1988 1986 1983 1982 1980 1978 1976 1974 1972 1969 1967 1965 1963 1961 1959 1956 1954 1952 1950 1948 1946 1945 1944 1942 1940 1938 1936 1935 1933 1931 1929 1928 1926 1924 1923 1921 1920 1918 1916 1915 1914 1911 1910 1908 1907 1905 1902 1901 1900 1898 1896 1895 1894 1893 1892 1890 1889 1887 1887 1886 1885 1884 1883 1882 1880 1879 1877 1876 1874 1873 1871 1870 1869 1868 1866 1866 1864 1864 1862 1861 1860 1860 1858 1857 1855 1854 1853 1852 1851 1850 1849 1848 1847 1846 1845 1844 1843 1843 1843 1842 1842 1841 1841 1841 1841 1841 1841 1841 1841 1841 1842 1843 1843 1843 1843 1843 1843 1843 1843 1843 1843 1843 1843 1843 1843 1843 1843 1843 1843 1843 1843 1843 1842 1841 1840 1840 1840 1839 1838 1836 1832 1822 1795 1763 1742 1733 1729 1726 1724 1721 1718 1716 1714 1711 1709 1706 1704 1701 1698 1695 1693 1690 1687 1685 1682 1680 1677 1675 1673 1670 1667 1664 1661 1658 1656 1652 1649 1641 1630 1628 1625 1621 1619 1618 1615 1612 1608 1604 1599 1598 1596 1596 1595 1595 1595 1595 1595 1594 1593 1592 1590 1589 1588 1587 1585 1583 1581 1579 1577 1574 1571 1568 1566 1564 1561 1558 1556 1553 1551 1547 1543 1538 1530 1526 1523 1520 1518 1513 1508 1503 1497 1492 1488 1487 1487 1487 1487 1488 1488 1489 1489 1489 1489 1489 1488 1488 1487 1485 1483 1481 1478 1476 1473 1471 1470 1467 1464 1461 1458 1456 1455 1453 1452 1450 1448 1444 1439 1437 1434 1430 1421 1415 1411 1408 1407 1406 1406 1405 1404 1399 1398 1398 1397 1397 1397 1396 1396 1396 1395 1395 1395 1394 1391 1390 1388 1387 1386 1384 1382 1380 1376 1372 1370 1368 1367 1360 1360 1357 1355 1352 1348 1346 1345 1345 1345 1344 1344 1340 1340 1339 1339 1339 1339 1339 1339 1339 1337 1336 1336 1335 1333 1333 1331 1330 1329 1328 1327 1327 1326 1325 1324 1322 1320 1310 1299 1292 1260 0 1173 1163 1157 1154 1152 1135 1119 1094 1094 1093 1090 1088 1077 1066 1058 1058 1058 1058 1059 1059 1058 1059 1056 1054 1047 1036 1006 981 959 946 942 942 942 952 957 957 957 955 951 944 934 914 895 880 867 860 855 853 852 852 853 856 869 886 886 886 879 0
0 0 0 0 0 0 0 0 0 0 0 0 0 0 0 0 0 0 0 0 0 0 0 0 0 0 0 0 0 0 0 0 0 0 0 0 0 0 0 0 0 0 0 0 0 0 0 0 0 0 0 0 0 0 0 0 0 0 0 0 0 0 0 0 0 0 0 0 0 0 0 0 0 0 0 0 0 0 0 0 0 0 0 0 0 0 0 0 0 0 0 0 0 0 0 0 0 0 0 0 0 0 0 0 0 0 0 0 0 0 0 0 0 0 0 0 0 0 0 0 0 0 0 0 0 0 0 0 0 0 2593 2995 3495 3624 3636 3653 3659 3670 3674 3677 3677 3677 3677 3677 3673 3669 3668 3666 3666 3666 3674 3683 3690 3694 3698 3698 3699 3699 3699 3699 3699 3703 3703 3703 3708 3708 3708 3711 3711 3711 3730 3730 3730 3727 3705 3695 3683 3681 3680 3676 3653 3639 3632 3609 3575 3514 3399 3399 3378 3378 3343 3290 3246 3246 3246 3266 3266 3266 3237 3224 3224 3224 3224 3224 3214 3188 3046 2710 0 0 0 2158 2128 2107 2089 2077 2068 2062 2056 2052 2048 2044 2039 2034 2030 2025 2020 2014 2009 2006 2003 1998 1994 1991 1988 1986 1983 1982 1980 1978 1975 1973 1972 1969 1967 1965 1964 1961 1959 1956 1954 1952 1950 1948 1946 1945 1944 1942 1940 1938 1936 1934 1932 1930 1929 1927 1926 1924 1922 1921 1920 1917 1915 1914 1912 1910 1909 1907 1905 1904 1902 1900 1899 1898 1896 1894 1893 1892 1890 1889 1888 1887 1886 1886 1884 1884 1883 1881 1880 1879 1877 1876 1874 1873 1872 1871 1869 1868 1866 1865 1864 1863 1862 1861 1860 1859 1858 1857 1855 1854 1852 1851 1850 1849 1848 1847 1846 1845 1844 1843 1843 1842 1842 1842 1841 1841 1841 1841 1840 1840 1841 1841 1841 1841 1842 1842 1842 1843 1843 1843 1843 1843 1843 1843 1843 1843 1843 1843 1843 1843 1843 1843 1843 1843 1843 1842 1842 1841 1841 1840 1840 1839 1838 1836 1833 1822 1801 1772 1743 1733 1729 1726 1724 1720 1718 1716 1714 1712 1709 1706 1704 1701 1698 1695 1693 1690 1687 1685 1682 1680 1677 1675 1673 1670 1667 1664 1661 1658 1656 1652 1649 1641 1630 1628 1624 1620 1617 1613 1613 1611 1608 1604 1601 1598 1596 1596 1596 1596 1596 1596 1596 1595 1594 1593 1591 1590 1588 1587 1585 1583 1581 1579 1577 1574 1571 1568 1566 1564 1561 1559 1556 1553 1551 1547 1543 1538 1530 1526 1524 1520 1518 1513 1508 1503 1495 1491 1488 1487 1487 1487 1487 1487 1488 1488 1489 1489 1489 1489 1489 1488 1488 1485 1484 1481 1479 1477 1475 1472 1471 1468 1465 1462 1460 1457 1455 1454 1452 1451 1448 1444 1441 1437 1434 1428 1421 1415 1410 1408 1405 1405 1403 1403 1401 1399 1398 1396 1396 1394 1394 1394 1393 1393 1393 1393 1393 1393 1391 1390 1389 1389 1387 1385 1383 1380 1377 1374 1373 1372 1367 1364 1362 1362 1362 1354 1350 1347 1347 1346 1346 1346 1346 1343 1341 1341 1341 1341 1341 1341 1341 1340 1338 1337 1336 1335 1334 1334 1332 1330 1329 1328 1327 1327 1326 1325 1324 1323 1320 1310 1299 1292 0 0 1173 1163 1141 1128 1122 1114 1095 1094 1093 1090 1090 1088 1077 1070 1063 1062 1062 1062 1064 1064 1064 1054 1048 1047 1041 1036 1016 989 960 946 941 941 941 951 957 957 957 954 950 942 933 914 894 876 863 855 852 851 850 850 851 852 867 886 886 886 878 0
0 0 0 0 0 0 0 0 0 0 0 0 0 0 0 0 0 0 0 0 0 0 0 0 0 0 0 0 0 0 0 0 0 0 0 0 0 0 0 0 0 0 0 0 0 0 0 0 0 0 0 0 0 0 0 0 0 0 0 0 0 0 0 0 0 0 0 0 0 0 0 0 0 0 0 0 0 0 0 0 0 0 0 0 0 0 0 0 0 0 0 0 0 0 0 0 0 0 0 0 0 0 0 0 0 0 0 0 0 0 0 0 0 0 0 0 0 0 0 0 0 0 0 0 0 0 0 0 0 0 2533 2953 3420 3624 3625 3646 3659 3669 3674 3675 3675 3675 3670 3669 3665 3664 3663 3660 3660 3660 3668 3678 3690 3698 3698 3701 3702 3704 3706 3706 3706 3703 3703 3703 3710 3710 3710 3711 3711 3711 3728 3728 3728 3727 3704 3686 3678 3677 3645 3549 3489 3489 3489 3495 3495 3495 3399 3399 3378 3378 3343 3290 3246 3246 3246 3266 3266 3266 3266 3247 3237 3237 3216 3215 3202 3147 2970 2683 0 0 0 2148 2128 2108 2089 2078 2071 2062 2056 2052 2048 2043 2038 2033 2028 2023 2016 2012 2008 2004 2001 1998 1994 1991 1988 1986 1983 1982 1980 1977 1975 1973 1971 1969 1967 1965 1964 1961 1959 1956 1955 1952 1950 1948 1947 1945 1943 1942 1939 1938 1936 1933 1931 1930 1928 1927 1926 1923 1922 1920 1918 1916 1914 1913 1911 1910 1909 1906 1905 1903 1901 1900 1899 1897 1896 1894 1892 1891 1889 1889 1887 1886 1885 1884 1884 1883 1882 1881 1880 1879 1877 1876 1874 1873 1872 1871 1869 1868 1866 1865 1864 1863 1862 1861 1860 1859 1858 1857 1855 1853 1851 1850 1849 1848 1847 1847 1845 1844 1843 1842 1842 1842 1842 1842 1841 1841 1840 1840 1840 1840 1840 1841 1841 1841 1841 1842 1842 1842 1842 1843 1843 1843 1843 1843 1843 1843 1843 1843 1843 1843 1843 1843 1843 1843 1843 1842 1842 1842 1841 1840 1840 1839 1838 1836 1834 1825 1805 1776 1749 1733 1729 1726 1724 1720 1718 1716 1714 1712 1709 1707 1704 1701 1698 1695 1693 1690 1687 1684 1682 1680 1677 1675 1673 1670 1667 1664 1661 1658 1654 1651 1649 1641 1630 1628 1624 1619 1613 1611 1610 1610 1608 1604 1601 1598 1597 1596 1596 1596 1596 1596 1596 1595 1594 1593 1591 1590 1588 1587 1585 1583 1581 1578 1576 1574 1571 1568 1566 1564 1561 1559 1556 1553 1551 1547 1542 1537 1530 1526 1524 1520 1518 1513 1506 1500 1495 1491 1488 1486 1486 1486 1487 1487 1487 1488 1488 1489 1489 1489 1489 1489 1488 1486 1484 1483 1480 1478 1476 1474 1471 1469 1466 1464 1461 1458 1457 1455 1453 1452 1449 1445 1441 1437 1434 1427 1421 1415 1410 1407 1405 1405 1403 1402 1399 1398 1396 1396 1395 1394 1393 1392 1392 1392 1392 1393 1393 1393 1392 1390 1390 1389 1388 1386 1386 1382 1378 1378 1377 1375 1370 1364 1364 1364 1363 1361 1357 1354 1354 1353 1353 1350 1346 1343 1342 1342 1342 1342 1342 1342 1341 1340 1339 1338 1337 1336 1335 1334 1332 1330 1329 1328 1327 1327 1326 1325 1324 1323 1319 1310 1299 1292 0 0 1173 1167 1141 1128 1115 1109 1095 1095 1095 1097 1097 1097 1089 1083 1078 1064 1064 1064 1066 1066 1066 1054 1047 1041 1041 1033 1019 991 964 946 940 940 940 951 956 956 956 954 949 942 930 913 890 871 858 852 851 850 849 850 851 851 863 886 886 886 877 0
0 0 0 0 0 0 0 0 0 0 0 0 0 0 0 0 0 0 0 0 0 0 0 0 0 0 0 0 0 0 0 0 0 0 0 0 0 0 0 0 0 0 0 0 0 0 0 0 0 0 0 0 0 0 0 0 0 0 0 0 0 0 0 0 0 0 0 0 0 0 0 0 0 0 0 0 0 0 0 0 0 0 0 0 0 0 0 0 0 0 0 0 0 0 0 0 0 0 0 0 0 0 0 0 0 0 0 0 0 0 0 0 0 0 0 0 0 0 0 0 0 0 0 0 0 0 0 0 0 0 0 2804 3328 3623 3624 3646 3659 3669 3674 3675 3675 3675 3667 3659 3659 3659 3659 3659 3659 3660 3665 3678 3690 3700 3700 3702 3702 3703 3705 3705 3705 3704 3704 3704 3703 3703 3695 3695 3695 3710 3711 3711 3711 3702 3586 3577 3577 3572 3572 3549 3489 3489 3489 3495 3495 3495 3399 3399 3399 3399 3406 3406 3396 3394 3365 3327 3306 3294 3271 3248 3233 3224 3219 3215 3181 3118 2934 2671 0 0 0 2141 2128 2109 2089 2079 2072 2061 2055 2052 2048 2043 2038 2032 2025 2020 2015 2011 2008 2004 2001 1998 1994 1991 1989 1986 1984 1982 1979 1977 1975 1972 1970 1968 1967 1965 1964 1961 1958 1956 1954 1953 1950 1948 1946 1944 1943 1942 1939 1937 1935 1933 1931 1930 1928 1926 1925 1923 1921 1920 1918 1916 1913 1912 1911 1910 1908 1905 1904 1902 1901 1900 1898 1895 1894 1893 1892 1890 1889 1888 1887 1886 1885 1884 1884 1882 1882 1880 1880 1878 1877 1875 1874 1873 1872 1871 1869 1868 1866 1865 1864 1863 1862 1861 1860 1858 1858 1856 1854 1853 1851 1849 1848 1847 1847 1845 1845 1844 1843 1842 1841 1841 1841 1841 1840 1840 1840 1840 1840 1840 1840 1840 1841 1841 1841 1841 1842 1842 1842 1842 1842 1842 1843 1843 1843 1843 1843 1843 1843 1843 1843 1843 1843 1843 1843 1842 1842 1842 1841 1840 1840 1838 1838 1836 1834 1827 1810 1784 1756 1738 1733 1728 1724 1721 1720 1720 1716 1713 1711 1707 1705 1702 1698 1695 1693 1690 1687 1684 1681 1680 1677 1675 1673 1670 1667 1663 1660 1657 1653 1651 1649 1641 1630 1630 1625 1619 1613 1610 1609 1608 1605 1604 1601 1600 1598 1598 1598 1598 1598 1598 1597 1596 1594 1593 1592 1590 1588 1587 1584 1583 1581 1578 1576 1574 1571 1569 1566 1563 1561 1559 1556 1553 1550 1546 1542 1536 1530 1526 1524 1519 1515 1509 1501 1497 1493 1489 1487 1485 1485 1485 1486 1486 1487 1487 1488 1489 1490 1490 1490 1489 1488 1486 1485 1484 1482 1479 1477 1475 1473 1470 1467 1464 1463 1460 1458 1456 1455 1453 1449 1446 1442 1437 1434 1427 1420 1414 1410 1407 1405 1405 1403 1402 1399 1397 1395 1394 1394 1393 1393 1392 1392 1392 1392 1392 1392 1392 1392 1391 1391 1390 1388 1387 1386 1385 1382 1381 1379 1377 1374 1370 1367 1366 1366 1364 1361 1360 1358 1356 1356 1355 1350 1344 1344 1344 1344 1344 1344 1342 1342 1341 1339 1339 1338 1336 1335 1334 1333 1331 1329 1328 1327 1326 1325 1324 1324 1323 1319 1313 1306 1292 0 0 1177 1171 1141 1128 1115 1109 1095 1095 1095 1097 1097 1097 1089 1083 1078 1064 1064 1064 1069 1069 1069 1054 1047 1041 1041 1033 1019 991 964 946 940 940 940 946 951 952 952 951 947 939 927 909 884 868 857 850 850 850 849 849 850 850 853 872 874 874 874 0
0 0 0 0 0 0 0 0 0 0 0 0 0 0 0 0 0 0 0 0 0 0 0 0 0 0 0 0 0 0 0 0 0 0 0 0 0 0 0 0 0 0 0 0 0 0 0 0 0 0 0 0 0 0 0 0 0 0 0 0 0 0 0 0 0 0 0 0 0 0 0 0 0 0 0 0 0 0 0 0 0 0 0 0 0 0 0 0 0 0 0 0 0 0 0 0 0 0 0 0 0 0 0 0 0 0 0 0 0 0 0 0 0 0 0 0 0 0 0 0 0 0 0 0 0 0 0 0 0 0 0 2758 3208 3578 3619 3646 3667 3669 3675 3675 3675 3675 3667 3657 3657 3657 3659 3660 3660 3661 3662 3671 3687 3699 3699 3700 3702 3699 3702 3704 3704 3703 3704 3704 3703 3703 3694 3638 3614 3614 3614 3624 3624 3624 3586 3577 3577 3572 3572 3549 3489 3489 3489 3495 3503 3526 3526 3526 3513 3508 3484 3461 3434 3399 3371 3350 3333 3307 3278 3249 3225 3210 3208 3198 3164 3108 2907 2659 0 0 0 2141 2130 2120 2094 2078 2071 2060 2054 2052 2048 2043 2035 2029 2024 2019 2015 2011 2008 2004 2001 1998 1995 1991 1989 1986 1984 1981 1979 1976 1974 1972 1970 1968 1966 1965 1963 1961 1958 1956 1955 1953 1950 1948 1946 1944 1942 1941 1939 1936 1935 1933 1931 1929 1928 1926 1924 1923 1921 1919 1917 1915 1913 1911 1911 1908 1907 1904 1903 1902 1900 1899 1896 1895 1893 1892 1891 1890 1889 1887 1886 1885 1884 1883 1883 1881 1881 1880 1879 1877 1876 1875 1874 1872 1871 1871 1869 1868 1866 1865 1864 1863 1862 1861 1860 1858 1857 1855 1854 1852 1850 1849 1847 1847 1846 1845 1844 1842 1842 1842 1841 1841 1840 1840 1840 1840 1840 1840 1840 1840 1840 1840 1840 1840 1841 1841 1841 1842 1842 1842 1842 1842 1842 1842 1843 1843 1843 1843 1843 1843 1843 1843 1843 1843 1843 1843 1842 1841 1840 1840 1839 1838 1838 1836 1833 1827 1811 1788 1757 1742 1737 1733 1729 1725 1722 1720 1717 1715 1711 1707 1705 1702 1699 1695 1693 1689 1687 1683 1681 1678 1676 1674 1671 1669 1666 1663 1660 1657 1653 1651 1649 1641 1631 1630 1626 1619 1613 1610 1609 1607 1605 1604 1603 1601 1600 1600 1599 1599 1598 1598 1597 1597 1596 1594 1592 1591 1589 1586 1584 1582 1580 1578 1576 1573 1571 1569 1566 1563 1561 1559 1555 1552 1550 1546 1542 1535 1525 1521 1518 1514 1510 1505 1500 1495 1491 1488 1486 1485 1485 1485 1485 1486 1486 1487 1488 1489 1489 1489 1489 1489 1488 1487 1486 1484 1483 1480 1479 1476 1475 1472 1468 1466 1464 1462 1459 1457 1456 1453 1450 1446 1442 1440 1433 1424 1421 1415 1410 1407 1405 1405 1403 1401 1399 1397 1395 1394 1394 1393 1393 1392 1392 1392 1392 1392 1392 1392 1392 1391 1391 1390 1389 1387 1386 1385 1384 1382 1380 1379 1377 1373 1370 1369 1368 1365 1363 1360 1359 1358 1357 1355 1352 1348 1346 1346 1346 1346 1345 1343 1343 1341 1341 1340 1338 1337 1336 1334 1333 1332 1330 1329 1327 1327 1325 1324 1324 1320 1315 1313 1306 1292 0 0 1177 1173 1157 1132 1115 1109 1104 1097 1097 1097 1097 1097 1089 1083 1078 1065 1065 1065 1069 1069 1069 1054 1047 1042 1041 1033 1019 991 964 946 939 939 939 945 950 950 950 950 945 936 924 906 883 867 855 850 850 849 848 849 849 849 851 863 868 868 868 0
0 0 0 0 0 0 0 0 0 0 0 0 0 0 0 0 0 0 0 0 0 0 0 0 0 0 0 0 0 0 0 0 0 0 0 0 0 0 0 0 0 0 0 0 0 0 0 0 0 0 0 0 0 0 0 0 0 0 0 0 0 0 0 0 0 0 0 0 0 0 0 0 0 0 0 0 0 0 0 0 0 0 0 0 0 0 0 0 0 0 0 0 0 0 0 0 0 0 0 0 0 0 0 0 0 0 0 0 0 0 0 0 0 0 0 0 0 0 0 0 0 0 0 0 0 0 0 0 0 0 0 2624 3127 3572 3623 3661 3687 3689 3689 3689 3688 3676 3667 3657 3657 3657 3658 3661 3661 3661 3662 3663 3677 3693 3693 3697 3697 3693 3685 3693 3682 3682 3655 3593 3593 3593 3614 3614 3614 3614 3614 3624 3624 3624 3586 3577 3577 3577 3606 3615 3615 3615 3582 3556 3551 3549 3538 3526 3513 3508 3484 3461 3434 3402 3377 3351 3334 3315 3288 3255 3229 3208 3204 3172 3139 3073 2885 2642 0 0 0 2140 2130 2120 2094 2078 2070 2060 2053 2052 2048 2042 2035 2028 2023 2019 2015 2011 2007 2004 2001 1998 1995 1992 1989 1986 1984 1981 1978 1976 1974 1972 1970 1968 1966 1965 1963 1961 1958 1956 1955 1953 1951 1948 1947 1944 1942 1940 1938 1936 1934 1933 1931 1929 1928 1925 1924 1922 1920 1918 1917 1915 1912 1911 1910 1907 1906 1903 1901 1900 1899 1897 1896 1894 1893 1892 1890 1889 1888 1887 1886 1884 1884 1883 1882 1881 1880 1879 1878 1877 1876 1875 1873 1872 1871 1870 1869 1868 1866 1865 1864 1863 1861 1861 1859 1858 1856 1855 1854 1851 1850 1849 1847 1846 1846 1845 1844 1842 1842 1841 1841 1841 1840 1840 1840 1840 1840 1840 1840 1840 1840 1840 1840 1840 1841 1841 1841 1841 1842 1842 1842 1842 1842 1843 1843 1843 1843 1843 1843 1843 1843 1843 1843 1843 1843 1843 1842 1841 1840 1839 1838 1838 1838 1837 1834 1827 1811 1789 1758 1744 1738 1734 1731 1727 1723 1721 1718 1715 1712 1707 1705 1702 1699 1693 1692 1689 1686 1682 1680 1677 1676 1674 1671 1669 1666 1663 1660 1657 1653 1651 1649 1641 1632 1630 1629 1623 1615 1611 1608 1606 1605 1604 1604 1603 1602 1602 1601 1601 1601 1600 1599 1598 1596 1594 1592 1591 1589 1586 1584 1582 1580 1577 1575 1573 1570 1568 1565 1563 1560 1558 1555 1551 1548 1546 1542 1533 1519 1515 1513 1510 1507 1502 1498 1493 1490 1487 1486 1485 1484 1484 1484 1485 1485 1486 1487 1489 1490 1490 1490 1490 1488 1487 1486 1484 1483 1481 1480 1478 1475 1472 1471 1467 1465 1463 1460 1458 1456 1454 1450 1446 1445 1440 1433 1424 1422 1415 1410 1407 1406 1405 1403 1401 1399 1397 1395 1394 1393 1393 1393 1392 1392 1392 1392 1392 1392 1392 1392 1391 1391 1391 1389 1389 1388 1386 1385 1383 1381 1379 1378 1376 1373 1371 1369 1366 1363 1361 1359 1358 1357 1356 1352 1351 1349 1347 1347 1346 1345 1345 1343 1343 1341 1340 1339 1337 1336 1334 1333 1332 1330 1329 1327 1327 1325 1324 1324 1318 1314 1313 1306 1292 0 1193 1184 1174 1157 1132 1115 1114 1105 1100 1096 1095 1095 1088 1075 1072 1065 1065 1065 1065 1069 1069 1069 1069 1059 1054 1053 1032 1013 985 962 945 935 935 935 944 948 948 948 947 941 933 920 904 883 865 854 849 849 849 848 849 849 849 849 855 866 866 868 0
0 0 0 0 0 0 0 0 0 0 0 0 0 0 0 0 0 0 0 0 0 0 0 0 0 0 0 0 0 0 0 0 0 0 0 0 0 0 0 0 0 0 0 0 0 0 0 0 0 0 0 0 0 0 0 0 0 0 0 0 0 0 0 0 0 0 0 0 0 0 0 0 0 0 0 0 0 0 0 0 0 0 0 0 0 0 0 0 0 0 0 0 0 0 0 0 0 0 0 0 0 0 0 0 0 0 0 0 0 0 0 0 0 0 0 0 0 0 0 0 0 0 0 0 0 0 0 0 0 0 0 2572 2928 3377 3619 3661 3689 3708 3708 3708 3699 3682 3670 3657 3657 3657 3657 3661 3661 3661 3662 3663 3670 3670 3670 3632 3590 3555 3555 3555 3588 3588 3588 3593 3593 3593 3614 3614 3614 3614 3614 3624 3647 3672 3672 3672 3666 3666 3656 3654 3647 3633 3604 3574 3561 3549 3538 3526 3513 3508 3484 3461 3434 3412 3383 3354 3337 3318 3290 3262 3233 3208 3204 3170 3114 3052 2868 2618 0 0 0 2139 2130 2120 2094 2078 2070 2060 2052 2052 2048 2042 2035 2027 2022 2019 2015 2011 2007 2004 2001 1998 1995 1992 1989 1987 1984 1981 1978 1976 1974 1972 1970 1968 1966 1965 1963 1960 1958 1956 1954 1953 1951 1948 1947 1944 1942 1939 1938 1936 1934 1933 1930 1929 1927 1925 1924 1922 1920 1918 1916 1914 1912 1910 1909 1907 1905 1903 1901 1900 1898 1897 1895 1894 1892 1891 1890 1888 1888 1886 1885 1884 1883 1883 1882 1880 1879 1877 1877 1876 1875 1873 1873 1872 1870 1870 1869 1868 1866 1865 1864 1862 1861 1860 1859 1858 1856 1855 1854 1851 1850 1848 1847 1846 1846 1845 1843 1842 1841 1841 1840 1840 1840 1840 1840 1840 1840 1840 1840 1840 1840 1840 1840 1840 1840 1841 1841 1841 1842 1842 1842 1842 1843 1843 1843 1843 1843 1843 1843 1843 1843 1843 1843 1843 1843 1843 1842 1841 1840 1839 1838 1838 1838 1837 1834 1828 1813 1791 1765 1745 1739 1734 1732 1728 1723 1721 1718 1715 1712 1707 1705 1704 1699 1690 1685 1681 1681 1680 1678 1677 1674 1673 1670 1666 1663 1661 1660 1657 1654 1652 1649 1641 1634 1634 1632 1628 1620 1618 1609 1606 1606 1606 1605 1605 1604 1603 1603 1602 1602 1601 1601 1598 1597 1595 1593 1591 1589 1586 1584 1582 1580 1577 1575 1573 1570 1568 1565 1563 1560 1558 1555 1551 1548 1545 1541 1533 1519 1515 1513 1509 1506 1501 1493 1490 1488 1487 1485 1485 1484 1484 1484 1484 1485 1486 1486 1488 1490 1490 1490 1490 1488 1487 1486 1485 1484 1481 1480 1478 1476 1474 1471 1469 1466 1463 1462 1459 1457 1454 1451 1449 1445 1440 1433 1424 1422 1417 1410 1408 1406 1405 1403 1401 1397 1395 1394 1394 1393 1393 1393 1392 1392 1392 1392 1392 1392 1392 1392 1391 1391 1391 1390 1390 1389 1387 1386 1384 1382 1380 1378 1377 1374 1372 1370 1367 1365 1362 1360 1358 1358 1356 1355 1353 1352 1351 1349 1348 1346 1346 1344 1343 1342 1340 1339 1337 1336 1334 1333 1331 1330 1329 1327 1326 1326 1325 1324 1318 1314 1312 1306 1289 0 1193 1186 1174 1157 1132 1116 1115 1114 1100 1100 1095 1095 1088 1075 1072 1065 1065 1065 1065 1065 1065 1061 1061 1059 1055 1055 1032 1012 982 955 940 933 933 933 940 945 945 945 945 938 929 917 900 881 865 854 847 845 844 844 845 845 846 847 853 864 864 868 0
0 0 0 0 0 0 0 0 0 0 0 0 0 0 0 0 0 0 0 0 0 0 0 0 0 0 0 0 0 0 0 0 0 0 0 0 0 0 0 0 0 0 0 0 0 0 0 0 0 0 0 0 0 0 0 0 0 0 0 0 0 0 0 0 0 0 0 0 0 0 0 0 0 0 0 0 0 0 0 0 0 0 0 0 0 0 0 0 0 0 0 0 0 0 0 0 0 0 0 0 0 0 0 0 0 0 0 0 0 0 0 0 0 0 0 0 0 0 0 0 0 0 0 0 0 0 0 0 0 0 0 0 2707 3243 3609 3661 3689 3708 3708 3708 3699 3682 3667 3657 3657 3657 3653 3657 3657 3648 3640 3551 3551 3551 3590 3590 3590 3555 3555 3555 3588 3588 3588 3593 3593 3593 3672 3701 3701 3701 3698 3684 3683 3679 3679 3679 3671 3670 3668 3663 3657 3642 3619 3584 3561 3549 3523 3512 3496 3473 3453 3437 3434 3412 3386 3358 3342 3319 3294 3269 3239 3222 3189 3168 3107 3052 2851 2596 0 0 2165 2136 2124 2107 2090 2076 2068 2060 2052 2048 2044 2038 2034 2027 2022 2019 2015 2011 2007 2003 2001 1998 1995 1993 1990 1987 1984 1981 1978 1976 1974 1972 1970 1968 1966 1965 1963 1960 1958 1956 1954 1952 1951 1948 1947 1944 1942 1939 1938 1936 1934 1932 1930 1928 1925 1924 1923 1921 1920 1918 1916 1914 1912 1910 1908 1907 1905 1903 1901 1900 1898 1897 1895 1893 1892 1890 1890 1888 1887 1886 1885 1883 1883 1882 1881 1880 1878 1877 1877 1876 1875 1873 1873 1871 1870 1869 1868 1868 1866 1865 1864 1862 1861 1860 1859 1857 1856 1854 1853 1851 1849 1848 1847 1846 1845 1844 1843 1842 1841 1841 1840 1840 1840 1840 1840 1840 1840 1840 1840 1840 1840 1840 1840 1840 1841 1841 1841 1841 1842 1842 1842 1842 1843 1843 1843 1843 1843 1843 1843 1843 1843 1843 1843 1843 1843 1843 1842 1841 1840 1839 1839 1839 1838 1838 1834 1828 1814 1793 1766 1746 1739 1735 1732 1728 1724 1721 1718 1715 1712 1707 1705 1704 1699 1684 1679 1679 1678 1678 1678 1676 1673 1671 1668 1661 1659 1658 1657 1657 1654 1652 1649 1641 1636 1636 1633 1630 1628 1619 1611 1607 1607 1607 1607 1607 1607 1605 1604 1603 1603 1602 1602 1600 1597 1595 1593 1591 1589 1586 1584 1582 1579 1577 1574 1573 1570 1568 1564 1563 1559 1556 1553 1551 1547 1544 1538 1530 1519 1515 1513 1509 1502 1494 1490 1487 1487 1486 1485 1485 1484 1484 1484 1484 1484 1485 1486 1488 1490 1490 1490 1490 1489 1488 1486 1485 1484 1482 1480 1478 1476 1474 1471 1469 1466 1464 1462 1460 1457 1454 1451 1449 1445 1440 1433 1424 1422 1418 1412 1408 1406 1405 1402 1399 1396 1394 1393 1393 1393 1392 1392 1392 1392 1392 1391 1391 1391 1391 1391 1391 1391 1391 1391 1390 1389 1388 1386 1385 1383 1382 1380 1378 1376 1373 1372 1369 1367 1364 1361 1361 1359 1358 1357 1356 1354 1352 1350 1349 1348 1346 1345 1343 1342 1340 1339 1337 1336 1334 1333 1331 1330 1328 1327 1326 1325 1325 1324 1318 1314 1312 1305 1286 1236 1193 1186 1174 1157 1114 1114 1114 1114 1114 1107 1100 1095 1088 1075 1072 1065 1065 1064 1063 1063 1053 1053 1053 1055 1055 1055 1033 1012 982 949 936 928 928 928 933 939 941 941 939 936 925 913 897 880 864 853 846 842 839 839 839 841 842 845 852 864 864 868 0
0 0 0 0 0 0 0 0 0 0 0 0 0 0 0 0 0 0 0 0 0 0 0 0 0 0 0 0 0 0 0 0 0 0 0 0 0 0 0 0 0 0 0 0 0 0 0 0 0 0 0 0 0 0 0 0 0 0 0 0 0 0 0 0 0 0 0 0 0 0 0 0 0 0 0 0 0 0 0 0 0 0 0 0 0 0 0 0 0 0 0 0 0 0 0 0 0 0 0 0 0 0 0 0 0 0 0 0 0 0 0 0 0 0 0 0 0 0 0 0 0 0 0 0 0 0 0 0 0 0 0 0 2629 3133 3574 3623 3689 3708 3708 3708 3699 3682 3667 3657 3653 3630 3630 3640 3640 3640 3640 3551 3551 3551 3590 3590 3590 3555 3555 3555 3588 3618 3692 3703 3711 3713 3713 3711 3707 3704 3701 3697 3694 3691 3684 3684 3684 3679 3676 3676 3665 3645 3619 3584 3561 3535 3514 3499 3487 3463 3453 3437 3434 3419 3408 3376 3357 3328 3297 3269 3239 3222 3189 3162 3107 3052 2847 2570 0 0 2158 2136 2124 2106 2087 2073 2060 2058 2052 2046 2041 2036 2031 2025 2021 2019 2015 2011 2006 2003 2001 1998 1996 1993 1990 1987 1984 1981 1979 1976 1974 1972 1970 1968 1965 1964 1962 1960 1958 1956 1954 1952 1950 1948 1947 1944 1942 1939 1937 1935 1933 1931 1929 1927 1925 1923 1922 1921 1920 1918 1915 1914 1912 1910 1908 1906 1905 1903 1901 1900 1898 1896 1895 1893 1892 1890 1888 1888 1887 1886 1885 1883 1883 1882 1881 1880 1878 1877 1876 1876 1874 1873 1872 1871 1869 1869 1867 1867 1865 1865 1864 1862 1861 1860 1858 1857 1856 1854 1852 1851 1849 1848 1846 1846 1845 1844 1843 1842 1841 1841 1840 1840 1840 1840 1840 1840 1840 1840 1840 1840 1840 1840 1840 1841 1841 1841 1841 1841 1841 1842 1842 1842 1843 1843 1843 1843 1843 1843 1844 1844 1844 1844 1843 1843 1843 1843 1843 1841 1840 1840 1839 1839 1839 1838 1834 1830 1817 1793 1766 1747 1739 1736 1732 1729 1724 1721 1717 1715 1712 1707 1705 1704 1699 1682 1678 1677 1676 1676 1676 1675 1673 1667 1660 1657 1656 1656 1654 1654 1654 1652 1648 1644 1643 1639 1638 1634 1631 1624 1618 1615 1611 1611 1610 1610 1610 1608 1605 1604 1604 1604 1604 1600 1598 1595 1593 1590 1589 1586 1584 1581 1579 1576 1574 1573 1570 1567 1564 1561 1558 1555 1553 1550 1547 1543 1538 1530 1523 1518 1513 1508 1501 1494 1490 1487 1487 1486 1485 1485 1484 1484 1484 1484 1484 1486 1486 1489 1490 1490 1490 1490 1489 1488 1487 1486 1484 1483 1481 1478 1477 1474 1472 1470 1467 1465 1463 1460 1457 1455 1451 1449 1444 1440 1433 1424 1422 1418 1412 1408 1406 1403 1401 1398 1395 1394 1393 1393 1392 1392 1392 1392 1392 1392 1391 1391 1391 1391 1391 1392 1392 1391 1391 1390 1389 1389 1387 1386 1383 1382 1381 1379 1377 1374 1372 1370 1367 1365 1364 1362 1360 1360 1358 1357 1356 1354 1352 1350 1349 1347 1346 1344 1343 1341 1339 1337 1336 1334 1333 1331 1329 1328 1326 1326 1325 1325 1324 1318 1314 1312 1305 1286 1236 1208 1201 1176 1157 1114 1114 1114 1116 1116 1116 1109 1097 1091 1083 1074 1070 1068 1064 1062 1060 1049 1049 1049 1055 1055 1055 1035 1012 982 949 930 924 924 924 929 932 935 935 935 932 922 911 894 878 864 852 845 842 838 838 838 840 842 845 852 863 863 870 0
0 0 0 0 0 0 0 0 0 0 0 0 0 0 0 0 0 0 0 0 0 0 0 0 0 0 0 0 0 0 0 0 0 0 0 0 0 0 0 0 0 0 0 0 0 0 0 0 0 0 0 0 0 0 0 0 0 0 0 0 0 0 0 0 0 0 0 0 0 0 0 0 0 0 0 0 0 0 0 0 0 0 0 0 0 0 0 0 0 0 0 0 0 0 0 0 0 0 0 0 0 0 0 0 0 0 0 0 0 0 0 0 0 0 0 0 0 0 0 0 0 0 0 0 0 0 0 0 0 0 0 0 2598 2972 3357 3602 3611 3616 3618 3635 3638 3638 3635 3634 3632 3630 3630 3634 3640 3640 3640 3551 3486 3421 3388 3388 3388 3450 3518 3555 3588 3674 3705 3711 3713 3713 3713 3711 3713 3713 3704 3701 3695 3695 3695 3699 3699 3699 3692 3678 3665 3645 3619 3584 3559 3533 3509 3497 3479 3463 3453 3437 3434 3429 3417 3406 3378 3334 3297 3269 3239 3222 3189 3154 3105 3054 2844 2561 0 0 2155 2134 2123 2100 2086 2069 2056 2054 2049 2045 2037 2032 2028 2024 2020 2016 2013 2009 2006 2003 2000 1998 1996 1994 1991 1987 1984 1982 1980 1977 1974 1972 1969 1967 1965 1964 1962 1959 1957 1955 1953 1951 1949 1948 1946 1944 1942 1939 1937 1935 1932 1930 1929 1926 1924 1923 1922 1920 1919 1917 1915 1913 1912 1910 1908 1906 1905 1903 1902 1900 1898 1896 1895 1893 1891 1890 1888 1888 1886 1885 1884 1883 1883 1882 1881 1880 1878 1877 1876 1875 1874 1873 1872 1871 1869 1868 1867 1866 1865 1864 1864 1862 1861 1859 1858 1857 1855 1853 1851 1850 1849 1848 1846 1846 1845 1844 1843 1842 1842 1841 1840 1840 1840 1840 1839 1839 1839 1839 1840 1840 1840 1840 1840 1841 1841 1841 1841 1841 1841 1842 1842 1842 1842 1843 1843 1843 1843 1843 1844 1844 1844 1844 1843 1843 1843 1843 1843 1842 1840 1840 1839 1839 1839 1839 1837 1831 1820 1794 1766 1747 1740 1736 1732 1730 1725 1721 1717 1715 1712 1708 1705 1704 1698 1682 1676 1675 1674 1674 1674 1673 1670 1665 1659 1656 1653 1651 1651 1651 1648 1648 1647 1645 1644 1643 1640 1638 1636 1633 1628 1626 1621 1616 1614 1614 1614 1613 1610 1606 1605 1604 1604 1602 1598 1596 1593 1590 1588 1586 1582 1579 1577 1574 1574 1572 1569 1567 1563 1560 1557 1555 1552 1549 1546 1543 1538 1530 1524 1520 1516 1508 1501 1494 1490 1487 1487 1486 1485 1485 1484 1484 1484 1484 1484 1486 1486 1489 1491 1491 1491 1491 1489 1489 1488 1487 1485 1483 1482 1479 1477 1475 1472 1470 1467 1465 1463 1461 1458 1455 1451 1449 1444 1440 1433 1424 1422 1418 1412 1407 1403 1401 1400 1397 1395 1394 1393 1393 1392 1392 1392 1392 1392 1392 1391 1391 1391 1391 1392 1392 1392 1392 1391 1391 1390 1389 1388 1386 1384 1383 1381 1380 1377 1375 1373 1371 1369 1367 1366 1364 1362 1360 1359 1357 1356 1354 1353 1351 1349 1348 1346 1344 1343 1341 1339 1337 1336 1334 1333 1331 1329 1328 1326 1325 1325 1325 1323 1319 1315 1312 1305 1286 1262 1254 1225 1179 1160 1114 1114 1114 1121 1127 1127 1127 1108 1098 1095 1089 1077 1070 1064 1055 1052 1052 1052 1052 1053 1053 1053 1035 1012 978 949 928 922 922 922 927 930 934 934 934 928 919 904 891 876 864 851 843 839 836 836 836 839 842 844 852 863 863 870 0
0 0 0 0 0 0 0 0 0 0 0 0 0 0 0 0 0 0 0 0 0 0 0 0 0 0 0 0 0 0 0 0 0 0 0 0 0 0 0 0 0 0 0 0 0 0 0 0 0 0 0 0 0 0 0 0 0 0 0 0 0 0 0 0 0 0 0 0 0 0 0 0 0 0 0 0 0 0 0 0 0 0 0 0 0 0 0 0 0 0 0 0 0 0 0 0 0 0 0 0 0 0 0 0 0 0 0 0 0 0 0 0 0 0 0 0 0 0 0 0 0 0 0 0 0 0 0 0 0 0 0 0 0 2698 2957 3169 3458 3616 3618 3635 3638 3638 3635 3629 3616 3616 3629 3630 3663 3663 3663 3538 3486 3421 3407 3407 3407 3450 3518 3555 3588 3674 3705 3711 3713 3713 3711 3703 3703 3703 3715 3715 3715 3705 3701 3700 3699 3699 3692 3678 3665 3645 3619 3584 3559 3525 3507 3489 3479 3463 3460 3453 3444 3434 3430 3413 3378 3334 3297 3265 3229 3198 3169 3142 3107 3056 2847 2545 0 0 2148 2132 2115 2100 2082 2063 2056 2054 2047 2040 2034 2028 2027 2023 2018 2014 2012 2008 2005 2003 2000 1999 1996 1994 1991 1988 1985 1983 1980 1977 1974 1972 1969 1967 1965 1963 1962 1959 1957 1955 1953 1951 1949 1947 1946 1943 1941 1939 1937 1934 1932 1930 1928 1926 1924 1923 1922 1920 1918 1917 1915 1913 1912 1910 1908 1906 1905 1903 1902 1900 1898 1897 1895 1893 1891 1890 1888 1887 1886 1885 1884 1883 1882 1882 1881 1880 1878 1877 1876 1875 1874 1873 1872 1870 1869 1867 1866 1866 1865 1863 1862 1862 1861 1859 1858 1856 1854 1853 1851 1850 1848 1848 1846 1846 1845 1844 1843 1842 1842 1841 1840 1840 1840 1840 1839 1839 1839 1839 1840 1840 1840 1840 1840 1840 1841 1841 1841 1841 1841 1842 1842 1842 1842 1843 1843 1843 1843 1844 1844 1844 1844 1844 1844 1844 1843 1843 1843 1842 1841 1841 1840 1840 1839 1839 1837 1834 1824 1797 1764 1747 1741 1736 1732 1730 1725 1721 1717 1715 1711 1708 1705 1703 1696 1682 1673 1673 1673 1673 1673 1672 1669 1664 1659 1656 1653 1651 1648 1648 1648 1646 1646 1645 1644 1644 1640 1638 1636 1634 1630 1628 1626 1623 1619 1615 1615 1613 1610 1608 1605 1605 1604 1602 1598 1596 1593 1590 1588 1586 1581 1577 1575 1574 1572 1571 1569 1566 1562 1559 1557 1554 1552 1548 1546 1543 1539 1530 1526 1523 1518 1509 1501 1495 1492 1489 1487 1485 1485 1485 1484 1484 1484 1484 1485 1485 1488 1490 1491 1491 1491 1491 1490 1489 1488 1487 1485 1483 1482 1479 1477 1475 1472 1470 1468 1465 1463 1460 1458 1454 1451 1449 1444 1441 1433 1424 1418 1412 1407 1403 1401 1399 1398 1397 1395 1394 1393 1393 1392 1392 1391 1391 1391 1391 1391 1391 1391 1391 1392 1392 1392 1392 1392 1391 1390 1389 1388 1387 1386 1383 1381 1380 1378 1375 1373 1371 1370 1368 1366 1364 1363 1360 1359 1357 1356 1354 1353 1351 1349 1348 1347 1344 1343 1342 1340 1338 1336 1335 1332 1331 1329 1328 1326 1324 1323 1322 1321 1319 1315 1313 1307 1288 1271 1264 1228 1191 1174 1141 1121 1121 1121 1128 1128 1128 1110 1099 1098 1095 1084 1070 1056 1053 1053 1053 1053 1054 1054 1054 1041 1035 1012 978 948 927 918 918 918 924 926 930 930 930 925 915 904 891 876 864 851 843 839 835 835 835 838 842 845 852 860 860 867 0
0 0 0 0 0 0 0 0 0 0 0 0 0 0 0 0 0 0 0 0 0 0 0 0 0 0 0 0 0 0 0 0 0 0 0 0 0 0 0 0 0 0 0 0 0 0 0 0 0 0 0 0 0 0 0 0 0 0 0 0 0 0 0 0 0 0 0 0 0 0 0 0 0 0 0 0 0 0 0 0 0 0 0 0 0 0 0 0 0 0 0 0 0 0 0 0 0 0 0 0 0 0 0 0 0 0 0 0 0 0 0 0 0 0 0 0 0 0 0 0 0 0 0 0 0 0 0 0 0 0 0 0 0 0 2789 3161 3458 3616 3618 3635 3638 3638 3635 3629 3629 3629 3647 3660 3663 3663 3663 3538 3538 3538 3598 3598 3598 3555 3555 3555 3566 3674 3705 3711 3713 3713 3711 3703 3703 3703 3714 3714 3714 3708 3707 3701 3699 3699 3692 3678 3655 3630 3608 3580 3553 3520 3498 3489 3479 3472 3469 3463 3453 3447 3430 3413 3378 3334 3292 3263 3229 3196 3169 3142 3107 3061 2851 2544 0 0 2144 2132 2111 2100 2078 2063 2055 2052 2047 2038 2033 2027 2025 2021 2017 2013 2009 2007 2005 2002 2000 1999 1996 1994 1991 1988 1987 1984 1980 1977 1974 1971 1969 1966 1964 1963 1961 1959 1957 1955 1953 1950 1948 1947 1946 1943 1941 1939 1937 1934 1932 1930 1928 1926 1924 1923 1922 1920 1918 1917 1915 1913 1912 1910 1908 1907 1905 1903 1902 1900 1898 1897 1895 1893 1891 1890 1888 1887 1886 1885 1884 1883 1883 1882 1881 1880 1878 1877 1876 1875 1874 1873 1871 1870 1869 1867 1866 1866 1864 1863 1862 1861 1859 1858 1858 1856 1854 1852 1851 1850 1848 1847 1846 1846 1845 1844 1843 1842 1842 1841 1840 1840 1840 1839 1839 1839 1839 1839 1840 1840 1840 1840 1840 1840 1841 1841 1841 1841 1841 1842 1842 1842 1842 1843 1843 1843 1844 1844 1844 1844 1844 1844 1844 1844 1844 1844 1843 1842 1842 1841 1841 1840 1839 1838 1837 1834 1824 1798 1764 1750 1741 1736 1732 1730 1726 1721 1718 1714 1711 1708 1705 1701 1694 1682 1672 1672 1672 1672 1672 1672 1668 1664 1659 1656 1653 1651 1648 1648 1646 1645 1645 1644 1644 1644 1640 1638 1637 1635 1632 1628 1626 1625 1621 1619 1615 1614 1611 1609 1608 1606 1604 1602 1599 1596 1593 1589 1588 1584 1581 1575 1572 1572 1571 1570 1569 1565 1561 1559 1556 1553 1551 1548 1546 1544 1542 1533 1527 1523 1518 1509 1501 1496 1492 1489 1487 1485 1484 1483 1483 1484 1484 1484 1485 1485 1488 1491 1491 1491 1491 1491 1490 1489 1488 1487 1485 1483 1482 1479 1477 1475 1472 1470 1468 1465 1463 1460 1458 1454 1450 1447 1444 1441 1433 1424 1418 1412 1407 1402 1401 1398 1398 1397 1395 1394 1393 1393 1391 1391 1391 1391 1391 1391 1391 1391 1391 1391 1392 1392 1392 1392 1392 1391 1391 1390 1389 1387 1386 1384 1382 1380 1378 1376 1374 1372 1370 1369 1367 1365 1363 1361 1359 1357 1356 1355 1353 1351 1350 1348 1347 1344 1343 1342 1340 1338 1337 1335 1333 1331 1329 1328 1326 1324 1323 1322 1321 1319 1315 1315 1308 1289 1276 1264 1228 1194 1184 1161 1139 1137 1137 1129 1129 1129 1110 1108 1105 1101 1086 1070 1056 1053 1053 1053 1064 1064 1064 1054 1041 1022 1001 971 939 920 913 913 913 920 921 926 926 926 923 914 904 891 876 864 851 843 839 835 835 835 838 842 845 852 856 856 865 0
0 0 0 0 0 0 0 0 0 0 0 0 0 0 0 0 0 0 0 0 0 0 0 0 0 0 0 0 0 0 0 0 0 0 0 0 0 0 0 0 0 0 0 0 0 0 0 0 0 0 0 0 0 0 0 0 0 0 0 0 0 0 0 0 0 0 0 0 0 0 0 0 0 0 0 0 0 0 0 0 0 0 0 0 0 0 0 0 0 0 0 0 0 0 0 0 0 0 0 0 0 0 0 0 0 0 0 0 0 0 0 0 0 0 0 0 0 0 0 0 0 0 0 0 0 0 0 0 0 0 0 0 0 0 2767 3125 3458 3630 3644 3644 3644 3644 3644 3634 3634 3634 3656 3663 3666 3666 3663 3545 3545 3545 3598 3598 3598 3555 3490 3490 3490 3509 3649 3706 3706 3706 3697 3697 3697 3697 3707 3708 3708 3708 3707 3697 3675 3668 3656 3651 3618 3601 3586 3570 3546 3519 3497 3482 3479 3479 3469 3463 3453 3447 3430 3413 3369 3326 3292 3263 3229 3196 3169 3142 3115 3069 2883 2542 0 0 2144 2123 2107 2095 2074 2063 2055 2051 2046 2038 2032 2027 2024 2020 2016 2012 2009 2006 2005 2002 2000 1998 1995 1993 1991 1988 1987 1984 1980 1977 1974 1971 1969 1966 1964 1963 1960 1959 1956 1954 1952 1950 1948 1947 1945 1943 1940 1938 1937 1934 1932 1930 1928 1926 1924 1923 1922 1920 1918 1917 1915 1913 1912 1910 1908 1907 1905 1903 1902 1900 1898 1897 1895 1893 1892 1890 1888 1887 1886 1885 1884 1883 1883 1882 1881 1880 1878 1877 1876 1875 1874 1872 1871 1869 1867 1867 1866 1865 1864 1862 1861 1860 1859 1858 1857 1855 1854 1852 1851 1850 1848 1847 1846 1846 1845 1844 1843 1842 1842 1841 1841 1840 1840 1840 1839 1839 1839 1839 1840 1840 1840 1840 1840 1840 1840 1840 1841 1841 1841 1841 1841 1842 1842 1843 1843 1844 1844 1844 1845 1845 1845 1845 1845 1844 1844 1844 1843 1842 1842 1841 1841 1840 1839 1838 1835 1834 1824 1798 1764 1750 1742 1737 1732 1729 1726 1721 1718 1715 1712 1708 1705 1699 1692 1684 1672 1672 1672 1672 1672 1671 1667 1664 1661 1658 1655 1652 1649 1648 1646 1645 1645 1644 1644 1644 1641 1638 1637 1635 1633 1631 1629 1626 1624 1622 1619 1617 1614 1611 1609 1608 1606 1602 1599 1595 1593 1588 1588 1584 1579 1574 1571 1570 1570 1569 1567 1562 1560 1559 1555 1552 1550 1548 1546 1545 1542 1534 1527 1523 1518 1512 1506 1499 1496 1490 1487 1486 1483 1481 1481 1481 1483 1483 1484 1485 1488 1491 1491 1491 1491 1491 1490 1489 1488 1487 1485 1483 1481 1479 1477 1475 1472 1470 1468 1465 1463 1460 1458 1454 1450 1447 1444 1441 1432 1424 1417 1411 1406 1402 1401 1398 1398 1396 1395 1394 1393 1392 1391 1391 1391 1391 1391 1390 1390 1390 1390 1391 1391 1392 1392 1392 1392 1392 1391 1390 1389 1387 1386 1385 1382 1380 1378 1376 1374 1372 1370 1369 1367 1365 1363 1361 1359 1357 1356 1355 1353 1351 1350 1348 1347 1344 1343 1342 1340 1338 1336 1335 1333 1331 1329 1327 1326 1324 1323 1322 1321 1319 1315 1315 1310 1290 1285 1269 1228 1195 1185 1179 1178 1166 1165 1154 1145 1134 1120 1112 1108 1106 1086 1070 1056 1056 1056 1065 1070 1070 1070 1055 1041 1020 992 964 938 916 912 910 910 912 913 920 922 922 922 914 903 890 876 863 853 846 841 836 836 836 837 842 847 852 856 856 864 0
0 0 0 0 0 0 0 0 0 0 0 0 0 0 0 0 0 0 0 0 0 0 0 0 0 0 0 0 0 0 0 0 0 0 0 0 0 0 0 0 0 0 0 0 0 0 0 0 0 0 0 0 0 0 0 0 0 0 0 0 0 0 0 0 0 0 0 0 0 0 0 0 0 0 0 0 0 0 0 0 0 0 0 0 0 0 0 0 0 0 0 0 0 0 0 0 0 0 0 0 0 0 0 0 0 0 0 0 0 0 0 0 0 0 0 0 0 0 0 0 0 0 0 0 0 0 0 0 0 0 0 0 0 0 2658 3110 3458 3644 3644 3646 3644 3644 3644 3636 3636 3636 3656 3656 3656 3643 3545 3522 3522 3545 3629 3629 3629 3580 3490 3379 3379 3379 3568 3674 3691 3691 3691 3691 3690 3690 3697 3701 3707 3707 3707 3694 3658 3641 3607 3586 3571 3568 3559 3551 3532 3510 3496 3487 3482 3479 3469 3463 3453 3447 3426 3399 3355 3324 3292 3263 3232 3209 3196 3189 3182 3170 2897 2537 0 0 2142 2115 2104 2090 2072 2063 2055 2050 2045 2038 2032 2026 2023 2020 2015 2010 2007 2006 2004 2002 1999 1996 1995 1993 1991 1988 1987 1984 1980 1977 1974 1971 1969 1966 1963 1962 1960 1957 1956 1954 1951 1949 1948 1947 1945 1942 1940 1938 1936 1934 1932 1930 1929 1926 1925 1924 1922 1920 1918 1917 1915 1913 1912 1911 1908 1907 1906 1904 1902 1900 1898 1897 1895 1893 1892 1890 1888 1887 1886 1885 1884 1884 1883 1882 1881 1880 1878 1877 1876 1875 1874 1872 1870 1869 1867 1866 1865 1864 1863 1862 1860 1859 1859 1858 1856 1855 1854 1852 1851 1850 1849 1847 1846 1846 1845 1844 1843 1842 1841 1841 1841 1840 1840 1839 1839 1839 1839 1839 1840 1840 1840 1840 1840 1840 1840 1840 1841 1841 1841 1841 1841 1842 1842 1843 1844 1844 1845 1845 1845 1845 1845 1845 1845 1845 1845 1844 1844 1842 1841 1841 1841 1840 1839 1837 1834 1831 1824 1798 1766 1750 1742 1737 1732 1729 1726 1721 1718 1715 1712 1708 1703 1697 1692 1685 1672 1672 1672 1672 1672 1670 1667 1664 1661 1658 1655 1653 1651 1650 1649 1645 1645 1644 1644 1644 1641 1640 1639 1637 1634 1633 1631 1628 1625 1623 1621 1618 1614 1612 1611 1609 1607 1605 1601 1595 1589 1584 1583 1582 1578 1573 1570 1568 1565 1563 1562 1561 1559 1558 1553 1551 1550 1547 1546 1545 1543 1535 1527 1523 1518 1512 1508 1504 1498 1494 1490 1487 1483 1480 1479 1479 1479 1479 1480 1482 1485 1491 1491 1491 1491 1490 1489 1488 1487 1486 1485 1483 1481 1479 1476 1474 1472 1470 1467 1464 1462 1460 1458 1454 1450 1447 1445 1441 1432 1422 1417 1411 1406 1402 1400 1398 1397 1396 1395 1394 1393 1392 1391 1391 1390 1390 1390 1390 1389 1389 1390 1390 1390 1391 1392 1392 1392 1392 1391 1390 1389 1388 1386 1385 1382 1380 1379 1377 1374 1372 1370 1369 1367 1365 1363 1362 1360 1358 1356 1355 1353 1351 1350 1348 1346 1344 1343 1342 1340 1338 1336 1334 1332 1331 1329 1327 1326 1324 1323 1322 1321 1319 1315 1315 1311 1301 1295 1269 1227 1195 1195 1195 1203 1203 1203 1180 1166 1151 1137 1127 1124 1117 1101 1083 1078 1077 1077 1078 1078 1077 1070 1055 1041 1020 990 963 937 916 908 907 907 908 908 915 921 921 921 913 903 890 876 863 853 846 841 837 835 835 835 844 851 856 857 857 864 0
0 0 0 0 0 0 0 0 0 0 0 0 0 0 0 0 0 0 0 0 0 0 0 0 0 0 0 0 0 0 0 0 0 0 0 0 0 0 0 0 0 0 0 0 0 0 0 0 0 0 0 0 0 0 0 0 0 0 0 0 0 0 0 0 0 0 0 0 0 0 0 0 0 0 0 0 0 0 0 0 0 0 0 0 0 0 0 0 0 0 0 0 0 0 0 0 0 0 0 0 0 0 0 0 0 0 0 0 0 0 0 0 0 0 0 0 0 0 0 0 0 0 0 0 0 0 0 0 0 0 0 0 0 0 2618 3110 3458 3644 3644 3646 3644 3644 3643 3636 3636 3636 3636 3636 3620 3522 3522 3522 3545 3642 3645 3645 3645 3637 3597 3451 3451 3451 3475 3623 3661 3665 3671 3671 3671 3673 3673 3685 3685 3685 3684 3654 3624 3608 3582 3558 3544 3544 3535 3526 3508 3500 3490 3487 3482 3479 3475 3463 3436 3421 3394 3355 3324 3322 3298 3281 3262 3262 3262 3262 3262 3260 2915 2537 0 0 2141 2112 2100 2089 2071 2060 2052 2043 2040 2037 2032 2026 2022 2019 2015 2010 2007 2005 2004 2001 1998 1996 1994 1992 1990 1988 1986 1983 1980 1977 1974 1972 1968 1965 1963 1962 1960 1956 1955 1952 1950 1949 1948 1946 1945 1942 1940 1938 1936 1934 1932 1931 1929 1927 1926 1924 1923 1921 1919 1917 1915 1914 1912 1911 1909 1907 1906 1904 1902 1901 1899 1897 1895 1893 1892 1890 1888 1887 1886 1885 1884 1884 1883 1882 1881 1880 1879 1877 1876 1875 1873 1872 1869 1868 1866 1865 1864 1863 1862 1861 1860 1859 1858 1858 1856 1855 1853 1852 1851 1850 1849 1847 1846 1846 1845 1844 1843 1842 1841 1841 1841 1840 1840 1839 1839 1839 1839 1839 1839 1839 1839 1839 1840 1840 1840 1841 1841 1841 1841 1841 1841 1842 1843 1843 1844 1845 1845 1846 1846 1845 1845 1845 1845 1845 1845 1844 1844 1843 1841 1841 1841 1841 1839 1837 1834 1830 1824 1800 1770 1750 1742 1737 1732 1729 1726 1721 1718 1715 1712 1708 1703 1697 1692 1685 1674 1673 1672 1672 1671 1670 1667 1664 1662 1659 1656 1654 1652 1650 1649 1645 1645 1645 1644 1644 1642 1640 1640 1639 1637 1635 1633 1630 1627 1625 1622 1619 1615 1613 1611 1609 1608 1606 1602 1595 1589 1584 1582 1578 1575 1571 1569 1566 1563 1560 1559 1558 1558 1554 1550 1550 1550 1547 1546 1546 1543 1540 1536 1523 1518 1513 1512 1508 1499 1495 1492 1489 1483 1480 1479 1479 1479 1479 1479 1480 1485 1490 1490 1490 1490 1489 1488 1487 1486 1485 1484 1483 1481 1478 1475 1472 1471 1468 1466 1464 1462 1460 1457 1454 1450 1447 1445 1441 1432 1421 1415 1411 1406 1402 1399 1398 1397 1396 1394 1393 1393 1392 1391 1391 1390 1390 1389 1389 1389 1389 1389 1389 1390 1391 1391 1392 1392 1392 1391 1390 1389 1388 1386 1385 1383 1381 1379 1377 1375 1372 1371 1369 1367 1365 1363 1362 1360 1358 1356 1355 1353 1352 1350 1348 1346 1344 1343 1342 1340 1338 1336 1334 1332 1330 1329 1327 1325 1324 1323 1322 1320 1319 1315 1314 1311 1301 1295 1269 1227 1194 1194 1194 1203 1203 1203 1187 1182 1163 1150 1140 1138 1130 1122 1108 1101 1096 1093 1085 1085 1085 1062 1055 1041 1017 989 961 937 916 906 902 902 902 902 909 916 916 916 913 903 889 875 862 853 846 841 837 835 835 835 844 851 858 859 859 864 0
0 0 0 0 0 0 0 0 0 0 0 0 0 0 0 0 0 0 0 0 0 0 0 0 0 0 0 0 0 0 0 0 0 0 0 0 0 0 0 0 0 0 0 0 0 0 0 0 0 0 0 0 0 0 0 0 0 0 0 0 0 0 0 0 0 0 0 0 0 0 0 0 0 0 0 0 0 0 0 0 0 0 0 0 0 0 0 0 0 0 0 0 0 0 0 0 0 0 0 0 0 0 0 0 0 0 0 0 0 0 0 0 0 0 0 0 0 0 0 0 0 0 0 0 0 0 0 0 0 0 0 0 0 0 2603 3024 3405 3637 3641 3643 3641 3641 3628 3628 3628 3636 3636 3636 3542 3522 3522 3522 3625 3642 3645 3656 3656 3656 3614 3476 3475 3475 3475 3623 3630 3634 3634 3634 3640 3642 3655 3667 3667 3667 3653 3619 3597 3586 3576 3556 3543 3529 3515 3503 3482 3479 3479 3472 3472 3471 3471 3449 3406 3362 3355 3338 3326 3322 3304 3293 3293 3293 3347 3347 3347 3305 2918 2536 0 0 2141 2109 2099 2086 2071 2058 2052 2043 2038 2035 2029 2023 2021 2018 2014 2010 2007 2005 2003 2001 1998 1995 1992 1991 1989 1986 1984 1983 1979 1977 1974 1972 1968 1965 1963 1960 1959 1956 1953 1952 1950 1948 1947 1945 1944 1942 1940 1938 1936 1935 1933 1931 1929 1928 1926 1925 1923 1921 1920 1917 1915 1914 1913 1912 1910 1907 1906 1904 1902 1901 1899 1897 1896 1894 1893 1890 1889 1887 1887 1885 1885 1884 1883 1882 1881 1880 1878 1877 1876 1875 1874 1872 1869 1868 1866 1865 1864 1863 1862 1861 1860 1859 1858 1857 1856 1855 1853 1852 1850 1849 1849 1847 1847 1846 1845 1844 1843 1842 1842 1841 1841 1840 1840 1839 1839 1839 1839 1839 1839 1839 1839 1839 1840 1840 1840 1841 1841 1841 1841 1842 1842 1842 1843 1844 1845 1845 1846 1846 1846 1846 1846 1846 1846 1845 1845 1844 1844 1843 1841 1841 1841 1841 1839 1837 1834 1830 1824 1804 1773 1750 1742 1737 1732 1729 1726 1721 1718 1715 1712 1708 1703 1697 1693 1687 1676 1673 1672 1672 1671 1670 1667 1665 1662 1659 1656 1654 1652 1650 1649 1645 1645 1645 1645 1644 1642 1642 1641 1640 1638 1636 1633 1631 1629 1626 1623 1620 1617 1614 1612 1610 1609 1609 1605 1596 1589 1584 1581 1578 1574 1571 1568 1565 1563 1558 1556 1551 1550 1547 1544 1544 1544 1544 1544 1544 1543 1540 1537 1534 1530 1527 1522 1511 1499 1499 1496 1490 1484 1481 1479 1479 1479 1479 1479 1480 1485 1490 1490 1490 1490 1489 1488 1486 1485 1483 1483 1482 1481 1477 1474 1472 1469 1468 1466 1464 1461 1460 1457 1453 1451 1449 1448 1441 1432 1421 1415 1409 1405 1401 1399 1398 1396 1394 1393 1393 1393 1392 1391 1391 1390 1390 1389 1389 1388 1388 1388 1389 1390 1390 1391 1391 1391 1391 1391 1390 1389 1388 1386 1385 1383 1381 1379 1377 1375 1372 1371 1369 1367 1365 1364 1362 1360 1358 1356 1355 1353 1352 1350 1348 1346 1344 1343 1342 1340 1338 1336 1334 1332 1330 1329 1327 1325 1324 1324 1321 1320 1318 1314 1312 1311 1301 1295 1269 1225 1184 1184 1184 1203 1203 1203 1187 1182 1163 1150 1140 1138 1130 1122 1108 1101 1096 1095 1086 1083 1083 1060 1044 1040 1016 986 961 937 915 906 901 900 900 900 906 913 913 913 910 901 886 873 859 851 846 841 837 835 835 835 844 851 859 862 862 867 0
0 0 0 0 0 0 0 0 0 0 0 0 0 0 0 0 0 0 0 0 0 0 0 0 0 0 0 0 0 0 0 0 0 0 0 0 0 0 0 0 0 0 0 0 0 0 0 0 0 0 0 0 0 0 0 0 0 0 0 0 0 0 0 0 0 0 0 0 0 0 0 0 0 0 0 0 0 0 0 0 0 0 0 0 0 0 0 0 0 0 0 0 0 0 0 0 0 0 0 0 0 0 0 0 0 0 0 0 0 0 0 0 0 0 0 0 0 0 0 0 0 0 0 0 0 0 0 0 0 0 0 0 0 0 2584 2905 3319 3605 3621 3630 3630 3630 3628 3630 3630 3633 3633 3633 3473 3473 3473 3609 3630 3642 3645 3658 3658 3658 3642 3500 3475 3475 3475 3623 3630 3634 3634 3634 3640 3642 3648 3648 3648 3646 3629 3606 3596 3584 3567 3547 3521 3507 3489 3470 3452 3452 3452 3457 3460 3460 3457 3446 3395 3362 3355 3338 3338 3355 3365 3368 3371 3378 3417 3417 3417 3344 2962 2536 0 0 2141 2108 2098 2086 2065 2057 2052 2043 2038 2034 2028 2022 2020 2017 2014 2010 2006 2004 2002 2001 1998 1994 1991 1990 1988 1986 1983 1982 1979 1977 1974 1972 1968 1965 1963 1960 1958 1956 1953 1952 1950 1948 1947 1945 1944 1942 1940 1938 1936 1935 1933 1931 1930 1928 1927 1925 1924 1922 1920 1918 1916 1915 1914 1912 1910 1908 1907 1905 1902 1901 1899 1897 1896 1894 1893 1890 1889 1888 1887 1887 1885 1884 1884 1882 1881 1880 1879 1877 1876 1875 1873 1872 1869 1868 1866 1865 1864 1863 1862 1860 1860 1859 1858 1857 1856 1854 1853 1852 1850 1849 1849 1847 1847 1846 1845 1844 1843 1843 1842 1841 1841 1840 1840 1839 1839 1839 1839 1839 1839 1839 1839 1839 1840 1840 1841 1841 1841 1842 1842 1842 1842 1843 1843 1844 1845 1845 1846 1846 1846 1846 1846 1846 1846 1845 1845 1844 1844 1843 1842 1842 1841 1841 1839 1837 1834 1830 1823 1807 1774 1750 1742 1737 1732 1729 1726 1721 1717 1715 1712 1709 1704 1700 1693 1688 1678 1674 1674 1673 1671 1671 1668 1666 1663 1659 1656 1654 1652 1650 1649 1645 1645 1645 1645 1644 1642 1642 1641 1640 1638 1636 1634 1631 1629 1627 1624 1620 1618 1615 1614 1611 1611 1609 1605 1597 1591 1584 1581 1578 1574 1571 1567 1565 1560 1557 1553 1548 1545 1545 1542 1539 1539 1539 1543 1543 1543 1541 1538 1535 1533 1530 1527 1522 1517 1517 1513 1501 1498 1497 1494 1482 1479 1479 1479 1483 1485 1490 1490 1490 1490 1489 1487 1485 1483 1482 1482 1481 1480 1477 1474 1471 1469 1468 1465 1464 1461 1459 1456 1453 1451 1449 1448 1441 1432 1421 1415 1409 1405 1401 1399 1397 1396 1394 1393 1392 1392 1392 1392 1391 1390 1390 1389 1389 1388 1388 1388 1389 1390 1390 1390 1391 1391 1390 1390 1389 1389 1388 1386 1385 1383 1381 1379 1377 1375 1372 1371 1369 1366 1365 1364 1362 1360 1358 1356 1355 1353 1352 1350 1348 1346 1344 1343 1342 1339 1337 1336 1335 1332 1330 1329 1327 1325 1325 1324 1321 1319 1318 1314 1309 1307 1301 1292 1262 1209 1184 1184 1184 1188 1188 1188 1187 1182 1163 1150 1140 1138 1130 1122 1108 1101 1096 1093 1086 1083 1077 1059 1044 1035 1004 977 953 929 914 902 898 898 898 899 905 911 911 911 908 898 884 870 858 850 843 839 836 833 833 833 843 851 859 862 862 868 0
0 0 0 0 0 0 0 0 0 0 0 0 0 0 0 0 0 0 0 0 0 0 0 0 0 0 0 0 0 0 0 0 0 0 0 0 0 0 0 0 0 0 0 0 0 0 0 0 0 0 0 0 0 0 0 0 0 0 0 0 0 0 0 0 0 0 0 0 0 0 0 0 0 0 0 0 0 0 0 0 0 0 0 0 0 0 0 0 0 0 0 0 0 0 0 0 0 0 0 0 0 0 0 0 0 0 0 0 0 0 0 0 0 0 0 0 0 0 0 0 0 0 0 0 0 0 0 0 0 0 0 0 0 0 2514 2805 3269 3575 3617 3623 3627 3624 3623 3624 3627 3633 3633 3633 3454 3454 3454 3642 3643 3643 3643 3645 3645 3645 3645 3500 3496 3496 3496 3603 3624 3629 3632 3634 3640 3642 3642 3642 3641 3640 3626 3600 3589 3582 3563 3528 3494 3462 3440 3416 3416 3416 3434 3457 3457 3457 3457 3446 3395 3366 3366 3366 3402 3431 3431 3431 3431 3431 3449 3449 3449 3344 2962 2536 0 0 2139 2108 2098 2086 2062 2054 2051 2048 2038 2034 2027 2021 2018 2015 2012 2009 2006 2004 2002 2000 1997 1994 1991 1989 1987 1985 1983 1980 1978 1977 1974 1972 1968 1965 1962 1960 1957 1956 1953 1952 1950 1948 1947 1945 1944 1941 1940 1938 1936 1935 1933 1931 1930 1929 1927 1925 1925 1923 1921 1919 1917 1916 1914 1912 1910 1909 1907 1905 1904 1902 1900 1898 1896 1895 1893 1891 1889 1889 1888 1887 1885 1884 1884 1882 1881 1880 1879 1877 1876 1875 1873 1872 1870 1868 1866 1865 1864 1863 1862 1860 1859 1859 1857 1857 1855 1854 1853 1852 1850 1849 1849 1847 1847 1846 1845 1845 1843 1843 1842 1841 1840 1840 1840 1839 1839 1839 1839 1839 1839 1839 1839 1840 1840 1840 1842 1842 1842 1842 1843 1843 1843 1843 1844 1844 1845 1845 1846 1846 1846 1846 1846 1846 1846 1845 1845 1844 1844 1843 1843 1842 1842 1841 1840 1837 1835 1830 1823 1807 1774 1756 1744 1737 1732 1728 1725 1721 1718 1715 1712 1709 1704 1700 1694 1688 1682 1677 1674 1673 1671 1671 1668 1667 1664 1662 1659 1654 1651 1650 1648 1647 1646 1645 1645 1643 1642 1642 1641 1640 1638 1637 1636 1633 1630 1627 1624 1621 1618 1617 1614 1613 1611 1609 1605 1597 1592 1585 1581 1578 1574 1571 1567 1565 1560 1555 1550 1545 1543 1543 1540 1538 1538 1538 1540 1541 1541 1541 1539 1536 1533 1532 1529 1525 1522 1521 1519 1512 1510 1508 1501 1496 1493 1492 1492 1491 1491 1491 1490 1490 1490 1489 1486 1485 1483 1482 1480 1479 1479 1475 1473 1470 1467 1466 1465 1463 1460 1458 1454 1453 1451 1449 1448 1441 1432 1422 1414 1409 1405 1401 1399 1397 1394 1392 1392 1392 1392 1392 1392 1392 1391 1391 1390 1389 1388 1388 1388 1389 1390 1390 1390 1390 1390 1390 1390 1389 1388 1387 1386 1384 1383 1381 1379 1377 1375 1372 1371 1369 1366 1365 1363 1362 1360 1358 1356 1355 1353 1352 1350 1348 1346 1344 1342 1341 1339 1337 1336 1335 1332 1330 1329 1327 1325 1325 1324 1321 1319 1318 1314 1309 1307 1294 1271 1250 1209 1181 1168 1168 1163 1160 1160 1160 1157 1150 1142 1136 1133 1126 1113 1102 1098 1086 1085 1077 1075 1075 1054 1038 1018 988 965 946 922 909 899 895 895 895 899 903 906 906 906 904 897 883 870 858 848 842 839 836 832 832 832 839 847 855 862 862 868 0
0 0 0 0 0 0 0 0 0 0 0 0 0 0 0 0 0 0 0 0 0 0 0 0 0 0 0 0 0 0 0 0 0 0 0 0 0 0 0 0 0 0 0 0 0 0 0 0 0 0 0 0 0 0 0 0 0 0 0 0 0 0 0 0 0 0 0 0 0 0 0 0 0 0 0 0 0 0 0 0 0 0 0 0 0 0 0 0 0 0 0 0 0 0 0 0 0 0 0 0 0 0 0 0 0 0 0 0 0 0 0 0 0 0 0 0 0 0 0 0 0 0 0 0 0 0 0 0 0 0 0 0 0 0 0 2547 3178 3498 3604 3611 3616 3616 3616 3618 3618 3618 3618 3608 3410 3410 3410 3630 3634 3638 3638 3638 3645 3645 3645 3500 3496 3496 3496 3598 3620 3622 3626 3631 3633 3637 3637 3633 3633 3621 3617 3599 3580 3577 3550 3496 3446 3401 3380 3380 3380 3408 3434 3457 3457 3457 3452 3439 3422 3422 3422 3435 3455 3455 3455 3431 3431 3431 3449 3449 3449 3344 2959 2526 0 0 2132 2108 2098 2083 2062 2054 2052 2048 2038 2034 2026 2020 2017 2015 2012 2009 2006 2004 2002 2000 1997 1994 1991 1988 1986 1984 1982 1980 1977 1974 1972 1969 1968 1965 1962 1960 1957 1956 1953 1952 1950 1948 1947 1945 1943 1941 1940 1938 1936 1935 1933 1932 1930 1929 1927 1926 1925 1923 1921 1919 1918 1917 1915 1913 1911 1909 1908 1906 1905 1902 1900 1899 1896 1895 1894 1892 1891 1889 1889 1887 1886 1884 1884 1882 1881 1880 1879 1877 1876 1875 1873 1872 1870 1868 1867 1866 1864 1863 1862 1860 1859 1858 1857 1857 1855 1855 1853 1851 1850 1849 1849 1847 1846 1846 1845 1845 1843 1843 1842 1841 1841 1840 1840 1840 1840 1840 1840 1840 1840 1840 1841 1841 1841 1841 1842 1842 1843 1843 1843 1843 1843 1843 1844 1845 1845 1845 1846 1846 1846 1846 1846 1846 1846 1845 1845 1845 1844 1843 1843 1842 1842 1841 1840 1839 1836 1830 1823 1807 1774 1756 1747 1738 1732 1728 1724 1721 1718 1715 1712 1709 1706 1700 1694 1688 1682 1678 1675 1673 1671 1671 1668 1667 1666 1662 1659 1654 1650 1648 1648 1647 1646 1645 1645 1643 1643 1642 1641 1640 1638 1637 1636 1633 1630 1627 1625 1622 1620 1617 1615 1613 1611 1609 1605 1598 1593 1586 1581 1578 1574 1572 1567 1565 1557 1552 1547 1543 1540 1539 1539 1538 1538 1538 1539 1541 1541 1541 1539 1539 1537 1536 1532 1527 1525 1523 1520 1519 1516 1514 1509 1502 1501 1501 1500 1500 1499 1495 1493 1491 1489 1488 1486 1483 1483 1479 1478 1477 1476 1475 1472 1468 1466 1465 1463 1461 1458 1456 1453 1452 1450 1448 1446 1441 1432 1422 1414 1409 1405 1401 1399 1394 1392 1392 1392 1392 1392 1392 1392 1392 1392 1391 1390 1390 1389 1389 1389 1389 1390 1390 1390 1390 1390 1390 1390 1389 1388 1387 1386 1384 1383 1381 1379 1377 1375 1373 1371 1369 1366 1365 1363 1362 1360 1357 1356 1355 1353 1351 1350 1348 1346 1344 1342 1341 1339 1337 1336 1335 1332 1331 1329 1327 1325 1325 1324 1321 1319 1319 1317 1309 1307 1294 1263 1228 1209 1181 1168 1155 1148 1147 1144 1125 1118 1118 1118 1118 1118 1116 1110 1101 1088 1086 1086 1066 1066 1066 1052 1027 1006 978 956 939 922 906 896 889 889 889 893 897 899 900 900 900 894 883 870 857 848 842 839 836 832 832 832 834 842 851 859 859 868 0
0 0 0 0 0 0 0 0 0 0 0 0 0 0 0 0 0 0 0 0 0 0 0 0 0 0 0 0 0 0 0 0 0 0 0 0 0 0 0 0 0 0 0 0 0 0 0 0 0 0 0 0 0 0 0 0 0 0 0 0 0 0 0 0 0 0 0 0 0 0 0 0 0 0 0 0 0 0 0 0 0 0 0 0 0 0 0 0 0 0 0 0 0 0 0 0 0 0 0 0 0 0 0 0 0 0 0 0 0 0 0 0 0 0 0 0 0 0 0 0 0 0 0 0 0 0 0 0 0 0 0 0 0 0 0 2527 2974 3390 3585 3598 3600 3608 3616 3616 3618 3618 3615 3477 3409 3409 3409 3625 3631 3631 3631 3632 3640 3640 3640 3467 3467 3467 3496 3580 3618 3622 3626 3631 3633 3637 3637 3633 3626 3620 3610 3596 3577 3539 3479 3433 3377 3365 3365 3365 3375 3405 3419 3430 3432 3432 3432 3430 3422 3422 3422 3435 3455 3455 3455 3431 3431 3431 3449 3449 3449 3342 2959 0 0 0 2132 2110 2098 2081 2060 2052 2051 2048 2038 2034 2025 2020 2017 2015 2012 2009 2006 2003 2001 1999 1996 1993 1990 1988 1986 1984 1982 1979 1976 1973 1971 1969 1968 1965 1962 1960 1957 1956 1954 1952 1950 1948 1947 1945 1943 1941 1940 1938 1937 1935 1933 1932 1930 1929 1928 1927 1925 1924 1922 1920 1919 1918 1916 1913 1912 1910 1909 1907 1905 1903 1901 1899 1897 1896 1894 1893 1891 1890 1889 1887 1886 1885 1884 1882 1882 1880 1880 1878 1877 1875 1874 1872 1870 1868 1867 1866 1864 1863 1862 1860 1859 1858 1857 1857 1855 1855 1852 1851 1850 1849 1848 1847 1846 1845 1845 1845 1843 1843 1842 1841 1841 1840 1840 1840 1840 1840 1840 1840 1840 1841 1841 1841 1841 1842 1842 1843 1843 1843 1843 1843 1844 1844 1844 1845 1845 1845 1846 1846 1846 1846 1846 1846 1846 1845 1845 1844 1844 1843 1843 1842 1842 1841 1840 1839 1836 1830 1820 1804 1774 1756 1747 1739 1732 1728 1724 1721 1718 1715 1713 1710 1706 1701 1695 1689 1683 1679 1675 1673 1671 1670 1668 1667 1666 1662 1659 1653 1648 1647 1647 1647 1646 1645 1644 1643 1643 1642 1641 1640 1638 1637 1636 1633 1631 1628 1626 1623 1620 1618 1615 1613 1611 1609 1605 1598 1593 1586 1581 1578 1575 1573 1569 1565 1557 1552 1547 1541 1539 1539 1539 1538 1538 1538 1538 1541 1541 1541 1539 1539 1537 1536 1534 1531 1527 1525 1523 1521 1520 1518 1513 1509 1506 1505 1502 1502 1499 1495 1493 1491 1489 1488 1485 1482 1479 1477 1476 1475 1475 1475 1468 1465 1463 1461 1459 1458 1456 1454 1452 1450 1448 1447 1446 1439 1431 1422 1417 1413 1408 1403 1399 1394 1391 1391 1391 1391 1392 1392 1393 1393 1393 1392 1391 1390 1390 1389 1389 1390 1390 1390 1390 1390 1390 1390 1390 1389 1388 1387 1386 1384 1383 1381 1379 1377 1375 1373 1371 1369 1366 1365 1363 1361 1360 1357 1356 1354 1353 1351 1349 1348 1346 1344 1342 1341 1339 1337 1335 1334 1332 1331 1329 1327 1325 1325 1324 1322 1321 1319 1317 1312 1309 1294 1258 1220 1203 1181 1168 1153 1142 1137 1123 1090 1090 1090 1090 1098 1104 1104 1104 1094 1080 1076 1076 1059 1059 1059 1047 1026 994 968 950 935 918 904 891 885 882 882 882 886 893 893 893 893 890 882 870 857 848 842 839 836 833 833 833 834 841 848 856 856 864 0
0 0 0 0 0 0 0 0 0 0 0 0 0 0 0 0 0 0 0 0 0 0 0 0 0 0 0 0 0 0 0 0 0 0 0 0 0 0 0 0 0 0 0 0 0 0 0 0 0 0 0 0 0 0 0 0 0 0 0 0 0 0 0 0 0 0 0 0 0 0 0 0 0 0 0 0 0 0 0 0 0 0 0 0 0 0 0 0 0 0 0 0 0 0 0 0 0 0 0 0 0 0 0 0 0 0 0 0 0 0 0 0 0 0 0 0 0 0 0 0 0 0 0 0 0 0 0 0 0 0 0 0 0 0 0 0 2824 3257 3477 3516 3516 3516 3458 3455 3453 3452 3401 3305 3305 3305 3381 3533 3572 3572 3575 3575 3575 3557 3445 3324 3324 3324 3377 3455 3465 3495 3539 3567 3588 3594 3601 3601 3594 3550 3492 3422 3338 3337 3335 3334 3334 3334 3347 3361 3375 3391 3419 3430 3430 3430 3430 3428 3422 3422 3422 3435 3438 3438 3438 3408 3408 3408 3414 3414 3414 3266 2842 0 0 0 2129 2110 2098 2074 2052 2050 2048 2044 2036 2032 2024 2019 2017 2015 2011 2009 2006 2003 2001 1999 1996 1993 1990 1988 1986 1984 1982 1979 1976 1973 1971 1969 1968 1965 1962 1960 1957 1956 1954 1953 1952 1949 1947 1945 1943 1941 1940 1938 1937 1936 1933 1932 1931 1930 1928 1927 1925 1925 1923 1921 1920 1919 1917 1915 1912 1912 1909 1907 1906 1903 1901 1900 1898 1897 1896 1894 1892 1890 1889 1888 1887 1885 1884 1883 1882 1881 1880 1879 1877 1876 1874 1873 1871 1869 1867 1866 1865 1863 1862 1860 1859 1858 1857 1857 1855 1855 1852 1851 1850 1849 1848 1847 1846 1846 1845 1845 1844 1843 1842 1841 1841 1841 1841 1841 1841 1841 1840 1840 1841 1841 1841 1841 1842 1842 1843 1843 1843 1844 1844 1844 1845 1845 1845 1845 1845 1846 1846 1847 1847 1847 1847 1846 1846 1845 1845 1844 1844 1844 1843 1842 1842 1841 1840 1839 1836 1828 1819 1802 1774 1758 1747 1739 1733 1728 1724 1721 1719 1716 1715 1711 1708 1703 1695 1689 1684 1680 1676 1673 1670 1668 1667 1666 1666 1662 1657 1652 1648 1647 1647 1646 1645 1645 1644 1643 1643 1643 1642 1640 1638 1637 1635 1633 1631 1629 1627 1624 1621 1618 1615 1613 1611 1607 1604 1598 1593 1588 1584 1578 1576 1574 1570 1565 1557 1552 1547 1541 1539 1539 1539 1538 1538 1538 1538 1541 1541 1541 1540 1539 1538 1536 1535 1533 1529 1527 1525 1523 1520 1518 1514 1512 1510 1508 1505 1502 1500 1496 1492 1491 1486 1481 1478 1475 1472 1472 1472 1471 1471 1466 1462 1462 1462 1460 1457 1455 1454 1451 1449 1447 1446 1446 1445 1439 1431 1422 1419 1413 1408 1403 1399 1394 1391 1391 1391 1391 1392 1392 1393 1393 1393 1392 1391 1391 1390 1390 1390 1390 1390 1390 1390 1391 1390 1390 1390 1389 1388 1387 1386 1384 1383 1381 1379 1377 1375 1373 1371 1369 1366 1365 1363 1361 1360 1357 1356 1354 1353 1351 1349 1348 1346 1344 1342 1341 1339 1337 1335 1334 1332 1331 1329 1327 1326 1324 1324 1322 1321 1320 1317 1313 1310 1294 1257 1218 1200 1171 1167 1142 1131 1119 1097 1065 1065 1065 1066 1075 1087 1091 1091 1091 1077 1072 1072 1059 1059 1059 1046 1026 993 965 946 932 917 901 887 883 878 878 878 878 886 891 891 891 887 879 870 858 849 844 841 837 833 833 833 833 838 847 853 853 858 0
0 0 0 0 0 0 0 0 0 0 0 0 0 0 0 0 0 0 0 0 0 0 0 0 0 0 0 0 0 0 0 0 0 0 0 0 0 0 0 0 0 0 0 0 0 0 0 0 0 0 0 0 0 0 0 0 0 0 0 0 0 0 0 0 0 0 0 0 0 0 0 0 0 0 0 0 0 0 0 0 0 0 0 0 0 0 0 0 0 0 0 0 0 0 0 0 0 0 0 0 0 0 0 0 0 0 0 0 0 0 0 0 0 0 0 0 0 0 0 0 0 0 0 0 0 0 0 0 0 0 0 0 0 0 0 0 2810 3067 3325 3388 3388 3388 3366 3362 3322 3292 3252 3145 3093 3093 3093 3275 3407 3407 3407 3394 3376 3298 3148 3148 3148 3203 3244 3258 3271 3273 3273 3273 3273 3241 3241 3228 3228 3201 3142 3112 3112 3112 3160 3179 3216 3249 3286 3313 3317 3317 3317 3313 3311 3303 3303 3303 3314 3334 3363 3370 3373 3373 3373 3342 3295 3295 3295 3284 3284 3138 2818 0 0 0 2127 2111 2099 2074 2052 2047 2045 2040 2032 2029 2023 2019 2017 2015 2011 2009 2007 2004 2001 1999 1996 1993 1990 1988 1987 1985 1983 1979 1976 1973 1972 1971 1968 1966 1963 1960 1957 1956 1954 1953 1952 1950 1947 1945 1944 1941 1940 1939 1938 1936 1934 1932 1931 1930 1928 1927 1927 1925 1924 1922 1921 1921 1918 1916 1914 1912 1911 1908 1906 1905 1903 1901 1900 1897 1897 1895 1893 1891 1890 1888 1888 1886 1885 1884 1883 1882 1881 1880 1878 1877 1875 1874 1872 1869 1868 1867 1866 1865 1863 1861 1860 1858 1858 1857 1856 1855 1852 1851 1850 1849 1848 1847 1846 1846 1845 1845 1844 1843 1843 1842 1842 1841 1841 1841 1841 1841 1840 1840 1841 1841 1841 1842 1842 1843 1843 1844 1845 1845 1845 1845 1846 1846 1846 1847 1847 1847 1847 1847 1847 1847 1847 1847 1846 1845 1845 1845 1844 1844 1843 1842 1841 1840 1839 1837 1833 1827 1818 1801 1773 1756 1747 1740 1733 1729 1725 1723 1720 1718 1716 1712 1709 1704 1698 1692 1684 1680 1676 1673 1670 1665 1664 1663 1662 1659 1655 1652 1648 1647 1647 1645 1645 1645 1644 1643 1643 1643 1642 1640 1638 1637 1635 1633 1631 1630 1627 1625 1621 1619 1616 1613 1610 1607 1601 1597 1593 1588 1584 1578 1576 1574 1570 1565 1557 1552 1547 1541 1540 1539 1539 1539 1538 1538 1538 1541 1541 1541 1541 1539 1538 1536 1535 1533 1530 1528 1526 1524 1521 1518 1515 1514 1512 1509 1507 1503 1500 1496 1492 1489 1483 1475 1472 1469 1469 1469 1464 1462 1462 1457 1457 1457 1456 1456 1455 1452 1451 1450 1447 1446 1445 1444 1443 1439 1432 1422 1421 1417 1409 1404 1400 1395 1391 1391 1391 1391 1392 1394 1394 1394 1393 1393 1392 1391 1390 1390 1390 1390 1390 1390 1391 1391 1391 1391 1390 1389 1388 1387 1386 1384 1382 1381 1379 1377 1375 1373 1371 1369 1367 1365 1364 1361 1360 1357 1356 1354 1352 1351 1349 1348 1346 1344 1342 1340 1339 1337 1335 1334 1332 1331 1330 1328 1326 1324 1324 1322 1321 1320 1317 1315 1310 1294 1256 1218 0 0 0 0 1092 1080 1071 1057 1039 1039 1039 1055 1068 1078 1078 1078 1067 1066 1058 1047 1047 1047 1031 1008 984 962 943 927 915 897 883 881 874 872 872 872 877 885 885 885 884 878 870 859 852 845 842 837 833 832 832 832 835 844 848 848 853 0
0 0 0 0 0 0 0 0 0 0 0 0 0 0 0 0 0 0 0 0 0 0 0 0 0 0 0 0 0 0 0 0 0 0 0 0 0 0 0 0 0 0 0 0 0 0 0 0 0 0 0 0 0 0 0 0 0 0 0 0 0 0 0 0 0 0 0 0 0 0 0 0 0 0 0 0 0 0 0 0 0 0 0 0 0 0 0 0 0 0 0 0 0 0 0 0 0 0 0 0 0 0 0 0 0 0 0 0 0 0 0 0 0 0 0 0 0 0 0 0 0 0 0 0 0 0 0 0 0 0 0 0 0 0 0 0 2810 3000 3181 3315 3318 3319 3319 3318 3289 3272 3222 3033 2916 2916 2916 3124 3253 3279 3279 3279 3234 3145 3135 3135 3135 3203 3244 3258 3270 3270 3270 3266 3237 3184 3162 3156 3153 3135 3094 3045 3033 3033 3033 3054 3063 3083 3088 3104 3115 3115 3118 3121 3121 3122 3122 3122 3111 3099 3094 3085 3085 3081 3069 3068 3068 3069 3069 3055 3015 2866 2749 0 0 0 2127 2111 2099 2074 2052 2045 2044 2037 2032 2028 2023 2019 2017 2015 2011 2009 2007 2004 2001 1999 1996 1994 1992 1990 1989 1987 1984 1980 1976 1974 1973 1971 1970 1967 1964 1961 1958 1956 1955 1954 1953 1951 1948 1946 1944 1943 1940 1939 1938 1936 1935 1933 1932 1930 1930 1928 1927 1926 1925 1924 1922 1921 1920 1918 1915 1913 1911 1910 1908 1907 1905 1903 1901 1899 1898 1896 1894 1891 1890 1890 1889 1888 1886 1885 1884 1883 1881 1880 1879 1877 1876 1874 1872 1871 1869 1868 1866 1866 1864 1862 1860 1859 1858 1858 1856 1855 1853 1851 1850 1849 1848 1848 1846 1846 1845 1845 1845 1844 1843 1843 1842 1842 1842 1841 1841 1841 1841 1841 1841 1841 1842 1842 1843 1843 1844 1846 1846 1846 1847 1847 1847 1848 1849 1849 1849 1849 1849 1849 1849 1847 1847 1847 1846 1846 1846 1845 1845 1844 1843 1843 1841 1840 1836 1833 1831 1826 1818 1801 1773 1756 1747 1741 1734 1731 1728 1724 1720 1718 1716 1712 1710 1706 1702 1695 1686 1681 1676 1673 1669 1665 1664 1663 1661 1659 1655 1652 1648 1647 1647 1647 1647 1647 1646 1644 1644 1643 1642 1640 1638 1637 1635 1633 1632 1630 1627 1625 1622 1619 1616 1613 1610 1607 1601 1596 1591 1588 1584 1578 1576 1574 1570 1565 1557 1552 1547 1544 1543 1542 1540 1539 1539 1539 1540 1542 1542 1542 1541 1540 1538 1536 1536 1534 1532 1530 1528 1526 1523 1521 1517 1516 1514 1511 1508 1505 1502 1496 1492 1488 1480 1474 1471 1467 1464 1460 1457 1456 1454 1448 1443 1443 1443 1443 1447 1448 1447 1447 1447 1446 1444 1441 1439 1438 1432 1432 1427 1424 1420 1413 1407 1400 1393 1392 1392 1392 1394 1395 1395 1395 1395 1393 1393 1392 1390 1390 1390 1390 1390 1391 1391 1391 1391 1391 1390 1389 1388 1387 1385 1384 1382 1380 1379 1377 1375 1373 1371 1368 1367 1365 1364 1361 1360 1357 1356 1354 1352 1351 1349 1348 1346 1344 1342 1340 1339 1337 1335 1334 1332 1331 1330 1328 1326 1324 1323 1322 1322 1320 1317 1315 1309 1293 0 0 0 0 0 1052 1052 1049 1048 1046 1039 1039 1039 1051 1053 1057 1057 1057 1050 1050 1047 1045 1042 1042 1025 1004 984 960 942 927 910 894 883 876 868 866 866 866 871 880 882 882 882 876 869 859 852 846 843 837 832 832 832 832 834 837 843 843 852 0
0 0 0 0 0 0 0 0 0 0 0 0 0 0 0 0 0 0 0 0 0 0 0 0 0 0 0 0 0 0 0 0 0 0 0 0 0 0 0 0 0 0 0 0 0 0 0 0 0 0 0 0 0 0 0 0 0 0 0 0 0 0 0 0 0 0 0 0 0 0 0 0 0 0 0 0 0 0 0 0 0 0 0 0 0 0 0 0 0 0 0 0 0 0 0 0 0 0 0 0 0 0 0 0 0 0 0 0 0 0 0 0 0 0 0 0 0 0 0 0 0 0 0 0 0 0 0 0 0 0 0 0 0 0 0 2539 2810 3000 3181 3291 3315 3315 3315 3278 3276 3256 3182 3000 2815 2815 2815 2941 3134 3214 3214 3214 3172 3078 3078 3078 3135 3203 3244 3258 3266 3266 3266 3252 3214 3178 3148 3148 3146 3124 3086 3043 3025 3025 3025 3025 3027 3028 3029 3065 3079 3085 3087 3089 3100 3115 3115 3115 3102 3099 3091 3085 3062 3043 3025 3013 2990 2963 2920 2881 2824 2768 2664 0 0 0 0 2112 2101 2089 2061 2045 2044 2037 2032 2028 2023 2019 2018 2016 2013 2010 2007 2004 2002 1999 1998 1996 1994 1992 1991 1988 1985 1981 1978 1975 1974 1973 1971 1968 1965 1962 1959 1956 1955 1954 1953 1951 1949 1946 1945 1943 1941 1940 1938 1937 1935 1934 1932 1931 1931 1929 1928 1927 1926 1925 1924 1922 1922 1919 1917 1915 1913 1911 1909 1908 1906 1905 1903 1901 1899 1897 1896 1894 1892 1891 1890 1888 1887 1886 1885 1884 1883 1881 1879 1878 1877 1875 1873 1872 1870 1868 1868 1867 1865 1864 1861 1861 1859 1858 1856 1855 1854 1852 1850 1850 1849 1848 1847 1847 1846 1846 1846 1845 1844 1843 1843 1843 1842 1842 1842 1842 1842 1842 1842 1842 1842 1843 1845 1846 1847 1847 1847 1847 1848 1848 1848 1849 1849 1849 1851 1851 1851 1851 1850 1849 1848 1847 1847 1846 1846 1846 1846 1845 1844 1843 1841 1839 1836 1833 1831 1826 1818 1798 1773 1759 1748 1743 1738 1736 1731 1726 1722 1719 1717 1713 1709 1706 1702 1697 1687 1681 1677 1673 1669 1665 1664 1663 1661 1659 1655 1652 1650 1647 1647 1647 1647 1647 1647 1647 1645 1644 1643 1641 1639 1638 1636 1634 1632 1630 1627 1625 1622 1619 1616 1613 1611 1607 1601 1596 1589 1584 1580 1578 1576 1572 1568 1562 1557 1553 1549 1546 1544 1542 1541 1539 1539 1539 1540 1542 1542 1542 1542 1540 1540 1538 1536 1535 1533 1531 1529 1527 1524 1523 1521 1517 1515 1512 1509 1506 1502 1497 1493 1488 1480 1474 1471 1467 1463 1458 1455 1455 1453 1447 1441 1437 1436 1436 1436 1437 1437 1442 1442 1442 1440 1439 1439 1439 1438 1434 1432 1427 1426 1423 1420 1411 1398 1398 1398 1397 1397 1397 1397 1397 1397 1395 1394 1392 1391 1390 1390 1390 1390 1391 1392 1392 1392 1391 1390 1389 1388 1386 1385 1383 1381 1380 1379 1377 1375 1373 1370 1368 1367 1365 1364 1361 1360 1357 1355 1353 1352 1350 1349 1348 1346 1344 1343 1340 1339 1337 1335 1334 1333 1332 1330 1328 1326 1325 1323 1322 1322 1322 1317 1315 1308 1287 0 0 0 0 1052 1048 1048 1048 1048 1046 1039 1039 1039 1051 1051 1051 1051 1046 1045 1044 1044 1044 1043 1042 1024 1002 983 957 938 924 908 892 883 874 864 863 863 863 870 876 879 879 879 873 865 859 853 849 843 837 832 828 828 828 834 837 840 840 851 0
0 0 0 0 0 0 0 0 0 0 0 0 0 0 0 0 0 0 0 0 0 0 0 0 0 0 0 0 0 0 0 0 0 0 0 0 0 0 0 0 0 0 0 0 0 0 0 0 0 0 0 0 0 0 0 0 0 0 0 0 0 0 0 0 0 0 0 0 0 0 0 0 0 0 0 0 0 0 0 0 0 0 0 0 0 0 0 0 0 0 0 0 0 0 0 0 0 0 0 0 0 0 0 0 0 0 0 0 0 0 0 0 0 0 0 0 0 0 0 0 0 0 0 0 0 0 0 0 0 0 0 0 0 0 2623 2926 2960 3000 3181 3291 3310 3310 3310 3269 3268 3222 3134 2929 2737 2737 2737 2806 2981 3122 3122 3122 3106 3034 3034 3034 3182 3244 3285 3297 3297 3297 3265 3244 3213 3176 3148 3145 3140 3123 3083 3037 3025 3025 3025 3025 3025 3027 3027 3031 3063 3068 3071 3075 3092 3106 3106 3106 3102 3099 3091 3085 3062 3043 3025 3013 2990 2963 2920 2881 2824 2768 2664 2545 0 0 0 0 0 0 0 2060 2044 2037 2034 2028 2026 2019 2018 2017 2015 2012 2009 2006 2004 2001 2000 1998 1996 1994 1991 1989 1986 1983 1979 1976 1975 1974 1972 1969 1966 1963 1959 1956 1955 1954 1953 1952 1949 1947 1945 1943 1942 1941 1940 1938 1936 1936 1934 1933 1932 1930 1929 1928 1927 1926 1925 1924 1922 1921 1919 1917 1915 1912 1911 1909 1908 1906 1905 1902 1901 1899 1898 1897 1894 1893 1892 1890 1889 1887 1887 1886 1884 1882 1881 1880 1878 1877 1876 1873 1871 1870 1868 1867 1866 1865 1863 1861 1860 1859 1857 1856 1854 1853 1852 1851 1850 1849 1848 1847 1847 1846 1846 1845 1845 1844 1844 1844 1844 1843 1843 1843 1843 1843 1844 1844 1844 1844 1845 1846 1847 1847 1848 1849 1849 1849 1849 1849 1850 1851 1852 1853 1853 1853 1852 1850 1850 1849 1848 1847 1847 1846 1846 1846 1844 1843 1841 1839 1836 1833 1831 1827 1818 1798 1772 1759 1748 1745 1740 1736 1732 1727 1723 1720 1717 1714 1709 1706 1702 1698 1692 1684 1677 1673 1669 1667 1665 1664 1661 1659 1656 1653 1650 1648 1648 1648 1649 1649 1649 1647 1646 1645 1643 1641 1640 1638 1637 1634 1632 1630 1627 1625 1622 1619 1615 1613 1611 1608 1603 1595 1588 1583 1579 1578 1573 1569 1564 1560 1556 1553 1549 1546 1544 1542 1541 1539 1539 1539 1540 1542 1543 1543 1543 1542 1540 1539 1537 1535 1534 1532 1530 1528 1526 1524 1522 1519 1515 1513 1510 1507 1503 1499 1495 1488 1480 1474 1471 1466 1461 1455 1454 1453 1451 1447 1441 1437 1436 1436 1436 1436 1437 1437 1437 1437 1438 1439 1439 1439 1438 1437 1434 1433 1431 1429 1424 1416 1411 1411 1410 1410 1410 1406 1402 1401 1399 1397 1395 1394 1391 1391 1391 1391 1391 1392 1392 1392 1392 1391 1390 1389 1388 1385 1383 1382 1381 1380 1378 1377 1374 1372 1370 1368 1367 1365 1363 1361 1359 1357 1355 1353 1351 1350 1349 1348 1346 1344 1343 1340 1339 1337 1336 1334 1333 1331 1330 1328 1326 1325 1324 1323 1322 1322 1320 1316 1308 1285 0 0 0 0 1052 1048 1048 1048 1049 1049 1049 1053 1053 1053 1053 1051 1047 1046 1046 1044 1044 1044 1044 1042 1024 997 975 952 935 919 906 891 883 874 863 862 862 862 867 875 875 875 875 870 865 859 853 850 843 836 832 827 827 827 834 834 839 839 850 0
0 0 0 0 0 0 0 0 0 0 0 0 0 0 0 0 0 0 0 0 0 0 0 0 0 0 0 0 0 0 0 0 0 0 0 0 0 0 0 0 0 0 0 0 0 0 0 0 0 0 0 0 0 0 0 0 0 0 0 0 0 0 0 0 0 0 0 0 0 0 0 0 0 0 0 0 0 0 0 0 0 0 0 0 0 0 0 0 0 0 0 0 0 0 0 0 0 0 0 0 0 0 0 0 0 0 0 0 0 0 0 0 0 0 0 0 0 0 0 0 0 0 0 0 0 0 0 0 0 0 2547 2724 2850 2961 3175 3175 3198 3266 3266 3266 3297 3297 3297 3252 3160 3159 2995 2896 2737 2672 2672 2672 2749 2918 3016 3019 3019 3019 3019 3112 3182 3244 3285 3297 3297 3297 3256 3226 3189 3150 3137 3136 3123 3097 3061 3028 3025 3025 3025 3025 3025 3022 3022 3022 3035 3043 3063 3067 3070 3085 3094 3102 3107 3102 3094 3093 3062 3043 3025 3013 2990 2963 2920 2881 2824 2768 2664 2620 2584 2579 2559 0 0 0 0 2104 2063 2056 2049 2045 2042 2032 2021 2018 2016 2014 2010 2007 2005 2003 2000 2000 1998 1997 1993 1989 1986 1984 1980 1978 1976 1975 1973 1971 1969 1966 1964 1959 1957 1955 1954 1952 1950 1947 1945 1945 1943 1943 1941 1940 1938 1936 1935 1934 1933 1931 1930 1929 1928 1927 1926 1924 1923 1922 1921 1918 1916 1914 1912 1910 1908 1907 1906 1905 1903 1901 1899 1899 1896 1895 1894 1892 1890 1888 1888 1887 1886 1884 1882 1881 1879 1878 1876 1874 1872 1871 1869 1868 1867 1865 1863 1862 1861 1860 1859 1857 1855 1855 1853 1853 1852 1850 1849 1848 1847 1847 1847 1846 1846 1846 1845 1845 1845 1845 1844 1844 1844 1844 1844 1844 1844 1845 1845 1846 1847 1848 1848 1850 1851 1851 1851 1851 1851 1852 1853 1854 1854 1854 1854 1853 1852 1850 1850 1849 1849 1848 1848 1848 1847 1845 1842 1840 1836 1834 1831 1827 1818 1798 1772 1760 1750 1745 1741 1738 1733 1728 1724 1720 1718 1715 1710 1706 1702 1698 1697 1693 1681 1674 1671 1668 1665 1664 1664 1664 1660 1655 1651 1650 1650 1650 1650 1650 1650 1649 1647 1646 1644 1642 1640 1638 1637 1634 1632 1630 1627 1624 1622 1619 1616 1613 1611 1608 1603 1595 1588 1583 1579 1575 1570 1565 1561 1559 1556 1553 1549 1546 1544 1543 1541 1539 1539 1539 1540 1543 1543 1543 1543 1542 1541 1540 1539 1537 1535 1533 1531 1529 1527 1525 1522 1519 1516 1513 1511 1507 1504 1501 1495 1488 1480 1474 1470 1464 1458 1455 1453 1451 1449 1445 1441 1437 1436 1436 1436 1436 1437 1437 1437 1437 1438 1439 1439 1439 1438 1438 1436 1435 1434 1432 1427 1425 1423 1419 1414 1414 1413 1411 1409 1404 1402 1397 1397 1397 1396 1396 1396 1396 1396 1394 1393 1393 1392 1391 1390 1389 1387 1385 1383 1382 1381 1380 1377 1376 1374 1372 1370 1368 1365 1363 1362 1360 1359 1356 1354 1352 1351 1350 1348 1347 1346 1344 1342 1340 1339 1337 1336 1334 1333 1331 1330 1328 1326 1325 1324 1323 1323 1322 1320 1316 1307 1281 0 0 0 0 1052 1052 1052 1057 1058 1062 1065 1067 1067 1067 1050 1048 1044 1044 1044 1044 1044 1044 1044 1042 1024 996 971 949 930 915 904 888 883 872 862 861 861 861 866 869 871 871 871 867 863 859 853 851 843 834 828 824 824 824 826 833 839 839 850 0
0 0 0 0 0 0 0 0 0 0 0 0 0 0 0 0 0 0 0 0 0 0 0 0 0 0 0 0 0 0 0 0 0 0 0 0 0 0 0 0 0 0 0 0 0 0 0 0 0 0 0 0 0 0 0 0 0 0 0 0 0 0 0 0 0 0 0 0 0 0 0 0 0 0 0 0 0 0 0 0 0 0 0 0 0 0 0 0 0 0 0 0 0 0 0 0 0 0 0 0 0 0 0 0 0 0 0 0 0 0 0 0 0 0 0 0 0 0 0 0 0 0 0 0 0 0 0 0 2473 2662 2858 3003 3071 3246 3284 3284 3284 3263 3263 3263 3297 3297 3297 3170 3009 3007 2909 2896 2737 2672 2672 2672 2713 2916 3016 3019 3021 3045 3045 3117 3182 3244 3285 3297 3297 3297 3251 3191 3134 3090 3080 3075 3069 3059 3052 3031 3031 3031 3032 3032 3032 3014 3007 3000 3000 3000 3019 3025 3036 3042 3109 3117 3243 3289 3289 3289 3257 3243 3243 3243 3243 3243 3211 3146 3092 2967 2810 2698 2669 2669 2666 2613 0 0 0 2145 2110 2078 2064 2054 2048 2043 2038 2029 2025 2021 2014 2011 2009 2007 2005 2003 2003 2000 1996 1992 1990 1988 1984 1981 1981 1979 1977 1975 1972 1970 1969 1963 1960 1958 1957 1955 1953 1950 1946 1946 1945 1945 1943 1941 1939 1938 1936 1935 1933 1932 1931 1931 1929 1928 1926 1925 1923 1923 1922 1920 1917 1915 1913 1911 1910 1908 1907 1906 1905 1902 1900 1900 1898 1896 1895 1893 1892 1891 1889 1889 1888 1885 1884 1882 1880 1879 1878 1875 1874 1871 1870 1868 1868 1866 1865 1863 1862 1860 1859 1859 1857 1855 1854 1853 1852 1851 1850 1849 1847 1847 1847 1847 1847 1847 1846 1846 1846 1846 1846 1846 1847 1846 1846 1846 1846 1846 1846 1846 1848 1848 1848 1850 1851 1851 1851 1851 1851 1852 1853 1854 1855 1855 1854 1854 1854 1853 1853 1852 1851 1850 1850 1849 1847 1846 1844 1844 1842 1840 1833 1827 1818 1798 1772 1761 1752 1745 1741 1738 1733 1728 1724 1721 1718 1715 1713 1708 1702 1698 1698 1694 1689 1685 1682 1671 1666 1666 1664 1664 1662 1655 1651 1651 1651 1653 1653 1653 1651 1649 1648 1646 1644 1642 1640 1638 1637 1634 1632 1630 1627 1624 1622 1618 1616 1613 1611 1608 1603 1595 1588 1582 1579 1575 1570 1564 1561 1558 1554 1551 1548 1546 1544 1543 1542 1542 1542 1542 1542 1543 1543 1543 1543 1542 1542 1540 1539 1537 1536 1534 1532 1530 1528 1525 1523 1520 1516 1513 1511 1507 1504 1501 1495 1488 1480 1474 1469 1464 1458 1455 1453 1450 1448 1444 1441 1439 1438 1437 1437 1437 1437 1437 1437 1437 1439 1440 1440 1440 1440 1438 1438 1438 1436 1433 1431 1429 1426 1422 1419 1417 1416 1416 1413 1408 1406 1406 1406 1405 1404 1400 1398 1397 1397 1394 1393 1392 1392 1391 1390 1387 1387 1385 1383 1381 1380 1378 1377 1375 1374 1372 1369 1367 1365 1363 1362 1360 1358 1356 1354 1352 1351 1350 1348 1347 1345 1344 1342 1340 1339 1337 1336 1334 1333 1332 1330 1328 1326 1326 1323 1323 1323 1323 1321 1316 1307 1281 0 0 0 0 1083 1066 1065 1065 1065 1071 1071 1071 1071 1067 1050 1048 1048 1048 1054 1054 1054 1054 1048 1041 1017 990 967 943 925 909 899 888 884 871 859 855 855 855 862 864 868 868 868 865 863 859 854 851 843 834 827 822 819 819 819 824 834 834 845 0
0 0 0 0 0 0 0 0 0 0 0 0 0 0 0 0 0 0 0 0 0 0 0 0 0 0 0 0 0 0 0 0 0 0 0 0 0 0 0 0 0 0 0 0 0 0 0 0 0 0 0 0 0 0 0 0 0 0 0 0 0 0 0 0 0 0 0 0 0 0 0 0 0 0 0 0 0 0 0 0 0 0 0 0 0 0 0 0 0 0 0 0 0 0 0 0 0 0 0 0 0 0 0 0 0 0 0 0 0 0 0 0 0 0 0 0 0 0 0 0 0 0 0 0 0 0 0 0 2597 2662 2858 3003 3071 3246 3284 3284 3284 3263 3263 3263 3263 3263 3150 3045 2922 2921 2880 2837 2737 2672 2672 2672 2713 2916 3016 3021 3043 3049 3083 3117 3171 3212 3257 3274 3274 3274 3228 3155 3096 3086 3077 3075 3069 3059 3052 3043 3043 3042 3034 3034 3032 3014 2995 2955 2946 2946 2946 2967 2983 3042 3109 3297 3406 3447 3447 3447 3359 3273 3259 3250 3243 3243 3211 3146 3092 3085 3070 3067 3054 3044 2968 2884 2654 0 0 2161 2121 2103 2083 2070 2060 2049 2043 2038 2030 2025 2019 2016 2012 2008 2008 2007 2005 2002 1999 1995 1992 1990 1987 1986 1983 1982 1979 1977 1974 1971 1970 1968 1964 1961 1959 1957 1955 1953 1950 1948 1946 1945 1944 1942 1940 1939 1939 1937 1935 1934 1933 1932 1931 1929 1928 1926 1925 1925 1923 1921 1918 1916 1914 1911 1910 1908 1908 1906 1905 1903 1901 1901 1899 1898 1896 1894 1894 1892 1891 1890 1888 1887 1885 1884 1882 1882 1880 1877 1875 1873 1871 1870 1868 1866 1866 1865 1863 1861 1860 1859 1858 1856 1855 1854 1853 1852 1852 1849 1849 1849 1848 1848 1847 1847 1847 1847 1848 1848 1848 1848 1848 1848 1848 1848 1848 1848 1848 1849 1849 1850 1852 1852 1852 1852 1852 1852 1852 1853 1856 1856 1856 1856 1856 1856 1856 1856 1856 1855 1854 1854 1854 1851 1848 1847 1847 1847 1846 1846 1841 1835 1822 1803 1774 1761 1752 1745 1741 1738 1733 1728 1724 1721 1718 1715 1713 1709 1704 1702 1700 1696 1692 1690 1688 1685 1682 1672 1667 1665 1665 1655 1654 1654 1654 1654 1654 1654 1651 1649 1648 1646 1644 1642 1640 1638 1636 1634 1632 1630 1627 1624 1622 1618 1616 1614 1611 1607 1600 1590 1587 1582 1578 1574 1569 1564 1561 1557 1554 1550 1548 1546 1544 1544 1543 1542 1542 1542 1542 1543 1543 1543 1543 1542 1542 1540 1539 1537 1536 1534 1532 1530 1528 1525 1523 1520 1517 1514 1511 1508 1505 1501 1495 1487 1480 1472 1468 1462 1457 1454 1452 1450 1447 1444 1441 1439 1438 1437 1437 1437 1436 1437 1437 1438 1439 1440 1441 1441 1441 1439 1439 1438 1436 1434 1431 1429 1427 1426 1424 1421 1419 1417 1414 1412 1411 1410 1408 1406 1405 1402 1401 1400 1398 1395 1393 1392 1392 1390 1388 1387 1385 1385 1383 1381 1380 1377 1376 1374 1373 1370 1368 1366 1365 1363 1362 1360 1357 1355 1353 1352 1350 1349 1348 1346 1345 1343 1342 1341 1339 1337 1336 1334 1333 1332 1330 1328 1327 1326 1323 1323 1323 1323 1321 1316 1303 1284 1250 1206 1169 1153 1119 1083 1066 1066 1066 1071 1071 1071 1071 1067 1050 1048 1048 1048 1054 1054 1054 1054 1048 1041 1016 988 964 940 922 906 899 888 884 870 859 852 852 852 855 857 862 864 864 864 862 859 854 851 843 834 827 821 814 814 814 817 826 826 838 0
0 0 0 0 0 0 0 0 0 0 0 0 0 0 0 0 0 0 0 0 0 0 0 0 0 0 0 0 0 0 0 0 0 0 0 0 0 0 0 0 0 0 0 0 0 0 0 0 0 0 0 0 0 0 0 0 0 0 0 0 0 0 0 0 0 0 0 0 0 0 0 0 0 0 0 0 0 0 0 0 0 0 0 0 0 0 0 0 0 0 0 0 0 0 0 0 0 0 0 0 0 0 0 0 0 0 0 0 0 0 0 0 0 0 0 0 0 0 0 0 0 0 0 0 0 0 0 0 2597 2662 2858 3003 3071 3246 3271 3271 3271 3194 3194 3154 3084 3084 3013 2924 2907 2900 2869 2837 2737 2672 2672 2672 2684 2880 2988 3038 3047 3051 3083 3117 3141 3194 3231 3231 3231 3226 3186 3128 3087 3086 3075 3073 3069 3059 3052 3052 3050 3047 3042 3034 3032 2995 2936 2795 2795 2795 2812 2960 2983 3042 3225 3374 3437 3458 3458 3458 3359 3273 3259 3250 3243 3243 3211 3146 3092 3085 3070 3067 3054 3044 2968 2963 2654 0 0 2161 2121 2105 2089 2076 2070 2057 2047 2042 2034 2027 2021 2019 2015 2012 2011 2010 2007 2004 2000 1997 1996 1993 1990 1989 1986 1984 1982 1979 1977 1974 1974 1972 1967 1963 1960 1959 1955 1953 1952 1951 1950 1950 1948 1945 1944 1944 1943 1940 1938 1937 1936 1936 1935 1931 1929 1927 1926 1925 1924 1922 1918 1916 1914 1913 1912 1910 1908 1907 1905 1904 1902 1901 1901 1899 1898 1897 1895 1894 1893 1890 1888 1887 1886 1885 1884 1882 1881 1878 1876 1874 1872 1871 1870 1868 1867 1866 1865 1863 1862 1861 1859 1858 1856 1855 1854 1853 1852 1852 1852 1852 1852 1851 1850 1850 1849 1849 1849 1850 1851 1851 1851 1850 1849 1849 1849 1849 1852 1852 1853 1856 1856 1856 1858 1858 1859 1859 1860 1860 1860 1860 1860 1860 1860 1860 1859 1860 1860 1859 1859 1858 1858 1858 1857 1857 1856 1856 1856 1856 1856 1844 1828 1806 1779 1762 1752 1744 1740 1736 1732 1728 1725 1721 1718 1715 1713 1709 1707 1705 1702 1699 1696 1693 1690 1686 1685 1681 1673 1671 1670 1667 1665 1664 1661 1656 1655 1655 1653 1650 1649 1646 1644 1643 1640 1638 1636 1634 1632 1630 1627 1624 1622 1618 1616 1614 1611 1607 1599 1590 1586 1583 1578 1574 1569 1564 1560 1557 1553 1550 1548 1548 1545 1545 1544 1542 1542 1542 1544 1544 1544 1543 1543 1543 1542 1541 1539 1538 1536 1534 1532 1530 1528 1525 1523 1520 1517 1514 1511 1508 1505 1501 1494 1485 1477 1468 1465 1459 1456 1454 1452 1450 1447 1444 1441 1439 1438 1437 1437 1437 1436 1437 1437 1438 1439 1440 1441 1441 1441 1439 1439 1438 1437 1434 1433 1430 1429 1427 1426 1423 1421 1419 1417 1415 1413 1412 1409 1406 1405 1403 1403 1401 1399 1395 1392 1388 1385 1385 1385 1385 1385 1384 1382 1377 1377 1377 1375 1372 1371 1369 1367 1366 1365 1363 1361 1359 1356 1354 1352 1351 1350 1349 1347 1346 1345 1343 1342 1341 1339 1338 1336 1335 1333 1331 1330 1328 1327 1325 1324 1323 1323 1323 1322 1313 1301 1283 1259 1207 1184 1153 1120 1096 1071 1071 1071 1065 1065 1062 1054 1054 1050 1046 1046 1046 1050 1054 1054 1050 1048 1033 1011 984 961 938 919 905 898 893 885 870 857 850 850 850 851 853 856 860 860 860 860 858 854 850 843 834 827 821 813 808 808 808 821 821 833 0
0 0 0 0 0 0 0 0 0 0 0 0 0 0 0 0 0 0 0 0 0 0 0 0 0 0 0 0 0 0 0 0 0 0 0 0 0 0 0 0 0 0 0 0 0 0 0 0 0 0 0 0 0 0 0 0 0 0 0 0 0 0 0 0 0 0 0 0 0 0 0 0 0 0 0 0 0 0 0 0 0 0 0 0 0 0 0 0 0 0 0 0 0 0 0 0 0 0 0 0 0 0 0 0 0 0 0 0 0 0 0 0 0 0 0 0 0 0 0 0 0 0 0 0 0 0 0 0 0 0 0 2610 2838 2941 3035 3035 3035 2924 2806 2801 2798 2800 2800 2800 2833 2837 2837 2837 2715 2576 2576 2576 2684 2880 2988 3038 3047 3051 3083 3096 3122 3173 3202 3202 3202 3160 3125 3103 3086 3073 3069 3063 3060 3055 3053 3052 3050 3047 3042 3011 2971 2896 2729 2698 2698 2698 2812 2960 2983 3137 3225 3374 3437 3458 3458 3458 3359 3273 3056 3056 3056 3057 3058 3068 3068 3070 3070 3067 3054 3044 2968 2963 2654 0 0 2161 2121 2105 2090 2078 2070 2062 2053 2047 2037 2029 2023 2020 2018 2014 2013 2011 2009 2005 2003 2000 1999 1997 1995 1994 1992 1990 1986 1984 1982 1980 1979 1976 1973 1970 1966 1964 1959 1956 1955 1954 1953 1953 1952 1950 1948 1946 1945 1942 1942 1941 1940 1939 1938 1935 1935 1933 1931 1929 1928 1925 1922 1920 1918 1917 1916 1914 1913 1911 1910 1909 1907 1905 1903 1902 1901 1901 1899 1898 1897 1893 1890 1889 1888 1887 1885 1884 1882 1881 1879 1877 1876 1875 1873 1872 1871 1869 1867 1865 1863 1861 1860 1860 1860 1858 1856 1854 1854 1853 1853 1853 1854 1854 1854 1854 1852 1852 1852 1855 1855 1855 1854 1854 1854 1854 1854 1856 1858 1860 1860 1862 1866 1866 1868 1869 1869 1869 1869 1868 1868 1868 1868 1868 1867 1867 1867 1867 1867 1866 1866 1866 1866 1865 1866 1867 1867 1867 1867 1867 1862 1849 1834 1813 1783 1762 1752 1744 1739 1733 1731 1728 1725 1723 1720 1715 1713 1711 1709 1706 1702 1699 1696 1693 1691 1687 1685 1682 1677 1674 1673 1671 1669 1668 1663 1659 1658 1657 1656 1652 1649 1646 1645 1643 1640 1638 1636 1634 1632 1630 1627 1624 1622 1618 1616 1613 1611 1607 1599 1590 1586 1582 1578 1574 1569 1564 1560 1557 1553 1550 1550 1548 1547 1545 1544 1543 1543 1543 1544 1545 1545 1545 1545 1543 1542 1541 1539 1538 1536 1534 1532 1530 1528 1525 1523 1520 1517 1514 1512 1508 1505 1501 1493 1484 1474 1463 1458 1454 1454 1454 1452 1450 1446 1444 1440 1438 1436 1436 1436 1436 1435 1435 1435 1438 1439 1440 1441 1441 1441 1440 1439 1439 1437 1435 1434 1433 1431 1429 1427 1425 1423 1421 1419 1417 1415 1413 1411 1408 1407 1406 1405 1402 1399 1395 1390 1388 1382 1381 1379 1379 1378 1378 1378 1375 1374 1374 1371 1369 1369 1367 1367 1366 1363 1362 1361 1359 1355 1354 1351 1350 1350 1349 1348 1346 1345 1344 1342 1341 1340 1338 1336 1335 1333 1332 1330 1329 1327 1325 1324 1323 1323 1323 1322 1312 1295 1283 1259 1215 1184 1153 1120 1096 1076 1065 1064 1062 1060 1060 1054 1054 1050 1046 1046 1046 1050 1054 1054 1050 1043 1024 1011 983 956 930 914 905 898 893 885 870 857 850 849 849 849 851 852 855 857 857 857 855 853 849 843 835 827 821 813 806 806 806 820 820 830 0
0 0 0 0 0 0 0 0 0 0 0 0 0 0 0 0 0 0 0 0 0 0 0 0 0 0 0 0 0 0 0 0 0 0 0 0 0 0 0 0 0 0 0 0 0 0 0 0 0 0 0 0 0 0 0 0 0 0 0 0 0 0 0 0 0 0 0 0 0 0 0 0 0 0 0 0 0 0 0 0 0 0 0 0 0 0 0 0 0 0 0 0 0 0 0 0 0 0 0 0 0 0 0 0 0 0 0 0 0 0 0 0 0 0 0 0 0 0 0 0 0 0 0 0 0 0 0 0 0 0 0 0 2562 2785 2785 2785 2705 2705 2705 2739 2787 2798 2798 2787 2785 2693 2583 2508 2507 2507 2508 2516 2684 2880 2988 3038 3047 3047 3051 3068 3092 3141 3142 3142 3142 3109 3079 3079 3073 3073 3069 3063 3060 3055 3053 3052 3047 3041 2995 2936 2882 2749 2583 2583 2583 2698 2812 2907 2983 3137 3225 3374 3437 3437 3437 3392 3196 3007 2973 2935 2913 2886 2886 2886 2886 2886 2882 2882 2882 2887 2887 2887 2596 0 0 2141 2116 2105 2090 2078 2071 2064 2059 2050 2043 2034 2027 2022 2019 2016 2013 2012 2009 2006 2004 2003 2001 1999 1997 1996 1994 1992 1990 1986 1983 1982 1981 1979 1978 1976 1974 1971 1967 1965 1965 1964 1964 1962 1959 1957 1952 1950 1947 1945 1944 1944 1943 1941 1939 1938 1937 1935 1934 1932 1931 1929 1926 1923 1921 1919 1917 1917 1917 1915 1913 1912 1910 1908 1906 1905 1903 1902 1901 1899 1898 1895 1893 1891 1889 1889 1887 1885 1884 1883 1881 1880 1878 1877 1876 1875 1873 1870 1868 1867 1865 1865 1865 1864 1864 1863 1862 1858 1858 1858 1858 1858 1859 1859 1859 1858 1858 1858 1860 1861 1861 1861 1862 1862 1862 1862 1862 1863 1863 1864 1865 1867 1872 1874 1876 1877 1877 1877 1875 1875 1875 1875 1876 1878 1879 1879 1881 1881 1883 1885 1885 1885 1884 1884 1884 1887 1887 1887 1885 1881 1874 1863 1843 1823 1787 1761 1751 1744 1739 1733 1731 1728 1725 1723 1721 1718 1715 1713 1710 1707 1703 1701 1697 1694 1691 1687 1686 1683 1682 1678 1677 1675 1671 1668 1666 1663 1660 1659 1656 1653 1651 1649 1646 1643 1641 1638 1636 1634 1632 1630 1627 1625 1622 1619 1616 1613 1610 1607 1599 1591 1586 1582 1578 1574 1569 1564 1561 1557 1553 1551 1550 1549 1549 1547 1545 1544 1544 1544 1546 1546 1546 1545 1545 1544 1543 1541 1539 1538 1536 1534 1532 1530 1528 1525 1523 1521 1518 1515 1512 1509 1505 1500 1491 1479 1472 1463 1458 1454 1452 1451 1451 1447 1445 1442 1440 1437 1435 1434 1434 1433 1433 1434 1434 1436 1436 1437 1440 1441 1441 1441 1440 1439 1438 1437 1436 1434 1432 1430 1429 1427 1425 1423 1421 1418 1416 1414 1412 1410 1408 1407 1405 1402 1399 1394 1390 1386 1382 1374 1372 1372 1371 1370 1372 1373 1370 1370 1368 1366 1364 1364 1363 1363 1361 1361 1360 1357 1355 1354 1351 1350 1350 1349 1348 1346 1345 1344 1343 1342 1340 1338 1337 1335 1334 1332 1331 1329 1328 1326 1324 1323 1322 1322 1322 1312 1295 1283 1259 1218 1184 1142 1120 1096 1077 1067 1065 1062 1060 1060 1054 1054 1051 1046 1046 1046 1054 1054 1054 1054 1041 1021 1000 978 951 921 904 900 897 893 885 873 857 850 847 847 847 849 849 853 856 856 856 853 851 847 843 835 827 821 813 805 805 805 818 818 830 0
0 0 0 0 0 0 0 0 0 0 0 0 0 0 0 0 0 0 0 0 0 0 0 0 0 0 0 0 0 0 0 0 0 0 0 0 0 0 0 0 0 0 0 0 0 0 0 0 0 0 0 0 0 0 0 0 0 0 0 0 0 0 0 0 0 0 0 0 0 0 0 0 0 0 0 0 0 0 0 0 0 0 0 0 0 0 0 0 0 0 0 0 0 0 0 0 0 0 0 0 0 0 0 0 0 0 0 0 0 0 0 0 0 0 0 0 0 0 0 0 0 0 0 0 0 0 0 0 0 0 0 0 0 0 0 0 0 0 2563 2739 2787 2798 2798 2787 2785 2693 2583 2508 2507 2507 2508 2516 2684 2771 2806 2863 2914 2951 2989 3017 3048 3088 3119 3119 3119 3075 3051 3051 3051 3063 3063 3063 3060 3054 3053 3045 3021 2983 2928 2875 2797 2612 2567 2567 2567 2725 2767 2907 2983 3137 3203 3203 3203 3200 3143 3128 3080 2995 2945 2935 2913 2886 2886 2886 2886 2886 2882 2857 2816 2795 2738 2713 2532 0 0 2120 2109 2103 2090 2078 2071 2065 2060 2054 2045 2037 2031 2026 2021 2018 2015 2013 2011 2007 2006 2005 2003 2001 1999 1996 1994 1992 1990 1988 1986 1984 1982 1981 1980 1978 1974 1972 1970 1968 1967 1967 1965 1965 1964 1962 1960 1957 1953 1951 1948 1948 1947 1946 1945 1942 1940 1938 1937 1937 1936 1934 1931 1929 1927 1926 1923 1921 1919 1919 1917 1915 1913 1911 1908 1907 1906 1905 1904 1902 1900 1897 1896 1893 1892 1889 1889 1887 1886 1885 1884 1882 1881 1879 1878 1876 1874 1872 1870 1868 1868 1868 1868 1867 1867 1867 1866 1864 1862 1860 1860 1860 1861 1861 1861 1861 1861 1863 1863 1864 1864 1865 1866 1867 1867 1867 1867 1867 1868 1870 1875 1880 1881 1881 1882 1882 1884 1886 1888 1888 1888 1888 1887 1887 1887 1887 1887 1889 1891 1892 1893 1893 1893 1892 1891 1890 1889 1889 1888 1882 1874 1864 1845 1826 1787 1760 1751 1745 1739 1733 1731 1728 1725 1723 1721 1718 1715 1713 1710 1707 1705 1701 1697 1695 1693 1690 1687 1685 1684 1681 1677 1675 1673 1670 1668 1665 1663 1659 1657 1654 1652 1649 1647 1644 1641 1640 1637 1634 1633 1630 1628 1625 1623 1620 1617 1614 1610 1606 1598 1592 1586 1582 1578 1574 1572 1568 1563 1557 1554 1552 1551 1549 1549 1548 1547 1546 1546 1546 1546 1546 1546 1546 1545 1544 1543 1541 1540 1538 1536 1534 1532 1530 1528 1525 1523 1521 1518 1515 1512 1509 1505 1500 1491 1479 1471 1463 1458 1454 1451 1449 1447 1446 1445 1442 1440 1437 1435 1434 1433 1433 1433 1433 1434 1434 1435 1437 1440 1442 1442 1442 1442 1441 1439 1438 1436 1435 1433 1431 1430 1428 1426 1423 1422 1420 1418 1416 1414 1411 1409 1407 1406 1402 1398 1395 1390 1385 1377 1372 1368 1368 1368 1367 1367 1364 1361 1358 1356 1356 1356 1356 1356 1356 1355 1355 1355 1355 1353 1353 1351 1349 1349 1349 1348 1346 1346 1344 1343 1342 1340 1339 1337 1335 1334 1332 1331 1329 1328 1325 1324 1322 1322 1320 1318 1309 1295 1274 1238 1220 1188 1142 1120 1096 1082 1071 1065 1065 1065 1068 1068 1068 1066 1063 1063 1063 1063 1063 1062 1051 1041 1019 993 971 944 915 898 897 895 890 885 877 858 850 847 846 846 846 846 850 854 854 854 851 850 847 843 835 829 821 814 806 806 806 814 829 845 845
0 0 0 0 0 0 0 0 0 0 0 0 0 0 0 0 0 0 0 0 0 0 0 0 0 0 0 0 0 0 0 0 0 0 0 0 0 0 0 0 0 0 0 0 0 0 0 0 0 0 0 0 0 0 0 0 0 0 0 0 0 0 0 0 0 0 0 0 0 0 0 0 0 0 0 0 0 0 0 0 0 0 0 0 0 0 0 0 0 0 0 0 0 0 0 0 0 0 0 0 0 0 0 0 0 0 0 0 0 0 0 0 0 0 0 0 0 0 0 0 0 0 0 0 0 0 0 0 0 0 0 0 0 0 0 0 2495 2542 2563 2739 2881 2881 2881 2874 2785 2693 2583 2508 2507 2507 2508 2516 2684 2771 2802 2807 2848 2901 2938 2973 3006 3047 3072 3072 3072 3068 3037 3012 3012 3012 3018 3018 3019 3018 3011 3001 2970 2930 2879 2805 2677 2567 2567 2567 2650 2745 2767 2907 2923 2946 2985 2996 3003 3053 3053 3053 3037 2991 2945 2935 2913 2886 2886 2886 2886 2886 2882 2857 2816 2753 2677 2524 0 0 0 2113 2103 2094 2086 2078 2071 2065 2060 2056 2049 2041 2035 2029 2024 2019 2017 2014 2012 2009 2007 2006 2004 2001 1999 1996 1994 1993 1991 1989 1987 1984 1982 1981 1980 1979 1976 1974 1970 1969 1968 1967 1966 1966 1964 1964 1963 1960 1957 1955 1954 1951 1950 1949 1948 1945 1943 1941 1940 1939 1938 1936 1934 1932 1930 1929 1926 1925 1924 1921 1920 1917 1916 1913 1911 1910 1908 1906 1905 1902 1901 1899 1897 1895 1893 1891 1890 1888 1888 1886 1885 1883 1883 1881 1880 1878 1876 1874 1873 1872 1871 1871 1870 1870 1870 1869 1868 1867 1866 1865 1865 1865 1867 1867 1867 1865 1865 1865 1866 1867 1868 1869 1869 1871 1874 1874 1874 1874 1874 1876 1881 1883 1883 1884 1884 1884 1886 1889 1893 1894 1894 1894 1893 1892 1891 1891 1891 1892 1893 1895 1895 1895 1895 1895 1893 1892 1891 1889 1888 1882 1874 1864 1853 1826 1787 1758 1752 1747 1744 1738 1733 1729 1726 1724 1721 1718 1716 1713 1711 1708 1706 1702 1699 1696 1694 1692 1688 1686 1684 1681 1679 1676 1674 1671 1670 1666 1663 1661 1658 1655 1653 1651 1647 1645 1642 1640 1637 1635 1633 1631 1628 1626 1623 1620 1618 1614 1610 1607 1599 1592 1587 1583 1578 1577 1575 1572 1569 1562 1557 1553 1551 1549 1549 1549 1547 1546 1546 1546 1547 1547 1547 1546 1546 1544 1543 1542 1540 1538 1536 1534 1532 1530 1528 1526 1523 1521 1518 1515 1512 1509 1505 1500 1491 1479 1471 1464 1459 1455 1451 1446 1444 1443 1442 1441 1439 1437 1435 1434 1433 1433 1433 1433 1434 1434 1435 1437 1440 1442 1442 1442 1442 1441 1441 1439 1437 1435 1434 1432 1431 1429 1427 1425 1423 1421 1419 1417 1415 1411 1409 1408 1406 1402 1398 1394 1390 1381 1370 1369 1366 1365 1364 1363 1362 1359 1358 1356 1351 1351 1351 1351 1351 1354 1354 1354 1346 1346 1346 1348 1348 1349 1348 1348 1347 1346 1346 1344 1343 1342 1340 1339 1337 1335 1334 1332 1331 1330 1328 1326 1324 1322 1322 1319 1314 1301 1293 1274 1238 1221 1190 1142 1120 1096 1084 1074 1074 1074 1083 1083 1083 1082 1080 1066 1066 1066 1066 1065 1062 1053 1041 1019 991 965 932 913 896 891 888 888 884 877 865 854 848 843 843 843 844 846 850 851 851 851 849 847 844 840 829 822 814 807 807 807 810 829 845 845
