0 0 0 0 0 0 0 0 0 0 0 0 0 0 0 0 0 0 0 0 0 0 0 0 0 0 0 0 0 0 2529 0 2560 2581 2581 2581 2546 2546 2546 2553 2589 2596 2611 2663 2733 2733 2733 2700 2700 2700 2704 2708 2709 2709 2729 2748 2767 2767 2767 2767 2767 2767 2779 2788 2788 2792 2809 2838 2838 2838 2834 2804 2788 2776 2776 2776 2792 2801 2801 2801 2797 2763 2723 2683 2638 2628 2618 2582 2582 2582 2699 2773 2778 2778 2778 2755 2720 2688 2688 2688 2700 2719 2731 2731 2731 2723 2715 2702 2669 2643 2615 2598 2560 2523 0 0 0 0 0 0 0 0 0 0 0 0 0 0 0 0 0 0 0 0 0 0 0 0 0 0 0 2559 2730 2774 2802 2827 2837 2857 2882 2904 2904 2904 2903 2903 2903 2918 2918 2918 2914 2895 2874 2866 2849 2830 2799 2799 2799 2799 2804 2824 2825 2829 2829 2830 2833 2840 2842 2845 2860 2867 2867 2869 2871 2871 2871 2879 2896 2896 2896 2880 2860 2844 2821 2821 2821 2830 2844 2849 2852 2852 2863 2879 2910 2910 2910 2900 2900 2900 2920 2935 2970 2971 2971 2971 2925 2861 2845 2845 2845 2881 2881 2881 2874 2874 2874 2882 2891 2891 2891 2881 2853 2815 2751 2686 2598 0 0 2380 2377 2367 2363 2353 2347 2341 2340 2335 2335 2335 2337 2340 2341 2341 2341 2341 2327 2318 2301 2288 2267 2261 2258 2255 2247 2247 2247 2246 2246 2245 2240 2228 2213 2204 2192 2190 2186 2181 2176 2169 2168 2167 2167 2159 2138 0 0 1957 1929 1896 1875 1857 1849 1849 1849 0 0 0 2105 2106 2106 2110 2110 2110 2110 2110 2106 2103 2101 2098 2096 2095 2095 2093 2092 2089 2087 2086 2084 2084 2082 2082 2081 2080 2079 2077 2076 2075 2075 2075 2076 2076 2078 2079 2079 2079 2079 2080 2080 2080 2080 2079 2079 2078 2076 2075 2073 2071 2070 2069 2066 2063 2061 2059 2058 2056 2055 2053 2050 2048 2045 2044 2043 2043 2043 2043 2044 2046 2046 2048 2052 2054 2057 2059 2059 2060 2060 2060 2060 2059 2059 2059 2058 2057 2057 2054 2051 2047 2044 2040 2035 2032 2028 2025 2023 2021 2019 2017 2017 2017 2018 2021 2022 2024 2028 2030 2034 2037 2038 2038 2038 2038 2038 2039 2039 2039 2038 2038 2038 2037 2038 2038 2038 2038 2038 2036 2033 2032 2031 2029 2029 2028 2028 2027 2026 2025 2025 2025 2024 2024 2024 2024 2024 2024 2024 2023 2023 2023 2023 2023 2023 2024 2025 2028 2029 2031 2033 2035 2037 2039 2039 2040 2040 2042 2044 2045 2046 2047 2049 2051 2052 2053 2054 2055 2057 2057 2059 2060 2061 2062 2062 2063 2063 2063 2064 2066 2068 2070 2072 2074 2074 2076 2080 2086 2090 2095 2098 2102 2107 2110 2118 2122 2125 2127 2130 2130 2130 2130 2131 2132 2132 2132 2130 2128 2126 2125 2122 2120 2118 2116 2115 2113 2110 2107 2105 2103 2101 2099 2099 2098 2097 2095 2095 2095 2095 2093 2092 2089 2088 2088 2086 2083 2080 2076 2072 2070 2069 2068 2060 2057 2051 2046 2042 2042 2042 2047 2047 2047 2044 2020 2004 2004 2004 2004 2004 1994 0 0 0 0 0 0 0 0 0 0 0 0 0 0 0 0 0 0 0 0 0 0 0 0 0 0 0 0 0 0 0 0 0 0 0 0 0 0 0 0 0 0 0 0 0 0 0 0 0 0 0 0 0 0 0 0 0 0 0 0 0 0 0 0 0 0 0 0 0 0 0 0 0 0 0 0
0 0 0 0 0 0 0 0 0 0 0 0 0 0 0 0 0 0 0 0 0 0 0 0 0 0 0 0 0 2614 2614 2614 2605 2594 2594 2594 2591 2559 2559 2559 2594 2613 2618 2688 2736 2736 2736 2717 2717 2717 2717 2719 2721 2726 2740 2761 2767 2767 2767 2767 2767 2767 2780 2789 2810 2822 2837 2845 2845 2845 2838 2824 2806 2780 2780 2780 2793 2802 2802 2802 2797 2774 2723 2683 2638 2628 2618 2582 2582 2582 2663 2715 2736 2751 2751 2751 2720 2697 2697 2697 2700 2719 2723 2723 2723 2715 2712 2695 2662 2632 2609 2590 2548 0 0 0 0 0 0 0 0 1338 1338 1352 1358 1362 1364 1371 0 0 0 0 0 0 0 0 0 0 0 0 0 0 2699 2767 2793 2810 2824 2843 2855 2880 2899 2899 2899 2899 2899 2908 2914 2914 2914 2895 2879 2878 2849 2830 2799 2789 2789 2789 2800 2814 2825 2829 2829 2830 2833 2835 2840 2841 2860 2867 2870 2870 2871 2871 2871 2879 2893 2897 2897 2897 2882 2850 2821 2821 2821 2836 2857 2857 2863 2863 2863 2879 2879 2879 2858 2836 2836 2836 2864 2921 2922 2932 2932 2932 2886 2853 2839 2832 2832 2830 2832 2832 2838 2866 2888 2904 2904 2904 2900 2899 2892 2835 2751 2686 2598 0 2408 2404 2395 2374 2365 2355 2348 2347 2344 2335 2335 2335 2336 2340 2341 2345 2345 2345 2339 2326 2301 2288 2269 2268 2265 2256 2253 2250 2249 2249 2248 2246 2241 2230 2215 2206 2195 2190 2186 2181 2176 2169 2169 2168 2167 2155 2135 0 0 1959 1932 1917 1902 1897 1875 1875 1875 0 0 2087 2104 2107 2107 2107 2107 2107 2106 2106 2104 2101 2099 2098 2096 2095 2095 2093 2092 2090 2087 2086 2085 2084 2082 2081 2080 2079 2078 2077 2076 2075 2075 2075 2076 2076 2078 2079 2079 2080 2080 2080 2080 2080 2080 2078 2077 2076 2075 2073 2071 2070 2070 2069 2066 2063 2061 2059 2058 2056 2055 2053 2050 2047 2044 2044 2043 2043 2043 2043 2044 2046 2046 2048 2051 2054 2057 2059 2059 2059 2060 2060 2059 2059 2059 2059 2058 2056 2056 2054 2051 2048 2044 2040 2035 2032 2028 2026 2023 2021 2019 2016 2016 2016 2018 2021 2022 2023 2026 2028 2031 2034 2037 2038 2038 2038 2038 2038 2038 2038 2038 2038 2038 2038 2038 2038 2038 2038 2038 2036 2034 2032 2031 2030 2029 2029 2029 2029 2028 2027 2026 2026 2026 2026 2026 2025 2024 2024 2024 2025 2025 2025 2023 2023 2023 2025 2027 2029 2032 2033 2035 2036 2037 2039 2039 2040 2040 2042 2044 2046 2047 2048 2050 2052 2054 2055 2056 2058 2058 2059 2061 2061 2062 2064 2064 2064 2064 2064 2064 2066 2068 2070 2073 2074 2074 2077 2082 2088 2092 2095 2099 2102 2109 2116 2118 2124 2125 2128 2130 2131 2131 2131 2133 2133 2133 2132 2130 2129 2127 2125 2122 2120 2117 2116 2115 2113 2111 2108 2106 2104 2101 2101 2100 2099 2098 2097 2096 2095 2095 2093 2092 2088 2086 2084 2082 2081 2080 2076 2072 2070 2069 2068 2060 2057 2055 2050 2048 2048 2048 2054 2054 2054 2052 2020 2004 2004 2004 2014 2014 2014 2009 0 0 0 0 0 0 0 0 0 0 0 0 0 0 0 0 0 0 0 0 0 0 0 0 0 0 0 0 0 0 0 0 0 0 0 0 0 0 0 0 0 0 0 0 0 0 0 0 0 0 0 0 0 0 0 0 0 0 0 0 0 0 0 0 0 0 0 0 0 0 0 0 0 0 0
0 0 0 0 0 0 0 0 0 0 0 0 0 0 0 0 0 0 0 0 0 0 0 0 0 0 0 0 2573 2661 2661 2661 2614 2614 2614 2612 2612 2609 2609 2609 2617 2618 2646 2688 2736 2736 2736 2717 2717 2717 2719 2727 2736 2759 2776 2779 2779 2779 2767 2767 2767 2770 2780 2794 2817 2837 2838 2847 2847 2847 2838 2837 2815 2785 2785 2785 2798 2805 2805 2805 2799 2779 2748 2683 2638 2628 2618 2582 2582 2582 2663 2705 2733 2748 2748 2748 2727 2702 2700 2700 2700 2710 2713 2715 2715 2713 2701 2685 2658 2616 2608 2590 2528 0 0 0 0 0 0 0 1327 1327 1327 1327 1328 1330 1334 1342 1347 1349 0 0 0 0 0 0 0 0 0 0 0 0 2622 2742 2774 2797 2813 2835 2853 2867 2882 2882 2884 2887 2892 2898 2914 2914 2914 2895 2879 2878 2862 2830 2799 2789 2789 2789 2800 2810 2821 2822 2824 2829 2829 2830 2830 2832 2847 2863 2873 2874 2874 2874 2874 2879 2890 2902 2907 2907 2907 2879 2821 2821 2821 2841 2857 2857 2863 2863 2863 2863 2863 2863 2828 2808 2808 2808 2835 2836 2891 2920 2920 2920 2885 2853 2849 2830 2828 2822 2822 2822 2838 2866 2894 2904 2904 2904 2899 2897 2893 2877 2769 2686 2584 0 2427 2411 2400 2387 2369 2357 2353 2352 2348 2336 2336 2336 2336 2340 2341 2345 2346 2346 2346 2329 2304 2288 2270 2269 2268 2265 2257 2254 2252 2252 2249 2247 2242 2233 2215 2209 2195 2190 2186 2181 2175 2169 2169 2168 2166 2154 2128 0 0 1960 1936 1921 1904 1900 1879 1879 1879 0 0 2087 2103 2107 2107 2107 2107 2106 2106 2105 2103 2101 2099 2098 2096 2095 2095 2093 2092 2090 2088 2087 2085 2084 2083 2081 2080 2079 2078 2078 2077 2077 2077 2076 2076 2076 2078 2079 2079 2080 2080 2080 2080 2078 2078 2077 2076 2075 2074 2073 2070 2067 2066 2066 2065 2063 2061 2059 2057 2056 2054 2053 2050 2047 2044 2043 2042 2042 2042 2042 2044 2045 2046 2048 2051 2054 2057 2059 2059 2059 2059 2059 2059 2059 2059 2058 2057 2056 2055 2054 2051 2048 2044 2039 2035 2031 2028 2027 2023 2021 2018 2016 2016 2016 2018 2019 2021 2021 2024 2027 2030 2034 2036 2038 2038 2038 2038 2038 2038 2038 2038 2038 2038 2038 2038 2038 2038 2038 2038 2036 2034 2032 2031 2030 2030 2029 2029 2029 2029 2028 2028 2027 2027 2027 2027 2027 2026 2026 2026 2026 2026 2026 2026 2026 2026 2026 2027 2030 2033 2034 2036 2038 2039 2041 2042 2042 2043 2045 2047 2048 2050 2050 2052 2054 2057 2058 2058 2060 2060 2061 2063 2063 2064 2065 2065 2066 2066 2066 2066 2066 2069 2071 2074 2076 2079 2083 2087 2088 2092 2096 2102 2108 2114 2122 2125 2125 2128 2131 2131 2132 2132 2135 2135 2135 2133 2132 2131 2129 2128 2126 2123 2120 2117 2116 2113 2112 2111 2109 2106 2105 2104 2103 2102 2100 2099 2098 2098 2096 2095 2094 2092 2088 2085 2082 2079 2079 2078 2076 2072 2070 2069 2069 2068 2065 2064 2061 2055 2055 2055 2055 2055 2055 2052 2027 2004 2004 2004 2015 2022 2022 2022 0 0 0 0 0 0 0 0 0 0 0 0 0 0 0 0 0 0 0 0 0 0 0 0 0 0 0 0 0 0 0 0 0 0 0 0 0 0 0 0 0 0 0 0 0 0 0 0 0 0 0 0 0 0 0 0 0 0 0 0 0 0 0 0 0 0 0 0 0 0 0 0 0 0 0
0 0 0 0 0 0 0 0 0 0 0 0 0 0 0 0 0 0 0 0 0 0 0 0 0 0 0 0 2595 2661 2661 2661 2637 2637 2637 2649 2649 2652 2652 2652 2653 2653 2668 2695 2740 2740 2740 2717 2717 2717 2719 2727 2761 2799 2799 2799 2790 2786 2785 2777 2777 2777 2780 2797 2817 2837 2838 2847 2847 2847 2844 2837 2819 2797 2797 2797 2803 2805 2805 2805 2801 2788 2772 2736 2736 2680 2658 2630 2630 2630 2663 2705 2733 2748 2748 2748 2729 2704 2700 2698 2698 2698 2697 2697 2697 2697 2695 2675 2643 2615 2599 2577 0 0 0 0 0 0 0 1326 1325 1324 1324 1324 1324 1324 1326 1335 1336 1348 1354 0 0 0 0 0 0 0 0 0 0 0 0 2644 2731 2778 2806 2823 2846 2861 2867 2867 2868 2876 2877 2895 2898 2898 2898 2891 2879 2878 2862 2830 2811 2789 2789 2789 2800 2805 2814 2814 2814 2814 2815 2821 2823 2823 2835 2861 2877 2886 2889 2889 2890 2892 2892 2901 2911 2911 2911 2905 2882 2870 2870 2870 2870 2870 2857 2839 2839 2839 2839 2839 2828 2808 2802 2802 2802 2813 2851 2877 2877 2877 2862 2850 2849 2845 2828 2822 2822 2822 2838 2894 2894 2904 2904 2904 2899 2897 2893 2877 2789 2700 2582 0 2428 2413 2402 2393 2381 2370 2365 2362 2348 2336 2336 2336 2336 2340 2340 2345 2346 2346 2346 2332 2305 2290 2276 2273 2269 2269 2262 2260 2257 2255 2254 2253 2249 2239 2218 2210 2195 2190 2186 2181 2175 2168 2167 2166 2165 2152 2128 0 0 1960 1949 1949 1949 1949 1949 1906 1906 0 0 2087 2101 2107 2107 2107 2107 2106 2105 2105 2102 2101 2099 2098 2096 2096 2095 2093 2092 2090 2089 2088 2086 2084 2083 2081 2080 2079 2078 2078 2078 2077 2077 2077 2077 2077 2078 2079 2080 2080 2080 2079 2078 2077 2077 2077 2076 2075 2074 2072 2070 2067 2066 2065 2063 2063 2061 2058 2057 2054 2053 2052 2050 2047 2044 2043 2042 2042 2042 2042 2043 2045 2046 2048 2051 2054 2057 2058 2058 2059 2059 2059 2059 2059 2059 2058 2056 2055 2055 2053 2051 2048 2044 2039 2035 2031 2028 2027 2023 2021 2017 2015 2015 2015 2017 2019 2020 2021 2024 2027 2030 2033 2036 2038 2038 2038 2038 2038 2038 2038 2038 2038 2038 2038 2038 2038 2038 2037 2037 2036 2034 2032 2031 2031 2031 2031 2031 2030 2030 2030 2030 2030 2029 2029 2029 2028 2027 2026 2026 2026 2026 2026 2026 2027 2027 2028 2030 2032 2034 2036 2037 2039 2040 2043 2045 2046 2047 2048 2049 2050 2053 2055 2056 2059 2060 2061 2061 2062 2063 2063 2065 2065 2066 2066 2066 2068 2068 2068 2068 2068 2069 2073 2076 2082 2085 2086 2087 2090 2093 2099 2104 2111 2117 2124 2125 2127 2129 2131 2135 2135 2135 2135 2135 2135 2134 2133 2131 2131 2128 2126 2123 2120 2117 2116 2113 2112 2111 2109 2107 2105 2105 2103 2102 2101 2101 2099 2099 2097 2096 2095 2092 2088 2085 2081 2079 2078 2077 2076 2074 2073 2073 2071 2070 2068 2064 2064 2064 2062 2062 2060 2056 2054 2052 2035 2010 2010 2010 2018 2023 2033 2033 2033 0 0 0 0 0 0 0 0 0 0 0 0 0 0 0 0 0 0 0 0 0 0 0 0 0 0 0 0 0 0 0 0 0 0 0 0 0 0 0 0 0 0 0 0 0 0 0 0 0 0 0 0 0 0 0 0 0 0 0 0 0 0 0 0 0 0 0 0 0 0 0 0 0 0
0 0 0 0 0 0 0 0 0 0 0 0 0 0 0 0 0 0 0 0 0 0 0 0 0 0 0 2526 2597 2662 2665 2665 2676 2676 2676 2677 2677 2677 2674 2674 2674 2675 2684 2697 2740 2740 2740 2717 2717 2717 2723 2735 2766 2799 2825 2846 2846 2846 2837 2826 2819 2810 2810 2810 2817 2837 2838 2849 2849 2849 2845 2840 2826 2809 2809 2809 2822 2822 2822 2807 2804 2797 2786 2782 2781 2760 2718 2689 2675 2675 2675 2705 2736 2750 2750 2750 2729 2712 2701 2700 2700 2698 2697 2696 2691 2680 2672 2663 2643 2615 2561 0 0 0 0 0 0 0 1332 1324 1324 1324 1324 1324 1324 1324 1325 1331 1336 1336 1338 1339 1339 1353 0 0 0 0 0 0 0 0 0 0 2570 2710 2774 2806 2829 2839 2850 2851 2857 2865 2876 2895 2895 2895 2882 2879 2877 2870 2862 2830 2811 2802 2802 2802 2802 2805 2806 2806 2806 2806 2802 2802 2811 2822 2833 2851 2877 2886 2889 2892 2892 2895 2898 2901 2911 2911 2911 2905 2885 2884 2884 2881 2880 2871 2857 2829 2829 2829 2829 2828 2828 2808 2802 2802 2798 2798 2802 2809 2809 2821 2828 2840 2841 2841 2841 2823 2823 2823 2871 2888 2888 2888 2871 2866 2866 2871 2866 2864 2813 2700 2582 0 2430 2413 2402 2394 2390 2380 2367 2363 2353 2342 2342 2340 2340 2340 2340 2340 2344 2344 2344 2337 2313 2299 2288 2280 2277 2270 2266 2263 2261 2259 2258 2258 2255 2245 2226 2215 2200 2191 2188 2180 2175 2168 2165 2164 2160 2152 2128 0 0 1960 1949 1949 1949 1949 1949 1937 1937 1937 0 0 2098 2107 2107 2107 2107 2106 2106 2104 2102 2101 2099 2098 2097 2096 2095 2094 2092 2091 2089 2088 2087 2085 2083 2082 2080 2079 2079 2079 2078 2078 2078 2078 2078 2078 2078 2079 2079 2079 2079 2078 2077 2077 2077 2076 2076 2075 2074 2072 2070 2067 2066 2065 2063 2062 2059 2058 2054 2053 2052 2051 2049 2046 2044 2042 2041 2041 2041 2041 2043 2044 2046 2048 2051 2054 2057 2057 2057 2058 2058 2059 2059 2059 2058 2058 2056 2054 2054 2052 2051 2048 2043 2039 2035 2031 2029 2027 2023 2020 2016 2015 2015 2015 2017 2018 2020 2020 2024 2026 2030 2033 2035 2037 2038 2038 2039 2040 2040 2040 2039 2039 2039 2038 2038 2038 2038 2037 2037 2035 2033 2032 2032 2031 2031 2031 2031 2031 2031 2031 2031 2031 2031 2031 2029 2029 2028 2028 2028 2027 2027 2027 2027 2028 2029 2031 2032 2032 2034 2036 2038 2040 2041 2045 2047 2049 2050 2051 2052 2053 2055 2058 2061 2063 2063 2064 2064 2064 2065 2066 2067 2067 2067 2067 2067 2068 2069 2069 2070 2071 2072 2073 2077 2082 2085 2086 2088 2091 2096 2102 2110 2116 2123 2127 2128 2129 2132 2133 2137 2137 2137 2137 2136 2136 2136 2134 2132 2131 2129 2126 2123 2120 2118 2116 2113 2112 2111 2109 2107 2105 2105 2104 2102 2101 2101 2101 2099 2099 2098 2095 2092 2088 2085 2081 2079 2078 2077 2076 2075 2075 2074 2074 2071 2069 2065 2064 2064 2063 2062 2060 2054 2054 2052 2042 2032 2032 2032 2033 2034 2034 2033 2033 0 0 0 0 0 0 0 0 0 0 0 0 0 0 0 0 0 0 0 0 0 0 0 0 0 0 0 0 0 0 0 0 0 0 0 0 0 0 0 0 0 0 0 0 0 0 0 0 0 0 0 0 0 0 0 0 0 0 0 0 0 0 0 0 0 0 0 0 0 0 0 0 0 0
0 0 0 0 0 0 0 0 0 0 0 0 0 0 0 0 0 0 0 0 0 0 0 0 0 2512 2563 2563 2597 2662 2692 2697 2700 2711 2736 2736 2736 2724 2698 2684 2684 2684 2699 2717 2740 2740 2740 2725 2725 2725 2725 2740 2766 2799 2825 2850 2863 2865 2865 2865 2855 2838 2821 2821 2821 2834 2835 2849 2849 2849 2845 2842 2826 2826 2826 2829 2829 2829 2824 2822 2812 2807 2807 2806 2806 2786 2744 2700 2700 2700 2740 2764 2775 2780 2780 2780 2777 2754 2724 2707 2703 2698 2697 2696 2685 2678 2669 2657 2621 2574 0 0 0 0 0 0 0 0 1328 1324 1324 1324 1324 1324 1324 1324 1325 1328 1333 1334 1337 1338 1338 1341 1341 1341 1341 1341 0 0 0 0 0 0 0 0 2579 2677 2754 2785 2794 2808 2830 2853 2873 2883 2883 2883 2881 2854 2837 2836 2829 2822 2811 2806 2804 2804 2804 2804 2801 2801 2798 2795 2795 2797 2797 2802 2822 2849 2877 2886 2889 2892 2895 2899 2901 2905 2911 2911 2911 2905 2886 2886 2886 2886 2886 2871 2857 2829 2829 2829 2837 2837 2837 2821 2802 2802 2800 2800 2802 2796 2796 2803 2807 2830 2852 2853 2853 2853 2854 2854 2877 2877 2877 2843 2837 2834 2833 2833 2827 2827 2813 2700 2568 0 2430 2413 2402 2394 2390 2381 2369 2363 2358 2342 2342 2342 2341 2339 2339 2339 2342 2342 2342 2338 2320 2303 2290 2287 2278 2270 2268 2267 2264 2263 2262 2261 2260 2252 2229 2217 2204 2192 2188 2180 2175 2168 2165 2164 2160 2151 2129 0 0 1959 1949 1949 1949 1966 1966 1966 1966 1966 0 0 2098 2106 2107 2107 2107 2107 2107 2104 2102 2101 2099 2098 2098 2096 2095 2094 2092 2091 2089 2088 2087 2086 2085 2083 2082 2080 2080 2080 2080 2080 2079 2079 2079 2079 2079 2079 2079 2079 2079 2078 2077 2076 2076 2076 2075 2074 2074 2072 2070 2066 2065 2064 2063 2062 2059 2056 2054 2052 2051 2050 2047 2044 2042 2041 2041 2041 2041 2041 2042 2044 2046 2047 2051 2054 2054 2054 2055 2056 2057 2058 2058 2058 2058 2057 2056 2054 2054 2052 2051 2048 2043 2039 2035 2031 2029 2026 2022 2019 2016 2015 2015 2015 2016 2017 2018 2018 2021 2025 2029 2032 2035 2037 2038 2039 2040 2040 2041 2041 2041 2041 2040 2040 2039 2038 2038 2037 2036 2035 2033 2032 2032 2032 2032 2032 2032 2032 2032 2032 2032 2032 2031 2031 2030 2030 2028 2028 2028 2028 2028 2028 2028 2029 2031 2032 2032 2033 2035 2037 2040 2042 2044 2045 2047 2050 2051 2053 2053 2054 2056 2060 2063 2065 2066 2066 2067 2067 2067 2068 2068 2069 2069 2069 2070 2071 2071 2072 2073 2073 2073 2074 2078 2082 2085 2087 2090 2092 2097 2105 2113 2120 2124 2128 2130 2131 2133 2137 2138 2139 2139 2139 2139 2139 2139 2136 2135 2133 2130 2127 2124 2121 2119 2116 2113 2112 2111 2110 2108 2106 2105 2104 2103 2103 2102 2102 2099 2099 2098 2096 2093 2089 2085 2082 2080 2078 2077 2077 2075 2075 2075 2074 2072 2069 2067 2065 2065 2064 2062 2061 2054 2054 2052 2047 2047 2047 2046 2046 2046 2041 2039 2033 2027 0 0 0 0 0 0 0 0 0 0 0 0 0 0 0 0 0 0 0 0 0 0 0 0 0 0 0 0 0 0 0 0 0 0 0 0 0 0 0 0 0 0 0 0 0 0 0 0 0 0 0 0 0 0 0 0 0 0 0 0 0 0 0 0 0 0 0 0 0 0 0 0 0
0 0 0 0 0 0 0 0 0 0 0 0 0 0 0 0 0 0 0 0 0 0 0 0 2603 2607 2648 2648 2648 2666 2692 2704 2715 2718 2748 2760 2760 2760 2699 2695 2695 2695 2711 2729 2760 2760 2760 2743 2730 2730 2730 2740 2766 2810 2837 2852 2871 2873 2877 2877 2873 2865 2849 2834 2834 2834 2835 2849 2854 2854 2854 2845 2840 2840 2840 2858 2859 2859 2859 2854 2844 2834 2821 2820 2818 2799 2748 2735 2735 2735 2754 2777 2801 2814 2814 2814 2800 2760 2724 2711 2710 2708 2708 2707 2681 2674 2647 2622 2559 0 0 0 0 0 0 0 0 1340 1328 1325 1325 1325 1325 1325 1325 1326 1326 1328 1332 1334 1334 1336 1338 1339 1339 1339 1339 1339 1344 0 0 0 0 0 0 0 0 0 2575 2649 2718 2748 2779 2819 2856 2857 2857 2857 2856 2837 2819 2806 2806 2806 2803 2804 2804 2804 2804 2804 2798 2798 2795 2795 2794 2793 2793 2793 2799 2831 2860 2872 2879 2879 2895 2907 2907 2907 2907 2902 2899 2893 2893 2891 2887 2886 2886 2871 2850 2830 2830 2830 2836 2838 2838 2838 2838 2834 2833 2813 2803 2796 2796 2803 2807 2828 2852 2853 2853 2853 2854 2854 2852 2852 2852 2829 2828 2824 2811 2811 2811 2811 2811 2653 2544 0 2430 2411 2397 2394 2390 2381 2369 2362 2358 2347 2345 2343 2342 2339 2339 2339 2339 2339 2339 2339 2325 2306 2296 2290 2281 2272 2271 2270 2268 2266 2265 2265 2263 2256 2232 2222 2209 2193 2188 2180 2175 2173 2168 2164 2160 2145 2138 0 0 1933 1916 1916 1916 1966 1972 1972 1966 1966 1972 0 2094 2106 2106 2107 2107 2107 2107 2105 2103 2101 2100 2099 2098 2097 2096 2094 2092 2091 2090 2088 2087 2086 2085 2084 2082 2082 2081 2081 2080 2080 2080 2080 2079 2079 2079 2079 2079 2079 2079 2078 2077 2076 2076 2075 2074 2073 2073 2071 2070 2066 2065 2064 2063 2062 2058 2056 2053 2052 2050 2048 2046 2044 2041 2041 2040 2040 2040 2041 2041 2042 2043 2045 2048 2050 2050 2051 2053 2054 2056 2057 2057 2057 2057 2057 2056 2054 2054 2053 2051 2048 2043 2039 2035 2031 2029 2026 2022 2019 2016 2015 2015 2015 2016 2017 2018 2018 2020 2024 2027 2031 2034 2036 2038 2039 2041 2041 2042 2042 2042 2041 2041 2040 2039 2038 2038 2037 2036 2035 2033 2032 2032 2032 2032 2032 2034 2034 2034 2034 2033 2033 2032 2032 2031 2030 2029 2029 2029 2029 2029 2029 2029 2031 2031 2032 2033 2034 2036 2039 2042 2044 2046 2048 2048 2050 2052 2053 2054 2055 2057 2060 2063 2065 2067 2067 2067 2068 2069 2069 2071 2071 2071 2071 2071 2072 2074 2075 2075 2075 2075 2077 2080 2083 2087 2091 2093 2097 2101 2109 2117 2123 2128 2133 2133 2135 2139 2140 2141 2141 2141 2141 2140 2140 2139 2137 2136 2134 2132 2128 2124 2121 2119 2116 2115 2113 2111 2110 2108 2106 2106 2104 2103 2103 2102 2102 2099 2099 2098 2096 2093 2089 2087 2083 2081 2078 2077 2077 2075 2075 2075 2074 2072 2069 2067 2065 2065 2065 2063 2061 2055 2054 2054 2054 2048 2048 2047 2047 2046 2039 2030 2027 2023 0 0 0 0 0 0 0 0 0 0 0 0 0 0 0 0 0 0 0 0 0 0 0 0 0 0 0 0 0 0 0 0 0 0 0 0 0 0 0 0 0 0 0 0 0 0 0 0 0 0 0 0 0 0 0 0 0 0 0 0 0 0 0 0 0 0 0 0 0 0 0 0 0
0 0 0 0 0 0 0 0 0 0 0 0 0 0 0 0 0 0 0 0 0 0 0 0 2671 2696 2696 2694 2696 2697 2702 2708 2715 2719 2757 2772 2772 2772 2704 2702 2702 2702 2717 2736 2778 2781 2781 2781 2770 2767 2766 2766 2766 2814 2837 2854 2871 2887 2894 2894 2894 2892 2870 2849 2835 2835 2835 2849 2867 2867 2867 2857 2857 2857 2873 2891 2891 2891 2889 2885 2876 2861 2861 2846 2822 2800 2761 2735 2735 2735 2754 2777 2803 2824 2824 2824 2800 2760 2724 2711 2711 2710 2710 2708 2679 2644 2602 2535 0 0 0 0 0 0 0 0 0 1333 1327 1325 1325 1325 1326 1326 1327 1328 1328 1328 1331 1334 1335 1335 1337 1338 1338 1337 1339 1339 1344 1349 1365 0 0 0 0 0 0 0 0 0 2538 2668 2729 2775 2813 2838 2845 2845 2845 2817 2796 2787 2787 2787 2798 2803 2803 2804 2803 2802 2795 2795 2795 2793 2793 2761 2738 2738 2738 2798 2818 2832 2843 2868 2895 2907 2907 2907 2907 2900 2899 2893 2886 2886 2886 2886 2886 2871 2850 2830 2830 2830 2835 2841 2844 2849 2864 2864 2864 2846 2827 2803 2803 2803 2807 2828 2835 2853 2853 2853 2854 2854 2850 2850 2850 2812 2811 2808 2803 2803 2793 2784 2774 2614 0 2445 2430 2411 2393 2386 2381 2380 2369 2360 2358 2350 2345 2341 2338 2337 2337 2337 2338 2339 2339 2338 2329 2311 2307 2302 2289 2276 2275 2274 2272 2269 2268 2268 2267 2262 2249 2229 2213 2194 2183 2179 2175 2173 2168 2167 2159 2146 2145 0 0 0 1904 1904 1904 1913 1945 1951 1957 1966 1972 0 2092 2104 2104 2106 2106 2107 2107 2107 2106 2104 2101 2101 2100 2099 2097 2096 2094 2092 2090 2089 2088 2086 2086 2085 2083 2082 2081 2081 2081 2081 2081 2080 2080 2080 2080 2079 2079 2079 2079 2078 2077 2076 2076 2074 2072 2071 2070 2069 2068 2066 2065 2064 2063 2062 2058 2055 2053 2051 2049 2046 2044 2042 2041 2041 2040 2039 2038 2038 2038 2038 2040 2041 2044 2046 2048 2051 2052 2053 2054 2055 2056 2056 2056 2056 2056 2056 2056 2054 2052 2048 2044 2040 2035 2033 2029 2026 2022 2019 2016 2015 2015 2015 2016 2017 2018 2018 2020 2023 2026 2031 2033 2035 2036 2039 2041 2042 2042 2042 2042 2041 2041 2040 2039 2039 2038 2037 2036 2035 2034 2034 2034 2034 2034 2034 2034 2034 2034 2034 2034 2033 2033 2032 2032 2030 2030 2030 2030 2030 2030 2030 2030 2031 2032 2032 2034 2036 2038 2041 2043 2044 2047 2048 2049 2051 2053 2054 2054 2055 2058 2061 2064 2065 2067 2068 2069 2069 2071 2072 2072 2072 2073 2073 2073 2075 2076 2077 2078 2078 2080 2080 2083 2085 2089 2094 2097 2102 2108 2116 2122 2129 2135 2136 2137 2139 2141 2143 2143 2143 2143 2142 2142 2141 2139 2138 2136 2134 2132 2129 2125 2122 2120 2118 2116 2115 2113 2111 2110 2107 2106 2104 2103 2103 2102 2102 2099 2099 2097 2096 2093 2090 2087 2084 2081 2078 2077 2077 2074 2074 2074 2074 2074 2070 2068 2067 2067 2065 2063 2061 2058 2058 2058 2058 2057 2051 2048 2047 2046 2032 2020 2019 2013 2003 0 0 0 0 0 0 0 0 0 0 0 0 0 0 0 0 0 0 0 0 0 0 0 0 0 0 0 0 0 0 0 0 0 0 0 0 0 0 0 0 0 0 0 0 0 0 0 0 0 0 0 0 0 0 0 0 0 0 0 0 0 0 0 0 0 0 0 0 0 0 0 0
0 0 0 0 0 0 0 0 0 0 0 0 0 0 0 0 0 0 0 0 0 0 0 2719 2719 2719 2709 2707 2707 2709 2711 2717 2726 2745 2762 2776 2776 2776 2718 2712 2712 2712 2721 2737 2784 2796 2796 2796 2790 2779 2779 2779 2794 2818 2837 2854 2868 2885 2894 2895 2897 2897 2897 2871 2870 2866 2866 2866 2881 2885 2885 2885 2885 2885 2892 2892 2892 2891 2889 2885 2877 2874 2869 2846 2822 2802 2763 2736 2736 2736 2757 2780 2803 2826 2826 2826 2804 2760 2715 2711 2711 2710 2710 2708 2679 2629 2555 0 0 0 0 0 0 0 0 0 1343 1332 1327 1326 1326 1326 1327 1327 1328 1328 1329 1329 1331 1335 1336 1336 1337 1338 1338 1338 1339 1339 1344 1346 1352 1358 1369 0 0 0 0 0 0 0 0 0 2633 2717 2753 2789 2790 2790 2790 2785 2782 2782 2782 2787 2794 2795 2795 2795 2793 2791 2790 2786 2786 2785 2782 2759 2718 2700 2700 2700 2750 2798 2820 2855 2895 2907 2907 2907 2907 2899 2892 2890 2885 2884 2873 2865 2865 2857 2841 2830 2825 2825 2825 2838 2841 2849 2866 2866 2866 2859 2859 2859 2854 2854 2838 2838 2838 2837 2838 2842 2843 2843 2843 2825 2811 2808 2806 2795 2793 2783 2782 2774 2716 2557 0 2423 2419 2409 2389 2378 2376 2372 2365 2358 2356 2350 2345 2333 2333 2333 2336 2338 2338 2339 2339 2338 2335 2318 2310 2306 2292 2281 2279 2279 2275 2273 2273 2272 2272 2270 2259 2238 2217 2195 2180 2179 2175 2173 2168 2167 2156 2147 2145 0 0 0 1904 1903 1903 1903 1923 1949 1951 1951 1972 0 2092 2101 2102 2104 2106 2107 2107 2107 2106 2105 2104 2102 2101 2100 2098 2097 2095 2093 2091 2089 2088 2088 2087 2085 2084 2083 2082 2082 2081 2081 2081 2080 2080 2080 2080 2079 2079 2079 2079 2078 2078 2077 2076 2074 2072 2070 2069 2068 2068 2066 2065 2064 2063 2062 2058 2055 2053 2051 2048 2044 2042 2041 2040 2039 2039 2037 2037 2037 2037 2037 2038 2041 2043 2045 2048 2050 2051 2053 2054 2055 2056 2056 2056 2056 2056 2056 2056 2055 2052 2049 2045 2040 2035 2033 2030 2026 2023 2019 2017 2016 2016 2016 2016 2017 2018 2019 2019 2022 2026 2030 2032 2034 2036 2039 2041 2042 2042 2042 2042 2042 2041 2040 2040 2039 2038 2037 2037 2036 2036 2035 2034 2034 2034 2034 2035 2035 2035 2035 2035 2034 2034 2033 2033 2033 2032 2031 2031 2030 2030 2030 2030 2031 2032 2034 2036 2038 2040 2042 2044 2045 2047 2048 2051 2053 2054 2055 2055 2056 2058 2062 2065 2066 2068 2069 2070 2072 2073 2074 2074 2075 2075 2075 2076 2078 2079 2079 2080 2081 2083 2085 2086 2088 2093 2096 2101 2108 2114 2121 2127 2134 2138 2140 2141 2143 2145 2146 2146 2146 2146 2144 2143 2142 2140 2138 2137 2135 2133 2129 2125 2123 2121 2119 2117 2115 2113 2112 2110 2108 2107 2105 2104 2103 2102 2101 2099 2098 2097 2095 2093 2090 2089 2086 2083 2079 2078 2075 2074 2074 2074 2073 2073 2073 2073 2072 2072 2072 2067 2064 2064 2064 2064 2064 2064 2056 2047 2041 2038 2032 2020 2019 2013 2010 1976 0 0 0 0 0 0 0 0 0 0 0 0 0 0 0 0 0 0 0 0 0 0 0 0 0 0 0 0 0 0 0 0 0 0 0 0 0 0 0 0 0 0 0 0 0 0 0 0 0 0 0 0 0 0 0 0 0 0 0 0 0 0 0 0 0 0 0 0 0 0 0
0 0 0 0 0 0 0 0 0 0 0 0 0 0 0 0 0 0 0 0 0 0 0 2741 2741 2741 2741 2741 2733 2733 2735 2735 2735 2753 2765 2789 2789 2789 2768 2751 2734 2734 2734 2737 2785 2797 2808 2814 2821 2821 2821 2822 2826 2834 2851 2858 2863 2877 2890 2894 2897 2897 2897 2891 2889 2883 2883 2883 2885 2885 2888 2888 2896 2901 2901 2901 2892 2891 2889 2885 2878 2874 2869 2846 2823 2816 2805 2788 2776 2776 2776 2780 2803 2826 2826 2826 2804 2728 2692 2692 2692 2693 2693 2693 2679 2629 2555 0 0 0 0 0 0 0 0 1362 1341 1331 1326 1326 1326 1327 1328 1328 1328 1329 1329 1329 1331 1333 1334 1336 1337 1338 1338 1339 1339 1340 1345 1345 1350 1352 1353 1358 1358 0 0 0 0 0 0 0 0 2531 2641 2644 2725 2771 2771 2771 2775 2775 2775 2784 2789 2789 2790 2790 2788 2785 2785 2781 2776 2774 2771 2746 2718 2700 2662 2662 2662 2675 2748 2824 2885 2897 2898 2898 2897 2897 2890 2889 2877 2866 2861 2856 2854 2848 2824 2810 2810 2810 2815 2828 2835 2849 2866 2869 2869 2873 2874 2891 2891 2891 2872 2849 2835 2829 2824 2818 2812 2809 2801 2801 2801 2791 2799 2799 2791 2783 2774 2763 2695 2538 0 2416 2404 2404 2388 2371 2364 2363 2363 2356 2351 2351 2346 2333 2333 2333 2336 2338 2338 2340 2338 2338 2337 2321 2316 2309 2299 2286 2284 2282 2282 2278 2278 2278 2277 2277 2275 2246 2226 2195 2180 2177 2173 2171 2168 2167 2156 2147 2147 0 0 0 1904 1899 1899 1899 1903 1924 1944 1946 1951 0 2083 2100 2101 2104 2106 2107 2107 2107 2106 2105 2104 2103 2101 2100 2099 2098 2096 2093 2091 2090 2089 2088 2087 2087 2085 2083 2082 2082 2082 2081 2081 2080 2080 2080 2079 2079 2079 2079 2079 2078 2078 2077 2076 2074 2072 2070 2069 2068 2067 2066 2065 2064 2063 2061 2057 2054 2052 2050 2046 2044 2041 2040 2038 2037 2036 2036 2036 2036 2036 2037 2037 2039 2042 2044 2047 2049 2051 2051 2053 2054 2054 2054 2054 2055 2055 2055 2055 2055 2052 2049 2045 2040 2036 2033 2030 2027 2024 2021 2017 2016 2015 2015 2015 2016 2018 2019 2019 2022 2025 2029 2032 2033 2035 2038 2041 2042 2042 2042 2042 2042 2041 2041 2040 2040 2038 2038 2037 2037 2037 2036 2035 2035 2035 2035 2035 2035 2035 2036 2036 2036 2036 2035 2033 2033 2033 2032 2032 2032 2032 2031 2031 2031 2032 2034 2036 2039 2041 2042 2044 2046 2048 2049 2051 2053 2055 2055 2057 2058 2060 2064 2065 2068 2069 2071 2072 2073 2075 2077 2077 2077 2077 2077 2078 2079 2081 2082 2083 2084 2086 2088 2090 2092 2095 2100 2106 2113 2118 2124 2131 2137 2140 2142 2145 2147 2149 2149 2149 2148 2146 2145 2145 2144 2142 2139 2137 2135 2133 2130 2126 2123 2121 2119 2118 2117 2115 2113 2110 2108 2108 2105 2104 2102 2102 2101 2099 2098 2097 2095 2093 2092 2090 2087 2084 2081 2078 2075 2074 2074 2074 2074 2074 2074 2074 2074 2074 2072 2071 2068 2068 2068 2068 2067 2067 2064 2047 2041 2038 2032 2020 2020 2019 2013 1999 0 0 0 0 0 0 0 0 0 0 0 0 0 0 0 0 0 0 0 0 0 0 0 0 0 0 0 0 0 0 0 0 0 0 0 0 0 0 0 0 0 0 0 0 0 0 0 0 0 0 0 0 0 0 0 0 0 0 0 0 0 0 0 0 0 0 0 0 0 0 0
0 0 0 0 0 0 0 0 0 0 0 0 0 0 0 0 0 0 0 0 0 0 0 2741 2759 2759 2748 2748 2748 2748 2748 2748 2748 2753 2798 2833 2833 2833 2813 2795 2771 2762 2762 2762 2786 2800 2809 2814 2822 2822 2822 2822 2826 2845 2853 2859 2868 2874 2883 2889 2897 2897 2897 2891 2890 2888 2885 2885 2888 2888 2888 2888 2896 2901 2905 2905 2905 2885 2882 2882 2882 2882 2870 2849 2827 2822 2819 2819 2807 2787 2787 2787 2801 2826 2826 2826 2800 2726 2664 2664 2664 2693 2693 2693 2692 2629 2555 0 0 0 0 0 0 0 0 1348 1334 1326 1326 1326 1326 1328 1328 1329 1329 1329 1329 1330 1331 1333 1333 1336 1337 1338 1339 1339 1341 1343 1345 1346 1347 1348 1349 1353 1353 1354 1359 0 0 0 0 0 0 0 0 0 2577 2675 2746 2755 2762 2767 2767 2779 2783 2783 2785 2783 2783 2773 2765 2762 2760 2759 2759 2746 2722 2703 2662 2662 2652 2662 2675 2715 2824 2875 2877 2879 2883 2883 2883 2880 2867 2866 2861 2856 2854 2848 2824 2810 2810 2810 2815 2828 2835 2849 2866 2869 2870 2877 2896 2913 2913 2913 2893 2870 2840 2829 2824 2816 2802 2786 2750 2750 2750 2777 2789 2789 2789 2784 2773 2758 2687 2533 0 2410 2402 2401 2386 2371 2364 2363 2363 2356 2352 2351 2347 2333 2333 2333 2337 2338 2338 2339 2338 2338 2337 2326 2316 2312 2299 2293 2292 2288 2288 2283 2283 2283 2283 2283 2282 2269 2227 2203 2180 2177 2173 2171 2168 2167 2158 2148 2147 0 0 0 1906 1899 1897 1897 1899 1908 1928 1939 1947 0 2068 2091 2098 2099 2100 2106 2106 2106 2106 2105 2104 2103 2101 2100 2100 2098 2097 2094 2092 2090 2089 2089 2088 2087 2086 2084 2084 2083 2083 2081 2081 2081 2080 2080 2079 2079 2079 2079 2078 2078 2078 2077 2076 2075 2072 2070 2069 2068 2067 2066 2065 2064 2063 2061 2057 2054 2051 2049 2046 2044 2041 2039 2037 2036 2035 2035 2035 2035 2035 2036 2037 2039 2040 2042 2044 2047 2050 2051 2052 2052 2052 2053 2054 2054 2054 2055 2055 2055 2052 2049 2045 2040 2037 2033 2030 2027 2024 2021 2018 2016 2015 2015 2015 2015 2017 2019 2019 2021 2025 2028 2032 2033 2034 2037 2040 2041 2042 2042 2042 2042 2041 2041 2040 2040 2039 2038 2038 2037 2037 2037 2036 2036 2036 2036 2036 2036 2037 2037 2037 2037 2037 2035 2035 2034 2034 2034 2034 2033 2033 2033 2033 2033 2033 2034 2037 2039 2041 2043 2045 2047 2048 2050 2052 2054 2056 2058 2060 2061 2064 2064 2067 2069 2072 2073 2075 2075 2077 2078 2079 2079 2079 2080 2080 2081 2082 2084 2085 2087 2089 2091 2092 2095 2098 2102 2109 2117 2122 2129 2133 2139 2143 2146 2147 2149 2150 2150 2150 2148 2148 2147 2146 2145 2143 2141 2138 2136 2135 2131 2128 2124 2122 2120 2119 2117 2115 2113 2110 2108 2108 2106 2104 2102 2101 2100 2099 2099 2097 2095 2093 2092 2090 2089 2086 2081 2078 2075 2075 2073 2073 2073 2075 2075 2075 2074 2074 2072 2071 2071 2071 2070 2070 2070 2069 2064 2049 2041 2038 2038 2037 2035 2030 2029 2015 0 0 0 0 0 0 0 0 0 0 0 0 0 0 0 0 0 0 0 0 0 0 0 0 0 0 0 0 0 0 0 0 0 0 0 0 0 0 0 0 0 0 0 0 0 0 0 0 0 0 0 0 0 0 0 0 0 0 0 0 0 0 0 0 0 0 0 0 0 0 0
0 0 0 0 0 0 0 0 0 0 0 0 0 0 0 0 0 0 0 0 0 0 2620 2719 2719 2735 2735 2735 2748 2769 2785 2788 2793 2814 2857 2888 2888 2888 2879 2846 2818 2793 2787 2787 2787 2801 2812 2815 2823 2823 2826 2828 2828 2847 2854 2863 2868 2874 2880 2881 2882 2890 2891 2891 2890 2888 2885 2883 2882 2881 2881 2881 2896 2904 2905 2905 2905 2885 2882 2882 2882 2882 2870 2850 2832 2832 2829 2826 2825 2811 2800 2800 2800 2824 2824 2824 2793 2726 2664 2664 2664 2693 2698 2698 2698 2634 2555 0 0 0 0 0 0 0 1366 1338 1332 1326 1326 1326 1327 1328 1328 1329 1329 1330 1330 1330 1332 1334 1335 1336 1337 1338 1339 1340 1342 1345 1346 1347 1347 1348 1348 1349 1349 1351 1352 1358 0 0 0 0 0 0 0 0 0 2544 2606 2652 2697 2712 2749 2776 2776 2776 2760 2756 2756 2756 2756 2758 2758 2758 2748 2748 2748 2748 2748 2703 2675 2663 2663 2670 2670 2779 2836 2852 2862 2868 2868 2868 2866 2864 2861 2856 2854 2848 2824 2810 2810 2810 2815 2828 2835 2849 2862 2866 2869 2877 2896 2913 2913 2913 2893 2872 2848 2829 2824 2816 2802 2786 2750 2750 2750 2754 2765 2784 2784 2784 2770 2755 2659 2522 0 2399 2396 2391 2382 2370 2364 2363 2363 2360 2358 2351 2349 2340 2338 2338 2338 2339 2339 2339 2338 2338 2337 2330 2319 2313 2307 2300 2300 2295 2293 2288 2288 2288 2289 2289 2289 2276 2238 2212 2180 2177 2173 2171 2168 2167 2159 2149 2147 2128 0 0 1910 1903 1900 1899 1899 1899 1905 1930 1946 0 2060 2091 2098 2099 2100 2106 2106 2106 2106 2105 2104 2103 2102 2100 2100 2098 2097 2095 2093 2093 2091 2090 2088 2087 2086 2084 2084 2084 2083 2082 2082 2081 2080 2080 2080 2079 2079 2079 2078 2078 2077 2077 2076 2076 2074 2072 2070 2068 2068 2067 2065 2065 2063 2061 2057 2054 2051 2049 2046 2044 2041 2038 2036 2035 2035 2034 2034 2034 2034 2035 2037 2038 2039 2040 2043 2045 2047 2050 2051 2052 2052 2053 2053 2053 2053 2053 2053 2053 2051 2047 2044 2040 2037 2033 2030 2027 2024 2021 2018 2016 2015 2015 2015 2015 2016 2017 2018 2020 2024 2027 2031 2033 2034 2037 2039 2041 2042 2042 2042 2042 2041 2041 2041 2040 2040 2039 2038 2038 2038 2037 2036 2036 2036 2037 2037 2037 2038 2039 2039 2039 2038 2037 2036 2036 2036 2035 2035 2035 2035 2035 2034 2034 2034 2035 2037 2039 2043 2044 2046 2047 2049 2051 2053 2054 2057 2059 2061 2064 2066 2067 2069 2071 2074 2075 2076 2077 2078 2080 2080 2081 2082 2082 2082 2083 2084 2086 2087 2090 2091 2093 2094 2098 2101 2106 2111 2123 2130 2135 2141 2142 2145 2148 2149 2151 2152 2152 2152 2151 2150 2149 2147 2146 2145 2143 2139 2137 2135 2132 2130 2126 2125 2122 2120 2119 2116 2113 2110 2108 2108 2106 2103 2102 2100 2100 2099 2098 2097 2095 2093 2092 2090 2089 2086 2082 2078 2075 2075 2074 2074 2074 2075 2075 2075 2074 2073 2072 2071 2071 2071 2071 2071 2071 2070 2065 2059 2049 2049 2049 2057 2057 2057 2053 2017 0 0 0 0 0 0 0 0 0 0 0 0 0 0 0 0 0 0 0 0 0 0 0 0 0 0 0 0 0 0 0 0 0 0 0 0 0 0 0 0 0 0 0 0 0 0 0 0 0 0 0 0 0 0 0 0 0 0 0 0 0 0 0 0 0 0 0 0 0 0 0
0 0 0 0 0 0 0 0 0 0 0 0 0 0 0 0 0 0 0 0 0 0 2620 2696 2707 2719 2735 2735 2748 2769 2795 2801 2834 2861 2896 2898 2898 2898 2892 2886 2847 2817 2789 2789 2789 2803 2813 2815 2825 2829 2830 2832 2832 2848 2862 2864 2872 2874 2880 2881 2882 2892 2892 2892 2887 2887 2883 2882 2874 2866 2866 2866 2885 2909 2916 2916 2916 2885 2885 2885 2885 2885 2870 2860 2851 2851 2851 2849 2849 2842 2817 2800 2800 2800 2800 2797 2793 2726 2664 2664 2664 2719 2719 2719 2699 2657 2598 2518 0 0 0 0 0 0 1355 1336 1329 1327 1327 1327 1327 1328 1329 1330 1330 1330 1330 1330 1332 1334 1335 1336 1337 1339 1340 1341 1343 1345 1346 1347 1347 1348 1348 1349 1349 1351 1352 1355 1357 1362 0 0 0 0 0 0 0 0 0 0 0 2605 2747 2747 2747 2738 2731 2731 2731 2745 2750 2757 2757 2757 2759 2759 2767 2767 2767 2766 2750 2688 2670 2670 2670 2714 2742 2774 2813 2826 2857 2857 2860 2860 2861 2861 2861 2856 2842 2814 2814 2814 2826 2846 2855 2862 2862 2866 2866 2877 2896 2913 2913 2913 2893 2872 2848 2829 2828 2816 2802 2786 2750 2750 2750 2754 2763 2783 2783 2783 2767 2728 2612 0 2418 2393 2386 2379 2374 2373 2371 2370 2370 2368 2365 2358 2351 2341 2339 2339 2339 2340 2340 2340 2338 2338 2335 2333 2323 2316 2313 2307 2305 2305 2297 2292 2291 2291 2291 2291 2291 2280 2248 2231 2197 2190 2183 2180 2176 2172 2167 2161 2152 2128 0 0 1935 1923 1909 1899 1899 1899 1899 1928 1941 0 2052 2084 2098 2099 2100 2105 2106 2106 2106 2105 2104 2103 2102 2100 2100 2098 2097 2096 2094 2094 2093 2092 2089 2087 2086 2085 2084 2084 2084 2082 2082 2081 2080 2080 2080 2079 2078 2078 2078 2078 2077 2077 2077 2076 2075 2073 2071 2070 2069 2067 2067 2066 2064 2061 2059 2055 2051 2049 2045 2044 2041 2038 2035 2034 2033 2033 2033 2034 2034 2035 2036 2038 2039 2040 2042 2045 2046 2049 2051 2051 2051 2052 2052 2053 2053 2053 2052 2051 2049 2046 2044 2040 2037 2033 2030 2027 2025 2021 2018 2017 2015 2015 2014 2014 2015 2015 2016 2018 2023 2027 2030 2033 2034 2037 2039 2040 2042 2043 2043 2043 2043 2043 2041 2041 2041 2041 2040 2039 2039 2038 2037 2037 2037 2038 2038 2038 2039 2039 2039 2039 2039 2038 2037 2036 2036 2036 2036 2035 2035 2035 2035 2035 2035 2035 2038 2040 2043 2044 2046 2047 2049 2051 2053 2055 2058 2061 2063 2065 2067 2069 2070 2073 2076 2078 2078 2078 2079 2081 2082 2084 2084 2085 2085 2086 2087 2088 2090 2091 2093 2095 2096 2100 2104 2108 2114 2126 2134 2141 2144 2145 2147 2149 2151 2154 2154 2154 2154 2154 2152 2151 2150 2147 2146 2145 2142 2139 2138 2134 2131 2129 2126 2124 2122 2120 2117 2115 2111 2108 2108 2106 2103 2102 2100 2100 2099 2098 2097 2095 2093 2092 2090 2089 2086 2082 2078 2075 2075 2074 2074 2074 2074 2074 2074 2074 2072 2072 2072 2071 2071 2071 2071 2071 2070 2068 2063 2057 2057 2057 2065 2069 2069 2069 2035 1989 0 0 0 0 0 0 0 0 0 0 0 0 0 0 0 0 0 0 0 0 0 0 0 0 0 0 0 0 0 0 0 0 0 0 0 0 0 0 0 0 0 0 0 0 0 0 0 0 0 0 0 0 0 0 0 0 0 0 0 0 0 0 0 0 0 0 0 0 0 0
0 0 0 0 0 0 0 0 0 0 0 0 0 0 0 0 0 0 0 0 0 2619 2623 2641 2670 2695 2703 2703 2705 2762 2795 2801 2839 2872 2903 2903 2903 2898 2894 2890 2866 2821 2815 2811 2811 2811 2814 2828 2829 2833 2834 2834 2848 2856 2870 2880 2881 2882 2882 2882 2882 2892 2892 2892 2887 2887 2886 2884 2874 2858 2858 2858 2881 2909 2919 2919 2930 2931 2931 2931 2931 2921 2913 2912 2906 2904 2902 2897 2893 2872 2850 2814 2800 2797 2790 2776 2766 2726 2683 2683 2683 2730 2730 2730 2711 2668 2615 2518 0 0 0 0 0 0 1353 1334 1329 1328 1328 1328 1328 1329 1329 1330 1330 1330 1331 1331 1333 1334 1335 1336 1337 1339 1341 1342 1344 1345 1346 1348 1349 1349 1349 1350 1350 1351 1352 1355 1357 1359 1376 1391 1391 0 0 0 0 0 0 0 0 0 2649 2657 2657 2657 2657 2657 2680 2738 2746 2746 2746 2749 2752 2752 2767 2767 2767 2766 2751 2742 2709 2709 2709 2714 2739 2742 2742 2774 2779 2829 2854 2856 2860 2861 2868 2868 2868 2868 2868 2869 2873 2873 2873 2866 2866 2866 2866 2873 2890 2900 2900 2900 2884 2872 2848 2831 2831 2829 2828 2814 2799 2778 2758 2758 2756 2755 2755 2740 2730 2682 2585 0 2414 2387 2373 2371 2371 2371 2371 2371 2371 2368 2365 2365 2358 2348 2339 2339 2339 2341 2341 2341 2341 2338 2335 2333 2330 2319 2314 2313 2312 2309 2299 2295 2293 2293 2293 2293 2293 2282 2258 2244 2212 2196 2187 2181 2176 2172 2168 2162 2152 2126 0 0 1950 1923 1909 1899 1887 1887 1887 1913 1941 0 2052 2083 2098 2102 2103 2105 2106 2106 2106 2105 2105 2104 2102 2101 2100 2098 2097 2097 2095 2094 2093 2092 2090 2089 2086 2086 2085 2084 2084 2082 2082 2081 2080 2079 2079 2079 2078 2078 2078 2077 2077 2077 2077 2076 2075 2074 2073 2071 2070 2069 2068 2067 2064 2061 2059 2056 2053 2049 2045 2044 2041 2037 2035 2034 2033 2033 2033 2034 2034 2035 2036 2037 2038 2039 2041 2044 2046 2048 2049 2051 2051 2052 2052 2052 2052 2052 2051 2049 2047 2045 2043 2040 2037 2034 2030 2027 2025 2021 2019 2017 2015 2014 2014 2013 2013 2013 2014 2017 2020 2025 2027 2030 2034 2037 2038 2039 2042 2043 2043 2044 2044 2044 2043 2042 2042 2041 2041 2040 2040 2039 2039 2039 2039 2039 2040 2040 2040 2040 2040 2039 2039 2038 2038 2037 2037 2037 2036 2036 2036 2035 2035 2035 2035 2035 2038 2040 2043 2044 2046 2048 2050 2052 2053 2055 2058 2061 2065 2067 2068 2071 2072 2074 2077 2079 2079 2081 2081 2082 2083 2084 2086 2086 2087 2089 2090 2091 2093 2093 2095 2096 2100 2103 2108 2110 2117 2127 2138 2141 2146 2146 2148 2151 2154 2156 2157 2157 2157 2157 2155 2153 2152 2150 2148 2146 2144 2141 2138 2136 2132 2129 2127 2125 2122 2120 2117 2115 2112 2110 2108 2106 2103 2102 2100 2100 2099 2096 2095 2093 2093 2092 2090 2089 2085 2082 2078 2075 2074 2074 2073 2073 2073 2072 2072 2072 2071 2071 2071 2071 2071 2071 2071 2071 2070 2069 2065 2064 2064 2065 2065 2069 2069 2069 2044 2006 0 0 0 0 0 0 0 0 0 0 0 0 0 0 0 0 0 0 0 0 0 0 0 0 0 0 0 0 0 0 0 0 0 0 0 0 0 0 0 0 0 0 0 0 0 0 0 0 0 0 0 0 0 0 0 0 0 0 0 0 0 0 0 0 0 0 0 0 0 0
0 0 0 0 0 0 0 0 0 0 0 0 0 0 0 0 0 0 0 2628 2641 2641 2628 2623 2623 2623 2629 2668 2698 2745 2795 2801 2846 2883 2907 2907 2907 2896 2896 2890 2870 2856 2846 2846 2846 2850 2853 2860 2860 2860 2862 2862 2878 2882 2888 2891 2900 2900 2900 2899 2899 2899 2899 2899 2887 2887 2886 2884 2874 2854 2854 2854 2878 2919 2934 2950 2956 2961 2961 2961 2957 2953 2953 2953 2953 2953 2948 2934 2906 2883 2861 2850 2824 2797 2790 2776 2766 2726 2725 2725 2725 2748 2748 2748 2722 2679 2618 2518 0 0 0 0 0 0 1339 1334 1329 1329 1329 1329 1329 1330 1330 1331 1331 1331 1332 1333 1334 1336 1337 1337 1338 1340 1341 1343 1344 1345 1346 1348 1349 1350 1350 1351 1351 1352 1355 1355 1357 1359 1363 1367 1368 1369 1370 0 0 0 0 0 0 0 0 2519 2580 2582 2592 2599 2619 2667 2722 2723 2725 2731 2731 2752 2767 2767 2767 2766 2751 2746 2746 2742 2742 2746 2742 2742 2739 2739 2739 2742 2806 2835 2850 2856 2868 2868 2868 2868 2868 2869 2873 2873 2873 2869 2862 2862 2862 2865 2873 2873 2873 2855 2852 2840 2840 2840 2845 2850 2850 2850 2833 2807 2787 2758 2758 2749 2720 2701 2675 2614 0 0 2399 2380 2367 2367 2367 2370 2370 2370 2371 2368 2367 2365 2358 2348 2340 2340 2340 2342 2342 2342 2342 2339 2335 2334 2333 2333 2321 2319 2314 2314 2306 2300 2297 2297 2297 2295 2294 2284 2266 2257 2220 2198 2187 2181 2176 2173 2168 2162 2152 2125 0 0 1953 1923 1909 1888 1877 1877 1877 1897 1936 0 2051 2083 2098 2105 2105 2106 2106 2106 2106 2106 2105 2105 2104 2102 2101 2099 2098 2097 2096 2094 2093 2092 2091 2089 2087 2086 2085 2084 2084 2082 2081 2080 2080 2079 2079 2078 2078 2078 2077 2077 2077 2077 2077 2076 2075 2074 2073 2071 2071 2069 2068 2067 2064 2061 2059 2056 2053 2049 2044 2041 2038 2035 2035 2034 2033 2033 2033 2033 2034 2035 2035 2037 2037 2039 2041 2044 2046 2048 2049 2050 2051 2052 2052 2052 2052 2051 2050 2049 2047 2045 2043 2041 2038 2035 2030 2027 2025 2022 2020 2017 2015 2014 2013 2013 2013 2013 2013 2015 2019 2022 2025 2027 2032 2036 2038 2039 2042 2043 2043 2044 2044 2044 2044 2044 2042 2042 2041 2041 2041 2040 2040 2040 2040 2041 2041 2041 2041 2041 2041 2040 2039 2039 2038 2038 2038 2037 2037 2036 2036 2035 2035 2035 2035 2036 2038 2040 2043 2044 2047 2049 2050 2052 2055 2057 2060 2063 2067 2069 2071 2072 2075 2077 2080 2082 2082 2083 2083 2083 2085 2086 2086 2087 2088 2089 2092 2094 2096 2097 2097 2100 2103 2107 2111 2115 2121 2130 2138 2144 2147 2148 2151 2153 2157 2159 2159 2159 2159 2158 2157 2156 2153 2152 2150 2149 2146 2143 2140 2136 2133 2130 2128 2126 2122 2120 2118 2116 2114 2111 2109 2106 2104 2102 2101 2101 2099 2096 2094 2093 2092 2091 2090 2089 2085 2082 2078 2074 2073 2073 2073 2073 2073 2072 2072 2072 2072 2072 2072 2072 2072 2072 2072 2072 2072 2069 2069 2068 2065 2068 2070 2069 2069 2069 2062 2058 0 0 0 0 0 0 0 0 0 0 0 0 0 0 0 0 0 0 0 0 0 0 0 0 0 0 0 0 0 0 0 0 0 0 0 0 0 0 0 0 0 0 0 0 0 0 0 0 0 0 0 0 0 0 0 0 0 0 0 0 0 0 0 0 0 0 0 0 0 0
0 0 0 0 0 0 0 0 0 0 0 0 0 2737 2742 2762 2764 2770 2770 2770 2697 2682 2641 2623 2610 2610 2610 2626 2681 2730 2784 2801 2846 2883 2883 2892 2896 2896 2892 2892 2871 2871 2871 2872 2873 2873 2873 2873 2862 2862 2862 2873 2890 2901 2905 2911 2926 2926 2927 2927 2927 2927 2927 2916 2910 2908 2897 2896 2892 2860 2860 2860 2878 2921 2943 2955 2959 2963 2967 2967 2967 2968 2968 2966 2963 2963 2948 2934 2914 2887 2880 2879 2854 2812 2790 2776 2766 2735 2735 2735 2770 2770 2770 2765 2732 2679 2618 0 0 0 0 0 0 0 1339 1334 1333 1333 1333 1331 1331 1331 1331 1332 1332 1333 1333 1334 1336 1336 1337 1338 1339 1340 1342 1343 1345 1346 1346 1349 1349 1351 1352 1353 1353 1354 1356 1358 1359 1361 1363 1364 1368 1368 1368 1369 0 0 0 0 0 0 0 0 0 2502 2510 2521 2557 2596 2650 2683 2689 2692 2721 2752 2752 2752 2751 2750 2749 2746 2746 2746 2772 2786 2786 2786 2742 2739 2738 2738 2738 2745 2778 2793 2823 2853 2866 2866 2868 2869 2873 2873 2873 2871 2862 2851 2851 2851 2853 2853 2853 2844 2841 2840 2840 2840 2849 2851 2851 2851 2834 2811 2795 2783 2758 2749 2720 2701 2652 2562 0 2386 2383 2373 2367 2367 2367 2369 2369 2369 2365 2365 2365 2363 2358 2348 2341 2341 2341 2342 2342 2342 2342 2340 2338 2337 2335 2333 2328 2322 2316 2316 2312 2305 2304 2304 2304 2303 2301 2285 2274 2263 2224 2199 2190 2185 2177 2173 2168 2162 2152 2125 0 0 1958 1923 1883 1855 1855 1855 1861 1888 1933 0 2049 2083 2098 2105 2105 2106 2106 2106 2106 2106 2105 2105 2104 2102 2102 2100 2098 2097 2096 2094 2093 2092 2091 2090 2088 2086 2086 2084 2084 2082 2081 2080 2080 2079 2079 2078 2078 2077 2077 2077 2077 2077 2077 2075 2075 2074 2073 2072 2071 2069 2068 2067 2063 2061 2058 2056 2053 2049 2044 2039 2037 2035 2035 2034 2032 2032 2032 2033 2033 2035 2035 2036 2037 2039 2041 2044 2046 2047 2048 2049 2050 2051 2051 2051 2051 2051 2050 2049 2047 2045 2043 2041 2039 2035 2031 2028 2026 2023 2020 2017 2015 2013 2013 2013 2013 2013 2013 2013 2017 2020 2023 2025 2030 2036 2038 2038 2040 2042 2043 2044 2044 2044 2044 2044 2044 2044 2043 2043 2042 2042 2042 2042 2042 2042 2042 2042 2042 2042 2042 2041 2041 2040 2040 2039 2038 2038 2037 2036 2036 2035 2035 2035 2035 2036 2038 2041 2043 2045 2048 2050 2052 2055 2057 2059 2063 2067 2069 2071 2073 2075 2077 2079 2082 2084 2085 2085 2085 2086 2086 2088 2088 2088 2090 2092 2094 2098 2099 2100 2101 2102 2106 2110 2114 2118 2124 2132 2139 2145 2149 2149 2153 2156 2159 2162 2162 2162 2161 2160 2158 2157 2155 2153 2152 2150 2148 2145 2141 2138 2135 2133 2130 2127 2122 2120 2118 2116 2114 2113 2110 2108 2105 2103 2102 2102 2099 2096 2094 2092 2091 2090 2089 2088 2085 2081 2078 2073 2073 2073 2072 2072 2072 2072 2072 2072 2072 2072 2072 2073 2073 2073 2073 2073 2073 2071 2070 2069 2068 2065 2063 2063 2063 2062 2062 2062 0 0 0 0 0 0 0 0 0 0 0 0 0 0 0 0 0 0 0 0 0 0 0 0 0 0 0 0 0 0 0 0 0 0 0 0 0 0 0 0 0 0 0 0 0 0 0 0 0 0 0 0 0 0 0 0 0 0 0 0 0 0 0 0 0 0 0 0 0 0
0 0 0 0 0 0 0 0 0 0 0 0 2730 2766 2766 2770 2783 2788 2770 2770 2765 2764 2735 2668 2610 2610 2610 2611 2628 2688 2690 2786 2846 2901 2901 2901 2895 2895 2881 2881 2876 2876 2876 2879 2884 2884 2884 2873 2873 2873 2875 2886 2892 2902 2916 2926 2936 2936 2936 2933 2932 2932 2932 2928 2929 2929 2920 2919 2911 2877 2877 2877 2878 2922 2948 2957 2961 2966 2968 2973 2973 2976 2976 2976 2976 2963 2948 2936 2916 2895 2892 2888 2861 2844 2826 2807 2775 2774 2774 2774 2788 2788 2788 2768 2732 2679 2618 0 0 0 0 0 0 0 1338 1334 1334 1333 1333 1332 1332 1332 1332 1332 1333 1333 1334 1335 1337 1337 1338 1339 1341 1342 1343 1344 1345 1346 1347 1349 1350 1351 1354 1355 1356 1357 1358 1359 1361 1361 1362 1363 1368 1368 1368 1369 1370 0 0 0 0 0 0 0 0 0 0 0 0 2519 2583 2629 2653 2663 2676 2706 2727 2727 2728 2727 2727 2728 2733 2746 2772 2789 2808 2808 2789 2776 2738 2738 2720 2720 2720 2744 2748 2804 2804 2830 2843 2854 2866 2869 2869 2869 2858 2846 2846 2846 2846 2842 2843 2840 2839 2839 2840 2840 2849 2851 2851 2851 2834 2814 2800 2786 2778 2749 2720 2701 2649 2528 0 2386 2381 2372 2365 2364 2364 2364 2365 2364 2364 2362 2358 2358 2356 2344 2341 2341 2341 2342 2342 2342 2342 2342 2341 2341 2340 2339 2334 2329 2321 2318 2317 2312 2309 2307 2307 2307 2306 2293 2276 2263 2226 2199 2190 2185 2177 2173 2168 2162 2152 2125 0 0 0 1923 1883 1853 1853 1853 1861 1888 1912 0 2033 2061 2097 2104 2105 2106 2106 2106 2106 2106 2105 2105 2104 2102 2102 2100 2099 2098 2096 2094 2093 2092 2091 2090 2088 2086 2086 2084 2083 2082 2081 2080 2080 2079 2078 2078 2077 2077 2077 2076 2076 2076 2075 2075 2074 2074 2073 2072 2071 2069 2067 2064 2061 2058 2056 2053 2051 2047 2044 2039 2037 2035 2035 2034 2032 2032 2032 2032 2033 2034 2034 2036 2037 2038 2039 2042 2045 2047 2048 2049 2050 2051 2051 2051 2050 2050 2049 2049 2046 2045 2043 2042 2039 2035 2032 2029 2026 2023 2020 2017 2015 2013 2012 2012 2012 2012 2012 2012 2014 2020 2022 2024 2029 2035 2037 2038 2038 2039 2041 2043 2044 2044 2045 2045 2045 2045 2044 2044 2044 2044 2043 2043 2043 2042 2042 2042 2042 2042 2042 2042 2042 2042 2040 2040 2039 2038 2038 2036 2035 2035 2035 2035 2035 2036 2038 2041 2044 2046 2048 2051 2053 2057 2058 2062 2065 2068 2071 2073 2075 2077 2079 2081 2083 2085 2087 2088 2088 2089 2089 2090 2090 2091 2093 2095 2097 2100 2102 2103 2104 2105 2108 2112 2116 2122 2127 2135 2142 2147 2150 2151 2154 2158 2161 2164 2164 2164 2162 2160 2158 2158 2156 2155 2153 2151 2151 2148 2144 2140 2138 2135 2131 2127 2124 2120 2119 2117 2115 2113 2111 2108 2107 2105 2104 2102 2099 2096 2094 2092 2090 2090 2088 2086 2084 2081 2077 2072 2072 2072 2072 2072 2073 2072 2072 2072 2072 2072 2072 2073 2073 2073 2074 2074 2074 2073 2071 2071 2070 2068 2065 2060 2060 2058 2058 2058 2058 0 0 0 0 0 0 0 0 0 0 0 0 0 0 0 0 0 0 0 0 0 0 0 0 0 0 0 0 0 0 0 0 0 0 0 0 0 0 0 0 0 0 0 0 0 0 0 0 0 0 0 0 0 0 0 0 0 0 0 0 0 0 0 0 0 0 0 0 0
0 0 0 0 0 0 0 0 0 0 0 0 2766 2766 2785 2791 2793 2795 2804 2808 2808 2804 2786 2683 2650 2625 2625 2625 2628 2683 2690 2784 0 2899 2899 2899 2895 2895 2895 2895 2897 2898 2898 2897 2897 2897 2884 2873 2873 2873 2875 2891 2895 2906 2916 2932 2936 2936 2936 2933 2932 2932 2932 2928 2932 2932 2928 2928 2928 2880 2880 2880 2880 2923 2949 2957 2962 2966 2969 2975 2980 2984 2984 2984 2979 2965 2960 2938 2921 2906 2904 2900 2885 2868 2851 2838 2822 2822 2809 2805 2800 2798 2791 2768 2732 2671 2564 0 0 0 0 0 0 1344 1337 1335 1334 1334 1333 1333 1333 1333 1333 1334 1334 1334 1335 1335 1338 1338 1340 1341 1341 1342 1344 1345 1347 1348 1348 1349 1351 1353 1354 1355 1356 1357 1358 1359 1361 1362 1362 1363 1368 1368 1368 1369 1370 1370 1370 1371 1391 0 0 0 0 0 0 0 0 0 0 2528 2609 2631 2638 2651 2673 2691 2693 2693 2694 2695 2712 2738 2772 2789 2808 2808 2789 2778 2776 2775 2744 2720 2720 2710 2708 2710 2735 2743 2781 2821 2848 2866 2866 2866 2856 2841 2841 2840 2840 2839 2839 2839 2839 2839 2842 2842 2849 2851 2851 2851 2834 2818 2800 2786 2780 2767 2744 2703 2636 2525 0 2384 2372 2369 2367 2365 2359 2359 2359 2360 2360 2360 2354 2353 2349 2343 2341 2341 2342 2343 2342 2342 2343 2342 2342 2342 2342 2342 2342 2333 2331 2323 2320 2314 2311 2310 2310 2309 2307 2302 2277 2266 2227 2199 2193 2187 2180 2174 2168 2162 2152 2129 2107 0 0 1925 1883 1853 1853 1853 1861 1888 1912 1974 2023 2061 2097 2103 2105 2105 2105 2106 2106 2106 2106 2105 2104 2103 2102 2100 2099 2098 2097 2095 2093 2092 2090 2090 2088 2086 2086 2084 2083 2082 2081 2080 2080 2079 2077 2077 2077 2076 2076 2076 2076 2075 2075 2075 2074 2074 2073 2072 2071 2069 2066 2064 2060 2057 2054 2052 2050 2047 2044 2039 2037 2036 2034 2033 2031 2031 2031 2032 2032 2032 2033 2034 2035 2037 2039 2041 2043 2045 2047 2048 2050 2050 2050 2050 2050 2050 2048 2048 2046 2045 2043 2042 2039 2036 2033 2029 2027 2024 2021 2017 2015 2013 2012 2012 2012 2012 2012 2012 2012 2017 2021 2023 2029 2032 2035 2035 2036 2037 2041 2043 2044 2045 2046 2046 2046 2046 2046 2045 2045 2045 2045 2044 2044 2044 2043 2043 2043 2043 2042 2042 2042 2042 2041 2041 2040 2039 2038 2036 2035 2035 2035 2035 2035 2036 2038 2041 2044 2047 2050 2053 2056 2058 2060 2064 2068 2070 2073 2075 2077 2079 2081 2083 2085 2087 2088 2089 2091 2091 2091 2092 2094 2095 2097 2098 2100 2102 2104 2106 2108 2109 2112 2116 2120 2126 2132 2140 2146 2151 2153 2156 2158 2161 2163 2165 2165 2165 2164 2162 2161 2159 2157 2155 2154 2152 2151 2149 2148 2144 2141 2137 2134 2130 2126 2121 2119 2117 2115 2113 2111 2109 2107 2105 2104 2102 2099 2096 2094 2091 2089 2086 2086 2083 2083 2080 2077 2072 2072 2072 2073 2073 2073 2073 2072 2072 2073 2073 2073 2073 2074 2074 2076 2076 2076 2075 2075 2075 2074 2074 2070 2060 2055 2055 2055 2051 2051 0 0 0 0 0 0 0 0 0 0 0 0 0 0 0 0 0 0 0 0 0 0 0 0 0 0 0 0 0 0 0 0 0 0 0 0 0 0 0 0 0 0 0 0 0 0 0 0 0 0 0 0 0 0 0 0 0 0 0 0 0 0 0 0 0 0 0 0 0
0 0 0 0 0 0 0 0 0 0 0 0 2772 2785 2790 2791 2793 2795 2803 2804 2804 2804 2786 2686 2664 2653 2637 2637 2637 2683 2690 0 2857 2896 2896 2896 2895 2895 2895 2921 2933 2933 2933 2927 2926 2909 2884 2869 2869 2869 2875 2893 2896 2909 2929 2943 2943 2943 2940 2938 2938 2938 2935 2932 2932 2932 2931 2931 2931 2909 2905 2905 2905 2932 2949 2963 2976 2978 2985 2985 2995 2995 2995 2995 2979 2965 2960 2938 2926 2917 2916 2914 2904 2887 2868 2859 2858 2852 2843 2818 2807 2806 2791 2768 2727 2669 2564 0 0 0 0 0 0 1341 1337 1335 1334 1334 1334 1334 1334 1334 1334 1334 1334 1335 1336 1337 1338 1339 1340 1342 1343 1344 1345 1346 1347 1349 1349 1350 1352 1353 1354 1356 1356 1358 1359 1360 1361 1362 1362 1364 1368 1369 1369 1369 1370 1370 1370 1371 1375 1380 1390 1409 0 0 0 0 0 0 0 0 0 2512 2576 2607 2626 2645 2654 2654 2655 2669 2692 2721 2749 2773 2789 2789 2789 2778 2777 2776 2776 2744 2735 2710 2708 2708 2703 2703 2708 2750 2787 2830 2845 2845 2845 2839 2838 2834 2832 2834 2834 2840 2840 2840 2842 2842 2846 2846 2846 2844 2833 2820 2800 2786 2780 2771 2747 2706 2636 2516 0 2384 2367 2365 2365 2365 2359 2359 2358 2358 2358 2357 2351 2348 2341 2341 2341 2342 2343 2343 2342 2342 2342 2342 2342 2343 2343 2343 2342 2338 2335 2329 2322 2315 2312 2312 2312 2311 2311 2310 2281 2267 2234 2205 2203 2194 2187 2176 2168 2162 2155 2129 2111 0 0 1935 1891 1853 1853 1853 1871 1889 1912 1960 1997 2049 2097 2101 2101 2103 2105 2106 2106 2106 2106 2105 2104 2103 2102 2101 2099 2098 2097 2095 2094 2092 2090 2089 2088 2086 2085 2084 2083 2082 2081 2080 2080 2079 2077 2077 2077 2076 2075 2075 2075 2075 2075 2075 2074 2073 2073 2071 2071 2069 2065 2063 2060 2056 2054 2052 2049 2046 2044 2040 2039 2036 2034 2032 2031 2031 2031 2031 2031 2031 2032 2033 2035 2037 2039 2041 2043 2045 2047 2048 2049 2049 2049 2049 2049 2049 2048 2046 2046 2044 2043 2042 2039 2037 2034 2031 2029 2024 2021 2018 2015 2013 2012 2012 2011 2011 2010 2010 2010 2013 2020 2023 2025 2028 2032 2034 2034 2037 2041 2043 2044 2045 2046 2047 2047 2047 2047 2046 2046 2046 2045 2045 2044 2044 2044 2044 2043 2043 2043 2043 2042 2042 2042 2041 2040 2039 2039 2037 2036 2036 2035 2035 2036 2036 2038 2041 2044 2047 2051 2055 2058 2061 2062 2067 2070 2072 2074 2078 2079 2081 2082 2084 2085 2088 2089 2091 2092 2094 2094 2094 2097 2098 2101 2102 2103 2104 2106 2109 2111 2112 2115 2120 2127 2131 2137 2142 2147 2153 2159 2160 2164 2165 2165 2167 2167 2167 2166 2165 2164 2161 2158 2156 2155 2153 2152 2152 2149 2146 2143 2140 2136 2132 2127 2124 2121 2117 2116 2114 2112 2109 2107 2106 2104 2101 2099 2097 2094 2091 2088 2086 2085 2083 2081 2079 2076 2072 2072 2072 2072 2073 2073 2073 2073 2073 2073 2073 2075 2075 2075 2076 2076 2076 2076 2076 2076 2076 2077 2077 2077 2062 2055 2055 2055 2052 2052 2052 0 0 0 0 0 0 0 0 0 0 0 0 0 0 0 0 0 0 0 0 0 0 0 0 0 0 0 0 0 0 0 0 0 0 0 0 0 0 0 0 0 0 0 0 0 0 0 0 0 0 0 0 0 0 0 0 0 0 0 0 0 0 0 0 0 0 0 0
0 0 0 0 0 0 0 0 0 2670 2686 2722 2773 2798 2798 2798 2798 2796 2796 2796 2796 2796 2786 2710 2668 2667 2666 2666 2666 2683 2699 0 2816 2865 2865 2865 2865 2865 2894 2921 2939 2956 2958 2958 2958 2923 2884 2884 2884 2898 2906 2910 2926 2929 2929 2943 2943 2943 2940 2938 2938 2935 2932 2927 2927 2927 2929 2929 2929 2928 2928 2928 2933 2949 2967 2977 2985 2993 2996 2997 3002 3002 3002 2995 2979 2965 2960 2949 2932 2928 2920 2918 2916 2903 2883 2883 2882 2878 2878 2840 2817 2806 2791 2767 2724 2651 2562 0 0 0 0 0 0 1340 1335 1335 1335 1335 1334 1334 1334 1334 1335 1335 1336 1336 1337 1338 1340 1340 1342 1343 1344 1345 1346 1347 1349 1349 1350 1352 1352 1353 1355 1356 1357 1359 1359 1361 1361 1362 1363 1364 1368 1369 1369 1370 1370 1370 1371 1371 1375 1377 1388 1400 1412 1419 0 0 0 0 0 0 0 0 0 2521 2567 2600 2623 2636 2647 2664 2678 2701 2728 2747 2755 2768 2770 2774 2778 2778 2778 2778 2776 2776 2735 2708 2702 2695 2695 2695 2700 2747 2771 2775 2789 2803 2823 2823 2823 2824 2830 2840 2840 2840 2829 2819 2819 2819 2827 2827 2827 2822 2802 2787 2781 2774 2766 2723 2636 2508 0 2384 2367 2365 2363 2363 2359 2358 2356 2355 2353 2352 2348 2347 2341 2341 2341 2342 2343 2343 2342 2342 2342 2342 2343 2344 2344 2344 2344 2339 2335 2331 2325 2320 2316 2316 2316 2313 2312 2311 2281 2267 2251 2218 2205 2194 2187 2178 2169 2164 2161 2139 2124 0 0 1950 1919 1895 1895 1895 1898 1907 1912 1953 1993 2045 2075 2097 2098 2103 2105 2106 2106 2106 2106 2105 2105 2104 2102 2101 2100 2098 2097 2095 2093 2092 2090 2089 2086 2085 2084 2084 2083 2082 2081 2079 2079 2078 2077 2076 2076 2076 2075 2075 2075 2075 2075 2074 2074 2073 2072 2071 2070 2068 2065 2063 2060 2056 2054 2050 2048 2046 2044 2040 2039 2036 2034 2032 2031 2030 2030 2031 2031 2031 2032 2033 2035 2037 2039 2041 2043 2045 2046 2048 2048 2049 2049 2049 2048 2047 2047 2045 2044 2043 2042 2042 2039 2038 2035 2032 2029 2025 2021 2018 2015 2013 2011 2011 2010 2009 2008 2008 2008 2008 2015 2019 2022 2025 2027 2031 2033 2037 2041 2043 2044 2045 2046 2048 2048 2048 2048 2047 2047 2047 2046 2046 2046 2046 2045 2044 2043 2043 2043 2043 2043 2043 2043 2041 2040 2040 2039 2038 2036 2036 2036 2036 2037 2038 2039 2041 2044 2047 2052 2056 2059 2064 2067 2071 2074 2075 2078 2080 2082 2083 2085 2087 2087 2090 2091 2094 2096 2096 2096 2098 2100 2102 2104 2105 2106 2106 2107 2110 2114 2115 2117 2123 2131 2136 2140 2144 2149 2157 2164 2166 2167 2167 2167 2167 2168 2168 2168 2167 2166 2163 2160 2158 2156 2155 2153 2152 2150 2147 2144 2141 2137 2133 2130 2126 2123 2120 2117 2114 2112 2109 2107 2106 2104 2101 2099 2097 2094 2091 2088 2086 2085 2083 2081 2079 2074 2073 2073 2073 2073 2073 2073 2073 2073 2073 2073 2074 2075 2076 2076 2076 2076 2076 2076 2076 2076 2076 2077 2077 2077 2076 2055 2055 2055 2052 2052 2052 0 0 0 0 0 0 0 0 0 0 0 0 0 0 0 0 0 0 0 0 0 0 0 0 0 0 0 0 0 0 0 0 0 0 0 0 0 0 0 0 0 0 0 0 0 0 0 0 0 0 0 0 0 0 0 0 0 0 0 0 0 0 0 0 0 0 0 0
0 0 0 0 0 0 2560 2630 2686 2699 2708 2735 2791 2815 2815 2815 2812 2791 2786 2767 2766 2761 2761 2715 2686 2686 2686 2700 2703 2707 2731 2782 2816 2836 2840 2843 2843 2857 2889 2921 2939 2956 2958 2958 2958 2923 2895 2895 2895 2949 2949 2949 2929 2929 2929 2943 2943 2943 2940 2938 2938 2935 2932 2927 2927 2927 2929 2929 2929 2928 2928 2928 2952 2959 2971 2977 2986 2996 3005 3010 3010 3010 3007 2995 2980 2975 2967 2952 2934 2928 2926 2921 2921 2907 2887 2887 2886 2878 2878 2873 2828 2806 2791 2767 2724 2647 2562 0 0 0 0 0 1343 1336 1335 1335 1335 1335 1336 1336 1336 1336 1336 1336 1336 1337 1338 1339 1341 1341 1343 1344 1345 1346 1347 1348 1349 1350 1351 1352 1353 1354 1355 1356 1357 1359 1359 1361 1361 1363 1364 1365 1368 1368 1369 1369 1371 1371 1371 1372 1375 1377 1379 1384 1392 1395 1400 1403 1406 0 0 0 0 0 0 0 0 2522 2587 2608 2625 2648 2676 2699 2728 2746 2753 2755 2758 2762 2774 2776 2776 2778 2776 2776 2775 2770 2730 2695 2695 2671 2681 2681 2700 2725 2741 2764 2796 2811 2816 2822 2828 2837 2837 2837 2832 2818 2817 2817 2817 2823 2823 2823 2802 2787 2787 2781 2777 2723 2646 2507 0 2362 2362 2362 2362 2362 2362 2361 2360 2356 2353 2348 2347 2345 2338 2338 2338 2342 2342 2342 2342 2341 2341 2341 2343 2345 2345 2345 2344 2339 2335 2332 2328 2323 2321 2317 2317 2315 2315 2313 2289 2274 2263 2232 2205 2194 2187 2178 2173 2168 2161 2147 2130 0 0 0 1920 1918 1918 1916 1918 1918 1924 1953 1993 2045 2075 2097 2098 2106 2108 2108 2108 2108 2107 2107 2107 2106 2104 2103 2101 2099 2097 2095 2093 2092 2090 2089 2086 2085 2084 2084 2083 2081 2080 2079 2079 2078 2076 2076 2076 2075 2075 2075 2075 2075 2075 2074 2074 2073 2072 2071 2070 2068 2065 2062 2060 2056 2054 2050 2048 2045 2043 2040 2039 2036 2034 2031 2029 2029 2029 2029 2029 2030 2031 2033 2035 2037 2039 2041 2042 2044 2046 2047 2047 2048 2048 2048 2047 2046 2045 2044 2043 2043 2042 2041 2039 2038 2035 2032 2029 2025 2021 2018 2015 2013 2011 2010 2009 2009 2008 2008 2008 2008 2013 2016 2019 2022 2025 2029 2032 2036 2042 2044 2045 2046 2047 2048 2048 2048 2048 2048 2047 2047 2047 2046 2046 2046 2045 2045 2045 2044 2044 2044 2043 2043 2043 2041 2041 2040 2039 2038 2037 2036 2036 2036 2038 2039 2040 2041 2044 2047 2052 2057 2061 2066 2071 2075 2077 2079 2081 2084 2085 2085 2088 2089 2091 2092 2093 2096 2099 2100 2101 2101 2102 2105 2107 2108 2109 2109 2111 2112 2115 2118 2122 2128 2133 2139 2144 2148 2153 2161 2167 2168 2169 2169 2169 2169 2171 2171 2171 2169 2167 2165 2162 2159 2157 2156 2154 2153 2150 2147 2144 2141 2138 2133 2130 2128 2125 2122 2117 2114 2112 2110 2109 2108 2105 2101 2099 2097 2094 2091 2088 2086 2084 2082 2080 2078 2075 2074 2074 2074 2074 2074 2073 2073 2073 2073 2073 2074 2076 2076 2076 2076 2077 2077 2077 2076 2076 2076 2077 2077 2077 2077 2076 2067 2062 2061 2057 2052 2045 0 0 0 0 0 0 0 0 0 0 0 0 0 0 0 0 0 0 0 0 0 0 0 0 0 0 0 0 0 0 0 0 0 0 0 0 0 0 0 0 0 0 0 0 0 0 0 0 0 0 0 0 0 0 0 0 0 0 0 0 0 0 0 0 0 0 0
0 0 0 0 0 2513 2560 2630 2686 2699 2728 2762 2797 2824 2824 2824 2812 2791 2771 2767 2766 2761 2761 2715 2715 2715 2722 2729 2734 2757 2757 2779 2787 2792 2793 2822 2822 2844 2885 2891 2918 2956 2958 2958 2958 2923 2923 2923 2929 2969 2969 2969 2937 2929 2929 2929 2940 2947 2947 2953 2953 2953 2950 2927 2927 2927 2933 2933 2933 2935 2935 2935 2952 2963 2971 2978 2986 2996 3014 3015 3015 3014 3007 2994 2983 2978 2968 2961 2939 2929 2927 2923 2923 2910 2907 2888 2887 2879 2878 2873 2828 2806 2782 2763 2715 2645 2540 0 0 0 0 0 1341 1335 1335 1335 1335 1335 1336 1336 1337 1337 1337 1337 1337 1339 1340 1340 1342 1343 1344 1345 1346 1347 1348 1349 1350 1352 1353 1353 1354 1355 1356 1357 1358 1359 1361 1361 1363 1364 1365 1366 1367 1368 1369 1370 1371 1371 1372 1372 1375 1376 1378 1383 1384 1391 1391 1395 1396 1406 0 0 0 0 0 0 0 0 0 2566 2596 2628 2659 2694 2721 2739 2741 2744 2747 2760 2773 2775 2776 2776 2776 2776 2775 2770 2735 2724 2700 2695 2678 2671 2678 2678 2686 2719 2761 2789 2796 2802 2816 2836 2836 2836 2832 2818 2817 2817 2817 2824 2824 2824 2802 2798 2796 2791 2777 2731 2646 0 0 2359 2359 2359 2364 2365 2365 2365 2365 2356 2353 2348 2347 2345 2338 2338 2338 2340 2340 2340 2340 2340 2341 2341 2343 2346 2346 2346 2344 2341 2338 2335 2332 2328 2323 2320 2318 2318 2317 2315 2307 2282 2271 2238 2214 2191 2186 2178 2175 2170 2166 2152 2135 2095 0 0 1929 1929 1929 1934 1936 1937 1942 1943 1989 2041 2074 2087 2098 2107 2110 2110 2110 2109 2109 2109 2108 2107 2105 2104 2102 2099 2097 2095 2094 2092 2090 2088 2086 2085 2084 2083 2083 2081 2080 2079 2079 2077 2076 2075 2075 2075 2075 2075 2075 2075 2075 2074 2074 2073 2071 2070 2069 2067 2065 2062 2059 2056 2053 2050 2047 2044 2041 2039 2037 2035 2033 2031 2028 2028 2028 2028 2029 2030 2031 2032 2035 2037 2039 2041 2042 2043 2045 2045 2046 2046 2046 2046 2046 2045 2045 2043 2043 2041 2041 2040 2039 2038 2035 2032 2029 2025 2022 2019 2016 2014 2011 2010 2009 2009 2007 2007 2007 2007 2011 2015 2019 2022 2025 2028 2031 2036 2042 2044 2045 2046 2047 2048 2048 2048 2048 2048 2048 2048 2048 2048 2047 2046 2046 2046 2046 2046 2045 2045 2044 2044 2043 2042 2041 2041 2040 2039 2037 2037 2037 2037 2038 2039 2040 2042 2044 2047 2053 2058 2063 2067 2072 2077 2080 2082 2084 2087 2089 2089 2090 2092 2093 2095 2096 2098 2100 2102 2102 2103 2105 2107 2109 2110 2111 2112 2114 2115 2117 2121 2125 2130 2134 2140 2146 2151 2155 2163 2169 2170 2170 2170 2172 2173 2173 2173 2173 2171 2169 2166 2164 2161 2159 2157 2155 2153 2150 2147 2144 2142 2138 2135 2130 2129 2126 2122 2119 2115 2112 2112 2110 2110 2107 2103 2100 2098 2096 2092 2088 2086 2084 2082 2080 2078 2076 2075 2074 2075 2075 2075 2075 2075 2073 2073 2073 2074 2076 2077 2077 2077 2077 2077 2077 2077 2077 2076 2076 2076 2076 2076 2075 2074 2064 2061 2060 2051 2047 0 0 0 0 0 0 0 0 0 0 0 0 0 0 0 0 0 0 0 0 0 0 0 0 0 0 0 0 0 0 0 0 0 0 0 0 0 0 0 0 0 0 0 0 0 0 0 0 0 0 0 0 0 0 0 0 0 0 0 0 0 0 0 0 0 0 0
0 0 0 0 0 2513 2560 2630 2686 2699 2728 2780 2802 2824 2824 2824 2812 2801 2771 2767 2766 2761 2761 2752 2740 2740 2740 2767 2769 2794 2794 2794 2789 2789 2789 2821 2822 2844 2852 2857 2891 2929 2929 2929 2915 2912 2912 2915 2929 2979 2979 2979 2962 2935 2935 2935 2937 2942 2947 2955 2955 2955 2954 2951 2951 2951 2949 2948 2941 2938 2938 2938 2953 2963 2972 2978 2988 3005 3018 3022 3022 3022 3007 2994 2984 2980 2972 2962 2948 2938 2937 2937 2931 2918 2918 2892 2881 2879 2877 2873 2828 2806 2782 2763 2714 2634 2504 0 0 0 0 0 1338 1335 1335 1335 1336 1337 1337 1337 1337 1337 1338 1338 1339 1340 1341 1342 1343 1344 1345 1347 1348 1348 1350 1351 1351 1352 1353 1355 1355 1357 1357 1357 1359 1360 1361 1362 1363 1364 1366 1366 1367 1368 1369 1370 1371 1371 1372 1373 1375 1376 1378 1380 1382 1386 1388 1388 1390 1398 1414 1432 0 0 0 0 0 0 0 0 2501 2577 2620 2659 2683 2697 2701 2702 2720 2732 2747 2764 2766 2766 2766 2770 2770 2770 2754 2754 2750 2750 2750 2678 2678 2643 2675 2675 2681 2711 2751 2762 2762 2775 2789 2822 2822 2822 2817 2817 2817 2824 2824 2824 2815 2810 2809 2806 2779 2736 2646 0 0 2359 2359 2359 2361 2364 2367 2367 2367 2363 2357 2348 2347 2346 2341 2341 2341 2340 2340 2340 2340 2340 2341 2341 2343 2346 2346 2346 2346 2343 2341 2338 2336 2335 2328 2326 2326 2326 2326 2324 2319 2293 2273 2244 2214 2191 2186 2181 2176 2172 2168 2155 2138 2095 0 0 1948 1946 1946 1940 1942 1943 1943 1943 1987 2041 2069 2085 2098 2107 2113 2113 2113 2112 2111 2110 2109 2108 2107 2105 2102 2099 2097 2095 2094 2092 2090 2088 2086 2085 2084 2083 2082 2080 2079 2078 2078 2077 2076 2075 2075 2075 2075 2075 2075 2075 2075 2074 2074 2073 2071 2070 2068 2066 2063 2061 2058 2056 2053 2050 2047 2044 2041 2038 2036 2034 2031 2029 2028 2027 2027 2027 2028 2028 2029 2032 2035 2037 2039 2040 2041 2042 2044 2045 2045 2045 2045 2045 2045 2044 2043 2043 2042 2041 2040 2039 2038 2037 2034 2032 2029 2025 2022 2019 2017 2014 2011 2010 2008 2008 2007 2007 2007 2007 2009 2014 2018 2021 2025 2028 2030 2036 2042 2044 2045 2046 2047 2048 2048 2049 2049 2049 2049 2048 2048 2048 2048 2046 2046 2046 2046 2046 2046 2046 2045 2045 2043 2043 2041 2041 2040 2039 2037 2037 2037 2037 2038 2040 2041 2042 2046 2048 2054 2058 2063 2067 2073 2079 2082 2084 2087 2091 2092 2093 2094 2095 2097 2099 2099 2101 2103 2105 2105 2106 2107 2109 2110 2113 2115 2116 2117 2117 2118 2123 2128 2131 2135 2140 2147 2153 2157 2165 2170 2170 2170 2171 2173 2174 2174 2174 2174 2172 2170 2168 2166 2163 2162 2159 2157 2154 2151 2149 2146 2143 2139 2135 2133 2130 2127 2123 2119 2115 2112 2112 2112 2110 2107 2103 2100 2098 2097 2094 2089 2086 2085 2082 2080 2078 2076 2076 2076 2076 2076 2076 2076 2075 2074 2074 2074 2075 2076 2077 2077 2077 2077 2077 2077 2077 2077 2076 2076 2076 2076 2076 2075 2074 2065 2062 2054 2054 2052 2051 0 0 0 0 0 0 0 0 0 0 0 0 0 0 0 0 0 0 0 0 0 0 0 0 0 0 0 0 0 0 0 0 0 0 0 0 0 0 0 0 0 0 0 0 0 0 0 0 0 0 0 0 0 0 0 0 0 0 0 0 0 0 0 0 0 0
0 0 0 0 0 2537 2544 2573 2631 2687 2728 2780 2802 2802 2802 2799 2795 2794 2788 2788 2788 2795 2795 2795 2782 2770 2770 2770 2801 2801 2801 2794 2781 2781 2781 2781 2781 2792 2792 2822 2878 2883 2883 2891 2891 2891 2898 2908 2930 2979 2979 2979 2979 2953 2937 2937 2937 2943 2947 2955 2955 2955 2954 2954 2954 2954 2962 2962 2962 2938 2938 2938 2953 2963 2972 2978 2993 3006 3018 3031 3031 3031 3007 2994 2985 2983 2974 2964 2960 2960 2957 2938 2932 2918 2918 2894 2881 2879 2874 2866 2809 2787 2775 2755 2714 2626 0 0 0 0 0 1343 1338 1335 1335 1335 1337 1337 1337 1337 1338 1338 1339 1340 1340 1341 1342 1344 1344 1346 1346 1347 1348 1350 1351 1352 1352 1353 1355 1356 1357 1357 1358 1359 1361 1362 1362 1363 1365 1365 1366 1367 1368 1369 1370 1370 1371 1371 1373 1374 1375 1376 1377 1379 1382 1386 1386 1387 1389 1391 1400 1413 1429 1439 0 0 0 0 0 0 0 0 2542 2589 2616 2634 2641 2644 2655 2679 2701 2719 2720 2729 2743 2743 2743 2737 2737 2737 2754 2754 2754 2752 2681 2678 2675 2675 2675 2675 2685 2705 2719 2719 2744 2796 2811 2812 2817 2817 2817 2824 2824 2824 2815 2810 2809 2806 2779 2738 2654 0 0 2365 2361 2361 2361 2364 2368 2368 2368 2363 2359 2354 2347 2346 2343 2342 2341 2340 2340 2340 2340 2340 2342 2343 2343 2347 2349 2349 2349 2349 2347 2345 2342 2340 2335 2333 2333 2331 2330 2328 2326 2306 2273 2247 2215 2191 2186 2182 2178 2175 2174 2166 2141 2120 2099 0 1990 1958 1950 1946 1946 1942 1942 1942 1969 2009 2046 2085 2101 2107 2114 2114 2115 2115 2114 2112 2110 2108 2107 2105 2103 2100 2097 2096 2094 2092 2090 2089 2087 2085 2084 2083 2082 2080 2078 2077 2077 2076 2076 2075 2075 2074 2074 2074 2075 2075 2075 2074 2074 2072 2071 2070 2068 2065 2062 2060 2057 2055 2052 2050 2046 2044 2041 2038 2035 2032 2029 2027 2026 2025 2025 2025 2025 2026 2026 2029 2032 2034 2037 2039 2039 2040 2042 2042 2044 2045 2045 2045 2043 2043 2043 2042 2042 2041 2040 2039 2037 2036 2034 2032 2029 2025 2022 2019 2017 2014 2011 2009 2008 2007 2007 2006 2006 2006 2009 2012 2018 2021 2024 2027 2030 2036 2042 2043 2045 2046 2047 2048 2048 2049 2049 2049 2049 2049 2048 2048 2048 2047 2046 2046 2046 2046 2046 2046 2046 2045 2045 2044 2043 2041 2040 2039 2037 2037 2037 2037 2038 2040 2042 2045 2048 2051 2054 2059 2064 2068 2073 2079 2083 2087 2090 2094 2096 2097 2097 2098 2099 2102 2103 2103 2105 2106 2108 2109 2110 2112 2112 2114 2116 2119 2120 2120 2120 2123 2129 2134 2138 2143 2148 2153 2159 2167 2171 2172 2173 2174 2174 2175 2175 2175 2175 2174 2172 2170 2167 2165 2163 2161 2159 2155 2153 2149 2147 2144 2140 2138 2134 2131 2128 2125 2121 2117 2114 2112 2112 2110 2107 2103 2100 2098 2097 2094 2089 2086 2085 2083 2081 2079 2077 2077 2077 2078 2078 2078 2076 2076 2076 2076 2076 2076 2076 2077 2077 2077 2078 2078 2078 2078 2077 2077 2077 2076 2076 2076 2076 2076 2071 2062 2054 2054 2054 2051 2041 1974 0 0 0 0 0 0 0 0 0 0 0 0 0 0 0 0 0 0 0 0 0 0 0 0 0 0 0 0 0 0 0 0 0 0 0 0 0 0 0 0 0 0 0 0 0 0 0 0 0 0 0 0 0 0 0 0 0 0 0 0 0 0 0 0
0 0 0 0 0 2474 2544 2558 2567 2639 2704 2780 2802 2802 2802 2794 2793 2791 2791 2791 2791 2797 2797 2797 2797 2797 2810 2812 2812 2812 2801 2794 2761 2761 2742 2742 2742 2742 2746 2800 2859 2862 2876 2879 2891 2891 2898 2918 2930 2961 2985 2985 2985 2966 2940 2940 2940 2943 2947 2959 2959 2959 2957 2955 2955 2957 2968 2969 2969 2969 2967 2967 2967 2974 2977 2986 2997 3006 3018 3022 3029 3029 3029 3010 2994 2986 2974 2966 2963 2960 2957 2938 2932 2918 2918 2905 2882 2881 2872 2857 2794 2787 2763 2737 2700 2583 0 0 0 0 0 1343 1340 1338 1337 1337 1338 1338 1338 1338 1339 1339 1340 1340 1342 1343 1344 1345 1346 1347 1347 1348 1350 1351 1351 1352 1354 1355 1356 1356 1357 1359 1359 1360 1361 1362 1363 1365 1365 1365 1367 1367 1368 1369 1370 1371 1371 1371 1373 1374 1375 1376 1377 1379 1382 1386 1386 1386 1386 1389 1392 1400 1412 1424 1428 0 0 0 0 0 0 0 0 0 0 2556 2585 2604 2619 2629 2645 2665 2667 2692 2713 2721 2722 2724 2724 2728 2754 2754 2754 2752 2749 2715 2681 2681 2675 2644 2661 2661 2661 2684 2744 2795 2811 2812 2817 2817 2817 2824 2824 2824 2815 2810 2809 2806 2779 2743 2653 0 0 2374 2367 2364 2364 2364 2368 2368 2368 2363 2359 2354 2350 2348 2347 2347 2343 2343 2343 2343 2343 2344 2344 2344 2344 2347 2349 2351 2351 2351 2351 2351 2347 2344 2340 2340 2338 2335 2334 2333 2332 2314 2274 2258 2232 2209 2186 2182 2182 2181 2179 2176 2163 2140 2124 0 1999 1967 1951 1948 1946 1943 1943 1943 1969 2004 2042 2080 2101 2108 2114 2115 2115 2115 2115 2113 2111 2109 2108 2106 2104 2101 2098 2096 2094 2092 2090 2089 2087 2085 2084 2083 2081 2080 2078 2077 2077 2076 2076 2075 2075 2074 2074 2074 2074 2074 2074 2074 2073 2072 2070 2068 2067 2065 2061 2059 2057 2055 2052 2049 2046 2042 2041 2038 2033 2031 2029 2027 2024 2023 2023 2023 2023 2024 2025 2028 2030 2033 2035 2037 2038 2038 2040 2041 2043 2044 2044 2044 2043 2042 2042 2042 2042 2041 2040 2039 2037 2035 2034 2032 2029 2025 2022 2020 2017 2014 2011 2009 2007 2006 2005 2005 2005 2006 2009 2010 2013 2019 2023 2026 2029 2036 2040 2041 2043 2045 2047 2048 2049 2049 2049 2049 2049 2049 2048 2048 2048 2047 2046 2046 2046 2046 2046 2046 2046 2046 2045 2044 2043 2041 2040 2039 2038 2038 2038 2038 2039 2040 2043 2047 2049 2052 2054 2059 2064 2069 2074 2082 2086 2089 2094 2097 2099 2100 2100 2101 2102 2103 2105 2106 2107 2109 2110 2112 2114 2114 2115 2116 2119 2121 2122 2123 2124 2125 2132 2138 2141 2146 2152 2157 2161 2170 2175 2177 2177 2177 2177 2177 2177 2177 2177 2175 2173 2172 2170 2167 2165 2163 2160 2157 2154 2151 2147 2145 2142 2138 2134 2132 2129 2126 2123 2119 2115 2113 2112 2109 2106 2101 2099 2098 2097 2094 2089 2087 2085 2084 2083 2080 2078 2078 2078 2078 2078 2078 2078 2077 2077 2077 2077 2077 2077 2077 2077 2078 2079 2079 2079 2079 2078 2078 2078 2078 2078 2078 2078 2078 2073 2062 2055 2055 2054 2051 2045 2011 0 0 0 0 0 0 0 0 0 0 0 0 0 0 0 0 0 0 0 0 0 0 0 0 0 0 0 0 0 0 0 0 0 0 0 0 0 0 0 0 0 0 0 0 0 0 0 0 0 0 0 0 0 0 0 0 0 0 0 0 0 0 0 0
0 0 0 0 0 2456 2544 2558 2567 2575 2641 2729 2779 2781 2789 2789 2789 2783 2783 2783 2791 2808 2823 2826 2827 2826 2826 2818 2817 2812 2779 2729 2728 2728 2721 2728 2729 2733 2746 2789 2821 2826 2857 2870 2872 2891 2898 2918 2930 2961 2988 2988 2988 2967 2958 2952 2949 2949 2952 2959 2960 2960 2959 2958 2958 2958 2968 2987 2988 2995 2995 2995 2994 2994 2994 3000 3002 3006 3007 3014 3031 3031 3031 3024 3003 2987 2976 2967 2965 2960 2957 2938 2932 2915 2909 2905 2882 2881 2856 2805 2794 2787 2762 2720 2663 2519 0 0 0 0 0 1343 1340 1339 1339 1339 1340 1340 1340 1340 1340 1340 1341 1341 1343 1343 1344 1345 1347 1347 1349 1349 1350 1351 1352 1354 1355 1356 1356 1358 1358 1360 1360 1362 1362 1363 1364 1366 1366 1367 1367 1368 1369 1370 1371 1371 1372 1373 1373 1374 1375 1376 1377 1379 1382 1385 1386 1386 1386 1387 1390 1399 1408 1418 1419 1423 1425 0 0 0 0 0 0 0 0 0 0 2533 2567 2593 2616 2617 2636 2657 2685 2697 2702 2703 2704 2721 2742 2752 2752 2752 2749 2743 2727 2706 2694 2685 2661 2661 2661 2684 2724 2765 2793 2795 2798 2808 2814 2815 2815 2814 2800 2800 2790 2789 2779 2743 2636 0 2397 2374 2367 2367 2365 2365 2365 2365 2365 2363 2359 2354 2351 2349 2349 2349 2348 2346 2344 2344 2344 2345 2345 2345 2345 2346 2349 2352 2352 2355 2355 2355 2351 2348 2346 2345 2344 2339 2336 2335 2335 2317 2284 2261 2249 2218 2192 2189 2184 2182 2179 2176 2163 2146 2126 2056 2009 1981 1960 1955 1943 1942 1942 1943 1967 2000 2020 2071 2101 2108 2114 2115 2115 2115 2115 2113 2113 2111 2109 2107 2105 2102 2100 2097 2095 2093 2091 2089 2087 2085 2084 2082 2081 2080 2078 2077 2076 2076 2075 2075 2074 2074 2074 2074 2074 2074 2074 2073 2072 2071 2070 2068 2067 2064 2061 2059 2057 2055 2052 2049 2046 2042 2040 2037 2033 2030 2027 2026 2024 2023 2022 2022 2023 2023 2025 2026 2028 2031 2033 2035 2036 2038 2038 2040 2041 2042 2043 2043 2043 2042 2042 2042 2041 2041 2040 2038 2037 2035 2034 2032 2029 2025 2022 2020 2017 2014 2011 2008 2007 2005 2005 2003 2003 2003 2006 2009 2011 2015 2019 2023 2029 2036 2037 2040 2042 2044 2047 2048 2049 2049 2049 2049 2049 2049 2048 2048 2048 2047 2047 2047 2047 2047 2046 2046 2046 2046 2045 2044 2043 2042 2040 2039 2038 2038 2038 2038 2039 2041 2043 2047 2050 2052 2056 2060 2066 2071 2077 2084 2088 2092 2094 2098 2101 2103 2103 2105 2105 2106 2107 2109 2110 2110 2112 2115 2116 2117 2117 2118 2120 2122 2125 2127 2128 2130 2136 2140 2144 2150 2156 2161 2165 2173 2178 2181 2181 2181 2181 2179 2179 2178 2177 2175 2173 2172 2171 2170 2167 2164 2161 2158 2154 2151 2149 2146 2142 2139 2136 2133 2129 2126 2123 2120 2115 2113 2111 2109 2104 2100 2098 2097 2096 2094 2089 2087 2086 2086 2085 2082 2081 2080 2080 2079 2079 2079 2079 2079 2079 2078 2078 2078 2077 2077 2077 2078 2080 2081 2081 2081 2079 2079 2078 2078 2078 2078 2078 2078 2077 2070 2063 2063 2061 2060 2052 2020 0 0 0 0 0 0 0 0 0 0 0 0 0 0 0 0 0 0 0 0 0 0 0 0 0 0 0 0 0 0 0 0 0 0 0 0 0 0 0 0 0 0 0 0 0 0 0 0 0 0 0 0 0 0 0 0 0 0 0 0 0 0 0 0
0 0 0 0 2456 2497 2558 2567 2572 2575 2591 2675 2679 2738 2749 2750 2755 2755 2755 2770 2791 2808 2823 2826 2827 2826 2826 2818 2812 2778 2775 2729 2728 2728 2721 2728 2729 2733 2746 2750 2759 2763 2799 2850 2870 2894 2931 2938 2942 2961 2990 2990 2990 2977 2976 2974 2959 2959 2959 2959 2964 2964 2959 2958 2958 2958 2963 2982 2987 2995 2995 2995 2995 2995 2996 3000 3002 3006 3007 3014 3024 3025 3025 3025 3008 2992 2984 2975 2965 2960 2948 2938 2931 2912 2905 2905 2882 2881 2816 2792 2791 2787 2762 2713 2616 0 0 0 0 0 1348 1344 1344 1342 1340 1340 1340 1340 1340 1340 1340 1340 1341 1343 1343 1344 1345 1346 1347 1348 1350 1350 1352 1352 1353 1354 1355 1357 1357 1359 1360 1360 1362 1362 1363 1364 1365 1366 1367 1367 1368 1369 1370 1371 1372 1372 1373 1374 1374 1374 1376 1377 1379 1381 1382 1385 1386 1386 1386 1387 1390 1394 1398 1405 1408 1410 1411 1413 1433 0 0 0 0 0 0 0 0 0 0 2518 2520 2554 2579 2607 2637 2654 2661 2670 2677 2682 2706 2731 2740 2743 2747 2747 2743 2743 2737 2733 2661 2661 2661 2666 2674 2722 2749 2757 2771 2792 2798 2799 2799 2798 2783 2783 2780 2779 2779 2743 2636 0 2397 2374 2367 2367 2365 2365 2365 2365 2365 2363 2357 2355 2355 2354 2351 2351 2351 2346 2345 2345 2345 2345 2345 2345 2345 2346 2349 2352 2353 2357 2357 2357 2357 2353 2353 2352 2349 2341 2338 2338 2337 2337 2319 2269 2256 2226 2198 2190 2184 2182 2179 2176 2164 2146 2130 2110 2055 2015 1976 1948 1940 1940 1940 1949 1957 1985 2015 2071 2101 2108 2114 2117 2117 2117 2116 2113 2113 2112 2110 2108 2106 2104 2101 2098 2096 2093 2092 2090 2087 2086 2084 2082 2081 2080 2079 2077 2076 2075 2075 2075 2074 2074 2074 2074 2074 2074 2074 2072 2071 2070 2069 2068 2067 2064 2061 2059 2057 2054 2052 2049 2045 2042 2040 2036 2033 2029 2027 2026 2023 2022 2022 2022 2022 2022 2024 2026 2027 2029 2032 2034 2035 2036 2037 2040 2041 2042 2043 2043 2043 2042 2042 2042 2041 2041 2039 2038 2037 2035 2034 2032 2028 2025 2022 2020 2017 2014 2011 2008 2006 2004 2002 2002 2002 2002 2004 2006 2008 2010 2015 2019 2024 2033 2037 2039 2042 2044 2045 2047 2048 2049 2049 2049 2049 2049 2048 2048 2048 2048 2047 2047 2047 2047 2046 2046 2046 2046 2046 2045 2044 2043 2041 2040 2038 2038 2038 2038 2039 2041 2044 2047 2051 2052 2057 2060 2068 2074 2078 2085 2089 2092 2096 2100 2101 2103 2106 2107 2108 2108 2110 2110 2112 2113 2114 2116 2118 2119 2120 2120 2122 2125 2128 2132 2133 2135 2139 2142 2145 2153 2160 2165 2168 2173 2178 2184 2184 2184 2184 2182 2182 2180 2179 2176 2174 2174 2172 2170 2168 2166 2162 2158 2155 2153 2150 2147 2143 2141 2138 2134 2130 2126 2123 2120 2115 2113 2111 2107 2104 2099 2097 2096 2096 2093 2089 2088 2088 2088 2088 2086 2086 2085 2084 2084 2083 2081 2081 2080 2080 2080 2080 2079 2079 2079 2079 2079 2080 2081 2081 2081 2081 2081 2079 2079 2079 2078 2078 2078 2077 2074 2070 2069 2067 2065 2052 2026 0 0 0 0 0 0 0 0 0 0 0 0 0 0 0 0 0 0 0 0 0 0 0 0 0 0 0 0 0 0 0 0 0 0 0 0 0 0 0 0 0 0 0 0 0 0 0 0 0 0 0 0 0 0 0 0 0 0 0 0 0 0 0 0
2413 2413 2413 2457 2489 2497 2571 2575 2585 2585 2585 2647 2651 2692 2692 2692 2704 2704 2754 2769 2780 2797 2823 2826 2827 2826 2826 2818 2788 2778 2775 2729 2728 2728 2728 2729 2742 2746 2749 2750 2759 2763 2799 2842 2881 2914 2944 2946 2954 2961 2988 2988 2988 2988 2983 2980 2973 2966 2966 2966 2969 2969 2969 2969 2963 2963 2963 2971 2984 2995 2995 2995 2995 2995 2996 3003 3005 3006 3007 3014 3024 3025 3025 3025 3008 3007 3000 2989 2965 2952 2946 2934 2932 2912 2901 2884 2863 2828 2812 2792 2787 2785 2757 2692 2593 0 0 0 0 0 1346 1344 1344 1342 1340 1340 1340 1340 1341 1341 1341 1341 1342 1343 1344 1345 1345 1347 1348 1349 1350 1351 1353 1354 1355 1355 1356 1358 1359 1359 1360 1361 1362 1363 1364 1365 1367 1367 1367 1368 1369 1370 1371 1371 1372 1373 1374 1375 1375 1376 1377 1379 1381 1381 1383 1385 1387 1387 1387 1388 1391 1394 1398 1402 1404 1405 1408 1408 1409 1420 1424 0 0 0 0 0 0 0 0 0 0 0 2491 2535 2574 2590 2604 2607 2631 2656 2681 2710 2720 2730 2735 2743 2743 2743 2739 2734 2729 2684 2674 2666 2666 2674 2685 2720 2736 2750 2762 2766 2766 2769 2769 2769 2769 2769 2769 2705 2580 0 2394 2367 2363 2363 2363 2365 2364 2364 2364 2363 2357 2356 2356 2355 2355 2355 2352 2348 2345 2345 2345 2345 2345 2346 2346 2346 2350 2352 2353 2359 2359 2359 2358 2358 2357 2355 2351 2341 2341 2341 2339 2339 2333 2274 2260 2234 2205 2192 2186 2182 2181 2176 2167 2155 2133 2120 2074 2030 1996 1948 1938 1938 1938 1949 1957 1977 2015 2071 2101 2108 2114 2117 2117 2117 2116 2115 2114 2113 2111 2110 2107 2104 2102 2099 2097 2095 2092 2091 2088 2086 2084 2083 2081 2080 2079 2077 2076 2075 2075 2075 2074 2074 2074 2074 2073 2073 2073 2072 2071 2070 2068 2067 2065 2064 2061 2059 2056 2054 2051 2048 2045 2041 2039 2036 2032 2029 2026 2023 2022 2021 2021 2021 2021 2022 2024 2025 2027 2029 2031 2033 2035 2036 2037 2040 2041 2042 2042 2042 2042 2042 2042 2042 2041 2040 2039 2038 2037 2035 2033 2031 2028 2025 2022 2019 2017 2013 2011 2008 2006 2004 2002 2002 2002 2002 2002 2004 2006 2008 2010 2013 2019 2028 2035 2039 2041 2043 2045 2047 2047 2048 2049 2049 2049 2049 2048 2048 2048 2048 2047 2047 2047 2047 2046 2046 2046 2046 2046 2045 2044 2043 2042 2041 2040 2039 2039 2039 2040 2041 2045 2048 2051 2054 2057 2061 2070 2077 2082 2086 2090 2092 2097 2100 2102 2104 2106 2108 2110 2110 2111 2112 2113 2114 2116 2117 2119 2120 2121 2123 2125 2128 2132 2135 2137 2141 2143 2145 2147 2156 2165 2169 2172 2176 2179 2185 2186 2186 2186 2186 2185 2185 2183 2181 2177 2175 2173 2171 2169 2167 2164 2160 2157 2154 2152 2149 2145 2143 2141 2139 2133 2127 2123 2121 2116 2113 2110 2106 2101 2098 2096 2096 2095 2093 2090 2089 2089 2089 2089 2089 2089 2089 2088 2087 2086 2085 2084 2083 2083 2083 2083 2082 2081 2080 2080 2080 2081 2082 2082 2082 2082 2081 2080 2079 2079 2079 2079 2079 2077 2077 2075 2072 2067 2065 2052 2032 2018 0 0 0 0 0 0 0 0 0 0 0 0 0 0 0 0 0 0 0 0 0 0 0 0 0 0 0 0 0 0 0 0 0 0 0 0 0 0 0 0 0 0 0 0 0 0 0 0 0 0 0 0 0 0 0 0 0 0 0 0 0 0 0
2413 2413 2464 2497 2509 2562 2617 2617 2617 2602 2602 2602 2606 2648 2648 2656 2674 2677 2692 2725 2758 2784 2793 2796 2805 2805 2805 2791 2775 2768 2768 2768 2775 2776 2777 2778 2778 2778 2759 2759 2759 2763 2799 2842 2882 2914 2946 2953 2954 2961 2988 2989 2989 2989 2986 2984 2979 2970 2970 2970 2977 2981 2981 2981 2976 2971 2971 2971 2971 2981 2988 2992 2992 2995 2996 3003 3013 3025 3025 3030 3030 3025 3024 3024 3012 3012 3010 2994 2967 2949 2946 2934 2932 2912 2901 2881 2853 2828 2812 2792 2787 2785 2724 2641 2535 0 0 0 0 0 1344 1344 1342 1342 1340 1340 1340 1340 1341 1341 1341 1342 1342 1344 1345 1345 1347 1348 1349 1350 1352 1352 1353 1354 1356 1356 1357 1359 1360 1360 1361 1363 1364 1364 1365 1366 1368 1368 1369 1369 1370 1371 1372 1373 1374 1374 1375 1376 1376 1377 1379 1379 1381 1382 1384 1386 1388 1389 1389 1389 1391 1394 1398 1400 1403 1405 1405 1406 1406 1406 1414 1425 1432 1435 0 0 0 0 0 0 0 0 0 0 0 0 2518 2549 2587 2625 2655 2682 2700 2703 2715 2720 2739 2739 2739 2734 2729 2720 2701 2674 2674 2666 2674 2685 2688 2698 2718 2742 2753 2753 2758 2768 2768 2768 2767 2698 2545 0 2372 2358 2358 2358 2363 2363 2364 2364 2364 2363 2357 2357 2357 2356 2356 2355 2353 2350 2347 2347 2347 2347 2346 2346 2346 2346 2350 2354 2355 2359 2361 2361 2361 2359 2358 2356 2351 2342 2342 2342 2340 2340 2335 2297 2263 2244 2212 2193 2186 2182 2181 2176 2171 2155 2145 2139 2089 2038 1996 1945 1945 1945 1945 1952 1958 1966 2003 2070 2101 2105 2114 2117 2117 2117 2116 2115 2115 2114 2112 2110 2107 2104 2102 2099 2097 2095 2092 2091 2089 2086 2084 2083 2081 2080 2079 2077 2076 2075 2075 2075 2074 2074 2074 2074 2073 2073 2073 2072 2070 2069 2067 2065 2064 2062 2060 2058 2056 2054 2051 2048 2044 2041 2038 2036 2032 2027 2023 2022 2020 2019 2019 2019 2020 2021 2023 2025 2026 2028 2030 2032 2034 2036 2037 2039 2040 2042 2042 2042 2042 2042 2042 2042 2040 2039 2038 2037 2035 2035 2033 2031 2027 2025 2022 2019 2016 2013 2011 2008 2006 2004 2002 2002 2002 2002 2002 2003 2003 2005 2008 2011 2016 2022 2032 2039 2041 2043 2045 2046 2047 2048 2049 2049 2049 2049 2049 2048 2048 2048 2047 2047 2047 2047 2047 2047 2046 2046 2046 2046 2045 2044 2044 2043 2041 2041 2041 2041 2042 2043 2045 2049 2051 2054 2057 2061 2070 2077 2082 2087 2090 2094 2098 2101 2102 2105 2108 2111 2111 2112 2113 2114 2115 2116 2118 2119 2121 2122 2124 2125 2127 2130 2134 2138 2141 2144 2149 2150 2154 2160 2169 2173 2176 2180 2184 2187 2189 2189 2189 2189 2189 2188 2186 2184 2182 2179 2177 2174 2172 2169 2167 2164 2159 2156 2153 2150 2147 2144 2143 2140 2136 2130 2123 2122 2118 2113 2108 2103 2100 2096 2095 2094 2094 2093 2091 2090 2090 2090 2090 2090 2090 2090 2089 2089 2089 2089 2088 2086 2086 2085 2084 2082 2082 2081 2081 2081 2081 2083 2083 2083 2083 2082 2081 2080 2080 2080 2079 2079 2079 2077 2076 2073 2070 2059 2048 2032 2018 1983 0 0 0 0 0 0 0 0 0 0 0 0 0 0 0 0 0 0 0 0 0 0 0 0 0 0 0 0 0 0 0 0 0 0 0 0 0 0 0 0 0 0 0 0 0 0 0 0 0 0 0 0 0 0 0 0 0 0 0 0 0 0
2483 2483 2510 2520 2535 2562 2617 2617 2617 2582 2582 2582 2594 2631 2631 2631 2633 2633 2633 2669 2716 2751 2768 2781 2791 2791 2791 2775 2775 2775 2781 2818 2821 2837 2868 2868 2868 2832 2817 2813 2812 2812 2812 2842 2884 2923 2949 2953 2961 2961 2961 2988 2988 2989 2989 2988 2980 2972 2972 2972 2978 2981 2981 2981 2981 2971 2971 2971 2971 2971 2973 2976 2985 2990 2992 3003 3013 3025 3025 3030 3030 3025 3024 3024 3013 3013 3010 3002 2978 2949 2946 2940 2934 2933 2901 2881 2853 2828 2812 2798 2776 2752 2681 2595 2476 0 0 0 0 1357 1341 1340 1339 1339 1338 1338 1338 1340 1341 1341 1342 1342 1343 1344 1346 1347 1348 1349 1350 1351 1352 1353 1354 1355 1356 1357 1358 1359 1360 1361 1362 1363 1364 1365 1366 1367 1369 1369 1370 1370 1372 1372 1373 1374 1374 1375 1376 1377 1377 1378 1380 1381 1382 1384 1385 1386 1388 1390 1391 1392 1394 1396 1398 1400 1400 1401 1403 1403 1404 1406 1409 1412 1413 1418 1429 1434 0 0 0 0 0 0 0 0 0 0 0 2471 2514 2556 2592 2625 2647 2666 2715 2718 2731 2734 2734 2734 2729 2720 2716 2712 2701 2685 2685 2685 2688 2692 2698 2709 2731 2743 2745 2761 2761 2761 2761 2657 2526 0 2371 2358 2358 2358 2363 2365 2365 2365 2365 2365 2364 2360 2359 2359 2357 2355 2353 2351 2348 2348 2348 2348 2348 2348 2349 2349 2350 2354 2357 2360 2362 2362 2362 2362 2359 2357 2351 2348 2348 2348 2348 2348 2336 2309 2266 2251 2222 2197 2193 2190 2186 2185 2179 2169 2155 2142 2094 2039 1996 1945 1945 1945 1945 1952 1958 1966 2003 2043 2081 2103 2113 2118 2118 2118 2118 2117 2117 2115 2112 2110 2108 2105 2103 2100 2098 2095 2092 2091 2089 2087 2085 2083 2081 2080 2079 2077 2076 2076 2075 2075 2074 2074 2074 2073 2073 2073 2073 2072 2070 2068 2066 2065 2063 2061 2059 2058 2056 2053 2050 2046 2043 2040 2038 2035 2031 2026 2023 2021 2019 2018 2018 2018 2018 2020 2022 2023 2025 2027 2030 2031 2033 2035 2037 2038 2040 2042 2042 2042 2042 2042 2042 2041 2040 2039 2038 2036 2035 2034 2032 2030 2027 2024 2022 2019 2016 2013 2011 2008 2006 2004 2002 2002 2001 2001 2001 2001 2002 2004 2006 2010 2015 2020 2027 2035 2041 2043 2044 2046 2047 2047 2048 2049 2049 2049 2049 2049 2048 2048 2048 2048 2048 2048 2048 2047 2047 2047 2047 2047 2047 2046 2046 2044 2044 2044 2044 2044 2044 2046 2047 2049 2052 2055 2057 2062 2071 2078 2083 2087 2091 2096 2102 2105 2105 2107 2109 2112 2114 2115 2116 2117 2118 2119 2121 2122 2122 2124 2125 2126 2129 2133 2136 2139 2144 2147 2151 2154 2158 2166 2174 2178 2180 2187 2189 2189 2190 2190 2190 2190 2190 2189 2189 2186 2184 2182 2179 2177 2175 2172 2169 2166 2162 2159 2156 2152 2148 2145 2144 2141 2138 2132 2126 2123 2118 2113 2107 2103 2100 2096 2095 2094 2094 2093 2091 2091 2091 2090 2090 2090 2090 2090 2090 2090 2090 2090 2088 2088 2088 2088 2085 2083 2083 2082 2082 2082 2083 2083 2084 2084 2084 2083 2083 2081 2081 2081 2080 2080 2079 2078 2077 2073 2070 2059 2045 2032 2019 2012 0 0 0 0 0 0 0 0 0 0 0 0 0 0 0 0 0 0 0 0 0 0 0 0 0 0 0 0 0 0 0 0 0 0 0 0 0 0 0 0 0 0 0 0 0 0 0 0 0 0 0 0 0 0 0 0 0 0 0 0 0 0
2491 2491 2510 2520 2535 2562 2594 2594 2594 2578 2578 2578 2589 2631 2631 2631 2625 2624 2624 2625 2656 2706 2738 2762 2780 2780 2780 2774 2774 2774 2781 2821 2829 2865 2881 2894 2909 2918 2918 2918 2898 2859 2859 2859 2885 2923 2949 2953 2961 2963 2963 2985 2989 2989 2989 2989 2986 2981 2979 2979 2979 2987 2987 2987 2984 2977 2976 2972 2972 2972 2973 2976 2985 2990 2990 3005 3013 3025 3025 3028 3025 3024 3022 3019 3016 3016 3016 3009 2979 2949 2947 2944 2944 2939 2924 2881 2853 2843 2828 2798 2744 2689 2622 2559 2457 0 0 0 0 1354 1341 1340 1339 1338 1338 1338 1338 1341 1342 1342 1343 1344 1344 1345 1346 1347 1349 1350 1352 1352 1353 1354 1355 1356 1357 1358 1359 1360 1362 1363 1364 1365 1365 1367 1368 1369 1370 1370 1371 1372 1373 1373 1374 1375 1376 1376 1377 1378 1378 1379 1380 1382 1385 1385 1386 1387 1388 1390 1391 1392 1395 1397 1398 1399 1399 1400 1401 1403 1404 1406 1409 1411 1412 1415 1423 1426 1429 0 0 0 0 0 0 0 0 0 0 2327 2412 2469 2506 2541 2647 2666 2684 2689 2697 2711 2725 2725 2725 2720 2720 2720 2716 2716 2710 2698 2692 2692 2692 2698 2702 2703 2724 2739 2746 2746 2746 2656 2520 0 2371 2357 2357 2357 2363 2365 2365 2365 2365 2365 2364 2361 2359 2359 2357 2355 2353 2351 2350 2348 2348 2348 2349 2350 2351 2351 2352 2354 2357 2360 2362 2365 2365 2365 2362 2361 2358 2355 2355 2354 2354 2353 2342 2320 2274 2261 2231 2206 2198 2196 2192 2187 2179 2171 2159 2144 2097 2039 2000 1945 1945 1945 1950 1952 1958 1966 2003 2043 2076 2100 2112 2119 2119 2119 2119 2119 2119 2115 2113 2111 2108 2106 2103 2101 2099 2095 2092 2091 2090 2087 2085 2083 2081 2080 2078 2077 2076 2076 2075 2075 2074 2074 2074 2073 2073 2072 2072 2071 2070 2068 2066 2064 2063 2061 2059 2056 2053 2050 2047 2044 2041 2039 2037 2034 2029 2025 2023 2021 2019 2018 2018 2018 2018 2018 2020 2023 2025 2026 2028 2030 2032 2035 2036 2038 2039 2041 2041 2042 2042 2042 2041 2040 2040 2038 2037 2035 2034 2033 2032 2029 2027 2024 2022 2019 2016 2013 2011 2008 2006 2004 2003 2002 2001 2000 2000 2000 2000 2002 2004 2008 2014 2018 2023 2031 2039 2042 2044 2045 2047 2047 2048 2048 2049 2049 2049 2049 2048 2048 2048 2048 2048 2048 2048 2048 2048 2048 2048 2047 2047 2047 2046 2046 2045 2045 2045 2045 2046 2047 2048 2050 2052 2055 2058 2062 2071 2078 2084 2089 2095 2099 2105 2109 2110 2111 2112 2114 2117 2119 2120 2121 2121 2121 2123 2124 2125 2126 2127 2128 2131 2134 2137 2141 2145 2148 2152 2156 2163 2169 2175 2180 2186 2191 2192 2192 2192 2192 2192 2191 2191 2191 2190 2188 2187 2184 2182 2180 2178 2175 2171 2168 2164 2161 2157 2154 2150 2147 2144 2141 2139 2132 2127 2123 2118 2113 2107 2102 2100 2096 2095 2094 2094 2093 2092 2092 2092 2092 2092 2092 2092 2093 2093 2093 2092 2091 2090 2090 2089 2088 2087 2085 2084 2084 2084 2085 2085 2085 2085 2085 2085 2084 2084 2083 2083 2082 2082 2082 2080 2078 2075 2073 2070 2059 2041 2026 2026 2022 2020 0 0 0 0 0 0 0 0 0 0 0 0 0 0 0 0 0 0 0 0 0 0 0 0 0 0 0 0 0 0 0 0 0 0 0 0 0 0 0 0 0 0 0 0 0 0 0 0 0 0 0 0 0 0 0 0 0 0 0 0 0
2491 2491 2510 2520 2535 2556 2584 2584 2584 2565 2565 2565 2585 2631 2633 2633 2633 2625 2625 2625 2630 2668 2705 2732 2735 2750 2750 2750 2759 2759 2781 2821 2829 2865 2881 2894 2909 2918 2918 2918 2898 2878 2878 2878 2902 2923 2949 2953 2961 2963 2963 2966 2968 2986 2990 3011 3011 3011 3008 2998 2998 2998 2998 2998 2993 2991 2990 2987 2973 2973 2973 2976 2985 2990 2990 3005 3011 3020 3024 3024 3024 3019 3019 3018 3017 3016 3016 3010 2992 2992 2970 2955 2953 2944 2924 2897 2871 2858 2844 2798 2735 2665 2594 0 0 0 0 0 1382 1350 1342 1341 1339 1338 1338 1338 1338 1341 1342 1342 1343 1344 1345 1345 1347 1348 1350 1351 1352 1353 1354 1354 1355 1356 1358 1359 1361 1362 1362 1363 1365 1366 1367 1367 1368 1369 1370 1372 1372 1373 1373 1374 1374 1375 1376 1377 1378 1379 1380 1381 1381 1383 1385 1386 1387 1388 1389 1391 1392 1393 1395 1397 1399 1399 1399 1400 1401 1403 1404 1407 1409 1411 1411 1411 1412 1418 1420 1424 1425 1431 1447 1452 0 0 0 0 0 0 0 0 0 0 2570 2596 2617 2633 2650 2673 2695 2705 2706 2707 2712 2716 2726 2732 2733 2733 2733 2719 2703 2694 2692 2683 2683 2694 2688 2688 2688 2612 0 2405 2372 2356 2356 2356 2363 2364 2364 2365 2364 2364 2364 2361 2359 2359 2357 2355 2354 2352 2350 2349 2349 2349 2350 2351 2351 2353 2353 2355 2357 2360 2362 2365 2365 2365 2364 2364 2362 2360 2359 2358 2358 2356 2347 2323 2278 2266 2241 2214 2205 2199 2192 2187 2179 2171 2162 2149 2133 0 0 1966 1966 1966 1966 1968 1972 1974 2003 2043 2076 2100 2112 2119 2122 2122 2122 2121 2120 2117 2114 2111 2109 2108 2105 2102 2099 2095 2092 2091 2090 2088 2085 2083 2081 2079 2078 2077 2076 2076 2075 2075 2074 2074 2074 2073 2073 2072 2071 2070 2070 2068 2066 2064 2063 2061 2058 2055 2052 2049 2046 2043 2040 2038 2034 2030 2026 2025 2022 2020 2018 2016 2016 2016 2016 2017 2018 2021 2023 2025 2027 2029 2031 2034 2036 2036 2038 2040 2041 2042 2042 2042 2041 2040 2039 2038 2037 2035 2034 2032 2030 2028 2025 2023 2022 2019 2016 2014 2011 2009 2006 2004 2003 2002 2001 2000 1999 1999 1999 2000 2002 2006 2012 2016 2022 2028 2037 2040 2042 2044 2045 2046 2047 2048 2048 2048 2048 2048 2048 2048 2048 2048 2048 2048 2048 2048 2048 2048 2048 2048 2048 2048 2048 2048 2047 2046 2046 2046 2048 2048 2049 2050 2053 2056 2059 2064 2071 2078 2087 2092 2097 2103 2108 2111 2114 2115 2116 2118 2122 2124 2125 2125 2125 2126 2126 2128 2129 2129 2129 2131 2132 2135 2138 2142 2146 2149 2152 2159 2165 2169 2177 2184 2188 2193 2194 2194 2194 2194 2194 2194 2193 2193 2191 2190 2188 2187 2184 2183 2180 2177 2173 2169 2166 2162 2159 2155 2151 2148 2145 2142 2139 2132 2127 2123 2118 2112 2107 2102 2100 2097 2095 2095 2094 2094 2094 2094 2093 2093 2094 2094 2094 2094 2094 2093 2093 2092 2091 2090 2090 2088 2087 2087 2086 2086 2086 2086 2086 2086 2086 2086 2086 2085 2084 2084 2084 2084 2083 2082 2080 2077 2073 2072 2070 2061 2041 2022 2022 2022 2022 2022 0 0 0 0 0 0 0 0 0 0 0 0 0 0 0 0 0 0 0 0 0 0 0 0 0 0 0 0 0 0 0 0 0 0 0 0 0 0 0 0 0 0 0 0 0 0 0 0 0 0 0 0 0 0 0 0 0 0 0 0
2481 2490 2490 2491 2516 2541 2563 2563 2563 2553 2553 2553 2585 2638 2656 2656 2656 2650 2630 2630 2630 2668 2705 2722 2727 2732 2727 2722 2736 2736 2751 2814 2820 2865 2881 2894 2909 2918 2918 2918 2898 2884 2884 2884 2921 2950 2963 2963 2964 2964 2964 2966 2968 2986 2992 3015 3050 3050 3050 3024 3021 3020 3016 3016 3016 3013 3006 2989 2981 2981 2981 2985 2988 2992 3000 3007 3011 3020 3024 3024 3024 3019 3019 3018 3017 3016 3016 3010 3001 2992 2977 2964 2954 2944 2925 2904 2890 2870 2844 2798 2728 2659 2593 0 0 0 0 0 1365 1351 1345 1344 1339 1338 1338 1338 1340 1341 1342 1343 1343 1344 1345 1346 1347 1348 1350 1351 1353 1354 1354 1355 1356 1357 1359 1360 1361 1363 1363 1364 1366 1367 1367 1368 1369 1371 1371 1372 1373 1374 1374 1375 1376 1376 1377 1379 1380 1381 1382 1382 1383 1385 1387 1388 1389 1390 1391 1393 1394 1395 1397 1397 1399 1399 1399 1402 1403 1404 1406 1409 1409 1411 1411 1411 1412 1414 1415 1416 1420 1424 1430 1435 1445 1455 1462 0 0 0 0 0 0 0 0 2514 2554 2583 2604 2634 2661 2678 2679 2680 2690 2706 2726 2732 2733 2734 2743 2743 2734 2703 2694 2675 2658 2658 2657 2638 2638 2565 0 2401 2373 2359 2359 2359 2363 2363 2363 2363 2362 2362 2362 2361 2359 2357 2356 2355 2355 2352 2350 2350 2350 2350 2351 2351 2351 2354 2354 2356 2357 2360 2362 2364 2365 2365 2365 2364 2362 2362 2362 2362 2362 2361 2348 2326 2290 2267 2253 2223 2211 2200 2192 2187 2178 2175 2162 2159 2150 0 0 1991 1983 1983 1983 1997 1998 2012 2039 2070 2081 2103 2112 2124 2124 2124 2123 2122 2121 2118 2115 2112 2110 2109 2106 2102 2099 2096 2093 2091 2090 2088 2085 2082 2081 2079 2078 2077 2076 2076 2075 2075 2074 2074 2074 2073 2073 2072 2071 2070 2069 2068 2066 2064 2061 2058 2057 2054 2052 2048 2044 2041 2037 2034 2031 2027 2025 2024 2021 2018 2017 2015 2015 2015 2015 2015 2017 2020 2022 2024 2026 2029 2031 2033 2035 2036 2038 2040 2041 2042 2042 2042 2041 2040 2039 2037 2036 2035 2034 2032 2029 2028 2025 2023 2021 2018 2016 2014 2011 2009 2006 2004 2003 2001 2000 2000 1998 1998 1998 1999 2002 2006 2008 2015 2019 2025 2033 2039 2040 2043 2043 2045 2046 2047 2048 2048 2048 2048 2048 2048 2048 2048 2048 2049 2049 2049 2049 2049 2049 2049 2049 2049 2048 2048 2048 2047 2047 2047 2048 2049 2050 2051 2054 2058 2063 2065 2071 2078 2088 2093 2097 2104 2109 2112 2115 2118 2119 2122 2124 2127 2128 2128 2128 2129 2130 2131 2131 2132 2133 2133 2135 2136 2139 2143 2146 2149 2155 2162 2169 2175 2184 2189 2193 2194 2196 2196 2196 2197 2197 2197 2197 2196 2193 2192 2191 2189 2186 2183 2181 2178 2175 2171 2168 2164 2161 2158 2153 2149 2145 2142 2139 2132 2127 2123 2118 2112 2107 2103 2100 2098 2096 2096 2096 2096 2096 2096 2096 2096 2094 2094 2094 2096 2096 2096 2095 2094 2093 2092 2090 2089 2088 2088 2088 2088 2088 2087 2087 2087 2087 2087 2086 2085 2085 2084 2084 2084 2083 2082 2080 2077 2073 2071 2069 2065 2041 2022 2022 2022 2022 2022 0 0 0 0 0 0 0 0 0 0 0 0 0 0 0 0 0 0 0 0 0 0 0 0 0 0 0 0 0 0 0 0 0 0 0 0 0 0 0 0 0 0 0 0 0 0 0 0 0 0 0 0 0 0 0 0 0 0 0 0
