2924 2924 2949 2959 2961 2975 2989 3009 3020 3024 3048 3086 3109 3111 3127 3146 3150 3157 3157 3168 3193 3220 3235 3235 3235 3238 3238 3248 3266 3278 3293 3298 3313 3335 3344 3356 3360 3361 3361 3368 3375 3375 3377 3379 3379 3381 3381 3381 3378 3378 3378 3382 3385 3388 3394 3402 3413 3418 3421 3424 3427 3433 3440 3443 3448 3453 3456 3460 3462 3467 3474 3477 3478 3479 3480 3484 3489 3492 3497 3500 3504 3510 3514 3517 3522 3523 3523 3523 3523 3517 3498 3474 3474 3474 3533 3574 3621 3634 3642 3642 3642 3643 3643 3644 3644 3646 3648 3649 3649 3649 3650 3652 3652 3652 3651 3650 3648 3647 3639 3625 3611 3608 3606 3603 3603 3602 3601 3601 3601 3601 3601 3601 3601 3609 3619 3624 3634 3634 3634 3626 3615 3604 3602 3602 3595 3588 3571 3545 3523 3479 3423 3358 3296 3245 2897 2507 0 0 0 1938 1923 1921 1921 1921 1926 1929 1934 1940 1948 1955 1959 1964 1967 1969 1973 1974 1977 1982 1986 1989 1992 1994 1997 2001 2005 2007 2010 2015 2015 2016 2018 2020 2025 2029 2034 2041 2046 2050 2054 2057 2063 2069 2077 2080 2081 2082 2088 2094 2099 2105 2110 2114 2119 2124 2130 2139 2146 2152 2160 2170 2179 2187 2192 2200 2207 2217 2233 2237 2237 2238 2238 2238 2239 2241 2267 2268 0 0 2800 2800 2800 2756 2544 0 0 2184 2152 2125 2103 2089 2079 2073 2068 2059 2050 2038 2028 2019 2011 2002 1995 1989 1987 1981 1976 1969 1963 1957 1952 1946 1941 1936 1932 1927 1923 1918 1914 1908 1901 1896 1891 1887 1884 1880 1876 1872 1868 1863 1860 1856 1853 1849 1845 1842 1839 1836 1832 1830 1827 1823 1820 1817 1814 1812 1810 1807 1805 1803 1801 1800 1799 1797 1795 1794 1792 1791 1790 1788 1787 1785 1783 1782 1780 1780 1778 1778 1775 1775 1773 1772 1772 1770 1769 1769 1768 1766 1765 1764 1763 1763 1761 1761 1760 1760 1759 1759 1758 1758 1758 1758 1758 1758 1758 1758 1758 1759 1759 1759 1759 1759 1759 1758 1758 1757 1757 1757 1757 1757 1757 1757 1756 1756 1756 1756 1756 1756 1756 1756 1756 1756 1756 1756 1756 1756 1757 1758 1759 1759 1760 1761 1762 1763 1763 1764 1765 1767 1768 1769 1771 1772 1773 1774 1775 1777 1778 1779 1781 1783 1784 1785 1788 1789 1792 1793 1795 1797 1800 1802 1803 1806 1808 1811 1813 1816 1818 1820 1822 1824 1826 1829 1832 1835 1838 1840 1843 1845 1847 1849 1852 1853 1856 1858 1862 1865 1867 1869 1870 1873 1877 1882 1887 1890 1893 1894 1898 1898 1904 1907 1907 1907 0 0 0 0 0 0 1711 1698 1689 1687 1685 1683 1677 1675 1672 1671 1671 1670 1671 1671 1671 1671 1671 1671 1672 1673 1673 1674 1675 1676 1676 1677 1679 1683 1684 1686 1689 1691 1692 1692 1692 1694 1704 1710 1731 1760 1767 1779 1816 1821 1823 1828 1831 1832 1836 1844 1848 1862 1877 1877 1882 1882 1888 1892 1893 1899 1929 1941 1950 1965 1989 2013 2013 2013 0 0 0 0 0 0 0 0 0 0 0 0 0 0 0 0 0 0 0 0 0 0 0 0 0 0 0 0 0 0 0 0 0 0 0 0 0 0 0 0 0 0 0 0 0 0 0 0 0 0 0 0 0 0 0 0 0 0 0 0 0 0 0 0 0 0 0 0 0 0 0 0 0 0 0 0 0 0 0 0 0 0 0 0 0 0 0 0 0 0 0 0 0 0 0 0 0 0 0 0 0 0 0 0 0 0
2940 2940 2952 2961 2963 2975 2997 3015 3016 3023 3048 3086 3109 3111 3127 3146 3150 3157 3157 3168 3198 3220 3235 3235 3235 3235 3235 3247 3266 3278 3294 3299 3317 3338 3349 3356 3360 3363 3368 3372 3375 3379 3380 3380 3380 3380 3380 3380 3379 3379 3379 3382 3385 3388 3394 3402 3408 3415 3417 3418 3423 3428 3434 3443 3448 3453 3456 3460 3466 3470 3475 3479 3483 3484 3484 3485 3489 3490 3495 3500 3504 3510 3514 3517 3522 3522 3522 3522 3522 3517 3498 3473 3473 3473 3533 3574 3621 3634 3641 3642 3642 3643 3643 3644 3644 3645 3647 3648 3648 3649 3650 3651 3651 3651 3650 3650 3648 3647 3639 3622 3606 3606 3606 3603 3603 3602 3600 3600 3600 3600 3600 3601 3604 3611 3623 3633 3641 3641 3641 3626 3613 3602 3599 3596 3592 3581 3558 3531 3496 3440 3411 3326 3209 2940 2518 0 0 0 1933 1921 1917 1916 1916 1916 1919 1924 1931 1935 1941 1952 1956 1960 1962 1965 1967 1969 1972 1977 1980 1983 1985 1987 1992 1995 2001 2004 2008 2013 2014 2015 2016 2017 2020 2026 2032 2039 2043 2048 2051 2054 2058 2062 2070 2074 2076 2079 2083 2089 2096 2102 2106 2112 2118 2121 2127 2134 2143 2149 2154 2163 2171 2179 2184 2195 2203 2214 2225 2232 2232 2232 2231 2231 2231 2241 2268 0 0 2593 2846 2846 2846 2767 2553 0 0 2182 2152 2125 2102 2086 2078 2072 2065 2058 2048 2037 2028 2016 2007 1999 1993 1988 1984 1981 1975 1968 1961 1956 1950 1943 1937 1933 1929 1924 1920 1916 1912 1905 1898 1893 1888 1886 1881 1877 1873 1869 1865 1861 1857 1854 1852 1847 1844 1839 1836 1834 1831 1828 1826 1822 1819 1816 1814 1811 1810 1807 1805 1803 1801 1800 1798 1796 1794 1793 1792 1790 1789 1787 1786 1785 1783 1782 1780 1779 1778 1777 1775 1774 1773 1771 1770 1769 1769 1767 1767 1766 1765 1764 1763 1762 1761 1760 1760 1759 1758 1758 1758 1758 1758 1757 1757 1757 1757 1757 1757 1757 1757 1757 1757 1757 1757 1757 1757 1757 1756 1756 1756 1756 1755 1755 1755 1755 1755 1755 1755 1755 1755 1755 1755 1755 1756 1756 1756 1756 1757 1757 1757 1758 1759 1760 1762 1763 1763 1764 1765 1767 1768 1769 1770 1772 1773 1774 1775 1776 1777 1778 1780 1781 1784 1785 1787 1789 1791 1792 1794 1797 1799 1800 1803 1805 1807 1810 1813 1814 1816 1819 1820 1823 1825 1827 1830 1833 1836 1839 1841 1843 1845 1846 1849 1852 1854 1856 1859 1861 1863 1867 1869 1870 1873 1878 1884 1888 1889 1889 1891 1891 1891 0 0 0 0 0 0 0 1717 1694 1690 1688 1684 1682 1678 1673 1672 1672 1671 1670 1670 1670 1670 1670 1670 1670 1671 1671 1671 1671 1672 1672 1674 1674 1675 1676 1678 1681 1682 1685 1689 1690 1691 1691 1691 1691 1695 1704 1713 1730 1745 1752 1770 1790 1799 1815 1823 1826 1826 1827 1831 1841 1852 1859 1865 1866 1866 1877 1881 1892 1909 1930 1938 1956 1978 2003 2003 2003 0 0 0 0 0 0 0 0 0 0 0 0 0 0 0 0 0 0 0 0 0 0 0 0 0 0 0 0 0 0 0 0 0 0 0 0 0 0 0 0 0 0 0 0 0 0 0 0 0 0 0 0 0 0 0 0 0 0 0 0 0 0 0 0 0 0 0 0 0 0 0 0 0 0 0 0 0 0 0 0 0 0 0 0 0 0 0 0 0 0 0 0 0 0 0 0 0 0 0 0 0 0 0 0 0 0
2940 2940 2952 2961 2970 2977 2997 3015 3016 3023 3048 3088 3111 3114 3127 3146 3150 3157 3157 3168 3198 3221 3235 3235 3235 3235 3235 3247 3266 3281 3294 3301 3323 3338 3349 3356 3360 3365 3370 3373 3375 3379 3380 3380 3380 3380 3380 3379 3379 3379 3379 3382 3385 3387 3392 3400 3408 3415 3417 3417 3418 3421 3429 3440 3445 3451 3455 3460 3466 3470 3475 3479 3484 3484 3486 3488 3489 3490 3495 3500 3504 3509 3513 3517 3518 3520 3520 3520 3521 3509 3501 3470 3470 3470 3533 3574 3621 3632 3637 3640 3640 3640 3640 3640 3642 3644 3646 3648 3648 3649 3651 3651 3651 3651 3650 3650 3648 3647 3639 3622 3604 3603 3603 3603 3603 3602 3600 3600 3600 3600 3601 3604 3613 3619 3632 3641 3641 3641 3641 3626 3606 3597 3586 3585 3583 3558 3531 3474 3414 3385 3290 3014 2663 2467 0 0 0 1924 1920 1918 1915 1915 1915 1915 1918 1921 1923 1927 1934 1948 1951 1955 1958 1961 1963 1965 1970 1973 1977 1979 1981 1986 1990 1993 1996 1998 2002 2007 2010 2011 2013 2016 2020 2021 2026 2032 2039 2043 2046 2049 2051 2058 2061 2067 2071 2076 2080 2085 2091 2098 2103 2108 2113 2118 2123 2130 2139 2145 2150 2157 2166 2173 2182 2194 2202 2212 2225 2228 2228 2228 2228 2228 2228 2241 2278 0 0 2743 2855 2855 2855 2774 2553 0 0 2174 2146 2120 2096 2086 2077 2070 2064 2057 2047 2035 2025 2014 2005 1997 1990 1985 1982 1977 1971 1965 1960 1955 1948 1941 1934 1930 1927 1923 1919 1914 1908 1902 1896 1891 1886 1882 1879 1875 1871 1867 1862 1858 1855 1852 1850 1846 1841 1838 1836 1833 1830 1827 1824 1822 1818 1816 1813 1811 1809 1807 1805 1803 1800 1798 1796 1796 1794 1792 1791 1790 1788 1787 1786 1784 1782 1781 1780 1779 1777 1776 1775 1773 1772 1770 1769 1768 1768 1767 1766 1765 1764 1763 1762 1761 1761 1760 1759 1758 1758 1758 1757 1757 1757 1757 1757 1756 1756 1756 1757 1757 1757 1757 1757 1756 1756 1756 1756 1755 1755 1755 1754 1754 1754 1754 1754 1754 1754 1753 1753 1753 1754 1754 1754 1754 1755 1755 1755 1755 1755 1756 1757 1757 1759 1760 1761 1762 1763 1764 1765 1766 1767 1769 1769 1770 1772 1773 1775 1775 1776 1778 1780 1781 1783 1784 1786 1788 1789 1792 1794 1796 1798 1799 1802 1804 1806 1808 1811 1812 1814 1816 1819 1822 1824 1827 1829 1832 1833 1837 1839 1841 1842 1844 1847 1851 1854 1856 1857 1857 1859 1863 1867 1869 1870 1876 1884 1885 1885 1885 1882 1868 0 0 0 0 0 0 1735 1706 1689 1685 1684 1681 1679 1673 1670 1670 1669 1669 1669 1669 1669 1670 1670 1670 1670 1670 1670 1671 1671 1671 1671 1672 1673 1674 1674 1675 1677 1678 1681 1684 1689 1690 1690 1690 1690 1690 1691 1693 1701 1713 1725 1740 1764 1785 1789 1812 1815 1815 1816 1814 1814 1814 1817 1827 1851 1851 1855 1865 1877 1883 1892 1907 1930 1945 1964 1984 1984 1984 0 0 0 0 0 0 0 0 0 0 0 0 0 0 0 0 0 0 0 0 0 0 0 0 0 0 0 0 0 0 0 0 0 0 0 0 0 0 0 0 0 0 0 0 0 0 0 0 0 0 0 0 0 0 0 0 0 0 0 0 0 0 0 0 0 0 0 0 0 0 0 0 0 0 0 0 0 0 0 0 0 0 0 0 0 0 0 0 0 0 0 0 0 0 0 0 0 0 0 0 0 0 0 0 0 0
2940 2940 2952 2956 2976 2990 2997 3015 3016 3023 3067 3114 3138 3140 3159 3178 3186 3187 3190 3201 3213 3226 3235 3235 3235 3235 3235 3248 3268 3283 3294 3306 3323 3338 3348 3349 3354 3365 3370 3373 3375 3379 3380 3380 3380 3380 3379 3378 3378 3379 3379 3382 3385 3387 3391 3400 3407 3415 3417 3417 3418 3421 3427 3432 3440 3445 3452 3459 3466 3470 3475 3479 3484 3484 3486 3487 3488 3490 3495 3501 3508 3509 3512 3513 3513 3515 3515 3513 3521 3508 3501 3470 3470 3470 3536 3572 3615 3632 3637 3639 3639 3639 3639 3639 3642 3644 3646 3648 3648 3650 3652 3652 3652 3650 3650 3650 3648 3646 3639 3622 3603 3598 3598 3598 3600 3600 3600 3600 3600 3600 3601 3607 3622 3629 3638 3640 3640 3640 3635 3618 3600 3582 3567 3552 3534 3509 3439 3358 3340 3323 3118 2727 2406 2153 0 0 1911 1902 1902 1902 1902 1906 1907 1909 1915 1917 1922 1924 1927 1934 1943 1949 1955 1958 1959 1960 1965 1968 1972 1976 1978 1982 1985 1989 1991 1993 1995 1998 2001 2003 2009 2013 2016 2019 2022 2026 2032 2038 2041 2044 2048 2053 2056 2058 2066 2072 2077 2083 2088 2093 2100 2105 2111 2116 2121 2126 2133 2142 2148 2156 2166 2173 2182 2191 2202 2210 2218 2222 2222 2219 2219 2219 2219 2256 2306 0 2710 2912 2912 2912 2859 2777 2553 0 0 2167 2140 2114 2094 2085 2076 2067 2061 2055 2046 2033 2022 2012 2002 1995 1989 1983 1978 1974 1970 1965 1959 1953 1946 1939 1933 1928 1924 1921 1917 1911 1906 1901 1895 1890 1885 1881 1878 1874 1869 1866 1860 1855 1852 1850 1849 1844 1840 1837 1834 1831 1828 1825 1823 1821 1818 1815 1812 1810 1809 1806 1804 1802 1799 1798 1795 1794 1793 1791 1790 1789 1788 1786 1785 1783 1782 1781 1779 1777 1776 1775 1774 1773 1772 1770 1769 1768 1767 1766 1765 1764 1764 1763 1761 1760 1760 1759 1759 1758 1758 1757 1757 1756 1756 1756 1756 1756 1756 1756 1756 1756 1756 1756 1755 1755 1755 1755 1754 1754 1754 1754 1753 1753 1753 1753 1753 1753 1753 1753 1753 1753 1753 1753 1753 1753 1754 1754 1754 1754 1754 1755 1756 1757 1758 1760 1760 1761 1763 1764 1765 1766 1767 1767 1769 1769 1771 1772 1773 1775 1776 1777 1779 1781 1781 1783 1785 1787 1788 1791 1792 1795 1796 1799 1800 1803 1805 1807 1809 1811 1813 1815 1818 1820 1823 1825 1827 1828 1830 1834 1838 1839 1840 1842 1846 1850 1853 1854 1855 1856 1856 1861 1864 1867 1870 1871 1876 1876 1876 1867 1823 1779 0 0 0 0 0 1717 1697 1685 1681 1681 1680 1678 1675 1671 1668 1667 1667 1667 1668 1668 1669 1670 1670 1670 1670 1670 1670 1670 1671 1671 1671 1671 1673 1673 1674 1675 1676 1677 1679 1682 1686 1689 1689 1689 1689 1689 1689 1692 1701 1707 1717 1725 1746 1779 1782 1788 1795 1800 1804 1812 1812 1813 1817 1821 1828 1840 1845 1856 1871 1882 1886 1897 1918 1936 1947 1965 1965 1965 0 0 0 0 0 0 0 0 0 0 0 0 0 0 0 0 0 0 0 0 0 0 0 0 0 0 0 0 0 0 0 0 0 0 0 0 0 0 0 0 0 0 0 0 0 0 0 0 0 0 0 0 0 0 0 0 0 0 0 0 0 0 0 0 0 0 0 0 0 0 0 0 0 0 0 0 0 0 0 0 0 0 0 0 0 0 0 0 0 0 0 0 0 0 0 0 0 0 0 0 0 0 0 0 0 0
2920 2920 2952 2956 2976 2995 3015 3029 3043 3052 3085 3114 3140 3143 3159 3179 3186 3198 3211 3221 3235 3236 3237 3237 3238 3239 3241 3252 3269 3288 3300 3307 3325 3338 3338 3339 3354 3365 3370 3374 3375 3378 3378 3378 3378 3378 3377 3377 3378 3380 3380 3382 3384 3387 3390 3399 3407 3414 3415 3417 3419 3421 3427 3430 3437 3441 3449 3457 3463 3467 3470 3475 3479 3483 3486 3487 3488 3489 3496 3503 3508 3509 3509 3509 3510 3512 3512 3509 3518 3508 3505 3473 3473 3473 3536 3572 3615 3632 3637 3639 3639 3639 3639 3639 3642 3644 3646 3649 3650 3653 3653 3653 3652 3650 3650 3649 3648 3645 3639 3622 3603 3597 3597 3597 3600 3600 3600 3600 3600 3601 3603 3609 3624 3637 3643 3643 3643 3639 3633 3617 3590 3566 3536 3474 3404 3356 3348 3320 3222 2948 0 0 0 1985 1924 1907 1903 1897 1887 1887 1887 1896 1900 1908 1913 1916 1921 1924 1926 1932 1935 1941 1949 1955 1957 1958 1961 1965 1969 1971 1975 1978 1982 1984 1987 1988 1991 1994 1998 2000 2004 2008 2012 2015 2018 2023 2027 2032 2038 2042 2044 2045 2049 2053 2058 2067 2075 2079 2085 2091 2096 2101 2108 2114 2118 2124 2130 2139 2144 2155 2163 2172 2179 2190 2200 2203 2206 2213 2213 2213 2208 2208 0 0 2415 2721 2939 2958 2958 2958 2861 2778 2553 0 0 2161 2136 2111 2094 2085 2075 2064 2057 2052 2044 2032 2020 2010 2002 1994 1986 1980 1977 1973 1968 1963 1957 1951 1944 1937 1932 1927 1922 1919 1914 1909 1905 1900 1895 1890 1885 1881 1876 1872 1868 1863 1859 1854 1850 1849 1847 1844 1839 1836 1833 1830 1827 1824 1823 1820 1818 1813 1811 1809 1808 1805 1803 1801 1798 1797 1795 1793 1791 1790 1789 1787 1786 1785 1784 1783 1781 1780 1778 1777 1775 1774 1773 1772 1770 1769 1768 1767 1767 1765 1765 1764 1762 1762 1761 1760 1760 1759 1759 1757 1757 1756 1756 1756 1755 1755 1755 1755 1755 1755 1755 1755 1755 1755 1755 1754 1754 1753 1753 1753 1752 1752 1752 1752 1752 1752 1752 1752 1752 1752 1752 1752 1752 1752 1752 1752 1752 1752 1754 1754 1754 1754 1755 1757 1758 1759 1759 1760 1762 1763 1764 1764 1767 1767 1768 1769 1771 1771 1772 1774 1775 1777 1778 1780 1781 1782 1784 1786 1787 1789 1791 1793 1796 1798 1799 1802 1804 1806 1807 1810 1812 1814 1816 1820 1822 1824 1825 1826 1828 1830 1835 1838 1839 1841 1845 1849 1852 1853 1854 1854 1856 1860 1864 1866 1866 1866 0 0 1812 1773 1753 1746 1734 1719 1704 1692 1689 1686 1679 1676 1676 1674 1674 1674 1673 1670 1668 1667 1667 1667 1668 1668 1668 1669 1670 1670 1670 1670 1670 1670 1671 1671 1671 1671 1673 1673 1673 1674 1674 1674 1676 1679 1682 1684 1688 1688 1688 1685 1685 1685 1691 1699 1705 1715 1726 1746 1772 1772 1780 1789 1790 1811 1812 1813 1817 1821 1828 1836 1842 1843 1862 1879 1883 1892 1915 1930 1943 1943 1943 0 0 0 0 0 0 0 0 0 0 0 0 0 0 0 0 0 0 0 0 0 0 0 0 0 0 0 0 0 0 0 0 0 0 0 0 0 0 0 0 0 0 0 0 0 0 0 0 0 0 0 0 0 0 0 0 0 0 0 0 0 0 0 0 0 0 0 0 0 0 0 0 0 0 0 0 0 0 0 0 0 0 0 0 0 0 0 0 0 0 0 0 0 0 0 0 0 0 0 0 0 0 0 0 0 0 0
2898 2898 2946 2947 2976 2995 3015 3029 3043 3052 3085 3114 3140 3143 3159 3179 3186 3198 3211 3221 3235 3236 3237 3237 3241 3244 3248 3262 3276 3296 3302 3315 3327 3338 3338 3339 3354 3364 3370 3374 3374 3376 3376 3376 3376 3377 3377 3377 3379 3380 3380 3382 3384 3387 3390 3398 3407 3414 3415 3419 3421 3422 3425 3429 3436 3440 3448 3456 3462 3466 3469 3474 3478 3482 3484 3486 3486 3489 3496 3503 3507 3507 3507 3504 3504 3504 3507 3509 3510 3509 3507 3473 3473 3473 3531 3572 3615 3632 3637 3639 3639 3639 3639 3639 3641 3645 3647 3650 3652 3654 3655 3655 3655 3651 3650 3649 3647 3641 3635 3622 3603 3598 3598 3598 3600 3600 3601 3601 3602 3603 3603 3613 3624 3637 3643 3643 3643 3633 3623 3599 3572 3540 3450 3362 3355 3294 3249 2998 2741 0 0 0 0 1892 1888 1886 1886 1873 1869 1869 1869 1874 1888 1894 1901 1905 1913 1919 1921 1925 1932 1936 1941 1949 1950 1951 1952 1960 1965 1968 1969 1974 1979 1983 1983 1985 1989 1992 1996 1998 2001 2005 2007 2010 2013 2016 2023 2028 2032 2035 2038 2041 2044 2047 2053 2060 2070 2076 2081 2087 2092 2097 2103 2110 2116 2121 2128 2132 2141 2153 2162 2167 2175 2187 2190 2193 2195 2208 2208 2208 2215 2215 0 0 2478 2800 2966 2967 2967 2967 2867 2787 2553 0 0 2161 2132 2111 2093 2085 2074 2059 2050 2044 2039 2029 2017 2010 2001 1992 1985 1978 1975 1971 1966 1962 1956 1949 1942 1935 1929 1925 1922 1917 1913 1908 1905 1900 1893 1889 1884 1879 1873 1869 1865 1861 1856 1852 1849 1847 1845 1842 1839 1835 1832 1828 1826 1824 1822 1820 1817 1813 1811 1809 1807 1805 1802 1800 1798 1796 1794 1793 1791 1789 1787 1787 1786 1784 1783 1782 1780 1779 1778 1776 1775 1773 1772 1771 1770 1769 1767 1767 1766 1765 1764 1763 1762 1762 1761 1760 1759 1758 1757 1757 1756 1755 1755 1755 1755 1755 1754 1754 1755 1755 1755 1755 1755 1754 1754 1753 1753 1752 1752 1752 1751 1751 1751 1751 1751 1751 1751 1751 1751 1751 1751 1751 1751 1751 1751 1751 1752 1752 1752 1753 1754 1754 1754 1756 1756 1757 1758 1759 1761 1762 1763 1764 1765 1767 1767 1769 1769 1770 1772 1774 1775 1776 1778 1779 1781 1782 1783 1785 1786 1789 1790 1793 1795 1797 1799 1802 1803 1805 1806 1808 1810 1812 1814 1817 1821 1822 1822 1824 1824 1827 1833 1837 1839 1841 1844 1847 1849 1850 1852 1854 1856 1859 1859 1859 1852 0 0 0 1751 1741 1731 1713 1699 1694 1688 1681 1679 1673 1666 1666 1666 1668 1670 1670 1670 1669 1668 1667 1667 1667 1668 1668 1668 1669 1670 1670 1670 1670 1670 1671 1671 1671 1671 1671 1672 1673 1673 1674 1674 1674 1675 1678 1679 1682 1685 1685 1685 1684 1684 1684 1686 1689 1695 1698 1715 1731 1748 1759 1762 1771 1789 1810 1816 1818 1820 1821 1827 1833 1838 1841 1841 1865 1867 1889 1915 1929 1929 1929 1910 0 0 0 0 0 0 0 0 0 0 0 0 0 0 0 0 0 0 0 0 0 0 0 0 0 0 0 0 0 0 0 0 0 0 0 0 0 0 0 0 0 0 0 0 0 0 0 0 0 0 0 0 0 0 0 0 0 0 0 0 0 0 0 0 0 0 0 0 0 0 0 0 0 0 0 0 0 0 0 0 0 0 0 0 0 0 0 0 0 0 0 0 0 0 0 0 0 0 0 0 0 0 0 0 0 0 0
2886 2886 2923 2926 2975 2995 3015 3029 3043 3052 3085 3109 3129 3143 3159 3179 3184 3198 3211 3221 3235 3236 3237 3237 3243 3249 3253 3262 3277 3297 3304 3322 3334 3338 3338 3339 3347 3362 3368 3373 3374 3375 3376 3376 3376 3377 3377 3377 3379 3380 3380 3382 3384 3387 3390 3398 3404 3409 3413 3419 3421 3422 3425 3429 3433 3438 3446 3456 3460 3465 3467 3470 3475 3482 3483 3483 3484 3489 3496 3503 3503 3503 3500 3499 3499 3499 3503 3508 3508 3508 3498 3476 3476 3476 3528 3580 3616 3631 3637 3639 3639 3639 3639 3640 3641 3645 3647 3650 3652 3654 3658 3658 3658 3657 3651 3649 3643 3639 3632 3622 3603 3598 3598 3598 3600 3600 3601 3602 3603 3605 3607 3613 3633 3637 3637 3637 3627 3619 3603 3570 3512 3446 3354 3303 3184 2992 2711 0 0 0 0 0 0 1860 1860 1863 1863 1863 1863 1863 1868 1872 1877 1882 1885 1889 1893 1900 1908 1910 1914 1923 1931 1939 1943 1949 1950 1957 1963 1966 1967 1968 1972 1980 1982 1983 1986 1989 1993 1995 1997 2001 2003 2006 2008 2012 2015 2022 2026 2031 2037 2039 2041 2044 2050 2056 2065 2071 2076 2083 2087 2093 2100 2106 2111 2117 2122 2127 2139 2149 2155 2159 2167 2181 2182 2185 2194 2194 2195 2195 2195 2210 0 0 2598 2892 2987 2987 2987 2967 2878 2787 2551 0 0 2161 2130 2109 2093 2082 2067 2056 2045 2041 2036 2026 2015 2008 2001 1991 1985 1978 1973 1970 1966 1961 1956 1947 1940 1933 1929 1925 1921 1916 1911 1908 1903 1897 1892 1886 1882 1875 1870 1867 1863 1859 1854 1851 1848 1845 1843 1841 1838 1834 1830 1827 1826 1823 1821 1819 1816 1813 1810 1807 1806 1803 1801 1799 1797 1795 1793 1792 1791 1789 1787 1787 1785 1784 1782 1781 1780 1779 1777 1776 1774 1773 1772 1771 1770 1768 1767 1766 1765 1765 1764 1762 1762 1761 1761 1760 1759 1758 1757 1756 1756 1755 1755 1754 1754 1754 1754 1754 1754 1754 1754 1754 1754 1753 1753 1753 1752 1752 1751 1751 1750 1750 1750 1750 1750 1750 1750 1750 1750 1750 1750 1750 1750 1750 1750 1750 1751 1751 1751 1751 1752 1753 1754 1754 1756 1757 1757 1759 1760 1761 1762 1764 1765 1766 1767 1768 1769 1770 1771 1773 1774 1776 1777 1778 1780 1781 1783 1785 1786 1788 1790 1793 1794 1796 1798 1800 1802 1804 1806 1807 1809 1810 1812 1815 1818 1820 1820 1821 1822 1825 1831 1835 1836 1839 1841 1843 1844 1846 1850 1854 1854 1854 1854 1840 1814 1757 1744 1737 1727 1707 1699 1694 1689 1683 1678 1674 1673 1669 1665 1665 1665 1667 1668 1668 1668 1668 1668 1668 1668 1668 1668 1668 1668 1669 1670 1670 1670 1671 1671 1671 1671 1671 1671 1671 1672 1672 1673 1674 1674 1674 1674 1676 1677 1679 1681 1683 1683 1683 1683 1683 1683 1687 1689 1691 1697 1721 1725 1737 1748 1754 1773 1808 1816 1818 1820 1822 1827 1831 1831 1836 1839 1856 1867 1889 1911 1911 1911 1898 1889 0 0 0 0 0 0 0 0 0 0 0 0 0 0 0 0 0 0 0 0 0 0 0 0 0 0 0 0 0 0 0 0 0 0 0 0 0 0 0 0 0 0 0 0 0 0 0 0 0 0 0 0 0 0 0 0 0 0 0 0 0 0 0 0 0 0 0 0 0 0 0 0 0 0 0 0 0 0 0 0 0 0 0 0 0 0 0 0 0 0 0 0 0 0 0 0 0 0 0 0 0 0 0 0 0 0 0
2886 2886 2915 2916 2949 2976 3005 3023 3039 3052 3070 3096 3116 3121 3130 3149 3154 3174 3175 3191 3214 3227 3228 3236 3243 3249 3253 3262 3277 3297 3304 3322 3334 3338 3341 3343 3349 3361 3368 3374 3374 3375 3376 3376 3379 3380 3380 3380 3380 3380 3380 3382 3387 3388 3390 3398 3403 3406 3412 3416 3421 3422 3423 3428 3433 3438 3445 3454 3458 3459 3462 3467 3472 3475 3479 3480 3482 3489 3496 3496 3496 3495 3495 3495 3495 3495 3501 3508 3508 3508 3460 3460 3460 3476 3518 3586 3616 3630 3633 3637 3638 3639 3639 3640 3641 3645 3647 3650 3652 3654 3658 3658 3658 3657 3652 3649 3643 3636 3627 3618 3603 3599 3599 3599 3600 3600 3601 3602 3604 3607 3609 3623 3626 3626 3626 3615 3613 3608 3584 3539 3438 3373 3322 3273 2892 2575 0 0 0 0 0 1854 1854 1859 1859 1859 1859 1862 1863 1863 1866 1870 1874 1877 1882 1886 1888 1891 1893 1896 1899 1906 1919 1932 1934 1941 1950 1956 1960 1962 1963 1966 1972 1974 1979 1981 1982 1983 1985 1990 1992 1997 1999 2002 2005 2008 2011 2015 2021 2028 2034 2037 2041 2044 2049 2055 2061 2067 2072 2077 2083 2088 2095 2101 2105 2111 2116 2123 2134 2144 2146 2151 2161 2170 2178 2181 2181 2186 2188 2188 2195 0 0 0 2768 2945 2988 2988 2988 2968 2880 2787 2548 0 0 2164 2130 2108 2092 2079 2066 2053 2045 2039 2032 2021 2014 2007 1998 1991 1984 1978 1973 1969 1965 1959 1954 1946 1938 1933 1928 1924 1921 1916 1911 1906 1900 1894 1889 1885 1878 1874 1870 1865 1861 1858 1853 1850 1847 1843 1842 1840 1837 1832 1829 1827 1824 1822 1820 1818 1815 1812 1809 1807 1805 1803 1801 1798 1796 1794 1793 1791 1790 1788 1787 1785 1785 1784 1782 1781 1780 1777 1776 1775 1774 1773 1771 1770 1769 1768 1767 1765 1764 1764 1763 1762 1761 1761 1760 1759 1757 1757 1756 1755 1755 1754 1753 1753 1753 1753 1753 1753 1753 1753 1753 1753 1753 1753 1752 1752 1752 1751 1751 1750 1750 1749 1749 1749 1748 1748 1748 1749 1749 1749 1749 1749 1749 1749 1750 1750 1750 1750 1750 1751 1751 1752 1753 1753 1755 1756 1757 1759 1759 1760 1761 1763 1764 1764 1766 1767 1768 1769 1770 1772 1774 1776 1777 1778 1779 1781 1782 1784 1786 1788 1790 1792 1794 1796 1798 1799 1801 1803 1805 1806 1807 1809 1811 1813 1816 1817 1818 1819 1820 1821 1824 1830 1831 1833 1835 1836 1836 1838 1838 1838 1838 1838 1817 1782 1747 1738 1722 1708 1698 1690 1685 1684 1680 1675 1672 1670 1669 1667 1665 1665 1665 1667 1668 1668 1669 1669 1669 1669 1669 1669 1669 1669 1669 1670 1671 1671 1671 1671 1671 1671 1671 1671 1671 1671 1671 1672 1673 1674 1674 1674 1674 1675 1676 1677 1678 1679 1680 1680 1681 1682 1683 1686 1687 1690 1692 1707 1710 1717 1737 1745 1757 1796 1815 1818 1820 1822 1824 1826 1829 1835 1838 1856 1867 1884 1901 1901 1901 1890 1874 0 0 0 0 0 0 0 0 0 0 0 0 0 0 0 0 0 0 0 0 0 0 0 0 0 0 0 0 0 0 0 0 0 0 0 0 0 0 0 0 0 0 0 0 0 0 0 0 0 0 0 0 0 0 0 0 0 0 0 0 0 0 0 0 0 0 0 0 0 0 0 0 0 0 0 0 0 0 0 0 0 0 0 0 0 0 0 0 0 0 0 0 0 0 0 0 0 0 0 0 0 0 0 0 0 0 0
2886 2886 2915 2916 2927 2950 2976 2995 3000 3017 3053 3096 3116 3121 3130 3135 3135 3141 3146 3149 3176 3203 3216 3229 3243 3249 3253 3262 3276 3297 3304 3322 3334 3338 3341 3344 3354 3362 3368 3375 3375 3377 3378 3378 3380 3380 3380 3380 3380 3380 3380 3385 3387 3388 3390 3397 3399 3401 3410 3413 3416 3420 3423 3428 3433 3438 3443 3450 3452 3452 3453 3457 3460 3465 3472 3475 3481 3488 3492 3495 3495 3495 3495 3494 3494 3495 3501 3508 3508 3508 3435 3435 3435 3476 3515 3588 3616 3626 3629 3632 3636 3639 3639 3640 3641 3644 3646 3650 3652 3654 3658 3658 3658 3657 3652 3649 3643 3636 3624 3612 3603 3600 3600 3600 3601 3601 3601 3602 3610 3621 3627 3627 3627 3627 3614 3611 3609 3600 3572 3513 3391 3338 3310 2941 2528 0 0 0 0 1854 1854 1854 1854 1854 1857 1856 1857 1858 1859 1861 1864 1869 1872 1873 1875 1880 1883 1886 1888 1891 1893 1897 1901 1911 1919 1920 1927 1941 1957 1961 1962 1964 1965 1970 1978 1980 1980 1981 1982 1982 1987 1992 1994 1997 2000 2004 2006 2009 2016 2025 2030 2036 2040 2043 2048 2052 2058 2063 2068 2075 2080 2084 2090 2096 2102 2108 2113 2121 2132 2137 2138 2151 2160 2168 2170 2170 2168 2173 2176 2186 0 0 0 2580 2802 2946 2999 2999 2999 2972 2884 2785 2547 0 0 2164 2130 2107 2091 2079 2065 2051 2044 2036 2028 2019 2013 2006 1997 1990 1984 1978 1973 1968 1963 1956 1950 1944 1938 1932 1926 1922 1918 1912 1907 1902 1896 1891 1887 1883 1878 1873 1869 1865 1860 1856 1853 1849 1845 1842 1840 1839 1835 1831 1828 1824 1823 1821 1819 1816 1813 1810 1808 1806 1804 1802 1800 1797 1795 1792 1790 1790 1789 1787 1786 1785 1784 1783 1782 1781 1779 1777 1775 1774 1773 1772 1770 1769 1768 1767 1766 1765 1764 1764 1762 1761 1761 1760 1759 1758 1757 1756 1755 1755 1754 1754 1753 1753 1753 1753 1753 1753 1753 1753 1753 1752 1752 1752 1752 1751 1751 1751 1750 1749 1749 1749 1749 1748 1747 1747 1747 1747 1747 1747 1748 1748 1748 1748 1748 1749 1749 1750 1750 1750 1750 1751 1753 1753 1755 1755 1757 1758 1759 1760 1761 1762 1763 1764 1766 1767 1768 1769 1770 1771 1773 1775 1776 1777 1779 1780 1782 1784 1785 1787 1789 1792 1794 1795 1797 1798 1800 1802 1804 1806 1807 1808 1809 1811 1813 1816 1817 1818 1818 1818 1819 1822 1822 1823 1823 1825 1825 1825 1823 1823 1816 1783 1760 1739 1732 1713 1700 1689 1685 1678 1674 1672 1670 1669 1668 1668 1667 1666 1665 1665 1665 1667 1668 1668 1669 1669 1669 1670 1670 1671 1671 1671 1671 1672 1673 1673 1673 1672 1672 1672 1672 1671 1671 1671 1671 1671 1673 1674 1674 1674 1674 1675 1676 1676 1677 1677 1677 1678 1679 1679 1682 1682 1686 1686 1690 1697 1699 1702 1717 1737 1746 1759 1798 1807 1816 1822 1823 1825 1827 1829 1837 1856 1868 1882 1890 1890 1890 1888 1874 0 0 0 0 0 0 0 0 0 0 0 0 0 0 0 0 0 0 0 0 0 0 0 0 0 0 0 0 0 0 0 0 0 0 0 0 0 0 0 0 0 0 0 0 0 0 0 0 0 0 0 0 0 0 0 0 0 0 0 0 0 0 0 0 0 0 0 0 0 0 0 0 0 0 0 0 0 0 0 0 0 0 0 0 0 0 0 0 0 0 0 0 0 0 0 0 0 0 0 0 0 0 0 0 0 0 0
2898 2898 2915 2916 2925 2940 2953 2970 2987 3017 3053 3092 3116 3121 3130 3135 3135 3141 3143 3143 3155 3181 3199 3222 3240 3247 3248 3253 3272 3290 3295 3314 3330 3338 3343 3345 3354 3364 3371 3372 3375 3375 3378 3378 3380 3380 3380 3379 3379 3379 3381 3385 3387 3388 3391 3397 3399 3402 3408 3410 3413 3420 3423 3427 3432 3436 3443 3446 3448 3448 3451 3457 3460 3465 3472 3475 3481 3488 3492 3495 3495 3495 3494 3494 3494 3494 3497 3508 3508 3508 3421 3421 3421 3480 3515 3588 3615 3620 3623 3626 3629 3635 3636 3639 3639 3642 3645 3647 3650 3654 3655 3655 3655 3653 3652 3649 3646 3636 3624 3611 3601 3600 3600 3600 3601 3602 3602 3604 3613 3628 3636 3636 3636 3622 3612 3608 3608 3585 3541 3448 3327 3300 3058 2609 0 0 0 1848 1847 1847 1847 1847 1850 1851 1852 1854 1854 1856 1857 1859 1863 1867 1872 1873 1875 1879 1883 1883 1883 1887 1890 1891 1895 1899 1901 1901 1906 1921 1932 1947 1958 1959 1961 1965 1972 1978 1978 1980 1981 1982 1985 1988 1990 1993 1996 2000 2001 2006 2010 2017 2024 2032 2039 2043 2047 2051 2055 2060 2066 2072 2078 2081 2086 2093 2099 2105 2112 2120 2128 2131 2138 2151 2159 2159 2161 2161 2159 2159 2164 0 0 0 2505 2687 2825 2959 3024 3024 3024 3002 2880 2784 2548 0 0 2164 2129 2104 2089 2077 2065 2051 2040 2032 2024 2017 2013 2004 1996 1990 1984 1978 1972 1966 1960 1953 1948 1944 1938 1932 1925 1919 1913 1909 1904 1899 1895 1891 1887 1883 1878 1873 1869 1864 1859 1856 1852 1849 1844 1842 1839 1837 1833 1830 1827 1824 1821 1819 1818 1815 1811 1809 1807 1805 1804 1801 1799 1796 1793 1791 1789 1789 1788 1786 1786 1785 1783 1782 1781 1780 1778 1777 1775 1773 1772 1771 1770 1768 1767 1766 1765 1764 1764 1763 1762 1761 1760 1759 1758 1757 1757 1756 1755 1754 1754 1753 1752 1752 1752 1752 1752 1752 1752 1752 1752 1752 1752 1752 1752 1751 1750 1749 1749 1749 1749 1748 1748 1747 1747 1746 1746 1746 1747 1747 1747 1747 1747 1747 1748 1749 1749 1749 1749 1750 1750 1751 1753 1753 1754 1755 1756 1758 1759 1759 1760 1762 1763 1763 1765 1765 1767 1768 1770 1771 1773 1773 1775 1776 1778 1780 1782 1783 1785 1787 1789 1791 1792 1794 1795 1797 1799 1802 1803 1805 1806 1807 1808 1809 1811 1813 1815 1815 1815 1810 1796 1784 1776 1776 1776 1786 1787 1787 1787 1773 1749 1736 1722 1720 1703 1688 1682 1679 1677 1673 1670 1667 1667 1667 1667 1667 1667 1665 1665 1665 1665 1668 1669 1669 1670 1670 1670 1670 1671 1672 1672 1673 1673 1674 1674 1674 1674 1673 1673 1673 1673 1673 1672 1671 1671 1671 1672 1673 1674 1674 1674 1674 1675 1675 1675 1675 1675 1675 1675 1676 1678 1680 1683 1686 1686 1692 1696 1699 1709 1730 1746 1751 1776 1793 1800 1817 1822 1823 1826 1828 1830 1856 1868 1875 1876 1880 1876 1875 0 0 0 0 0 0 0 0 0 0 0 0 0 0 0 0 0 0 0 0 0 0 0 0 0 0 0 0 0 0 0 0 0 0 0 0 0 0 0 0 0 0 0 0 0 0 0 0 0 0 0 0 0 0 0 0 0 0 0 0 0 0 0 0 0 0 0 0 0 0 0 0 0 0 0 0 0 0 0 0 0 0 0 0 0 0 0 0 0 0 0 0 0 0 0 0 0 0 0 0 0 0 0 0 0 0 0 0
2910 2910 2920 2924 2925 2934 2953 2970 2987 3017 3053 3092 3117 3125 3131 3135 3135 3136 3142 3143 3155 3181 3199 3222 3240 3247 3247 3253 3270 3280 3287 3301 3320 3337 3344 3345 3357 3367 3374 3375 3376 3377 3378 3379 3379 3379 3379 3379 3379 3379 3382 3386 3389 3389 3392 3398 3401 3405 3408 3410 3413 3419 3423 3427 3432 3436 3440 3442 3442 3445 3451 3457 3460 3465 3472 3475 3481 3488 3492 3495 3495 3495 3494 3493 3493 3493 3497 3508 3508 3508 3418 3418 3418 3486 3515 3593 3611 3617 3621 3623 3626 3629 3633 3635 3638 3641 3644 3647 3650 3654 3654 3654 3653 3652 3652 3649 3646 3641 3624 3611 3601 3600 3600 3600 3601 3602 3602 3606 3619 3631 3637 3637 3637 3620 3608 3607 3598 3570 3502 3379 3301 3232 2809 0 0 0 1848 1847 1846 1846 1847 1847 1847 1847 1851 1851 1851 1855 1855 1858 1858 1860 1866 1872 1872 1878 1882 1882 1883 1883 1886 1887 1891 1893 1894 1896 1897 1902 1910 1917 1934 1947 1950 1955 1960 1969 1973 1976 1978 1981 1983 1985 1986 1989 1991 1996 2000 2004 2007 2014 2021 2028 2035 2041 2046 2050 2054 2058 2065 2071 2076 2081 2086 2092 2096 2101 2108 2118 2125 2131 2138 2151 2157 2157 2157 2159 2157 2157 0 0 0 0 2657 2748 2855 2959 3024 3024 3024 3005 2878 2783 2548 0 0 2162 2127 2099 2085 2072 2060 2048 2036 2028 2021 2015 2009 2002 1994 1989 1983 1978 1971 1964 1958 1952 1948 1943 1938 1931 1925 1918 1911 1906 1903 1898 1893 1890 1887 1883 1878 1873 1868 1863 1858 1855 1851 1847 1844 1841 1839 1835 1832 1829 1826 1824 1821 1818 1816 1813 1810 1808 1805 1804 1802 1801 1797 1795 1792 1790 1789 1788 1786 1785 1784 1784 1782 1781 1780 1778 1777 1776 1775 1773 1772 1771 1770 1768 1767 1766 1765 1764 1763 1762 1761 1760 1759 1759 1757 1756 1755 1755 1754 1754 1753 1752 1752 1752 1751 1751 1751 1751 1752 1752 1752 1751 1751 1751 1751 1750 1750 1749 1748 1748 1748 1748 1747 1746 1746 1746 1746 1746 1746 1746 1746 1746 1746 1747 1747 1747 1747 1748 1749 1749 1750 1751 1752 1752 1754 1754 1755 1757 1758 1758 1759 1761 1762 1762 1764 1765 1766 1767 1768 1770 1771 1773 1774 1775 1776 1779 1781 1782 1784 1786 1788 1789 1792 1793 1795 1796 1798 1800 1802 1803 1804 1805 1807 1808 1808 1810 1813 1813 1813 1793 1769 1757 1757 1757 1758 1759 1759 1758 1755 1742 1733 1722 1705 1693 1688 1679 1675 1673 1673 1671 1669 1667 1667 1667 1666 1665 1665 1665 1665 1665 1665 1668 1669 1670 1670 1671 1671 1671 1672 1672 1674 1676 1676 1676 1676 1676 1675 1675 1675 1674 1674 1673 1672 1672 1672 1672 1672 1673 1673 1673 1673 1673 1673 1673 1673 1673 1673 1673 1673 1673 1675 1679 1681 1681 1681 1687 1692 1694 1709 1727 1737 1745 1765 1786 1797 1807 1817 1817 1821 1822 1825 1856 1868 1874 1874 1875 1875 1871 0 0 0 0 0 0 0 0 0 0 0 0 0 0 0 0 0 0 0 0 0 0 0 0 0 0 0 0 0 0 0 0 0 0 0 0 0 0 0 0 0 0 0 0 0 0 0 0 0 0 0 0 0 0 0 0 0 0 0 0 0 0 0 0 0 0 0 0 0 0 0 0 0 0 0 0 0 0 0 0 0 0 0 0 0 0 0 0 0 0 0 0 0 0 0 0 0 0 0 0 0 0 0 0 0 0 0 0
2921 2921 2925 2930 2933 2934 2953 2970 2987 3023 3053 3092 3117 3125 3133 3139 3139 3139 3143 3143 3155 3181 3199 3222 3240 3247 3247 3253 3270 3280 3287 3301 3319 3337 3344 3354 3362 3367 3374 3377 3378 3380 3380 3380 3380 3380 3379 3379 3380 3380 3382 3387 3389 3389 3394 3398 3401 3405 3407 3410 3411 3419 3423 3427 3430 3434 3435 3437 3440 3444 3451 3460 3467 3473 3475 3475 3485 3490 3494 3496 3496 3496 3495 3493 3493 3493 3496 3510 3510 3510 3417 3417 3417 3509 3535 3593 3610 3617 3617 3620 3626 3629 3630 3633 3637 3640 3644 3647 3650 3653 3653 3653 3652 3649 3649 3649 3646 3641 3624 3611 3601 3601 3601 3602 3602 3603 3603 3613 3628 3634 3637 3637 3637 3618 3605 3593 3571 3530 3424 3321 3286 3006 2530 0 0 1859 1845 1842 1842 1842 1842 1846 1846 1846 1844 1844 1844 1851 1855 1857 1858 1860 1860 1865 1872 1875 1878 1881 1881 1881 1882 1883 1885 1889 1891 1891 1892 1895 1897 1900 1903 1914 1934 1944 1950 1956 1963 1967 1971 1976 1980 1982 1984 1988 1989 1994 1997 2001 2006 2011 2017 2023 2031 2036 2042 2047 2053 2058 2063 2070 2076 2081 2085 2089 2092 2097 2105 2117 2125 2131 2144 2151 2156 2156 2156 2157 2157 2168 0 0 0 2620 2723 2794 2862 2959 3024 3024 3024 3005 2875 2765 2547 0 0 2157 2125 2098 2078 2064 2054 2044 2034 2024 2016 2009 2005 1998 1992 1985 1980 1975 1969 1964 1958 1951 1947 1943 1938 1931 1923 1917 1910 1904 1900 1897 1893 1890 1886 1883 1878 1872 1867 1861 1856 1853 1850 1846 1844 1840 1838 1835 1831 1829 1826 1823 1821 1818 1815 1812 1810 1806 1804 1802 1801 1799 1797 1794 1792 1790 1788 1787 1786 1784 1783 1783 1782 1781 1779 1778 1776 1775 1774 1773 1771 1771 1769 1768 1767 1766 1765 1764 1763 1761 1760 1760 1758 1758 1757 1756 1755 1754 1753 1752 1752 1751 1751 1751 1751 1751 1751 1751 1750 1751 1750 1751 1750 1750 1750 1750 1749 1749 1748 1747 1747 1747 1746 1746 1745 1745 1745 1745 1745 1745 1745 1745 1745 1745 1746 1746 1747 1747 1747 1748 1749 1750 1751 1752 1753 1753 1755 1756 1756 1757 1759 1759 1761 1762 1764 1764 1765 1766 1767 1769 1770 1772 1772 1774 1776 1778 1780 1782 1783 1784 1786 1788 1789 1792 1794 1796 1798 1800 1801 1803 1803 1804 1805 1805 1807 1808 1808 1808 1807 1780 1749 1732 1713 1713 1713 1713 1723 1724 1724 1723 1711 1700 1691 1678 1673 1671 1670 1669 1669 1668 1667 1667 1666 1666 1665 1665 1665 1665 1665 1665 1666 1668 1670 1672 1672 1672 1672 1672 1672 1673 1675 1677 1679 1679 1679 1679 1679 1677 1676 1675 1675 1674 1673 1672 1672 1672 1672 1672 1672 1672 1672 1672 1672 1672 1672 1672 1671 1671 1671 1671 1671 1674 1676 1677 1679 1682 1686 1692 1708 1716 1723 1735 1750 1781 1790 1806 1815 1816 1816 1817 1825 1852 1862 1871 1871 1875 1875 1866 0 0 0 0 0 0 0 0 0 0 0 0 0 0 0 0 0 0 0 0 0 0 0 0 0 0 0 0 0 0 0 0 0 0 0 0 0 0 0 0 0 0 0 0 0 0 0 0 0 0 0 0 0 0 0 0 0 0 0 0 0 0 0 0 0 0 0 0 0 0 0 0 0 0 0 0 0 0 0 0 0 0 0 0 0 0 0 0 0 0 0 0 0 0 0 0 0 0 0 0 0 0 0 0 0 0 0 0
2921 2921 2938 2938 2941 2947 2969 2994 3004 3027 3053 3092 3117 3125 3136 3140 3141 3146 3147 3163 3186 3197 3215 3233 3247 3247 3250 3254 3270 3280 3287 3301 3317 3337 3350 3360 3362 3367 3371 3374 3378 3380 3381 3381 3381 3380 3379 3379 3380 3382 3382 3387 3391 3392 3394 3398 3399 3404 3407 3409 3411 3419 3422 3425 3427 3430 3435 3437 3440 3444 3451 3460 3467 3473 3475 3476 3486 3493 3495 3498 3498 3498 3496 3493 3493 3493 3496 3510 3510 3510 3418 3418 3418 3521 3537 3593 3610 3610 3613 3619 3626 3629 3630 3633 3637 3640 3644 3647 3650 3652 3652 3652 3651 3649 3649 3648 3646 3641 3624 3610 3601 3601 3601 3604 3604 3604 3606 3627 3638 3642 3642 3642 3637 3611 3582 3554 3496 3428 3328 3222 3104 2693 0 0 0 1851 1835 1831 1831 1831 1833 1833 1833 1833 1834 1834 1834 1839 1847 1854 1857 1859 1860 1865 1866 1872 1878 1880 1881 1881 1881 1882 1882 1885 1888 1890 1890 1893 1894 1895 1898 1904 1913 1933 1943 1951 1955 1960 1964 1969 1972 1977 1981 1986 1989 1990 1993 1997 2001 2005 2012 2019 2026 2033 2039 2046 2051 2057 2060 2068 2073 2078 2083 2087 2089 2095 2105 2117 2125 2139 2144 2147 2147 2147 2147 2147 2153 2197 0 0 2568 2734 2774 2812 2869 2955 3003 3005 3005 3005 2872 2765 2539 0 0 2153 2124 2098 2076 2063 2049 2040 2032 2021 2012 2006 2001 1995 1989 1982 1976 1972 1968 1962 1957 1949 1945 1942 1937 1931 1923 1917 1910 1904 1900 1896 1892 1890 1883 1879 1876 1872 1866 1860 1856 1853 1850 1846 1844 1840 1838 1834 1831 1828 1826 1823 1820 1817 1815 1812 1809 1806 1804 1801 1799 1798 1795 1793 1790 1789 1788 1785 1784 1784 1783 1781 1781 1780 1779 1778 1776 1775 1773 1772 1771 1769 1768 1768 1766 1766 1765 1764 1762 1761 1760 1759 1758 1758 1757 1755 1755 1754 1752 1752 1751 1751 1750 1750 1750 1750 1749 1749 1750 1749 1750 1750 1750 1749 1749 1749 1749 1748 1747 1747 1746 1746 1746 1745 1745 1745 1745 1745 1745 1744 1744 1744 1745 1745 1745 1746 1746 1746 1746 1747 1748 1749 1749 1750 1751 1752 1754 1755 1756 1757 1758 1758 1759 1761 1762 1763 1764 1765 1766 1767 1768 1770 1771 1773 1775 1777 1779 1781 1782 1783 1785 1787 1789 1791 1793 1795 1798 1800 1801 1802 1803 1803 1804 1805 1807 1808 1808 1808 1801 1763 1745 1731 1709 1699 1696 1692 1690 1690 1692 1685 1685 1678 1670 1668 1668 1666 1666 1665 1665 1665 1665 1665 1665 1665 1665 1665 1665 1665 1665 1665 1666 1668 1671 1673 1673 1673 1673 1673 1674 1676 1677 1680 1681 1681 1682 1682 1682 1680 1679 1678 1677 1676 1675 1674 1672 1672 1672 1672 1672 1671 1671 1670 1670 1670 1669 1669 1668 1668 1668 1668 1668 1670 1673 1673 1674 1676 1677 1687 1703 1703 1710 1717 1734 1763 1790 1806 1811 1814 1815 1815 1825 1829 1860 1871 1871 1871 1866 1846 0 0 0 0 0 0 0 0 0 0 0 0 0 0 0 0 0 0 0 0 0 0 0 0 0 0 0 0 0 0 0 0 0 0 0 0 0 0 0 0 0 0 0 0 0 0 0 0 0 0 0 0 0 0 0 0 0 0 0 0 0 0 0 0 0 0 0 0 0 0 0 0 0 0 0 0 0 0 0 0 0 0 0 0 0 0 0 0 0 0 0 0 0 0 0 0 0 0 0 0 0 0 0 0 0 0 0 0
2921 2921 2943 2946 2967 2977 3003 3023 3026 3033 3064 3092 3119 3126 3140 3142 3149 3150 3160 3177 3212 3224 3233 3251 3267 3273 3274 3281 3286 3294 3300 3301 3317 3339 3351 3360 3362 3362 3366 3372 3373 3380 3382 3382 3383 3383 3382 3383 3383 3383 3388 3391 3393 3395 3397 3398 3401 3405 3408 3409 3411 3416 3422 3424 3427 3430 3435 3437 3440 3445 3451 3460 3467 3473 3475 3476 3488 3494 3498 3499 3499 3499 3496 3493 3493 3493 3496 3506 3506 3506 3417 3417 3417 3523 3537 3587 3600 3605 3613 3619 3625 3629 3630 3633 3637 3640 3644 3647 3649 3650 3650 3650 3650 3649 3648 3647 3645 3640 3626 3610 3606 3605 3605 3605 3605 3605 3614 3633 3643 3646 3646 3643 3627 3596 3561 3514 3453 3364 3281 3198 2794 0 0 0 0 1832 1819 1813 1812 1812 1813 1814 1819 1821 1822 1825 1825 1835 1842 1850 1854 1858 1860 1864 1865 1868 1874 1878 1879 1880 1880 1880 1880 1882 1884 1889 1890 1892 1893 1895 1897 1901 1906 1919 1935 1943 1950 1954 1959 1962 1964 1969 1973 1980 1985 1986 1990 1994 1998 2002 2009 2015 2021 2028 2034 2041 2047 2054 2060 2066 2069 2074 2078 2084 2088 2095 2105 2117 2127 2139 2144 2144 2144 2126 2126 2126 2162 0 0 0 2618 2746 2777 2812 2869 2955 3000 3005 3005 3005 2870 2741 2515 0 0 2148 2116 2093 2071 2057 2043 2035 2025 2017 2009 2002 1998 1992 1985 1979 1974 1970 1966 1960 1953 1947 1942 1938 1934 1929 1923 1917 1910 1904 1899 1895 1892 1888 1882 1879 1874 1869 1865 1860 1856 1853 1850 1846 1844 1840 1837 1834 1831 1828 1825 1822 1820 1817 1814 1811 1808 1805 1803 1800 1799 1797 1794 1792 1789 1787 1786 1785 1784 1782 1781 1780 1779 1779 1778 1777 1775 1774 1773 1772 1770 1769 1768 1767 1766 1765 1764 1763 1762 1761 1760 1759 1758 1757 1756 1755 1754 1753 1752 1751 1750 1750 1749 1749 1749 1749 1749 1749 1749 1749 1749 1749 1749 1749 1749 1748 1748 1748 1747 1747 1746 1746 1746 1745 1744 1744 1744 1744 1744 1744 1744 1744 1744 1744 1744 1744 1745 1745 1746 1747 1747 1748 1749 1749 1750 1752 1753 1754 1755 1756 1756 1758 1758 1760 1761 1762 1763 1763 1765 1767 1767 1769 1769 1770 1773 1776 1778 1779 1780 1781 1783 1786 1788 1790 1793 1795 1798 1799 1801 1802 1802 1803 1804 1805 1806 1806 1806 1806 1794 1763 1743 1730 1703 1696 1690 1687 1683 1680 1680 1680 1673 1672 1666 1665 1665 1665 1664 1663 1661 1661 1661 1662 1664 1665 1665 1665 1665 1665 1665 1665 1667 1670 1673 1675 1675 1675 1675 1677 1678 1680 1681 1683 1684 1685 1685 1685 1684 1683 1681 1679 1679 1677 1676 1675 1674 1673 1672 1672 1671 1671 1671 1670 1669 1668 1667 1667 1667 1666 1666 1666 1666 1667 1671 1672 1673 1675 1676 1678 1688 1694 1697 1711 1721 1757 1790 1805 1809 1811 1811 1813 1819 1825 1859 1870 1870 1870 1866 1846 0 0 0 0 0 0 0 0 0 0 0 0 0 0 0 0 0 0 0 0 0 0 0 0 0 0 0 0 0 0 0 0 0 0 0 0 0 0 0 0 0 0 0 0 0 0 0 0 0 0 0 0 0 0 0 0 0 0 0 0 0 0 0 0 0 0 0 0 0 0 0 0 0 0 0 0 0 0 0 0 0 0 0 0 0 0 0 0 0 0 0 0 0 0 0 0 0 0 0 0 0 0 0 0 0 0 0 0
2927 2927 2947 2948 2970 2999 3044 3044 3057 3064 3067 3092 3119 3126 3143 3155 3162 3166 3170 3186 3218 3242 3251 3275 3302 3311 3311 3311 3311 3312 3313 3317 3319 3339 3352 3355 3355 3355 3355 3364 3371 3376 3383 3385 3387 3387 3387 3387 3388 3388 3389 3391 3393 3395 3397 3399 3402 3406 3409 3409 3411 3415 3420 3423 3427 3430 3435 3440 3445 3446 3452 3458 3464 3472 3475 3478 3489 3494 3498 3500 3501 3501 3501 3500 3498 3498 3498 3503 3503 3503 3406 3406 3406 3536 3537 3582 3596 3605 3613 3620 3626 3629 3632 3634 3638 3640 3644 3647 3649 3649 3649 3648 3647 3646 3646 3645 3641 3637 3624 3610 3610 3610 3611 3612 3613 3614 3624 3639 3643 3643 3643 3634 3606 3578 3531 3492 3399 3293 3257 3119 2695 0 0 0 1824 1797 1789 1787 1781 1781 1781 1789 1797 1805 1808 1810 1816 1823 1830 1842 1849 1857 1859 1860 1864 1865 1869 1872 1876 1877 1877 1878 1878 1880 1880 1882 1885 1889 1892 1892 1894 1895 1902 1910 1923 1935 1941 1948 1954 1956 1960 1965 1968 1973 1976 1983 1987 1993 1996 2000 2005 2011 2016 2023 2029 2034 2043 2051 2057 2063 2067 2072 2076 2082 2086 2094 2104 2116 2127 2128 2128 2128 2115 2115 2115 2119 0 0 0 2584 2723 2759 2782 2812 2869 2954 3000 3000 3000 2985 2834 2728 0 0 0 2144 2108 2078 2064 2057 2041 2029 2022 2017 2009 2002 1996 1990 1982 1977 1972 1968 1964 1956 1951 1945 1940 1936 1932 1929 1923 1917 1910 1904 1899 1895 1891 1887 1882 1877 1872 1867 1864 1860 1856 1853 1850 1846 1844 1840 1837 1833 1831 1827 1825 1822 1819 1817 1813 1811 1808 1805 1802 1800 1798 1796 1793 1792 1789 1787 1786 1785 1783 1782 1781 1779 1779 1778 1776 1775 1774 1773 1772 1771 1770 1769 1768 1767 1765 1764 1763 1762 1761 1760 1759 1758 1757 1757 1755 1755 1753 1752 1751 1751 1750 1750 1749 1748 1748 1748 1748 1748 1748 1748 1748 1748 1748 1748 1748 1748 1747 1747 1747 1746 1746 1745 1745 1744 1744 1744 1744 1744 1743 1743 1743 1743 1743 1743 1743 1744 1744 1745 1745 1746 1747 1747 1747 1748 1749 1750 1753 1753 1754 1754 1755 1756 1758 1758 1760 1761 1762 1763 1764 1765 1767 1768 1769 1769 1771 1773 1777 1777 1779 1780 1781 1784 1787 1789 1792 1795 1798 1799 1800 1801 1801 1802 1804 1805 1806 1806 1806 1805 1794 1763 1743 1730 1703 1696 1681 1677 1677 1676 1674 1674 1668 1667 1665 1663 1663 1663 1663 1662 1660 1660 1660 1662 1664 1665 1665 1666 1666 1666 1667 1667 1669 1671 1674 1677 1677 1677 1679 1679 1681 1681 1682 1687 1691 1691 1691 1689 1687 1685 1682 1682 1682 1680 1678 1676 1675 1673 1672 1672 1671 1670 1669 1668 1667 1666 1665 1665 1665 1664 1664 1664 1664 1664 1667 1669 1671 1671 1672 1678 1687 1690 1693 1707 1711 1729 1774 1798 1809 1810 1811 1813 1819 1821 1856 1870 1870 1870 1867 0 0 0 0 0 0 0 0 0 0 0 0 0 0 0 0 0 0 0 0 0 0 0 0 0 0 0 0 0 0 0 0 0 0 0 0 0 0 0 0 0 0 0 0 0 0 0 0 0 0 0 0 0 0 0 0 0 0 0 0 0 0 0 0 0 0 0 0 0 0 0 0 0 0 0 0 0 0 0 0 0 0 0 0 0 0 0 0 0 0 0 0 0 0 0 0 0 0 0 0 0 0 0 0 0 0 0 0 0
2931 2931 2951 2953 2986 3027 3076 3076 3082 3087 3087 3102 3123 3133 3148 3155 3172 3178 3186 3200 3228 3256 3261 3288 3315 3329 3332 3332 3333 3333 3330 3330 3334 3340 3352 3355 3355 3355 3355 3364 3371 3376 3383 3388 3392 3392 3392 3392 3390 3390 3390 3392 3393 3396 3398 3400 3404 3407 3409 3409 3411 3415 3420 3423 3427 3431 3437 3445 3449 3450 3452 3458 3464 3472 3475 3481 3489 3495 3498 3500 3501 3501 3501 3501 3500 3500 3500 3499 3498 3492 3388 3388 3388 3537 3541 3582 3596 3605 3613 3620 3626 3629 3632 3634 3638 3640 3644 3646 3646 3646 3646 3646 3643 3642 3642 3641 3638 3632 3623 3610 3610 3610 3611 3616 3617 3622 3629 3641 3641 3641 3637 3611 3575 3541 3504 3443 3374 3275 3161 2808 0 0 0 0 1776 1776 1767 1767 1766 1762 1762 1762 1770 1774 1774 1776 1789 1804 1820 1825 1831 1846 1857 1860 1860 1861 1861 1864 1870 1874 1877 1877 1877 1877 1877 1878 1881 1886 1892 1892 1894 1895 1900 1907 1916 1920 1925 1933 1944 1951 1954 1958 1960 1963 1968 1975 1986 1991 1995 1999 2003 2007 2014 2018 2026 2034 2042 2049 2056 2062 2064 2068 2072 2080 2085 2094 2104 2114 2120 2120 2120 2109 2105 2105 2105 0 0 0 2637 2724 2760 2762 2782 2812 2865 2941 2991 2991 2991 2952 2831 2716 0 0 0 2141 2104 2076 2063 2054 2040 2026 2021 2016 2009 2002 1995 1988 1981 1976 1971 1966 1961 1953 1948 1944 1940 1935 1932 1928 1923 1917 1910 1904 1899 1894 1890 1887 1880 1875 1871 1866 1863 1860 1856 1853 1850 1846 1843 1839 1837 1833 1831 1827 1824 1822 1819 1816 1813 1811 1807 1805 1801 1799 1797 1795 1793 1791 1789 1787 1786 1785 1783 1781 1780 1779 1778 1777 1775 1774 1773 1772 1771 1771 1769 1768 1767 1766 1765 1764 1763 1762 1760 1760 1758 1757 1757 1756 1755 1753 1753 1751 1751 1750 1749 1748 1748 1747 1747 1747 1747 1747 1746 1747 1747 1747 1746 1747 1747 1747 1747 1747 1746 1746 1746 1745 1744 1744 1743 1743 1742 1742 1742 1742 1742 1742 1742 1742 1743 1743 1743 1744 1745 1746 1746 1746 1746 1746 1746 1748 1749 1750 1751 1753 1754 1754 1756 1756 1759 1759 1760 1762 1763 1764 1766 1767 1768 1769 1770 1773 1776 1777 1778 1779 1781 1784 1786 1789 1791 1794 1797 1799 1800 1800 1801 1802 1803 1804 1804 1804 1804 1804 1794 1763 1743 1730 1703 1696 1681 1677 1672 1671 1670 1668 1666 1665 1665 1663 1661 1661 1660 1660 1660 1660 1660 1662 1665 1665 1666 1666 1666 1666 1667 1668 1672 1675 1676 1677 1678 1679 1679 1680 1682 1682 1685 1700 1700 1700 1699 1694 1690 1686 1685 1684 1683 1681 1679 1678 1675 1674 1672 1672 1670 1670 1668 1667 1665 1664 1664 1664 1663 1661 1661 1660 1660 1660 1662 1663 1664 1664 1667 1672 1679 1687 1688 1696 1705 1729 1753 1785 1807 1809 1813 1815 1816 1819 1856 1869 1869 1869 1868 0 0 0 0 0 0 0 0 0 0 0 0 0 0 0 0 0 0 0 0 0 0 0 0 0 0 0 0 0 0 0 0 0 0 0 0 0 0 0 0 0 0 0 0 0 0 0 0 0 0 0 0 0 0 0 0 0 0 0 0 0 0 0 0 0 0 0 0 0 0 0 0 0 0 0 0 0 0 0 0 0 0 0 0 0 0 0 0 0 0 0 0 0 0 0 0 0 0 0 0 0 0 0 0 0 0 0 0 0
2942 2942 2979 2982 3017 3051 3076 3092 3093 3098 3109 3121 3132 3135 3150 3158 3173 3191 3205 3215 3228 3256 3261 3289 3315 3329 3333 3333 3333 3333 3330 3330 3334 3340 3352 3355 3355 3355 3355 3364 3371 3376 3384 3392 3394 3394 3394 3392 3392 3392 3392 3392 3393 3396 3399 3400 3404 3407 3409 3412 3413 3415 3420 3424 3427 3432 3440 3447 3451 3454 3455 3458 3464 3472 3480 3486 3492 3495 3498 3500 3501 3501 3502 3502 3502 3502 3503 3503 3503 3482 3409 3409 3409 3537 3541 3582 3596 3607 3616 3620 3627 3630 3632 3634 3638 3640 3643 3643 3643 3643 3643 3641 3639 3639 3638 3637 3635 3631 3623 3610 3610 3610 3611 3620 3621 3631 3638 3643 3643 3643 3626 3594 3553 3460 3458 3402 3359 3140 2828 0 0 0 0 1742 1742 1742 1750 1751 1751 1756 1756 1756 1761 1761 1764 1767 1772 1775 1781 1785 1790 1814 1827 1842 1849 1854 1858 1862 1866 1870 1875 1875 1875 1876 1876 1878 1880 1883 1888 1892 1892 1894 1900 1904 1908 1912 1918 1925 1933 1943 1948 1952 1955 1960 1963 1970 1980 1988 1993 1998 2001 2006 2011 2017 2024 2033 2039 2046 2054 2059 2062 2066 2068 2075 2082 2091 2102 2112 2120 2120 2120 2108 2108 2108 0 0 0 0 2639 2763 2771 2781 2782 2803 2852 2924 2970 2970 2970 2949 2827 2710 0 0 0 2140 2103 2074 2062 2054 2040 2026 2020 2016 2009 2002 1995 1987 1980 1975 1970 1963 1957 1951 1947 1943 1939 1934 1930 1925 1920 1915 1910 1903 1898 1893 1890 1884 1879 1873 1869 1864 1861 1858 1856 1853 1849 1845 1842 1839 1837 1833 1831 1827 1824 1821 1818 1815 1813 1809 1806 1804 1800 1798 1796 1794 1792 1790 1788 1786 1785 1783 1782 1780 1780 1779 1777 1776 1774 1773 1772 1771 1771 1769 1768 1768 1767 1765 1764 1763 1762 1761 1760 1758 1757 1756 1755 1755 1753 1752 1752 1751 1750 1749 1748 1747 1746 1746 1745 1745 1745 1745 1745 1745 1746 1746 1746 1745 1745 1745 1745 1745 1745 1745 1745 1744 1743 1743 1742 1742 1741 1741 1741 1740 1740 1740 1740 1740 1741 1741 1741 1742 1742 1743 1743 1743 1743 1743 1743 1744 1746 1748 1749 1751 1752 1752 1753 1754 1755 1757 1758 1758 1759 1761 1763 1766 1767 1768 1770 1773 1774 1776 1776 1778 1780 1783 1785 1787 1790 1791 1794 1797 1799 1799 1801 1802 1803 1803 1803 1803 1800 1800 1794 1790 1749 1734 1720 1700 1681 1677 1672 1671 1666 1665 1665 1664 1664 1660 1660 1658 1657 1657 1658 1658 1660 1663 1665 1666 1667 1667 1667 1667 1667 1669 1673 1676 1677 1678 1679 1680 1682 1685 1691 1703 1710 1710 1710 1708 1700 1698 1694 1690 1686 1686 1684 1683 1681 1678 1677 1674 1673 1672 1670 1670 1667 1666 1663 1661 1660 1660 1659 1659 1659 1657 1657 1657 1657 1657 1657 1657 1657 1663 1671 1672 1672 1676 1704 1728 1749 1778 1800 1804 1813 1815 1815 1818 1846 1869 1875 1875 1875 0 0 0 0 0 0 0 0 0 0 0 0 0 0 0 0 0 0 0 0 0 0 0 0 0 0 0 0 0 0 0 0 0 0 0 0 0 0 0 0 0 0 0 0 0 0 0 0 0 0 0 0 0 0 0 0 0 0 0 0 0 0 0 0 0 0 0 0 0 0 0 0 0 0 0 0 0 0 0 0 0 0 0 0 0 0 0 0 0 0 0 0 0 0 0 0 0 0 0 0 0 0 0 0 0 0 0 0 0
2985 2985 3025 3028 3058 3069 3078 3092 3093 3098 3109 3125 3133 3139 3153 3161 3178 3191 3205 3215 3228 3256 3261 3289 3315 3329 3333 3333 3333 3333 3332 3332 3334 3339 3354 3358 3360 3364 3364 3373 3380 3380 3390 3395 3396 3396 3396 3392 3392 3392 3392 3392 3393 3397 3399 3401 3406 3408 3410 3412 3417 3420 3423 3425 3429 3432 3442 3447 3453 3456 3461 3465 3470 3475 3483 3487 3492 3495 3498 3498 3499 3499 3499 3502 3502 3502 3502 3502 3502 3481 3441 3441 3441 3541 3555 3584 3599 3607 3619 3624 3627 3629 3632 3633 3637 3638 3640 3641 3641 3641 3639 3637 3636 3636 3634 3634 3633 3629 3623 3610 3610 3610 3611 3620 3622 3641 3646 3646 3646 3646 3617 3581 3521 3460 3401 3379 3013 2581 0 0 0 0 1756 1742 1742 1742 1750 1750 1750 1750 1750 1753 1761 1761 1761 1765 1768 1774 1775 1775 1781 1781 1791 1799 1819 1835 1850 1857 1862 1866 1871 1873 1875 1875 1875 1878 1878 1881 1886 1891 1892 1894 1897 1899 1902 1908 1915 1923 1930 1935 1941 1946 1950 1955 1962 1968 1977 1983 1990 1995 2000 2005 2011 2017 2023 2030 2038 2043 2049 2055 2058 2062 2067 2071 2076 2082 2097 2111 2111 2111 2106 2105 2105 2105 0 0 0 2650 2781 2781 2781 2781 2781 2792 2840 2900 2947 2947 2947 2942 2823 2702 0 0 0 2140 2102 2074 2061 2054 2031 2026 2020 2016 2009 2002 1994 1985 1980 1974 1968 1962 1956 1951 1946 1942 1937 1932 1927 1921 1916 1911 1906 1901 1897 1892 1887 1881 1875 1872 1867 1864 1859 1856 1854 1852 1848 1844 1841 1839 1836 1833 1829 1826 1824 1820 1818 1814 1811 1808 1805 1803 1800 1797 1795 1793 1792 1790 1788 1786 1785 1782 1781 1780 1779 1778 1776 1774 1774 1772 1771 1770 1769 1769 1768 1767 1767 1765 1764 1763 1761 1759 1758 1756 1755 1754 1754 1753 1752 1751 1750 1749 1748 1747 1746 1746 1745 1745 1745 1745 1745 1745 1745 1745 1745 1745 1744 1743 1743 1743 1743 1743 1743 1743 1743 1743 1742 1742 1741 1741 1741 1740 1740 1739 1738 1738 1738 1738 1739 1739 1739 1739 1740 1741 1741 1741 1741 1741 1741 1741 1742 1744 1747 1748 1749 1749 1750 1751 1753 1755 1756 1757 1757 1759 1761 1764 1766 1767 1768 1770 1771 1773 1774 1775 1777 1778 1781 1784 1785 1787 1790 1794 1798 1798 1798 1798 1799 1799 1799 1799 1796 1796 1794 1790 1776 1740 1724 1717 1699 1681 1672 1671 1666 1665 1665 1664 1664 1659 1657 1657 1657 1657 1657 1658 1660 1663 1665 1667 1667 1667 1668 1668 1668 1671 1674 1677 1677 1684 1689 1689 1691 1698 1716 1719 1719 1719 1719 1710 1702 1699 1698 1693 1690 1689 1687 1685 1682 1678 1677 1675 1673 1672 1670 1669 1666 1664 1662 1659 1658 1657 1657 1656 1656 1654 1653 1652 1651 1651 1651 1651 1651 1652 1653 1655 1659 1660 1701 1719 1746 1776 1795 1803 1814 1815 1816 1818 1844 1863 1872 1872 1872 0 0 0 0 0 0 0 0 0 0 0 0 0 0 0 0 0 0 0 0 0 0 0 0 0 0 0 0 0 0 0 0 0 0 0 0 0 0 0 0 0 0 0 0 0 0 0 0 0 0 0 0 0 0 0 0 0 0 0 0 0 0 0 0 0 0 0 0 0 0 0 0 0 0 0 0 0 0 0 0 0 0 0 0 0 0 0 0 0 0 0 0 0 0 0 0 0 0 0 0 0 0 0 0 0 0 0 0 0
3013 3013 3025 3056 3075 3078 3080 3087 3093 3098 3109 3125 3138 3139 3156 3161 3180 3191 3205 3215 3220 3231 3251 3289 3310 3321 3332 3332 3332 3332 3332 3332 3332 3332 3350 3358 3362 3375 3376 3378 3380 3384 3390 3395 3396 3396 3396 3393 3392 3392 3392 3392 3394 3398 3400 3403 3406 3408 3410 3413 3417 3420 3428 3430 3435 3439 3446 3454 3457 3462 3465 3469 3475 3478 3483 3487 3492 3495 3497 3497 3497 3499 3499 3502 3504 3504 3504 3504 3502 3474 3474 3474 3494 3530 3568 3597 3606 3615 3620 3626 3627 3629 3630 3632 3634 3635 3638 3638 3638 3637 3636 3635 3633 3632 3632 3632 3629 3625 3620 3608 3608 3608 3611 3620 3626 3641 3646 3646 3646 3638 3609 3561 3458 3428 3376 3036 2600 0 0 0 0 0 1748 1742 1742 1742 1745 1745 1745 1745 1745 1752 1759 1759 1761 1761 1764 1774 1775 1775 1780 1780 1780 1781 1792 1806 1832 1849 1857 1858 1863 1870 1873 1874 1875 1876 1878 1881 1881 1887 1892 1892 1894 1896 1899 1906 1912 1919 1926 1929 1933 1937 1943 1951 1962 1968 1975 1981 1986 1992 2000 2005 2010 2014 2020 2026 2033 2040 2046 2050 2057 2061 2064 2068 2069 2082 2095 2111 2111 2111 2105 2105 2105 0 0 0 2558 2798 2798 2798 2781 2781 2781 2787 2826 2880 2929 2930 2930 2930 2818 2692 0 0 0 2134 2099 2069 2057 2045 2031 2023 2018 2014 2007 2000 1992 1984 1979 1973 1966 1961 1955 1950 1946 1941 1936 1931 1924 1918 1914 1909 1903 1899 1895 1890 1884 1878 1873 1870 1867 1863 1859 1856 1854 1852 1848 1844 1840 1837 1835 1831 1828 1825 1823 1820 1817 1812 1809 1807 1803 1800 1798 1796 1794 1793 1791 1789 1787 1784 1783 1781 1780 1778 1778 1777 1776 1774 1772 1772 1770 1769 1768 1768 1767 1767 1766 1765 1764 1762 1760 1758 1757 1756 1755 1753 1752 1752 1751 1750 1748 1747 1746 1745 1743 1742 1742 1742 1743 1744 1744 1744 1744 1743 1743 1743 1743 1742 1741 1741 1741 1740 1740 1739 1739 1739 1740 1740 1740 1739 1739 1739 1739 1738 1736 1736 1736 1736 1736 1736 1737 1737 1737 1738 1738 1738 1738 1737 1737 1737 1737 1738 1741 1742 1744 1746 1746 1747 1748 1749 1751 1753 1754 1756 1758 1760 1762 1763 1763 1766 1768 1769 1769 1769 1772 1774 1776 1779 1779 1779 1782 1785 1790 1791 1792 1792 1792 1793 1793 1794 1794 1793 1793 1790 1776 1764 1735 1727 1721 1711 1694 1673 1666 1665 1665 1664 1664 1660 1657 1657 1657 1657 1657 1658 1661 1663 1666 1668 1670 1672 1672 1672 1672 1674 1678 1682 1689 1693 1693 1700 1714 1720 1728 1728 1728 1726 1724 1717 1710 1704 1700 1696 1695 1692 1689 1685 1682 1678 1677 1675 1673 1671 1670 1667 1666 1663 1660 1658 1656 1656 1654 1654 1653 1653 1651 1648 1648 1648 1648 1649 1649 1650 1650 1651 1654 1659 1676 1719 1745 1763 1787 1795 1805 1814 1819 1819 1840 1863 1868 1868 1868 0 0 0 0 0 0 0 0 0 0 0 0 0 0 0 0 0 0 0 0 0 0 0 0 0 0 0 0 0 0 0 0 0 0 0 0 0 0 0 0 0 0 0 0 0 0 0 0 0 0 0 0 0 0 0 0 0 0 0 0 0 0 0 0 0 0 0 0 0 0 0 0 0 0 0 0 0 0 0 0 0 0 0 0 0 0 0 0 0 0 0 0 0 0 0 0 0 0 0 0 0 0 0 0 0 0 0 0 0
3013 3013 3025 3061 3075 3077 3080 3083 3084 3089 3106 3125 3139 3143 3156 3161 3177 3180 3185 3190 3197 3205 3226 3260 3288 3302 3313 3327 3328 3328 3328 3330 3330 3332 3350 3366 3367 3376 3378 3379 3381 3386 3390 3395 3396 3396 3396 3393 3393 3392 3392 3392 3395 3398 3400 3403 3406 3408 3410 3413 3417 3422 3428 3436 3440 3448 3453 3458 3461 3464 3468 3470 3475 3478 3483 3487 3492 3495 3495 3495 3497 3498 3498 3502 3504 3504 3504 3504 3502 3476 3476 3476 3494 3530 3579 3606 3611 3619 3623 3628 3628 3629 3630 3631 3631 3634 3636 3636 3636 3636 3635 3633 3631 3629 3629 3628 3626 3623 3613 3608 3608 3608 3616 3624 3630 3643 3643 3643 3639 3625 3591 3504 3444 3412 3073 2687 0 0 0 0 1753 1749 1748 1736 1736 1736 1739 1740 1744 1744 1744 1750 1756 1757 1759 1759 1760 1770 1775 1775 1780 1780 1780 1781 1792 1792 1793 1805 1839 1854 1855 1861 1870 1873 1874 1875 1878 1879 1881 1882 1885 1891 1893 1893 1898 1904 1910 1916 1919 1923 1927 1930 1934 1946 1958 1964 1973 1977 1983 1989 1997 2002 2006 2011 2017 2022 2029 2036 2041 2046 2052 2056 2062 2068 2069 2082 2095 2108 2108 2108 2109 2111 0 0 0 2519 2746 2798 2798 2798 2775 2775 2775 2785 2826 2876 2929 2929 2929 2923 2805 2675 0 0 0 2120 2090 2067 2042 2037 2030 2021 2016 2012 2005 1996 1988 1982 1976 1971 1964 1959 1954 1950 1945 1940 1935 1929 1922 1917 1913 1908 1902 1897 1892 1889 1883 1876 1870 1868 1865 1862 1859 1856 1854 1850 1846 1844 1840 1836 1833 1830 1826 1824 1821 1818 1814 1812 1807 1805 1801 1798 1797 1796 1794 1793 1791 1788 1786 1784 1782 1781 1779 1777 1776 1775 1774 1773 1772 1772 1770 1769 1768 1766 1766 1765 1765 1765 1763 1761 1759 1757 1757 1756 1754 1753 1752 1751 1750 1748 1746 1745 1743 1741 1741 1741 1741 1741 1741 1742 1742 1742 1741 1740 1740 1740 1739 1739 1738 1738 1738 1738 1738 1736 1736 1736 1736 1736 1736 1737 1736 1736 1736 1735 1734 1732 1732 1732 1732 1732 1733 1734 1734 1735 1735 1735 1734 1733 1731 1730 1730 1731 1734 1735 1736 1738 1739 1740 1741 1744 1745 1747 1748 1750 1752 1752 1753 1755 1756 1757 1759 1759 1759 1762 1765 1767 1768 1768 1768 1768 1769 1772 1775 1777 1777 1781 1782 1782 1782 1778 1774 1774 1774 1774 1774 1772 1764 1763 1737 1719 1705 1692 1675 1665 1665 1664 1664 1660 1657 1657 1657 1657 1661 1665 1668 1668 1669 1669 1671 1673 1675 1677 1677 1680 1680 1682 1698 0 0 1764 1764 1764 1747 1739 1738 1733 1731 1726 1719 1713 1706 1701 1698 1695 1692 1687 1682 1678 1677 1675 1673 1670 1668 1665 1662 1662 1659 1657 1654 1653 1653 1652 1650 1649 1647 1646 1646 1646 1646 1648 1648 1648 1648 1650 1651 1653 1667 1686 1734 1734 1761 1784 1797 1814 1816 1821 1838 1863 1863 1863 1842 0 0 0 0 0 0 0 0 0 0 0 0 0 0 0 0 0 0 0 0 0 0 0 0 0 0 0 0 0 0 0 0 0 0 0 0 0 0 0 0 0 0 0 0 0 0 0 0 0 0 0 0 0 0 0 0 0 0 0 0 0 0 0 0 0 0 0 0 0 0 0 0 0 0 0 0 0 0 0 0 0 0 0 0 0 0 0 0 0 0 0 0 0 0 0 0 0 0 0 0 0 0 0 0 0 0 0 0 0
3013 3013 3019 3061 3072 3073 3073 3073 3073 3080 3100 3122 3139 3143 3156 3156 3158 3161 3177 3177 3197 3205 3226 3238 3265 3280 3293 3314 3327 3327 3327 3328 3328 3332 3350 3366 3368 3377 3378 3379 3383 3386 3390 3395 3396 3396 3396 3395 3395 3394 3395 3395 3395 3398 3400 3403 3406 3408 3410 3413 3418 3423 3428 3439 3442 3450 3454 3458 3461 3464 3468 3470 3475 3478 3483 3485 3490 3495 3495 3495 3496 3496 3498 3502 3504 3504 3504 3504 3504 3476 3476 3476 3494 3530 3594 3608 3615 3620 3625 3629 3629 3630 3630 3630 3631 3631 3634 3635 3635 3635 3634 3630 3629 3626 3625 3624 3623 3621 3612 3612 3612 3614 3622 3625 3633 3644 3644 3644 3623 3608 3547 3479 3437 3287 2851 0 0 0 0 1756 1753 1748 1746 1736 1732 1732 1732 1734 1736 1736 1741 1741 1743 1749 1755 1755 1757 1769 1785 1785 1785 1785 1789 1791 1792 1792 1792 1795 1806 1835 1849 1855 1863 1870 1873 1874 1877 1879 1881 1881 1883 1889 1891 1891 1896 1901 1907 1911 1915 1917 1922 1924 1925 1940 1954 1960 1966 1976 1981 1986 1991 1998 2000 2007 2013 2019 2025 2034 2040 2045 2052 2055 2060 2068 2069 2079 2089 2093 2103 2106 2111 0 0 0 2630 2810 2810 2810 2801 2779 2763 2763 2763 2780 2818 2875 2919 2919 2919 2877 2783 2662 0 0 0 2106 2084 2065 2042 2034 2028 2021 2016 2008 2000 1991 1986 1980 1973 1968 1961 1957 1953 1948 1943 1939 1933 1927 1921 1917 1912 1907 1902 1896 1891 1883 1879 1874 1870 1866 1864 1861 1859 1856 1854 1849 1846 1841 1837 1833 1831 1828 1825 1821 1818 1815 1813 1810 1806 1803 1799 1796 1794 1794 1793 1792 1790 1787 1784 1782 1779 1778 1777 1776 1775 1774 1772 1771 1771 1771 1770 1769 1767 1766 1765 1764 1763 1761 1760 1759 1758 1757 1757 1755 1754 1753 1751 1749 1749 1747 1744 1741 1741 1739 1739 1739 1739 1739 1739 1738 1738 1737 1737 1736 1736 1736 1736 1736 1736 1736 1736 1735 1735 1734 1734 1734 1734 1734 1734 1734 1734 1734 1734 1731 1730 1729 1728 1726 1726 1726 1728 1730 1731 1731 1731 1730 1728 1724 1721 1717 1717 1717 1717 1717 1720 1723 1723 1723 1727 1731 1735 1738 1739 1741 1741 1741 1741 1741 1741 1745 1746 1748 1751 1752 1754 1754 1754 1753 1753 1753 1753 1753 1748 1745 1744 1743 0 0 1731 1721 1721 1721 1721 1736 1747 1764 1777 1777 1777 1747 1719 1703 1697 1686 1673 1666 1665 1665 1662 1662 1662 1665 1671 1673 1674 1674 1674 1674 1674 1675 1696 1715 1716 1717 1718 0 0 0 1798 1798 1798 1789 1784 1756 1747 1738 1735 1731 1727 1724 1716 1706 1701 1699 1694 1688 1683 1679 1678 1676 1673 1670 1667 1665 1662 1661 1659 1656 1653 1651 1651 1649 1648 1647 1645 1643 1643 1643 1644 1644 1644 1642 1642 1642 1646 1648 1649 1651 1685 1714 1732 1774 1793 1814 1814 1821 1838 1863 1863 1863 0 0 0 0 0 0 0 0 0 0 0 0 0 0 0 0 0 0 0 0 0 0 0 0 0 0 0 0 0 0 0 0 0 0 0 0 0 0 0 0 0 0 0 0 0 0 0 0 0 0 0 0 0 0 0 0 0 0 0 0 0 0 0 0 0 0 0 0 0 0 0 0 0 0 0 0 0 0 0 0 0 0 0 0 0 0 0 0 0 0 0 0 0 0 0 0 0 0 0 0 0 0 0 0 0 0 0 0 0 0
3013 3013 3018 3058 3058 3058 3058 3058 3059 3072 3082 3114 3138 3143 3146 3148 3150 3154 3158 3173 3197 3205 3223 3238 3253 3261 3277 3305 3316 3320 3321 3323 3327 3340 3357 3367 3374 3379 3379 3381 3384 3386 3390 3396 3397 3398 3398 3398 3398 3397 3396 3396 3396 3398 3399 3403 3406 3410 3410 3415 3421 3424 3428 3439 3442 3450 3454 3458 3461 3464 3468 3470 3474 3477 3481 3485 3489 3494 3494 3494 3494 3494 3495 3498 3502 3504 3506 3506 3506 3474 3474 3474 3486 3532 3608 3610 3616 3621 3627 3630 3630 3631 3631 3631 3631 3631 3633 3633 3634 3634 3634 3630 3626 3622 3622 3622 3621 3619 3618 3618 3618 3626 3631 3634 3636 3639 3639 3639 3608 3557 3443 3431 3344 2912 0 0 0 0 1759 1755 1752 1748 1744 1736 1727 1724 1724 1725 1725 1732 1732 1734 1736 1740 1745 1745 1755 1764 1770 1785 1789 1796 1796 1796 1792 1792 1792 1793 1799 1807 1830 1845 1857 1867 1869 1870 1873 1878 1880 1880 1880 1886 1890 1891 1894 1899 1903 1908 1911 1915 1918 1919 1920 1930 1949 1957 1963 1972 1977 1981 1984 1992 1999 2006 2011 2017 2024 2031 2035 2041 2046 2051 2059 2066 2069 2074 2076 2078 2097 2122 0 0 0 0 2868 2868 2868 2810 2781 2758 2756 2756 2756 2779 2808 2864 2909 2909 2909 2850 2746 2625 0 0 0 2102 2084 2064 2041 2030 2027 2021 2009 2003 1994 1987 1982 1978 1970 1964 1959 1954 1951 1945 1941 1937 1931 1924 1919 1915 1909 1903 1900 1895 1886 1879 1875 1873 1869 1865 1863 1860 1859 1856 1853 1849 1843 1837 1834 1830 1829 1828 1824 1820 1818 1814 1812 1809 1806 1803 1798 1794 1793 1791 1791 1790 1788 1785 1782 1778 1777 1775 1773 1773 1772 1771 1769 1769 1769 1768 1768 1766 1765 1764 1763 1761 1761 1759 1758 1758 1756 1756 1756 1755 1754 1751 1749 1747 1747 1745 1741 1740 1739 1736 1736 1736 1736 1736 1736 1736 1735 1733 1732 1731 1731 1731 1731 1732 1732 1732 1732 1731 1730 1729 1729 1729 1729 1730 1730 1731 1731 1730 1730 1726 1723 1722 1720 1720 1720 1720 1720 1720 1720 1716 1705 1704 1703 1702 1697 1694 1694 1694 1696 1696 1696 1698 1698 1699 1700 1703 1705 1708 1708 1708 1712 1712 1722 1724 1726 1726 1726 1726 1718 1717 1716 1715 1711 1711 1710 1707 1707 1705 1704 1699 1688 1683 1683 1683 1681 1681 1681 1681 1687 1696 1731 1758 1779 1782 1782 1782 1769 1734 1722 1719 1706 1704 1698 1695 1690 1689 1686 1679 1678 1678 1678 1684 1685 1688 1704 1714 1739 1755 1755 0 0 0 0 1816 1837 1837 1837 1832 1816 1785 1764 1746 1739 1736 1732 1728 1725 1718 1708 1702 1698 1691 1683 1680 1678 1676 1673 1669 1667 1665 1662 1661 1657 1655 1652 1649 1647 1646 1644 1643 1642 1641 1640 1639 1638 1638 1637 1636 1636 1636 1641 1641 1644 1644 1658 1703 1714 1766 1792 1808 1811 1821 1840 1863 1863 1863 0 0 0 0 0 0 0 0 0 0 0 0 0 0 0 0 0 0 0 0 0 0 0 0 0 0 0 0 0 0 0 0 0 0 0 0 0 0 0 0 0 0 0 0 0 0 0 0 0 0 0 0 0 0 0 0 0 0 0 0 0 0 0 0 0 0 0 0 0 0 0 0 0 0 0 0 0 0 0 0 0 0 0 0 0 0 0 0 0 0 0 0 0 0 0 0 0 0 0 0 0 0 0 0 0 0 0 0 0 0
3006 3006 3009 3029 3029 3036 3036 3030 3036 3040 3041 3083 3119 3132 3138 3139 3141 3147 3156 3167 3192 3205 3222 3236 3244 3249 3266 3294 3315 3320 3321 3323 3327 3340 3360 3374 3376 3380 3380 3383 3387 3388 3392 3396 3398 3399 3401 3401 3401 3399 3396 3396 3396 3398 3399 3403 3407 3412 3415 3416 3425 3428 3430 3440 3443 3450 3454 3457 3461 3464 3467 3470 3474 3476 3478 3483 3488 3490 3490 3490 3490 3490 3495 3498 3498 3502 3504 3504 3495 3468 3468 3468 3486 3538 3608 3617 3619 3625 3628 3630 3631 3633 3633 3633 3633 3633 3633 3633 3634 3634 3634 3630 3626 3622 3620 3619 3618 3616 3616 3616 3624 3631 3631 3634 3636 3636 3636 3633 3592 3477 3443 3367 3164 2541 0 0 0 1760 1757 1755 1752 1748 1741 1733 1721 1719 1719 1719 1719 1719 1719 1720 1722 1730 1735 1743 1749 1757 1766 1775 1789 1796 1802 1802 1802 1793 1793 1792 1791 1792 1796 1805 1834 1861 1868 1869 1870 1875 1878 1880 1880 1882 1886 1889 1892 1896 1899 1902 1906 1911 1913 1915 1918 1920 1934 1951 1957 1970 1977 1979 1983 1991 1997 2004 2009 2014 2019 2026 2033 2038 2044 2051 2058 2064 2064 2069 2071 2071 2087 0 0 0 0 2747 2878 2878 2878 2806 2754 2729 2729 2729 2746 2773 2800 2847 2882 2882 2882 2804 2701 2563 0 0 2134 2100 2081 2063 2038 2027 2022 2014 2005 1996 1989 1984 1978 1973 1965 1961 1958 1954 1948 1943 1939 1934 1929 1922 1917 1915 1905 1900 1897 1891 1883 1878 1873 1871 1866 1863 1860 1858 1857 1855 1851 1847 1840 1833 1830 1828 1827 1826 1823 1820 1818 1814 1811 1807 1805 1802 1798 1794 1791 1789 1789 1789 1787 1784 1779 1777 1775 1773 1772 1771 1771 1771 1768 1766 1766 1765 1764 1763 1761 1759 1759 1758 1757 1756 1755 1753 1753 1752 1752 1752 1750 1746 1744 1743 1742 1741 1740 1736 1734 1733 1733 1732 1732 1732 1732 1732 1729 1727 1726 1726 1726 1726 1727 1727 1727 1727 1725 1724 1724 1724 1724 1725 1725 1725 1725 1724 1720 1718 1717 1715 1713 1712 1711 1711 1711 1710 1709 1709 1703 1688 1679 1675 1673 1673 1669 1669 1669 1670 1673 1673 1675 1675 1677 1677 1677 1674 1674 1674 1674 1675 1676 1676 1680 1682 1685 1686 1686 1686 1684 1683 1682 1681 1680 1679 1678 1678 1677 1675 1674 1674 1673 1672 1668 1664 1664 1664 1667 1670 1675 1686 1714 1756 1779 1787 1801 1801 1801 1794 1789 1754 1733 1713 1713 1713 1712 1707 1707 1707 1710 1710 1711 1714 1715 1726 0 0 0 0 0 0 0 0 1866 1878 1878 1878 1875 1853 1839 1813 1790 1758 1745 1740 1736 1732 1729 1722 1713 1702 1698 1693 1690 1683 1679 1676 1673 1669 1667 1665 1662 1660 1657 1654 1650 1649 1646 1644 1643 1641 1639 1637 1636 1636 1636 1636 1630 1630 1630 1632 1635 1636 1636 1638 1650 1685 1707 1752 1791 1807 1810 1821 1845 1865 1865 1865 0 0 0 0 0 0 0 0 0 0 0 0 0 0 0 0 0 0 0 0 0 0 0 0 0 0 0 0 0 0 0 0 0 0 0 0 0 0 0 0 0 0 0 0 0 0 0 0 0 0 0 0 0 0 0 0 0 0 0 0 0 0 0 0 0 0 0 0 0 0 0 0 0 0 0 0 0 0 0 0 0 0 0 0 0 0 0 0 0 0 0 0 0 0 0 0 0 0 0 0 0 0 0 0 0 0 0 0 0 0
2975 2975 2977 2985 2985 3005 3009 3030 3036 3038 3040 3067 3101 3123 3127 3133 3141 3147 3156 3167 3192 3205 3222 3229 3230 3244 3266 3288 3310 3315 3315 3317 3321 3340 3360 3374 3376 3380 3385 3387 3390 3392 3395 3396 3398 3399 3401 3401 3401 3400 3397 3397 3397 3398 3399 3404 3407 3412 3421 3422 3429 3429 3430 3440 3444 3450 3454 3457 3461 3464 3467 3470 3473 3476 3478 3482 3487 3490 3490 3490 3490 3490 3495 3498 3498 3502 3504 3504 3495 3432 3432 3432 3486 3538 3608 3617 3623 3627 3628 3630 3631 3634 3635 3635 3635 3633 3633 3633 3633 3633 3633 3632 3626 3622 3620 3619 3615 3615 3615 3624 3631 3631 3633 3634 3636 3636 3636 3619 3577 3457 3414 3334 2734 0 0 0 0 1760 1754 1746 1746 1744 1738 1726 1712 1712 1712 1712 1712 1710 1710 1712 1712 1715 1726 1736 1740 1747 1751 1760 1777 1796 1802 1805 1805 1805 1793 1793 1793 1789 1789 1789 1795 1818 1858 1867 1868 1871 1874 1875 1876 1879 1883 1887 1890 1893 1895 1897 1899 1905 1908 1913 1916 1918 1931 1949 1955 1964 1975 1978 1981 1988 1995 2002 2007 2012 2014 2024 2029 2034 2037 2041 2051 2054 2054 2057 2060 2069 0 0 0 0 2566 2831 2878 2878 2878 2794 2738 2705 2705 2705 2718 2740 2777 2825 2829 2829 2829 2749 2666 2505 0 0 2121 2096 2070 2056 2035 2024 2017 2010 2003 1995 1988 1982 1975 1969 1963 1959 1955 1951 1942 1938 1937 1932 1926 1921 1916 1912 1904 1897 1893 1888 1881 1876 1872 1867 1864 1861 1859 1856 1852 1850 1848 1843 1833 1831 1829 1828 1826 1824 1822 1819 1817 1814 1809 1807 1805 1802 1797 1793 1790 1788 1787 1786 1785 1783 1779 1776 1774 1771 1769 1769 1768 1768 1767 1765 1762 1761 1759 1757 1756 1753 1753 1752 1752 1751 1749 1749 1746 1746 1745 1744 1743 1739 1736 1736 1734 1734 1732 1730 1730 1728 1728 1726 1726 1726 1725 1725 1723 1720 1718 1718 1718 1717 1717 1716 1711 1707 1704 1704 1704 1707 1707 1707 1707 1706 1706 1706 1707 1707 1707 1707 1704 1700 1700 1698 1697 1696 1693 1691 1686 1671 1665 1663 1660 1660 1659 1659 1659 1661 1663 1665 1665 1665 1665 1665 1664 1662 1662 1662 1664 1665 1665 1665 1665 1666 1666 1668 1670 1671 1672 1672 1672 1671 1669 1666 1665 1664 1664 1664 1664 1663 1663 1663 1659 1657 1657 1657 1659 1663 1670 1681 1705 1748 1779 1791 1806 1806 1808 1808 1805 1805 1794 1790 0 0 0 0 0 0 0 0 0 0 0 0 0 0 0 1868 1868 1880 1883 1885 1887 1894 1894 1894 1894 1874 1851 1824 1802 1780 1756 1745 1741 1737 1732 1726 1717 1707 1699 1697 1690 1684 1681 1678 1673 1669 1667 1665 1663 1659 1656 1653 1649 1647 1645 1644 1643 1641 1638 1637 1634 1633 1632 1629 1628 1628 1628 1628 1628 1630 1630 1632 1632 1665 1692 1748 1791 1806 1808 1821 1847 1866 1878 1878 0 0 0 0 0 0 0 0 0 0 0 0 0 0 0 0 0 0 0 0 0 0 0 0 0 0 0 0 0 0 0 0 0 0 0 0 0 0 0 0 0 0 0 0 0 0 0 0 0 0 0 0 0 0 0 0 0 0 0 0 0 0 0 0 0 0 0 0 0 0 0 0 0 0 0 0 0 0 0 0 0 0 0 0 0 0 0 0 0 0 0 0 0 0 0 0 0 0 0 0 0 0 0 0 0 0 0 0 0 0
2940 2940 2941 2954 2963 2982 3006 3030 3031 3031 3040 3067 3095 3110 3127 3133 3141 3150 3158 3165 3175 3194 3209 3215 3230 3244 3264 3287 3305 3310 3314 3315 3320 3338 3360 3374 3374 3380 3386 3391 3391 3394 3396 3397 3398 3399 3401 3401 3401 3400 3397 3397 3397 3398 3400 3404 3408 3412 3421 3427 3429 3431 3435 3440 3444 3450 3454 3457 3461 3464 3467 3471 3473 3475 3478 3481 3486 3489 3489 3489 3489 3489 3496 3502 3504 3505 3508 3505 3505 3420 3420 3420 3504 3538 3600 3617 3623 3627 3628 3630 3631 3634 3635 3636 3636 3636 3635 3635 3634 3634 3633 3632 3627 3625 3620 3619 3617 3617 3617 3626 3626 3627 3627 3627 3626 3624 3624 3607 3553 3406 3401 3142 0 0 0 0 1767 1760 1747 1740 1739 1736 1728 1715 1708 1706 1701 1701 1701 1705 1705 1707 1708 1708 1709 1714 1721 1732 1743 1753 1767 1785 1802 1806 1806 1806 1801 1795 1793 1786 1786 1786 1786 1794 1821 1854 1862 1864 1868 1869 1871 1876 1880 1883 1889 1892 1893 1894 1898 1904 1906 1907 1913 1915 1925 1936 1953 1961 1969 1975 1979 1984 1991 2001 2004 2005 2014 2022 2027 2028 2029 2029 2039 2040 2040 2042 2042 2042 0 0 0 2504 2664 2831 2862 2862 2862 2782 2723 2699 2685 2685 2685 2706 2746 2800 2800 2800 2775 2719 2614 0 0 0 2111 2084 2060 2040 2027 2021 2013 2003 1999 1995 1987 1981 1974 1966 1959 1956 1952 1945 1938 1932 1931 1928 1923 1919 1916 1912 1903 1895 1889 1882 1875 1871 1868 1865 1860 1858 1858 1853 1849 1848 1847 1841 1830 1830 1829 1828 1824 1821 1820 1818 1815 1811 1807 1805 1803 1801 1795 1790 1786 1784 1784 1782 1782 1781 1778 1776 1772 1768 1766 1765 1765 1763 1763 1760 1757 1756 1754 1750 1748 1745 1745 1745 1744 1744 1744 1739 1737 1735 1733 1729 1729 1725 1724 1724 1723 1723 1723 1720 1719 1718 1716 1710 1708 1708 1708 1708 1708 1706 1702 1697 1696 1696 1694 1692 1686 1681 1681 1681 1681 1681 1681 1677 1676 1675 1675 1675 1675 1679 1679 1679 1679 1672 1669 1668 1666 1666 1665 1664 1663 1655 1654 1654 1652 1651 1651 1651 1651 1652 1652 1652 1652 1652 1652 1652 1653 1653 1653 1653 1657 1658 1659 1660 1660 1660 1660 1661 1661 1661 1661 1662 1663 1663 1663 1661 1660 1660 1660 1658 1657 1656 1655 1653 1653 1653 1653 1653 1655 1660 1664 1674 1694 1740 1779 1791 1807 1811 1811 1812 1812 1812 1816 1820 1831 1833 1833 0 0 0 0 0 0 0 0 0 1856 1866 1871 1880 1881 1884 1885 1887 1889 1898 1898 1898 1898 1890 1879 1856 1811 1791 1773 1760 1749 1743 1737 1730 1724 1715 1708 1698 1690 1688 1682 1679 1677 1674 1670 1667 1663 1659 1655 1652 1648 1644 1642 1642 1641 1640 1638 1635 1634 1632 1629 1626 1626 1626 1627 1627 1627 1628 1629 1631 1631 1663 1686 1733 1788 1807 1808 1821 1848 1863 1878 1878 0 0 0 0 0 0 0 0 0 0 0 0 0 0 0 0 0 0 0 0 0 0 0 0 0 0 0 0 0 0 0 0 0 0 0 0 0 0 0 0 0 0 0 0 0 0 0 0 0 0 0 0 0 0 0 0 0 0 0 0 0 0 0 0 0 0 0 0 0 0 0 0 0 0 0 0 0 0 0 0 0 0 0 0 0 0 0 0 0 0 0 0 0 0 0 0 0 0 0 0 0 0 0 0 0 0 0 0 0 0
2911 2911 2915 2938 2961 2978 3005 3029 3031 3035 3045 3067 3095 3110 3127 3133 3148 3151 3158 3165 3175 3194 3209 3215 3226 3243 3258 3273 3294 3300 3302 3307 3318 3337 3358 3373 3374 3380 3389 3391 3392 3396 3396 3397 3398 3398 3399 3400 3400 3400 3397 3397 3397 3399 3404 3404 3408 3412 3421 3429 3434 3440 3444 3448 3452 3453 3456 3458 3462 3465 3470 3472 3473 3475 3477 3481 3485 3489 3490 3491 3491 3494 3498 3502 3508 3511 3511 3511 3508 3409 3409 3409 3505 3537 3599 3615 3623 3626 3627 3629 3631 3634 3635 3636 3636 3636 3635 3635 3634 3634 3633 3632 3627 3625 3623 3619 3617 3617 3617 3627 3627 3627 3620 3618 3615 3614 3611 3600 3519 3403 3353 3022 0 0 0 1764 1761 1759 1744 1737 1735 1730 1711 1698 1695 1690 1683 1683 1683 1686 1691 1691 1691 1692 1692 1692 1699 1717 1731 1743 1756 1769 1784 1799 1804 1804 1804 1802 1793 1785 1784 1781 1781 1784 1803 1829 1853 1859 1865 1868 1870 1875 1879 1882 1887 1891 1892 1893 1894 1899 1901 1904 1909 1913 1919 1928 1942 1958 1965 1973 1976 1980 1987 1994 1997 2004 2013 2020 2024 2024 2025 2027 2027 2027 2022 2022 2022 0 0 0 0 2538 2664 2831 2842 2842 2842 2781 2715 2675 2658 2658 2658 2659 2706 2750 2750 2750 2726 2675 2555 0 0 0 2106 2071 2041 2021 2019 2013 2004 1998 1997 1994 1987 1980 1972 1964 1959 1954 1951 1945 1935 1927 1923 1922 1920 1919 1916 1912 1901 1890 1881 1875 1868 1865 1864 1859 1857 1856 1854 1852 1847 1846 1845 1838 1824 1824 1824 1822 1818 1815 1813 1813 1810 1806 1803 1801 1796 1788 1780 1772 1772 1772 1776 1776 1776 1774 1772 1770 1766 1759 1755 1754 1751 1750 1748 1746 1743 1740 1740 1739 1737 1732 1728 1728 1728 1726 1726 1725 1722 1718 1711 1701 1701 1701 1702 1702 1702 1696 1693 1689 1684 1681 1676 1675 1673 1671 1671 1671 1673 1673 1673 1670 1666 1666 1666 1667 1668 1669 1669 1669 1669 1669 1668 1664 1663 1660 1657 1655 1655 1655 1657 1658 1658 1658 1655 1654 1654 1654 1653 1653 1650 1648 1647 1647 1647 1648 1648 1648 1649 1650 1650 1650 1648 1647 1646 1646 1646 1646 1647 1649 1650 1652 1653 1653 1653 1653 1653 1654 1654 1654 1655 1655 1655 1657 1657 1657 1656 1656 1654 1654 1653 1651 1651 1650 1650 1650 1650 1651 1653 1657 1662 1669 1679 0 1777 1791 1807 1814 1814 1815 1817 1818 1822 1825 1833 1838 1838 1840 1842 1845 1846 1846 1847 1854 1855 1859 1861 1876 1884 1887 1887 1888 1888 1889 1894 1900 1900 1900 1898 1890 1879 1856 1823 1807 1784 1767 1759 1748 1741 1736 1730 1725 1717 1709 1699 1690 1683 1681 1680 1678 1675 1671 1665 1661 1655 1648 1645 1643 1641 1639 1639 1637 1636 1634 1632 1630 1627 1625 1624 1624 1624 1624 1624 1626 1629 1631 1631 1656 1679 0 1773 1807 1810 1822 1848 1863 1878 1878 0 0 0 0 0 0 0 0 0 0 0 0 0 0 0 0 0 0 0 0 0 0 0 0 0 0 0 0 0 0 0 0 0 0 0 0 0 0 0 0 0 0 0 0 0 0 0 0 0 0 0 0 0 0 0 0 0 0 0 0 0 0 0 0 0 0 0 0 0 0 0 0 0 0 0 0 0 0 0 0 0 0 0 0 0 0 0 0 0 0 0 0 0 0 0 0 0 0 0 0 0 0 0 0 0 0 0 0 0 0
2880 2880 2885 2923 2957 2974 3002 3024 3029 3035 3045 3068 3095 3110 3133 3140 3168 3168 3170 3175 3175 3194 3208 3212 3225 3239 3255 3273 3288 3291 3293 3293 3307 3331 3347 3358 3368 3380 3389 3393 3394 3397 3397 3397 3397 3397 3397 3398 3398 3398 3398 3398 3398 3401 3404 3406 3408 3412 3421 3429 3434 3441 3445 3450 3453 3454 3456 3458 3462 3465 3470 3473 3474 3475 3477 3480 3483 3486 3489 3489 3491 3495 3499 3503 3505 3511 3513 3513 3505 3403 3403 3403 3509 3535 3599 3615 3623 3623 3625 3625 3629 3632 3633 3634 3635 3635 3635 3634 3634 3633 3631 3630 3627 3625 3623 3622 3617 3617 3617 3623 3623 3623 3604 3604 3600 3598 3593 3580 3463 3376 3252 2692 0 0 0 1759 1756 1751 1738 1735 1721 1712 1704 1691 1682 1674 1670 1661 1661 1661 1666 1670 1671 1672 1673 1677 1685 1699 1716 1731 1743 1754 1767 1783 1799 1802 1802 1802 1795 1786 1785 1784 1784 1786 1798 1826 1851 1858 1864 1867 1868 1873 1877 1878 1881 1885 1888 1890 1892 1897 1898 1903 1907 1913 1915 1922 1936 1952 1960 1965 1970 1973 1981 1988 1995 2003 2009 2015 2015 2015 2013 2013 2008 2000 1977 1977 0 0 0 0 0 2538 2664 2810 2810 2810 2755 2682 2617 2567 2528 2528 2528 2540 2591 2603 2622 2622 2622 2550 0 0 0 0 0 2057 2031 2015 2013 2008 1997 1993 1990 1985 1980 1971 1964 1961 1957 1952 1949 1943 1931 1922 1916 1916 1916 1911 1907 1897 1888 1880 1872 1866 1861 1860 1854 1848 1847 1847 1844 1842 1839 1838 1836 1826 1820 1814 1813 1808 1803 1798 1797 1797 1796 1792 1789 1782 1773 1763 1758 1752 1751 1750 1745 1743 1738 1735 1735 1734 1731 1730 1730 1726 1721 1720 1716 1715 1711 1707 1703 1703 1701 1696 1691 1688 1688 1688 1688 1688 1685 1681 1681 1678 1673 1672 1670 1670 1666 1666 1665 1664 1664 1662 1659 1658 1656 1654 1654 1654 1654 1658 1658 1658 1656 1653 1653 1653 1657 1660 1660 1661 1660 1660 1659 1658 1656 1653 1652 1651 1651 1651 1651 1652 1652 1652 1651 1647 1647 1647 1647 1647 1647 1645 1645 1645 1645 1645 1646 1646 1646 1647 1647 1647 1646 1644 1641 1641 1641 1642 1643 1646 1646 1647 1648 1648 1648 1648 1648 1648 1649 1649 1650 1650 1651 1651 1651 1649 1649 1649 1650 1650 1650 1648 1647 1646 1646 1646 1647 1649 1651 1654 1660 1667 1678 0 1765 1791 1807 1819 1819 1821 1822 1824 1826 1832 1840 1841 1842 1842 1842 1847 1850 1851 1855 1861 1865 1868 1870 1877 1887 1887 1887 1888 1888 1889 1895 1900 1900 1900 1899 1890 1879 1856 1834 1817 1800 1778 1765 1755 1747 1740 1736 1731 1721 1712 1703 1698 1693 1686 1681 1679 1675 1671 1667 1661 1655 1648 1644 1642 1640 1638 1635 1631 1630 1629 1628 1627 1626 1625 1623 1621 1621 1621 1621 1626 1629 1631 1631 1655 1678 0 0 1812 1815 1822 1854 1869 1870 1870 0 0 0 0 0 0 0 0 0 0 0 0 0 0 0 0 0 0 0 0 0 0 0 0 0 0 0 0 0 0 0 0 0 0 0 0 0 0 0 0 0 0 0 0 0 0 0 0 0 0 0 0 0 0 0 0 0 0 0 0 0 0 0 0 0 0 0 0 0 0 0 0 0 0 0 0 0 0 0 0 0 0 0 0 0 0 0 0 0 0 0 0 0 0 0 0 0 0 0 0 0 0 0 0 0 0 0 0 0 0
2861 2861 2865 2900 2944 2974 2990 3006 3022 3035 3045 3068 3097 3114 3142 3148 3177 3191 3192 3196 3198 3199 3206 3212 3220 3239 3253 3271 3288 3291 3293 3293 3307 3330 3347 3356 3368 3380 3389 3393 3396 3397 3397 3397 3397 3396 3396 3397 3398 3398 3399 3402 3402 3403 3404 3406 3409 3415 3421 3429 3435 3441 3447 3450 3453 3455 3457 3458 3462 3465 3470 3473 3474 3474 3475 3479 3483 3485 3486 3486 3491 3495 3499 3503 3508 3511 3513 3513 3508 3389 3389 3389 3509 3535 3599 3615 3623 3623 3625 3625 3629 3631 3631 3632 3635 3635 3635 3634 3632 3630 3628 3627 3626 3625 3624 3622 3617 3617 3617 3623 3623 3623 3604 3604 3593 3592 3584 3554 3424 3335 3120 2548 0 0 0 1759 1743 1732 1727 1718 1698 1694 1690 1677 1660 1649 1647 1647 1647 1647 1650 1653 1657 1661 1664 1665 1673 1682 1694 1704 1716 1732 1749 1766 1780 1793 1795 1795 1795 1786 1786 1785 1786 1786 1788 1806 1823 1846 1864 1865 1867 1873 1875 1875 1876 1876 1878 1886 1889 1893 1895 1902 1906 1911 1914 1916 1931 1946 1953 1958 1964 1968 1976 1984 1994 1999 2001 2001 2006 2001 1999 1995 1983 1957 0 0 0 0 0 0 0 0 2652 2777 2777 2777 2704 2627 2579 2544 2521 0 0 0 0 0 2504 2504 2504 0 0 0 0 0 0 0 1991 1988 1986 1980 1978 1974 1970 1969 1959 1954 1950 1947 1944 1943 1938 1928 1917 1906 1904 1904 1897 1883 1880 1874 1866 1862 1853 1844 1838 1829 1823 1822 1822 0 0 0 0 0 0 1796 1795 1795 1795 0 0 0 0 0 0 0 0 1747 1746 1739 1725 1713 1704 1701 1699 1696 1694 1694 1694 1696 1696 1696 1696 1695 1691 1685 1682 1678 1674 1671 1668 1666 1665 1664 1663 1659 1659 1659 1658 1658 1657 1657 1656 1655 1654 1654 1654 1651 1651 1651 1651 1651 1651 1650 1650 1650 1650 1651 1651 1650 1650 1651 1652 1652 1652 1650 1649 1649 1649 1650 1650 1650 1649 1649 1647 1647 1646 1646 1646 1646 1646 1646 1646 1647 1647 1647 1647 1643 1643 1643 1643 1643 1643 1643 1643 1643 1643 1643 1643 1643 1644 1643 1643 1643 1642 1640 1640 1640 1640 1640 1642 1642 1642 1642 1642 1642 1643 1644 1645 1645 1645 1645 1645 1646 1647 1647 1647 1647 1646 1645 1644 1644 1644 1644 1644 1644 1644 1644 1646 1648 1649 1651 1656 1662 1674 1702 0 1788 1806 1824 1827 1828 1828 1828 1832 1839 1842 1844 1844 1846 1847 1849 1853 1857 1862 1866 1869 1870 1874 1879 1887 1887 1887 1888 1888 1889 1895 1900 1900 1900 1899 1886 1875 1856 1843 1825 1808 1795 1780 1766 1754 1747 1741 1733 1725 1715 1705 1700 1696 1692 1686 1679 1675 1671 1667 1662 1655 1648 1643 1641 1639 1635 1633 1629 1627 1625 1624 1624 1622 1622 1622 1618 1618 1618 1619 1625 1629 1630 1631 1649 1678 0 0 1813 1816 1823 1854 1870 1870 1870 0 0 0 0 0 0 0 0 0 0 0 0 0 0 0 0 0 0 0 0 0 0 0 0 0 0 0 0 0 0 0 0 0 0 0 0 0 0 0 0 0 0 0 0 0 0 0 0 0 0 0 0 0 0 0 0 0 0 0 0 0 0 0 0 0 0 0 0 0 0 0 0 0 0 0 0 0 0 0 0 0 0 0 0 0 0 0 0 0 0 0 0 0 0 0 0 0 0 0 0 0 0 0 0 0 0 0 0 0 0
2861 2861 2865 2900 2944 2976 2990 3003 3018 3025 3041 3068 3097 3122 3143 3148 3181 3191 3199 3201 3202 3203 3208 3210 3220 3233 3251 3269 3288 3291 3293 3293 3307 3330 3346 3356 3368 3378 3386 3393 3396 3397 3397 3398 3397 3396 3396 3398 3398 3399 3399 3402 3403 3404 3405 3409 3413 3419 3424 3429 3435 3441 3448 3452 3455 3455 3457 3458 3461 3464 3468 3472 3474 3474 3474 3479 3483 3485 3485 3486 3489 3495 3499 3502 3508 3509 3513 3513 3509 3388 3388 3388 3518 3537 3599 3620 3623 3623 3625 3625 3629 3630 3631 3632 3634 3634 3634 3633 3632 3630 3628 3626 3625 3625 3624 3622 3617 3617 3617 3623 3623 3623 3604 3604 3593 3590 3580 3549 3404 3308 2901 0 0 0 0 1750 1729 1713 1707 1691 1683 1682 1660 1645 1639 1632 1632 1632 1636 1640 1645 1648 1649 1649 1652 1655 1663 1676 1686 1700 1713 1729 1746 1764 1780 1792 1795 1795 1795 1787 1786 1786 1786 1786 1786 1790 1799 1822 1848 1853 1855 1865 1869 1869 1870 1872 1875 1880 1884 1889 1893 1896 1903 1908 1910 1910 1917 1937 1949 1956 1959 1964 1970 1980 1990 1994 1994 1994 1989 1982 1974 1968 0 0 0 0 0 0 0 0 0 0 0 0 0 0 0 0 0 0 0 0 0 0 0 0 0 0 0 0 0 0 0 0 0 0 0 0 0 0 0 0 0 0 0 0 0 0 0 0 0 0 0 0 0 0 0 0 0 0 0 0 0 0 0 0 0 0 0 0 0 0 0 0 0 0 0 0 0 0 0 1701 1701 1694 1687 1687 1687 1689 1689 1689 1679 1672 1669 1668 1668 1668 1668 1669 1669 1672 1672 1672 1668 1665 1665 1665 1665 1660 1653 1650 1649 1649 1649 1649 1647 1645 1645 1645 1649 1649 1650 1650 1650 1650 1649 1649 1649 1647 1647 1647 1647 1647 1647 1648 1648 1648 1648 1648 1648 1647 1647 1645 1645 1645 1645 1645 1643 1643 1643 1643 1643 1643 1644 1644 1643 1643 1642 1641 1641 1641 1643 1643 1643 1642 1642 1641 1641 1640 1639 1639 1639 1640 1641 1641 1641 1641 1642 1642 1642 1641 1640 1639 1638 1638 1638 1638 1638 1638 1638 1638 1639 1639 1639 1640 1640 1640 1641 1642 1642 1642 1642 1642 1642 1642 1643 1644 1644 1644 1643 1641 1640 1640 1640 1641 1641 1642 1642 1642 1644 1645 1647 1650 1651 1654 1660 1677 0 1781 1805 1824 1831 1831 1832 1833 1836 1842 1845 1847 1847 1847 1847 1850 1855 1859 1862 1867 1871 1873 1876 1879 1887 1887 1887 1887 1887 1888 1895 1900 1900 1900 1899 1883 1873 1856 1843 1827 1815 1800 1790 1782 1772 1756 1745 1736 1727 1718 1708 1701 1697 1693 1686 1679 1675 1671 1667 1663 1655 1648 1643 1640 1637 1635 1632 1629 1625 1623 1622 1622 1621 1619 1617 1615 1614 1614 1615 1619 1621 1621 1627 1641 1676 0 0 1816 1821 1831 1855 1872 1872 1872 0 0 0 0 0 0 0 0 0 0 0 0 0 0 0 0 0 0 0 0 0 0 0 0 0 0 0 0 0 0 0 0 0 0 0 0 0 0 0 0 0 0 0 0 0 0 0 0 0 0 0 0 0 0 0 0 0 0 0 0 0 0 0 0 0 0 0 0 0 0 0 0 0 0 0 0 0 0 0 0 0 0 0 0 0 0 0 0 0 0 0 0 0 0 0 0 0 0 0 0 0 0 0 0 0 0 0 0 0 0
2861 2861 2865 2900 2944 2976 2990 3000 3007 3016 3037 3066 3099 3134 3143 3149 3182 3196 3200 3203 3204 3207 3210 3211 3220 3233 3245 3268 3288 3291 3293 3299 3308 3330 3345 3356 3374 3379 3382 3390 3394 3398 3398 3399 3399 3398 3398 3398 3398 3400 3402 3402 3403 3404 3407 3411 3417 3420 3424 3429 3435 3441 3448 3452 3455 3455 3457 3457 3458 3462 3464 3466 3471 3471 3472 3477 3481 3483 3485 3486 3489 3489 3494 3499 3504 3513 3513 3513 3501 3374 3374 3374 3530 3550 3615 3623 3625 3627 3627 3627 3629 3630 3631 3632 3633 3633 3633 3633 3631 3629 3627 3625 3625 3625 3623 3621 3617 3617 3617 3624 3624 3624 3608 3607 3596 3590 3573 3510 3385 3306 2772 0 0 0 1754 1738 1713 1702 1686 1679 1671 1651 1632 1632 1632 1631 1630 1631 1631 1631 1633 1643 1645 1647 1648 1652 1660 1672 1682 1690 1697 1709 1724 1742 1760 1774 1785 1787 1787 1787 1786 1784 1783 1784 1784 1786 1788 1799 1818 1837 1841 1848 1853 1860 1862 1863 1867 1874 1877 1882 1887 1891 1892 1898 1902 1903 1906 1925 1943 1952 1956 1959 1960 1964 1964 1959 1958 1952 1952 0 0 0 0 0 0 0 0 0 0 0 0 0 0 0 0 0 0 0 0 0 0 0 0 0 0 0 0 0 0 0 0 0 0 0 0 0 0 0 0 0 0 0 0 0 0 0 0 0 0 0 0 0 0 0 0 0 0 0 0 0 0 0 0 0 0 0 0 0 0 1690 1685 1679 1675 1675 1675 1680 1680 1680 1679 1675 1672 1671 1670 1667 1665 1658 1658 1657 1656 1656 1656 1656 1656 1655 1656 1656 1656 1656 1656 1656 1655 1652 1652 1651 1651 1651 1651 1651 1647 1647 1647 1644 1642 1642 1642 1642 1642 1644 1645 1648 1648 1648 1648 1648 1647 1647 1646 1646 1645 1645 1645 1645 1645 1646 1645 1645 1643 1642 1642 1642 1642 1642 1642 1642 1642 1642 1641 1640 1640 1640 1640 1640 1640 1640 1640 1640 1640 1640 1641 1641 1641 1641 1640 1639 1638 1638 1638 1638 1638 1638 1638 1638 1638 1638 1638 1639 1639 1639 1639 1638 1637 1637 1636 1636 1636 1635 1636 1636 1636 1636 1636 1637 1637 1637 1638 1638 1638 1640 1640 1640 1639 1639 1639 1639 1640 1640 1640 1639 1639 1638 1638 1638 1638 1638 1639 1639 1639 1641 1641 1643 1645 1646 1647 1648 1659 1676 0 1781 1801 1824 1831 1832 1832 1835 1839 1844 1845 1847 1848 1849 1850 1855 1856 1859 1862 1867 1871 1873 1876 1879 1882 1882 1882 1883 1883 1888 1893 1898 1898 1898 1895 1881 1870 1856 1843 1828 1816 1805 1796 1787 1778 1766 1754 1739 1730 1720 1713 1705 1701 1695 1687 1679 1675 1671 1667 1663 1655 1648 1642 1636 1634 1632 1629 1625 1621 1619 1617 1616 1614 1614 1613 1613 1611 1611 1611 1611 1611 1611 1611 1621 1671 0 0 1816 1821 1833 1862 1875 1875 1875 0 0 0 0 0 0 0 0 0 0 0 0 0 0 0 0 0 0 0 0 0 0 0 0 0 0 0 0 0 0 0 0 0 0 0 0 0 0 0 0 0 0 0 0 0 0 0 0 0 0 0 0 0 0 0 0 0 0 0 0 0 0 0 0 0 0 0 0 0 0 0 0 0 0 0 0 0 0 0 0 0 0 0 0 0 0 0 0 0 0 0 0 0 0 0 0 0 0 0 0 0 0 0 0 0 0 0 0 0 0
2868 2868 2870 2912 2959 2976 2990 2995 2997 3004 3030 3066 3121 3150 3170 3178 3183 3196 3210 3218 3218 3218 3218 3218 3220 3233 3245 3268 3291 3292 3296 3299 3309 3330 3345 3362 3380 3383 3383 3386 3397 3399 3399 3400 3401 3401 3404 3404 3404 3403 3403 3403 3404 3405 3409 3413 3418 3420 3424 3428 3435 3441 3448 3452 3455 3455 3455 3456 3457 3460 3463 3465 3468 3470 3471 3477 3481 3484 3485 3486 3489 3489 3492 3498 3504 3510 3510 3510 3455 3385 3385 3385 3561 3564 3615 3623 3626 3627 3627 3627 3629 3630 3631 3631 3633 3633 3633 3632 3630 3628 3626 3624 3624 3624 3622 3617 3617 3617 3622 3628 3628 3628 3620 3617 3603 3589 3567 3508 3376 3304 2751 0 0 0 1741 1715 1694 1694 1686 1672 1657 1631 1630 1629 1629 1629 1629 1629 1629 1629 1630 1633 1638 1643 1646 1649 1652 1657 1671 1685 1690 1700 1705 1718 1733 1753 1766 1780 1781 1781 1781 1781 1780 1775 1771 1771 1771 1779 1797 1807 1814 1827 1830 1842 1854 1854 1856 1857 1867 1871 1875 1875 1878 1882 1884 1891 1894 1907 1922 1922 1922 1921 1920 1920 1920 0 0 0 0 0 0 0 0 0 0 0 0 0 0 0 0 0 0 0 0 0 0 0 0 0 0 0 0 0 0 0 0 0 0 0 0 1652 1652 1652 0 0 0 0 0 0 0 0 0 0 0 0 0 0 0 0 0 0 0 0 0 0 0 0 0 0 0 1667 1667 1666 1666 1666 1661 1660 1657 1655 1653 1652 1651 1651 1651 1652 1653 1654 1655 1657 1657 1657 1657 1657 1657 1652 1652 1652 1652 1652 1649 1647 1643 1642 1642 1642 1642 1645 1645 1645 1645 1643 1643 1643 1644 1645 1645 1644 1643 1643 1641 1641 1641 1641 1641 1641 1641 1642 1645 1645 1648 1648 1648 1646 1644 1644 1642 1640 1640 1640 1642 1642 1644 1644 1644 1643 1640 1639 1639 1638 1639 1639 1639 1639 1639 1639 1637 1637 1637 1637 1637 1637 1637 1637 1637 1638 1638 1638 1638 1639 1638 1638 1638 1637 1636 1636 1636 1636 1636 1636 1636 1636 1635 1635 1635 1635 1636 1636 1636 1634 1634 1634 1635 1635 1635 1635 1634 1634 1634 1634 1634 1634 1634 1634 1634 1636 1636 1637 1637 1638 1638 1638 1638 1637 1637 1637 1636 1636 1635 1635 1635 1635 1635 1636 1636 1636 1636 1637 1639 1639 1640 1641 1641 1641 1653 1673 0 1774 1797 1824 1831 1832 1832 1836 1839 1844 1845 1847 1848 1849 1851 1855 1857 1859 1863 1867 1871 1873 1876 1879 1879 1881 1881 1881 1882 1886 1893 1895 1895 1895 1882 1875 1867 1856 1838 1828 1816 1805 1798 1790 1780 1770 1759 1746 1735 1725 1717 1710 1704 1697 1693 1679 1675 1671 1667 1664 1655 1648 1639 1633 1629 1625 1621 1617 1615 1613 1613 1611 1611 1611 1610 1610 1610 1609 1609 1607 1606 1606 1606 1620 1661 0 0 1816 1821 1833 1862 1877 1877 0 0 0 0 0 0 0 0 0 0 0 0 0 0 0 0 0 0 0 0 0 0 0 0 0 0 0 0 0 0 0 0 0 0 0 0 0 0 0 0 0 0 0 0 0 0 0 0 0 0 0 0 0 0 0 0 0 0 0 0 0 0 0 0 0 0 0 0 0 0 0 0 0 0 0 0 0 0 0 0 0 0 0 0 0 0 0 0 0 0 0 0 0 0 0 0 0 0 0 0 0 0 0 0 0 0 0 0 0 0 0
2870 2870 2872 2918 2959 2987 2987 2988 2990 2999 3023 3062 3121 3150 3170 3178 3183 3196 3210 3225 3235 3235 3235 3233 3233 3233 3245 3268 3291 3293 3296 3299 3313 3330 3348 3363 3380 3383 3383 3386 3398 3399 3402 3402 3404 3405 3407 3407 3407 3407 3405 3405 3405 3407 3411 3414 3418 3421 3423 3428 3435 3441 3447 3449 3452 3452 3453 3454 3455 3459 3463 3465 3468 3469 3471 3477 3481 3484 3485 3489 3489 3490 3492 3497 3502 3508 3508 3508 3455 3393 3393 3393 3561 3564 3615 3623 3626 3627 3627 3627 3629 3630 3630 3631 3631 3631 3630 3629 3626 3625 3624 3623 3623 3621 3618 3615 3615 3615 3625 3630 3630 3630 3620 3617 3603 3585 3560 3491 3376 3288 2742 0 0 0 1740 1714 1692 1692 1684 1669 1655 1620 1620 1620 1625 1625 1625 1623 1623 1623 1623 1626 1630 1637 1641 1645 1646 1647 1653 1669 1681 1684 1689 1695 1705 1723 1742 1757 1772 1772 1772 1767 1765 1760 1757 1757 1757 1757 1764 1767 1767 1797 1799 1811 1819 1836 1836 1838 1841 1845 1848 1848 1848 1847 1847 1847 1847 0 0 0 0 0 0 0 0 0 0 0 0 0 0 0 0 1645 1645 1645 1645 1651 1652 1652 1652 1647 1646 1646 1646 1645 1644 1643 1641 1641 1636 1636 1636 1639 1644 1644 1644 1641 1639 1639 1639 1639 1639 1639 1639 1639 1640 1641 1642 1647 1647 1647 1645 1645 1644 1644 1644 1648 1651 1655 1655 1655 1654 1653 1652 1652 1650 1650 1647 1645 1645 1645 1646 1647 1647 1647 1647 1647 1643 1643 1643 1644 1645 1645 1645 1645 1645 1645 1645 1647 1646 1645 1644 1644 1644 1644 1645 1646 1646 1646 1643 1641 1641 1640 1639 1637 1637 1637 1638 1639 1639 1639 1639 1639 1640 1640 1640 1640 1640 1639 1639 1639 1639 1639 1639 1639 1639 1639 1639 1640 1640 1640 1640 1639 1639 1638 1636 1635 1635 1635 1637 1638 1639 1639 1639 1638 1637 1636 1636 1636 1636 1636 1636 1636 1636 1635 1635 1635 1635 1635 1635 1635 1635 1635 1635 1635 1635 1635 1635 1635 1635 1635 1634 1633 1633 1633 1633 1632 1632 1633 1633 1632 1632 1631 1631 1631 1631 1632 1632 1632 1631 1631 1631 1632 1632 1632 1632 1631 1631 1632 1632 1632 1632 1632 1633 1633 1634 1634 1635 1635 1635 1635 1635 1635 1635 1634 1634 1634 1632 1632 1632 1633 1633 1633 1633 1634 1634 1635 1635 1636 1636 1637 1637 1638 1647 1672 0 1769 1791 1816 1829 1831 1832 1836 1839 1844 1845 1847 1848 1849 1851 1855 1857 1860 1863 1866 1869 1872 1875 1875 1877 1879 1880 1881 1881 1885 1890 1890 1890 1887 1873 1866 1854 1842 1835 1827 1816 1805 1798 1790 1782 1773 1764 1751 1743 1734 1727 1718 1708 1701 1695 1691 1676 1671 1668 1664 1652 1642 1636 1632 1626 1621 1617 1613 1611 1609 1609 1607 1607 1605 1605 1605 1606 1606 1606 1606 1605 1605 1605 1617 1646 0 0 1815 1821 1831 1862 1862 1862 0 0 0 0 0 0 0 0 0 0 0 0 0 0 0 0 0 0 0 0 0 0 0 0 0 0 0 0 0 0 0 0 0 0 0 0 0 0 0 0 0 0 0 0 0 0 0 0 0 0 0 0 0 0 0 0 0 0 0 0 0 0 0 0 0 0 0 0 0 0 0 0 0 0 0 0 0 0 0 0 0 0 0 0 0 0 0 0 0 0 0 0 0 0 0 0 0 0 0 0 0 0 0 0 0 0 0 0 0 0 0
2871 2871 2873 2918 2959 2988 2988 2993 2996 2997 3017 3056 3121 3150 3170 3178 3183 3196 3210 3234 3251 3258 3258 3258 3257 3257 3257 3268 3285 3291 3293 3295 3313 3332 3350 3365 3380 3383 3384 3386 3394 3398 3402 3404 3406 3408 3408 3408 3408 3408 3408 3408 3408 3410 3413 3416 3419 3421 3423 3428 3435 3439 3443 3445 3447 3448 3450 3450 3455 3459 3463 3465 3467 3469 3472 3477 3481 3484 3489 3493 3494 3494 3495 3497 3500 3510 3510 3510 3455 3403 3403 3403 3561 3564 3603 3619 3625 3626 3626 3627 3627 3628 3628 3629 3629 3629 3629 3627 3626 3624 3622 3621 3619 3617 3616 3612 3612 3612 3626 3630 3630 3630 3620 3617 3603 3585 3560 3490 3372 3287 2741 0 0 0 1740 1704 1691 1681 1665 1655 1627 1617 1617 1617 1621 1621 1621 1621 1620 1620 1620 1620 1624 1628 1630 1632 1637 1640 1643 1652 1662 1669 1675 1686 1690 1697 1712 1725 1737 1745 1745 1745 1742 1742 1737 1736 1735 1731 1732 1732 1732 1741 1764 0 0 0 0 1805 1809 1815 1821 1821 0 0 0 0 0 0 0 0 0 0 0 0 0 0 0 0 0 0 0 1651 1637 1636 1636 1637 1637 1635 1636 1636 1636 1636 1636 1633 1632 1632 1632 1634 1636 1636 1636 1636 1636 1636 1638 1638 1638 1636 1636 1636 1636 1636 1636 1636 1636 1636 1638 1639 1639 1639 1640 1640 1640 1637 1637 1636 1636 1637 1637 1637 1640 1641 1641 1641 1642 1644 1645 1645 1645 1644 1644 1644 1644 1644 1642 1640 1638 1638 1638 1638 1640 1641 1641 1641 1641 1639 1639 1639 1639 1639 1640 1640 1640 1640 1640 1640 1641 1642 1642 1642 1639 1638 1637 1637 1637 1636 1636 1636 1636 1635 1636 1636 1636 1637 1637 1637 1637 1637 1637 1637 1637 1637 1638 1638 1638 1638 1636 1634 1634 1634 1635 1635 1635 1635 1634 1634 1634 1633 1633 1633 1633 1633 1634 1635 1635 1635 1635 1635 1635 1635 1634 1634 1634 1634 1633 1633 1633 1632 1632 1632 1633 1633 1633 1633 1633 1633 1633 1632 1632 1632 1632 1632 1632 1631 1630 1629 1629 1629 1629 1629 1629 1629 1628 1628 1628 1628 1628 1630 1630 1630 1629 1629 1629 1629 1629 1629 1629 1629 1629 1629 1629 1629 1629 1629 1630 1631 1632 1632 1632 1632 1632 1632 1632 1632 1632 1632 1631 1631 1631 1631 1631 1631 1631 1631 1631 1631 1632 1632 1632 1633 1633 1634 1634 1636 1641 1658 0 0 1782 1806 1827 1831 1832 1836 1839 1844 1845 1845 1848 1849 1852 1855 1858 1860 1863 1866 1869 1872 1874 1874 1876 1879 1879 1881 1881 1885 1889 1889 1889 1880 1865 1857 1844 1837 1829 1823 1812 1804 1798 1790 1782 1773 1764 1755 1749 1743 1736 1726 1714 1703 1695 1691 1676 1671 1668 1664 1647 1639 1632 1628 1623 1617 1613 1609 1607 1606 1604 1604 1602 1602 1602 1602 1602 1602 1602 1602 1602 1603 1603 1603 1638 0 0 1801 1809 1825 1862 1862 1862 0 0 0 0 0 0 0 0 0 0 0 0 0 0 0 0 0 0 0 0 0 0 0 0 0 0 0 0 0 0 0 0 0 0 0 0 0 0 0 0 0 0 0 0 0 0 0 0 0 0 0 0 0 0 0 0 0 0 0 0 0 0 0 0 0 0 0 0 0 0 0 0 0 0 0 0 0 0 0 0 0 0 0 0 0 0 0 0 0 0 0 0 0 0 0 0 0 0 0 0 0 0 0 0 0 0 0 0 0 0 0
