0 0 0 0 0 0 0 0 0 0 0 0 0 0 0 0 0 0 0 0 0 0 0 0 0 0 0 0 0 0 0 0 0 0 0 0 0 0 0 0 0 0 0 0 0 0 0 0 0 0 0 0 0 0 0 0 0 0 0 0 0 0 0 0 0 0 0 0 0 0 0 0 0 0 0 0 0 0 0 0 0 0 0 0 0 0 0 0 0 0 0 0 0 0 0 0 0 0 0 0 0 0 0 0 0 0 0 0 0 0 0 0 0 0 0 0 0 0 0 0 0 0 0 0 0 0 0 0 0 0 0 2976 3365 3533 3552 3556 3564 3579 3587 3599 3600 3600 3600 3594 3589 3584 3581 3579 3577 3575 3570 3566 3551 3538 3538 3538 3541 3542 3546 3551 3554 3554 3556 3563 3563 3563 3563 3542 3517 3488 3478 3449 3401 3381 3381 3381 3392 3392 3392 3371 3351 3325 3304 3295 3287 3267 3248 3221 3193 3172 3151 3128 3102 3080 3063 3043 3025 3014 3014 3010 3010 3010 2997 2976 2951 2899 2843 2760 2614 0 0 0 2118 2101 2084 2073 2066 2059 2056 2054 2053 2048 2044 2041 2038 2033 2029 2024 2022 2019 2018 2016 2012 2008 2006 2003 2001 1999 1997 1994 1992 1989 1987 1984 1982 1980 1978 1976 1974 1971 1969 1967 1966 1964 1962 1960 1958 1957 1955 1954 1952 1951 1949 1947 1945 1943 1941 1939 1938 1936 1934 1932 1930 1928 1926 1924 1923 1922 1920 1918 1917 1916 1915 1913 1912 1910 1909 1908 1907 1905 1904 1903 1902 1900 1899 1897 1895 1894 1893 1893 1891 1890 1889 1888 1888 1886 1885 1884 1883 1882 1881 1880 1879 1878 1877 1876 1876 1875 1874 1873 1872 1871 1870 1869 1869 1868 1867 1867 1867 1867 1867 1867 1867 1867 1867 1867 1867 1868 1868 1868 1868 1868 1869 1869 1869 1870 1871 1872 1872 1872 1872 1873 1873 1874 1875 1875 1875 1875 1875 1876 1877 1877 1877 1878 1878 1878 1878 1879 1879 1879 1879 1880 1880 1881 1881 1881 1882 1882 1883 1883 1883 1884 1884 1884 1885 1885 1885 1886 1887 1887 1888 1888 1889 1890 1890 1890 1890 1891 1891 1891 1892 1892 1892 1893 1893 1894 1894 1895 1895 1896 1897 1898 1899 1899 1900 1901 1903 1904 1905 1906 1907 1908 1910 1911 1913 1915 1916 1919 1920 1922 1924 1926 1928 1929 1930 1932 1933 1935 1936 1937 1938 1940 1942 1944 1945 1946 1948 1949 1951 1953 1954 1957 1960 1963 1965 1968 1968 1969 1969 1967 1963 0 0 0 0 0 0 0 0 0 0 0 0 0 0 0 0 0 0 0 0 0 0 0 0 0 0 0 0 0 0 0 0 0 0 0 0 0 0 0 0 0 0 0 0 0 0 0 0 0 0 0 0 0 0 0 0 0 0 0 0 0 0 0 0 0 0 0 0 0 0 0 0 0 0 0 0 0 0 0 0 0 0 0 0 0 0 0 0 0 0 0 0 0 0 0 0 0 0 0 0 0 0 0 0 0 0 0 0 0 0 0 0 0 0 0 0 0 0 0 0 0 0 0 0 0 0 0 0 0 0 0 0 0 0 0 0 0 0 0 0 0 0 0 0 0 0 0 0 0 0 0 0 0 0 0 1124 1124 1111 1087 1079 1075 1069 1065 1051 1029 1005 994 983 976 976 975 975 974 969 962 951 949 937 0
0 0 0 0 0 0 0 0 0 0 0 0 0 0 0 0 0 0 0 0 0 0 0 0 0 0 0 0 0 0 0 0 0 0 0 0 0 0 0 0 0 0 0 0 0 0 0 0 0 0 0 0 0 0 0 0 0 0 0 0 0 0 0 0 0 0 0 0 0 0 0 0 0 0 0 0 0 0 0 0 0 0 0 0 0 0 0 0 0 0 0 0 0 0 0 0 0 0 0 0 0 0 0 0 0 0 0 0 0 0 0 0 0 0 0 0 0 0 0 0 0 0 0 0 0 0 0 0 0 0 0 2821 3257 3503 3547 3556 3564 3582 3598 3606 3606 3606 3604 3596 3591 3591 3591 3590 3590 3590 3581 3571 3558 3546 3541 3538 3538 3538 3541 3551 3554 3554 3554 3536 3523 3520 3510 3493 3472 3456 3422 3406 3391 3380 3380 3380 3392 3392 3392 3371 3344 3323 3304 3295 3287 3265 3240 3221 3193 3172 3152 3132 3104 3082 3065 3045 3030 3015 3015 3015 3015 3010 3000 2984 2951 2899 2843 2739 2572 0 0 0 2118 2108 2096 2076 2066 2061 2056 2054 2053 2048 2044 2041 2038 2032 2029 2025 2023 2019 2018 2016 2013 2010 2007 2005 2001 2000 1997 1994 1992 1989 1987 1985 1982 1980 1978 1976 1974 1973 1970 1968 1966 1964 1962 1960 1959 1957 1956 1954 1953 1951 1949 1948 1945 1943 1942 1940 1939 1936 1934 1933 1930 1929 1927 1925 1923 1922 1920 1918 1917 1916 1915 1913 1912 1910 1909 1908 1906 1905 1904 1903 1901 1900 1899 1897 1895 1894 1893 1892 1891 1890 1889 1888 1887 1886 1885 1884 1883 1882 1881 1880 1879 1878 1877 1876 1876 1875 1874 1873 1872 1871 1870 1869 1869 1868 1867 1867 1867 1867 1867 1867 1867 1867 1867 1867 1867 1868 1868 1868 1868 1869 1869 1869 1869 1870 1871 1872 1872 1872 1872 1873 1873 1874 1875 1875 1875 1875 1875 1876 1877 1877 1877 1878 1878 1878 1878 1879 1879 1879 1880 1880 1880 1881 1881 1881 1882 1882 1883 1883 1883 1884 1884 1885 1885 1885 1885 1886 1886 1887 1888 1888 1889 1889 1890 1890 1890 1891 1891 1891 1892 1892 1893 1893 1893 1894 1895 1895 1896 1897 1898 1898 1899 1900 1901 1903 1904 1905 1906 1907 1908 1910 1911 1912 1914 1915 1917 1919 1920 1923 1925 1927 1928 1929 1931 1932 1933 1935 1936 1937 1939 1940 1942 1944 1945 1947 1948 1949 1952 1953 1955 1957 1960 1963 1965 1968 1968 1969 1969 1968 1963 0 0 0 0 0 0 0 0 0 0 0 0 0 0 0 0 0 0 0 0 0 0 0 0 0 0 0 0 0 0 0 0 0 0 0 0 0 0 0 0 0 0 0 0 0 0 0 0 0 0 0 0 0 0 0 0 0 0 0 0 0 0 0 0 0 0 0 0 0 0 0 0 0 0 0 0 0 0 0 0 0 0 0 0 0 0 0 0 0 0 0 0 0 0 0 0 0 0 0 0 0 0 0 0 0 0 0 0 0 0 0 0 0 0 0 0 0 0 0 0 0 0 0 0 0 0 0 0 0 0 0 0 0 0 0 0 0 0 0 0 0 0 0 0 0 0 0 0 0 0 0 0 0 0 0 1099 1099 1091 1084 1078 1074 1068 1065 1051 1027 1005 989 978 976 976 974 973 972 968 961 951 949 938 0
0 0 0 0 0 0 0 0 0 0 0 0 0 0 0 0 0 0 0 0 0 0 0 0 0 0 0 0 0 0 0 0 0 0 0 0 0 0 0 0 0 0 0 0 0 0 0 0 0 0 0 0 0 0 0 0 0 0 0 0 0 0 0 0 0 0 0 0 0 0 0 0 0 0 0 0 0 0 0 0 0 0 0 0 0 0 0 0 0 0 0 0 0 0 0 0 0 0 0 0 0 0 0 0 0 0 0 0 0 0 0 0 0 0 0 0 0 0 0 0 0 0 0 0 0 0 0 0 0 0 0 2684 3178 3461 3528 3555 3566 3583 3599 3607 3607 3607 3604 3597 3597 3597 3599 3599 3599 3596 3582 3571 3561 3554 3553 3549 3541 3532 3529 3529 3527 3517 3501 3492 3492 3490 3488 3488 3472 3456 3422 3406 3391 3380 3380 3380 3392 3392 3392 3362 3332 3306 3292 3286 3268 3252 3230 3210 3189 3167 3152 3132 3110 3090 3070 3052 3047 3039 3031 3019 3017 3010 3000 2984 2961 2926 2843 2732 2569 0 0 2140 2116 2111 2098 2078 2066 2061 2056 2053 2053 2048 2044 2041 2037 2032 2029 2027 2024 2021 2018 2016 2013 2011 2008 2005 2003 2000 1997 1994 1992 1989 1987 1985 1983 1981 1979 1976 1975 1973 1971 1968 1966 1965 1963 1961 1959 1957 1956 1954 1953 1951 1949 1948 1945 1944 1942 1940 1939 1937 1935 1933 1931 1929 1927 1925 1923 1922 1920 1918 1917 1916 1915 1913 1912 1910 1909 1908 1906 1905 1904 1903 1901 1900 1898 1897 1895 1894 1892 1891 1891 1889 1888 1887 1887 1886 1885 1884 1883 1882 1881 1880 1879 1879 1877 1877 1876 1875 1874 1873 1872 1871 1870 1870 1869 1868 1867 1867 1867 1867 1867 1867 1867 1867 1867 1867 1867 1868 1868 1868 1868 1869 1869 1869 1869 1870 1871 1871 1872 1872 1872 1873 1873 1874 1874 1875 1875 1875 1875 1876 1876 1877 1877 1878 1878 1878 1878 1879 1879 1879 1880 1880 1881 1881 1881 1882 1882 1882 1883 1883 1883 1884 1884 1885 1885 1885 1885 1886 1886 1887 1888 1888 1889 1889 1890 1890 1890 1891 1891 1891 1892 1892 1893 1893 1894 1894 1895 1895 1897 1898 1899 1900 1900 1902 1902 1903 1905 1906 1907 1908 1910 1911 1912 1912 1914 1916 1917 1919 1921 1923 1925 1927 1928 1929 1931 1932 1933 1935 1936 1938 1939 1940 1943 1944 1945 1947 1948 1949 1952 1953 1955 1957 1960 1961 1962 1968 1969 1969 1970 1969 1969 0 0 0 0 0 0 0 0 0 0 0 0 0 0 0 0 0 0 0 0 0 0 0 0 0 0 0 0 0 0 0 0 0 0 0 0 0 0 0 0 0 0 0 0 0 0 0 0 0 0 0 0 0 0 0 0 0 0 0 0 0 0 0 0 0 0 0 0 0 0 0 0 0 0 0 0 0 0 0 0 0 0 0 0 0 0 0 0 0 0 0 0 0 0 0 0 0 0 0 0 0 0 0 0 0 0 0 0 0 0 0 0 0 0 0 0 0 0 0 0 0 0 0 0 0 0 0 0 0 0 0 0 0 0 0 0 0 0 0 0 0 0 0 0 0 0 0 0 0 0 0 0 0 0 0 1099 1099 1081 1076 1074 1072 1062 1058 1046 1025 1003 988 976 972 970 969 969 969 965 959 951 949 939 0
0 0 0 0 0 0 0 0 0 0 0 0 0 0 0 0 0 0 0 0 0 0 0 0 0 0 0 0 0 0 0 0 0 0 0 0 0 0 0 0 0 0 0 0 0 0 0 0 0 0 0 0 0 0 0 0 0 0 0 0 0 0 0 0 0 0 0 0 0 0 0 0 0 0 0 0 0 0 0 0 0 0 0 0 0 0 0 0 0 0 0 0 0 0 0 0 0 0 0 0 0 0 0 0 0 0 0 0 0 0 0 0 0 0 0 0 0 0 0 0 0 0 0 0 0 0 0 0 0 0 0 2598 3071 3401 3519 3555 3567 3585 3604 3613 3613 3613 3611 3606 3605 3605 3605 3605 3605 3598 3587 3574 3562 3554 3553 3549 3542 3532 3529 3527 3519 3510 3501 3490 3488 3487 3487 3482 3472 3456 3422 3406 3391 3380 3380 3380 3384 3384 3384 3355 3322 3290 3274 3260 3259 3248 3229 3205 3189 3167 3152 3139 3123 3099 3078 3063 3056 3047 3033 3019 3012 3004 3000 2984 2961 2926 2843 2723 2561 0 0 2138 2116 2111 2098 2078 2066 2061 2054 2052 2051 2048 2044 2040 2037 2032 2029 2027 2024 2021 2018 2016 2013 2011 2008 2006 2003 2000 1997 1994 1992 1989 1988 1986 1983 1981 1979 1976 1975 1973 1971 1969 1967 1965 1963 1961 1960 1958 1957 1955 1953 1951 1950 1948 1946 1944 1942 1941 1939 1937 1935 1933 1931 1929 1927 1925 1923 1922 1920 1918 1917 1916 1915 1913 1912 1910 1909 1908 1906 1905 1904 1903 1901 1899 1898 1897 1895 1894 1892 1891 1889 1889 1888 1887 1887 1886 1885 1884 1883 1883 1882 1881 1879 1879 1878 1877 1876 1875 1874 1873 1872 1871 1870 1870 1868 1868 1867 1867 1867 1867 1867 1867 1867 1867 1867 1867 1867 1868 1868 1868 1868 1868 1869 1869 1869 1870 1871 1871 1871 1872 1872 1872 1873 1873 1874 1874 1874 1875 1875 1875 1876 1877 1877 1878 1878 1878 1878 1879 1879 1880 1880 1880 1881 1881 1881 1882 1882 1883 1883 1883 1883 1884 1884 1884 1885 1885 1885 1886 1886 1887 1888 1888 1889 1889 1890 1890 1890 1891 1892 1892 1892 1893 1893 1894 1894 1895 1896 1897 1898 1898 1899 1900 1902 1903 1903 1905 1906 1908 1908 1909 1910 1912 1913 1914 1915 1916 1918 1919 1921 1923 1925 1927 1928 1929 1931 1932 1934 1935 1936 1938 1939 1941 1943 1944 1945 1947 1948 1949 1952 1953 1955 1957 1960 1960 1962 1962 1969 1969 1969 1969 1969 1962 0 0 0 0 0 0 0 0 0 0 0 0 0 0 0 0 0 0 0 0 0 0 0 0 0 0 0 0 0 0 0 0 0 0 0 0 0 0 0 0 0 0 0 0 0 0 0 0 0 0 0 0 0 0 0 0 0 0 0 0 0 0 0 0 0 0 0 0 0 0 0 0 0 0 0 0 0 0 0 0 0 0 0 0 0 0 0 0 0 0 0 0 0 0 0 0 0 0 0 0 0 0 0 0 0 0 0 0 0 0 0 0 0 0 0 0 0 0 0 0 0 0 0 0 0 0 0 0 0 0 0 0 0 0 0 0 0 0 0 0 0 0 0 0 0 0 0 0 0 0 0 0 0 0 1082 1082 1077 1073 1066 1059 1055 1048 1036 1025 1002 982 974 968 966 966 966 965 959 956 951 949 939 0
0 0 0 0 0 0 0 0 0 0 0 0 0 0 0 0 0 0 0 0 0 0 0 0 0 0 0 0 0 0 0 0 0 0 0 0 0 0 0 0 0 0 0 0 0 0 0 0 0 0 0 0 0 0 0 0 0 0 0 0 0 0 0 0 0 0 0 0 0 0 0 0 0 0 0 0 0 0 0 0 0 0 0 0 0 0 0 0 0 0 0 0 0 0 0 0 0 0 0 0 0 0 0 0 0 0 0 0 0 0 0 0 0 0 0 0 0 0 0 0 0 0 0 0 0 0 0 0 0 0 0 0 3020 3331 3509 3555 3577 3602 3617 3630 3630 3630 3613 3606 3606 3606 3613 3613 3613 3608 3592 3575 3563 3558 3553 3550 3546 3539 3532 3527 3515 3507 3501 3490 3488 3486 3482 3480 3474 3465 3437 3410 3397 3387 3387 3384 3379 3377 3376 3347 3321 3290 3271 3260 3259 3248 3228 3205 3189 3167 3163 3146 3123 3107 3091 3073 3057 3047 3033 3019 3010 3004 2991 2981 2961 2926 2838 2664 2531 0 0 2131 2114 2111 2098 2078 2066 2059 2053 2052 2050 2047 2043 2040 2036 2032 2029 2027 2024 2021 2018 2016 2013 2011 2009 2006 2003 2000 1996 1993 1992 1989 1988 1986 1983 1981 1979 1976 1975 1973 1971 1969 1967 1965 1963 1962 1960 1959 1958 1956 1953 1952 1951 1949 1946 1946 1943 1942 1939 1937 1935 1933 1931 1929 1927 1925 1923 1921 1919 1918 1917 1916 1915 1913 1912 1910 1909 1908 1906 1905 1904 1902 1901 1899 1898 1897 1895 1894 1892 1891 1889 1889 1888 1887 1887 1886 1885 1884 1883 1883 1882 1881 1880 1879 1878 1877 1876 1875 1874 1873 1872 1871 1870 1870 1868 1868 1867 1866 1866 1866 1866 1866 1866 1867 1867 1867 1867 1867 1867 1868 1868 1868 1868 1869 1869 1870 1871 1871 1871 1871 1872 1872 1873 1873 1874 1874 1874 1874 1875 1875 1876 1876 1877 1877 1878 1878 1878 1879 1880 1880 1880 1880 1881 1881 1882 1882 1882 1883 1883 1883 1883 1884 1884 1884 1885 1885 1885 1886 1887 1887 1888 1888 1889 1889 1890 1890 1891 1891 1892 1892 1893 1893 1893 1894 1894 1896 1896 1897 1898 1899 1900 1901 1902 1903 1904 1905 1907 1908 1909 1910 1911 1912 1913 1914 1915 1916 1918 1919 1921 1923 1925 1927 1928 1929 1931 1932 1934 1935 1936 1938 1939 1941 1943 1944 1945 1946 1947 1948 1950 1953 1956 1958 1960 1961 1961 1962 1965 1968 1969 1969 1969 1969 0 0 0 0 0 0 0 0 0 0 0 0 0 0 0 0 0 0 0 0 0 0 0 0 0 0 0 0 0 0 0 0 0 0 0 0 0 0 0 0 0 0 0 0 0 0 0 0 0 0 0 0 0 0 0 0 0 0 0 0 0 0 0 0 0 0 0 0 0 0 0 0 0 0 0 0 0 0 0 0 0 0 0 0 0 0 0 0 0 0 0 0 0 0 0 0 0 0 0 0 0 0 0 0 0 0 0 0 0 0 0 0 0 0 0 0 0 0 0 0 0 0 0 0 0 0 0 0 0 0 0 0 0 0 0 0 0 0 0 0 0 0 0 0 0 0 0 0 0 0 0 0 0 1072 1072 1072 1071 1066 1054 1047 1046 1042 1036 1020 997 977 968 962 962 961 959 958 955 954 950 948 938 0
0 0 0 0 0 0 0 0 0 0 0 0 0 0 0 0 0 0 0 0 0 0 0 0 0 0 0 0 0 0 0 0 0 0 0 0 0 0 0 0 0 0 0 0 0 0 0 0 0 0 0 0 0 0 0 0 0 0 0 0 0 0 0 0 0 0 0 0 0 0 0 0 0 0 0 0 0 0 0 0 0 0 0 0 0 0 0 0 0 0 0 0 0 0 0 0 0 0 0 0 0 0 0 0 0 0 0 0 0 0 0 0 0 0 0 0 0 0 0 0 0 0 0 0 0 0 0 0 0 0 0 0 2880 3287 3490 3555 3579 3602 3621 3630 3630 3630 3623 3617 3614 3614 3614 3614 3614 3614 3603 3584 3566 3560 3554 3554 3553 3553 3541 3527 3515 3507 3503 3502 3498 3484 3482 3480 3474 3465 3446 3424 3404 3393 3382 3381 3377 3377 3367 3342 3321 3290 3271 3260 3255 3248 3228 3205 3191 3178 3171 3148 3123 3107 3091 3074 3057 3044 3033 3023 3010 3004 2991 2981 2941 2913 2801 2662 2525 0 0 2127 2101 2095 2087 2076 2064 2059 2053 2051 2047 2045 2043 2040 2036 2032 2029 2027 2024 2021 2018 2015 2013 2011 2009 2006 2003 1999 1995 1993 1992 1989 1988 1986 1983 1980 1978 1976 1974 1973 1971 1969 1967 1965 1963 1962 1961 1959 1958 1956 1954 1953 1951 1950 1948 1946 1944 1942 1940 1937 1935 1933 1931 1929 1926 1925 1922 1921 1919 1918 1917 1916 1915 1913 1912 1910 1909 1908 1906 1905 1904 1903 1901 1899 1898 1897 1895 1894 1892 1891 1889 1889 1887 1887 1887 1886 1885 1884 1883 1883 1882 1881 1880 1879 1878 1877 1876 1875 1874 1873 1872 1871 1870 1869 1868 1868 1867 1866 1866 1866 1866 1866 1866 1866 1867 1867 1867 1867 1867 1867 1867 1868 1868 1869 1869 1870 1871 1871 1871 1871 1871 1872 1872 1872 1872 1873 1874 1874 1874 1875 1875 1876 1877 1877 1878 1878 1878 1879 1880 1880 1880 1880 1881 1881 1882 1882 1882 1883 1883 1883 1883 1883 1884 1884 1884 1884 1885 1886 1887 1887 1888 1888 1889 1889 1889 1890 1890 1891 1891 1892 1893 1893 1893 1894 1895 1896 1896 1897 1898 1900 1900 1902 1903 1904 1904 1906 1908 1909 1909 1911 1912 1913 1914 1915 1916 1916 1918 1919 1921 1923 1924 1926 1928 1929 1931 1933 1934 1935 1936 1938 1939 1940 1942 1944 1945 1945 1946 1948 1950 1953 1955 1958 1960 1961 1961 1962 1965 1969 1969 1972 1972 1972 1970 0 0 0 0 0 0 0 0 0 0 0 0 0 0 0 0 0 0 0 0 0 0 0 0 0 0 0 0 0 0 0 0 0 0 0 0 0 0 0 0 0 0 0 0 0 0 0 0 0 0 0 0 0 0 0 0 0 0 0 0 0 0 0 0 0 0 0 0 0 0 0 0 0 0 0 0 0 0 0 0 0 0 0 0 0 0 0 0 0 0 0 0 0 0 0 0 0 0 0 0 0 0 0 0 0 0 0 0 0 0 0 0 0 0 0 0 0 0 0 0 0 0 0 0 0 0 0 0 0 0 0 0 0 0 0 0 0 0 0 0 0 0 0 0 0 0 0 0 0 0 0 0 1067 1067 1067 1063 1056 1045 1041 1041 1034 1028 1017 995 977 964 957 957 956 956 956 955 954 950 948 939 0
0 0 0 0 0 0 0 0 0 0 0 0 0 0 0 0 0 0 0 0 0 0 0 0 0 0 0 0 0 0 0 0 0 0 0 0 0 0 0 0 0 0 0 0 0 0 0 0 0 0 0 0 0 0 0 0 0 0 0 0 0 0 0 0 0 0 0 0 0 0 0 0 0 0 0 0 0 0 0 0 0 0 0 0 0 0 0 0 0 0 0 0 0 0 0 0 0 0 0 0 0 0 0 0 0 0 0 0 0 0 0 0 0 0 0 0 0 0 0 0 0 0 0 0 0 0 0 0 0 0 0 0 2746 3188 3459 3559 3579 3602 3621 3630 3630 3630 3624 3621 3616 3614 3614 3614 3614 3614 3603 3586 3572 3560 3560 3557 3556 3556 3546 3531 3515 3512 3512 3507 3507 3491 3484 3480 3474 3465 3446 3433 3413 3394 3383 3383 3376 3369 3359 3342 3321 3299 3271 3261 3255 3252 3228 3207 3205 3193 3179 3148 3122 3107 3091 3074 3057 3040 3033 3023 3010 3004 2991 2981 2938 2886 2801 2647 2511 0 0 2127 2101 2084 2078 2074 2064 2059 2053 2051 2047 2044 2042 2040 2036 2032 2029 2026 2023 2021 2018 2015 2013 2011 2009 2006 2002 1998 1995 1992 1991 1989 1987 1985 1982 1980 1978 1976 1974 1973 1971 1969 1967 1965 1964 1962 1961 1959 1958 1956 1954 1953 1951 1950 1948 1946 1944 1942 1940 1937 1935 1933 1931 1928 1926 1924 1922 1921 1920 1918 1917 1916 1915 1913 1912 1910 1909 1908 1906 1905 1904 1903 1901 1899 1898 1897 1895 1894 1892 1891 1889 1888 1887 1887 1887 1886 1885 1884 1883 1882 1882 1881 1880 1879 1878 1877 1876 1875 1874 1873 1872 1871 1870 1870 1868 1868 1867 1866 1866 1866 1866 1866 1866 1866 1866 1867 1867 1867 1867 1867 1867 1868 1868 1868 1869 1869 1870 1870 1870 1870 1871 1871 1872 1872 1872 1873 1873 1874 1874 1874 1875 1876 1876 1877 1878 1878 1878 1879 1879 1880 1880 1880 1881 1881 1881 1882 1882 1882 1882 1883 1883 1883 1883 1883 1884 1884 1885 1886 1887 1887 1888 1888 1888 1889 1889 1890 1890 1891 1891 1892 1892 1893 1894 1895 1895 1896 1897 1898 1899 1900 1901 1902 1903 1904 1905 1906 1908 1910 1910 1911 1912 1913 1914 1915 1916 1917 1918 1920 1921 1923 1924 1926 1927 1929 1931 1933 1933 1935 1936 1938 1939 1940 1941 1943 1944 1944 1946 1947 1949 1952 1955 1958 1961 1961 1962 1964 1965 1969 1971 1974 1974 1974 1972 0 0 0 0 0 0 0 0 0 0 0 0 0 0 0 0 0 0 0 0 0 0 0 0 0 0 0 0 0 0 0 0 0 0 0 0 0 0 0 0 0 0 0 0 0 0 0 0 0 0 0 0 0 0 0 0 0 0 0 0 0 0 0 0 0 0 0 0 0 0 0 0 0 0 0 0 0 0 0 0 0 0 0 0 0 0 0 0 0 0 0 0 0 0 0 0 0 0 0 0 0 0 0 0 0 0 0 0 0 0 0 0 0 0 0 0 0 0 0 0 0 0 0 0 0 0 0 0 0 0 0 0 0 0 0 0 0 0 0 0 0 0 0 0 0 0 0 0 0 0 0 0 1058 1057 1057 1054 1050 1041 1035 1032 1027 1022 1015 994 972 962 954 954 954 955 955 955 954 951 948 939 0
0 0 0 0 0 0 0 0 0 0 0 0 0 0 0 0 0 0 0 0 0 0 0 0 0 0 0 0 0 0 0 0 0 0 0 0 0 0 0 0 0 0 0 0 0 0 0 0 0 0 0 0 0 0 0 0 0 0 0 0 0 0 0 0 0 0 0 0 0 0 0 0 0 0 0 0 0 0 0 0 0 0 0 0 0 0 0 0 0 0 0 0 0 0 0 0 0 0 0 0 0 0 0 0 0 0 0 0 0 0 0 0 0 0 0 0 0 0 0 0 0 0 0 0 0 0 0 0 0 0 0 0 2565 3145 3432 3559 3587 3609 3621 3624 3624 3624 3624 3621 3618 3616 3616 3616 3616 3616 3603 3586 3573 3573 3573 3571 3571 3566 3554 3536 3522 3517 3517 3517 3507 3491 3483 3481 3469 3459 3446 3433 3421 3398 3383 3383 3376 3368 3354 3342 3322 3303 3278 3264 3259 3252 3232 3213 3210 3194 3179 3148 3111 3093 3086 3076 3057 3040 3033 3033 3031 3029 3014 2982 2938 2877 2765 2565 0 0 0 2127 2101 2080 2073 2070 2064 2059 2056 2051 2047 2044 2042 2038 2036 2032 2028 2026 2023 2020 2018 2015 2013 2011 2008 2006 2002 1998 1994 1992 1991 1989 1986 1984 1981 1980 1977 1976 1974 1972 1971 1969 1967 1965 1964 1963 1961 1960 1958 1957 1955 1953 1952 1950 1949 1946 1944 1942 1940 1937 1935 1933 1931 1928 1926 1924 1922 1921 1920 1918 1917 1916 1915 1913 1912 1910 1909 1908 1907 1905 1904 1902 1901 1899 1898 1896 1895 1893 1892 1891 1889 1888 1887 1887 1886 1886 1884 1884 1883 1882 1882 1881 1880 1879 1878 1877 1876 1875 1874 1873 1872 1871 1871 1870 1868 1868 1867 1867 1866 1866 1866 1866 1866 1866 1866 1866 1866 1866 1866 1866 1867 1867 1868 1868 1868 1869 1869 1870 1870 1870 1870 1871 1871 1871 1872 1872 1873 1873 1873 1874 1874 1875 1876 1876 1877 1877 1878 1878 1879 1880 1880 1880 1881 1881 1881 1882 1882 1882 1882 1882 1882 1882 1883 1883 1883 1884 1885 1885 1886 1887 1887 1888 1888 1889 1889 1890 1890 1891 1891 1892 1893 1893 1894 1895 1895 1896 1897 1898 1899 1901 1902 1903 1904 1906 1906 1908 1909 1910 1911 1912 1912 1914 1915 1915 1916 1917 1918 1920 1921 1923 1924 1925 1927 1929 1931 1933 1933 1935 1936 1938 1939 1940 1941 1943 1943 1944 1945 1947 1949 1952 1955 1958 1961 1964 1964 1966 1967 1972 1975 1981 1981 1981 1977 0 0 0 0 0 0 0 0 0 0 0 0 0 0 0 0 0 0 0 0 0 0 0 0 0 0 0 0 0 0 0 0 0 0 0 0 0 0 0 0 0 0 0 0 0 0 0 0 0 0 0 0 0 0 0 0 0 0 0 0 0 0 0 0 0 0 0 0 0 0 0 0 0 0 0 0 0 0 0 0 0 0 0 0 0 0 0 0 0 0 0 0 0 0 0 0 0 0 0 0 0 0 0 0 0 0 0 0 0 0 0 0 0 0 0 0 0 0 0 0 0 0 0 0 0 0 0 0 0 0 0 0 0 0 0 0 0 0 0 0 0 0 0 0 0 0 0 0 0 0 0 1052 1053 1052 1051 1048 1038 1031 1027 1024 1022 1016 1003 983 967 959 953 953 953 954 954 954 954 954 951 942 0
0 0 0 0 0 0 0 0 0 0 0 0 0 0 0 0 0 0 0 0 0 0 0 0 0 0 0 0 0 0 0 0 0 0 0 0 0 0 0 0 0 0 0 0 0 0 0 0 0 0 0 0 0 0 0 0 0 0 0 0 0 0 0 0 0 0 0 0 0 0 0 0 0 0 0 0 0 0 0 0 0 0 0 0 0 0 0 0 0 0 0 0 0 0 0 0 0 0 0 0 0 0 0 0 0 0 0 0 0 0 0 0 0 0 0 0 0 0 0 0 0 0 0 0 0 0 0 0 0 0 0 0 2297 2965 3402 3554 3587 3609 3621 3623 3624 3624 3623 3621 3620 3616 3616 3616 3616 3616 3603 3588 3573 3573 3573 3577 3577 3577 3563 3546 3534 3530 3529 3521 3507 3491 3483 3476 3469 3459 3447 3434 3421 3400 3390 3383 3376 3367 3354 3342 3331 3307 3287 3268 3260 3252 3237 3222 3210 3194 3179 3146 3110 3093 3086 3076 3057 3040 3040 3040 3038 3038 3035 3010 2938 2877 2755 2517 0 0 0 2135 2106 2080 2073 2070 2070 2063 2060 2054 2049 2044 2041 2038 2036 2032 2028 2025 2023 2020 2018 2015 2012 2009 2008 2005 2001 1998 1994 1992 1989 1987 1985 1983 1981 1979 1977 1975 1974 1972 1970 1969 1967 1966 1964 1963 1961 1960 1959 1957 1955 1953 1952 1950 1949 1946 1944 1942 1940 1938 1935 1934 1931 1928 1926 1924 1923 1921 1920 1918 1917 1916 1915 1913 1912 1910 1909 1908 1907 1905 1904 1902 1901 1899 1898 1896 1894 1893 1891 1890 1889 1888 1887 1887 1886 1886 1884 1884 1883 1882 1882 1881 1880 1879 1877 1877 1876 1875 1874 1872 1872 1871 1870 1870 1869 1868 1867 1866 1866 1866 1866 1866 1865 1866 1866 1866 1866 1866 1866 1866 1866 1867 1867 1867 1868 1868 1869 1869 1869 1870 1870 1871 1871 1871 1871 1872 1872 1872 1873 1874 1874 1874 1875 1876 1876 1877 1877 1878 1879 1879 1879 1880 1881 1881 1881 1881 1881 1881 1882 1882 1882 1882 1882 1883 1883 1884 1884 1885 1886 1886 1887 1887 1888 1889 1889 1890 1890 1891 1891 1892 1893 1893 1894 1895 1895 1896 1897 1898 1900 1901 1902 1904 1906 1906 1907 1909 1911 1912 1912 1913 1913 1914 1915 1915 1916 1917 1918 1920 1921 1922 1924 1925 1927 1929 1930 1931 1933 1934 1936 1936 1938 1939 1941 1941 1943 1943 1945 1946 1948 1951 1954 1957 1961 1964 1966 1967 1968 1974 1976 1982 1982 1982 1977 0 0 0 0 0 0 0 0 0 0 0 0 0 0 0 0 0 0 0 0 0 0 0 0 0 0 0 0 0 0 0 0 0 0 0 0 0 0 0 0 0 0 0 0 0 0 0 0 0 0 0 0 0 0 0 0 0 0 0 0 0 0 0 0 0 0 0 0 0 0 0 0 0 0 0 0 0 0 0 0 0 0 0 0 0 0 0 0 0 0 0 0 0 0 0 0 0 0 0 0 0 0 0 0 0 0 0 0 0 0 0 0 0 0 0 0 0 0 0 0 0 0 0 0 0 0 0 0 0 0 0 0 0 0 0 0 0 0 0 0 0 0 0 0 0 0 0 0 0 0 0 1053 1053 1051 1045 1036 1030 1027 1024 1021 1016 1007 996 977 963 955 950 950 950 951 953 957 958 958 958 948 0
0 0 0 0 0 0 0 0 0 0 0 0 0 0 0 0 0 0 0 0 0 0 0 0 0 0 0 0 0 0 0 0 0 0 0 0 0 0 0 0 0 0 0 0 0 0 0 0 0 0 0 0 0 0 0 0 0 0 0 0 0 0 0 0 0 0 0 0 0 0 0 0 0 0 0 0 0 0 0 0 0 0 0 0 0 0 0 0 0 0 0 0 0 0 0 0 0 0 0 0 0 0 0 0 0 0 0 0 0 0 0 0 0 0 0 0 0 0 0 0 0 0 0 0 0 0 0 0 0 0 0 0 2096 2800 3318 3553 3587 3610 3621 3621 3622 3623 3622 3621 3621 3619 3618 3617 3617 3617 3603 3588 3575 3575 3575 3577 3577 3577 3573 3557 3547 3538 3529 3521 3509 3497 3486 3481 3469 3459 3447 3435 3421 3412 3400 3387 3376 3363 3352 3345 3332 3319 3300 3285 3272 3260 3242 3222 3210 3194 3169 3142 3110 3093 3086 3076 3063 3047 3046 3046 3043 3043 3035 3011 2963 2877 2755 2517 0 0 0 2143 2109 2080 2073 2070 2070 2063 2060 2054 2049 2044 2041 2037 2034 2031 2027 2025 2021 2020 2017 2014 2012 2009 2007 2005 2001 1998 1994 1991 1989 1987 1985 1983 1981 1979 1977 1975 1974 1972 1970 1969 1967 1966 1964 1963 1961 1960 1959 1957 1955 1953 1952 1950 1949 1946 1944 1942 1940 1938 1936 1934 1931 1928 1926 1924 1923 1921 1920 1919 1917 1916 1915 1913 1912 1911 1909 1908 1907 1906 1904 1902 1901 1899 1898 1896 1894 1893 1891 1890 1888 1888 1887 1887 1886 1885 1884 1884 1883 1882 1881 1881 1880 1878 1877 1876 1875 1875 1874 1872 1872 1871 1870 1869 1868 1868 1867 1866 1866 1866 1866 1866 1865 1865 1865 1865 1865 1865 1866 1866 1866 1866 1867 1867 1867 1867 1868 1868 1869 1870 1870 1870 1870 1870 1870 1870 1872 1872 1872 1873 1873 1873 1875 1875 1876 1876 1876 1877 1878 1878 1879 1879 1880 1880 1881 1881 1881 1881 1881 1882 1882 1882 1882 1883 1883 1883 1884 1885 1885 1886 1886 1887 1888 1888 1889 1890 1890 1891 1891 1892 1893 1893 1895 1895 1896 1897 1898 1899 1900 1902 1904 1904 1906 1907 1908 1909 1911 1912 1913 1913 1913 1914 1915 1915 1916 1917 1918 1920 1921 1922 1923 1925 1926 1928 1929 1931 1933 1934 1935 1936 1938 1939 1940 1941 1942 1943 1945 1946 1948 1951 1954 1957 1961 1963 1966 1969 1971 1975 1977 1982 1982 1982 1979 0 0 0 0 0 0 0 0 0 0 0 0 0 0 0 0 0 0 0 0 0 0 0 0 0 0 0 0 0 0 0 0 0 0 0 0 0 0 0 0 0 0 0 0 0 0 0 0 0 0 0 0 0 0 0 0 0 0 0 0 0 0 0 0 0 0 0 0 0 0 0 0 0 0 0 0 0 0 0 0 0 0 0 0 0 0 0 0 0 0 0 0 0 0 0 0 0 0 0 0 0 0 0 0 0 0 0 0 0 0 0 0 0 0 0 0 0 0 0 0 0 0 0 0 0 0 0 0 0 0 0 0 0 0 0 0 0 0 0 0 0 0 0 0 0 0 0 0 0 0 0 1054 1051 1050 1039 1033 1028 1027 1024 1021 1014 1004 991 971 957 950 946 946 946 948 952 957 958 958 958 948 0
0 0 0 0 0 0 0 0 0 0 0 0 0 0 0 0 0 0 0 0 0 0 0 0 0 0 0 0 0 0 0 0 0 0 0 0 0 0 0 0 0 0 0 0 0 0 0 0 0 0 0 0 0 0 0 0 0 0 0 0 0 0 0 0 0 0 0 0 0 0 0 0 0 0 0 0 0 0 0 0 0 0 0 0 0 0 0 0 0 0 0 0 0 0 0 0 0 0 0 0 0 0 0 0 0 0 0 0 0 0 0 0 0 0 0 0 0 0 0 0 0 0 0 0 0 0 0 0 0 0 0 0 0 2696 3236 3525 3587 3621 3622 3622 3624 3623 3623 3623 3624 3625 3626 3626 3626 3623 3613 3600 3584 3574 3574 3574 3574 3574 3573 3557 3547 3538 3529 3521 3509 3497 3486 3484 3470 3459 3449 3435 3423 3413 3400 3387 3376 3363 3352 3347 3333 3319 3300 3285 3272 3260 3242 3222 3204 3185 3169 3142 3110 3096 3086 3076 3063 3047 3046 3046 3043 3043 3035 3014 2967 2883 2755 2517 0 0 0 2146 2109 2080 2073 2070 2070 2063 2060 2054 2049 2044 2040 2036 2033 2030 2027 2024 2021 2018 2015 2014 2011 2008 2006 2004 2001 1997 1994 1991 1989 1986 1984 1982 1980 1979 1977 1975 1973 1971 1970 1968 1967 1965 1964 1962 1961 1960 1959 1957 1955 1953 1952 1950 1948 1946 1944 1942 1940 1938 1937 1934 1932 1929 1927 1925 1923 1921 1920 1919 1917 1916 1915 1913 1912 1911 1909 1908 1907 1906 1904 1902 1901 1899 1897 1896 1894 1893 1891 1890 1888 1888 1887 1887 1886 1885 1884 1883 1883 1882 1881 1880 1880 1878 1877 1876 1875 1875 1874 1872 1871 1871 1870 1869 1868 1868 1867 1866 1866 1865 1865 1865 1864 1864 1864 1864 1865 1865 1865 1865 1866 1866 1867 1867 1867 1867 1867 1868 1868 1869 1869 1869 1869 1870 1870 1870 1871 1871 1872 1873 1873 1873 1874 1874 1875 1875 1876 1877 1877 1877 1878 1878 1879 1879 1880 1880 1880 1881 1881 1881 1881 1882 1882 1883 1883 1883 1884 1884 1885 1886 1886 1887 1888 1888 1889 1889 1890 1891 1891 1892 1893 1893 1895 1895 1896 1897 1898 1899 1901 1902 1904 1905 1906 1908 1909 1910 1911 1912 1914 1914 1914 1914 1915 1915 1916 1917 1918 1919 1920 1922 1923 1923 1924 1927 1928 1930 1931 1934 1935 1936 1937 1938 1940 1941 1942 1943 1944 1946 1948 1951 1953 1957 1959 1961 1966 1969 1975 1976 1980 1985 1985 1985 1985 1958 0 0 0 0 0 0 0 0 0 0 0 0 0 0 0 0 0 0 0 0 0 0 0 0 0 0 0 0 0 0 0 0 0 0 0 0 0 0 0 0 0 0 0 0 0 0 0 0 0 0 0 0 0 0 0 0 0 0 0 0 0 0 0 0 0 0 0 0 0 0 0 0 0 0 0 0 0 0 0 0 0 0 0 0 0 0 0 0 0 0 0 0 0 0 0 0 0 0 0 0 0 0 0 0 0 0 0 0 0 0 0 0 0 0 0 0 0 0 0 0 0 0 0 0 0 0 0 0 0 0 0 0 0 0 0 0 0 0 0 0 0 0 0 0 0 0 0 0 0 1045 1045 1041 1036 1036 1031 1028 1027 1023 1020 1013 1002 988 968 952 946 942 941 941 941 947 957 958 958 958 948 0
0 0 0 0 0 0 0 0 0 0 0 0 0 0 0 0 0 0 0 0 0 0 0 0 0 0 0 0 0 0 0 0 0 0 0 0 0 0 0 0 0 0 0 0 0 0 0 0 0 0 0 0 0 0 0 0 0 0 0 0 0 0 0 0 0 0 0 0 0 0 0 0 0 0 0 0 0 0 0 0 0 0 0 0 0 0 0 0 0 0 0 0 0 0 0 0 0 0 0 0 0 0 0 0 0 0 0 0 0 0 0 0 0 0 0 0 0 0 0 0 0 0 0 0 0 0 0 0 0 0 0 0 0 2571 3079 3461 3587 3621 3621 3621 3621 3621 3621 3623 3624 3630 3640 3640 3640 3635 3621 3606 3591 3574 3574 3574 3573 3573 3573 3557 3547 3540 3531 3522 3509 3497 3486 3484 3477 3459 3449 3437 3424 3415 3400 3387 3368 3363 3352 3347 3333 3319 3300 3285 3272 3260 3242 3222 3204 3185 3169 3142 3118 3096 3086 3076 3063 3047 3046 3046 3043 3043 3035 3016 2970 2883 2761 2533 0 0 0 2146 2110 2081 2079 2073 2063 2057 2056 2052 2048 2044 2039 2036 2033 2030 2027 2024 2021 2017 2014 2012 2010 2007 2005 2003 2000 1997 1994 1991 1989 1986 1984 1982 1980 1978 1977 1974 1973 1971 1969 1968 1967 1965 1964 1962 1961 1960 1959 1957 1955 1953 1951 1949 1947 1946 1944 1942 1940 1938 1937 1934 1932 1929 1927 1925 1924 1921 1920 1919 1917 1916 1915 1913 1912 1911 1909 1908 1907 1905 1904 1902 1901 1899 1897 1896 1894 1893 1891 1890 1888 1888 1887 1886 1886 1885 1884 1883 1882 1882 1881 1880 1879 1878 1877 1876 1875 1874 1873 1872 1871 1871 1869 1869 1868 1868 1867 1865 1865 1865 1864 1864 1864 1864 1864 1864 1864 1864 1865 1865 1866 1866 1866 1866 1867 1867 1867 1868 1868 1868 1869 1869 1869 1869 1869 1869 1869 1870 1871 1872 1872 1873 1873 1873 1874 1874 1875 1875 1876 1876 1877 1878 1878 1878 1879 1879 1879 1880 1881 1881 1881 1881 1882 1882 1883 1883 1884 1884 1885 1885 1886 1887 1888 1888 1889 1889 1890 1891 1892 1892 1893 1893 1895 1895 1896 1897 1898 1899 1901 1902 1904 1905 1906 1908 1909 1910 1911 1913 1914 1914 1915 1915 1915 1916 1916 1917 1918 1919 1920 1921 1922 1923 1924 1926 1927 1930 1931 1933 1933 1934 1936 1937 1939 1940 1941 1942 1944 1945 1947 1951 1953 1957 1959 1961 1966 1970 1975 1979 1984 1989 1989 1989 1985 1962 0 0 0 0 0 0 0 0 0 0 0 0 0 0 0 0 0 0 0 0 0 0 0 0 0 0 0 0 0 0 0 0 0 0 0 0 0 0 0 0 0 0 0 0 0 0 0 0 0 0 0 0 0 0 0 0 0 0 0 0 0 0 0 0 0 0 0 0 0 0 0 0 0 0 0 0 0 0 0 0 0 0 0 0 0 0 0 0 0 0 0 0 0 0 0 0 0 0 0 0 0 0 0 0 0 0 0 0 0 0 0 0 0 0 0 0 0 0 0 0 0 0 0 0 0 0 0 0 0 0 0 0 0 0 0 0 0 0 0 0 0 0 0 0 0 0 0 0 0 1046 1046 1035 1035 1033 1030 1027 1026 1023 1019 1011 1001 984 966 948 942 938 938 938 938 940 946 947 947 946 946 0
0 0 0 0 0 0 0 0 0 0 0 0 0 0 0 0 0 0 0 0 0 0 0 0 0 0 0 0 0 0 0 0 0 0 0 0 0 0 0 0 0 0 0 0 0 0 0 0 0 0 0 0 0 0 0 0 0 0 0 0 0 0 0 0 0 0 0 0 0 0 0 0 0 0 0 0 0 0 0 0 0 0 0 0 0 0 0 0 0 0 0 0 0 0 0 0 0 0 0 0 0 0 0 0 0 0 0 0 0 0 0 0 0 0 0 0 0 0 0 0 0 0 0 0 0 0 0 0 0 0 0 0 0 0 2967 3366 3584 3616 3616 3616 3609 3609 3609 3622 3624 3637 3647 3647 3647 3640 3628 3615 3596 3582 3571 3568 3568 3566 3566 3557 3550 3540 3531 3522 3513 3508 3500 3492 3477 3462 3451 3441 3431 3415 3400 3387 3368 3367 3365 3358 3335 3311 3295 3277 3271 3260 3242 3222 3204 3185 3177 3155 3118 3096 3077 3068 3049 3036 3031 3031 3031 3031 3031 3016 2978 2883 2761 2533 0 0 0 2146 2109 2083 2079 2073 2062 2057 2056 2051 2047 2043 2039 2035 2032 2029 2027 2023 2020 2017 2013 2011 2008 2006 2004 2002 1999 1996 1994 1991 1989 1986 1984 1982 1980 1978 1976 1974 1973 1971 1969 1968 1966 1965 1964 1962 1961 1959 1958 1956 1955 1952 1951 1948 1946 1945 1944 1942 1940 1938 1937 1934 1932 1929 1927 1925 1924 1922 1920 1919 1917 1916 1915 1913 1912 1911 1909 1908 1907 1905 1904 1902 1901 1898 1897 1896 1894 1893 1891 1890 1888 1888 1886 1886 1885 1884 1884 1883 1882 1881 1881 1880 1878 1878 1877 1876 1875 1874 1873 1872 1871 1870 1869 1868 1868 1867 1866 1865 1865 1865 1864 1863 1863 1863 1863 1864 1864 1864 1864 1865 1865 1865 1865 1866 1866 1867 1867 1867 1868 1868 1868 1868 1869 1869 1869 1869 1869 1870 1870 1871 1871 1872 1872 1873 1873 1873 1875 1875 1875 1875 1876 1877 1877 1877 1878 1878 1879 1879 1879 1880 1880 1881 1881 1883 1883 1883 1884 1884 1885 1885 1885 1887 1888 1888 1889 1889 1890 1891 1891 1892 1893 1893 1895 1895 1897 1897 1898 1899 1901 1903 1904 1905 1907 1908 1910 1910 1912 1913 1914 1915 1915 1916 1916 1916 1916 1917 1918 1919 1920 1920 1921 1922 1923 1925 1927 1929 1931 1931 1933 1934 1935 1937 1938 1939 1941 1942 1943 1945 1947 1950 1953 1955 1958 1961 1965 1970 1976 1980 1984 1989 1991 1991 1991 1991 0 0 0 0 0 0 0 0 0 0 0 0 0 0 0 0 0 0 0 0 0 0 0 0 0 0 0 0 0 0 0 0 0 0 0 0 0 0 0 0 0 0 0 0 0 0 0 0 0 0 0 0 0 0 0 0 0 0 0 0 0 0 0 0 0 0 0 0 0 0 0 0 0 0 0 0 0 0 0 0 0 0 0 0 0 0 0 0 0 0 0 0 0 0 0 0 0 0 0 0 0 0 0 0 0 0 0 0 0 0 0 0 0 0 0 0 0 0 0 0 0 0 0 0 0 0 0 0 0 0 0 0 0 0 0 0 0 0 0 0 0 0 0 0 0 0 0 0 0 1054 1054 1036 1035 1033 1030 1027 1025 1023 1016 1009 996 979 964 948 938 934 934 934 936 940 941 943 943 942 942 0
0 0 0 0 0 0 0 0 0 0 0 0 0 0 0 0 0 0 0 0 0 0 0 0 0 0 0 0 0 0 0 0 0 0 0 0 0 0 0 0 0 0 0 0 0 0 0 0 0 0 0 0 0 0 0 0 0 0 0 0 0 0 0 0 0 0 0 0 0 0 0 0 0 0 0 0 0 0 0 0 0 0 0 0 0 0 0 0 0 0 0 0 0 0 0 0 0 0 0 0 0 0 0 0 0 0 0 0 0 0 0 0 0 0 0 0 0 0 0 0 0 0 0 0 0 0 0 0 0 0 0 0 0 0 2845 3275 3532 3584 3597 3597 3599 3599 3599 3616 3626 3639 3648 3648 3648 3640 3628 3615 3601 3588 3579 3568 3568 3566 3566 3557 3550 3540 3531 3522 3513 3510 3503 3494 3478 3463 3452 3450 3440 3422 3400 3387 3374 3371 3368 3358 3335 3309 3292 3277 3271 3260 3242 3224 3203 3193 3177 3155 3118 3089 3063 3050 3034 3028 3024 3024 3024 3024 3024 3021 2978 2880 2761 2533 0 0 0 2146 2109 2083 2079 2072 2062 2057 2056 2051 2046 2042 2039 2034 2032 2029 2026 2023 2020 2017 2013 2010 2007 2005 2003 2000 1998 1996 1993 1991 1989 1986 1984 1982 1980 1978 1976 1974 1972 1971 1969 1966 1965 1965 1963 1962 1960 1959 1957 1955 1953 1952 1950 1948 1946 1945 1942 1940 1939 1937 1936 1934 1932 1929 1927 1925 1924 1922 1920 1919 1918 1916 1915 1913 1912 1911 1909 1908 1907 1905 1904 1902 1900 1898 1896 1896 1894 1893 1891 1889 1888 1887 1886 1886 1885 1884 1882 1882 1881 1880 1879 1879 1878 1877 1876 1875 1874 1873 1872 1871 1870 1869 1868 1867 1867 1866 1864 1864 1863 1863 1863 1863 1863 1863 1863 1864 1864 1864 1864 1864 1864 1864 1865 1866 1866 1866 1866 1867 1867 1867 1867 1868 1868 1868 1868 1868 1869 1869 1869 1870 1870 1871 1871 1871 1872 1872 1873 1873 1874 1875 1875 1876 1876 1877 1877 1878 1878 1879 1879 1879 1880 1881 1881 1882 1883 1883 1884 1884 1885 1885 1885 1887 1887 1888 1889 1889 1890 1891 1891 1892 1893 1894 1895 1895 1897 1897 1899 1900 1902 1903 1904 1906 1907 1909 1910 1911 1912 1913 1914 1915 1915 1916 1916 1916 1916 1917 1918 1919 1919 1919 1921 1921 1923 1925 1927 1929 1929 1931 1932 1933 1933 1935 1937 1938 1940 1941 1942 1944 1947 1949 1952 1955 1957 1961 1965 1970 1976 1980 1984 1989 1991 1991 1991 1991 0 0 0 0 0 0 0 0 0 0 0 0 0 0 0 0 0 0 0 0 0 0 0 0 0 0 0 0 0 0 0 0 0 0 0 0 0 0 0 0 0 0 0 0 0 0 0 0 0 0 0 0 0 0 0 0 0 0 0 0 0 0 0 0 0 0 0 0 0 0 0 0 0 0 0 0 0 0 0 0 0 0 0 0 0 0 0 0 0 0 0 0 0 0 0 0 0 0 0 0 0 0 0 0 0 0 0 0 0 0 0 0 0 0 0 0 0 0 0 0 0 0 0 0 0 0 0 0 0 0 0 0 0 0 0 0 0 0 0 0 0 0 0 0 0 0 0 0 0 1073 1046 1039 1031 1029 1027 1027 1025 1022 1016 1007 994 979 964 948 938 930 930 930 934 937 937 939 941 941 941 0
0 0 0 0 0 0 0 0 0 0 0 0 0 0 0 0 0 0 0 0 0 0 0 0 0 0 0 0 0 0 0 0 0 0 0 0 0 0 0 0 0 0 0 0 0 0 0 0 0 0 0 0 0 0 0 0 0 0 0 0 0 0 0 0 0 0 0 0 0 0 0 0 0 0 0 0 0 0 0 0 0 0 0 0 0 0 0 0 0 0 0 0 0 0 0 0 0 0 0 0 0 0 0 0 0 0 0 0 0 0 0 0 0 0 0 0 0 0 0 0 0 0 0 0 0 0 0 0 0 0 0 0 0 0 2606 3138 3437 3557 3595 3595 3599 3599 3599 3616 3627 3641 3648 3648 3648 3640 3628 3615 3601 3588 3579 3571 3568 3566 3566 3557 3554 3542 3531 3522 3513 3510 3503 3494 3478 3463 3453 3452 3449 3437 3412 3389 3379 3375 3371 3358 3335 3309 3292 3277 3271 3264 3248 3230 3206 3194 3177 3155 3118 3082 3059 3050 3034 3028 3024 3024 3024 3024 3024 3022 2981 2879 2741 2523 0 0 0 2124 2093 2083 2073 2066 2062 2060 2056 2051 2046 2042 2037 2034 2031 2029 2026 2023 2020 2016 2013 2010 2007 2005 2003 2000 1997 1994 1992 1990 1989 1986 1984 1982 1980 1978 1976 1974 1972 1970 1969 1966 1965 1963 1962 1961 1959 1957 1956 1954 1952 1951 1949 1946 1944 1943 1942 1940 1939 1937 1936 1933 1932 1929 1927 1925 1924 1922 1920 1919 1918 1916 1915 1913 1912 1911 1909 1908 1907 1905 1904 1902 1900 1898 1896 1895 1894 1892 1890 1889 1888 1887 1886 1885 1884 1883 1882 1881 1881 1880 1879 1878 1877 1876 1875 1873 1873 1871 1871 1870 1870 1868 1868 1866 1865 1865 1864 1863 1862 1862 1862 1862 1862 1862 1862 1862 1863 1863 1864 1864 1864 1864 1864 1864 1865 1865 1866 1866 1866 1867 1867 1867 1867 1867 1868 1868 1868 1868 1868 1869 1869 1870 1870 1870 1871 1871 1872 1873 1873 1874 1874 1874 1875 1876 1876 1877 1877 1878 1879 1879 1879 1881 1881 1882 1883 1883 1883 1884 1884 1885 1885 1886 1887 1888 1889 1889 1890 1891 1891 1891 1893 1894 1895 1896 1897 1898 1899 1900 1902 1904 1905 1906 1908 1909 1910 1911 1912 1913 1914 1915 1915 1916 1916 1916 1916 1917 1918 1919 1919 1919 1920 1921 1923 1924 1926 1927 1929 1930 1931 1932 1933 1935 1937 1938 1939 1940 1942 1944 1946 1948 1951 1954 1957 1961 1965 1970 1975 1980 1983 1984 1988 1991 1991 1991 0 0 0 0 0 0 0 0 0 0 0 0 0 0 0 0 0 0 0 0 0 0 0 0 0 0 0 0 0 0 0 0 0 0 0 0 0 0 0 0 0 0 0 0 0 0 0 0 0 0 0 0 0 0 0 0 0 0 0 0 0 0 0 0 0 0 0 0 0 0 0 0 0 0 0 0 0 0 0 0 0 0 0 0 0 0 0 0 0 0 0 0 0 0 0 0 0 0 0 0 0 0 0 0 0 0 0 0 0 0 0 0 0 0 0 0 0 0 0 0 0 0 0 0 0 0 0 0 0 0 0 0 0 0 0 0 0 0 0 0 0 0 0 0 0 0 0 0 1069 1069 1046 1035 1025 1025 1024 1024 1023 1020 1015 1006 993 979 962 948 938 929 929 929 929 934 935 936 941 941 941 0
0 0 0 0 0 0 0 0 0 0 0 0 0 0 0 0 0 0 0 0 0 0 0 0 0 0 0 0 0 0 0 0 0 0 0 0 0 0 0 0 0 0 0 0 0 0 0 0 0 0 0 0 0 0 0 0 0 0 0 0 0 0 0 0 0 0 0 0 0 0 0 0 0 0 0 0 0 0 0 0 0 0 0 0 0 0 0 0 0 0 0 0 0 0 0 0 0 0 0 0 0 0 0 0 0 0 0 0 0 0 0 0 0 0 0 0 0 0 0 0 0 0 0 0 0 0 0 0 0 0 0 0 0 0 2528 3067 3380 3552 3595 3595 3599 3599 3599 3616 3628 3645 3647 3647 3647 3637 3625 3614 3601 3588 3579 3571 3570 3569 3568 3558 3554 3542 3531 3522 3513 3510 3503 3494 3478 3463 3453 3452 3449 3440 3424 3405 3385 3375 3371 3355 3335 3309 3292 3287 3282 3273 3258 3237 3207 3198 3174 3141 3116 3076 3059 3050 3034 3028 3024 3024 3024 3024 3024 3022 2981 2878 2709 0 0 0 0 2094 2080 2070 2067 2066 2062 2060 2056 2051 2045 2040 2036 2033 2031 2028 2026 2023 2019 2015 2012 2009 2007 2005 2002 2000 1997 1994 1992 1990 1988 1986 1984 1982 1980 1978 1976 1973 1971 1969 1968 1966 1965 1963 1961 1959 1958 1957 1955 1953 1951 1949 1947 1945 1944 1942 1940 1939 1938 1937 1935 1933 1931 1929 1927 1925 1923 1922 1920 1919 1918 1916 1915 1913 1912 1911 1909 1908 1907 1905 1903 1902 1900 1898 1896 1895 1893 1892 1890 1889 1888 1887 1885 1885 1883 1883 1881 1880 1880 1878 1878 1877 1876 1875 1874 1873 1871 1871 1869 1869 1868 1868 1866 1865 1864 1863 1863 1861 1861 1861 1861 1861 1861 1862 1862 1862 1862 1863 1863 1863 1863 1864 1864 1864 1864 1865 1865 1866 1866 1866 1867 1867 1867 1867 1867 1867 1868 1868 1868 1868 1868 1868 1869 1869 1870 1870 1870 1871 1872 1872 1873 1874 1874 1875 1875 1876 1877 1877 1878 1879 1879 1880 1881 1881 1883 1883 1883 1884 1884 1884 1885 1886 1887 1888 1888 1889 1890 1891 1891 1891 1893 1894 1894 1896 1897 1898 1899 1900 1902 1904 1905 1906 1908 1909 1910 1911 1912 1913 1914 1915 1915 1916 1916 1916 1916 1917 1918 1918 1919 1919 1920 1921 1922 1924 1925 1927 1928 1929 1931 1932 1933 1935 1937 1938 1939 1940 1942 1944 1946 1948 1951 1954 1958 1962 1966 1970 1975 1980 1982 1984 1988 1989 1989 1989 1982 0 0 0 0 0 0 0 0 0 0 0 0 0 0 0 0 0 0 0 0 0 0 0 0 0 0 0 0 0 0 0 0 0 0 0 0 0 0 0 0 0 0 0 0 0 0 0 0 0 0 0 0 0 0 0 0 0 0 0 0 0 0 0 0 0 0 0 0 0 0 0 0 0 0 0 0 0 0 0 0 0 0 0 0 0 0 0 0 0 0 0 0 0 0 0 0 0 0 0 0 0 0 0 0 0 0 0 0 0 0 0 0 0 0 0 0 0 0 0 0 0 0 0 0 0 0 0 0 0 0 0 0 0 0 0 0 0 0 0 0 0 0 0 0 0 0 0 1061 1061 1046 1022 1022 1022 1023 1023 1023 1019 1013 1004 993 978 962 948 936 929 925 925 925 926 930 930 939 939 940 0
0 0 0 0 0 0 0 0 0 0 0 0 0 0 0 0 0 0 0 0 0 0 0 0 0 0 0 0 0 0 0 0 0 0 0 0 0 0 0 0 0 0 0 0 0 0 0 0 0 0 0 0 0 0 0 0 0 0 0 0 0 0 0 0 0 0 0 0 0 0 0 0 0 0 0 0 0 0 0 0 0 0 0 0 0 0 0 0 0 0 0 0 0 0 0 0 0 0 0 0 0 0 0 0 0 0 0 0 0 0 0 0 0 0 0 0 0 0 0 0 0 0 0 0 0 0 0 0 0 0 0 0 0 0 0 2967 3358 3549 3595 3607 3609 3612 3612 3620 3635 3647 3647 3647 3641 3634 3623 3611 3598 3588 3577 3571 3570 3569 3568 3558 3554 3542 3531 3518 3512 3504 3500 3494 3478 3463 3453 3452 3449 3442 3425 3406 3388 3375 3363 3348 3326 3312 3305 3301 3293 3277 3259 3239 3219 3200 3174 3140 3113 3076 3059 3054 3039 3028 3028 3028 3028 3027 3026 3021 2981 2877 2677 0 0 0 0 2085 2080 2070 2067 2066 2061 2060 2056 2050 2045 2040 2036 2032 2030 2028 2026 2022 2019 2014 2011 2009 2007 2005 2002 1999 1996 1994 1992 1990 1988 1986 1984 1982 1980 1977 1975 1973 1970 1968 1967 1966 1964 1962 1960 1958 1957 1955 1954 1952 1950 1948 1946 1944 1942 1941 1939 1938 1937 1935 1935 1933 1931 1929 1927 1925 1923 1922 1920 1919 1918 1916 1915 1913 1911 1910 1909 1908 1907 1905 1903 1901 1900 1898 1896 1895 1893 1891 1889 1888 1887 1887 1885 1884 1883 1882 1880 1880 1879 1878 1877 1876 1875 1874 1873 1871 1870 1868 1868 1866 1866 1866 1865 1864 1863 1862 1861 1861 1861 1860 1860 1860 1860 1860 1861 1861 1861 1862 1862 1862 1862 1863 1863 1863 1863 1864 1865 1865 1865 1865 1865 1866 1866 1866 1867 1867 1867 1867 1867 1867 1867 1868 1868 1869 1869 1870 1870 1870 1870 1870 1872 1873 1874 1874 1875 1875 1876 1877 1877 1879 1879 1880 1881 1881 1883 1883 1883 1884 1884 1884 1885 1886 1887 1888 1889 1889 1890 1891 1891 1891 1893 1894 1894 1895 1897 1898 1899 1900 1902 1904 1905 1906 1908 1909 1910 1911 1912 1913 1914 1915 1915 1916 1916 1916 1916 1917 1917 1918 1919 1919 1920 1921 1922 1924 1925 1927 1928 1929 1931 1932 1933 1935 1937 1938 1939 1940 1942 1944 1946 1948 1951 1954 1959 1963 1966 1970 1975 1979 1981 1984 1988 1989 1989 1989 1982 0 0 0 0 0 0 0 0 0 0 0 0 0 0 0 0 0 0 0 0 0 0 0 0 0 0 0 0 0 0 0 0 0 0 0 0 0 0 0 0 0 0 0 0 0 0 0 0 0 0 0 0 0 0 0 0 0 0 0 0 0 0 0 0 0 0 0 0 0 0 0 0 0 0 0 0 0 0 0 0 0 0 0 0 0 0 0 0 0 0 0 0 0 0 0 0 0 0 0 0 0 0 0 0 0 0 0 0 0 0 0 0 0 0 0 0 0 0 0 0 0 0 0 0 0 0 0 0 0 0 0 0 0 0 0 0 0 0 0 0 0 0 0 0 0 0 0 1059 1059 1035 1021 1021 1021 1021 1021 1020 1017 1011 1003 991 977 962 948 934 927 924 920 920 920 920 922 931 931 940 0
0 0 0 0 0 0 0 0 0 0 0 0 0 0 0 0 0 0 0 0 0 0 0 0 0 0 0 0 0 0 0 0 0 0 0 0 0 0 0 0 0 0 0 0 0 0 0 0 0 0 0 0 0 0 0 0 0 0 0 0 0 0 0 0 0 0 0 0 0 0 0 0 0 0 0 0 0 0 0 0 0 0 0 0 0 0 0 0 0 0 0 0 0 0 0 0 0 0 0 0 0 0 0 0 0 0 0 0 0 0 0 0 0 0 0 0 0 0 0 0 0 0 0 0 0 0 0 0 0 0 0 0 0 0 0 2855 3280 3540 3607 3621 3621 3626 3626 3626 3635 3646 3646 3646 3641 3633 3623 3610 3597 3582 3574 3569 3569 3568 3568 3558 3545 3536 3531 3518 3512 3503 3494 3489 3478 3463 3450 3446 3443 3442 3430 3408 3389 3375 3355 3339 3328 3326 3321 3311 3293 3277 3263 3251 3231 3207 3174 3140 3113 3076 3064 3063 3053 3041 3034 3033 3033 3031 3028 3015 2976 2871 2665 0 0 0 2110 2084 2078 2070 2067 2066 2061 2058 2053 2049 2045 2040 2035 2031 2028 2027 2023 2021 2017 2014 2011 2009 2007 2005 2002 1999 1996 1993 1991 1990 1988 1986 1984 1982 1979 1977 1974 1972 1970 1968 1966 1965 1964 1961 1959 1958 1956 1954 1953 1950 1949 1946 1944 1943 1941 1940 1939 1937 1937 1935 1934 1932 1931 1929 1927 1925 1923 1921 1920 1919 1918 1915 1914 1913 1911 1910 1909 1907 1906 1905 1903 1901 1900 1898 1896 1894 1892 1890 1889 1888 1887 1885 1883 1883 1883 1882 1880 1879 1878 1877 1876 1876 1875 1874 1872 1870 1868 1867 1865 1865 1864 1864 1863 1862 1862 1861 1860 1860 1860 1860 1860 1860 1860 1860 1860 1860 1860 1861 1861 1862 1862 1862 1863 1863 1863 1863 1864 1864 1865 1865 1865 1865 1865 1865 1865 1865 1865 1865 1865 1866 1867 1868 1868 1868 1868 1868 1869 1869 1869 1870 1871 1872 1873 1873 1874 1875 1876 1876 1877 1879 1879 1880 1881 1881 1883 1883 1883 1884 1884 1884 1885 1886 1887 1888 1889 1889 1891 1891 1892 1892 1893 1894 1894 1896 1897 1898 1899 1900 1902 1904 1905 1906 1907 1907 1909 1910 1911 1913 1913 1914 1915 1915 1915 1916 1916 1917 1917 1917 1918 1919 1920 1921 1922 1924 1925 1926 1928 1929 1931 1932 1934 1935 1937 1938 1939 1941 1943 1944 1946 1948 1951 1955 1959 1964 1967 1970 1975 1978 1980 1984 1986 1986 1986 1986 1982 0 0 0 0 0 0 0 0 0 0 0 0 0 0 0 0 0 0 0 0 0 0 0 0 0 0 0 0 0 0 0 0 0 0 0 0 0 0 0 0 0 0 0 0 0 0 0 0 0 0 0 0 0 0 0 0 0 0 0 0 0 0 0 0 0 0 0 0 0 0 0 0 0 0 0 0 0 0 0 0 0 0 0 0 0 0 0 0 0 0 0 0 0 0 0 0 0 0 0 0 0 0 0 0 0 0 0 0 0 0 0 0 0 0 0 0 0 0 0 0 0 0 0 0 0 0 0 0 0 0 0 0 0 0 0 0 0 0 0 0 0 0 0 0 0 0 1054 1054 1049 1031 1018 1018 1018 1018 1018 1018 1012 1008 998 986 972 957 944 933 926 920 918 918 918 920 920 928 928 937 0
0 0 0 0 0 0 0 0 0 0 0 0 0 0 0 0 0 0 0 0 0 0 0 0 0 0 0 0 0 0 0 0 0 0 0 0 0 0 0 0 0 0 0 0 0 0 0 0 0 0 0 0 0 0 0 0 0 0 0 0 0 0 0 0 0 0 0 0 0 0 0 0 0 0 0 0 0 0 0 0 0 0 0 0 0 0 0 0 0 0 0 0 0 0 0 0 0 0 0 0 0 0 0 0 0 0 0 0 0 0 0 0 0 0 0 0 0 0 0 0 0 0 0 0 0 0 0 0 0 0 0 0 0 0 0 2638 3229 3523 3607 3629 3629 3631 3631 3631 3641 3641 3641 3641 3640 3632 3623 3610 3597 3582 3574 3568 3568 3568 3565 3556 3545 3536 3531 3518 3512 3503 3488 3481 3471 3458 3449 3446 3443 3442 3430 3416 3389 3375 3355 3341 3339 3330 3326 3312 3293 3277 3264 3253 3232 3212 3179 3140 3113 3093 3078 3069 3063 3052 3044 3040 3039 3032 3028 3014 2969 2862 2658 0 0 0 2101 2084 2078 2073 2071 2066 2061 2058 2053 2049 2045 2040 2035 2030 2027 2024 2021 2018 2016 2013 2011 2008 2005 2002 2000 1998 1996 1993 1991 1989 1988 1986 1984 1981 1978 1976 1974 1972 1970 1968 1966 1964 1963 1961 1958 1956 1954 1953 1951 1950 1947 1945 1944 1942 1941 1939 1939 1937 1936 1935 1933 1932 1930 1929 1926 1925 1922 1921 1919 1918 1916 1915 1913 1912 1911 1910 1909 1907 1906 1904 1903 1901 1899 1898 1896 1894 1892 1890 1888 1886 1885 1884 1883 1883 1882 1881 1880 1879 1877 1876 1875 1875 1873 1872 1871 1870 1867 1865 1864 1863 1862 1862 1862 1861 1860 1860 1859 1859 1859 1859 1859 1859 1859 1859 1859 1859 1860 1860 1861 1861 1861 1862 1862 1862 1862 1863 1864 1864 1864 1864 1865 1865 1865 1865 1865 1865 1865 1865 1865 1865 1866 1867 1867 1867 1867 1867 1869 1869 1869 1869 1871 1871 1872 1873 1874 1875 1876 1876 1877 1878 1879 1880 1881 1881 1883 1883 1883 1884 1884 1885 1885 1887 1887 1889 1889 1890 1891 1891 1892 1893 1893 1894 1895 1896 1897 1898 1899 1900 1902 1904 1905 1906 1907 1907 1909 1910 1911 1912 1913 1914 1914 1915 1915 1915 1916 1917 1917 1917 1918 1919 1920 1921 1922 1924 1925 1926 1928 1929 1931 1932 1934 1935 1937 1938 1940 1941 1943 1945 1946 1948 1951 1955 1961 1965 1968 1971 1975 1978 1980 1982 1985 1986 1986 1985 1983 0 0 0 0 0 0 0 0 0 0 0 0 0 0 0 0 0 0 0 0 0 0 0 0 0 0 0 0 0 0 0 0 0 0 0 0 0 0 0 0 0 0 0 0 0 0 0 0 0 0 0 0 0 0 0 0 0 0 0 0 0 0 0 0 0 0 0 0 0 0 0 0 0 0 0 0 0 0 0 0 0 0 0 0 0 0 0 0 0 0 0 0 0 0 0 0 0 0 0 0 0 0 0 0 0 0 0 0 0 0 0 0 0 0 0 0 0 0 0 0 0 0 0 0 0 0 0 0 0 0 0 0 0 0 0 0 0 0 0 0 0 0 0 0 0 0 1054 1054 1049 1027 1017 1017 1016 1013 1013 1013 1009 1001 993 980 967 953 941 932 925 920 917 915 915 917 920 928 928 937 0
0 0 0 0 0 0 0 0 0 0 0 0 0 0 0 0 0 0 0 0 0 0 0 0 0 0 0 0 0 0 0 0 0 0 0 0 0 0 0 0 0 0 0 0 0 0 0 0 0 0 0 0 0 0 0 0 0 0 0 0 0 0 0 0 0 0 0 0 0 0 0 0 0 0 0 0 0 0 0 0 0 0 0 0 0 0 0 0 0 0 0 0 0 0 0 0 0 0 0 0 0 0 0 0 0 0 0 0 0 0 0 0 0 0 0 0 0 0 0 0 0 0 0 0 0 0 0 0 0 0 0 0 0 0 0 0 3096 3467 3607 3630 3630 3631 3631 3631 3641 3641 3641 3638 3636 3632 3623 3610 3597 3582 3574 3568 3566 3565 3563 3556 3545 3536 3531 3523 3517 3503 3488 3469 3462 3454 3448 3446 3442 3440 3430 3418 3400 3375 3355 3344 3339 3330 3328 3312 3296 3277 3264 3255 3233 3213 3186 3155 3129 3108 3090 3084 3077 3067 3063 3057 3043 3032 3028 3014 2964 2859 2613 0 0 0 2100 2085 2079 2073 2071 2066 2061 2058 2053 2049 2045 2040 2035 2030 2026 2022 2020 2017 2015 2013 2011 2008 2004 2002 1999 1997 1995 1993 1990 1989 1986 1984 1983 1979 1977 1975 1973 1971 1969 1967 1964 1963 1961 1959 1957 1955 1954 1952 1950 1949 1947 1945 1943 1942 1941 1939 1939 1936 1936 1935 1933 1931 1930 1928 1926 1924 1922 1921 1919 1918 1916 1915 1913 1912 1911 1910 1909 1907 1905 1904 1903 1901 1899 1897 1895 1893 1891 1889 1887 1885 1884 1883 1883 1882 1881 1880 1879 1878 1877 1876 1874 1873 1872 1871 1870 1868 1866 1864 1863 1862 1861 1860 1860 1860 1860 1859 1858 1858 1858 1858 1858 1858 1858 1858 1858 1858 1859 1859 1859 1860 1860 1860 1861 1862 1862 1862 1863 1863 1864 1864 1864 1864 1865 1865 1865 1865 1865 1865 1865 1865 1865 1866 1866 1866 1867 1867 1868 1868 1869 1869 1870 1871 1871 1873 1873 1874 1876 1876 1877 1878 1879 1880 1881 1881 1883 1883 1884 1884 1885 1885 1886 1887 1888 1889 1889 1890 1891 1892 1892 1894 1894 1895 1895 1896 1897 1898 1899 1900 1902 1904 1905 1906 1907 1907 1908 1909 1910 1911 1913 1913 1914 1914 1915 1915 1916 1917 1917 1917 1918 1918 1920 1921 1922 1924 1925 1926 1928 1929 1931 1933 1934 1935 1937 1938 1940 1941 1943 1945 1946 1948 1951 1955 1961 1967 1969 1971 1975 1978 1980 1982 1985 1985 1989 1989 1989 1971 0 0 0 0 0 0 0 0 0 0 0 0 0 0 0 0 0 0 0 0 0 0 0 0 0 0 0 0 0 0 0 0 0 0 0 0 0 0 0 0 0 0 0 0 0 0 0 0 0 0 0 0 0 0 0 0 0 0 0 0 0 0 0 0 0 0 0 0 0 0 0 0 0 0 0 0 0 0 0 0 0 0 0 0 0 0 0 0 0 0 0 0 0 0 0 0 0 0 0 0 0 0 0 0 0 0 0 0 0 0 0 0 0 0 0 0 0 0 0 0 0 0 0 0 0 0 0 0 0 0 0 0 0 0 0 0 0 0 0 0 0 0 0 0 0 1029 1029 1016 1005 1005 1005 1005 1008 1008 1008 1002 997 988 976 965 953 941 932 925 920 916 914 914 916 921 928 928 937 0
0 0 0 0 0 0 0 0 0 0 0 0 0 0 0 0 0 0 0 0 0 0 0 0 0 0 0 0 0 0 0 0 0 0 0 0 0 0 0 0 0 0 0 0 0 0 0 0 0 0 0 0 0 0 0 0 0 0 0 0 0 0 0 0 0 0 0 0 0 0 0 0 0 0 0 0 0 0 0 0 0 0 0 0 0 0 0 0 0 0 0 0 0 0 0 0 0 0 0 0 0 0 0 0 0 0 0 0 0 0 0 0 0 0 0 0 0 0 0 0 0 0 0 0 0 0 0 0 0 0 0 0 0 0 0 0 3008 3361 3553 3622 3626 3631 3632 3634 3637 3637 3637 3632 3631 3630 3623 3610 3599 3589 3580 3573 3563 3563 3562 3556 3550 3548 3544 3535 3527 3507 3488 3469 3459 3454 3448 3448 3442 3436 3432 3419 3408 3389 3366 3344 3340 3334 3333 3312 3296 3277 3267 3262 3235 3217 3192 3163 3138 3117 3103 3100 3090 3088 3077 3065 3053 3042 3031 3014 2964 2841 2591 0 0 0 2100 2087 2079 2073 2071 2066 2063 2060 2053 2049 2046 2043 2037 2030 2025 2022 2017 2016 2014 2012 2009 2007 2003 2001 1999 1997 1995 1993 1990 1988 1986 1984 1982 1979 1977 1975 1973 1971 1969 1967 1964 1962 1959 1958 1956 1955 1953 1952 1950 1948 1946 1945 1943 1941 1941 1939 1938 1936 1935 1934 1932 1931 1929 1928 1926 1924 1922 1920 1918 1917 1916 1915 1913 1912 1911 1909 1908 1906 1905 1904 1902 1901 1899 1897 1895 1893 1890 1888 1887 1884 1884 1883 1882 1882 1881 1879 1878 1877 1877 1875 1873 1872 1871 1870 1869 1867 1866 1864 1862 1860 1860 1859 1858 1858 1858 1858 1858 1857 1857 1857 1857 1857 1857 1857 1858 1858 1858 1858 1859 1859 1859 1860 1861 1861 1861 1862 1863 1863 1863 1864 1864 1864 1865 1865 1865 1864 1864 1864 1864 1864 1865 1865 1866 1866 1866 1867 1868 1868 1869 1869 1870 1871 1871 1872 1873 1874 1875 1876 1877 1878 1879 1880 1881 1881 1883 1883 1884 1885 1885 1886 1886 1887 1888 1889 1889 1890 1891 1892 1893 1894 1894 1895 1896 1897 1897 1899 1899 1900 1902 1904 1904 1905 1906 1907 1908 1909 1910 1911 1912 1912 1913 1914 1914 1915 1916 1916 1917 1917 1918 1918 1919 1921 1922 1924 1925 1926 1927 1929 1931 1933 1934 1936 1937 1939 1940 1942 1943 1945 1946 1948 1951 1955 1961 1967 1969 1972 1976 1980 1981 1981 1983 1985 1989 1989 1989 1984 0 0 0 0 0 0 0 0 0 0 0 0 0 0 0 0 0 0 0 0 0 0 0 0 0 0 0 0 0 0 0 0 0 0 0 0 0 0 0 0 0 0 0 0 0 0 0 0 0 0 0 0 0 0 0 0 0 0 0 0 0 0 0 0 0 0 0 0 0 0 0 0 0 0 0 0 0 0 0 0 0 0 0 0 0 0 0 0 0 0 0 0 0 0 0 0 0 0 0 0 0 0 0 0 0 0 0 0 0 0 0 0 0 0 0 0 0 0 0 0 0 0 0 0 0 0 0 0 0 0 0 0 0 0 0 0 0 0 0 0 0 0 0 0 0 1011 1011 1009 1002 1001 1001 1001 1004 1004 1004 999 993 987 976 965 953 941 932 924 919 915 913 913 915 921 928 928 937 0
0 0 0 0 0 0 0 0 0 0 0 0 0 0 0 0 0 0 0 0 0 0 0 0 0 0 0 0 0 0 0 0 0 0 0 0 0 0 0 0 0 0 0 0 0 0 0 0 0 0 0 0 0 0 0 0 0 0 0 0 0 0 0 0 0 0 0 0 0 0 0 0 0 0 0 0 0 0 0 0 0 0 0 0 0 0 0 0 0 0 0 0 0 0 0 0 0 0 0 0 0 0 0 0 0 0 0 0 0 0 0 0 0 0 0 0 0 0 0 0 0 0 0 0 0 0 0 0 0 0 0 0 0 0 0 0 2826 3309 3528 3617 3632 3632 3632 3630 3630 3630 3630 3630 3626 3625 3622 3610 3599 3591 3580 3573 3563 3562 3561 3558 3556 3555 3546 3535 3534 3520 3492 3469 3459 3454 3449 3449 3442 3436 3430 3420 3416 3400 3384 3357 3349 3347 3333 3311 3300 3290 3283 3275 3255 3219 3192 3163 3138 3129 3119 3110 3106 3098 3082 3071 3054 3046 3038 3017 2959 2829 2537 0 0 2129 2100 2087 2079 2071 2068 2066 2063 2060 2055 2051 2046 2043 2037 2030 2024 2019 2017 2014 2012 2010 2009 2006 2003 2001 1999 1997 1995 1993 1990 1988 1986 1984 1982 1979 1977 1975 1973 1971 1969 1967 1963 1962 1959 1958 1956 1954 1953 1951 1949 1947 1946 1944 1943 1941 1940 1938 1937 1935 1934 1933 1931 1930 1928 1928 1925 1923 1921 1920 1918 1917 1915 1914 1912 1911 1911 1909 1908 1906 1905 1904 1902 1900 1898 1897 1895 1893 1890 1888 1886 1884 1883 1882 1881 1881 1880 1879 1878 1877 1876 1874 1873 1871 1870 1869 1868 1866 1865 1863 1862 1860 1859 1858 1857 1857 1857 1857 1856 1856 1856 1856 1856 1856 1856 1857 1857 1857 1857 1858 1858 1858 1858 1860 1860 1860 1861 1861 1861 1862 1863 1863 1863 1864 1864 1864 1864 1864 1864 1864 1864 1864 1865 1865 1866 1866 1866 1867 1868 1868 1869 1869 1870 1870 1871 1872 1873 1874 1875 1875 1877 1878 1879 1880 1881 1882 1883 1883 1884 1885 1886 1886 1887 1888 1888 1889 1890 1891 1891 1892 1894 1894 1895 1895 1896 1897 1899 1899 1900 1901 1902 1904 1904 1905 1906 1907 1908 1909 1910 1911 1911 1912 1913 1914 1914 1915 1916 1916 1917 1917 1917 1918 1919 1920 1921 1923 1925 1925 1928 1929 1931 1933 1934 1936 1938 1939 1940 1942 1943 1945 1946 1949 1951 1955 1960 1967 1969 1972 1977 1980 1981 1981 1983 1987 1991 1991 1991 1990 0 0 0 0 0 0 0 0 0 0 0 0 0 0 0 0 0 0 0 0 0 0 0 0 0 0 0 0 0 0 0 0 0 0 0 0 0 0 0 0 0 0 0 0 0 0 0 0 0 0 0 0 0 0 0 0 0 0 0 0 0 0 0 0 0 0 0 0 0 0 0 0 0 0 0 0 0 0 0 0 0 0 0 0 0 0 0 0 0 0 0 0 0 0 0 0 0 0 0 0 0 0 0 0 0 0 0 0 0 0 0 0 0 0 0 0 0 0 0 0 0 0 0 0 0 0 0 0 0 0 0 0 0 0 0 0 0 0 0 0 0 0 0 0 0 1009 1009 1007 1001 999 999 999 1002 1002 1002 998 993 987 976 965 953 942 932 924 917 913 912 912 912 921 928 928 937 0
0 0 0 0 0 0 0 0 0 0 0 0 0 0 0 0 0 0 0 0 0 0 0 0 0 0 0 0 0 0 0 0 0 0 0 0 0 0 0 0 0 0 0 0 0 0 0 0 0 0 0 0 0 0 0 0 0 0 0 0 0 0 0 0 0 0 0 0 0 0 0 0 0 0 0 0 0 0 0 0 0 0 0 0 0 0 0 0 0 0 0 0 0 0 0 0 0 0 0 0 0 0 0 0 0 0 0 0 0 0 0 0 0 0 0 0 0 0 0 0 0 0 0 0 0 0 0 0 0 0 0 0 0 0 0 0 2599 3119 3474 3614 3632 3632 3632 3628 3628 3628 3628 3628 3625 3619 3614 3603 3599 3591 3583 3573 3563 3562 3559 3558 3556 3555 3546 3536 3535 3530 3509 3475 3463 3459 3457 3449 3443 3436 3432 3432 3430 3429 3401 3376 3355 3349 3333 3311 3304 3304 3296 3286 3257 3219 3192 3163 3138 3129 3119 3110 3106 3098 3082 3071 3054 3046 3038 3017 2958 2824 2503 0 0 2123 2100 2087 2079 2068 2066 2064 2063 2060 2055 2051 2046 2043 2037 2030 2023 2019 2017 2014 2011 2009 2007 2005 2003 2000 1998 1997 1994 1992 1990 1988 1986 1984 1982 1979 1977 1975 1973 1970 1968 1966 1963 1962 1959 1957 1956 1954 1953 1950 1949 1947 1946 1944 1942 1941 1939 1938 1936 1934 1933 1932 1931 1929 1928 1926 1925 1923 1921 1920 1918 1917 1915 1914 1912 1911 1910 1909 1907 1906 1904 1903 1902 1900 1898 1896 1895 1892 1890 1888 1886 1884 1882 1881 1881 1880 1880 1879 1877 1876 1876 1874 1873 1871 1870 1869 1868 1866 1864 1862 1861 1859 1858 1857 1857 1857 1856 1856 1856 1856 1856 1855 1855 1855 1855 1856 1856 1856 1857 1857 1857 1857 1858 1858 1859 1860 1860 1860 1861 1862 1862 1863 1863 1864 1864 1864 1864 1864 1864 1864 1864 1864 1864 1865 1866 1866 1867 1867 1868 1868 1869 1869 1870 1870 1871 1872 1873 1874 1875 1875 1877 1878 1879 1880 1881 1882 1883 1884 1884 1885 1886 1886 1887 1888 1889 1889 1890 1891 1892 1893 1894 1894 1896 1896 1897 1897 1899 1900 1901 1902 1904 1904 1904 1905 1906 1907 1908 1909 1910 1911 1911 1912 1913 1914 1914 1915 1916 1916 1916 1917 1917 1917 1918 1919 1921 1923 1925 1925 1928 1929 1931 1933 1934 1936 1938 1939 1940 1941 1943 1945 1947 1949 1952 1955 1960 1967 1969 1973 1977 1980 1981 1981 1983 1989 1993 1995 1995 1995 0 0 0 0 0 0 0 0 0 0 0 0 0 0 0 0 0 0 0 0 0 0 0 0 0 0 0 0 0 0 0 0 0 0 0 0 0 0 0 0 0 0 0 0 0 0 0 0 0 0 0 0 0 0 0 0 0 0 0 0 0 0 0 0 0 0 0 0 0 0 0 0 0 0 0 0 0 0 0 0 0 0 0 0 0 0 0 0 0 0 0 0 0 0 0 0 0 0 0 0 0 0 0 0 0 0 0 0 0 0 0 0 0 0 0 0 0 0 0 0 0 0 0 0 0 0 0 0 0 0 0 0 0 0 0 0 0 0 0 0 0 0 0 0 1010 1010 1009 1001 994 994 994 996 1001 1001 1001 998 993 987 977 967 953 942 933 924 917 910 907 907 907 914 927 927 931 0
0 0 0 0 0 0 0 0 0 0 0 0 0 0 0 0 0 0 0 0 0 0 0 0 0 0 0 0 0 0 0 0 0 0 0 0 0 0 0 0 0 0 0 0 0 0 0 0 0 0 0 0 0 0 0 0 0 0 0 0 0 0 0 0 0 0 0 0 0 0 0 0 0 0 0 0 0 0 0 0 0 0 0 0 0 0 0 0 0 0 0 0 0 0 0 0 0 0 0 0 0 0 0 0 0 0 0 0 0 0 0 0 0 0 0 0 0 0 0 0 0 0 0 0 0 0 0 0 0 0 0 0 0 0 0 0 0 3019 3414 3611 3634 3634 3634 3628 3628 3628 3628 3628 3625 3619 3614 3603 3600 3593 3586 3577 3563 3559 3558 3555 3553 3553 3546 3536 3536 3530 3513 3487 3473 3466 3465 3465 3452 3442 3436 3436 3434 3434 3419 3377 3363 3349 3327 3307 3304 3304 3302 3286 3258 3219 3177 3149 3134 3129 3119 3110 3106 3098 3082 3071 3054 3046 3038 3017 2958 2810 0 0 0 2123 2100 2085 2075 2068 2064 2063 2060 2058 2055 2051 2046 2041 2035 2029 2022 2019 2017 2014 2011 2009 2006 2004 2003 2000 1998 1996 1994 1992 1990 1987 1986 1984 1982 1979 1977 1975 1973 1970 1968 1965 1963 1961 1959 1957 1956 1954 1952 1950 1948 1947 1945 1943 1941 1940 1938 1936 1935 1934 1932 1932 1930 1929 1927 1926 1924 1922 1921 1920 1918 1916 1914 1913 1911 1910 1909 1909 1907 1905 1904 1903 1901 1900 1898 1896 1895 1892 1890 1888 1886 1883 1882 1880 1880 1879 1879 1878 1876 1876 1875 1874 1873 1871 1869 1869 1868 1865 1863 1861 1859 1858 1857 1856 1856 1856 1856 1855 1855 1854 1854 1854 1854 1855 1855 1856 1856 1856 1857 1857 1857 1857 1858 1858 1859 1859 1860 1860 1860 1861 1861 1862 1863 1864 1864 1864 1864 1864 1864 1864 1864 1864 1864 1865 1866 1866 1867 1868 1868 1868 1869 1869 1870 1871 1872 1872 1873 1874 1875 1875 1877 1878 1879 1880 1881 1882 1883 1884 1885 1886 1886 1887 1887 1888 1889 1889 1890 1892 1892 1893 1894 1895 1896 1896 1898 1899 1900 1901 1901 1903 1904 1904 1904 1905 1906 1906 1908 1909 1910 1910 1911 1912 1913 1914 1914 1915 1916 1916 1916 1917 1917 1917 1918 1919 1921 1923 1925 1925 1928 1929 1931 1933 1934 1936 1938 1939 1940 1941 1943 1945 1947 1950 1953 1956 1960 1967 1969 1973 1977 1979 1980 1981 1984 1989 1993 1995 1995 1995 1980 0 0 0 0 0 0 0 0 0 0 0 0 0 0 0 0 0 0 0 0 0 0 0 0 0 0 0 0 0 0 0 0 0 0 0 0 0 0 0 0 0 0 0 0 0 0 0 0 0 0 0 0 0 0 0 0 0 0 0 0 0 0 0 0 0 0 0 0 0 0 0 0 0 0 0 0 0 0 0 0 0 0 0 0 0 0 0 0 0 0 0 0 0 0 0 0 0 0 0 0 0 0 0 0 0 0 0 0 0 0 0 0 0 0 0 0 0 0 0 0 0 0 0 0 0 0 0 0 0 0 0 0 0 0 0 0 0 0 0 0 0 0 0 1012 1012 1008 1001 989 989 989 995 1000 1000 1000 998 993 989 980 969 956 944 934 924 916 907 901 901 901 902 916 916 926 0
0 0 0 0 0 0 0 0 0 0 0 0 0 0 0 0 0 0 0 0 0 0 0 0 0 0 0 0 0 0 0 0 0 0 0 0 0 0 0 0 0 0 0 0 0 0 0 0 0 0 0 0 0 0 0 0 0 0 0 0 0 0 0 0 0 0 0 0 0 0 0 0 0 0 0 0 0 0 0 0 0 0 0 0 0 0 0 0 0 0 0 0 0 0 0 0 0 0 0 0 0 0 0 0 0 0 0 0 0 0 0 0 0 0 0 0 0 0 0 0 0 0 0 0 0 0 0 0 0 0 0 0 0 0 0 0 0 2898 3341 3568 3634 3634 3634 3627 3627 3627 3627 3627 3627 3619 3614 3603 3600 3593 3587 3580 3570 3559 3553 3552 3551 3550 3541 3538 3536 3536 3529 3504 3481 3476 3473 3468 3452 3442 3439 3439 3437 3435 3423 3380 3366 3346 3321 3307 3304 3304 3302 3286 3258 3219 3177 3141 3131 3125 3114 3089 3089 3084 3077 3041 3024 3016 3003 2977 2917 2790 0 0 0 2123 2096 2081 2074 2068 2062 2062 2057 2055 2052 2049 2044 2039 2034 2028 2022 2019 2017 2015 2011 2009 2006 2004 2003 2000 1997 1996 1993 1991 1989 1987 1985 1984 1982 1979 1977 1975 1972 1970 1967 1965 1962 1960 1959 1957 1955 1953 1952 1950 1948 1946 1944 1942 1941 1939 1936 1936 1934 1932 1931 1930 1928 1928 1926 1925 1923 1922 1920 1918 1917 1915 1914 1912 1911 1910 1909 1908 1907 1905 1904 1903 1901 1899 1898 1896 1894 1892 1890 1888 1886 1883 1882 1880 1879 1878 1878 1878 1876 1875 1874 1873 1872 1870 1868 1868 1866 1865 1863 1861 1859 1858 1857 1856 1856 1855 1855 1854 1854 1854 1854 1854 1854 1855 1855 1856 1856 1856 1857 1857 1857 1857 1858 1858 1859 1859 1859 1860 1860 1861 1861 1862 1863 1863 1864 1864 1864 1864 1864 1864 1864 1864 1865 1865 1866 1867 1868 1868 1869 1869 1870 1870 1871 1871 1872 1872 1873 1874 1875 1876 1877 1878 1879 1881 1881 1883 1883 1884 1885 1886 1887 1888 1888 1889 1889 1890 1891 1892 1893 1894 1895 1896 1896 1897 1898 1899 1900 1901 1902 1903 1904 1904 1904 1905 1906 1906 1908 1909 1909 1910 1911 1912 1913 1914 1914 1915 1916 1916 1916 1917 1917 1918 1918 1920 1921 1923 1925 1926 1928 1929 1931 1933 1934 1936 1937 1939 1940 1941 1943 1946 1948 1951 1953 1957 1961 1965 1969 1972 1977 1978 1980 1981 1984 1989 1993 1996 1996 1996 1992 1966 0 0 0 0 0 0 0 0 0 0 0 0 0 0 0 0 0 0 0 0 0 0 0 0 0 0 0 0 0 0 0 0 0 0 0 0 0 0 0 0 0 0 0 0 0 0 0 0 0 0 0 0 0 0 0 0 0 0 0 0 0 0 0 0 0 0 0 0 0 0 0 0 0 0 0 0 0 0 0 0 0 0 0 0 0 0 0 0 0 0 0 0 0 0 0 0 0 0 0 0 0 0 0 0 0 0 0 0 0 0 0 0 0 0 0 0 0 0 0 0 0 0 0 0 0 0 0 0 0 0 0 0 0 0 0 0 0 0 0 0 0 0 1012 1012 1007 990 985 985 985 992 998 998 998 997 993 989 982 973 959 946 934 924 911 900 893 892 892 892 906 906 921 0
0 0 0 0 0 0 0 0 0 0 0 0 0 0 0 0 0 0 0 0 0 0 0 0 0 0 0 0 0 0 0 0 0 0 0 0 0 0 0 0 0 0 0 0 0 0 0 0 0 0 0 0 0 0 0 0 0 0 0 0 0 0 0 0 0 0 0 0 0 0 0 0 0 0 0 0 0 0 0 0 0 0 0 0 0 0 0 0 0 0 0 0 0 0 0 0 0 0 0 0 0 0 0 0 0 0 0 0 0 0 0 0 0 0 0 0 0 0 0 0 0 0 0 0 0 0 0 0 0 0 0 0 0 0 0 0 0 2745 3184 3492 3634 3634 3634 3628 3628 3628 3627 3627 3627 3623 3621 3610 3605 3598 3597 3589 3572 3559 3549 3544 3543 3542 3540 3538 3538 3535 3534 3529 3501 3486 3480 3470 3453 3452 3450 3447 3447 3447 3429 3388 3366 3346 3321 3307 3304 3303 3302 3285 3257 3213 3172 3140 3124 3118 3098 3078 3077 3069 3043 3011 2977 2958 2926 2904 2869 2784 0 0 0 2119 2095 2080 2074 2068 2062 2060 2056 2053 2051 2047 2043 2038 2034 2028 2022 2019 2017 2015 2011 2009 2006 2004 2002 1999 1997 1995 1992 1991 1989 1987 1985 1983 1981 1979 1977 1974 1972 1969 1967 1964 1962 1960 1959 1957 1955 1952 1951 1949 1947 1945 1944 1941 1940 1938 1936 1935 1933 1931 1930 1929 1928 1927 1925 1924 1923 1921 1919 1918 1916 1915 1913 1912 1911 1910 1909 1908 1906 1905 1904 1903 1901 1899 1898 1896 1894 1892 1890 1888 1886 1883 1882 1880 1879 1878 1877 1877 1876 1875 1874 1873 1871 1869 1868 1867 1866 1865 1862 1861 1859 1857 1856 1856 1855 1855 1854 1854 1854 1854 1854 1854 1854 1855 1855 1855 1856 1856 1856 1857 1857 1857 1858 1858 1859 1859 1859 1860 1860 1861 1861 1861 1863 1863 1863 1864 1864 1864 1864 1864 1864 1865 1865 1866 1867 1867 1868 1868 1869 1870 1870 1871 1871 1871 1872 1872 1873 1874 1875 1876 1878 1878 1879 1881 1882 1883 1883 1885 1886 1887 1887 1888 1889 1889 1890 1890 1891 1893 1893 1894 1895 1896 1896 1897 1899 1899 1900 1901 1902 1903 1903 1904 1904 1905 1906 1906 1908 1909 1909 1910 1911 1912 1913 1914 1914 1915 1916 1916 1916 1917 1917 1918 1919 1920 1921 1923 1925 1926 1928 1929 1931 1933 1934 1935 1937 1938 1940 1941 1943 1946 1948 1951 1954 1957 1962 1965 1969 1972 1976 1978 1980 1981 1985 1990 1993 1994 1995 1995 1995 1990 0 0 0 0 0 0 0 0 0 0 0 0 0 0 0 0 0 0 0 0 0 0 0 0 0 0 0 0 0 0 0 0 0 0 0 0 0 0 0 0 0 0 0 0 0 0 0 0 0 0 0 0 0 0 0 0 0 0 0 0 0 0 0 0 0 0 0 0 0 0 0 0 0 0 0 0 0 0 0 0 0 0 0 0 0 0 0 0 0 0 0 0 0 0 0 0 0 0 0 0 0 0 0 0 0 0 0 0 0 0 0 0 0 0 0 0 0 0 0 0 0 0 0 0 0 0 0 0 0 0 0 0 0 0 0 0 0 0 0 0 0 1012 1012 1012 1002 986 983 983 983 989 994 995 995 994 993 989 982 973 962 946 934 918 904 895 889 889 889 890 906 906 921 0
0 0 0 0 0 0 0 0 0 0 0 0 0 0 0 0 0 0 0 0 0 0 0 0 0 0 0 0 0 0 0 0 0 0 0 0 0 0 0 0 0 0 0 0 0 0 0 0 0 0 0 0 0 0 0 0 0 0 0 0 0 0 0 0 0 0 0 0 0 0 0 0 0 0 0 0 0 0 0 0 0 0 0 0 0 0 0 0 0 0 0 0 0 0 0 0 0 0 0 0 0 0 0 0 0 0 0 0 0 0 0 0 0 0 0 0 0 0 0 0 0 0 0 0 0 0 0 0 0 0 0 0 0 0 0 0 0 2568 3085 3434 3619 3630 3630 3630 3628 3626 3626 3626 3623 3622 3621 3612 3612 3608 3601 3589 3572 3559 3546 3544 3543 3542 3540 3538 3538 3536 3534 3529 3506 3501 3486 3474 3456 3456 3454 3453 3453 3447 3423 3389 3368 3341 3320 3303 3295 3295 3286 3271 3249 3212 3169 3135 3104 3093 3075 3052 3031 3006 2993 2945 2915 2898 2874 2811 2749 2651 0 0 2140 2112 2092 2077 2072 2068 2061 2059 2055 2051 2049 2045 2041 2038 2034 2028 2023 2019 2018 2015 2013 2009 2006 2004 2002 1999 1997 1995 1992 1990 1988 1986 1985 1982 1980 1978 1976 1974 1972 1969 1967 1964 1962 1960 1959 1957 1955 1952 1951 1949 1947 1945 1944 1941 1940 1938 1936 1934 1932 1931 1930 1929 1928 1926 1925 1923 1922 1919 1919 1917 1916 1915 1913 1912 1910 1910 1908 1907 1906 1905 1903 1902 1901 1899 1898 1896 1894 1892 1890 1888 1886 1884 1882 1880 1879 1878 1877 1876 1876 1874 1872 1871 1870 1869 1867 1866 1865 1863 1862 1861 1859 1857 1856 1855 1855 1854 1854 1854 1854 1854 1854 1854 1854 1855 1855 1855 1856 1856 1856 1856 1857 1857 1858 1858 1859 1859 1859 1859 1860 1861 1861 1861 1862 1863 1863 1864 1864 1864 1864 1864 1865 1865 1865 1866 1867 1867 1868 1869 1870 1870 1870 1871 1871 1872 1873 1873 1874 1875 1875 1877 1878 1879 1880 1881 1882 1883 1884 1885 1885 1887 1887 1888 1889 1890 1891 1891 1892 1893 1894 1895 1895 1896 1897 1897 1899 1899 1900 1901 1902 1903 1903 1904 1905 1905 1906 1907 1908 1909 1910 1910 1911 1912 1912 1913 1914 1915 1915 1916 1916 1916 1917 1918 1919 1920 1921 1923 1925 1926 1928 1929 1930 1932 1934 1935 1937 1938 1940 1941 1943 1946 1948 1950 1954 1957 1962 1965 1969 1972 1975 1977 1979 1982 1985 1990 1993 1994 1995 1995 1995 1995 0 0 0 0 0 0 0 0 0 0 0 0 0 0 0 0 0 0 0 0 0 0 0 0 0 0 0 0 0 0 0 0 0 0 0 0 0 0 0 0 0 0 0 0 0 0 0 0 0 0 0 0 0 0 0 0 0 0 0 0 0 0 0 0 0 0 0 0 0 0 0 0 0 0 0 0 0 0 0 0 0 0 0 0 0 0 0 0 0 0 0 0 0 0 0 0 0 0 0 0 0 0 0 0 0 0 0 0 0 0 0 0 0 0 0 0 0 0 0 0 0 0 0 0 0 0 0 0 0 0 0 0 0 0 0 0 0 0 0 0 0 1028 1028 1012 1001 986 981 981 981 984 990 991 991 991 991 987 982 973 962 946 925 914 903 894 887 887 887 889 903 903 920 0
0 0 0 0 0 0 0 0 0 0 0 0 0 0 0 0 0 0 0 0 0 0 0 0 0 0 0 0 0 0 0 0 0 0 0 0 0 0 0 0 0 0 0 0 0 0 0 0 0 0 0 0 0 0 0 0 0 0 0 0 0 0 0 0 0 0 0 0 0 0 0 0 0 0 0 0 0 0 0 0 0 0 0 0 0 0 0 0 0 0 0 0 0 0 0 0 0 0 0 0 0 0 0 0 0 0 0 0 0 0 0 0 0 0 0 0 0 0 0 0 0 0 0 0 0 0 0 0 0 0 0 0 0 0 0 0 0 0 2954 3351 3582 3632 3632 3632 3628 3625 3624 3623 3622 3621 3621 3612 3612 3608 3601 3589 3572 3554 3546 3544 3543 3542 3540 3539 3538 3538 3534 3529 3506 3501 3498 3477 3461 3461 3460 3456 3454 3447 3423 3389 3368 3341 3319 3303 3284 3265 3246 3226 3217 3201 3164 3112 3051 3027 2990 2945 2945 2945 2921 2915 2915 2898 2874 2811 2707 2620 0 0 2134 2112 2092 2074 2068 2064 2058 2057 2055 2051 2047 2043 2041 2038 2034 2028 2023 2019 2018 2015 2013 2009 2006 2004 2001 1999 1997 1994 1992 1990 1988 1986 1985 1982 1980 1978 1976 1974 1971 1969 1967 1964 1962 1960 1959 1957 1955 1952 1951 1949 1947 1945 1944 1941 1940 1937 1936 1934 1932 1931 1930 1928 1927 1926 1924 1923 1921 1919 1918 1917 1916 1914 1913 1911 1910 1909 1908 1907 1906 1905 1903 1902 1900 1899 1897 1896 1894 1892 1890 1887 1886 1884 1882 1880 1879 1877 1877 1875 1874 1873 1872 1870 1869 1868 1866 1865 1864 1863 1862 1860 1858 1857 1856 1855 1855 1854 1854 1854 1854 1854 1854 1854 1854 1855 1855 1855 1856 1856 1857 1857 1857 1857 1858 1858 1859 1859 1859 1859 1860 1861 1861 1861 1862 1862 1863 1863 1864 1864 1864 1865 1865 1866 1866 1866 1867 1867 1869 1870 1870 1871 1871 1871 1871 1872 1873 1873 1874 1875 1876 1877 1879 1879 1881 1881 1882 1884 1884 1885 1886 1887 1888 1888 1889 1890 1891 1891 1892 1893 1894 1895 1895 1896 1897 1897 1899 1899 1900 1901 1902 1903 1903 1904 1905 1906 1906 1907 1908 1909 1910 1910 1911 1911 1912 1913 1914 1914 1915 1915 1916 1916 1917 1918 1919 1920 1921 1923 1925 1926 1928 1929 1930 1931 1932 1934 1936 1938 1939 1941 1943 1946 1948 1950 1953 1957 1961 1965 1969 1971 1974 1977 1979 1983 1988 1991 1993 1994 1996 1996 1996 1996 1992 0 0 0 0 0 0 0 0 0 0 0 0 0 0 0 0 0 0 0 0 0 0 0 0 0 0 0 0 0 0 0 0 0 0 0 0 0 0 0 0 0 0 0 0 0 0 0 0 0 0 0 0 0 0 0 0 0 0 0 0 0 0 0 0 0 0 0 0 0 0 0 0 0 0 0 0 0 0 0 0 0 0 0 0 0 0 0 0 0 0 0 0 0 0 0 0 0 0 0 0 0 0 0 0 0 0 0 0 0 0 0 0 0 0 0 0 0 0 0 0 0 0 0 0 0 0 0 0 0 0 0 0 0 0 0 0 0 0 0 0 1028 1028 1022 1000 986 980 980 980 982 982 989 989 989 987 984 981 973 962 945 925 911 901 894 887 887 887 888 902 902 918 0
0 0 0 0 0 0 0 0 0 0 0 0 0 0 0 0 0 0 0 0 0 0 0 0 0 0 0 0 0 0 0 0 0 0 0 0 0 0 0 0 0 0 0 0 0 0 0 0 0 0 0 0 0 0 0 0 0 0 0 0 0 0 0 0 0 0 0 0 0 0 0 0 0 0 0 0 0 0 0 0 0 0 0 0 0 0 0 0 0 0 0 0 0 0 0 0 0 0 0 0 0 0 0 0 0 0 0 0 0 0 0 0 0 0 0 0 0 0 0 0 0 0 0 0 0 0 0 0 0 0 0 0 0 0 0 0 0 0 2775 3225 3547 3631 3631 3631 3624 3623 3623 3618 3615 3615 3613 3612 3612 3608 3601 3588 3572 3554 3554 3554 3550 3550 3550 3539 3531 3522 3517 3506 3503 3501 3498 3477 3461 3461 3460 3456 3454 3428 3408 3389 3366 3340 3304 3270 3231 3186 3157 3132 3127 3091 3036 2966 2966 2952 2945 2933 2945 2945 2921 2915 2915 2898 2874 2811 2707 2613 0 0 2132 2112 2092 2074 2063 2062 2058 2057 2055 2051 2047 2043 2040 2037 2034 2028 2024 2020 2018 2015 2013 2009 2006 2004 2001 1999 1996 1994 1992 1990 1988 1986 1984 1982 1980 1978 1976 1973 1971 1969 1967 1965 1962 1960 1958 1956 1955 1952 1951 1949 1947 1945 1944 1941 1940 1937 1935 1934 1932 1930 1929 1927 1926 1925 1924 1922 1921 1919 1918 1917 1915 1913 1913 1911 1910 1909 1908 1907 1906 1905 1902 1902 1900 1899 1897 1895 1894 1892 1890 1888 1886 1884 1882 1881 1879 1877 1877 1875 1874 1872 1871 1870 1869 1867 1866 1865 1864 1862 1861 1860 1858 1857 1856 1855 1854 1854 1854 1854 1854 1854 1854 1854 1854 1855 1855 1855 1856 1856 1857 1857 1857 1858 1858 1859 1859 1859 1859 1860 1860 1861 1861 1861 1862 1862 1863 1863 1864 1864 1864 1865 1866 1866 1867 1867 1867 1869 1870 1871 1871 1871 1871 1871 1872 1873 1874 1874 1875 1876 1877 1877 1879 1880 1881 1882 1882 1884 1884 1885 1886 1887 1888 1889 1890 1890 1891 1892 1892 1893 1894 1895 1895 1896 1897 1897 1899 1899 1900 1901 1902 1903 1903 1904 1905 1906 1906 1907 1908 1909 1910 1910 1911 1911 1912 1912 1913 1913 1915 1915 1915 1916 1917 1918 1919 1920 1921 1923 1924 1925 1927 1928 1929 1930 1932 1934 1935 1936 1938 1940 1942 1945 1947 1950 1953 1957 1961 1965 1968 1970 1973 1976 1979 1983 1988 1991 1993 1994 1996 1996 1997 1997 1997 0 0 0 0 0 0 0 0 0 0 0 0 0 0 0 0 0 0 0 0 0 0 0 0 0 0 0 0 0 0 0 0 0 0 0 0 0 0 0 0 0 0 0 0 0 0 0 0 0 0 0 0 0 0 0 0 0 0 0 0 0 0 0 0 0 0 0 0 0 0 0 0 0 0 0 0 0 0 0 0 0 0 0 0 0 0 0 0 0 0 0 0 0 0 0 0 0 0 0 0 0 0 0 0 0 0 0 0 0 0 0 0 0 0 0 0 0 0 0 0 0 0 0 0 0 0 0 0 0 0 0 0 0 0 0 0 0 0 0 0 1040 1040 1022 1000 989 980 980 980 981 981 987 987 987 987 982 976 970 959 942 924 911 900 893 887 887 887 888 902 902 917 0
0 0 0 0 0 0 0 0 0 0 0 0 0 0 0 0 0 0 0 0 0 0 0 0 0 0 0 0 0 0 0 0 0 0 0 0 0 0 0 0 0 0 0 0 0 0 0 0 0 0 0 0 0 0 0 0 0 0 0 0 0 0 0 0 0 0 0 0 0 0 0 0 0 0 0 0 0 0 0 0 0 0 0 0 0 0 0 0 0 0 0 0 0 0 0 0 0 0 0 0 0 0 0 0 0 0 0 0 0 0 0 0 0 0 0 0 0 0 0 0 0 0 0 0 0 0 0 0 0 0 0 0 0 0 0 0 0 0 2608 3129 3474 3631 3631 3631 3624 3623 3623 3611 3608 3606 3602 3601 3601 3598 3598 3588 3572 3557 3557 3557 3557 3557 3550 3535 3523 3504 3491 3485 3485 3481 3478 3477 3461 3460 3456 3447 3417 3366 3330 3311 3302 3292 3233 3187 3140 3078 3077 3077 3036 3036 3036 2966 2966 2952 2945 2933 2945 2945 2944 2944 2944 2913 2887 2840 2707 2566 0 0 2124 2112 2095 2074 2063 2062 2058 2057 2055 2049 2044 2041 2037 2034 2032 2028 2024 2020 2018 2016 2012 2009 2006 2003 2001 1999 1997 1994 1992 1990 1988 1986 1984 1982 1979 1977 1975 1973 1971 1969 1967 1965 1963 1960 1958 1956 1955 1952 1950 1949 1947 1945 1943 1941 1940 1937 1935 1934 1932 1930 1928 1927 1926 1925 1923 1922 1920 1919 1918 1916 1915 1913 1912 1911 1910 1909 1908 1906 1905 1904 1902 1901 1900 1898 1897 1895 1893 1892 1890 1888 1886 1884 1882 1881 1879 1877 1877 1875 1873 1872 1870 1869 1868 1867 1866 1864 1863 1862 1861 1859 1858 1857 1855 1855 1854 1854 1854 1854 1854 1854 1854 1854 1854 1855 1855 1855 1856 1856 1857 1857 1857 1858 1858 1859 1859 1859 1859 1860 1861 1861 1861 1861 1862 1862 1863 1863 1864 1865 1865 1866 1866 1866 1868 1868 1869 1869 1870 1871 1871 1872 1872 1873 1873 1874 1875 1875 1876 1876 1878 1878 1879 1881 1881 1882 1883 1884 1884 1886 1886 1887 1888 1889 1890 1890 1891 1892 1892 1893 1894 1895 1895 1896 1897 1897 1898 1899 1900 1901 1901 1902 1903 1904 1905 1906 1906 1907 1908 1909 1910 1910 1911 1911 1912 1912 1912 1913 1914 1914 1915 1916 1916 1917 1918 1920 1921 1921 1923 1924 1926 1928 1929 1930 1930 1932 1934 1936 1937 1938 1941 1944 1946 1950 1953 1957 1960 1963 1967 1970 1972 1975 1979 1983 1988 1991 1993 1994 1995 1995 1999 1999 1999 0 0 0 0 0 0 0 0 0 0 0 0 0 0 0 0 0 0 0 0 0 0 0 0 0 0 0 0 0 0 0 0 0 0 0 0 0 0 0 0 0 0 0 0 0 0 0 0 0 0 0 0 0 0 0 0 0 0 0 0 0 0 0 0 0 0 0 0 0 0 0 0 0 0 0 0 0 0 0 0 0 0 0 0 0 0 0 0 0 0 0 0 0 0 0 0 0 0 0 0 0 0 0 0 0 0 0 0 0 0 0 0 0 0 0 0 0 0 0 0 0 0 0 0 0 0 0 0 0 0 0 0 0 0 0 0 0 0 0 0 1050 1044 1022 1000 989 978 978 978 979 980 985 985 985 985 981 974 966 955 938 918 908 899 891 887 886 886 886 898 898 911 0
0 0 0 0 0 0 0 0 0 0 0 0 0 0 0 0 0 0 0 0 0 0 0 0 0 0 0 0 0 0 0 0 0 0 0 0 0 0 0 0 0 0 0 0 0 0 0 0 0 0 0 0 0 0 0 0 0 0 0 0 0 0 0 0 0 0 0 0 0 0 0 0 0 0 0 0 0 0 0 0 0 0 0 0 0 0 0 0 0 0 0 0 0 0 0 0 0 0 0 0 0 0 0 0 0 0 0 0 0 0 0 0 0 0 0 0 0 0 0 0 0 0 0 0 0 0 0 0 0 0 0 0 0 0 0 0 0 0 2555 3033 3423 3633 3633 3633 3630 3622 3620 3611 3601 3598 3598 3598 3598 3598 3598 3588 3570 3559 3559 3559 3557 3557 3550 3531 3515 3497 3480 3470 3467 3462 3459 3456 3441 3430 3400 3365 3322 3262 3206 3206 3206 3187 3187 3187 3140 3078 3077 3077 3036 3036 3036 2966 2966 2966 3004 3012 3019 3020 3019 3012 3012 2982 2935 2876 2773 2566 0 0 2123 2112 2095 2074 2063 2062 2059 2059 2053 2048 2042 2038 2036 2034 2031 2027 2024 2021 2018 2016 2012 2009 2006 2003 2001 1999 1997 1994 1991 1990 1988 1986 1984 1982 1979 1977 1975 1973 1971 1969 1967 1965 1963 1961 1958 1956 1954 1952 1951 1949 1947 1945 1943 1941 1940 1937 1935 1933 1932 1930 1928 1927 1926 1924 1923 1921 1920 1919 1918 1916 1915 1913 1912 1910 1909 1908 1907 1905 1904 1902 1901 1901 1899 1898 1896 1895 1893 1892 1890 1888 1886 1885 1883 1881 1880 1878 1877 1875 1873 1872 1870 1868 1868 1866 1865 1864 1863 1861 1860 1859 1858 1856 1855 1855 1854 1854 1854 1854 1854 1854 1854 1854 1854 1855 1855 1856 1857 1857 1857 1857 1858 1858 1858 1859 1859 1859 1860 1860 1861 1861 1862 1862 1862 1862 1863 1863 1864 1866 1866 1867 1867 1867 1868 1868 1869 1871 1871 1872 1872 1872 1873 1873 1874 1875 1875 1875 1877 1877 1878 1879 1880 1881 1881 1882 1883 1884 1884 1886 1886 1887 1888 1889 1889 1890 1891 1892 1892 1893 1894 1895 1895 1895 1896 1897 1898 1898 1899 1900 1901 1902 1903 1904 1905 1906 1906 1907 1908 1908 1909 1910 1910 1911 1911 1912 1912 1912 1913 1914 1914 1915 1916 1917 1918 1919 1920 1921 1921 1923 1924 1926 1928 1928 1929 1931 1933 1934 1936 1938 1940 1942 1945 1949 1952 1955 1959 1962 1966 1968 1972 1973 1976 1980 1984 1988 1990 1993 1994 1995 1998 1998 1998 1989 0 0 0 0 0 0 0 0 0 0 0 0 0 0 0 0 0 0 0 0 0 0 0 0 0 0 0 0 0 0 0 0 0 0 0 0 0 0 0 0 0 0 0 0 0 0 0 0 0 0 0 0 0 0 0 0 0 0 0 0 0 0 0 0 0 0 0 0 0 0 0 0 0 0 0 0 0 0 0 0 0 0 0 0 0 0 0 0 0 0 0 0 0 0 0 0 0 0 0 0 0 0 0 0 0 0 0 0 0 0 0 0 0 0 0 0 0 0 0 0 0 0 0 0 0 0 0 0 0 0 0 0 0 0 0 0 0 0 1051 1051 1045 1029 1005 989 975 975 975 976 977 983 985 985 985 981 974 964 949 932 915 905 897 889 886 886 886 886 895 895 908 0
0 0 0 0 0 0 0 0 0 0 0 0 0 0 0 0 0 0 0 0 0 0 0 0 0 0 0 0 0 0 0 0 0 0 0 0 0 0 0 0 0 0 0 0 0 0 0 0 0 0 0 0 0 0 0 0 0 0 0 0 0 0 0 0 0 0 0 0 0 0 0 0 0 0 0 0 0 0 0 0 0 0 0 0 0 0 0 0 0 0 0 0 0 0 0 0 0 0 0 0 0 0 0 0 0 0 0 0 0 0 0 0 0 0 0 0 0 0 0 0 0 0 0 0 0 0 0 0 0 0 0 0 0 0 0 0 0 0 0 3008 3375 3584 3623 3623 3623 3621 3608 3605 3593 3593 3593 3598 3598 3598 3598 3588 3570 3559 3559 3559 3557 3557 3531 3500 3471 3467 3458 3432 3405 3376 3361 3328 3275 3275 3275 3262 3262 3262 3206 3206 3206 3187 3187 3187 3140 3078 3077 3077 3077 3124 3128 3128 3128 3099 3083 3081 3060 3041 3029 3027 3024 3008 2969 2903 2780 2566 0 0 2122 2111 2095 2076 2067 2065 2063 2060 2052 2047 2041 2038 2036 2033 2030 2027 2024 2021 2018 2016 2012 2008 2006 2003 2001 1999 1997 1994 1991 1990 1988 1986 1983 1982 1979 1977 1975 1973 1971 1969 1967 1965 1963 1960 1959 1956 1954 1952 1951 1949 1947 1945 1943 1941 1940 1937 1935 1933 1932 1930 1928 1927 1925 1924 1923 1921 1920 1919 1917 1915 1914 1913 1910 1910 1908 1907 1906 1904 1903 1902 1901 1900 1898 1897 1896 1895 1893 1891 1890 1888 1887 1885 1884 1882 1880 1879 1878 1875 1873 1872 1869 1868 1868 1866 1865 1864 1863 1861 1860 1859 1858 1856 1855 1854 1854 1854 1853 1853 1853 1853 1854 1854 1854 1855 1856 1856 1857 1858 1858 1858 1858 1858 1859 1860 1860 1860 1861 1861 1861 1862 1862 1862 1862 1863 1863 1864 1865 1866 1867 1867 1868 1868 1869 1870 1870 1871 1871 1872 1872 1873 1874 1874 1875 1876 1876 1876 1877 1878 1879 1879 1880 1881 1881 1882 1883 1884 1884 1885 1886 1887 1888 1889 1889 1890 1891 1892 1892 1893 1893 1894 1894 1895 1896 1897 1897 1898 1898 1900 1900 1902 1902 1904 1905 1905 1906 1907 1908 1908 1909 1909 1910 1911 1911 1911 1912 1912 1913 1913 1913 1914 1915 1916 1917 1918 1918 1919 1921 1922 1923 1925 1925 1926 1927 1929 1931 1933 1934 1936 1938 1942 1945 1947 1952 1954 1957 1960 1964 1967 1969 1972 1975 1978 1982 1985 1987 1990 1991 1993 1998 1998 1998 1995 0 0 0 0 0 0 0 0 0 0 0 0 0 0 0 0 0 0 0 0 0 0 0 0 0 0 0 0 0 0 0 0 0 0 0 0 0 0 0 0 0 0 0 0 0 0 0 0 0 0 0 0 0 0 0 0 0 0 0 0 0 0 0 0 0 0 0 0 0 0 0 0 0 0 0 0 0 0 0 0 0 0 0 0 0 0 0 0 0 0 0 0 0 0 0 0 0 0 0 0 0 0 0 0 0 0 0 0 0 0 0 0 0 0 0 0 0 0 0 0 0 0 0 0 0 0 0 0 0 0 0 0 0 0 0 0 0 0 1051 1051 1045 1029 1005 988 969 969 969 972 973 977 984 984 984 980 974 963 946 928 911 900 893 887 884 884 884 885 891 891 902 0
0 0 0 0 0 0 0 0 0 0 0 0 0 0 0 0 0 0 0 0 0 0 0 0 0 0 0 0 0 0 0 0 0 0 0 0 0 0 0 0 0 0 0 0 0 0 0 0 0 0 0 0 0 0 0 0 0 0 0 0 0 0 0 0 0 0 0 0 0 0 0 0 0 0 0 0 0 0 0 0 0 0 0 0 0 0 0 0 0 0 0 0 0 0 0 0 0 0 0 0 0 0 0 0 0 0 0 0 0 0 0 0 0 0 0 0 0 0 0 0 0 0 0 0 0 0 0 0 0 0 0 0 0 0 0 0 0 0 0 2802 3270 3539 3622 3622 3622 3618 3608 3594 3588 3588 3588 3591 3596 3596 3596 3588 3570 3559 3547 3541 3541 3515 3475 3443 3398 3372 3332 3332 3332 3328 3328 3328 3275 3275 3275 3262 3262 3262 3206 3206 3206 3231 3251 3251 3251 3197 3184 3184 3184 3184 3184 3162 3128 3099 3083 3081 3073 3055 3034 3027 3025 3008 2969 2903 2780 2543 0 0 2122 2107 2094 2076 2067 2065 2063 2060 2051 2045 2040 2038 2035 2032 2030 2027 2024 2021 2018 2015 2011 2008 2006 2003 2002 1999 1997 1995 1991 1990 1988 1985 1983 1981 1979 1977 1974 1972 1971 1969 1967 1965 1963 1961 1959 1956 1954 1952 1950 1949 1947 1944 1943 1941 1940 1937 1935 1933 1932 1930 1928 1927 1925 1924 1923 1921 1920 1918 1916 1915 1914 1912 1910 1909 1908 1906 1905 1904 1902 1901 1900 1899 1898 1897 1896 1895 1893 1891 1890 1888 1887 1885 1884 1883 1880 1879 1878 1876 1874 1872 1869 1868 1867 1865 1864 1863 1862 1861 1860 1859 1858 1857 1855 1854 1854 1854 1853 1853 1853 1853 1854 1854 1855 1855 1856 1857 1858 1858 1858 1859 1859 1859 1859 1860 1860 1861 1861 1862 1862 1863 1863 1863 1863 1863 1864 1864 1865 1866 1867 1868 1868 1869 1869 1870 1871 1872 1872 1872 1873 1874 1874 1874 1876 1876 1877 1878 1878 1878 1879 1880 1880 1881 1881 1882 1883 1884 1884 1885 1886 1887 1887 1888 1889 1890 1891 1891 1892 1893 1893 1893 1894 1895 1895 1896 1897 1897 1898 1899 1899 1901 1902 1903 1904 1905 1905 1906 1907 1907 1908 1909 1909 1909 1910 1911 1911 1911 1912 1912 1913 1914 1915 1916 1916 1917 1918 1919 1919 1921 1922 1923 1924 1925 1926 1928 1930 1931 1933 1935 1936 1940 1942 1946 1949 1953 1956 1960 1962 1966 1968 1971 1974 1976 1980 1983 1986 1989 1991 1993 1994 1996 1996 1996 1976 0 0 0 0 0 0 0 0 0 0 0 0 0 0 0 0 0 0 0 0 0 0 0 0 0 0 0 0 0 0 0 0 0 0 0 0 0 0 0 0 0 0 0 0 0 0 0 0 0 0 0 0 0 0 0 0 0 0 0 0 0 0 0 0 0 0 0 0 0 0 0 0 0 0 0 0 0 0 0 0 0 0 0 0 0 0 0 0 0 0 0 0 0 0 0 0 0 0 0 0 0 0 0 0 0 0 0 0 0 0 0 0 0 0 0 0 0 0 0 0 0 0 0 0 0 0 0 0 0 0 0 0 0 0 0 0 0 1045 1045 1042 1029 1005 986 968 961 961 961 966 975 983 983 983 980 974 963 946 927 909 897 889 883 880 880 880 881 891 891 898 0
0 0 0 0 0 0 0 0 0 0 0 0 0 0 0 0 0 0 0 0 0 0 0 0 0 0 0 0 0 0 0 0 0 0 0 0 0 0 0 0 0 0 0 0 0 0 0 0 0 0 0 0 0 0 0 0 0 0 0 0 0 0 0 0 0 0 0 0 0 0 0 0 0 0 0 0 0 0 0 0 0 0 0 0 0 0 0 0 0 0 0 0 0 0 0 0 0 0 0 0 0 0 0 0 0 0 0 0 0 0 0 0 0 0 0 0 0 0 0 0 0 0 0 0 0 0 0 0 0 0 0 0 0 0 0 0 0 0 0 2528 3076 3474 3614 3614 3614 3613 3598 3587 3583 3583 3583 3587 3587 3587 3554 3530 3498 3457 3454 3442 3441 3377 3369 3369 3340 3332 3332 3332 3332 3328 3328 3328 3275 3275 3275 3269 3278 3283 3283 3295 3314 3314 3314 3309 3296 3284 3253 3222 3221 3221 3204 3163 3128 3099 3089 3085 3082 3071 3050 3029 3025 3008 2969 2903 2780 2507 0 0 2123 2107 2092 2076 2067 2065 2063 2060 2051 2044 2040 2038 2035 2032 2030 2027 2024 2021 2018 2015 2011 2008 2006 2003 2002 2000 1997 1995 1992 1990 1987 1985 1983 1981 1979 1977 1974 1972 1971 1969 1967 1964 1963 1960 1959 1956 1954 1952 1950 1949 1947 1944 1943 1941 1939 1937 1935 1933 1932 1930 1928 1927 1925 1924 1922 1921 1919 1918 1916 1914 1912 1912 1909 1908 1906 1906 1905 1903 1902 1901 1900 1899 1898 1897 1896 1894 1893 1891 1890 1888 1887 1885 1884 1883 1880 1879 1878 1876 1874 1873 1870 1868 1867 1865 1864 1863 1862 1861 1860 1859 1858 1857 1855 1854 1854 1854 1853 1853 1853 1853 1854 1854 1855 1855 1856 1857 1858 1859 1859 1859 1860 1860 1861 1861 1861 1861 1862 1862 1863 1863 1863 1864 1864 1864 1864 1865 1865 1867 1868 1869 1869 1869 1870 1871 1871 1872 1872 1873 1873 1874 1874 1875 1876 1876 1877 1878 1878 1879 1880 1880 1880 1881 1881 1882 1883 1883 1884 1885 1886 1886 1887 1888 1889 1890 1890 1891 1892 1892 1892 1893 1893 1894 1895 1895 1895 1896 1897 1899 1899 1900 1901 1902 1903 1903 1904 1906 1906 1906 1907 1908 1908 1909 1909 1909 1910 1910 1910 1911 1912 1913 1914 1914 1916 1917 1917 1919 1919 1920 1921 1922 1923 1924 1926 1927 1929 1930 1932 1934 1936 1938 1941 1944 1947 1950 1954 1958 1962 1964 1966 1970 1972 1975 1978 1981 1986 1988 1991 1993 1994 1996 1996 1996 1983 0 0 0 0 0 0 0 0 0 0 0 0 0 0 0 0 0 0 0 0 0 0 0 0 0 0 0 0 0 0 0 0 0 0 0 0 0 0 0 0 0 0 0 0 0 0 0 0 0 0 0 0 0 0 0 0 0 0 0 0 0 0 0 0 0 0 0 0 0 0 0 0 0 0 0 0 0 0 0 0 0 0 0 0 0 0 0 0 0 0 0 0 0 0 0 0 0 0 0 0 0 0 0 0 0 0 0 0 0 0 0 0 0 0 0 0 0 0 0 0 0 0 0 0 0 0 0 0 0 0 0 0 0 0 0 0 0 1042 1042 1039 1029 1006 985 968 959 959 959 963 973 980 980 980 977 973 962 946 926 909 896 886 881 876 876 876 880 887 887 897 0
0 0 0 0 0 0 0 0 0 0 0 0 0 0 0 0 0 0 0 0 0 0 0 0 0 0 0 0 0 0 0 0 0 0 0 0 0 0 0 0 0 0 0 0 0 0 0 0 0 0 0 0 0 0 0 0 0 0 0 0 0 0 0 0 0 0 0 0 0 0 0 0 0 0 0 0 0 0 0 0 0 0 0 0 0 0 0 0 0 0 0 0 0 0 0 0 0 0 0 0 0 0 0 0 0 0 0 0 0 0 0 0 0 0 0 0 0 0 0 0 0 0 0 0 0 0 0 0 0 0 0 0 0 0 0 0 0 0 0 0 2970 3384 3574 3592 3592 3592 3570 3549 3512 3512 3510 3506 3452 3403 3323 3323 3319 3318 3318 3316 3316 3312 3316 3336 3336 3332 3332 3332 3332 3366 3389 3413 3418 3424 3424 3424 3379 3356 3356 3349 3349 3349 3326 3319 3313 3304 3280 3258 3246 3239 3204 3163 3126 3099 3089 3086 3085 3076 3056 3035 3025 2998 2969 2890 2740 0 0 0 2127 2106 2086 2075 2067 2063 2062 2054 2049 2044 2040 2037 2035 2032 2030 2027 2023 2020 2017 2014 2011 2008 2005 2003 2002 2000 1997 1995 1992 1990 1987 1985 1983 1981 1979 1977 1974 1972 1971 1969 1967 1964 1962 1960 1958 1956 1954 1952 1951 1949 1947 1944 1943 1941 1939 1937 1935 1933 1932 1930 1928 1927 1925 1924 1922 1921 1919 1917 1916 1914 1912 1911 1909 1907 1906 1905 1904 1902 1901 1901 1899 1899 1897 1897 1896 1894 1892 1891 1890 1888 1887 1885 1884 1883 1881 1879 1878 1875 1874 1873 1870 1869 1867 1865 1864 1863 1862 1861 1860 1859 1858 1857 1855 1854 1854 1854 1854 1853 1853 1853 1854 1854 1855 1855 1857 1857 1858 1859 1859 1860 1860 1861 1862 1862 1862 1862 1863 1863 1863 1864 1864 1865 1865 1865 1865 1866 1867 1867 1868 1869 1869 1870 1871 1871 1872 1872 1873 1873 1873 1874 1875 1875 1876 1877 1878 1878 1879 1879 1880 1880 1881 1881 1881 1882 1883 1883 1884 1885 1885 1886 1887 1888 1888 1889 1890 1891 1891 1891 1892 1892 1893 1893 1894 1894 1895 1896 1897 1898 1898 1899 1900 1901 1901 1902 1904 1904 1905 1905 1906 1907 1907 1907 1908 1908 1909 1909 1909 1910 1911 1911 1913 1913 1914 1915 1917 1917 1918 1919 1920 1922 1923 1924 1925 1926 1928 1929 1931 1933 1935 1938 1940 1942 1944 1949 1952 1956 1959 1963 1966 1968 1970 1974 1977 1981 1985 1988 1990 1993 1994 1995 1995 1995 1992 0 0 0 0 0 0 0 0 0 0 0 0 0 0 0 0 0 0 0 0 0 0 0 0 0 0 0 0 0 0 0 0 0 0 0 0 0 0 0 0 0 0 0 0 0 0 0 0 0 0 0 0 0 0 0 0 0 0 0 0 0 0 0 0 0 0 0 0 0 0 0 0 0 0 0 0 0 0 0 0 0 0 0 0 0 0 0 0 0 0 0 0 0 0 0 0 0 0 0 0 0 0 0 0 0 0 0 0 0 0 0 0 0 0 0 0 0 0 0 0 0 0 0 0 0 0 0 0 0 0 0 0 0 0 0 0 0 1042 1042 1037 1029 1006 985 967 956 956 956 960 970 976 976 976 973 968 960 944 925 907 894 885 880 873 873 873 873 883 883 897 0
0 0 0 0 0 0 0 0 0 0 0 0 0 0 0 0 0 0 0 0 0 0 0 0 0 0 0 0 0 0 0 0 0 0 0 0 0 0 0 0 0 0 0 0 0 0 0 0 0 0 0 0 0 0 0 0 0 0 0 0 0 0 0 0 0 0 0 0 0 0 0 0 0 0 0 0 0 0 0 0 0 0 0 0 0 0 0 0 0 0 0 0 0 0 0 0 0 0 0 0 0 0 0 0 0 0 0 0 0 0 0 0 0 0 0 0 0 0 0 0 0 0 0 0 0 0 0 0 0 0 0 0 0 0 0 0 0 0 0 0 2849 3243 3437 3508 3508 3508 3503 3478 3430 3385 3385 3385 3385 3385 3323 3323 3318 3316 3309 3299 3285 3285 3285 3286 3305 3310 3384 3457 3471 3471 3471 3471 3471 3468 3468 3452 3428 3396 3395 3394 3390 3381 3351 3331 3317 3304 3289 3272 3259 3241 3204 3162 3126 3099 3095 3089 3087 3084 3069 3040 3025 2990 2952 2866 2701 0 0 0 2132 2104 2083 2072 2064 2059 2054 2051 2046 2044 2041 2037 2035 2032 2030 2027 2023 2020 2016 2014 2011 2008 2006 2004 2002 2000 1997 1995 1993 1990 1987 1985 1983 1981 1979 1977 1975 1972 1971 1969 1967 1964 1962 1960 1958 1957 1954 1953 1951 1949 1947 1944 1943 1941 1939 1938 1935 1933 1931 1930 1928 1927 1925 1923 1922 1920 1918 1916 1915 1914 1912 1911 1909 1907 1906 1905 1903 1902 1901 1900 1899 1898 1896 1896 1894 1893 1892 1891 1889 1888 1887 1885 1883 1882 1880 1879 1877 1875 1874 1873 1870 1869 1867 1865 1865 1863 1862 1861 1860 1859 1858 1857 1856 1854 1854 1854 1854 1853 1853 1853 1854 1855 1855 1855 1857 1858 1858 1859 1859 1860 1861 1862 1862 1862 1863 1863 1863 1863 1863 1865 1865 1865 1865 1866 1866 1866 1867 1868 1868 1869 1870 1870 1871 1871 1872 1873 1873 1873 1874 1874 1875 1876 1876 1877 1878 1878 1879 1879 1880 1880 1881 1881 1881 1882 1883 1883 1883 1884 1885 1886 1887 1887 1888 1889 1889 1890 1890 1890 1891 1892 1892 1892 1893 1893 1894 1895 1896 1897 1897 1898 1899 1900 1901 1902 1902 1903 1904 1904 1905 1905 1906 1906 1906 1907 1908 1908 1908 1908 1909 1910 1911 1912 1913 1913 1915 1915 1917 1918 1919 1920 1921 1922 1924 1925 1927 1928 1929 1931 1933 1935 1937 1939 1943 1947 1951 1954 1957 1961 1964 1967 1970 1973 1976 1979 1982 1986 1990 1996 1998 1998 1998 1996 1995 1987 0 0 0 0 0 0 0 0 0 0 0 0 0 0 0 0 0 0 0 0 0 0 0 0 0 0 0 0 0 0 0 0 0 0 0 0 0 0 0 0 0 0 0 0 0 0 0 0 0 0 0 0 0 0 0 0 0 0 0 0 0 0 0 0 0 0 0 0 0 0 0 0 0 0 0 0 0 0 0 0 0 0 0 0 0 0 0 0 0 0 0 0 0 0 0 0 0 0 0 0 0 0 0 0 0 0 0 0 0 0 0 0 0 0 0 0 0 0 0 0 0 0 0 0 0 0 0 0 0 0 0 0 0 0 0 0 1040 1040 1036 1027 1004 983 962 953 953 953 957 966 975 975 975 971 966 956 943 922 905 890 878 876 868 868 868 872 881 881 896 0
