3092 3108 3108 3117 3140 3155 3157 3157 3157 3157 3157 3171 3171 3171 3170 3170 3170 3191 3207 3214 3214 3215 3215 3215 3215 3217 3222 3224 3238 3238 3244 3255 3265 3279 3294 3298 3302 3303 3304 3321 3341 3354 3358 3368 3379 3390 3397 3404 3409 3413 3414 3416 3417 3425 3431 3434 3434 3436 3436 3445 3457 3464 3471 3474 3478 3478 3478 3476 3476 3476 3482 3482 3482 3493 3506 3522 3530 3532 3538 3542 3552 3558 3560 3563 3566 3570 3577 3583 3592 3600 3611 3619 3623 3628 3636 3642 3648 3652 3657 3662 3666 3668 3668 3668 3670 3670 3677 3687 3690 3693 3697 3699 3706 3708 3710 3710 3711 3718 3718 3718 3717 3715 3710 3710 3709 3709 3708 3706 3706 3706 3712 3717 3720 3721 3721 3721 3717 3717 3717 3723 3728 3731 3736 3739 3742 3744 3744 3744 3745 3747 3748 3751 3752 3753 3753 3753 3753 3753 3752 3752 3749 3739 3732 3722 3716 3706 3670 3585 3585 3585 3670 3744 3792 3798 3798 3799 3799 3800 3800 3800 3798 3797 3796 3795 3794 3790 3788 3786 3786 3785 3785 3784 3775 3760 3752 3750 3747 3747 3741 3731 3724 3716 3709 3699 3690 3688 3683 3674 3664 3659 3658 3657 3657 3649 3632 3625 3622 3619 3619 3619 3619 3619 3628 3628 3628 3627 3623 3622 3622 3623 3630 3644 3644 3644 3644 3622 3576 3543 3522 3507 3486 3470 3468 3463 3437 3399 3356 3326 3292 3258 3157 2982 2782 2620 2509 2441 2411 2393 2374 2358 2350 0 0 0 0 0 1442 1424 1421 1421 1420 1420 1420 1418 1418 1418 1419 1420 1420 1423 1425 1427 1428 1430 1434 1435 1435 1435 1435 1434 1433 1433 1432 1432 1431 1430 1430 1430 1428 1427 1427 1427 1429 1429 1429 1427 1423 1422 1419 1417 1417 1415 1415 1414 1413 1412 1412 1412 1412 1412 1412 1411 1411 1411 1411 1411 1411 1411 1411 1411 1411 1411 1411 1410 1410 1410 1410 1411 1411 1411 1410 1410 1409 1409 1409 1410 1410 1410 1409 1409 1408 1408 1409 1408 1408 1407 1407 1407 1407 1407 1407 1407 1406 1406 1406 1406 1406 1406 1406 1406 1406 1406 1406 1406 1406 1405 1405 1405 1405 1405 1405 1406 1406 1406 1406 1407 1407 1407 1407 1408 1408 1408 1408 1407 1407 1407 1407 1406 1406 1406 1406 1405 1404 1404 1404 1404 1404 1404 1403 1402 1402 1401 1400 1399 1399 1399 1398 1397 1397 1397 1397 1396 1396 1395 1395 1394 1394 1393 1393 1393 1393 1393 1393 1394 1394 1395 1395 1395 1395 1395 1398 1399 1400 1401 1402 1402 1402 1402 1402 1403 1403 1403 1403 1403 1403 1403 1403 1403 1403 1404 1404 1404 1404 1402 1402 1402 1402 1402 1402 1402 1402 1403 1403 1403 1403 1402 1402 1401 1400 1400 1399 1399 1397 1397 1394 1394 1394 1401 1419 0 0 0 0 1886 1886 1886 1886 1884 0 0 0 0 0 0 0 0 0 0 0 0 0 1539 1530 1523 1520 1512 1512 1502 1495 1488 1484 1481 1478 1476 1476 1473 1472 1467 1465 1465 1465 1464 1464 1465 1465 1465 1465 1466 1467 1468 1474 1481 0 0 0 0 1644 1672 1674 1675 1680 1684 1691 1702 1707 1707 1709 1710 1715 1715 1715 1715 1702 1688 1678 1672 1672 1672 1676 1681 1695 1699 1702 1709 1716 1719 1722 1726 1731 1745 1754 1771 1780 1790 1804 1808 1820 1829 1829 1832 1835 1835 1838 1858 1892 1907 1925 1954 2000 2036 2054 2054 2054 0 0 0 0 0 0 0 0 0 0 0 0 0 0 0 0 0 0 0 0 0 0 0 0 0 0 0 0 0 0 0 0 0 0 0 0 0
3092 3103 3103 3118 3138 3143 3159 3159 3159 3161 3160 3160 3170 3170 3170 3171 3171 3193 3207 3216 3216 3216 3216 3216 3216 3217 3222 3226 3238 3238 3244 3255 3261 3279 3294 3303 3310 3315 3319 3321 3341 3354 3358 3368 3377 3390 3397 3402 3404 3413 3413 3413 3413 3417 3424 3433 3434 3434 3436 3444 3457 3464 3471 3474 3480 3484 3484 3484 3482 3482 3482 3482 3483 3506 3515 3522 3530 3532 3538 3545 3555 3561 3562 3563 3566 3570 3577 3584 3592 3600 3611 3619 3623 3630 3636 3642 3648 3651 3653 3654 3657 3662 3667 3667 3668 3670 3677 3687 3690 3693 3698 3701 3708 3711 3712 3714 3715 3718 3718 3718 3715 3713 3710 3708 3708 3708 3708 3706 3706 3706 3711 3716 3720 3722 3723 3723 3723 3723 3723 3723 3728 3736 3743 3746 3747 3748 3748 3749 3749 3750 3750 3751 3753 3753 3754 3754 3754 3754 3754 3752 3749 3739 3733 3726 3717 3706 3670 3602 3602 3602 3658 3742 3791 3795 3796 3797 3797 3797 3798 3798 3798 3798 3798 3797 3796 3792 3788 3786 3786 3786 3785 3784 3775 3760 3752 3750 3748 3747 3741 3731 3724 3716 3709 3699 3690 3683 3682 3674 3668 3668 3664 3662 3662 3655 3633 3633 3628 3626 3626 3628 3628 3628 3635 3636 3636 3635 3632 3623 3623 3623 3630 3644 3644 3644 3644 3622 3575 3544 3522 3507 3486 3485 3480 3463 3437 3399 3356 3326 3292 3258 3108 2869 2698 2562 2474 2441 2411 2402 2380 2367 2362 0 0 0 0 0 1450 1426 1423 1423 1422 1422 1420 1420 1420 1420 1421 1421 1422 1423 1425 1428 1430 1432 1435 1436 1436 1436 1436 1435 1433 1433 1433 1432 1432 1430 1430 1430 1428 1427 1427 1427 1429 1429 1429 1427 1425 1424 1423 1421 1418 1418 1416 1416 1415 1415 1415 1414 1414 1414 1414 1413 1412 1412 1413 1413 1413 1413 1413 1413 1412 1412 1412 1412 1412 1412 1412 1412 1412 1412 1411 1410 1410 1410 1410 1411 1413 1413 1413 1414 1414 1414 1414 1414 1414 1412 1410 1410 1410 1410 1410 1410 1410 1408 1408 1408 1408 1408 1407 1407 1407 1407 1407 1407 1407 1407 1406 1407 1407 1407 1407 1407 1407 1407 1408 1408 1409 1409 1409 1409 1409 1409 1409 1409 1409 1409 1409 1408 1408 1408 1408 1408 1407 1407 1406 1406 1405 1405 1405 1404 1403 1403 1403 1402 1402 1400 1400 1399 1399 1398 1398 1397 1397 1396 1395 1395 1394 1393 1393 1393 1393 1393 1394 1395 1395 1395 1396 1397 1397 1398 1401 1402 1402 1403 1403 1404 1404 1404 1404 1404 1404 1405 1405 1405 1405 1405 1405 1406 1406 1406 1406 1406 1406 1405 1405 1405 1404 1404 1404 1404 1404 1404 1404 1404 1404 1403 1403 1402 1402 1401 1401 1400 1400 1398 1395 1395 1395 1402 1419 0 0 0 0 0 1886 1886 1884 0 0 0 0 0 0 0 0 0 0 1549 1533 1529 1527 1526 1520 1517 1509 1508 1506 1499 1492 1485 1480 1477 1477 1477 1476 1475 1473 1469 1465 1465 1465 1466 1466 1466 1467 1467 1466 1467 1468 1477 1490 0 0 0 0 1659 1683 1690 1692 1695 1695 1701 1709 1719 1719 1719 1720 1720 1720 1720 1720 1715 1700 1688 1678 1673 1673 1673 1676 1682 1695 1701 1702 1709 1719 1725 1731 1736 1738 1745 1754 1773 1781 1791 1808 1810 1820 1832 1832 1834 1835 1835 1838 1857 1883 1907 1925 1954 2000 2040 2066 2066 2066 0 0 0 0 0 0 0 0 0 0 0 0 0 0 0 0 0 0 0 0 0 0 0 0 0 0 0 0 0 0 0 0 0 0 0 0 0
3103 3103 3139 3140 3142 3147 3151 3160 3160 3160 3160 3160 3160 3171 3172 3174 3189 3209 3217 3217 3217 3216 3216 3216 3218 3219 3223 3233 3241 3241 3244 3249 3265 3282 3294 3303 3310 3316 3319 3327 3341 3354 3357 3367 3377 3390 3391 3396 3403 3403 3404 3404 3407 3413 3421 3430 3434 3434 3436 3444 3453 3463 3471 3474 3480 3484 3484 3486 3489 3489 3500 3504 3511 3519 3525 3527 3530 3532 3538 3545 3556 3562 3563 3564 3567 3570 3578 3585 3594 3600 3608 3612 3620 3630 3636 3642 3648 3648 3649 3653 3657 3661 3666 3666 3667 3669 3669 3676 3684 3693 3698 3708 3718 3718 3718 3717 3717 3717 3717 3717 3715 3713 3710 3708 3707 3704 3700 3694 3694 3694 3711 3713 3715 3718 3724 3724 3724 3723 3723 3723 3732 3740 3744 3747 3748 3749 3750 3750 3752 3752 3752 3752 3753 3754 3754 3754 3754 3754 3754 3752 3749 3739 3733 3726 3725 3716 3688 3624 3624 3624 3658 3741 3791 3795 3796 3797 3797 3797 3798 3798 3798 3798 3798 3798 3798 3794 3790 3789 3789 3788 3788 3784 3774 3760 3754 3753 3753 3750 3741 3731 3724 3722 3721 3704 3690 3682 3678 3674 3673 3673 3673 3673 3673 3663 3644 3635 3635 3635 3638 3638 3638 3638 3638 3638 3638 3638 3637 3627 3627 3627 3634 3648 3648 3648 3644 3622 3575 3548 3522 3507 3499 3485 3480 3463 3437 3398 3351 3314 3291 3251 3060 2804 2623 2535 2465 2441 2428 2421 2399 2385 2377 0 0 0 0 0 0 1430 1425 1424 1424 1424 1423 1422 1422 1422 1423 1423 1423 1425 1427 1428 1430 1433 1436 1437 1437 1437 1437 1437 1436 1434 1434 1433 1432 1430 1430 1430 1430 1429 1429 1429 1430 1430 1430 1427 1426 1426 1424 1422 1421 1420 1419 1418 1417 1417 1416 1415 1415 1415 1415 1414 1414 1414 1414 1414 1414 1414 1414 1414 1413 1413 1413 1413 1414 1414 1414 1413 1412 1412 1412 1413 1413 1414 1415 1415 1417 1417 1417 1416 1416 1416 1416 1415 1415 1414 1413 1412 1412 1412 1411 1411 1411 1410 1410 1410 1411 1411 1411 1410 1409 1409 1409 1409 1409 1408 1408 1408 1408 1408 1408 1408 1408 1408 1409 1410 1410 1410 1410 1410 1411 1411 1411 1411 1410 1410 1410 1410 1410 1410 1409 1409 1409 1409 1409 1408 1407 1407 1406 1406 1405 1405 1405 1405 1404 1404 1402 1401 1401 1400 1399 1398 1397 1396 1396 1395 1394 1394 1394 1394 1394 1394 1394 1395 1395 1396 1397 1399 1399 1403 1404 1404 1404 1405 1405 1405 1406 1406 1406 1407 1407 1407 1407 1407 1407 1407 1407 1407 1407 1408 1408 1408 1408 1408 1407 1407 1407 1407 1407 1407 1407 1406 1406 1406 1405 1405 1405 1405 1404 1403 1403 1403 1401 1399 1395 1395 1395 1403 1422 0 0 0 0 0 0 0 0 0 0 0 0 0 0 1553 1553 1551 1547 1540 1533 1529 1522 1519 1516 1510 1506 1500 1500 1497 1487 1482 1477 1475 1475 1475 1475 1475 1474 1469 1468 1468 1468 1469 1469 1470 1470 1471 1478 1481 1482 1493 0 0 0 0 1641 1695 1702 1703 1709 1710 1713 1720 1724 1729 1729 1729 1728 1726 1725 1725 1722 1710 1700 1688 1678 1673 1673 1673 1677 1683 1697 1701 1706 1712 1721 1729 1736 1738 1739 1745 1756 1773 1782 1795 1808 1810 1820 1833 1833 1835 1837 1837 1839 1857 1883 1907 1925 1954 2021 2056 2073 2073 2073 0 0 0 0 0 0 0 0 0 0 0 0 0 0 0 0 0 0 0 0 0 0 0 0 0 0 0 0 0 0 0 0 0 0 0 0 0
3103 3103 3139 3143 3144 3147 3159 3160 3160 3160 3160 3160 3160 3171 3181 3187 3207 3212 3217 3217 3217 3211 3211 3211 3220 3224 3226 3236 3241 3244 3245 3249 3266 3285 3294 3304 3315 3318 3320 3328 3344 3352 3354 3363 3366 3379 3382 3395 3396 3399 3400 3402 3406 3412 3419 3429 3432 3434 3439 3442 3450 3461 3467 3472 3480 3486 3490 3490 3492 3493 3500 3504 3512 3525 3528 3528 3530 3532 3539 3547 3556 3563 3564 3567 3568 3570 3579 3587 3594 3600 3604 3612 3620 3630 3636 3642 3643 3645 3648 3652 3656 3657 3657 3657 3657 3657 3662 3669 3682 3690 3700 3715 3723 3723 3723 3717 3714 3714 3714 3714 3714 3711 3710 3708 3707 3702 3691 3683 3683 3683 3687 3710 3712 3717 3724 3724 3724 3724 3724 3728 3733 3740 3746 3749 3749 3750 3752 3752 3754 3754 3754 3754 3754 3754 3754 3754 3754 3754 3754 3750 3743 3737 3733 3726 3725 3719 3694 3646 3646 3646 3658 3739 3789 3795 3796 3797 3797 3797 3799 3799 3800 3800 3800 3800 3800 3798 3794 3791 3791 3790 3789 3785 3776 3761 3754 3753 3753 3750 3741 3731 3730 3727 3725 3710 3694 3682 3677 3672 3672 3672 3673 3673 3673 3663 3649 3635 3635 3635 3639 3639 3639 3639 3639 3642 3642 3642 3639 3635 3635 3635 3648 3648 3648 3648 3641 3622 3575 3548 3522 3507 3499 3490 3480 3460 3432 3397 3347 3295 3255 3139 2872 2610 2559 2497 2462 2446 2436 2423 2411 2403 2392 2365 0 0 0 0 0 1433 1426 1426 1425 1425 1425 1425 1425 1425 1425 1425 1425 1426 1428 1429 1431 1435 1436 1437 1437 1437 1437 1437 1437 1436 1434 1433 1432 1431 1431 1431 1431 1431 1431 1431 1431 1431 1431 1429 1428 1428 1426 1425 1424 1423 1422 1422 1420 1419 1418 1417 1417 1417 1416 1416 1416 1416 1416 1416 1416 1415 1415 1415 1415 1415 1415 1415 1415 1415 1416 1416 1415 1415 1415 1415 1415 1417 1417 1417 1417 1417 1418 1417 1417 1417 1417 1416 1416 1415 1414 1414 1413 1413 1412 1412 1412 1412 1412 1412 1413 1413 1413 1413 1413 1412 1410 1410 1410 1410 1410 1410 1409 1409 1409 1409 1409 1410 1410 1411 1412 1412 1412 1412 1413 1413 1413 1413 1411 1411 1411 1411 1411 1411 1411 1411 1411 1411 1411 1410 1410 1409 1408 1408 1408 1408 1407 1407 1407 1407 1405 1403 1402 1401 1400 1399 1398 1396 1396 1396 1394 1394 1394 1395 1395 1396 1396 1396 1396 1396 1397 1399 1401 1404 1404 1405 1405 1407 1408 1408 1409 1409 1409 1409 1409 1409 1409 1409 1409 1409 1409 1410 1410 1410 1410 1410 1410 1409 1409 1409 1409 1409 1409 1408 1408 1408 1408 1407 1407 1406 1406 1406 1406 1405 1405 1405 1404 1403 1398 1398 1398 1404 1423 0 0 0 0 0 0 0 0 0 0 0 1578 1577 1548 1544 1541 1528 1527 1525 1525 1524 1512 1511 1510 1508 1500 1498 1494 1490 1487 1482 1477 1476 1476 1476 1476 1476 1475 1472 1472 1472 1472 1474 1474 1475 1478 1485 1494 1498 0 0 0 0 0 0 1686 1701 1713 1720 1727 1727 1732 1735 1737 1738 1738 1738 1735 1732 1729 1726 1722 1709 1700 1692 1678 1678 1678 1678 1681 1691 1701 1704 1712 1713 1723 1729 1737 1739 1740 1745 1756 1773 1788 1798 1808 1810 1818 1833 1833 1837 1838 1838 1839 1856 1879 1908 1932 1977 2035 2064 2075 2075 2075 0 0 0 0 0 0 0 0 0 0 0 0 0 0 0 0 0 0 0 0 0 0 0 0 0 0 0 0 0 0 0 0 0 0 0 0 0
3092 3092 3139 3142 3142 3144 3144 3164 3164 3164 3164 3164 3164 3173 3181 3187 3207 3211 3211 3211 3205 3205 3205 3211 3220 3238 3244 3244 3244 3244 3245 3249 3280 3291 3294 3304 3315 3320 3320 3328 3344 3350 3352 3354 3358 3378 3382 3387 3395 3396 3399 3401 3405 3412 3418 3428 3432 3434 3439 3442 3449 3459 3465 3469 3476 3484 3490 3492 3493 3495 3500 3504 3512 3525 3531 3533 3533 3536 3540 3548 3556 3563 3566 3569 3570 3572 3579 3590 3595 3600 3604 3612 3620 3630 3636 3642 3643 3645 3647 3651 3655 3655 3655 3654 3654 3654 3656 3665 3679 3685 3702 3721 3723 3723 3723 3717 3712 3712 3712 3712 3712 3710 3708 3708 3707 3702 3691 3678 3677 3677 3677 3697 3711 3716 3724 3724 3724 3726 3726 3729 3735 3741 3747 3750 3750 3754 3755 3755 3755 3755 3754 3753 3753 3753 3753 3753 3752 3750 3745 3742 3735 3729 3729 3727 3727 3719 3694 3649 3649 3649 3664 3739 3776 3790 3795 3796 3797 3801 3801 3802 3802 3801 3801 3801 3801 3800 3797 3795 3795 3792 3790 3785 3777 3766 3758 3757 3755 3750 3741 3731 3730 3727 3725 3715 3697 3682 3675 3672 3672 3672 3673 3673 3673 3663 3649 3638 3638 3638 3642 3642 3644 3644 3644 3644 3644 3645 3645 3645 3649 3650 3651 3651 3650 3648 3641 3622 3597 3565 3535 3508 3500 3491 3480 3454 3426 3390 3335 3276 3192 3030 2812 2604 2525 2480 2462 2446 2436 2424 2414 2407 2395 2368 0 0 0 0 0 1440 1428 1428 1427 1427 1427 1427 1427 1427 1427 1427 1427 1428 1428 1430 1432 1435 1436 1437 1437 1437 1437 1437 1437 1436 1435 1434 1433 1432 1432 1432 1432 1432 1432 1432 1432 1432 1431 1431 1429 1429 1429 1428 1427 1425 1424 1423 1422 1421 1421 1420 1420 1419 1418 1418 1418 1418 1418 1418 1418 1418 1417 1417 1417 1417 1417 1416 1416 1416 1417 1418 1419 1419 1419 1419 1419 1418 1418 1419 1419 1419 1419 1419 1419 1419 1418 1418 1417 1416 1416 1415 1415 1414 1414 1414 1414 1414 1414 1414 1414 1414 1414 1414 1414 1413 1412 1411 1411 1411 1411 1410 1410 1410 1410 1410 1410 1410 1411 1411 1413 1413 1414 1414 1415 1415 1415 1415 1414 1414 1414 1414 1413 1413 1413 1413 1413 1413 1413 1412 1412 1411 1411 1411 1411 1411 1410 1410 1409 1408 1407 1405 1404 1402 1400 1399 1398 1397 1397 1396 1396 1396 1396 1397 1397 1397 1396 1396 1396 1397 1398 1400 1403 1405 1405 1406 1408 1409 1411 1411 1411 1411 1411 1411 1411 1412 1412 1412 1411 1411 1411 1412 1412 1412 1412 1412 1412 1412 1411 1411 1411 1411 1411 1411 1410 1410 1410 1409 1409 1409 1408 1408 1407 1407 1407 1407 1406 1405 1404 1404 1404 1412 1426 0 0 0 0 0 0 0 0 0 0 1566 1563 1550 1546 1535 1535 1526 1525 1524 1521 1515 1511 1508 1505 1500 1497 1495 1491 1489 1486 1482 1477 1476 1476 1476 1476 1476 1478 1479 1479 1479 1480 1483 1487 1492 1494 1497 0 0 0 0 0 0 0 1691 1709 1716 1717 1725 1736 1737 1739 1741 1742 1742 1742 1742 1742 1739 1733 1728 1722 1709 1700 1694 1687 1680 1680 1680 1690 1700 1707 1709 1714 1716 1725 1732 1739 1744 1747 1749 1757 1773 1790 1800 1810 1810 1818 1833 1835 1837 1846 1848 1848 1856 1879 1909 1941 1977 2035 2064 2081 2081 2081 0 0 0 0 0 0 0 0 0 0 0 0 0 0 0 0 0 0 0 0 0 0 0 0 0 0 0 0 0 0 0 0 0 0 0 0 0
3092 3092 3121 3134 3134 3136 3136 3154 3165 3169 3170 3171 3178 3182 3184 3189 3206 3207 3207 3206 3205 3205 3205 3211 3234 3246 3252 3254 3255 3258 3261 3272 3284 3291 3294 3304 3315 3320 3321 3328 3344 3350 3350 3354 3358 3368 3381 3387 3395 3396 3397 3401 3404 3409 3413 3419 3429 3436 3439 3442 3449 3455 3459 3464 3471 3479 3489 3492 3493 3497 3500 3504 3512 3523 3531 3535 3541 3543 3544 3550 3557 3565 3569 3571 3572 3573 3579 3590 3595 3600 3604 3612 3621 3630 3638 3643 3643 3645 3647 3651 3654 3654 3654 3652 3652 3652 3656 3665 3679 3685 3702 3721 3721 3721 3719 3713 3710 3710 3710 3710 3710 3710 3709 3708 3708 3702 3691 3678 3677 3677 3677 3697 3711 3715 3722 3724 3726 3727 3727 3731 3735 3742 3747 3751 3754 3757 3758 3758 3757 3756 3754 3752 3752 3752 3752 3752 3752 3750 3745 3742 3735 3729 3729 3728 3727 3719 3694 3649 3649 3649 3678 3739 3776 3789 3794 3795 3797 3802 3804 3804 3804 3803 3803 3802 3802 3800 3800 3799 3799 3797 3793 3785 3777 3771 3767 3766 3759 3750 3739 3733 3730 3729 3725 3715 3701 3683 3675 3672 3671 3671 3669 3665 3659 3656 3649 3640 3640 3640 3640 3640 3640 3644 3644 3642 3643 3645 3645 3651 3658 3659 3659 3658 3655 3648 3641 3640 3619 3586 3558 3523 3517 3500 3480 3452 3421 3378 3334 3276 3192 2987 2771 2597 2511 2478 2461 2449 2436 2425 2416 2410 2395 2368 0 0 0 0 0 1446 1431 1430 1430 1430 1430 1430 1430 1429 1429 1429 1429 1430 1430 1431 1432 1436 1436 1437 1437 1437 1437 1437 1437 1436 1435 1434 1434 1434 1432 1432 1432 1432 1432 1432 1432 1432 1432 1432 1432 1430 1429 1429 1428 1428 1426 1425 1423 1423 1423 1422 1422 1420 1420 1420 1420 1420 1420 1420 1419 1418 1418 1418 1418 1418 1418 1417 1417 1417 1418 1419 1419 1419 1419 1420 1419 1419 1420 1420 1421 1421 1421 1421 1421 1421 1420 1420 1419 1418 1418 1417 1417 1416 1415 1415 1415 1415 1415 1415 1415 1415 1415 1416 1416 1416 1414 1414 1413 1413 1412 1411 1410 1410 1410 1410 1411 1412 1412 1412 1414 1415 1416 1417 1417 1417 1417 1416 1416 1416 1416 1416 1416 1416 1415 1415 1415 1415 1414 1414 1414 1414 1414 1414 1413 1413 1413 1412 1412 1411 1408 1408 1407 1405 1402 1400 1400 1399 1398 1398 1398 1398 1398 1398 1398 1398 1398 1398 1398 1398 1400 1403 1406 1406 1406 1407 1410 1411 1413 1413 1413 1413 1413 1413 1413 1414 1415 1415 1415 1414 1414 1414 1414 1414 1415 1415 1414 1414 1414 1414 1414 1414 1413 1413 1412 1412 1412 1412 1411 1411 1411 1411 1410 1410 1410 1409 1409 1409 1409 1410 1412 1418 1430 0 0 0 0 0 0 0 0 0 1565 1562 1559 1550 1546 1535 1528 1518 1518 1515 1512 1510 1509 1507 1503 1500 1496 1495 1491 1489 1486 1482 1477 1476 1476 1476 1478 1479 1480 1482 1482 1482 1482 1497 1506 1515 0 0 0 0 0 0 0 1677 1696 1714 1723 1727 1733 1739 1740 1740 1740 1742 1744 1744 1745 1745 1745 1743 1737 1731 1722 1708 1700 1694 1687 1687 1687 1688 1697 1708 1711 1714 1719 1726 1729 1736 1742 1748 1754 1759 1763 1779 1796 1803 1810 1810 1818 1841 1847 1847 1852 1853 1853 1856 1879 1911 1941 1977 2035 2064 2081 2081 2081 0 0 0 0 0 0 0 0 0 0 0 0 0 0 0 0 0 0 0 0 0 0 0 0 0 0 0 0 0 0 0 0 0 0 0 0 0
3084 3084 3061 3065 3065 3065 3126 3166 3166 3169 3172 3178 3182 3183 3187 3197 3200 3206 3206 3206 3205 3205 3205 3215 3234 3254 3256 3257 3258 3258 3261 3272 3284 3291 3294 3304 3315 3320 3322 3325 3337 3343 3350 3350 3358 3368 3381 3387 3395 3396 3397 3400 3403 3408 3412 3419 3428 3436 3439 3440 3444 3447 3452 3457 3464 3473 3482 3487 3495 3497 3500 3504 3512 3519 3531 3535 3541 3543 3547 3553 3560 3567 3571 3572 3574 3574 3580 3590 3595 3600 3606 3613 3623 3634 3644 3646 3647 3647 3647 3651 3654 3654 3654 3652 3652 3652 3656 3665 3679 3685 3704 3719 3719 3719 3712 3711 3706 3706 3706 3706 3706 3710 3710 3710 3709 3703 3695 3678 3677 3677 3677 3697 3711 3715 3719 3727 3728 3729 3730 3732 3738 3745 3752 3757 3761 3762 3762 3761 3759 3756 3755 3752 3752 3752 3752 3752 3752 3750 3745 3742 3735 3729 3729 3728 3727 3719 3689 3649 3649 3649 3699 3749 3776 3789 3794 3796 3798 3804 3806 3806 3806 3806 3806 3806 3804 3801 3801 3801 3801 3801 3795 3788 3777 3772 3767 3766 3759 3750 3739 3733 3732 3729 3725 3715 3701 3686 3675 3672 3671 3671 3669 3665 3658 3650 3648 3641 3640 3640 3640 3640 3640 3641 3641 3642 3644 3645 3645 3654 3659 3659 3660 3659 3659 3651 3650 3644 3643 3610 3571 3538 3523 3507 3481 3446 3412 3378 3334 3276 3186 2966 2741 2573 2497 2473 2461 2447 2436 2424 2419 2410 2395 2366 0 0 0 0 0 1454 1436 1434 1434 1433 1433 1433 1432 1431 1431 1431 1431 1432 1432 1433 1435 1436 1437 1437 1437 1437 1437 1437 1437 1436 1435 1435 1434 1434 1433 1433 1433 1432 1433 1433 1433 1433 1433 1433 1432 1430 1430 1430 1429 1429 1429 1426 1424 1424 1423 1423 1422 1420 1420 1420 1421 1421 1421 1420 1420 1420 1420 1420 1419 1419 1419 1419 1419 1419 1419 1420 1421 1421 1421 1421 1421 1422 1422 1422 1422 1422 1423 1423 1423 1422 1422 1422 1421 1420 1420 1419 1419 1418 1417 1417 1417 1417 1416 1416 1416 1416 1416 1417 1417 1417 1417 1417 1416 1415 1415 1413 1412 1412 1412 1413 1413 1413 1413 1414 1414 1415 1417 1418 1419 1419 1419 1419 1419 1419 1419 1418 1418 1418 1417 1417 1417 1417 1417 1417 1416 1416 1416 1416 1416 1415 1415 1415 1415 1415 1414 1412 1409 1408 1406 1403 1402 1402 1402 1401 1401 1400 1400 1400 1400 1400 1398 1398 1398 1402 1404 1406 1408 1408 1408 1409 1412 1413 1414 1415 1415 1415 1416 1416 1416 1417 1417 1417 1417 1417 1417 1417 1417 1417 1417 1417 1417 1417 1416 1416 1416 1415 1415 1415 1415 1414 1414 1413 1413 1413 1412 1412 1412 1412 1412 1412 1412 1410 1410 1410 1413 1422 0 0 0 0 0 0 0 0 1575 1562 1557 1555 1552 1546 1537 1535 1521 1518 1516 1512 1509 1507 1507 1506 1502 1497 1496 1495 1491 1489 1487 1483 1478 1477 1477 1477 1478 1484 1484 1484 1488 1488 1500 1514 1521 0 0 0 0 0 0 0 1706 1708 1720 1735 1742 1743 1743 1743 1744 1744 1745 1746 1747 1749 1749 1749 1749 1745 1739 1731 1722 1707 1698 1694 1691 1691 1691 1694 1702 1711 1713 1719 1726 1732 1734 1740 1743 1750 1759 1764 1771 1783 1801 1809 1814 1818 1824 1841 1852 1852 1852 1855 1857 1857 1879 1911 1941 1974 2033 2068 2081 2081 2081 0 0 0 0 0 0 0 0 0 0 0 0 0 0 0 0 0 0 0 0 0 0 0 0 0 0 0 0 0 0 0 0 0 0 0 0 0
3034 3034 3034 3045 3045 3065 3126 3166 3169 3172 3180 3185 3186 3187 3187 3197 3200 3206 3206 3209 3206 3211 3212 3217 3239 3256 3257 3258 3258 3258 3261 3272 3284 3290 3294 3304 3315 3320 3323 3325 3337 3343 3350 3351 3362 3368 3381 3393 3397 3400 3400 3400 3403 3407 3410 3418 3427 3434 3439 3440 3441 3444 3449 3456 3463 3473 3482 3487 3494 3497 3502 3506 3512 3518 3527 3535 3541 3543 3548 3555 3564 3569 3571 3574 3574 3574 3582 3587 3592 3599 3608 3616 3625 3635 3645 3649 3649 3651 3653 3654 3654 3654 3654 3654 3654 3656 3662 3673 3678 3683 3704 3711 3711 3712 3711 3709 3706 3706 3706 3706 3706 3710 3710 3710 3710 3706 3698 3683 3683 3683 3684 3702 3711 3715 3719 3727 3729 3735 3739 3741 3744 3754 3762 3768 3768 3768 3765 3764 3761 3758 3755 3752 3752 3752 3753 3754 3755 3755 3755 3754 3746 3739 3738 3738 3736 3719 3678 3647 3647 3647 3717 3754 3778 3789 3794 3798 3799 3804 3809 3810 3810 3810 3810 3808 3805 3803 3803 3801 3801 3801 3800 3794 3780 3772 3767 3766 3763 3751 3739 3737 3732 3729 3721 3715 3703 3688 3679 3674 3672 3671 3669 3665 3658 3650 3648 3642 3641 3641 3642 3642 3642 3643 3645 3645 3645 3646 3646 3655 3659 3661 3663 3663 3663 3653 3652 3650 3644 3620 3578 3551 3537 3522 3488 3446 3412 3378 3335 3281 3192 2966 2721 2564 2488 2473 2458 2446 2432 2424 2419 2410 2395 2366 0 0 0 0 0 1466 1444 1436 1435 1435 1435 1435 1435 1434 1433 1433 1433 1433 1434 1434 1435 1437 1437 1438 1438 1438 1438 1437 1437 1436 1436 1435 1435 1435 1433 1433 1433 1433 1433 1433 1433 1434 1434 1434 1433 1431 1431 1431 1431 1429 1429 1427 1426 1425 1425 1425 1422 1422 1422 1422 1422 1422 1422 1421 1420 1420 1420 1420 1420 1420 1420 1420 1420 1420 1421 1422 1422 1423 1423 1423 1424 1424 1424 1424 1424 1424 1424 1424 1424 1424 1424 1424 1423 1423 1422 1422 1421 1421 1420 1420 1419 1419 1418 1418 1418 1418 1418 1418 1418 1418 1420 1420 1420 1419 1418 1415 1415 1415 1415 1415 1415 1415 1415 1415 1416 1416 1419 1420 1420 1420 1420 1421 1421 1421 1421 1421 1420 1419 1419 1419 1419 1419 1419 1419 1419 1419 1418 1418 1418 1417 1417 1417 1417 1417 1415 1412 1411 1409 1407 1406 1406 1405 1404 1403 1401 1401 1401 1400 1400 1400 1400 1400 1401 1404 1407 1409 1410 1410 1411 1412 1413 1415 1417 1417 1417 1417 1418 1418 1418 1419 1419 1419 1419 1419 1419 1419 1419 1419 1419 1419 1419 1419 1419 1418 1418 1418 1418 1418 1417 1417 1416 1416 1416 1415 1415 1414 1414 1414 1414 1414 1414 1411 1411 1411 1413 1423 0 0 0 0 0 0 0 1586 1574 1560 1555 1555 1546 1544 1535 1527 1521 1518 1516 1511 1508 1506 1506 1504 1502 1497 1496 1495 1491 1490 1488 1485 1482 1481 1479 1481 1482 1487 1492 1494 1494 1508 1518 0 0 0 0 0 0 1709 1713 1717 1720 1729 1738 1751 1751 1751 1751 1750 1749 1749 1749 1752 1753 1754 1754 1754 1750 1745 1739 1731 1722 1707 1697 1693 1693 1693 1696 1696 1702 1711 1717 1723 1730 1737 1739 1741 1744 1751 1764 1773 1781 1792 1812 1817 1821 1823 1830 1842 1852 1852 1852 1855 1866 1866 1883 1913 1941 1974 2033 2072 2084 2084 2084 0 0 0 0 0 0 0 0 0 0 0 0 0 0 0 0 0 0 0 0 0 0 0 0 0 0 0 0 0 0 0 0 0 0 0 0 0
3015 3020 3020 3031 3045 3065 3126 3166 3175 3176 3184 3187 3188 3189 3189 3189 3193 3206 3209 3212 3212 3212 3214 3224 3253 3255 3257 3257 3257 3257 3257 3264 3271 3278 3286 3294 3311 3322 3325 3325 3337 3343 3351 3359 3366 3371 3387 3401 3401 3401 3403 3403 3403 3406 3410 3417 3426 3434 3439 3440 3440 3444 3448 3454 3462 3471 3479 3487 3492 3498 3505 3509 3512 3518 3526 3533 3538 3542 3549 3559 3564 3569 3571 3574 3577 3577 3582 3587 3592 3600 3609 3619 3627 3635 3645 3649 3650 3652 3654 3656 3656 3656 3655 3655 3655 3656 3662 3673 3677 3682 3704 3711 3711 3712 3711 3709 3706 3706 3706 3706 3706 3712 3712 3712 3712 3712 3704 3694 3694 3694 3697 3715 3719 3720 3721 3727 3735 3742 3745 3749 3755 3761 3769 3771 3773 3773 3771 3768 3764 3762 3758 3756 3755 3755 3755 3763 3768 3768 3768 3768 3760 3754 3752 3749 3746 3719 3678 3647 3647 3647 3717 3759 3780 3795 3802 3807 3808 3808 3811 3813 3814 3814 3813 3813 3807 3804 3804 3804 3804 3804 3804 3798 3787 3774 3767 3766 3764 3751 3751 3746 3737 3729 3721 3715 3704 3692 3680 3680 3675 3675 3673 3665 3658 3650 3649 3649 3648 3647 3647 3644 3644 3644 3645 3645 3645 3647 3655 3655 3657 3659 3663 3663 3663 3654 3653 3652 3645 3620 3587 3560 3551 3534 3495 3446 3412 3378 3342 3285 3196 2966 2721 2564 2487 2467 2457 2442 2432 2424 2419 2410 2393 2365 2336 0 0 0 0 1470 1445 1438 1438 1438 1437 1437 1437 1436 1434 1434 1434 1435 1435 1437 1437 1438 1438 1439 1439 1439 1438 1438 1437 1437 1436 1436 1436 1435 1435 1435 1434 1434 1434 1435 1435 1435 1434 1434 1433 1433 1433 1432 1432 1432 1430 1428 1428 1428 1427 1427 1426 1424 1423 1423 1423 1423 1423 1422 1421 1421 1421 1422 1422 1422 1421 1421 1421 1422 1423 1423 1423 1424 1424 1425 1425 1426 1426 1426 1426 1426 1426 1426 1426 1427 1427 1426 1426 1425 1425 1425 1424 1423 1422 1421 1421 1420 1420 1420 1420 1420 1420 1420 1420 1420 1421 1422 1422 1422 1419 1416 1416 1416 1416 1417 1417 1417 1417 1417 1418 1418 1420 1421 1422 1422 1422 1423 1423 1423 1423 1423 1422 1422 1422 1421 1421 1421 1421 1421 1420 1420 1420 1420 1420 1419 1419 1419 1418 1418 1415 1413 1411 1411 1410 1408 1408 1407 1406 1404 1402 1401 1401 1401 1401 1401 1401 1401 1402 1404 1407 1409 1411 1413 1413 1415 1416 1417 1418 1420 1420 1420 1420 1420 1420 1421 1421 1421 1421 1421 1421 1421 1421 1421 1421 1421 1421 1421 1421 1421 1421 1421 1420 1419 1419 1419 1418 1417 1417 1417 1416 1416 1416 1417 1417 1417 1417 1413 1413 1413 1416 1429 0 0 0 0 0 0 0 1579 1574 1560 1555 1548 1546 1541 1535 1527 1521 1520 1516 1511 1508 1506 1506 1504 1502 1502 1501 1500 1500 1499 1495 1493 1488 1486 1486 1486 1497 1505 1510 1518 0 0 0 0 0 0 0 0 1723 1728 1733 1737 1742 1749 1757 1761 1762 1762 1762 1759 1758 1757 1757 1758 1758 1758 1758 1756 1750 1745 1740 1731 1715 1706 1697 1696 1696 1696 1701 1703 1708 1716 1721 1726 1734 1738 1740 1741 1750 1762 1773 1781 1789 1802 1816 1819 1821 1825 1835 1844 1852 1855 1855 1859 1881 1897 1898 1911 1941 1974 2033 2083 2083 2083 0 0 0 0 0 0 0 0 0 0 0 0 0 0 0 0 0 0 0 0 0 0 0 0 0 0 0 0 0 0 0 0 0 0 0 0 0 0
3015 3015 3015 3017 3045 3091 3149 3166 3175 3179 3184 3187 3189 3191 3191 3191 3193 3206 3209 3212 3212 3212 3214 3230 3253 3255 3255 3255 3240 3240 3240 3248 3257 3277 3286 3294 3309 3321 3326 3327 3337 3352 3362 3370 3373 3377 3387 3401 3403 3403 3403 3403 3403 3406 3410 3417 3428 3430 3434 3436 3439 3444 3446 3452 3462 3471 3478 3484 3491 3498 3505 3509 3514 3518 3526 3533 3538 3542 3552 3559 3564 3569 3571 3573 3577 3580 3584 3587 3592 3600 3609 3620 3628 3636 3645 3649 3650 3652 3654 3657 3657 3657 3656 3656 3656 3657 3670 3673 3677 3682 3699 3711 3711 3714 3714 3711 3711 3712 3712 3712 3718 3719 3719 3719 3714 3712 3711 3708 3708 3708 3716 3728 3728 3728 3732 3736 3747 3755 3755 3758 3760 3766 3772 3776 3776 3776 3776 3773 3769 3765 3760 3760 3760 3761 3763 3771 3780 3780 3780 3780 3775 3767 3761 3759 3756 3732 3678 3650 3650 3650 3717 3763 3783 3802 3808 3813 3813 3814 3814 3816 3818 3818 3818 3817 3812 3807 3807 3806 3806 3806 3806 3801 3791 3778 3767 3766 3764 3760 3755 3749 3738 3729 3721 3719 3713 3703 3691 3685 3684 3681 3681 3678 3674 3662 3657 3657 3655 3653 3652 3647 3645 3645 3645 3645 3648 3648 3655 3655 3656 3657 3663 3663 3663 3659 3655 3654 3652 3620 3590 3573 3558 3534 3506 3467 3424 3406 3371 3324 3211 2969 2721 2564 2486 2455 2438 2426 2426 2423 2413 2402 2383 2365 2336 0 0 0 0 0 1449 1439 1439 1439 1439 1439 1439 1438 1436 1436 1436 1436 1437 1438 1438 1439 1439 1439 1439 1439 1439 1438 1438 1438 1438 1438 1436 1436 1436 1435 1435 1435 1436 1435 1436 1436 1436 1435 1435 1435 1434 1434 1434 1434 1433 1432 1431 1430 1430 1429 1427 1426 1426 1426 1426 1426 1426 1425 1423 1423 1423 1423 1423 1422 1422 1422 1423 1424 1424 1425 1425 1426 1426 1426 1426 1427 1427 1428 1428 1428 1428 1428 1428 1428 1428 1428 1428 1428 1427 1427 1426 1425 1425 1425 1424 1422 1422 1422 1422 1422 1422 1422 1422 1422 1422 1423 1423 1423 1420 1419 1417 1417 1417 1419 1419 1419 1419 1419 1419 1421 1422 1424 1425 1425 1425 1425 1425 1426 1425 1425 1425 1424 1424 1424 1423 1423 1423 1423 1423 1423 1423 1422 1422 1422 1421 1420 1420 1419 1416 1414 1413 1411 1411 1411 1410 1409 1407 1406 1403 1402 1402 1402 1402 1403 1403 1404 1404 1405 1407 1410 1411 1414 1415 1417 1419 1420 1422 1423 1423 1423 1423 1423 1422 1423 1423 1424 1424 1424 1424 1423 1423 1423 1423 1423 1423 1423 1423 1423 1423 1423 1423 1421 1421 1420 1420 1419 1419 1419 1419 1419 1419 1419 1419 1419 1418 1415 1415 1415 1418 1434 0 0 0 0 0 0 0 1586 1575 1562 1555 1548 1546 1541 1535 1527 1521 1521 1517 1511 1508 1508 1508 1507 1507 1507 1505 1504 1504 1503 1500 1496 1496 1496 1497 1505 0 0 0 0 0 0 0 0 0 0 0 1739 1750 1757 1758 1760 1767 1771 1771 1772 1772 1772 1769 1767 1763 1763 1762 1762 1761 1761 1760 1757 1750 1745 1739 1731 1714 1705 1698 1698 1698 1706 1717 1719 1720 1722 1727 1732 1739 1743 1747 1748 1755 1768 1778 1783 1790 1804 1816 1819 1822 1828 1837 1846 1852 1855 1856 1866 1889 1899 1900 1911 1940 0 0 0 0 0 0 0 0 0 0 0 0 0 0 0 0 0 0 0 0 0 0 0 0 0 0 0 0 0 0 0 0 0 0 0 0 0 0 0 0 0 0 0
2999 2999 3008 3012 3045 3091 3149 3166 3168 3179 3180 3192 3192 3193 3193 3193 3197 3206 3209 3212 3212 3212 3212 3230 3244 3244 3244 3237 3235 3235 3237 3246 3257 3277 3286 3294 3309 3321 3328 3335 3353 3375 3388 3388 3388 3388 3392 3401 3406 3406 3406 3406 3406 3406 3410 3417 3428 3430 3434 3436 3439 3444 3446 3452 3461 3470 3477 3483 3492 3501 3506 3509 3514 3521 3526 3533 3538 3542 3552 3559 3563 3566 3568 3572 3577 3580 3584 3587 3592 3600 3610 3620 3628 3636 3645 3649 3652 3654 3658 3659 3659 3659 3657 3657 3657 3661 3670 3673 3678 3682 3699 3712 3712 3714 3716 3716 3716 3716 3719 3722 3733 3733 3733 3728 3715 3713 3712 3712 3712 3715 3726 3730 3730 3732 3734 3743 3754 3757 3759 3762 3763 3769 3772 3777 3779 3779 3779 3778 3775 3768 3764 3764 3764 3770 3774 3780 3785 3788 3788 3788 3781 3776 3767 3767 3766 3760 3698 3659 3659 3659 3717 3763 3796 3804 3813 3816 3816 3818 3819 3821 3821 3822 3822 3822 3819 3813 3809 3809 3808 3808 3807 3803 3794 3781 3767 3767 3766 3766 3758 3750 3739 3730 3730 3730 3726 3720 3706 3703 3696 3696 3696 3695 3694 3681 3665 3660 3657 3655 3653 3650 3648 3648 3648 3648 3650 3653 3653 3653 3654 3654 3654 3660 3661 3661 3660 3651 3639 3619 3590 3573 3559 3536 3508 3501 3491 3452 3408 3350 3211 3004 2751 2567 2484 2452 2438 2426 2422 2415 2410 2394 2383 2365 2339 0 0 0 0 0 1450 1441 1441 1441 1441 1441 1441 1439 1438 1438 1438 1438 1438 1439 1439 1439 1439 1440 1440 1440 1440 1439 1439 1439 1439 1439 1438 1437 1437 1437 1437 1436 1436 1436 1436 1436 1436 1437 1436 1437 1436 1436 1435 1435 1433 1432 1432 1431 1430 1429 1428 1428 1427 1428 1428 1428 1428 1428 1427 1426 1425 1425 1424 1423 1423 1423 1425 1426 1427 1427 1428 1428 1428 1429 1429 1429 1429 1429 1430 1430 1430 1430 1430 1430 1430 1430 1430 1430 1430 1429 1428 1427 1427 1427 1426 1425 1425 1425 1425 1425 1425 1425 1425 1425 1425 1424 1424 1423 1422 1421 1420 1420 1419 1419 1420 1420 1421 1422 1423 1424 1424 1426 1426 1427 1427 1428 1428 1428 1428 1427 1427 1427 1426 1426 1426 1425 1425 1425 1425 1425 1425 1425 1425 1424 1424 1423 1423 1423 1418 1417 1415 1414 1413 1413 1412 1411 1410 1409 1406 1402 1402 1402 1406 1407 1407 1407 1407 1407 1408 1410 1413 1416 1416 1418 1421 1422 1425 1425 1425 1424 1424 1424 1424 1425 1425 1425 1425 1425 1425 1425 1425 1425 1425 1425 1425 1425 1425 1425 1424 1424 1424 1423 1423 1422 1422 1422 1421 1421 1421 1421 1421 1421 1420 1420 1420 1419 1419 1419 1424 1434 0 0 0 0 0 0 0 0 1575 1568 1555 1548 1546 1541 1541 1536 1527 1522 1519 1518 1516 1516 1511 1511 1511 1509 1509 1508 1506 1506 1508 1508 1509 0 0 0 0 0 0 0 0 0 0 0 0 1756 1766 1766 1770 1779 1779 1780 1781 1781 1781 1781 1781 1780 1777 1772 1768 1767 1767 1766 1764 1764 1763 1759 1752 1747 1739 1727 1714 1705 1699 1699 1699 1719 1729 1730 1731 1731 1733 1739 1746 1751 1755 1756 1763 1772 1778 1784 1791 1805 1817 1820 1824 1828 1842 1850 1856 1856 1857 1868 1896 1901 1903 1911 1929 0 0 0 0 0 0 0 0 0 0 0 0 0 0 0 0 0 0 0 0 0 0 0 0 0 0 0 0 0 0 0 0 0 0 0 0 0 0 0 0 0 0 0
2978 2978 2996 3012 3045 3091 3149 3161 3162 3174 3179 3192 3193 3193 3193 3193 3197 3201 3206 3206 3207 3209 3209 3229 3230 3230 3230 3230 3235 3235 3237 3246 3257 3277 3297 3301 3309 3321 3328 3341 3359 3376 3388 3388 3388 3388 3392 3398 3406 3406 3406 3408 3408 3410 3419 3425 3428 3430 3434 3436 3439 3444 3446 3452 3461 3471 3477 3483 3492 3501 3507 3511 3516 3522 3529 3536 3542 3546 3553 3559 3563 3566 3568 3570 3575 3580 3585 3587 3592 3600 3612 3621 3628 3636 3645 3651 3654 3658 3662 3663 3664 3665 3665 3665 3665 3667 3672 3675 3678 3682 3699 3713 3714 3716 3717 3720 3722 3723 3723 3727 3734 3734 3734 3730 3719 3715 3715 3715 3716 3721 3728 3731 3731 3734 3734 3745 3755 3757 3760 3763 3765 3769 3773 3777 3779 3782 3782 3782 3780 3773 3770 3770 3770 3775 3780 3788 3793 3793 3793 3793 3787 3784 3781 3779 3779 3778 3727 3679 3679 3679 3717 3769 3796 3807 3815 3816 3817 3819 3822 3826 3827 3827 3827 3827 3825 3820 3814 3811 3811 3810 3810 3806 3798 3785 3770 3770 3769 3769 3762 3753 3741 3735 3735 3735 3735 3735 3724 3708 3707 3702 3700 3696 3694 3681 3667 3664 3659 3659 3654 3653 3648 3648 3648 3650 3653 3657 3657 3657 3654 3654 3654 3660 3661 3661 3660 3651 3616 3598 3590 3573 3562 3544 3512 3510 3492 3461 3426 3356 3257 3004 2751 2567 0 2451 2438 2426 2418 2410 2405 2394 2383 2369 2342 0 0 0 0 0 1454 1444 1443 1443 1443 1443 1441 1441 1439 1439 1439 1439 1439 1439 1440 1441 1441 1441 1441 1440 1440 1440 1440 1440 1439 1439 1439 1438 1438 1438 1438 1438 1438 1438 1438 1438 1438 1438 1438 1438 1438 1438 1437 1437 1436 1435 1434 1432 1431 1429 1429 1429 1429 1430 1430 1430 1429 1429 1429 1427 1427 1426 1426 1423 1423 1423 1425 1427 1428 1429 1429 1429 1430 1431 1431 1431 1431 1431 1431 1431 1432 1432 1432 1432 1432 1432 1432 1432 1431 1431 1430 1430 1429 1428 1428 1427 1426 1426 1426 1426 1426 1426 1426 1426 1426 1425 1425 1423 1423 1423 1423 1423 1423 1421 1421 1421 1423 1424 1425 1426 1426 1428 1428 1429 1430 1430 1430 1430 1430 1430 1430 1429 1428 1428 1428 1428 1428 1428 1428 1428 1428 1428 1428 1426 1425 1425 1424 1424 1421 1419 1418 1416 1415 1414 1414 1414 1413 1411 1410 1408 1408 1408 1411 1413 1413 1413 1411 1411 1411 1413 1417 1418 1419 1421 1423 1424 1425 1426 1426 1427 1427 1427 1427 1427 1427 1427 1427 1427 1427 1427 1427 1426 1426 1426 1426 1426 1426 1426 1426 1426 1425 1425 1425 1425 1424 1424 1424 1423 1423 1423 1423 1423 1423 1423 1422 1422 1422 1423 1425 1437 0 0 0 0 0 0 0 0 0 1595 1576 1566 1564 1563 1561 1561 1554 1539 1538 1536 1535 1526 1514 1514 1514 1517 1520 1524 0 0 0 0 0 0 0 0 0 0 0 1681 1693 1715 1735 1755 1772 1784 1785 1786 1792 1792 1792 1792 1791 1790 1790 1790 1789 1786 1783 1778 1775 1773 1772 1772 1769 1767 1766 1761 1754 1747 1736 1725 1714 1705 1703 1703 1703 1719 1731 1737 1738 1739 1740 1747 1754 1759 1760 1769 1772 1776 1781 1785 1792 1805 1817 1821 1824 1835 1846 1858 1864 1870 1880 1892 1896 1901 1903 1906 1920 0 0 0 0 0 0 0 0 0 0 0 0 0 0 0 0 0 0 0 0 0 0 0 0 0 0 0 0 0 0 0 0 0 0 0 0 0 0 0 0 0 0 0
2978 2978 2988 3012 3036 3078 3138 3138 3154 3156 3170 3193 3193 3193 3193 3193 3193 3193 3201 3204 3208 3209 3209 3217 3220 3226 3229 3229 3235 3235 3238 3246 3277 3297 3299 3303 3314 3322 3329 3342 3359 3376 3388 3388 3388 3388 3392 3398 3404 3406 3407 3409 3415 3422 3430 3435 3436 3436 3438 3440 3444 3448 3451 3454 3461 3471 3477 3483 3492 3502 3511 3516 3518 3524 3532 3539 3546 3550 3553 3559 3563 3566 3568 3570 3574 3580 3585 3588 3592 3601 3613 3622 3631 3639 3645 3654 3659 3663 3664 3667 3667 3669 3672 3678 3680 3682 3683 3684 3687 3698 3705 3714 3717 3718 3723 3726 3727 3727 3727 3731 3734 3734 3734 3730 3721 3717 3717 3717 3719 3723 3728 3734 3734 3735 3738 3748 3755 3764 3764 3766 3766 3769 3775 3779 3781 3783 3784 3784 3784 3779 3772 3772 3772 3779 3786 3793 3800 3804 3804 3804 3799 3798 3798 3797 3796 3778 3742 3687 3687 3687 3717 3781 3805 3810 3817 3819 3819 3820 3822 3826 3827 3828 3828 3828 3828 3825 3820 3817 3816 3813 3810 3806 3800 3787 3773 3773 3772 3772 3769 3761 3748 3743 3743 3743 3743 3743 3734 3720 3711 3704 3702 3696 3694 3682 3672 3666 3659 3659 3655 3654 3653 3652 3652 3652 3660 3660 3660 3657 3654 3654 3654 3660 3661 3661 3660 3635 3589 3573 3570 3568 3567 3544 3521 3513 3492 3461 3427 3364 3270 3015 2751 2567 0 2449 2438 2432 2418 2408 2405 2394 2384 2371 2347 0 0 0 0 0 1467 1446 1444 1444 1444 1444 1443 1442 1441 1441 1441 1441 1441 1442 1442 1442 1442 1442 1442 1442 1442 1442 1441 1441 1441 1440 1440 1440 1440 1439 1439 1439 1439 1439 1439 1439 1439 1440 1440 1440 1440 1440 1438 1437 1437 1436 1435 1434 1433 1432 1431 1431 1431 1431 1431 1432 1432 1431 1431 1430 1429 1428 1428 1428 1428 1428 1429 1430 1430 1430 1431 1431 1432 1432 1433 1433 1433 1433 1433 1433 1433 1433 1434 1434 1434 1434 1434 1433 1433 1433 1432 1431 1430 1429 1429 1429 1429 1427 1427 1427 1427 1427 1427 1427 1427 1427 1426 1425 1425 1425 1427 1427 1427 1426 1426 1426 1426 1426 1427 1428 1428 1429 1431 1431 1432 1432 1432 1432 1432 1432 1432 1432 1431 1431 1431 1430 1430 1430 1430 1431 1431 1430 1429 1428 1428 1428 1428 1427 1426 1423 1421 1419 1418 1418 1417 1417 1416 1415 1415 1415 1415 1418 1421 1421 1421 1417 1415 1415 1415 1417 1420 1420 1422 1425 1425 1426 1426 1428 1429 1429 1429 1429 1429 1429 1429 1429 1429 1429 1429 1429 1429 1428 1428 1427 1427 1427 1427 1427 1427 1427 1427 1427 1426 1426 1426 1426 1426 1425 1425 1425 1425 1425 1425 1425 1424 1424 1424 1427 1428 1437 0 0 0 0 0 0 0 0 0 0 0 0 0 0 0 0 0 0 0 1556 1556 1547 1533 1533 0 0 0 0 0 0 0 0 0 0 0 0 0 0 1721 1721 1721 1739 1752 1765 1785 1796 1801 1802 1805 1805 1805 1803 1799 1799 1798 1796 1794 1792 1790 1787 1782 1780 1780 1779 1777 1773 1771 1764 1756 1747 1732 1725 1714 1705 1704 1704 1704 1719 1735 1741 1744 1746 1750 1752 1757 1763 1767 1773 1775 1778 1781 1786 1794 1806 1824 1828 1829 1839 1854 1868 1876 1878 1890 1894 1896 1903 1903 1906 1916 0 0 0 0 0 0 0 0 0 0 0 0 0 0 0 0 0 0 0 0 0 0 0 0 0 0 0 0 0 0 0 0 0 0 0 0 0 0 0 0 0 0 0
2978 2978 2988 3012 3036 3075 3094 3118 3126 3129 3170 3187 3189 3192 3193 3192 3193 3193 3201 3204 3209 3209 3213 3217 3220 3226 3228 3230 3236 3270 3280 3285 3299 3300 3306 3309 3318 3329 3335 3342 3359 3376 3381 3386 3386 3387 3394 3398 3404 3407 3408 3410 3420 3430 3437 3439 3440 3440 3444 3447 3451 3455 3457 3460 3468 3475 3480 3485 3494 3502 3511 3516 3518 3524 3532 3539 3546 3550 3556 3560 3563 3567 3569 3570 3574 3580 3585 3590 3595 3602 3614 3625 3632 3639 3647 3655 3663 3665 3667 3668 3668 3671 3677 3687 3692 3694 3696 3699 3700 3712 3720 3722 3727 3730 3730 3730 3729 3729 3729 3731 3735 3735 3735 3733 3726 3721 3719 3719 3719 3724 3729 3734 3734 3737 3746 3752 3755 3764 3767 3770 3771 3773 3775 3779 3781 3783 3785 3785 3785 3783 3778 3778 3778 3782 3789 3794 3805 3813 3813 3813 3811 3811 3808 3806 3806 3778 3742 3696 3696 3696 3726 3791 3809 3813 3821 3823 3824 3824 3825 3827 3828 3828 3828 3828 3828 3826 3824 3821 3819 3813 3811 3806 3801 3787 3778 3778 3775 3775 3775 3768 3757 3749 3749 3749 3748 3748 3745 3734 3719 3704 3697 3693 3693 3682 3674 3668 3662 3659 3659 3658 3657 3657 3657 3657 3661 3661 3661 3658 3658 3658 3662 3662 3662 3661 3660 3618 3570 3564 3564 3564 3564 3564 3535 3513 3492 3461 3427 3364 3270 3013 2740 2560 2477 2449 2440 2432 2420 2408 2403 2394 2384 2371 2347 0 0 0 0 0 1470 1447 1446 1445 1445 1444 1444 1443 1443 1443 1443 1443 1443 1443 1443 1444 1444 1444 1443 1443 1443 1443 1443 1443 1442 1442 1441 1441 1441 1441 1441 1440 1440 1440 1440 1441 1441 1441 1441 1441 1441 1441 1439 1439 1439 1439 1438 1438 1438 1437 1436 1436 1435 1435 1435 1435 1434 1434 1434 1433 1430 1429 1429 1429 1429 1431 1432 1432 1433 1433 1433 1433 1434 1435 1435 1435 1436 1436 1436 1436 1435 1435 1436 1435 1435 1435 1435 1435 1435 1435 1434 1434 1432 1432 1431 1431 1430 1429 1429 1429 1429 1429 1430 1430 1430 1430 1428 1428 1428 1430 1430 1430 1430 1430 1429 1429 1429 1429 1429 1429 1430 1431 1432 1433 1434 1434 1434 1434 1435 1435 1435 1434 1434 1433 1433 1433 1433 1433 1433 1432 1432 1432 1431 1431 1431 1430 1430 1430 1429 1425 1423 1423 1422 1422 1421 1420 1420 1420 1420 1420 1421 1424 1424 1424 1422 1420 1420 1420 1420 1421 1424 1425 1427 1428 1428 1428 1429 1430 1431 1431 1431 1431 1431 1431 1431 1431 1431 1430 1430 1430 1429 1429 1429 1429 1429 1429 1429 1429 1429 1429 1429 1429 1429 1428 1428 1428 1427 1427 1427 1427 1427 1427 1427 1426 1425 1425 1426 1428 1432 0 0 0 0 0 0 0 0 0 0 0 0 0 0 0 0 0 0 0 0 0 0 0 0 0 0 0 0 0 0 0 0 0 0 0 0 0 0 0 1735 1735 1742 1767 1774 1783 1795 1797 1802 1803 1810 1810 1810 1809 1807 1806 1804 1801 1798 1797 1796 1793 1790 1789 1788 1786 1783 1779 1775 1767 1757 1747 1732 1725 1712 1705 1705 1705 1707 1720 1736 1741 1746 1750 1752 1753 1757 1765 1772 1778 1780 1783 1787 1793 1801 1810 1829 1830 1830 1840 1870 1882 1885 1888 1894 1896 1903 1903 1903 1906 1916 0 0 0 0 0 0 0 0 0 0 0 0 0 0 0 0 0 0 0 0 0 0 0 0 0 0 0 0 0 0 0 0 0 0 0 0 0 0 0 0 0 0 0
2984 2984 2988 3015 3036 3075 3094 3118 3126 3129 3165 3173 3189 3192 3193 3192 3193 3195 3201 3220 3223 3223 3223 3223 3224 3229 3230 3249 3253 3287 3287 3297 3302 3314 3319 3322 3330 3335 3335 3341 3350 3361 3365 3371 3378 3386 3394 3400 3404 3407 3408 3411 3423 3432 3438 3440 3445 3448 3451 3453 3457 3459 3465 3470 3478 3483 3485 3489 3495 3502 3511 3516 3521 3524 3532 3539 3546 3550 3558 3564 3568 3571 3572 3573 3573 3578 3585 3593 3600 3607 3621 3627 3632 3639 3647 3655 3663 3665 3669 3671 3672 3678 3686 3695 3701 3705 3707 3708 3712 3720 3731 3738 3740 3740 3740 3737 3731 3731 3731 3731 3737 3737 3737 3736 3731 3726 3724 3724 3724 3726 3729 3734 3740 3748 3755 3758 3759 3764 3771 3775 3778 3778 3778 3779 3781 3783 3785 3786 3786 3786 3785 3785 3785 3788 3791 3796 3805 3815 3815 3815 3811 3811 3811 3811 3807 3784 3744 3700 3700 3700 3732 3792 3815 3819 3825 3828 3829 3829 3829 3829 3829 3829 3829 3829 3828 3826 3824 3824 3820 3815 3811 3806 3801 3787 3781 3781 3779 3779 3779 3770 3763 3754 3754 3754 3753 3753 3753 3745 3726 3708 3697 3693 3693 3682 3680 3678 3670 3664 3660 3659 3658 3658 3658 3659 3662 3662 3662 3658 3658 3658 3663 3666 3666 3666 3651 3618 3570 3562 3562 3562 3562 3562 3535 3512 3485 3460 3427 3359 3257 3004 2714 2550 2477 2449 2440 2432 2420 2410 2402 2394 2384 2371 2347 0 0 0 0 0 1472 1452 1448 1447 1446 1445 1445 1445 1445 1445 1445 1445 1445 1445 1445 1445 1445 1445 1445 1445 1445 1444 1444 1444 1444 1444 1443 1443 1443 1443 1442 1442 1442 1442 1442 1443 1443 1443 1443 1443 1443 1442 1442 1442 1442 1442 1442 1442 1442 1442 1441 1440 1440 1440 1440 1439 1439 1439 1437 1433 1432 1431 1431 1431 1431 1431 1435 1435 1436 1436 1436 1436 1436 1438 1438 1438 1438 1438 1438 1438 1437 1437 1438 1438 1438 1438 1438 1438 1437 1437 1436 1436 1435 1435 1433 1433 1433 1431 1430 1430 1430 1432 1432 1432 1432 1432 1432 1432 1432 1434 1434 1434 1434 1433 1432 1431 1431 1431 1432 1433 1433 1433 1434 1435 1435 1436 1436 1436 1436 1437 1436 1436 1436 1436 1435 1435 1435 1435 1435 1435 1435 1435 1434 1434 1434 1434 1433 1433 1433 1430 1429 1428 1427 1427 1426 1425 1425 1425 1425 1425 1427 1429 1429 1429 1425 1424 1424 1424 1425 1426 1427 1428 1428 1430 1430 1431 1431 1433 1433 1433 1433 1433 1433 1433 1432 1432 1432 1432 1431 1431 1430 1430 1430 1430 1430 1430 1430 1430 1430 1431 1431 1431 1431 1430 1429 1429 1429 1429 1428 1428 1428 1428 1428 1428 1428 1428 1428 1432 1436 0 0 0 0 0 0 0 0 0 0 0 0 0 0 0 0 0 0 0 0 0 0 0 0 0 0 0 0 0 0 0 0 0 0 0 0 0 0 0 1752 1752 1771 1784 1788 1793 1795 1798 1805 1806 1811 1812 1812 1812 1811 1811 1811 1809 1806 1805 1802 1799 1797 1796 1795 1791 1786 1782 1776 1768 1758 1746 1732 1725 1709 1708 1708 1708 1722 1729 1737 1745 1749 1753 1754 1755 1760 1766 1778 1784 1792 1793 1800 1803 1811 1819 1830 1839 1840 1845 1874 1883 1889 1899 1899 1903 1903 1903 1903 1916 1917 1937 0 0 0 0 0 0 0 0 0 0 0 0 0 0 0 0 0 0 0 0 0 0 0 0 0 0 0 0 0 0 0 0 0 0 0 0 0 0 0 0 0 0
3033 3033 3034 3048 3053 3075 3094 3118 3126 3165 3171 3173 3183 3189 3192 3192 3195 3196 3201 3250 3251 3251 3251 3246 3235 3235 3235 3260 3273 3294 3296 3297 3304 3319 3331 3331 3334 3335 3335 3336 3338 3342 3345 3351 3366 3382 3394 3403 3410 3413 3415 3418 3425 3436 3441 3445 3449 3451 3456 3459 3462 3464 3466 3470 3478 3483 3488 3492 3496 3504 3511 3517 3521 3525 3532 3539 3546 3553 3559 3564 3570 3574 3574 3574 3574 3580 3585 3594 3603 3615 3621 3627 3632 3637 3647 3655 3663 3665 3670 3673 3676 3680 3687 3698 3702 3709 3714 3715 3722 3730 3740 3744 3745 3745 3745 3737 3731 3731 3731 3734 3739 3739 3739 3737 3732 3730 3730 3730 3731 3732 3732 3737 3744 3753 3761 3767 3770 3772 3773 3775 3778 3781 3782 3784 3784 3786 3788 3789 3789 3790 3790 3790 3793 3795 3797 3801 3806 3815 3815 3815 3811 3811 3811 3811 3807 3784 3744 3714 3714 3714 3751 3795 3823 3825 3827 3829 3830 3830 3830 3830 3830 3829 3829 3829 3828 3826 3824 3824 3823 3816 3811 3806 3801 3787 3787 3786 3784 3784 3779 3770 3763 3754 3754 3754 3753 3753 3753 3745 3726 3709 3697 3693 3691 3682 3681 3680 3680 3674 3665 3662 3661 3660 3660 3661 3661 3662 3662 3661 3661 3662 3668 3668 3668 3668 3651 3618 3570 3562 3562 3562 3562 3562 3535 3504 3471 3442 3398 3359 3257 3007 2714 2538 2469 2442 2440 2429 2420 2408 2401 2391 2378 2365 2347 0 0 0 0 0 0 1456 1451 1450 1449 1448 1447 1447 1447 1448 1447 1447 1447 1447 1447 1447 1447 1447 1446 1447 1446 1446 1446 1446 1446 1445 1445 1445 1444 1444 1444 1444 1444 1444 1444 1445 1446 1446 1446 1446 1446 1446 1446 1446 1446 1446 1446 1446 1446 1446 1446 1444 1444 1444 1444 1444 1444 1444 1439 1437 1436 1436 1434 1434 1436 1436 1436 1439 1439 1439 1439 1439 1439 1440 1440 1440 1440 1440 1440 1439 1439 1439 1439 1440 1440 1440 1440 1440 1439 1439 1438 1438 1438 1436 1436 1435 1435 1434 1434 1434 1434 1435 1435 1435 1436 1436 1436 1437 1438 1438 1438 1438 1437 1436 1435 1434 1434 1434 1435 1435 1435 1436 1436 1437 1438 1438 1438 1439 1439 1439 1439 1438 1438 1438 1438 1438 1438 1438 1438 1438 1437 1437 1436 1436 1436 1436 1436 1436 1436 1436 1436 1433 1431 1431 1430 1430 1430 1430 1431 1432 1432 1433 1433 1433 1429 1429 1429 1430 1430 1430 1430 1430 1430 1432 1432 1433 1433 1435 1435 1435 1435 1435 1434 1434 1434 1434 1433 1433 1433 1432 1432 1432 1431 1431 1431 1431 1432 1432 1432 1432 1432 1432 1432 1431 1431 1431 1431 1431 1431 1431 1431 1431 1431 1431 1431 1431 1432 1433 1436 0 0 0 0 0 1865 1867 1870 1893 1900 0 0 0 0 0 0 0 0 0 0 0 0 0 0 0 0 0 0 0 0 0 0 0 0 0 0 0 0 0 1773 1773 1773 1784 1788 1793 1795 1802 1809 1810 1811 1816 1816 1819 1819 1819 1816 1813 1811 1808 1805 1803 1802 1801 1799 1795 1788 1784 1777 1770 1758 1746 1732 1725 1709 1709 1709 1718 1727 1734 1743 1747 1751 1753 1759 1761 1761 1771 1782 1795 1802 1804 1809 1814 1827 1834 1844 1846 1850 1854 1875 1887 1900 1908 1908 1908 1904 1904 1904 1920 1921 1941 1990 0 0 0 0 0 0 0 0 0 0 0 0 0 0 0 0 0 0 0 0 0 0 0 0 0 0 0 0 0 0 0 0 0 0 0 0 0 0 0 0 0
3093 3093 3090 3090 3090 3090 3118 3134 3155 3170 3173 3180 3183 3189 3192 3192 3195 3196 3210 3250 3261 3261 3261 3257 3254 3254 3254 3269 3282 3294 3296 3297 3304 3319 3331 3333 3333 3333 3334 3333 3333 3334 3334 3336 3355 3377 3394 3410 3426 3433 3436 3442 3442 3442 3449 3454 3456 3458 3460 3462 3463 3466 3467 3470 3478 3483 3488 3495 3502 3507 3511 3517 3521 3526 3532 3539 3546 3553 3560 3564 3570 3574 3575 3575 3575 3581 3587 3596 3607 3616 3621 3627 3630 3636 3646 3654 3661 3668 3671 3674 3677 3682 3688 3699 3704 3709 3714 3717 3730 3737 3740 3744 3745 3745 3745 3737 3731 3731 3731 3734 3739 3739 3739 3738 3734 3734 3734 3736 3736 3737 3738 3741 3749 3755 3766 3774 3776 3778 3779 3779 3779 3782 3785 3785 3786 3787 3788 3791 3792 3793 3794 3795 3797 3798 3800 3802 3806 3815 3815 3815 3811 3810 3808 3808 3806 3786 3753 3716 3716 3716 3764 3805 3826 3826 3828 3829 3833 3833 3833 3832 3832 3832 3832 3832 3828 3826 3825 3824 3823 3819 3815 3811 3804 3794 3793 3793 3789 3786 3779 3770 3763 3754 3751 3751 3751 3751 3751 3745 3726 3710 3701 3698 3693 3685 3685 3684 3683 3683 3669 3665 3665 3665 3667 3667 3667 3665 3661 3661 3661 3661 3668 3668 3668 3668 3651 3635 3623 3573 3572 3562 3549 3549 3507 3477 3459 3435 3396 3325 3246 3013 2714 2534 2452 2433 2426 2426 2420 2408 2398 2389 2375 2362 2342 2315 0 0 0 0 0 1460 1453 1451 1451 1451 1451 1451 1451 1450 1450 1450 1450 1449 1449 1449 1449 1449 1449 1449 1449 1448 1448 1448 1447 1447 1447 1447 1447 1446 1446 1446 1446 1446 1447 1447 1447 1448 1448 1448 1448 1449 1450 1450 1451 1451 1451 1450 1450 1450 1450 1448 1446 1446 1446 1448 1448 1448 1443 1441 1441 1441 1441 1441 1441 1441 1441 1441 1442 1442 1443 1443 1443 1442 1442 1442 1442 1442 1442 1442 1442 1442 1442 1442 1442 1442 1442 1442 1441 1441 1440 1440 1439 1439 1439 1438 1438 1438 1438 1438 1438 1438 1438 1438 1438 1438 1439 1443 1443 1443 1442 1441 1440 1439 1438 1438 1438 1437 1437 1437 1438 1438 1438 1439 1439 1440 1440 1441 1441 1441 1441 1441 1441 1440 1440 1440 1440 1440 1440 1439 1439 1439 1438 1438 1438 1438 1438 1438 1442 1442 1442 1438 1436 1435 1435 1435 1435 1435 1435 1436 1436 1436 1436 1435 1433 1433 1433 1435 1435 1435 1433 1433 1433 1435 1435 1435 1435 1437 1437 1437 1437 1436 1436 1436 1436 1435 1435 1435 1434 1434 1433 1433 1433 1433 1433 1433 1433 1433 1433 1433 1433 1433 1433 1433 1433 1433 1432 1432 1432 1432 1432 1432 1432 1433 1433 1433 1433 1433 1436 0 0 0 0 1871 1882 1895 1908 1917 1925 1926 1928 1934 1934 1934 1926 1926 1926 0 0 0 0 0 0 0 0 0 0 1972 1976 1981 1981 1981 1981 1969 1959 0 0 0 1789 1786 1786 1786 1788 1793 1795 1802 1813 1818 1819 1820 1820 1821 1821 1821 1819 1816 1814 1813 1811 1811 1810 1808 1804 1799 1793 1787 1783 1770 1758 1744 1732 1722 1717 1717 1717 1721 1730 1740 1744 1747 1752 1757 1765 1766 1768 1776 1789 1800 1809 1811 1816 1826 1835 1841 1850 1861 1862 1869 1879 1895 1910 1914 1914 1915 1915 1915 1920 1923 1928 1942 1990 0 0 0 0 0 0 0 0 0 0 0 0 0 0 0 0 0 0 0 0 0 0 0 0 0 0 0 0 0 0 0 0 0 0 0 0 0 0 0 0 0
3134 3136 3136 3138 3144 3146 3148 3164 3165 3173 3180 3180 3183 3193 3193 3195 3196 3196 3212 3251 3261 3264 3264 3263 3262 3263 3263 3269 3282 3295 3297 3298 3304 3319 3331 3333 3333 3333 3334 3333 3333 3334 3334 3336 3355 3377 3394 3410 3436 3451 3451 3451 3451 3451 3457 3462 3463 3464 3464 3466 3467 3468 3468 3473 3479 3483 3489 3497 3506 3510 3516 3521 3528 3532 3534 3541 3546 3553 3561 3565 3571 3575 3575 3576 3577 3581 3588 3601 3609 3616 3622 3624 3630 3634 3643 3653 3661 3664 3671 3674 3678 3682 3691 3699 3706 3709 3714 3717 3730 3737 3740 3744 3744 3744 3739 3734 3729 3729 3729 3734 3739 3739 3739 3739 3737 3737 3737 3740 3741 3741 3745 3750 3754 3761 3769 3777 3779 3779 3780 3780 3780 3783 3785 3787 3787 3787 3790 3792 3794 3795 3796 3796 3797 3798 3800 3802 3806 3811 3811 3811 3810 3808 3807 3806 3806 3793 3757 3716 3716 3716 3776 3823 3827 3827 3829 3830 3833 3835 3835 3835 3835 3835 3835 3835 3830 3826 3825 3824 3823 3823 3821 3818 3814 3810 3807 3798 3789 3782 3768 3759 3753 3749 3746 3743 3743 3741 3741 3741 3721 3711 3705 3701 3694 3691 3691 3688 3686 3686 3669 3665 3665 3665 3671 3671 3671 3663 3662 3662 3662 3668 3673 3677 3677 3677 3670 3668 3664 3636 3586 3578 3572 3549 3507 3477 3459 3435 3375 3317 3246 3013 2719 2530 2448 2430 2419 2414 2409 2398 2384 2376 2370 2358 2342 2315 0 0 0 0 0 1467 1458 1454 1454 1454 1454 1454 1454 1453 1452 1452 1452 1451 1451 1451 1451 1451 1451 1451 1451 1451 1451 1450 1450 1450 1449 1449 1449 1449 1449 1449 1449 1449 1449 1449 1449 1450 1450 1451 1452 1453 1454 1454 1454 1454 1454 1454 1453 1453 1452 1450 1449 1449 1449 1449 1449 1449 1446 1446 1446 1445 1446 1446 1446 1445 1445 1445 1445 1445 1445 1445 1445 1445 1445 1445 1445 1445 1445 1445 1445 1445 1444 1444 1444 1444 1444 1444 1443 1443 1443 1442 1441 1441 1441 1442 1442 1442 1442 1441 1441 1441 1441 1440 1440 1440 1443 1446 1446 1446 1444 1443 1443 1441 1441 1441 1441 1441 1440 1440 1440 1440 1441 1441 1442 1442 1443 1443 1443 1443 1443 1443 1443 1442 1442 1442 1442 1442 1441 1441 1440 1440 1440 1440 1440 1440 1440 1440 1445 1445 1445 1442 1439 1438 1438 1437 1435 1435 1435 1436 1437 1437 1437 1436 1436 1436 1436 1438 1438 1438 1437 1437 1437 1437 1437 1437 1437 1438 1438 1438 1438 1438 1438 1438 1437 1437 1436 1436 1436 1435 1434 1434 1434 1433 1434 1434 1434 1434 1434 1434 1434 1434 1434 1434 1434 1434 1434 1434 1434 1433 1433 1433 1434 1434 1434 1433 1433 1433 1440 0 0 0 0 1878 1898 1911 1920 1926 1927 1929 1929 1937 1946 1951 1952 1952 1953 1953 1955 1955 1953 1950 1950 1950 1970 1980 1985 1986 1992 1993 1995 1998 1998 1998 1985 1960 0 0 1811 1793 1786 1786 1786 1790 1795 1803 1816 1826 1826 1826 1826 1825 1824 1823 1821 1818 1818 1818 1818 1818 1815 1810 1804 1799 1796 1787 1783 1770 1756 1742 1731 1720 1719 1719 1719 1726 1736 1742 1745 1748 1753 1763 1769 1774 1778 1786 1794 1812 1817 1819 1824 1832 1839 1847 1862 1868 1876 1884 1891 1902 1919 1926 1926 1926 1926 1928 1929 1929 1930 1945 1945 0 0 0 0 0 0 0 0 0 0 0 0 0 0 0 0 0 0 0 0 0 0 0 0 0 0 0 0 0 0 0 0 0 0 0 0 0 0 0 0 0
3136 3136 3147 3152 3162 3165 3177 3178 3178 3178 3180 3180 3189 3194 3194 3195 3196 3196 3224 3254 3263 3265 3266 3265 3265 3265 3266 3277 3286 3295 3297 3298 3304 3314 3324 3333 3333 3333 3334 3333 3333 3334 3334 3336 3355 3377 3394 3411 3437 3456 3456 3456 3458 3458 3458 3464 3467 3468 3469 3470 3469 3470 3470 3473 3479 3483 3492 3499 3509 3516 3522 3530 3534 3535 3537 3541 3551 3557 3562 3565 3571 3575 3576 3579 3581 3586 3593 3602 3611 3617 3622 3622 3622 3621 3621 3621 3651 3663 3671 3675 3682 3684 3691 3700 3706 3709 3713 3717 3730 3737 3738 3738 3738 3734 3731 3728 3728 3728 3728 3730 3735 3739 3742 3742 3742 3743 3743 3743 3744 3746 3751 3756 3761 3767 3773 3779 3782 3782 3783 3783 3783 3785 3786 3789 3790 3790 3790 3792 3794 3795 3796 3796 3797 3798 3800 3802 3804 3808 3808 3808 3807 3807 3806 3806 3806 3793 3757 3717 3717 3717 3776 3823 3826 3827 3829 3830 3833 3836 3837 3838 3840 3840 3840 3839 3836 3829 3825 3824 3824 3824 3826 3826 3826 3818 3807 3798 3789 3774 3761 3752 3746 3742 3737 3737 3737 3734 3734 3733 3721 3715 3706 3704 3696 3691 3691 3688 3686 3686 3669 3665 3665 3665 3671 3671 3671 3666 3664 3664 3666 3668 3673 3685 3687 3687 3687 3687 3686 3668 3631 3598 3572 3549 3507 3477 3459 3439 3371 3312 3246 3022 2721 2530 2448 2430 2416 2409 2402 2394 2381 2372 2368 2356 2339 2315 0 0 0 0 0 1481 1463 1458 1456 1456 1456 1456 1456 1456 1455 1454 1453 1453 1453 1453 1453 1453 1452 1452 1452 1453 1453 1453 1453 1452 1451 1451 1451 1451 1451 1451 1451 1451 1451 1451 1451 1452 1452 1453 1453 1453 1455 1455 1456 1456 1455 1455 1456 1455 1455 1454 1453 1453 1453 1453 1453 1451 1450 1449 1448 1448 1448 1448 1447 1446 1446 1446 1446 1446 1447 1448 1448 1448 1448 1448 1448 1448 1448 1448 1447 1447 1447 1446 1446 1446 1446 1446 1446 1446 1446 1445 1445 1445 1446 1446 1446 1446 1446 1445 1445 1445 1445 1445 1445 1445 1446 1448 1448 1448 1447 1446 1446 1444 1443 1443 1443 1443 1442 1443 1443 1443 1443 1444 1444 1444 1445 1445 1445 1445 1445 1445 1445 1445 1445 1444 1444 1443 1443 1443 1442 1442 1442 1442 1441 1442 1442 1442 1446 1446 1446 1445 1442 1441 1440 1438 1436 1436 1436 1437 1439 1439 1439 1438 1438 1438 1439 1441 1441 1441 1439 1439 1439 1439 1439 1439 1439 1439 1439 1439 1439 1439 1439 1439 1439 1438 1437 1437 1436 1435 1435 1434 1434 1434 1434 1434 1434 1434 1435 1435 1435 1435 1435 1435 1435 1435 1435 1435 1435 1435 1435 1435 1435 1435 1435 1435 1435 1436 1440 0 0 0 0 1892 1910 1916 1929 1938 1939 1941 1944 1946 1948 1954 1956 1956 1959 1960 1961 1961 1961 1963 1966 1970 1981 1996 1998 2004 2007 2007 2009 2012 2012 2012 2012 1978 0 0 1834 1807 1798 1790 1790 1790 1795 1803 1816 1827 1833 1833 1833 1827 1824 1823 1823 1821 1821 1820 1820 1820 1817 1810 1804 1800 1796 1787 1783 1770 1752 1736 1726 1726 1726 1726 1726 1728 1740 1744 1746 1748 1753 1764 1770 1781 1789 1795 1808 1821 1827 1833 1834 1839 1847 1867 1873 1873 1877 1885 1898 1918 1927 1928 1930 1930 1928 1932 1932 1932 1955 1957 0 0 0 0 0 0 0 0 0 0 0 0 0 0 0 0 0 0 0 0 0 0 0 0 0 0 0 0 0 0 0 0 0 0 0 0 0 0 0 0 0 0
3136 3136 3147 3152 3162 3176 3177 3177 3168 3177 3177 3177 3191 3197 3197 3197 3197 3197 3224 3254 3266 3267 3268 3267 3268 3269 3274 3278 3289 3295 3297 3298 3304 3310 3319 3327 3333 3334 3338 3342 3345 3351 3355 3357 3369 3385 3400 3414 3437 3456 3459 3459 3460 3460 3460 3464 3468 3472 3473 3473 3473 3473 3473 3473 3479 3486 3493 3503 3512 3521 3530 3537 3538 3538 3541 3543 3552 3560 3563 3569 3571 3575 3576 3579 3583 3588 3595 3603 3613 3618 3622 3622 3622 3616 3604 3604 3604 3639 3671 3675 3689 3694 3698 3703 3706 3709 3713 3717 3724 3733 3736 3736 3736 3729 3727 3727 3727 3727 3728 3730 3735 3739 3743 3744 3744 3745 3746 3746 3747 3749 3754 3761 3766 3771 3776 3782 3782 3783 3783 3783 3783 3785 3786 3789 3790 3791 3792 3792 3794 3795 3795 3795 3796 3796 3797 3799 3800 3806 3807 3807 3807 3805 3805 3805 3802 3793 3757 3717 3717 3717 3776 3823 3825 3827 3827 3830 3836 3841 3842 3842 3842 3842 3841 3840 3838 3835 3828 3824 3824 3824 3826 3826 3826 3820 3807 3798 3783 3774 3761 3752 3746 3742 3737 3737 3737 3734 3734 3732 3721 3718 3713 3711 3705 3695 3695 3687 3686 3683 3665 3665 3665 3669 3672 3672 3672 3668 3667 3667 3667 3669 3677 3688 3697 3697 3697 3697 3692 3677 3650 3613 3580 3558 3540 3514 3479 3437 3371 3312 3254 3116 2747 2530 0 2430 2413 2405 2402 2394 2381 2371 2367 2355 2337 2321 0 0 0 0 0 0 1469 1462 1459 1459 1458 1458 1458 1457 1456 1456 1455 1455 1455 1455 1455 1454 1454 1454 1454 1454 1454 1454 1454 1454 1454 1454 1454 1454 1454 1454 1454 1454 1454 1454 1454 1454 1454 1454 1454 1455 1456 1458 1458 1458 1458 1458 1459 1459 1459 1459 1456 1456 1455 1455 1455 1453 1452 1452 1451 1450 1450 1450 1450 1449 1450 1449 1449 1449 1450 1450 1450 1450 1450 1450 1450 1450 1450 1450 1449 1449 1449 1449 1449 1449 1448 1448 1448 1448 1447 1446 1446 1446 1447 1447 1447 1447 1446 1446 1446 1448 1448 1448 1448 1448 1448 1448 1449 1449 1449 1448 1447 1446 1446 1445 1445 1445 1444 1444 1444 1445 1445 1446 1446 1446 1446 1446 1446 1446 1446 1446 1446 1446 1446 1446 1445 1445 1445 1444 1444 1444 1444 1444 1444 1444 1444 1445 1446 1446 1446 1446 1444 1444 1444 1444 1442 1441 1441 1441 1441 1442 1442 1442 1441 1441 1441 1442 1442 1442 1441 1441 1441 1441 1441 1441 1441 1441 1441 1441 1440 1440 1440 1439 1439 1439 1439 1438 1437 1436 1435 1435 1435 1434 1434 1434 1434 1435 1436 1436 1436 1436 1437 1437 1437 1437 1437 1437 1436 1436 1436 1436 1436 1437 1436 1435 1435 1437 0 0 0 0 0 1895 1914 1922 1931 1944 1947 1952 1959 1962 1965 1966 1966 1966 1964 1963 1963 1963 1969 1973 1974 1977 1988 1999 2009 2021 2021 2022 2024 2024 2025 2025 2025 2003 1961 0 0 1831 1818 1803 1796 1796 1796 1802 1816 1827 1833 1833 1833 1828 1825 1825 1825 1824 1823 1823 1823 1822 1817 1811 1805 1800 1796 1782 1770 1766 1749 1734 1733 1733 1732 1733 1733 1735 1742 1745 1746 1748 1757 1764 1775 1793 1799 1808 1821 1830 1836 1846 1848 1852 1865 1875 1877 1878 1879 1886 1899 1918 1928 1930 1939 1939 1939 1935 1935 1935 1955 0 0 0 0 0 0 0 0 0 0 0 0 0 0 0 0 0 0 0 0 0 0 0 0 0 0 0 0 0 0 0 0 0 0 0 0 0 0 0 0 0 0 0
3105 3105 3134 3145 3162 3177 3177 3174 3171 3174 3174 3185 3193 3197 3197 3197 3197 3197 3231 3265 3267 3268 3271 3271 3274 3278 3281 3289 3290 3298 3299 3301 3304 3306 3309 3317 3325 3333 3339 3348 3358 3366 3377 3388 3405 3410 3411 3421 3437 3456 3460 3460 3460 3460 3460 3464 3468 3472 3474 3474 3474 3476 3477 3481 3484 3487 3494 3503 3514 3525 3535 3538 3540 3541 3542 3545 3552 3563 3566 3571 3572 3572 3577 3580 3583 3591 3595 3603 3613 3618 3622 3622 3622 3616 3604 3604 3604 3606 3637 3675 3689 3698 3704 3709 3709 3711 3713 3716 3722 3725 3733 3733 3733 3729 3727 3727 3727 3727 3728 3730 3735 3739 3743 3744 3745 3746 3747 3748 3750 3752 3757 3764 3770 3775 3781 3785 3785 3785 3784 3784 3784 3785 3786 3789 3790 3791 3791 3791 3793 3793 3793 3793 3793 3794 3796 3797 3800 3802 3802 3802 3802 3799 3796 3795 3792 3786 3775 3717 3717 3717 3775 3822 3824 3827 3827 3830 3837 3844 3844 3844 3843 3843 3842 3840 3839 3836 3831 3827 3826 3826 3826 3826 3826 3820 3805 3797 3783 3774 3761 3752 3746 3742 3737 3737 3737 3734 3734 3731 3729 3726 3726 3722 3719 3709 3698 3686 3670 3668 3665 3665 3665 3670 3671 3672 3672 3671 3671 3672 3677 3682 3682 3688 3697 3697 3697 3697 3692 3677 3656 3616 3594 3577 3562 3541 3500 3439 3371 3312 3269 3144 2790 2548 0 2432 2412 2403 2402 2394 2381 2371 2358 2347 2337 2321 0 0 0 0 0 0 1470 1465 1462 1462 1461 1460 1459 1458 1458 1458 1457 1457 1457 1457 1457 1457 1457 1456 1456 1456 1456 1456 1456 1456 1456 1456 1456 1456 1456 1456 1456 1456 1456 1456 1456 1457 1457 1457 1457 1457 1457 1460 1461 1461 1461 1461 1461 1462 1462 1462 1462 1460 1458 1458 1458 1457 1454 1453 1452 1452 1452 1452 1452 1452 1453 1452 1452 1452 1452 1452 1452 1452 1452 1452 1452 1451 1451 1451 1451 1451 1451 1451 1451 1451 1450 1450 1450 1450 1450 1448 1448 1448 1448 1448 1448 1447 1447 1447 1447 1448 1448 1448 1448 1448 1448 1448 1449 1449 1449 1448 1447 1447 1446 1446 1446 1445 1445 1445 1446 1446 1447 1448 1448 1448 1448 1448 1448 1448 1448 1448 1448 1448 1448 1448 1447 1447 1447 1447 1447 1447 1447 1447 1446 1446 1446 1446 1447 1448 1448 1448 1448 1448 1447 1447 1447 1446 1445 1445 1445 1445 1445 1445 1445 1444 1443 1443 1443 1443 1443 1443 1443 1443 1442 1442 1441 1441 1441 1441 1441 1441 1440 1440 1440 1439 1439 1439 1438 1437 1436 1435 1435 1434 1434 1434 1434 1436 1436 1437 1437 1438 1438 1439 1439 1439 1439 1439 1439 1439 1439 1439 1439 1439 1438 1438 1438 1438 0 0 0 0 0 1896 1917 1926 1936 1946 1951 1957 1960 1964 1966 1967 1970 1970 1971 1971 1973 1976 1980 1987 1989 1995 2002 2009 2017 2023 2026 2030 2031 2034 2038 2038 2038 2022 1986 1950 0 0 1838 1821 1799 1799 1799 1801 1812 1827 1833 1833 1833 1828 1828 1828 1827 1827 1827 1827 1826 1824 1818 1810 1804 1800 1796 1778 1757 1753 1743 1734 1734 1734 1736 1737 1739 1743 1746 1746 1749 1754 1761 1768 1794 1800 1807 1813 1826 1836 1844 1853 1854 1865 1874 1879 1880 1880 1882 1889 1901 1920 1926 1928 1939 1939 1939 1935 1935 1935 0 0 0 0 0 0 0 0 0 0 0 0 0 0 0 0 0 0 0 0 0 0 0 0 0 0 0 0 0 0 0 0 0 0 0 0 0 0 0 0 0 0 0 0
3059 3059 3122 3152 3162 3170 3174 3170 3171 3174 3174 3185 3195 3197 3199 3199 3199 3202 3240 3271 3271 3271 3273 3273 3275 3278 3281 3289 3290 3298 3299 3303 3305 3305 3306 3312 3325 3333 3339 3348 3361 3370 3380 3394 3407 3415 3417 3422 3437 3451 3456 3457 3460 3461 3462 3463 3467 3472 3474 3478 3478 3480 3484 3486 3487 3489 3495 3505 3519 3531 3536 3542 3542 3542 3543 3546 3554 3563 3568 3572 3573 3573 3577 3580 3586 3592 3596 3605 3613 3618 3625 3625 3625 3616 3604 3587 3587 3587 3611 3654 3689 3698 3704 3709 3713 3713 3714 3715 3717 3723 3733 3733 3733 3729 3726 3726 3726 3727 3728 3731 3735 3740 3743 3744 3746 3746 3747 3748 3750 3755 3760 3768 3776 3781 3786 3786 3786 3785 3784 3784 3784 3785 3785 3789 3790 3791 3791 3791 3792 3792 3792 3792 3792 3794 3795 3797 3799 3799 3799 3798 3796 3793 3789 3788 3786 3783 3775 3745 3745 3745 3775 3822 3823 3824 3827 3827 3837 3844 3845 3845 3845 3844 3842 3841 3840 3837 3831 3827 3826 3825 3825 3825 3825 3820 3805 3797 3783 3777 3768 3762 3756 3750 3747 3742 3739 3737 3737 3731 3729 3729 3728 3728 3725 3715 3703 3684 3670 3668 3668 3668 3670 3672 3672 3672 3672 3672 3673 3678 3678 3682 3684 3688 3697 3697 3697 3697 3692 3677 3657 3627 3609 3600 3584 3555 3500 3443 3373 3335 3269 3158 2823 2582 0 2432 2410 2402 2402 2394 2381 2369 2355 2343 2334 2321 0 0 0 0 0 0 1473 1467 1466 1466 1464 1462 1461 1460 1460 1459 1459 1459 1459 1458 1458 1458 1458 1458 1458 1458 1458 1458 1458 1458 1459 1459 1458 1458 1458 1458 1458 1458 1458 1458 1459 1459 1460 1460 1460 1460 1461 1462 1465 1465 1465 1465 1465 1465 1465 1465 1465 1465 1464 1463 1462 1461 1458 1455 1455 1455 1455 1455 1455 1455 1454 1454 1454 1454 1454 1454 1454 1454 1454 1454 1454 1453 1453 1453 1453 1453 1453 1453 1453 1452 1452 1452 1452 1451 1451 1450 1450 1449 1449 1449 1449 1448 1447 1447 1447 1448 1448 1448 1448 1448 1448 1448 1449 1449 1449 1449 1448 1447 1447 1447 1447 1447 1447 1448 1448 1448 1448 1449 1450 1450 1450 1450 1450 1450 1450 1450 1450 1450 1449 1449 1449 1448 1448 1448 1448 1448 1448 1448 1448 1447 1447 1447 1447 1449 1449 1449 1449 1449 1449 1449 1449 1449 1449 1448 1448 1448 1447 1447 1446 1446 1444 1444 1444 1445 1445 1445 1445 1445 1444 1442 1442 1442 1442 1442 1442 1442 1441 1441 1441 1441 1441 1441 1441 1440 1437 1436 1435 1435 1435 1435 1435 1437 1438 1438 1440 1440 1440 1440 1441 1441 1441 1441 1442 1441 1442 1442 1442 1442 1442 1442 1442 1444 0 0 0 0 0 1904 1923 1933 1941 1948 1952 1957 1960 1964 1966 1970 1971 1972 1973 1975 1978 1984 1993 1999 2004 2006 2009 2012 2017 2023 2026 2030 2031 2034 2038 2039 2039 2039 2014 1973 1949 0 0 1838 1818 1808 1805 1805 1805 1816 1827 1828 1828 1829 1829 1830 1830 1831 1831 1830 1830 1828 1818 1810 1803 1799 1783 1767 1751 1747 1737 1734 1734 1734 1736 1743 1745 1748 1753 1756 1756 1758 1770 1786 1801 1808 1811 1814 1830 1842 1849 1857 1864 1865 1875 1880 1881 1881 1885 1901 1907 1920 1924 1924 1934 1934 1934 1934 1928 0 0 0 0 0 0 0 0 0 0 0 0 0 0 0 0 0 0 0 0 0 0 0 0 0 0 0 0 0 0 0 0 0 0 0 0 0 0 0 0 0 0 0 0 0
3059 3059 3122 3159 3170 3180 3180 3174 3174 3174 3174 3187 3195 3199 3201 3203 3208 3220 3247 3271 3272 3273 3276 3276 3278 3278 3283 3289 3290 3298 3299 3303 3305 3306 3306 3312 3325 3333 3339 3352 3365 3370 3380 3394 3407 3416 3417 3422 3437 3444 3447 3453 3461 3462 3462 3463 3466 3471 3473 3479 3482 3486 3487 3490 3495 3496 3501 3511 3525 3536 3545 3547 3548 3548 3550 3555 3559 3565 3570 3573 3575 3575 3577 3580 3586 3592 3597 3605 3613 3620 3625 3625 3625 3616 3604 3587 3587 3587 3601 3648 3680 3698 3704 3711 3715 3715 3716 3716 3717 3723 3733 3733 3733 3729 3726 3726 3726 3727 3731 3733 3737 3740 3743 3744 3746 3747 3747 3749 3751 3755 3761 3771 3780 3786 3787 3787 3787 3786 3786 3785 3785 3785 3786 3789 3790 3791 3791 3791 3792 3792 3792 3792 3792 3793 3795 3797 3798 3798 3798 3798 3795 3793 3789 3788 3786 3783 3762 3752 3752 3752 3772 3822 3823 3824 3827 3827 3837 3844 3845 3845 3845 3845 3845 3845 3841 3837 3832 3828 3826 3826 3825 3824 3824 3816 3804 3796 3787 3777 3769 3766 3765 3760 3755 3748 3744 3740 3731 3729 3728 3728 3728 3728 3725 3715 3703 3683 3671 3671 3671 3678 3678 3678 3673 3673 3673 3674 3674 3678 3679 3682 3684 3684 3682 3680 3672 3669 3667 3666 3657 3630 3609 3600 3584 3555 3500 3446 3406 3354 3272 3161 2848 2612 0 2432 2405 2402 2401 2394 2381 2369 2355 2343 2334 2321 2300 0 0 0 0 0 1479 1471 1470 1468 1466 1464 1462 1462 1461 1461 1461 1461 1461 1461 1460 1460 1460 1460 1460 1460 1460 1460 1461 1461 1461 1461 1461 1461 1461 1461 1461 1461 1461 1461 1461 1461 1461 1461 1461 1461 1462 1462 1465 1466 1467 1467 1468 1468 1468 1468 1468 1465 1464 1464 1464 1462 1459 1456 1456 1456 1456 1458 1458 1459 1458 1458 1457 1457 1456 1456 1455 1455 1455 1455 1455 1455 1455 1455 1454 1454 1454 1454 1454 1454 1454 1453 1453 1453 1453 1452 1452 1452 1451 1450 1449 1448 1448 1448 1448 1449 1449 1449 1449 1448 1448 1448 1449 1449 1449 1449 1449 1449 1448 1447 1448 1449 1449 1449 1449 1449 1449 1449 1450 1450 1451 1451 1451 1451 1450 1450 1450 1450 1450 1450 1450 1449 1449 1449 1449 1449 1449 1450 1450 1450 1450 1450 1450 1450 1450 1451 1451 1451 1451 1450 1450 1450 1450 1450 1451 1451 1451 1451 1451 1451 1449 1449 1448 1448 1448 1447 1447 1447 1446 1445 1443 1443 1443 1442 1442 1442 1441 1441 1441 1441 1441 1441 1441 1441 1438 1437 1436 1435 1435 1435 1436 1439 1439 1440 1441 1442 1443 1443 1443 1443 1443 1443 1443 1444 1444 1444 1445 1445 1445 1445 1445 1445 0 0 0 0 0 1920 1931 1937 1942 1948 1952 1957 1960 1964 1966 1970 1971 1976 1979 1981 1983 1987 1993 1999 2004 2007 2010 2013 2017 2023 2026 2030 2031 2034 2038 2039 2039 2039 2031 2000 1975 1947 0 0 1828 1817 1805 1805 1805 1807 1809 1819 1826 1828 1828 1830 1830 1831 1831 1830 1830 1828 1817 1809 1797 1788 1777 1762 1751 1744 1737 1737 1737 1740 1748 1755 1756 1761 1764 1767 1767 1771 1773 1793 1803 1810 1813 1826 1846 1849 1854 1860 1869 1870 1877 1882 1882 1883 1888 1911 1920 1920 1924 1920 1920 1916 1905 1904 0 0 0 0 0 0 0 0 0 0 0 0 0 0 0 0 0 0 0 0 0 0 0 0 0 0 0 0 0 0 0 0 0 0 0 0 0 0 0 0 0 0 0 0 0 0
3059 3059 3122 3146 3170 3176 3176 3176 3179 3179 3183 3188 3196 3200 3201 3204 3210 3224 3247 3271 3272 3273 3277 3277 3278 3280 3283 3286 3290 3293 3299 3303 3305 3307 3307 3312 3325 3333 3344 3352 3365 3370 3380 3394 3407 3416 3417 3428 3437 3442 3447 3452 3461 3462 3462 3463 3466 3470 3473 3479 3482 3486 3489 3494 3501 3505 3509 3521 3532 3543 3548 3549 3552 3556 3557 3561 3566 3569 3573 3574 3575 3575 3577 3579 3586 3592 3597 3605 3613 3620 3623 3623 3623 3622 3606 3589 3589 3589 3601 3648 3673 3693 3697 3711 3715 3715 3716 3717 3717 3723 3733 3733 3733 3731 3726 3726 3726 3729 3731 3735 3739 3741 3743 3745 3746 3747 3748 3749 3752 3755 3761 3771 3780 3786 3790 3792 3794 3794 3794 3792 3790 3788 3788 3788 3790 3791 3791 3791 3792 3792 3792 3792 3792 3793 3795 3796 3798 3798 3798 3797 3793 3790 3788 3788 3783 3783 3762 3752 3752 3752 3772 3824 3824 3827 3827 3827 3837 3840 3842 3845 3845 3846 3846 3846 3844 3837 3832 3829 3829 3828 3827 3825 3822 3816 3804 3796 3787 3777 3769 3766 3765 3760 3755 3748 3744 3740 3729 3728 3728 3728 3728 3728 3725 3715 3703 3683 3678 3678 3678 3679 3679 3679 3673 3673 3673 3675 3676 3687 3687 3687 3687 3686 3682 3667 3648 3648 3648 3648 3648 3630 3609 3600 3584 3555 3501 3452 3430 3402 3351 3168 2872 2630 0 2425 2405 2403 2401 2394 2381 2369 2355 2343 2334 2321 2300 0 0 0 0 0 1482 1473 1471 1470 1467 1465 1465 1464 1464 1464 1463 1463 1463 1462 1462 1462 1462 1462 1462 1462 1462 1463 1463 1463 1463 1463 1463 1463 1463 1462 1462 1462 1462 1462 1462 1462 1463 1463 1463 1463 1463 1463 1465 1467 1468 1469 1469 1469 1469 1469 1468 1465 1464 1464 1464 1462 1460 1458 1458 1458 1458 1460 1460 1460 1460 1460 1459 1458 1458 1458 1457 1457 1456 1456 1456 1456 1456 1456 1456 1455 1455 1455 1455 1455 1455 1455 1455 1455 1455 1455 1455 1454 1453 1452 1452 1450 1450 1450 1450 1450 1450 1449 1449 1449 1449 1451 1451 1451 1450 1449 1449 1449 1449 1449 1450 1450 1453 1453 1453 1453 1452 1452 1452 1452 1452 1452 1452 1452 1452 1452 1452 1452 1452 1452 1452 1452 1451 1451 1451 1451 1452 1452 1452 1452 1452 1452 1452 1452 1452 1452 1452 1452 1453 1453 1453 1453 1453 1454 1454 1454 1454 1453 1453 1453 1453 1453 1451 1451 1449 1449 1448 1447 1447 1447 1447 1445 1445 1445 1445 1445 1444 1443 1442 1442 1442 1442 1442 1441 1438 1437 1436 1436 1436 1436 1438 1440 1441 1441 1443 1444 1444 1445 1445 1445 1445 1445 1446 1446 1446 1446 1446 1447 1447 1447 1447 1454 0 0 0 0 1895 1920 1931 1937 1942 1948 1952 1956 1959 1963 1966 1970 1974 1977 1980 1984 1987 1990 1994 1999 2004 2007 2010 2013 2017 2021 2024 2028 2031 2034 2037 2038 2038 2038 2037 2023 2002 1983 0 0 0 1827 1822 1810 1807 1806 1806 1807 1819 1826 1828 1830 1830 1831 1831 1830 1830 1828 1815 1800 1789 1782 1777 1762 1751 1744 1739 1739 1739 1745 1759 1766 1767 1769 1770 1773 1783 1784 1788 1797 1803 1811 1820 1845 1851 1857 1865 1871 1878 1879 1883 1887 1889 1892 1900 1921 1921 1921 1924 1920 1916 1916 1891 0 0 0 0 0 0 0 0 0 0 0 0 0 0 0 0 0 0 0 0 0 0 0 0 0 0 0 0 0 0 0 0 0 0 0 0 0 0 0 0 0 0 0 0 0 0 0
3134 3134 3159 3162 3170 3170 3175 3176 3180 3188 3192 3194 3197 3200 3202 3204 3210 3224 3247 3267 3274 3274 3277 3278 3278 3281 3283 3286 3290 3292 3295 3302 3309 3311 3314 3321 3333 3343 3349 3352 3365 3370 3377 3392 3405 3415 3421 3428 3436 3441 3444 3450 3458 3461 3462 3463 3466 3470 3473 3478 3482 3486 3489 3494 3501 3512 3518 3530 3542 3543 3548 3549 3553 3557 3563 3567 3572 3573 3576 3576 3576 3577 3577 3579 3584 3592 3597 3603 3616 3624 3624 3624 3623 3622 3607 3594 3594 3594 3601 3648 3667 3693 3696 3711 3715 3717 3717 3718 3722 3727 3733 3734 3734 3734 3732 3732 3732 3732 3732 3735 3740 3745 3746 3746 3746 3747 3748 3749 3752 3756 3761 3771 3780 3786 3790 3792 3794 3796 3796 3796 3796 3791 3791 3791 3790 3791 3791 3791 3792 3792 3792 3792 3792 3793 3795 3797 3798 3798 3798 3797 3790 3788 3788 3788 3784 3784 3762 3752 3752 3752 3761 3831 3831 3832 3832 3832 3837 3838 3841 3844 3846 3848 3848 3848 3845 3840 3833 3833 3831 3830 3829 3825 3822 3815 3802 3796 3787 3774 3769 3766 3765 3760 3755 3748 3744 3737 3729 3719 3715 3710 3710 3710 3706 3705 3692 3678 3678 3678 3678 3679 3679 3679 3673 3673 3673 3675 3692 3693 3693 3692 3694 3686 3682 3667 3638 3638 3638 3631 3631 3630 3607 3593 3581 3548 3497 3456 3430 3402 3351 3211 2921 2642 0 2424 2405 2402 2399 2393 2385 2369 2363 2348 2335 2321 2300 0 0 0 0 0 1494 1476 1472 1470 1468 1468 1466 1466 1466 1466 1466 1465 1465 1465 1464 1464 1464 1464 1464 1464 1465 1465 1465 1465 1465 1465 1465 1465 1465 1465 1465 1465 1465 1465 1465 1465 1465 1465 1465 1465 1465 1465 1467 1467 1468 1469 1470 1470 1470 1470 1469 1467 1465 1465 1465 1464 1462 1462 1461 1461 1461 1461 1461 1461 1461 1461 1460 1460 1459 1459 1458 1458 1457 1457 1457 1457 1457 1457 1457 1457 1457 1456 1456 1456 1456 1456 1456 1455 1455 1455 1455 1455 1455 1455 1455 1455 1455 1455 1455 1455 1454 1453 1453 1453 1453 1453 1452 1452 1451 1451 1451 1452 1452 1452 1452 1454 1455 1456 1456 1455 1454 1454 1454 1454 1454 1454 1454 1454 1454 1454 1454 1454 1454 1454 1454 1454 1454 1453 1453 1453 1453 1453 1453 1453 1453 1454 1454 1454 1455 1455 1455 1455 1455 1455 1455 1455 1455 1455 1455 1455 1455 1455 1455 1455 1454 1454 1453 1453 1451 1451 1450 1450 1450 1449 1448 1448 1447 1447 1447 1446 1445 1444 1443 1442 1442 1442 1442 1441 1439 1437 1437 1437 1438 1439 1440 1440 1442 1443 1444 1445 1446 1446 1447 1447 1447 1447 1447 1447 1447 1447 1447 1447 1447 1448 1448 1455 0 0 0 0 1897 1920 1931 1937 1942 1947 1952 1955 1959 1962 1966 1970 1975 1977 1980 1984 1988 1991 1994 1998 2004 2007 2011 2013 2017 2021 2024 2028 2031 2034 2037 2038 2040 2040 2040 2034 2021 2009 1988 0 0 1858 1843 1824 1812 1807 1807 1807 1807 1821 1822 1824 1828 1828 1828 1825 1818 1807 1795 1789 1788 1782 1777 1762 1754 1744 1744 1744 1745 1757 1766 1771 1772 1773 1774 1785 1790 1793 1799 1803 1806 1825 1833 1858 1862 1871 1880 1885 1890 1891 1894 1898 1899 1903 1912 1927 1927 1927 1927 1920 1920 1916 0 0 0 0 0 0 0 0 0 0 0 0 0 0 0 0 0 0 0 0 0 0 0 0 0 0 0 0 0 0 0 0 0 0 0 0 0 0 0 0 0 0 0 0 0 0 0 0
3172 3172 3170 3172 3172 3185 3185 3186 3186 3188 3195 3200 3201 3202 3204 3204 3210 3224 3246 3265 3274 3274 3275 3279 3283 3284 3286 3286 3290 3292 3295 3302 3310 3318 3321 3332 3346 3352 3353 3354 3358 3366 3377 3392 3405 3414 3421 3428 3436 3438 3439 3445 3453 3458 3462 3463 3466 3470 3473 3479 3479 3480 3489 3494 3501 3512 3526 3534 3542 3543 3549 3551 3554 3557 3564 3569 3572 3575 3577 3578 3578 3578 3578 3578 3581 3585 3591 3602 3617 3630 3630 3630 3623 3622 3614 3602 3602 3602 3621 3653 3667 3691 3695 3710 3713 3717 3719 3721 3723 3727 3733 3734 3735 3735 3735 3734 3734 3734 3734 3736 3741 3746 3746 3746 3746 3747 3749 3751 3754 3756 3760 3768 3776 3781 3787 3792 3794 3796 3796 3796 3796 3794 3792 3792 3791 3792 3793 3793 3793 3793 3792 3792 3792 3793 3795 3797 3798 3798 3798 3797 3790 3788 3788 3788 3788 3788 3760 3749 3749 3749 3756 3831 3831 3832 3832 3832 3837 3838 3841 3844 3847 3849 3849 3849 3846 3845 3840 3840 3838 3834 3830 3825 3824 3815 3802 3794 3787 3774 3769 3766 3766 3763 3752 3737 3729 3724 3720 3714 3707 3702 3702 3699 3699 3699 3687 3678 3678 3678 3678 3680 3680 3680 3680 3680 3680 3693 3695 3695 3695 3694 3694 3687 3687 3667 3638 3629 3629 3624 3621 3607 3584 3562 3544 3527 3496 3469 3430 3402 3351 3212 2941 2642 0 2419 2409 2400 2399 2393 2383 2374 2363 2352 2336 2322 2300 0 0 0 0 0 1510 1484 1476 1472 1469 1469 1469 1469 1468 1468 1467 1467 1466 1466 1466 1466 1466 1466 1466 1466 1467 1467 1467 1467 1467 1466 1466 1466 1466 1467 1467 1467 1467 1467 1467 1467 1467 1467 1467 1467 1467 1467 1467 1468 1469 1469 1471 1471 1471 1470 1469 1467 1467 1467 1466 1466 1466 1465 1464 1462 1462 1462 1462 1463 1463 1463 1463 1463 1462 1460 1460 1459 1459 1459 1459 1459 1458 1458 1458 1458 1458 1458 1457 1457 1457 1457 1457 1457 1457 1458 1458 1458 1458 1458 1458 1458 1458 1458 1458 1458 1456 1454 1454 1454 1454 1454 1454 1454 1454 1454 1454 1454 1454 1454 1454 1454 1456 1456 1456 1456 1455 1455 1455 1455 1457 1457 1457 1456 1456 1456 1456 1456 1456 1455 1455 1455 1455 1454 1455 1455 1455 1455 1455 1455 1456 1456 1456 1457 1458 1458 1458 1458 1457 1457 1457 1457 1457 1456 1456 1456 1456 1456 1456 1456 1455 1455 1455 1455 1454 1454 1453 1453 1452 1450 1450 1450 1449 1449 1448 1447 1446 1445 1444 1443 1443 1443 1443 1442 1440 1438 1438 1438 1440 1441 1441 1442 1443 1445 1446 1446 1447 1448 1448 1448 1448 1449 1449 1449 1449 1449 1449 1449 1448 1450 1450 1455 0 0 0 0 1901 1922 1930 1935 1941 1946 1951 1955 1959 1962 1966 1970 1975 1977 1980 1985 1988 1991 1994 1998 2002 2007 2011 2014 2019 2021 2024 2028 2031 2034 2037 2038 2041 2042 2042 2042 2031 2022 2009 1983 1946 1914 1882 1857 1831 1815 1807 1807 1807 1816 1816 1816 1813 1812 1811 1805 1801 1799 1795 1789 1788 1782 1780 1772 1765 1758 1758 1758 1759 1765 1772 1773 1773 1776 1783 1792 1793 1800 1813 1816 1822 1829 1838 1871 1875 1883 1889 1898 1902 1904 1905 1909 1913 1916 1933 1933 1933 1933 1933 1931 1922 1922 0 0 0 0 0 0 0 0 0 0 0 0 0 0 0 0 0 0 0 0 0 0 0 0 0 0 0 0 0 0 0 0 0 0 0 0 0 0 0 0 0 0 0 0 0 0 0 0
3172 3173 3172 3173 3173 3173 3174 3189 3189 3189 3201 3203 3203 3204 3204 3204 3206 3214 3237 3262 3274 3274 3274 3285 3291 3292 3292 3292 3292 3292 3294 3301 3310 3318 3329 3338 3349 3352 3354 3356 3358 3366 3377 3392 3405 3414 3421 3427 3430 3430 3432 3438 3446 3453 3458 3463 3466 3470 3473 3479 3479 3480 3488 3492 3501 3512 3526 3536 3540 3542 3542 3551 3554 3561 3565 3569 3572 3575 3577 3578 3578 3578 3578 3578 3579 3584 3589 3600 3617 3632 3639 3639 3639 3639 3626 3618 3618 3618 3649 3665 3667 3678 3692 3704 3711 3715 3720 3721 3724 3727 3733 3733 3733 3734 3734 3734 3734 3734 3734 3736 3741 3746 3746 3746 3746 3748 3750 3754 3755 3756 3760 3768 3773 3779 3784 3789 3793 3795 3796 3796 3795 3794 3794 3794 3794 3799 3799 3799 3797 3795 3794 3794 3794 3795 3798 3798 3801 3801 3801 3797 3791 3791 3791 3791 3791 3790 3757 3741 3741 3741 3750 3823 3829 3831 3832 3832 3837 3838 3841 3844 3848 3849 3849 3849 3848 3847 3846 3846 3840 3834 3831 3827 3825 3815 3802 3794 3787 3774 3769 3766 3766 3763 3750 3737 3729 3724 3720 3712 3703 3702 3702 3699 3699 3699 3687 3678 3678 3678 3681 3681 3681 3679 3679 3679 3688 3699 3699 3699 3697 3694 3688 3687 3681 3667 3637 3622 3609 3601 3598 3584 3559 3531 3507 3500 3496 3469 3430 3386 3340 3212 2941 2642 0 2419 2409 2400 2399 2394 2383 2377 2365 2353 2341 2323 2301 2275 0 0 0 0 0 1489 1478 1474 1472 1471 1471 1471 1470 1470 1469 1469 1469 1469 1469 1468 1469 1469 1469 1469 1469 1469 1469 1468 1468 1468 1469 1469 1470 1470 1470 1470 1470 1469 1469 1469 1469 1469 1469 1468 1469 1469 1469 1470 1471 1471 1471 1471 1471 1471 1469 1469 1469 1469 1469 1469 1467 1466 1465 1464 1463 1463 1463 1464 1465 1465 1465 1464 1463 1463 1462 1462 1462 1462 1462 1462 1461 1460 1460 1460 1460 1460 1460 1459 1459 1459 1459 1459 1459 1460 1460 1460 1461 1461 1461 1461 1460 1460 1459 1459 1458 1458 1457 1456 1456 1456 1456 1456 1456 1456 1456 1456 1456 1456 1456 1457 1457 1458 1458 1458 1456 1456 1456 1457 1458 1458 1458 1458 1458 1458 1457 1456 1456 1456 1456 1455 1455 1455 1455 1455 1455 1455 1456 1456 1457 1458 1459 1459 1459 1459 1459 1460 1460 1460 1460 1460 1459 1459 1458 1458 1458 1458 1458 1458 1458 1458 1457 1457 1456 1456 1456 1456 1456 1452 1452 1451 1451 1451 1449 1448 1447 1445 1444 1444 1444 1444 1444 1442 1441 1439 1439 1439 1440 1442 1442 1443 1445 1447 1447 1448 1449 1449 1449 1451 1451 1451 1452 1452 1452 1451 1451 1451 1450 1451 1451 1458 0 0 0 0 1904 1922 1930 1935 1941 1946 1951 1955 1959 1962 1966 1970 1974 1977 1981 1985 1988 1991 1994 1998 2001 2006 2011 2014 2019 2021 2024 2028 2031 2034 2038 2039 2041 2043 2043 2043 2042 2033 2024 2006 1978 1943 1910 1880 1859 1836 1821 1820 1817 1816 1816 1816 1813 1812 1811 1805 1801 1799 1795 1789 1788 1787 1782 1778 1771 1769 1768 1768 1769 1774 1778 1781 1782 1787 1795 1799 1806 1827 1831 1835 1840 1852 1862 1875 1885 1895 1901 1905 1914 1917 1917 1921 1923 1925 1933 1933 1933 1933 1933 1931 1929 0 0 0 0 0 0 0 0 0 0 0 0 0 0 0 0 0 0 0 0 0 0 0 0 0 0 0 0 0 0 0 0 0 0 0 0 0 0 0 0 0 0 0 0 0 0 0 0 0
3171 3174 3174 3178 3180 3180 3180 3186 3186 3189 3201 3203 3208 3208 3208 3211 3211 3212 3222 3245 3265 3277 3285 3291 3292 3292 3294 3294 3294 3294 3296 3301 3310 3320 3329 3340 3349 3352 3354 3356 3358 3366 3378 3392 3405 3413 3417 3420 3423 3429 3432 3437 3442 3448 3452 3458 3461 3468 3473 3477 3479 3480 3488 3492 3501 3515 3527 3536 3539 3539 3542 3551 3558 3563 3566 3570 3571 3575 3577 3578 3578 3578 3578 3578 3579 3584 3589 3600 3619 3632 3643 3650 3650 3650 3642 3642 3642 3649 3660 3667 3670 3678 3690 3698 3708 3714 3721 3722 3725 3727 3727 3730 3732 3733 3734 3734 3734 3734 3734 3736 3741 3746 3746 3746 3746 3748 3752 3756 3757 3758 3760 3768 3773 3779 3784 3789 3793 3793 3793 3793 3793 3793 3794 3794 3797 3801 3801 3801 3801 3799 3797 3797 3797 3798 3799 3801 3802 3802 3802 3798 3798 3798 3804 3804 3804 3790 3757 3727 3727 3727 3750 3810 3824 3827 3827 3832 3839 3840 3841 3844 3848 3849 3849 3849 3849 3849 3849 3849 3847 3842 3838 3833 3829 3818 3804 3794 3789 3780 3771 3770 3766 3763 3750 3737 3729 3724 3720 3712 3701 3701 3701 3699 3699 3699 3687 3681 3681 3681 3680 3680 3680 3680 3680 3683 3696 3699 3699 3699 3697 3694 3689 3687 3680 3667 3637 3614 3603 3590 3582 3574 3559 3504 3492 3487 3484 3469 3420 3377 3338 3211 2941 2639 0 2416 2409 2401 2398 2396 2385 2378 2368 2358 2341 2323 2305 2277 0 0 0 0 0 1491 1480 1475 1474 1474 1474 1474 1472 1472 1471 1471 1471 1471 1471 1472 1472 1472 1472 1473 1473 1473 1473 1472 1472 1472 1472 1472 1472 1472 1472 1472 1472 1471 1471 1471 1471 1471 1471 1471 1471 1471 1472 1472 1472 1472 1472 1472 1472 1472 1471 1470 1470 1470 1470 1470 1470 1469 1468 1468 1468 1468 1468 1468 1467 1467 1466 1465 1465 1465 1465 1465 1465 1464 1464 1463 1461 1460 1460 1460 1460 1460 1460 1460 1460 1460 1460 1460 1461 1461 1461 1461 1461 1462 1463 1463 1463 1461 1460 1459 1459 1459 1459 1459 1459 1457 1457 1457 1457 1458 1458 1458 1459 1460 1461 1461 1461 1460 1459 1459 1459 1460 1460 1461 1462 1462 1462 1462 1460 1460 1459 1459 1458 1457 1457 1457 1457 1456 1456 1456 1456 1457 1457 1458 1459 1460 1460 1461 1461 1462 1462 1462 1462 1462 1462 1461 1461 1461 1460 1460 1460 1460 1460 1460 1460 1460 1459 1459 1459 1459 1458 1458 1456 1456 1455 1454 1454 1453 1452 1449 1447 1446 1446 1446 1445 1445 1444 1442 1442 1442 1442 1443 1443 1443 1443 1444 1448 1450 1450 1450 1450 1451 1452 1452 1453 1453 1453 1454 1454 1454 1454 1454 1454 1454 1455 1464 0 0 0 0 1907 1922 1930 1935 1941 1946 1951 1955 1957 1962 1965 1969 1973 1977 1981 1985 1989 1992 1995 1998 2001 2005 2010 2014 2019 2021 2024 2028 2031 2034 2038 2040 2042 2044 2045 2045 2044 2043 2036 2023 2003 1972 1944 1921 1897 1870 1860 1847 1832 1820 1817 1816 1813 1812 1811 1805 1801 1800 1799 1796 1794 1789 1789 1789 1789 1789 1785 1783 1783 1783 1783 1792 1798 1798 1805 1813 1824 1843 1845 1847 1855 1864 1873 1883 1889 1901 1907 1915 1923 1932 1932 1938 1938 1939 1939 1941 1941 1941 1941 1941 1935 0 0 0 0 0 0 0 0 0 0 0 0 0 0 0 0 0 0 0 0 0 0 0 0 0 0 0 0 0 0 0 0 0 0 0 0 0 0 0 0 0 0 0 0 0 0 0 0 0
3168 3173 3173 3174 3182 3184 3184 3187 3187 3189 3201 3205 3208 3213 3213 3213 3214 3214 3222 3245 3263 3277 3285 3291 3292 3292 3294 3294 3294 3295 3296 3301 3310 3320 3329 3340 3349 3354 3356 3358 3362 3372 3378 3391 3404 3412 3415 3417 3423 3429 3432 3437 3442 3445 3446 3448 3451 3460 3470 3477 3478 3481 3487 3492 3501 3515 3527 3536 3537 3539 3542 3551 3560 3566 3566 3568 3569 3570 3577 3577 3577 3577 3577 3577 3579 3584 3589 3600 3619 3633 3644 3655 3655 3655 3655 3650 3650 3650 3666 3671 3675 3678 3690 3695 3705 3712 3721 3724 3725 3727 3727 3727 3728 3730 3731 3731 3731 3731 3731 3735 3741 3745 3745 3745 3746 3750 3758 3761 3761 3762 3762 3768 3773 3779 3784 3788 3791 3791 3791 3791 3791 3792 3794 3797 3798 3803 3805 3805 3805 3803 3801 3800 3800 3800 3800 3802 3803 3804 3805 3806 3806 3807 3807 3807 3807 3790 3757 3728 3728 3728 3750 3804 3820 3820 3824 3832 3840 3843 3847 3852 3853 3853 3853 3849 3849 3849 3852 3852 3852 3852 3848 3843 3836 3825 3809 3802 3798 3788 3780 3773 3771 3766 3750 3741 3735 3730 3722 3712 3701 3701 3701 3714 3714 3714 3698 3698 3688 3688 3688 3685 3683 3683 3683 3693 3702 3705 3705 3705 3701 3694 3689 3687 3674 3660 3637 3611 3599 3590 3581 3572 3539 3501 3471 3471 3469 3454 3415 3368 3323 3180 2918 2639 0 2414 2399 2397 2396 2396 2385 2378 2368 2358 2341 2322 2301 2285 0 0 0 0 0 1492 1480 1476 1476 1475 1475 1475 1474 1473 1473 1473 1473 1474 1474 1475 1475 1475 1475 1475 1475 1476 1476 1476 1475 1475 1475 1475 1475 1476 1476 1476 1475 1475 1474 1473 1473 1473 1473 1473 1473 1473 1473 1474 1475 1475 1475 1474 1474 1473 1473 1472 1472 1472 1472 1471 1471 1470 1468 1468 1468 1468 1470 1470 1470 1469 1467 1466 1465 1465 1465 1466 1466 1466 1464 1464 1461 1461 1461 1460 1461 1460 1460 1460 1460 1460 1460 1461 1462 1462 1463 1463 1463 1463 1463 1464 1464 1464 1464 1463 1463 1462 1462 1461 1461 1461 1461 1461 1461 1461 1461 1462 1462 1464 1465 1465 1465 1464 1462 1462 1462 1462 1462 1462 1462 1462 1462 1462 1462 1462 1462 1461 1461 1460 1459 1458 1458 1457 1457 1457 1458 1458 1459 1461 1461 1461 1462 1463 1463 1463 1463 1463 1464 1464 1464 1464 1463 1463 1462 1462 1462 1462 1462 1462 1462 1462 1462 1462 1462 1461 1461 1461 1460 1458 1458 1457 1457 1456 1455 1453 1451 1449 1448 1448 1448 1447 1446 1445 1445 1445 1446 1446 1446 1446 1446 1447 1451 1452 1452 1453 1453 1453 1453 1454 1455 1455 1455 1456 1456 1457 1457 1457 1457 1457 1458 0 0 0 0 1883 1907 1922 1930 1939 1943 1946 1951 1955 1957 1961 1965 1969 1972 1977 1981 1985 1989 1992 1995 1998 2001 2005 2009 2014 2018 2021 2024 2028 2031 2034 2038 2041 2044 2047 2048 2048 2048 2048 2047 2036 2023 2004 1980 1957 1936 1911 1892 1875 1864 1851 1837 1837 1833 1828 1824 1817 1809 1809 1808 1808 1808 1807 1806 1804 1801 1800 1800 1800 1800 1800 1801 1803 1803 1808 1820 1830 1844 1855 1860 1871 1872 1878 1882 1890 1898 1906 1912 1918 1929 1942 1949 1949 1949 1949 1948 1948 1948 1946 1946 1941 0 0 0 0 0 0 0 0 0 0 0 0 0 0 0 0 0 0 0 0 0 0 0 0 0 0 0 0 0 0 0 0 0 0 0 0 0 0 0 0 0 0 0 0 0 0 0 0 0 0
3127 3127 3144 3173 3182 3184 3184 3191 3192 3194 3203 3207 3210 3213 3216 3216 3222 3222 3222 3245 3262 3277 3285 3289 3289 3290 3290 3292 3292 3296 3296 3301 3309 3319 3329 3340 3349 3351 3354 3358 3362 3372 3378 3391 3404 3411 3414 3414 3421 3424 3431 3437 3441 3443 3443 3446 3449 3456 3466 3472 3478 3481 3487 3492 3500 3512 3527 3534 3537 3539 3544 3551 3560 3566 3566 3566 3568 3569 3573 3575 3576 3576 3577 3577 3581 3589 3592 3607 3620 3634 3644 3655 3661 3663 3663 3664 3664 3668 3678 3688 3690 3691 3691 3695 3703 3712 3722 3725 3727 3727 3727 3726 3725 3725 3725 3728 3729 3730 3730 3734 3740 3743 3744 3745 3748 3753 3760 3763 3764 3766 3766 3771 3776 3782 3785 3786 3789 3789 3789 3789 3790 3792 3796 3798 3802 3804 3809 3809 3809 3809 3805 3803 3803 3803 3803 3803 3804 3804 3806 3806 3811 3817 3817 3817 3810 3790 3767 3741 3740 3740 3740 3804 3820 3820 3824 3832 3844 3849 3853 3856 3857 3857 3857 3853 3853 3853 3854 3857 3858 3858 3858 3850 3846 3833 3813 3808 3804 3797 3790 3778 3772 3766 3752 3742 3736 3731 3724 3712 3706 3706 3706 3716 3716 3716 3707 3705 3702 3698 3691 3686 3686 3686 3686 3693 3702 3705 3708 3708 3706 3705 3696 3687 3674 3659 3637 3611 3599 3590 3581 3567 3534 3487 3461 3453 3452 3439 3409 3356 3303 3139 2902 2639 0 2414 2401 2397 2397 2397 2386 2378 2368 2358 2339 2318 2300 2285 0 0 0 0 0 1494 1481 1477 1477 1477 1477 1476 1476 1476 1476 1476 1476 1476 1477 1477 1477 1477 1476 1476 1476 1477 1480 1480 1480 1479 1477 1477 1477 1478 1479 1479 1479 1478 1477 1476 1476 1475 1475 1475 1475 1475 1475 1476 1476 1476 1476 1476 1476 1476 1475 1475 1474 1473 1473 1473 1472 1471 1471 1470 1470 1470 1470 1470 1470 1469 1468 1467 1467 1467 1467 1467 1467 1467 1465 1464 1464 1463 1462 1462 1461 1461 1461 1461 1461 1462 1462 1463 1463 1463 1464 1464 1464 1465 1465 1465 1466 1466 1466 1466 1466 1466 1465 1464 1464 1464 1463 1463 1463 1463 1464 1464 1465 1466 1466 1467 1467 1466 1465 1465 1464 1464 1464 1464 1464 1464 1464 1464 1464 1464 1464 1464 1464 1463 1461 1459 1459 1459 1459 1459 1460 1460 1463 1463 1463 1464 1464 1464 1465 1465 1465 1465 1466 1466 1466 1466 1465 1465 1464 1464 1464 1465 1465 1465 1465 1465 1465 1465 1465 1464 1464 1463 1463 1462 1462 1462 1460 1460 1459 1456 1454 1453 1452 1452 1451 1450 1449 1448 1448 1448 1448 1448 1448 1448 1448 1451 1454 1454 1455 1456 1456 1456 1456 1456 1457 1457 1457 1457 1458 1458 1460 1460 1460 1460 1463 0 0 0 0 1883 1908 1922 1930 1939 1943 1947 1951 1954 1957 1961 1965 1968 1972 1977 1981 1985 1989 1992 1995 1998 2001 2004 2008 2012 2016 2020 2023 2026 2030 2034 2038 2041 2044 2047 2049 2050 2052 2052 2052 2044 2038 2030 2009 1986 1965 1942 1925 1918 1907 1888 1869 1865 1860 1851 1845 1837 1830 1828 1828 1827 1827 1827 1816 1806 1806 1806 1806 1808 1808 1808 1808 1808 1813 1827 1836 1844 1852 1861 1875 1880 1883 1886 1888 1894 1902 1910 1916 1921 1932 1944 1949 1949 1949 1953 1960 1964 1964 1964 1961 0 0 0 0 0 0 0 0 0 0 0 0 0 0 0 0 0 0 0 0 0 0 0 0 0 0 0 0 0 0 0 0 0 0 0 0 0 0 0 0 0 0 0 0 0 0 0 0 0 0 0
3086 3086 3127 3154 3181 3182 3186 3196 3203 3207 3208 3208 3211 3216 3224 3224 3228 3231 3234 3246 3262 3276 3285 3285 3288 3289 3289 3292 3292 3295 3296 3302 3309 3318 3327 3335 3337 3342 3353 3358 3362 3372 3378 3391 3400 3404 3410 3411 3420 3424 3431 3437 3440 3441 3442 3445 3449 3455 3464 3470 3476 3481 3487 3492 3500 3512 3526 3534 3537 3539 3544 3551 3560 3562 3563 3563 3563 3566 3566 3572 3576 3576 3577 3578 3584 3593 3601 3610 3621 3634 3645 3655 3662 3665 3668 3668 3677 3685 3691 3695 3697 3697 3700 3700 3703 3713 3722 3725 3727 3727 3727 3726 3725 3725 3725 3726 3727 3728 3729 3732 3736 3740 3742 3745 3749 3756 3762 3765 3767 3767 3767 3775 3782 3785 3786 3787 3787 3788 3788 3789 3789 3792 3797 3800 3803 3807 3810 3814 3814 3814 3809 3804 3804 3804 3805 3805 3806 3806 3806 3806 3811 3820 3820 3820 3817 3795 3767 3741 3740 3740 3740 3804 3820 3820 3824 3835 3845 3853 3854 3856 3858 3858 3858 3856 3855 3855 3855 3857 3858 3858 3858 3858 3853 3841 3821 3811 3806 3800 3792 3783 3776 3770 3754 3744 3741 3736 3725 3715 3706 3706 3706 3716 3716 3716 3715 3714 3713 3702 3693 3688 3688 3688 3688 3696 3703 3705 3708 3709 3708 3705 3705 3688 3674 3659 3637 3611 3599 3594 3582 3572 3534 3487 3461 3436 3429 3416 3380 3345 3303 3139 2902 2641 0 2414 2401 2397 2397 2397 2386 2378 2368 2350 2324 2313 2300 2285 0 0 0 0 0 1496 1483 1482 1481 1480 1480 1480 1479 1479 1478 1478 1478 1478 1478 1478 1478 1478 1478 1478 1479 1480 1482 1482 1482 1481 1479 1479 1479 1479 1480 1480 1480 1480 1479 1478 1477 1477 1477 1477 1477 1477 1477 1477 1477 1477 1478 1478 1478 1477 1476 1476 1476 1476 1476 1475 1475 1475 1475 1474 1474 1474 1473 1473 1472 1471 1471 1470 1469 1469 1469 1469 1468 1468 1467 1465 1464 1463 1462 1462 1461 1461 1461 1461 1461 1462 1463 1463 1464 1465 1466 1466 1466 1467 1467 1467 1467 1467 1467 1468 1468 1468 1467 1467 1466 1466 1466 1466 1466 1467 1467 1468 1468 1468 1469 1469 1468 1468 1467 1467 1466 1466 1465 1465 1465 1465 1465 1465 1465 1466 1467 1467 1467 1466 1463 1461 1461 1461 1461 1462 1463 1464 1464 1464 1466 1466 1466 1467 1467 1467 1468 1468 1468 1468 1468 1468 1468 1468 1467 1467 1467 1467 1467 1467 1468 1468 1468 1466 1466 1466 1466 1466 1466 1466 1466 1465 1464 1463 1462 1460 1459 1459 1458 1458 1456 1454 1453 1452 1451 1451 1451 1451 1452 1452 1452 1454 1455 1456 1457 1458 1458 1458 1459 1459 1458 1458 1458 1458 1459 1461 1461 1461 1463 1464 1466 0 0 0 1834 1884 1911 1923 1931 1939 1943 1947 1951 1954 1957 1960 1964 1968 1972 1977 1981 1984 1989 1991 1994 1998 2001 2004 2008 2012 2015 2019 2022 2024 2028 2033 2037 2041 2044 2047 2049 2050 2052 2052 2052 2050 2045 2039 2027 2005 1989 1973 1961 1947 1936 1922 1909 1888 1882 1878 1871 1865 1859 1854 1854 1853 1852 1848 1836 1830 1830 1830 1837 1837 1837 1825 1825 1825 1830 1837 1846 1848 1852 1868 1879 1891 1891 1891 1893 1898 1905 1915 1920 1925 1936 1945 1949 1949 1954 1965 1968 1978 1978 1978 1961 0 0 0 0 0 0 0 0 0 0 0 0 0 0 0 0 0 0 0 0 0 0 0 0 0 0 0 0 0 0 0 0 0 0 0 0 0 0 0 0 0 0 0 0 0 0 0 0 0 0 0
