0 1575 1563 1563 1563 0 0 0 0 0 0 0 0 0 0 0 0 0 0 0 0 0 0 0 0 0 0 0 0 0 0 0 0 0 0 0 0 0 0 0 0 0 0 0 0 0 0 0 0 0 0 0 0 0 0 0 0 0 0 0 0 0 0 0 0 0 0 0 0 0 0 0 0 0 0 0 0 0 0 0 0 0 0 0 0 0 1911 1911 1918 1921 1922 1932 1939 1950 1954 1958 1962 1967 1968 1971 1974 1974 1974 1975 1975 1983 1990 1997 1997 1998 1999 2000 2013 2023 2028 2029 2031 2031 2032 2038 2051 2056 2058 2072 2087 2101 2107 2134 2156 2159 2161 2167 2175 2180 2190 2199 2203 2204 2205 2207 2214 2221 2227 2230 2233 2237 2243 2250 2257 2266 2275 2283 2290 2291 2294 2296 2298 2301 2302 2310 2318 2324 2332 2335 2344 2353 2364 2377 2384 2392 2395 2401 2411 2419 2423 2426 2429 2434 2444 2453 2460 2464 2470 2474 2482 2487 2500 2507 2511 2511 2513 2518 2523 2526 2527 2529 2532 2537 2541 2544 2547 2550 2552 2557 2561 2561 2561 2560 2559 2559 2559 2559 2565 2577 2587 2587 2587 2576 2563 2526 0 0 0 0 2569 2665 2675 2675 2675 2669 2656 2621 2539 0 0 0 2052 2035 2016 2002 1993 1981 1968 1960 1953 1946 1943 1938 1932 1925 1920 1914 1910 1906 1904 1902 1900 1897 1894 1890 1888 1886 1884 1883 1881 1880 1877 1876 1874 1872 1871 1869 1869 1869 1868 1867 1867 1866 1865 1864 1863 1862 1862 1862 1861 1861 1861 1861 1861 1861 1861 1861 1861 1861 1861 1861 1861 1862 1863 1863 1864 1864 1864 1865 1866 1868 1870 1872 1873 1873 1874 1875 1876 1878 1879 1881 1882 1883 1884 1886 1889 1892 1894 1895 1897 1898 1900 1903 1904 1908 1910 1914 1916 1917 1919 1920 1920 1922 1925 1927 1929 1932 1935 1937 1939 1944 1950 1956 1960 1965 1969 1974 1974 1974 1977 1977 1977 1977 1972 1958 0 0 0 0 0 0 1929 1929 1929 1915 1901 1898 1892 1889 1885 1882 1878 1875 1871 1868 1865 1860 1853 1851 1849 1845 1842 1838 1836 1834 1832 1829 1825 1822 1819 1815 1810 1808 1805 1802 1798 1795 1792 1790 1788 1784 1781 1778 1775 1775 1772 1770 1770 1769 1768 1767 1766 1766 1765 1763 1762 1761 1761 1760 1759 1758 1757 1756 1755 1755 1753 1753 1752 1752 1751 1751 1751 1750 1749 1748 1748 1746 1746 1745 1744 1744 1744 1743 1742 1742 1742 1742 1742 1742 1742 1742 1742 1743 1743 1743 1745 1746 1746 1746 1747 1748 1748 1749 1750 1751 1752 1753 1754 1754 1755 1755 1756 1758 1758 1759 1761 1762 1762 1763 1763 1765 1766 1767 1768 1769 1770 1770 1770 1778 1805 1824 1828 0 0 0 0 0 0 0 0 0 0 0 0 2103 2098 2082 2062 2046 2027 2027 2027 2039 2047 2047 2047 2038 2030 2029 0 0 0 0 0 0 0 0 0 0 0 0 0 0 0 0 0 0 0 0 0 0 0 0 0 0 0 0 0 0 0 0 0 2062 2071 2071 2071 2071 2071 2078 2078 2078 2066 2056 2056 2056 2056 2056 2056 2041 1988 1960 1942 1930 1929 1922 1912 1885 1863 0 0 0 0 0 0 0 0 0 0 0 0 0 0 1081 1059 1054 1051 1048 1046 1040 1030 1024 1022 1018 1017 1014 1012 1008 1006 1004 1003 1003 1003 1001 999 998 996 994 991 985 976 973 966 960 959 957 957 957 959 967 978 985 992 1000 1014 1014
1575 1589 0 0 0 0 0 0 0 0 0 0 0 0 0 0 0 0 0 0 0 0 0 0 0 0 0 0 0 0 0 0 0 0 0 0 0 0 0 0 0 0 0 0 0 0 0 0 0 0 0 0 0 0 0 0 0 0 0 0 0 0 0 0 0 0 0 0 0 0 0 0 0 0 0 0 0 0 0 0 0 0 0 0 0 0 0 0 1903 1908 1920 1928 1938 1944 1952 1957 1962 1964 1968 1970 1973 1973 1973 1974 1974 1974 1983 1989 1989 1990 1990 1992 2002 2014 2025 2025 2029 2030 2032 2038 2051 2059 2069 2073 2096 2113 2122 2149 2156 2159 2161 2167 2175 2180 2190 2199 2200 2201 2202 2207 2214 2221 2227 2230 2233 2237 2243 2250 2260 2270 2280 2289 2292 2294 2295 2296 2298 2301 2302 2310 2318 2324 2341 2346 2351 2360 2368 2378 2385 2392 2395 2401 2408 2415 2420 2424 2426 2434 2442 2453 2460 2464 2468 2469 2476 2484 2497 2501 2504 2507 2511 2517 2523 2525 2526 2529 2532 2535 2538 2542 2545 2548 2551 2554 2557 2557 2557 2556 2556 2556 2556 2559 2565 2577 2592 2592 2592 2579 2563 2526 0 0 0 0 2577 2662 2674 2675 2675 2675 2661 2630 2548 0 0 0 2057 2035 2016 2002 1994 1987 1977 1963 1953 1946 1942 1938 1933 1925 1920 1915 1912 1908 1904 1902 1900 1897 1893 1890 1888 1886 1884 1882 1881 1879 1877 1875 1873 1872 1870 1869 1869 1868 1867 1867 1866 1866 1864 1864 1863 1863 1862 1861 1861 1861 1861 1861 1861 1860 1860 1861 1861 1861 1861 1861 1862 1862 1862 1863 1863 1863 1864 1865 1866 1868 1870 1871 1873 1873 1873 1875 1876 1878 1879 1881 1882 1883 1885 1886 1889 1892 1895 1897 1899 1901 1902 1904 1906 1909 1912 1915 1916 1918 1919 1921 1922 1924 1925 1928 1929 1932 1935 1937 1941 1946 1950 1956 1963 1967 1971 1975 1978 1979 1979 1979 1979 1977 1972 1960 0 0 0 0 0 0 1931 1931 1931 1922 1907 1898 1892 1889 1885 1882 1878 1875 1871 1871 1867 1864 1860 1854 1850 1844 1838 1836 1836 1833 1831 1829 1825 1822 1819 1815 1813 1808 1805 1802 1798 1795 1793 1792 1790 1787 1783 1780 1777 1775 1774 1774 1772 1770 1769 1769 1768 1767 1766 1764 1763 1761 1761 1760 1759 1758 1757 1756 1755 1753 1753 1753 1752 1751 1751 1751 1750 1750 1749 1748 1747 1746 1746 1745 1744 1743 1743 1742 1742 1742 1742 1741 1741 1741 1741 1741 1741 1741 1741 1741 1742 1744 1744 1745 1746 1747 1747 1748 1749 1750 1751 1752 1753 1754 1754 1755 1755 1756 1757 1758 1759 1760 1760 1760 1761 1764 1765 1765 1766 1768 1769 1769 1770 1792 1817 1841 1849 0 0 0 0 0 0 0 0 0 0 0 2091 2088 2088 2072 2052 2018 1995 1995 1995 2011 2047 2047 2047 2038 2030 0 0 0 0 0 0 0 0 0 0 0 0 0 0 0 0 0 0 0 0 0 0 0 0 0 0 0 0 0 0 0 0 2063 2065 2102 2106 2106 2106 2096 2096 2095 2092 2088 2067 2061 2061 2058 2058 2056 2056 2041 0 0 1942 1930 1929 1922 1912 1885 0 0 0 0 0 0 0 0 0 0 0 0 0 0 0 1070 1051 1043 1040 1037 1034 1029 1023 1018 1015 1013 1013 1011 1009 1007 1004 1002 1002 1001 1001 1000 997 994 993 991 991 986 980 977 969 961 959 958 956 956 958 959 973 980 985 997 1010 1010
0 1658 1666 0 0 0 0 0 0 0 0 0 0 0 0 0 0 0 0 0 0 0 0 0 0 0 0 0 0 0 0 0 0 0 0 0 0 0 0 0 0 0 0 0 0 0 0 0 0 0 0 0 0 0 0 0 0 0 0 0 0 0 0 0 0 0 0 0 0 0 0 0 0 0 0 0 0 0 0 0 0 0 0 0 0 0 0 0 0 1894 1912 1928 1930 1939 1949 1955 1962 1964 1964 1969 1972 1972 1972 1972 1972 1972 1975 1977 1980 1981 1984 1986 1995 2014 2025 2025 2029 2030 2032 2038 2071 2085 2093 2097 2119 2136 2145 2152 2156 2159 2161 2167 2175 2181 2186 2192 2195 2198 2202 2207 2217 2222 2227 2232 2234 2237 2244 2251 2260 2272 2284 2290 2292 2295 2295 2296 2298 2306 2317 2330 2338 2344 2349 2353 2359 2364 2372 2378 2385 2392 2395 2400 2406 2412 2418 2421 2426 2432 2440 2448 2458 2462 2466 2467 2472 2479 2488 2493 2497 2504 2510 2517 2522 2524 2525 2528 2532 2535 2538 2541 2543 2546 2549 2552 2554 2554 2554 2555 2556 2556 2557 2563 2570 2582 2592 2592 2592 2584 2573 2526 0 0 0 0 2584 2659 2673 2675 2675 2675 2668 2644 2605 0 0 0 0 2037 2016 2002 1995 1987 1977 1965 1953 1946 1942 1938 1933 1926 1920 1915 1912 1908 1904 1902 1900 1896 1893 1889 1887 1885 1884 1882 1879 1877 1876 1874 1873 1871 1870 1869 1868 1867 1867 1867 1866 1865 1864 1863 1863 1862 1862 1861 1861 1861 1861 1861 1861 1861 1861 1861 1861 1861 1861 1861 1862 1862 1862 1863 1863 1863 1864 1865 1866 1868 1870 1871 1872 1873 1873 1875 1876 1878 1879 1881 1883 1883 1885 1887 1889 1892 1895 1898 1901 1903 1904 1907 1908 1911 1913 1916 1918 1918 1921 1922 1923 1925 1925 1928 1930 1932 1935 1940 1944 1948 1954 1961 1964 1968 1972 1975 1979 1980 1982 1982 1982 1977 1972 1962 0 0 0 0 0 0 1931 1931 1931 1928 1918 1902 1892 1889 1884 1881 1877 1874 1873 1871 1868 1865 1861 1855 1849 1844 1838 1836 1836 1833 1831 1829 1825 1822 1819 1816 1813 1811 1807 1803 1800 1799 1797 1795 1792 1789 1786 1783 1781 1779 1777 1776 1776 1775 1773 1771 1769 1767 1766 1765 1763 1763 1761 1760 1759 1758 1757 1756 1755 1753 1753 1752 1751 1750 1750 1750 1750 1749 1749 1748 1747 1746 1746 1745 1743 1743 1742 1742 1742 1742 1741 1741 1741 1740 1740 1740 1739 1738 1738 1738 1739 1740 1742 1743 1744 1745 1746 1747 1748 1749 1750 1750 1751 1752 1752 1753 1753 1754 1755 1756 1758 1758 1758 1758 1760 1761 1762 1762 1764 1766 1768 1769 1780 1800 1824 1857 1877 0 0 0 0 0 0 0 0 0 0 2078 2068 2066 2062 2031 2014 2002 1971 0 0 0 0 0 0 0 0 0 0 0 0 0 0 0 0 0 0 0 0 0 0 0 0 0 0 0 0 0 0 0 0 0 0 0 0 0 0 0 2024 2063 2065 2102 2106 2109 2116 2116 2117 2117 2117 2102 2067 2061 2061 2058 2058 2056 2056 0 0 0 0 0 0 0 0 0 0 0 0 0 0 0 0 0 0 0 0 0 0 0 0 1066 1041 1033 1029 1026 1024 1019 1015 1013 1011 1010 1009 1007 1006 1004 1001 999 999 999 999 997 995 992 991 991 990 987 985 979 973 965 959 956 953 953 953 954 965 971 982 993 1006 1006
1660 1660 1667 1685 1691 1691 1691 0 0 0 0 0 0 0 0 0 0 0 0 0 0 0 0 0 0 0 0 0 0 0 0 0 0 0 0 0 0 0 0 0 0 0 0 0 0 0 0 0 0 0 0 0 0 0 0 0 0 0 0 0 0 0 0 1740 1740 0 0 0 0 0 0 0 0 0 0 0 0 0 0 0 0 0 0 0 0 0 0 0 0 0 0 1905 1918 1934 1944 1952 1957 1961 1961 1962 1962 1962 1963 1966 1968 1968 1968 1968 1971 1977 1981 1986 1995 2014 2025 2025 2030 2032 2032 2052 2072 2086 2113 2120 2124 2136 2147 2152 2155 2159 2161 2167 2175 2181 2185 2187 2192 2196 2202 2210 2217 2222 2226 2232 2234 2238 2245 2253 2261 2279 2291 2294 2297 2297 2299 2302 2310 2322 2329 2336 2344 2350 2352 2354 2360 2366 2372 2377 2384 2392 2395 2400 2404 2411 2416 2420 2425 2431 2437 2442 2452 2460 2462 2465 2466 2472 2479 2486 2490 2504 2509 2517 2522 2523 2525 2528 2531 2532 2534 2538 2540 2543 2545 2547 2549 2552 2554 2554 2556 2559 2563 2570 2574 2583 2592 2592 2592 2584 2579 2543 0 0 0 0 2589 2646 2673 2678 2683 2683 2692 2692 2692 2651 0 0 0 2048 2028 2007 1995 1988 1977 1966 1953 1945 1942 1938 1933 1926 1921 1916 1912 1908 1905 1902 1900 1896 1892 1889 1887 1885 1883 1882 1879 1877 1876 1874 1872 1871 1870 1868 1867 1867 1867 1866 1865 1865 1864 1863 1863 1862 1862 1861 1861 1861 1861 1861 1861 1861 1861 1861 1861 1861 1861 1861 1861 1862 1862 1862 1863 1863 1864 1865 1866 1868 1870 1870 1871 1873 1874 1875 1876 1878 1879 1881 1883 1884 1885 1887 1891 1894 1897 1900 1901 1903 1905 1907 1909 1912 1914 1917 1919 1921 1922 1924 1927 1927 1929 1930 1932 1935 1942 1946 1948 1952 1959 1961 1965 1968 1972 1975 1979 1980 1982 1982 1982 1976 1972 1962 0 0 0 0 0 0 1931 1934 1934 1934 1926 1916 1902 1889 1884 1881 1877 1874 1873 1871 1871 1866 1861 1857 1850 1844 1838 1836 1836 1833 1831 1829 1825 1822 1819 1816 1815 1812 1809 1807 1803 1802 1800 1797 1794 1791 1788 1785 1782 1780 1778 1776 1776 1775 1774 1772 1769 1768 1766 1765 1764 1763 1762 1761 1759 1758 1757 1756 1755 1753 1753 1752 1751 1750 1750 1750 1750 1749 1748 1748 1747 1746 1745 1744 1742 1742 1741 1740 1740 1740 1740 1740 1740 1740 1739 1738 1736 1736 1736 1736 1737 1739 1740 1741 1742 1743 1744 1746 1747 1748 1749 1749 1750 1750 1750 1751 1752 1753 1753 1755 1755 1756 1757 1757 1758 1758 1758 1758 1761 1762 1764 1769 1782 1809 1834 1873 1877 0 0 0 0 0 0 0 0 0 0 2048 2047 2044 2030 1993 0 0 0 0 0 0 0 0 0 0 0 0 0 0 0 0 0 0 0 0 0 0 0 0 0 0 0 0 0 0 0 0 0 0 0 0 0 0 0 0 0 1986 2024 2063 2065 2102 2106 2115 2116 2116 2122 2122 2122 2102 2066 2061 2061 2058 0 0 0 0 0 0 0 0 0 0 0 0 0 0 0 0 0 0 0 0 0 0 0 0 0 0 0 1057 1032 1025 1021 1020 1017 1015 1012 1010 1008 1006 1004 1003 1000 999 997 997 997 997 996 996 994 992 991 990 990 987 985 979 973 965 959 956 952 952 952 952 959 964 975 989 1002 1002
1661 1661 1671 1694 1702 1702 1702 1691 0 0 0 0 0 0 0 0 0 0 0 0 0 0 0 0 0 0 0 0 0 0 0 0 0 0 0 0 0 0 0 0 0 0 0 0 0 0 0 0 0 0 0 0 0 0 0 0 0 0 0 0 0 0 1703 1732 1740 1740 0 0 0 0 0 0 0 0 0 0 0 0 0 0 0 0 0 0 0 0 0 0 0 0 0 0 1910 1931 1931 1931 1930 1930 1930 1936 1940 1943 1946 1950 1956 1963 1966 1968 1971 1977 1981 1986 1995 2015 2032 2044 2056 2065 2081 2095 2102 2107 2114 2123 2128 2138 2147 2152 2153 2155 2161 2167 2175 2181 2185 2187 2192 2195 2202 2211 2217 2222 2226 2231 2239 2243 2247 2253 2269 2281 2292 2296 2299 2303 2311 2313 2320 2327 2333 2339 2344 2350 2352 2356 2360 2366 2372 2377 2381 2388 2394 2399 2403 2409 2414 2418 2424 2428 2434 2437 2447 2458 2459 2460 2461 2468 2476 2483 2490 2500 2509 2515 2517 2520 2525 2527 2529 2529 2529 2530 2536 2538 2539 2541 2546 2548 2552 2553 2554 2559 2564 2570 2576 2585 2592 2592 2592 2584 2580 2544 0 0 0 0 2589 2646 2673 2678 2735 2801 2824 2824 2824 2764 0 0 0 2048 2033 2015 2001 1988 1978 1967 1954 1945 1942 1937 1932 1926 1921 1916 1912 1907 1905 1902 1900 1896 1892 1889 1887 1884 1882 1880 1878 1877 1875 1874 1872 1870 1870 1868 1867 1866 1865 1865 1865 1864 1864 1863 1862 1862 1861 1861 1861 1861 1861 1861 1861 1861 1861 1861 1861 1861 1861 1861 1861 1861 1862 1862 1863 1863 1864 1866 1866 1868 1868 1869 1871 1872 1874 1875 1877 1878 1880 1881 1883 1885 1886 1888 1891 1894 1898 1900 1902 1903 1905 1907 1910 1915 1918 1920 1921 1922 1924 1926 1928 1930 1931 1933 1937 1941 1946 1948 1950 1955 1959 1963 1967 1970 1973 1975 1979 1980 1980 1980 1980 1972 1971 1962 0 0 0 0 0 0 1934 1935 1935 1935 1926 1919 1911 1894 1884 1881 1877 1874 1873 1871 1871 1866 1861 1857 1850 1845 1843 1839 1837 1836 1833 1829 1826 1822 1820 1819 1819 1817 1813 1810 1808 1805 1801 1797 1794 1791 1789 1786 1783 1781 1779 1778 1778 1776 1774 1772 1771 1770 1768 1767 1765 1763 1763 1762 1761 1758 1757 1756 1756 1754 1753 1752 1751 1750 1750 1749 1749 1748 1748 1747 1746 1746 1745 1743 1742 1741 1740 1740 1739 1737 1737 1737 1737 1737 1737 1736 1735 1735 1735 1735 1736 1738 1739 1739 1740 1741 1743 1743 1743 1745 1747 1748 1748 1749 1750 1750 1751 1751 1752 1753 1753 1754 1754 1753 1753 1753 1753 1754 1755 1757 1761 1774 1795 1809 1842 1873 1877 0 0 0 0 0 0 0 0 0 0 2022 2020 2019 2009 1965 0 0 0 0 0 0 0 0 0 0 0 0 0 0 0 0 0 0 0 0 0 0 0 0 0 0 0 0 0 0 0 0 0 0 0 0 0 0 0 0 1986 1993 2016 2020 2024 2070 2081 2087 2106 2115 2122 2122 2122 2102 2059 0 0 0 0 0 0 0 0 0 0 0 0 0 0 0 0 0 0 0 0 0 0 0 0 0 0 0 0 0 0 1043 1024 1019 1017 1015 1015 1013 1010 1007 1004 1002 1001 999 998 996 995 994 994 994 994 994 992 990 990 989 989 987 985 979 973 965 960 955 952 950 950 950 954 959 967 982 996 996
1661 1661 1681 1697 1702 1702 1702 1692 1671 0 0 0 0 0 0 0 0 0 0 0 0 0 0 0 0 0 0 0 0 0 0 0 0 0 0 0 0 0 0 0 0 0 0 0 0 0 0 0 0 0 0 0 0 0 0 0 0 0 0 0 0 0 1668 1675 1679 1732 1735 1735 0 0 0 0 0 0 0 0 0 0 0 0 0 0 0 0 0 0 0 0 0 0 0 0 1890 1931 1931 1931 1923 1923 1923 1932 1932 1936 1937 1941 1956 1963 1966 1968 1971 1977 1994 2018 2030 2040 2045 2047 2066 2083 2092 2097 2102 2108 2114 2124 2135 2139 2147 2152 2152 2154 2161 2166 2175 2181 2183 2186 2192 2195 2203 2212 2218 2222 2226 2232 2240 2245 2249 2259 2270 2281 2292 2303 2305 2307 2312 2316 2321 2327 2333 2339 2344 2350 2352 2356 2360 2366 2367 2367 2371 2382 2391 2398 2402 2406 2410 2415 2420 2424 2429 2436 2445 2446 2446 2454 2459 2467 2476 2480 2490 2500 2505 2509 2510 2515 2520 2524 2524 2524 2524 2524 2528 2534 2537 2540 2544 2546 2551 2552 2554 2559 2564 2572 2582 2586 2588 2588 2588 2588 2585 2556 0 0 0 2477 2597 2646 2688 2800 2890 2920 2964 2964 2964 2878 2580 0 0 2060 2037 2018 2003 1991 1979 1967 1956 1945 1942 1937 1932 1926 1921 1916 1912 1907 1905 1901 1899 1895 1893 1889 1887 1884 1882 1879 1877 1876 1874 1873 1872 1870 1869 1868 1867 1866 1865 1865 1864 1864 1863 1863 1862 1861 1861 1861 1861 1861 1861 1861 1861 1861 1861 1861 1861 1861 1861 1861 1861 1861 1862 1862 1862 1863 1864 1866 1866 1868 1868 1869 1871 1872 1874 1876 1877 1878 1880 1881 1884 1885 1887 1889 1892 1894 1898 1900 1902 1904 1906 1909 1913 1918 1921 1923 1924 1925 1926 1926 1929 1932 1933 1936 1938 1942 1947 1949 1953 1959 1964 1967 1969 1972 1976 1977 1979 1979 1979 1979 1975 1971 1970 1962 0 0 0 0 0 0 1941 1941 1939 1936 1928 1919 1911 1894 1884 1881 1877 1874 1873 1871 1871 1868 1865 1859 1851 1847 1843 1841 1838 1836 1834 1833 1828 1825 1823 1822 1821 1818 1815 1814 1810 1808 1803 1798 1796 1793 1790 1789 1786 1783 1780 1779 1778 1778 1776 1774 1772 1771 1770 1767 1766 1764 1764 1763 1761 1759 1758 1757 1756 1755 1753 1752 1752 1751 1750 1749 1749 1748 1748 1747 1745 1744 1744 1743 1742 1741 1739 1738 1737 1736 1735 1735 1735 1735 1734 1733 1733 1733 1734 1734 1736 1737 1738 1739 1739 1740 1741 1741 1742 1744 1745 1746 1746 1748 1748 1748 1749 1749 1750 1750 1750 1751 1752 1753 1753 1753 1753 1752 1752 1752 1761 1778 1795 1809 1842 1873 1873 0 0 0 0 0 0 0 0 0 2014 2002 2001 1995 1994 1926 0 0 0 0 0 0 0 0 0 0 0 0 0 0 0 0 0 0 0 0 0 0 0 0 0 0 0 0 0 0 0 0 0 0 0 0 0 0 0 0 2024 2024 2020 2020 2024 2050 2078 2087 2106 2115 2122 2122 2122 2058 2048 0 0 0 0 0 0 0 0 0 0 0 0 0 0 0 0 0 0 0 0 0 0 0 0 0 0 0 0 0 0 1029 1018 1014 1013 1013 1012 1012 1008 1005 1001 1000 998 997 995 994 993 992 992 992 991 991 989 988 987 987 986 984 981 978 973 965 960 955 952 950 949 949 949 951 959 973 985 985
1687 1687 1688 1697 1702 1702 1702 1701 1684 1662 0 0 0 0 0 0 0 0 0 0 0 0 0 0 0 0 0 0 0 0 0 0 0 0 0 0 0 0 0 0 0 0 0 0 0 0 0 0 0 0 0 0 0 0 0 0 0 0 0 0 0 0 1664 1668 1677 1680 1735 1745 1760 0 0 0 0 0 0 0 0 0 0 0 0 0 0 0 0 0 0 0 0 0 0 0 1844 1918 1918 1918 1923 1923 1923 1932 1932 1936 1937 1941 1956 1963 1969 1981 1998 2003 2014 2043 2047 2054 2064 2076 2081 2085 2092 2098 2102 2108 2114 2124 2135 2143 2147 2151 2152 2154 2159 2166 2175 2181 2183 2186 2192 2198 2204 2214 2220 2222 2227 2233 2242 2250 2259 2270 2275 2287 2296 2303 2308 2309 2312 2316 2321 2327 2333 2339 2343 2348 2352 2356 2360 2364 2366 2366 2371 2378 2385 2392 2397 2401 2405 2411 2416 2422 2425 2430 2431 2436 2441 2447 2453 2461 2470 2479 2487 2499 2501 2502 2506 2512 2512 2512 2509 2509 2509 2517 2528 2534 2537 2540 2544 2546 2548 2550 2550 2556 2567 2577 2590 2590 2590 2588 2587 2586 2586 2559 0 0 2471 2503 2605 2761 2877 2969 3029 3084 3104 3104 3104 2996 2694 0 0 2068 2045 2023 2010 1993 1981 1974 1956 1949 1944 1937 1932 1926 1922 1917 1912 1907 1904 1901 1899 1895 1892 1889 1886 1884 1882 1879 1877 1876 1874 1873 1872 1870 1869 1868 1866 1866 1865 1864 1864 1864 1863 1862 1862 1861 1861 1861 1861 1861 1861 1861 1861 1861 1861 1861 1861 1861 1861 1861 1861 1861 1862 1862 1863 1863 1865 1866 1866 1868 1868 1869 1871 1872 1874 1876 1877 1878 1880 1881 1885 1888 1889 1891 1894 1896 1898 1902 1904 1906 1909 1912 1916 1918 1922 1923 1925 1927 1927 1929 1929 1933 1936 1938 1941 1945 1949 1952 1957 1962 1965 1968 1972 1975 1977 1978 1978 1978 1977 1975 1971 1970 1968 1963 0 0 0 0 0 0 1943 1943 1943 1937 1928 1919 1911 1904 1896 1884 1880 1875 1874 1873 1871 1868 1865 1859 1855 1851 1846 1842 1839 1839 1837 1834 1831 1828 1825 1824 1821 1819 1816 1814 1812 1809 1805 1802 1799 1796 1795 1792 1789 1786 1782 1779 1778 1778 1776 1775 1774 1773 1771 1769 1767 1766 1765 1764 1762 1760 1759 1757 1756 1756 1754 1754 1752 1751 1750 1749 1748 1748 1748 1747 1745 1744 1744 1743 1742 1740 1739 1737 1737 1735 1734 1733 1732 1732 1732 1732 1733 1733 1733 1734 1736 1737 1738 1739 1739 1740 1741 1741 1742 1744 1745 1745 1746 1747 1748 1748 1748 1749 1749 1750 1750 1751 1752 1752 1752 1752 1752 1751 1751 1751 1766 1778 1795 1805 1842 1863 1872 0 0 0 0 0 0 0 0 2029 1999 1973 1965 1960 1960 1916 0 0 0 0 0 0 0 0 0 0 0 0 0 0 0 0 0 0 0 0 0 0 0 0 0 0 0 0 0 0 0 0 0 0 0 0 0 0 0 2048 2048 2033 2030 2030 2030 2050 2078 2087 2117 2117 2117 2116 2057 2037 1985 0 0 0 0 0 0 0 0 0 0 0 0 0 0 0 0 0 0 0 0 0 0 0 0 0 0 0 0 0 0 1028 1015 1011 1011 1010 1010 1008 1005 1002 998 997 995 994 993 992 991 990 989 989 989 988 986 985 984 983 982 982 981 978 973 965 960 955 952 950 949 946 946 946 952 962 970 970
1688 1692 1692 1697 1702 1705 1705 1705 1699 1699 1699 1703 1706 0 0 0 0 0 1647 1621 1621 1621 1700 1705 1714 1736 1761 1776 1776 1776 1769 1763 1760 0 0 0 0 0 0 0 0 0 0 0 0 0 0 0 0 0 0 0 0 0 0 0 0 0 0 1668 1668 1668 1668 1666 1666 1666 1667 1717 1761 1784 1784 1784 1776 1771 1771 1771 1774 1778 1778 1778 1778 0 0 0 0 0 0 0 0 0 0 0 0 0 0 1918 1918 1929 1937 1937 1937 1937 1937 1941 1964 1995 2014 2025 2028 2028 2038 2062 2071 2075 2077 2080 2081 2087 2092 2099 2102 2108 2115 2124 2135 2143 2147 2151 2152 2154 2156 2167 2171 2174 2179 2187 2196 2205 2214 2221 2223 2224 2227 2239 2246 2256 2265 2273 2280 2287 2296 2303 2308 2309 2312 2316 2321 2326 2330 2335 2339 2343 2346 2351 2357 2363 2364 2365 2369 2374 2378 2385 2392 2397 2403 2407 2413 2416 2421 2428 2429 2431 2439 2447 2450 2456 2461 2470 2477 2483 2484 2490 2498 2509 2509 2509 2507 2507 2507 2516 2528 2534 2537 2540 2544 2545 2548 2548 2550 2556 2570 2577 2590 2590 2590 2590 2590 2587 2587 2565 2485 2485 2485 2513 2726 2846 3015 3112 3206 3244 3244 3244 3213 3134 2802 2460 0 0 2047 2024 2018 2004 1988 1976 1963 1949 1945 1937 1932 1925 1922 1918 1914 1908 1904 1901 1898 1895 1892 1889 1886 1884 1882 1879 1877 1876 1874 1873 1872 1870 1869 1868 1866 1866 1865 1864 1864 1863 1863 1862 1861 1861 1861 1861 1861 1861 1861 1861 1861 1861 1861 1861 1861 1861 1861 1861 1861 1861 1862 1862 1863 1863 1865 1866 1867 1868 1868 1869 1871 1872 1874 1876 1878 1880 1882 1883 1885 1888 1890 1891 1894 1897 1901 1906 1910 1913 1914 1917 1919 1922 1923 1925 1927 1927 1929 1930 1932 1936 1939 1941 1946 1948 1951 1955 1958 1963 1967 1970 1975 1978 1978 1978 1978 1978 1977 1975 1971 1970 1968 1963 0 0 0 0 0 1942 1945 1945 1945 1942 1933 1919 1912 1909 1901 1896 1882 1876 1874 1873 1871 1868 1865 1859 1855 1851 1848 1845 1842 1839 1838 1836 1833 1830 1827 1825 1823 1819 1817 1814 1813 1809 1807 1804 1802 1800 1797 1793 1789 1786 1784 1783 1781 1779 1777 1776 1775 1773 1773 1771 1769 1768 1766 1765 1763 1760 1759 1758 1758 1756 1755 1754 1752 1751 1750 1749 1748 1748 1748 1747 1745 1744 1744 1743 1742 1740 1739 1737 1737 1735 1734 1733 1732 1732 1732 1732 1732 1733 1733 1734 1736 1736 1738 1738 1739 1740 1741 1741 1742 1744 1744 1745 1746 1747 1747 1748 1748 1749 1749 1749 1750 1751 1751 1752 1752 1752 1752 1751 1751 1751 1766 1778 1786 1799 1817 1829 1859 0 0 0 0 0 0 0 0 0 0 0 0 0 0 0 0 0 0 0 0 0 0 0 0 0 0 0 0 0 0 0 0 0 0 0 0 0 0 0 0 0 0 0 0 0 0 0 0 0 0 0 1973 2012 2048 2056 2060 2060 2056 2050 2050 2050 2078 2116 2124 2124 0 0 0 0 0 0 0 0 0 0 0 0 0 0 0 0 0 0 0 0 0 0 0 1423 1423 1423 1404 1384 1365 1346 1318 0 0 0 0 1028 1015 1009 1008 1007 1007 1004 1001 998 994 993 992 991 990 989 988 987 986 985 985 984 984 983 982 982 981 981 981 978 974 969 962 957 954 951 947 943 943 943 949 959 959 959
1688 1692 1692 1697 1701 1705 1707 1709 1711 1711 1719 1734 1742 1743 1743 1743 1733 1700 1687 1687 1687 1687 1702 1727 1739 1760 1762 1776 1778 1778 1782 1782 1782 1782 1782 1778 1777 1775 1771 1753 1725 0 0 0 0 0 0 0 0 0 0 0 0 0 1671 1650 1650 1650 1666 1684 1684 1684 1683 1666 1666 1666 1667 1672 1720 1784 1785 1793 1796 1796 1796 1790 1790 1790 1786 1786 1790 1790 1790 1791 1806 0 0 0 0 0 0 0 0 0 0 1913 1918 1930 1945 1951 1958 1970 2000 2003 2022 2036 2043 2051 2055 2057 2058 2062 2071 2075 2079 2081 2082 2088 2092 2099 2102 2108 2115 2124 2135 2143 2147 2151 2152 2154 2156 2167 2170 2174 2179 2187 2199 2207 2215 2223 2228 2229 2234 2241 2251 2260 2270 2277 2281 2287 2296 2303 2308 2309 2312 2313 2317 2320 2323 2331 2335 2336 2339 2344 2353 2360 2361 2362 2369 2372 2376 2382 2388 2395 2401 2406 2409 2411 2415 2420 2423 2429 2435 2443 2449 2451 2456 2461 2465 2471 2477 2484 2494 2501 2501 2501 2504 2504 2504 2516 2525 2534 2537 2542 2544 2545 2548 2548 2550 2556 2570 2577 2590 2590 2590 2590 2590 2588 2588 2569 2495 2495 2495 2516 2749 2918 3174 3288 3332 3332 3332 3325 3287 3228 2938 2572 0 0 2061 2033 2019 2004 1988 1976 1963 1953 1945 1937 1931 1925 1922 1918 1914 1910 1904 1901 1898 1895 1893 1889 1886 1884 1882 1880 1877 1876 1875 1873 1872 1870 1869 1868 1866 1866 1865 1864 1864 1863 1863 1862 1861 1861 1861 1861 1861 1861 1861 1862 1862 1861 1862 1862 1862 1862 1862 1862 1862 1862 1862 1863 1863 1864 1866 1867 1867 1868 1869 1870 1871 1873 1875 1876 1878 1881 1882 1883 1886 1890 1891 1893 1895 1898 1903 1908 1912 1914 1915 1917 1920 1923 1924 1926 1928 1929 1929 1931 1933 1937 1940 1942 1946 1949 1952 1955 1959 1964 1968 1970 1975 1978 1978 1978 1978 1978 1977 1975 1975 1972 1968 1963 0 0 0 0 0 1942 1946 1946 1946 1944 1939 1927 1919 1916 1914 1902 1883 1877 1875 1873 1870 1866 1862 1859 1855 1852 1850 1846 1842 1840 1839 1838 1836 1834 1831 1827 1825 1821 1818 1814 1813 1810 1808 1804 1803 1801 1798 1794 1790 1787 1784 1783 1783 1780 1780 1778 1777 1775 1774 1772 1770 1768 1766 1765 1763 1762 1761 1759 1758 1756 1755 1754 1752 1751 1750 1749 1749 1748 1747 1747 1745 1744 1744 1743 1742 1740 1739 1737 1737 1735 1734 1733 1732 1732 1732 1732 1732 1733 1733 1736 1736 1737 1738 1738 1739 1740 1741 1741 1743 1743 1744 1745 1745 1746 1747 1748 1748 1748 1749 1749 1750 1751 1751 1752 1752 1752 1752 1752 1752 1755 1766 1777 1786 1799 1817 1829 1847 0 0 0 0 0 0 0 0 0 0 0 0 0 0 0 0 0 0 0 0 0 0 0 0 0 0 0 0 0 0 0 0 0 0 0 0 0 0 0 0 0 0 0 0 0 0 0 0 0 0 0 2025 2035 2048 2057 2062 2074 2074 2078 2078 2078 2116 2126 2126 2126 0 0 0 0 0 0 0 0 0 0 0 0 0 0 0 0 0 0 0 0 0 0 0 1423 1423 1423 1403 1384 1364 1335 1308 0 0 0 0 1029 1013 1005 1003 1003 1002 1001 998 995 993 991 988 987 987 986 984 984 983 982 982 982 982 982 981 981 981 981 980 980 978 971 966 961 955 951 947 943 943 943 945 952 952 952
1682 1686 1686 1692 1700 1705 1709 1712 1713 1715 1720 1734 1742 1743 1743 1743 1733 1700 1700 1700 1707 1719 1722 1727 1740 1760 1762 1776 1785 1785 1785 1784 1784 1784 1784 1784 1782 1782 1776 1774 1764 1764 1764 1764 1769 1778 0 0 0 0 0 1739 1719 1700 1671 1656 1656 1656 1670 1684 1684 1684 1684 1673 1667 1667 1667 1672 1674 0 0 1793 1817 1819 1819 1819 1817 1813 1809 1795 1793 1793 1793 1822 1824 1824 0 0 0 0 0 0 0 0 0 0 1918 1941 1952 1967 1982 1995 2019 2021 2030 2036 2043 2051 2055 2057 2058 2063 2071 2075 2079 2083 2085 2088 2092 2099 2103 2108 2115 2124 2133 2140 2145 2150 2153 2154 2156 2169 2170 2174 2179 2190 2199 2209 2217 2224 2229 2235 2239 2245 2254 2264 2274 2279 2283 2287 2295 2300 2303 2306 2307 2308 2309 2316 2323 2326 2331 2334 2339 2343 2343 2350 2354 2360 2364 2370 2375 2379 2386 2394 2399 2404 2406 2408 2411 2416 2421 2427 2434 2441 2445 2449 2451 2455 2460 2469 2476 2483 2486 2492 2492 2494 2494 2495 2503 2515 2525 2534 2537 2542 2544 2545 2548 2558 2560 2562 2570 2574 2581 2588 2590 2595 2610 2610 2610 2582 2510 2510 2510 2516 2753 2976 3321 3375 3380 3380 3380 3370 3345 3286 3069 2650 0 0 0 2043 2025 2006 1988 1976 1963 1953 1946 1937 1929 1924 1921 1918 1914 1910 1905 1901 1898 1895 1893 1889 1886 1884 1882 1880 1877 1876 1875 1874 1873 1871 1870 1869 1868 1866 1865 1864 1864 1863 1863 1862 1861 1861 1861 1861 1862 1862 1862 1862 1862 1862 1862 1862 1862 1862 1862 1862 1862 1862 1863 1864 1864 1866 1867 1869 1870 1870 1870 1871 1871 1874 1876 1878 1880 1881 1883 1885 1890 1893 1894 1895 1898 1901 1905 1910 1914 1915 1916 1919 1921 1924 1925 1927 1928 1930 1932 1934 1937 1940 1941 1944 1947 1950 1952 1956 1959 1964 1969 1973 1977 1979 1980 1980 1980 1979 1977 1976 1976 1976 1971 1963 0 0 0 0 0 1950 1950 1950 1946 1945 1942 1932 1926 1922 1914 1902 1890 1882 1875 1873 1870 1866 1862 1859 1856 1853 1850 1848 1844 1840 1839 1838 1836 1834 1831 1828 1825 1822 1818 1816 1814 1812 1810 1808 1804 1801 1798 1794 1792 1789 1787 1786 1784 1782 1780 1780 1779 1777 1775 1772 1770 1768 1767 1765 1763 1763 1761 1759 1758 1757 1755 1754 1752 1751 1751 1750 1749 1748 1748 1747 1745 1745 1744 1743 1742 1740 1739 1739 1738 1736 1734 1733 1732 1732 1732 1732 1732 1733 1735 1736 1737 1737 1738 1739 1739 1741 1741 1741 1743 1743 1744 1745 1745 1746 1747 1748 1748 1748 1749 1749 1750 1751 1751 1752 1752 1752 1752 1752 1752 1762 1766 1777 1786 1799 1817 1817 1826 0 0 0 0 0 0 0 0 0 0 0 0 0 0 0 0 0 0 0 0 0 0 0 0 0 0 0 0 0 0 0 0 0 0 0 0 0 0 0 0 0 0 0 0 0 0 0 0 0 0 0 2041 2046 2055 2062 2067 2078 2090 2095 2097 2098 2117 2124 2124 0 0 0 0 0 0 0 0 0 0 0 0 0 0 0 0 0 0 0 0 0 0 0 0 1423 1423 1423 1400 1374 1364 1329 1301 0 0 0 0 1031 1011 1001 999 998 998 996 995 992 990 988 986 985 985 983 982 982 980 979 979 979 979 979 980 980 980 981 981 981 978 975 969 963 957 951 947 943 943 943 943 943 949 949
1660 1670 1670 1671 1691 1705 1711 1712 1713 1716 1729 1734 1739 1739 1739 1725 1712 1705 1705 1705 1717 1728 1731 1741 1749 1760 1762 1776 1785 1785 1785 1785 1785 1787 1787 1787 1787 1784 1776 1774 1774 1776 1777 1779 1780 1789 1796 0 0 0 1765 1739 1719 1700 1671 1656 1656 1656 1671 1690 1690 1690 1689 1683 1679 1673 1673 1673 1674 1674 1720 1781 1817 1819 1822 1827 1827 1822 1816 1801 1801 1801 1803 1823 1833 1846 1846 0 0 0 0 0 0 0 0 0 0 1970 1972 1991 2005 2013 2023 2027 2033 2037 2046 2051 2055 2057 2058 2063 2069 2073 2079 2083 2091 2095 2097 2102 2105 2112 2119 2124 2133 2139 2145 2149 2153 2158 2163 2169 2170 2175 2182 2190 2199 2211 2217 2228 2235 2241 2247 2252 2256 2268 2279 2284 2285 2288 2295 2300 2303 2304 2305 2306 2309 2314 2320 2325 2328 2333 2334 2337 2338 2343 2348 2355 2358 2365 2372 2378 2386 2393 2398 2403 2404 2408 2410 2415 2420 2424 2432 2438 2442 2446 2448 2453 2460 2467 2475 2479 2480 2482 2484 2488 2489 2494 2502 2514 2524 2533 2537 2542 2544 2545 2551 2558 2560 2562 2570 2574 2581 2588 2590 2603 2643 2684 2684 2684 2587 2563 2563 2563 2758 3002 3339 3380 3381 3381 3380 3370 3347 3302 3152 2785 0 0 0 2054 2025 2007 1991 1976 1962 1953 1947 1937 1929 1924 1921 1918 1914 1910 1905 1902 1899 1896 1894 1890 1887 1884 1882 1880 1878 1876 1875 1874 1873 1872 1871 1869 1868 1866 1865 1864 1864 1864 1863 1862 1862 1861 1861 1861 1862 1862 1862 1862 1862 1862 1862 1862 1862 1862 1862 1862 1862 1863 1864 1864 1865 1866 1868 1869 1870 1870 1871 1871 1873 1875 1877 1879 1881 1882 1884 1889 1892 1894 1895 1897 1899 1903 1906 1910 1914 1916 1917 1919 1922 1924 1926 1928 1929 1930 1932 1934 1937 1940 1941 1944 1948 1950 1953 1956 1959 1964 1969 1973 1977 1979 1981 1981 1981 1981 1981 1981 1982 1982 1982 1964 0 0 0 0 0 1951 1951 1951 1951 1947 1945 1938 1932 1922 1914 1903 1894 1887 1879 1873 1870 1866 1862 1859 1856 1854 1852 1849 1846 1843 1841 1840 1837 1834 1831 1828 1825 1823 1821 1818 1816 1813 1811 1809 1807 1804 1800 1797 1794 1791 1789 1787 1785 1784 1782 1780 1779 1777 1775 1772 1770 1769 1767 1765 1763 1763 1761 1760 1758 1757 1755 1754 1752 1751 1750 1749 1749 1748 1747 1747 1746 1745 1744 1743 1742 1741 1740 1739 1738 1737 1734 1734 1733 1733 1733 1733 1734 1734 1736 1737 1737 1738 1738 1740 1741 1741 1741 1742 1743 1743 1744 1744 1745 1746 1747 1747 1748 1748 1749 1749 1750 1751 1751 1752 1752 1752 1752 1752 1755 1764 1766 1775 1786 1804 1804 1804 1805 1805 0 0 0 0 0 0 0 0 0 0 0 0 0 0 0 0 0 0 0 0 0 0 0 0 0 0 0 0 0 0 0 0 0 0 0 0 0 0 0 0 0 0 0 0 0 0 0 0 0 2066 2066 2062 2062 2062 2067 2078 2101 2122 2122 2122 2124 2122 2117 0 0 0 0 0 0 0 0 0 0 0 0 0 0 0 0 0 0 0 0 0 0 0 1385 1413 1413 1413 1388 1367 1354 1324 1299 0 0 0 0 0 1003 997 992 991 991 991 991 990 987 986 984 983 982 982 981 979 978 977 977 977 977 978 978 978 979 980 980 980 980 976 971 963 957 951 947 943 943 943 943 943 946 946
1653 1654 1654 1663 1676 1697 1714 1722 1722 1723 1727 1727 1727 1718 1707 1700 1700 1700 1703 1718 1729 1736 1743 1746 1750 1760 1762 1776 1785 1785 1786 1786 1786 1787 1787 1787 1787 1784 1780 1776 1776 1776 1777 1779 1780 1789 1796 0 0 1753 1712 1711 1698 1681 1667 1661 1661 1661 1673 1690 1690 1690 1689 1685 1684 1681 1675 1674 1674 1675 1695 1732 1787 1819 1822 1827 1827 1822 1820 1806 1806 1806 1810 1823 1833 1846 1846 1846 0 0 0 0 0 0 0 0 0 2001 2006 2015 2015 2020 2024 2030 2035 2037 2046 2051 2052 2055 2057 2062 2068 2073 2077 2083 2091 2096 2100 2103 2108 2113 2120 2125 2133 2139 2145 2149 2156 2159 2166 2170 2172 2176 2182 2190 2199 2211 2220 2231 2240 2249 2255 2257 2262 2270 2282 2286 2288 2291 2295 2300 2302 2303 2304 2305 2307 2312 2318 2324 2327 2330 2332 2334 2336 2338 2342 2347 2355 2363 2369 2375 2382 2390 2397 2401 2404 2407 2408 2414 2418 2424 2427 2432 2437 2441 2446 2450 2457 2466 2473 2473 2474 2475 2481 2486 2486 2491 2502 2514 2523 2525 2533 2541 2543 2545 2551 2558 2560 2563 2570 2574 2581 2588 2626 2725 2791 2791 2791 2775 2669 2591 2591 2591 2753 3024 3339 3380 3381 3381 3380 3370 3347 3302 3197 2906 2571 0 0 0 2025 2008 1991 1976 1961 1954 1949 1937 1929 1925 1921 1918 1914 1910 1905 1902 1901 1898 1896 1892 1888 1884 1882 1880 1878 1876 1876 1874 1874 1872 1871 1870 1868 1867 1865 1864 1864 1864 1864 1863 1862 1862 1862 1862 1862 1862 1862 1863 1863 1863 1863 1863 1863 1863 1863 1863 1863 1864 1864 1864 1866 1867 1869 1870 1870 1870 1871 1872 1874 1875 1877 1879 1881 1883 1887 1890 1894 1896 1898 1900 1902 1905 1908 1911 1914 1916 1918 1919 1922 1924 1927 1928 1930 1930 1932 1935 1937 1940 1942 1945 1949 1953 1955 1957 1960 1965 1969 1974 1977 1979 1982 1982 1983 1986 1986 1989 1990 1990 1990 1964 0 0 0 0 0 1956 1956 1956 1953 1951 1947 1938 1932 1922 1914 1902 1895 1888 1883 1879 1871 1867 1865 1862 1857 1855 1853 1851 1847 1845 1844 1842 1839 1835 1831 1828 1826 1823 1821 1819 1816 1814 1812 1810 1808 1805 1801 1798 1796 1792 1790 1788 1786 1785 1783 1782 1779 1777 1775 1772 1770 1769 1768 1765 1763 1763 1762 1760 1759 1757 1755 1754 1752 1751 1750 1749 1749 1748 1747 1747 1746 1745 1745 1744 1742 1741 1740 1739 1739 1737 1736 1735 1735 1735 1735 1736 1736 1737 1737 1737 1738 1740 1741 1741 1741 1742 1742 1742 1743 1743 1744 1744 1745 1746 1747 1747 1748 1748 1749 1750 1750 1751 1751 1752 1752 1753 1753 1754 1758 1764 1766 1775 1786 1804 1804 1804 1799 1799 0 0 0 0 0 0 0 0 0 0 0 0 0 0 0 0 0 0 0 0 0 0 0 0 0 0 0 0 0 0 0 0 0 0 0 0 0 0 0 0 0 0 0 0 0 0 0 0 2069 2075 2075 2075 2070 2070 2070 2090 2110 2122 2122 2122 2117 2110 0 0 0 0 0 0 0 0 0 0 0 0 0 0 0 0 0 0 0 0 0 0 0 0 1415 1415 1415 1391 1387 1367 1340 1320 1298 0 0 0 0 0 999 992 987 987 987 986 986 986 985 984 982 981 980 979 977 975 975 975 975 975 975 975 976 976 977 979 980 980 980 976 971 963 957 951 947 943 943 942 942 942 944 944
1647 1647 1653 1663 1676 1697 1714 1722 1724 1730 1730 1730 1727 1718 1707 1700 1700 1700 1706 1719 1730 1736 1743 1750 1751 1760 1762 1776 1784 1784 1786 1786 1786 1792 1800 1800 1800 1800 1785 1774 1774 1774 1777 1779 1780 1789 1789 0 0 1714 1687 1674 1673 1652 1652 1652 1655 1667 1687 1698 1698 1698 1693 1691 1689 1686 1680 1677 1677 1677 1695 1718 1750 1803 1822 1822 1822 1822 1820 1809 1809 1809 1811 1831 1835 1844 1844 1844 1838 0 0 0 0 0 0 0 0 2001 2011 2015 2015 2020 2024 2030 2037 2037 2043 2050 2051 2055 2057 2061 2067 2072 2077 2083 2091 2096 2101 2105 2109 2116 2120 2126 2133 2139 2145 2150 2158 2161 2167 2173 2179 2181 2183 2189 2200 2211 2224 2233 2244 2249 2255 2257 2263 2270 2282 2286 2288 2291 2295 2300 2302 2302 2302 2303 2306 2311 2317 2323 2326 2329 2329 2331 2335 2338 2340 2344 2352 2359 2364 2370 2377 2388 2396 2400 2404 2405 2407 2411 2417 2421 2425 2428 2431 2438 2442 2448 2456 2464 2468 2468 2470 2471 2476 2481 2485 2491 2503 2514 2523 2523 2531 2534 2537 2538 2552 2558 2560 2563 2587 2588 2640 2769 2849 2881 2948 2948 2948 2888 2723 2591 2591 2591 2753 3033 3339 3373 3373 3373 3368 3366 3347 3302 3236 3036 2628 0 0 0 2024 2008 1994 1973 1960 1954 1949 1944 1931 1925 1921 1919 1914 1910 1905 1902 1901 1899 1897 1893 1889 1886 1883 1882 1880 1878 1876 1875 1874 1872 1872 1870 1868 1867 1866 1865 1865 1865 1864 1863 1862 1862 1862 1862 1862 1862 1863 1863 1863 1863 1863 1863 1863 1864 1864 1864 1864 1864 1864 1865 1866 1868 1869 1870 1871 1871 1872 1872 1874 1876 1878 1879 1882 1885 1888 1892 1896 1898 1898 1901 1903 1908 1912 1914 1916 1917 1918 1920 1923 1925 1927 1928 1930 1933 1935 1936 1938 1940 1942 1945 1949 1955 1960 1960 1961 1965 1970 1975 1979 1981 1983 1984 1987 1988 1994 1998 1998 1998 1990 1964 0 0 0 0 0 1962 1962 1962 1957 1953 1947 1938 1932 1919 1910 1904 1896 1890 1885 1880 1874 1871 1869 1867 1863 1858 1855 1851 1848 1845 1845 1844 1841 1836 1831 1828 1826 1823 1821 1820 1816 1814 1812 1810 1808 1805 1801 1799 1796 1794 1791 1789 1787 1786 1784 1782 1780 1777 1775 1773 1771 1769 1768 1766 1765 1763 1762 1760 1758 1757 1755 1754 1753 1751 1750 1750 1749 1748 1747 1747 1746 1746 1745 1744 1743 1742 1740 1739 1739 1738 1737 1736 1736 1736 1736 1736 1737 1737 1737 1738 1740 1741 1742 1742 1742 1742 1742 1742 1743 1743 1744 1745 1745 1746 1747 1747 1748 1749 1749 1750 1750 1751 1752 1753 1754 1754 1755 1756 1763 1766 1767 1777 1785 1794 1794 1794 1794 1794 0 0 0 0 0 0 0 0 0 0 0 0 0 0 0 0 0 0 0 0 0 0 0 0 0 0 0 0 0 0 0 0 0 0 0 0 0 0 0 0 0 0 0 0 0 0 0 2055 2069 2075 2084 2084 2084 2084 2084 2102 2110 2122 2122 0 0 0 0 0 0 0 0 0 0 0 0 0 0 0 0 0 0 0 0 0 0 0 0 0 0 1405 1405 1405 1391 1384 1376 1358 1336 1318 1292 0 0 0 0 0 994 988 985 985 984 984 984 983 983 982 981 979 977 976 975 973 973 972 972 972 972 972 972 974 975 976 979 979 979 976 971 964 957 951 947 944 943 942 941 941 941 941
1647 1647 1653 1663 1676 1697 1713 1722 1724 1730 1730 1730 1727 1718 1707 1700 1700 1700 1709 1720 1731 1742 1744 1750 1752 1757 1762 1776 1782 1782 1786 1786 1786 1800 1813 1813 1813 1801 1800 1780 1780 1774 1773 1774 1780 1774 0 0 1692 1674 1671 1671 1669 1652 1652 1652 1655 1679 1687 1698 1698 1698 1698 1698 1696 1697 1700 1698 1697 1698 1700 1718 1744 1766 1811 1822 1822 1822 1821 1816 1816 1816 1819 1833 1839 1844 1844 1844 1842 0 0 0 0 0 0 0 0 2001 2011 2015 2015 2020 2024 2030 2037 2037 2042 2048 2051 2053 2057 2061 2063 2067 2073 2079 2091 2098 2102 2106 2111 2117 2122 2127 2133 2141 2150 2151 2158 2166 2170 2176 2180 2182 2185 2189 2200 2211 2224 2234 2244 2249 2255 2257 2263 2270 2282 2286 2288 2291 2295 2300 2300 2300 2300 2300 2300 2309 2316 2321 2321 2323 2326 2328 2334 2338 2339 2342 2348 2353 2359 2364 2375 2387 2395 2397 2400 2401 2404 2410 2416 2417 2418 2421 2428 2434 2441 2447 2456 2460 2463 2465 2468 2470 2473 2477 2484 2491 2506 2521 2522 2522 2523 2534 2534 2538 2555 2559 2616 2701 2754 2848 2851 2916 2992 3063 3110 3110 3110 2943 2750 2591 2591 2591 2729 3043 3321 3351 3365 3365 3365 3357 3329 3300 3237 3127 2775 0 0 0 2024 2010 1994 1973 1960 1952 1949 1944 1937 1932 1927 1921 1914 1910 1905 1902 1902 1900 1897 1893 1890 1887 1884 1882 1880 1879 1877 1876 1875 1874 1872 1871 1870 1868 1866 1866 1865 1865 1865 1864 1863 1862 1862 1862 1862 1862 1863 1863 1863 1864 1864 1864 1865 1865 1865 1865 1865 1866 1866 1866 1868 1869 1869 1870 1871 1871 1872 1873 1874 1877 1879 1880 1883 1886 1890 1894 1897 1899 1901 1902 1906 1908 1912 1914 1917 1917 1919 1920 1923 1925 1927 1928 1930 1933 1936 1939 1941 1943 1945 1949 1954 1956 1960 1961 1964 1967 1970 1975 1979 1981 1983 1991 1991 1992 1997 1999 1999 1999 1991 0 0 0 0 0 0 1962 1962 1962 1957 1953 1947 1937 1929 1919 1910 1905 1896 1890 1889 1885 1878 1872 1869 1867 1864 1861 1856 1852 1848 1847 1845 1844 1842 1838 1832 1829 1826 1825 1823 1820 1816 1814 1812 1810 1808 1805 1802 1799 1796 1794 1791 1789 1788 1786 1784 1782 1780 1778 1775 1773 1771 1769 1768 1766 1765 1764 1762 1760 1759 1757 1755 1754 1753 1752 1751 1750 1749 1748 1747 1747 1746 1746 1745 1744 1743 1742 1740 1740 1739 1739 1738 1737 1737 1737 1737 1737 1737 1737 1738 1741 1742 1743 1743 1742 1742 1742 1742 1742 1743 1743 1744 1745 1745 1746 1747 1748 1748 1749 1750 1751 1751 1751 1752 1754 1755 1755 1756 1760 1767 1767 1773 1777 1783 1783 1783 1774 1774 1761 0 0 0 0 0 0 0 0 0 0 0 0 0 0 0 0 0 0 0 0 0 0 0 0 0 0 0 0 0 0 0 0 0 0 0 0 0 0 0 0 0 0 0 0 0 0 2052 2057 2066 2075 2084 2085 2087 2090 2093 2102 2110 2110 2110 0 0 0 0 0 0 0 0 0 0 0 0 0 0 0 0 0 0 0 0 0 0 0 0 0 1376 1404 1404 1404 1391 1381 1375 1357 1334 1313 1289 1262 0 0 0 0 992 983 983 983 982 982 982 982 981 981 980 978 976 974 972 971 969 969 969 969 969 970 970 971 972 974 977 977 977 976 971 964 957 951 947 944 943 941 939 939 939 939
1647 1647 1672 1686 1697 1701 1713 1722 1724 1730 1730 1730 1729 1724 1712 1705 1705 1705 1711 1723 1731 1741 1744 1747 1752 1757 1762 1776 1780 1780 1782 1784 1786 1800 1813 1813 1813 1803 1801 1792 1773 1772 1770 1769 1769 0 0 1674 1671 1669 1671 1671 1669 1652 1652 1652 1656 1683 1691 1697 1697 1697 1697 1697 1701 1705 1718 1723 1725 1725 1726 1727 1744 1764 1796 1822 1822 1824 1824 1827 1828 1829 1833 1839 1843 1844 1845 1851 1875 1875 0 0 0 0 0 0 0 2000 2011 2014 2015 2017 2022 2026 2035 2037 2037 2046 2051 2052 2057 2059 2061 2066 2073 2079 2091 2098 2103 2107 2111 2119 2123 2131 2146 2153 2156 2158 2162 2167 2172 2177 2180 2184 2187 2189 2200 2212 2225 2234 2244 2249 2254 2255 2263 2270 2277 2281 2284 2289 2292 2295 2295 2295 2295 2295 2295 2302 2311 2315 2317 2318 2323 2326 2332 2333 2337 2340 2345 2350 2355 2364 2373 2382 2389 2392 2396 2400 2404 2409 2413 2415 2416 2419 2424 2432 2440 2446 2454 2459 2462 2464 2468 2470 2472 2475 2482 2491 2515 2522 2522 2528 2528 2534 2534 2538 2556 2647 2815 2862 2928 2980 2982 3082 3170 3258 3258 3258 3154 2963 2755 2594 2594 2594 2722 3108 3321 3351 3365 3365 3365 3357 3329 3300 3248 3158 2880 0 0 0 2024 2012 1994 1973 1960 1951 1948 1944 1938 1933 1928 1924 1915 1910 1907 1904 1902 1900 1897 1894 1891 1887 1886 1883 1882 1880 1879 1878 1877 1875 1874 1872 1871 1869 1867 1866 1866 1866 1865 1864 1863 1863 1863 1863 1863 1863 1863 1864 1864 1864 1865 1865 1865 1865 1865 1865 1866 1866 1867 1868 1868 1869 1871 1872 1872 1873 1873 1875 1876 1878 1879 1882 1886 1889 1892 1894 1897 1899 1902 1905 1907 1909 1912 1914 1917 1919 1921 1922 1925 1926 1928 1930 1932 1933 1936 1939 1944 1948 1949 1952 1954 1957 1960 1962 1966 1971 1974 1978 1982 1988 1993 1993 1994 1994 1997 2000 2000 2000 1990 0 0 0 0 0 0 1963 1963 1963 1957 1953 1939 1933 1928 1919 1910 1905 1900 1895 1892 1889 1883 1875 1870 1867 1864 1861 1858 1853 1850 1848 1845 1844 1842 1839 1834 1831 1827 1825 1823 1820 1817 1814 1812 1810 1808 1805 1803 1802 1798 1795 1792 1790 1788 1786 1784 1782 1780 1778 1776 1774 1771 1770 1768 1766 1765 1764 1762 1760 1758 1757 1755 1754 1753 1752 1751 1750 1749 1748 1747 1747 1746 1746 1745 1744 1743 1742 1742 1741 1741 1740 1739 1739 1738 1738 1738 1738 1738 1740 1742 1742 1743 1743 1743 1743 1742 1742 1742 1743 1743 1744 1745 1745 1746 1746 1747 1748 1748 1750 1751 1752 1752 1752 1754 1755 1756 1756 1758 1762 1767 1771 1776 1780 1783 1783 1783 1774 1774 0 0 0 0 0 0 0 0 0 0 0 0 0 0 0 0 0 0 0 0 0 0 0 0 0 0 0 0 0 0 0 0 0 0 0 0 0 0 0 0 0 0 0 0 0 0 2053 2062 2063 2069 2075 2084 2085 2087 2092 2096 2102 2102 2102 0 0 0 0 0 0 0 0 0 0 0 0 0 0 0 0 0 0 0 0 0 0 0 0 0 0 1389 1401 1401 1401 1390 1381 1372 1355 1330 1309 1289 1263 0 0 0 0 992 983 980 979 979 979 980 980 980 979 978 976 974 972 971 969 968 967 967 967 967 968 968 969 970 972 976 976 976 976 972 966 958 951 947 945 943 941 938 937 936 936
1683 1683 1707 1707 1707 1703 1701 1701 1703 1716 1718 1724 1724 1724 1718 1714 1714 1714 1717 1725 1731 1736 1743 1746 1752 1757 1762 1772 1780 1780 1782 1784 1785 1800 1813 1813 1813 1803 1801 1792 1773 1768 1764 1764 0 1674 1668 1668 1668 1669 1671 1671 1671 1671 1672 1673 1685 1685 1692 1693 1693 1696 1696 1699 1712 1715 1718 1759 1760 1760 1760 1760 1760 1764 1784 1819 1821 1824 1829 1830 1845 1855 1857 1866 1908 1918 1934 1934 1934 1927 1924 0 0 0 0 0 0 0 2004 2011 2014 2017 2018 2020 2020 2022 2032 2035 2043 2051 2057 2059 2059 2066 2073 2079 2092 2098 2103 2108 2113 2125 2132 2141 2147 2153 2156 2158 2162 2167 2172 2177 2181 2186 2190 2193 2203 2216 2226 2234 2241 2248 2248 2252 2257 2264 2272 2276 2278 2281 2283 2287 2291 2292 2292 2293 2295 2302 2309 2313 2314 2318 2323 2325 2329 2332 2334 2337 2342 2348 2355 2363 2371 2377 2382 2387 2392 2398 2403 2409 2411 2414 2415 2416 2420 2429 2438 2446 2452 2457 2460 2464 2469 2470 2472 2475 2482 2494 2519 2521 2522 2528 2528 2534 2594 2718 2859 2925 2957 3043 3111 3183 3242 3244 3286 3286 3286 3281 3174 2970 2755 2593 2593 2593 2722 3144 3321 3351 3365 3365 3365 3357 3329 3300 3253 3184 2912 0 0 0 2030 2012 1994 1970 1960 1951 1948 1944 1938 1933 1928 1925 1919 1912 1909 1906 1904 1901 1898 1894 1891 1888 1887 1885 1883 1881 1879 1879 1877 1876 1874 1873 1871 1869 1867 1867 1866 1866 1865 1864 1863 1863 1863 1863 1863 1864 1864 1864 1865 1865 1865 1866 1866 1866 1867 1867 1867 1867 1868 1869 1870 1870 1872 1872 1873 1874 1875 1877 1879 1881 1882 1884 1887 1889 1892 1894 1897 1900 1903 1906 1907 1909 1912 1914 1917 1919 1921 1924 1926 1928 1930 1932 1933 1935 1938 1941 1945 1948 1951 1952 1955 1957 1960 1963 1967 1971 1977 1982 1990 1993 1995 1996 1997 1998 2000 2001 2001 2000 0 0 0 0 0 0 1939 1963 1963 1963 1957 1944 1937 1933 1928 1921 1911 1907 1904 1898 1892 1890 1888 1881 1871 1867 1865 1861 1858 1855 1851 1849 1846 1844 1842 1839 1835 1831 1828 1825 1823 1821 1818 1814 1812 1810 1808 1805 1803 1802 1799 1796 1793 1790 1788 1786 1784 1782 1780 1778 1776 1774 1772 1771 1768 1766 1766 1764 1762 1760 1758 1757 1756 1754 1753 1752 1751 1750 1749 1748 1748 1747 1746 1746 1745 1744 1744 1742 1742 1741 1741 1740 1740 1739 1739 1739 1739 1739 1739 1741 1742 1744 1744 1744 1744 1743 1743 1743 1743 1743 1743 1744 1745 1746 1746 1747 1748 1749 1749 1750 1751 1752 1753 1754 1755 1756 1757 1757 1760 1762 1767 1771 1776 1782 1783 1783 1783 1769 1749 0 0 0 0 0 0 0 0 0 0 0 0 0 0 0 0 0 0 0 0 0 0 0 0 0 0 0 0 0 0 0 0 0 0 0 0 0 0 0 0 0 0 0 0 0 2068 2068 2075 2075 2074 2074 2074 2074 2091 2094 2100 2100 2100 2092 0 0 0 0 0 0 0 0 0 0 0 0 0 0 0 0 0 0 0 0 0 0 0 0 0 1404 1412 1412 1412 1401 1387 1381 1369 1351 1328 1308 1289 1263 0 0 0 0 992 983 980 978 978 978 979 979 979 978 976 974 972 970 968 967 965 965 965 965 966 966 967 968 969 971 975 975 975 973 972 968 963 956 951 947 943 941 938 935 935 935
1688 1688 1710 1710 1710 1701 1688 1688 1688 1704 1717 1719 1719 1719 1719 1719 1719 1721 1723 1725 1731 1736 1743 1746 1751 1755 1758 1770 1779 1779 1780 1781 1781 1794 1810 1810 1810 1803 1797 1792 1773 1764 0 0 1674 1667 1667 1668 1668 1678 1679 1679 1679 1679 1679 1680 1688 1689 1692 1693 1694 1696 1696 1700 1720 1733 1744 1759 1760 1762 1762 1762 1764 1764 1784 1807 1819 1827 1843 1858 1868 1883 1887 1905 1918 1925 1935 1938 1938 1938 1932 1908 0 0 0 0 0 0 1991 2008 2013 2016 2016 2018 2019 2020 2026 2035 2043 2051 2057 2057 2058 2066 2075 2084 2096 2104 2109 2114 2123 2130 2136 2141 2147 2153 2156 2158 2162 2167 2173 2177 2180 2186 2190 2200 2212 2223 2227 2233 2241 2246 2247 2250 2252 2260 2268 2271 2271 2273 2276 2283 2287 2288 2292 2293 2295 2302 2309 2313 2314 2318 2321 2325 2328 2331 2334 2337 2341 2347 2354 2362 2371 2376 2381 2385 2392 2398 2403 2407 2410 2413 2413 2415 2415 2424 2434 2441 2446 2457 2460 2464 2469 2470 2472 2475 2482 2497 2523 2523 2530 2537 2545 2680 2860 2954 3040 3097 3149 3216 3262 3273 3285 3306 3311 3311 3311 3283 3187 2977 2755 2586 2586 2586 2722 3157 3330 3354 3383 3383 3383 3357 3328 3297 3253 3184 2912 0 0 0 2038 2027 1994 1970 1960 1951 1948 1944 1940 1934 1929 1926 1922 1915 1912 1908 1905 1902 1898 1894 1891 1890 1888 1887 1885 1882 1880 1880 1879 1877 1875 1874 1872 1870 1868 1867 1867 1866 1865 1864 1864 1864 1864 1864 1864 1864 1864 1865 1865 1866 1867 1867 1867 1868 1868 1868 1869 1869 1869 1869 1871 1871 1872 1873 1874 1875 1876 1878 1880 1881 1883 1885 1887 1890 1892 1894 1897 1901 1904 1906 1908 1909 1912 1914 1917 1919 1922 1924 1926 1929 1930 1933 1935 1937 1940 1943 1945 1948 1951 1952 1955 1958 1961 1964 1968 1974 1979 1986 1991 1995 1997 2000 2004 2004 2004 2001 2001 0 0 0 0 0 0 0 1960 1964 1964 1964 1953 1944 1937 1933 1929 1922 1914 1911 1906 1902 1897 1893 1889 1883 1875 1870 1866 1865 1861 1857 1854 1850 1847 1844 1842 1839 1835 1832 1828 1825 1823 1821 1819 1816 1812 1810 1807 1805 1803 1802 1799 1796 1793 1790 1788 1785 1784 1782 1780 1778 1776 1775 1772 1771 1769 1767 1766 1764 1761 1760 1758 1757 1756 1754 1753 1752 1751 1750 1749 1748 1748 1748 1747 1746 1745 1745 1744 1742 1742 1741 1741 1740 1740 1740 1740 1739 1739 1740 1740 1742 1745 1745 1745 1744 1744 1744 1743 1743 1743 1743 1744 1744 1746 1746 1748 1749 1749 1749 1749 1751 1752 1753 1754 1755 1756 1756 1758 1760 1762 1763 1766 1771 1776 1782 1783 1783 1783 1769 0 0 0 0 0 0 0 0 0 0 0 0 0 0 0 0 0 0 0 0 0 0 0 0 0 0 0 0 0 0 0 0 0 0 0 0 0 0 0 0 0 0 0 0 0 0 2095 2095 2095 2090 2080 2074 2074 2074 2091 2094 2099 2099 2099 0 0 0 0 0 0 0 0 0 0 0 0 0 0 0 0 0 0 0 0 0 0 0 0 0 0 1412 1412 1412 1412 1395 1387 1375 1361 1345 1324 1305 1286 1263 0 0 0 0 994 983 980 977 977 977 977 977 977 977 975 972 970 969 966 964 963 963 963 963 964 964 965 966 968 970 972 972 972 972 972 970 966 962 954 948 943 942 938 935 935 935
1688 1688 1710 1710 1710 1687 1678 1678 1678 1698 1716 1717 1718 1718 1719 1719 1719 1723 1724 1725 1731 1735 1737 1742 1745 1748 1756 1770 1778 1780 1781 1781 1781 1788 1806 1806 1806 1800 1773 0 0 0 0 1667 1660 1667 1671 1674 1678 1680 1680 1679 1679 1679 1679 1680 1688 1695 1696 1696 1696 1696 1696 1704 1723 1741 1752 1760 1762 1763 1765 1771 1774 1775 1784 1807 1822 1828 1843 1873 1879 1883 1887 1905 1918 1925 1935 1938 1938 1938 1932 1912 0 0 0 0 0 0 1984 2004 2013 2016 2016 2018 2019 2019 2026 2035 2043 2051 2057 2057 2058 2067 2077 2090 2102 2107 2110 2115 2123 2131 2137 2142 2147 2149 2153 2158 2162 2167 2172 2177 2180 2186 2190 2200 2212 2223 2227 2232 2241 2246 2247 2247 2251 2256 2260 2263 2264 2269 2276 2283 2287 2288 2292 2292 2295 2301 2308 2311 2314 2317 2321 2324 2326 2329 2332 2335 2340 2347 2354 2361 2371 2375 2378 2385 2390 2396 2403 2405 2409 2413 2413 2413 2413 2413 2421 2431 2446 2456 2459 2464 2469 2472 2477 2483 2489 2504 2524 2524 2534 2539 2778 2914 3013 3105 3182 3232 3281 3290 3290 3294 3297 3306 3311 3311 3311 3284 3206 2984 2767 2581 2581 2581 2722 3163 3330 3368 3385 3385 3385 3357 3328 3297 3253 3184 2912 0 0 0 2046 2027 1994 1967 1958 1951 1949 1945 1940 1934 1929 1927 1923 1920 1916 1912 1909 1903 1900 1895 1893 1891 1890 1888 1887 1884 1882 1881 1879 1878 1876 1874 1873 1870 1868 1868 1867 1866 1866 1865 1864 1864 1865 1865 1865 1865 1865 1866 1867 1867 1868 1868 1868 1868 1870 1870 1870 1870 1870 1870 1871 1872 1873 1874 1875 1876 1877 1879 1880 1882 1884 1886 1888 1890 1893 1895 1898 1901 1904 1906 1908 1909 1913 1915 1917 1919 1922 1924 1926 1929 1931 1933 1935 1938 1940 1944 1947 1949 1951 1953 1955 1960 1962 1964 1968 1974 1979 1986 1991 1995 2000 2010 2011 2011 2011 2001 0 0 0 0 0 0 0 1971 1972 1972 1972 1966 1953 1944 1937 1934 1931 1923 1916 1912 1908 1906 1901 1896 1889 1884 1878 1876 1874 1870 1866 1861 1855 1851 1847 1844 1842 1838 1834 1832 1828 1825 1824 1821 1819 1817 1813 1810 1807 1805 1803 1801 1799 1796 1793 1790 1788 1785 1783 1782 1780 1778 1777 1775 1772 1771 1768 1767 1766 1764 1761 1760 1758 1757 1755 1754 1753 1752 1751 1750 1749 1748 1748 1748 1747 1746 1745 1744 1743 1742 1741 1741 1740 1740 1740 1740 1740 1740 1740 1740 1741 1743 1745 1745 1745 1745 1745 1745 1745 1745 1745 1745 1745 1745 1746 1746 1748 1749 1749 1750 1750 1751 1752 1753 1754 1755 1756 1756 1758 1761 1763 1763 1766 1771 1776 1782 1783 1783 1783 0 0 0 0 0 0 0 0 0 0 0 0 0 0 0 0 0 0 0 0 0 0 0 0 0 0 0 0 0 0 0 0 0 0 0 0 0 0 0 0 0 0 0 0 0 0 2072 2095 2110 2127 2127 2127 2074 2074 2074 2091 2097 2097 2097 2097 0 0 0 0 0 0 0 0 0 0 0 0 0 0 0 0 0 0 0 0 0 0 0 0 0 1400 1408 1408 1408 1402 1392 1383 1365 1352 1336 1321 1304 1285 1264 0 0 0 0 997 983 981 977 976 976 976 976 976 975 973 971 968 966 964 962 961 961 961 961 962 963 964 965 965 967 970 972 972 972 972 970 969 965 958 951 949 943 939 935 935 935
1688 1688 1706 1706 1706 1670 1670 1670 1673 1681 1694 1696 1704 1707 1709 1710 1719 1723 1723 1724 1725 1726 1728 1731 1737 1747 1750 1767 1776 1779 1779 1780 1781 1787 1797 1797 1797 1790 0 0 0 0 1630 1658 1667 1675 1676 1678 1679 1680 1680 1679 1679 1679 1679 1680 1688 1698 1702 1702 1702 1702 1702 1715 1732 1743 1756 1765 1771 1771 1774 1776 1803 1803 1807 1807 1822 1829 1843 1873 1879 1885 1887 1905 1918 1925 1929 1937 1937 1937 1932 1912 1872 0 0 0 0 0 1979 1997 2008 2015 2015 2018 2018 2019 2026 2042 2049 2053 2057 2057 2059 2067 2077 2090 2102 2107 2110 2115 2123 2131 2137 2141 2142 2145 2150 2155 2161 2167 2171 2176 2180 2185 2190 2200 2212 2223 2226 2231 2238 2245 2245 2247 2250 2254 2258 2258 2262 2268 2276 2283 2287 2288 2290 2292 2296 2301 2306 2309 2312 2317 2321 2323 2325 2328 2330 2334 2338 2346 2353 2359 2364 2370 2375 2382 2388 2395 2402 2404 2408 2408 2408 2409 2409 2413 2421 2431 2446 2454 2458 2464 2467 2472 2483 2490 2497 2511 2526 2553 2574 2627 2780 2914 3014 3241 3273 3281 3290 3290 3290 3294 3297 3306 3311 3311 3311 3284 3206 2989 2767 2563 2563 2563 2722 3206 3330 3368 3384 3384 3384 3355 3328 3292 3248 3155 2856 0 0 0 2046 2027 1994 1967 1958 1954 1952 1945 1940 1934 1929 1927 1923 1920 1916 1912 1909 1905 1900 1897 1894 1894 1892 1890 1887 1884 1883 1881 1879 1878 1876 1875 1873 1871 1869 1868 1868 1866 1866 1865 1865 1865 1865 1865 1866 1866 1866 1867 1867 1869 1869 1869 1869 1870 1870 1870 1872 1872 1872 1872 1872 1873 1874 1875 1876 1877 1878 1879 1880 1883 1884 1886 1888 1890 1893 1895 1898 1901 1904 1907 1909 1911 1913 1915 1917 1919 1922 1924 1926 1929 1932 1933 1935 1938 1941 1945 1949 1953 1955 1955 1959 1961 1965 1967 1971 1974 1979 1986 1991 1995 2000 2013 2013 2013 2011 0 0 0 0 0 0 0 0 1975 1976 1976 1975 1966 1953 1946 1940 1934 1932 1926 1921 1914 1909 1907 1904 1899 1891 1886 1881 1879 1876 1875 1869 1863 1858 1853 1849 1846 1842 1838 1834 1831 1828 1825 1824 1821 1819 1817 1813 1810 1807 1805 1803 1801 1799 1796 1793 1790 1787 1785 1783 1781 1780 1778 1777 1775 1773 1771 1768 1767 1766 1763 1761 1760 1758 1757 1756 1754 1753 1752 1751 1750 1749 1748 1748 1748 1747 1746 1745 1744 1743 1742 1741 1741 1741 1741 1741 1741 1741 1741 1741 1742 1743 1744 1745 1745 1745 1745 1746 1746 1746 1746 1746 1745 1745 1745 1746 1747 1748 1750 1750 1750 1750 1751 1753 1753 1754 1755 1756 1756 1757 1761 1763 1763 1765 1767 1774 1778 1782 1782 1782 0 0 0 0 0 0 0 0 0 0 0 0 0 0 0 0 0 0 0 0 0 0 0 0 0 0 0 0 0 0 0 0 0 0 0 0 0 0 0 0 0 0 0 0 0 0 2072 2095 2110 2127 2127 2127 2104 2104 2104 2105 2105 2105 2101 0 0 0 0 0 0 0 0 0 0 0 0 0 0 0 0 0 0 0 0 0 0 0 0 0 1383 1400 1402 1402 1402 1386 1384 1368 1357 1344 1330 1316 1302 1285 1264 0 0 0 0 0 987 981 977 976 976 976 975 975 974 971 969 967 966 963 960 959 959 959 959 960 961 963 963 965 965 969 971 971 972 972 972 971 968 961 953 950 945 941 937 936 936
1664 1664 1676 1676 1676 1666 1665 1662 1662 1665 1669 1678 1682 1693 1700 1706 1717 1720 1720 1720 1718 1718 1718 1722 1733 1745 1750 1764 1767 1772 1774 1778 1779 1782 1782 1782 0 0 0 0 1623 1623 1630 1658 1676 1676 1677 1676 1675 1674 1673 1672 1670 1670 1670 1680 1685 1699 1713 1713 1714 1719 1719 1733 1745 1752 1765 1783 1794 1795 1798 1800 1804 1811 1831 1831 1840 1840 1840 1873 1879 1883 1886 1893 1901 1909 1916 1927 1931 1931 1931 1913 1885 1856 0 0 0 0 1977 1990 1993 2007 2015 2019 2021 2026 2035 2043 2050 2055 2060 2062 2062 2068 2079 2090 2102 2107 2110 2115 2122 2130 2136 2140 2141 2144 2149 2155 2160 2166 2170 2175 2178 2184 2189 2198 2208 2217 2219 2222 2237 2243 2244 2247 2248 2251 2253 2256 2262 2267 2276 2284 2287 2288 2290 2292 2296 2298 2302 2306 2312 2316 2319 2320 2325 2327 2329 2332 2338 2346 2353 2359 2360 2364 2367 2377 2383 2392 2399 2399 2399 2396 2396 2396 2405 2413 2420 2429 2444 2451 2452 2454 2460 2472 2484 2492 2507 2542 2629 2716 2842 2923 2987 3059 3148 3244 3273 3281 3290 3290 3290 3294 3297 3303 3306 3306 3303 3284 3209 3014 2769 2531 2531 2531 2798 3208 3325 3368 3368 3368 3355 3328 3308 3283 3237 3149 2855 0 0 0 2046 2023 1994 1967 1958 1955 1952 1947 1941 1936 1929 1927 1923 1920 1916 1913 1909 1906 1901 1898 1897 1895 1893 1891 1889 1887 1884 1881 1879 1878 1877 1875 1873 1872 1871 1870 1868 1867 1867 1866 1866 1865 1865 1866 1866 1867 1867 1868 1869 1870 1870 1870 1870 1870 1870 1871 1872 1872 1872 1872 1872 1873 1875 1876 1877 1878 1879 1879 1881 1883 1885 1886 1888 1892 1894 1897 1899 1901 1904 1906 1909 1911 1913 1915 1917 1919 1922 1924 1926 1929 1932 1933 1935 1939 1943 1946 1950 1953 1956 1958 1960 1963 1966 1969 1973 1975 1979 1984 1986 1992 2000 2013 2013 2013 2008 0 0 0 0 0 0 0 0 1976 1976 1976 1974 1966 1958 1950 1940 1936 1932 1929 1926 1920 1913 1908 1905 1900 1893 1887 1884 1882 1880 1876 1870 1864 1859 1855 1850 1847 1843 1838 1834 1831 1828 1825 1824 1821 1819 1817 1813 1810 1806 1805 1803 1801 1798 1795 1792 1790 1787 1785 1783 1781 1780 1779 1777 1775 1773 1771 1768 1767 1766 1764 1762 1761 1759 1757 1756 1754 1753 1752 1751 1750 1749 1748 1748 1747 1747 1746 1745 1744 1743 1742 1741 1741 1741 1741 1741 1741 1741 1741 1742 1742 1743 1744 1745 1745 1745 1745 1746 1746 1746 1746 1746 1745 1745 1745 1745 1747 1748 1750 1750 1750 1750 1752 1753 1753 1754 1755 1756 1756 1757 1761 1762 1763 1765 1767 1772 1776 1780 1780 1780 0 0 0 0 0 0 0 0 0 0 0 0 0 0 0 0 0 0 0 0 0 0 0 0 0 0 0 0 0 0 0 0 0 0 0 0 0 0 0 0 0 0 0 0 0 2064 2072 2080 2096 2127 2127 2127 2108 2108 2108 2108 2108 2105 0 0 0 0 0 0 0 0 0 0 0 0 0 0 0 0 0 0 0 0 0 0 0 0 0 1383 1391 1401 1401 1401 1389 1382 1377 1365 1356 1342 1328 1315 1302 1285 1264 1239 0 0 0 0 989 981 977 976 975 975 975 973 973 970 968 966 964 962 960 958 957 957 958 958 960 961 962 964 965 968 970 970 972 972 972 972 969 962 961 953 949 943 942 939 939
1649 1649 1658 1658 1658 1656 1656 1654 1653 1656 1660 1660 1663 1683 1691 1704 1710 1714 1714 1714 1711 1711 1711 1722 1733 1745 1750 1761 1761 1763 1771 1771 1771 1767 1762 0 0 0 0 1609 1609 1609 1630 1658 1676 1676 1676 1675 1660 1658 1658 1658 1661 1661 1667 1680 1685 1705 1724 1727 1732 1736 1756 1768 1777 1790 1800 1818 1830 1845 1846 1846 1845 1845 1844 1844 1844 1844 1844 1848 1876 1880 1886 1891 1901 1907 1915 1917 1920 1920 1917 1914 1898 1889 0 0 0 0 1976 1990 1993 2005 2015 2019 2021 2027 2037 2044 2051 2056 2061 2064 2065 2070 2079 2090 2098 2104 2107 2113 2121 2130 2135 2139 2141 2144 2149 2154 2159 2164 2169 2174 2178 2184 2188 2194 2201 2202 2209 2218 2231 2239 2244 2245 2248 2250 2252 2255 2260 2266 2276 2284 2287 2287 2288 2291 2296 2298 2299 2302 2307 2312 2316 2320 2325 2326 2328 2332 2336 2343 2351 2355 2356 2356 2357 2361 2372 2382 2388 2388 2388 2388 2388 2394 2405 2415 2420 2427 2435 2437 2451 2452 2460 2472 2486 2502 2569 2754 2857 2950 3014 3043 3102 3167 3237 3244 3273 3281 3281 3283 3283 3285 3295 3300 3300 3300 3272 3270 3206 3080 2769 2520 2520 2520 2831 3212 3312 3336 3336 3336 3333 3306 3283 3263 3226 3135 2836 0 0 0 2046 2018 1994 1972 1963 1955 1952 1948 1941 1936 1929 1927 1923 1920 1916 1912 1909 1906 1902 1899 1897 1895 1894 1892 1890 1887 1884 1883 1880 1879 1877 1876 1875 1874 1873 1871 1869 1868 1867 1867 1867 1867 1867 1867 1867 1868 1869 1869 1870 1870 1871 1871 1871 1871 1871 1871 1872 1872 1873 1873 1874 1875 1875 1876 1878 1878 1879 1880 1881 1883 1885 1887 1889 1892 1895 1897 1899 1901 1904 1906 1909 1911 1913 1916 1917 1919 1922 1924 1926 1930 1932 1934 1937 1940 1944 1946 1950 1953 1956 1959 1961 1964 1968 1971 1975 1977 1979 1984 1986 1992 2000 2013 2013 2013 2002 0 0 0 0 0 0 0 0 1982 1982 1982 1974 1966 1958 1950 1941 1937 1935 1931 1926 1920 1915 1910 1905 1901 1895 1890 1887 1887 1884 1877 1871 1866 1862 1857 1853 1848 1844 1838 1834 1831 1828 1825 1822 1820 1819 1815 1813 1809 1806 1804 1802 1800 1798 1795 1792 1790 1787 1785 1783 1781 1780 1779 1778 1775 1773 1771 1768 1767 1766 1764 1763 1761 1759 1757 1755 1754 1753 1752 1751 1750 1749 1748 1748 1747 1746 1746 1745 1744 1743 1742 1741 1741 1741 1741 1741 1741 1741 1741 1742 1742 1743 1744 1744 1745 1745 1745 1746 1746 1746 1746 1746 1745 1745 1745 1745 1747 1748 1750 1750 1751 1751 1752 1753 1753 1754 1754 1754 1755 1756 1759 1761 1762 1765 1767 1772 1772 1772 1767 1761 0 0 0 0 0 0 0 0 0 0 0 0 0 0 0 0 0 0 0 0 0 0 0 0 0 0 0 0 0 0 0 0 0 0 0 0 0 0 0 0 0 0 0 0 0 2053 2056 2079 2094 2106 2106 2106 2108 2108 2108 2108 2108 0 0 0 0 0 0 0 0 0 0 0 0 0 0 0 0 0 0 0 0 0 0 0 0 1373 1381 1393 1400 1400 1400 1397 1386 1379 1374 1364 1355 1342 1328 1315 1302 1287 1268 1247 0 0 0 0 992 981 977 973 972 972 971 971 971 968 966 964 963 961 958 957 957 957 957 958 958 960 961 964 965 967 969 970 972 974 974 974 971 966 964 960 955 949 946 945 945
1628 1628 1640 1645 1645 1647 1649 1649 1648 1648 1648 1648 1660 1664 1678 1688 1693 1702 1711 1711 1711 1711 1711 1722 1733 1747 1750 1761 1761 1763 1763 1763 1753 0 0 0 0 0 1605 1605 1605 1609 1630 1658 1673 1673 1673 1663 1654 1654 1654 1658 1661 1661 1667 1682 1685 1705 1724 1741 1749 1762 1788 1805 1806 1806 1822 1826 1840 1846 1846 1847 1848 1847 1847 1846 1844 1832 1832 1832 1860 1880 1880 1889 1898 1905 1912 1917 1917 1917 1918 1917 1914 1889 0 0 0 0 1976 1985 1993 2005 2015 2019 2025 2034 2037 2045 2053 2058 2062 2064 2068 2074 2081 2090 2096 2101 2106 2112 2121 2127 2130 2133 2136 2141 2146 2151 2158 2162 2166 2168 2171 2177 2184 2187 2189 2195 2203 2213 2222 2231 2240 2243 2245 2247 2247 2252 2259 2266 2276 2284 2284 2284 2287 2291 2296 2297 2298 2299 2305 2310 2316 2320 2322 2326 2328 2331 2332 2337 2343 2347 2347 2347 2349 2350 2356 2368 2376 2381 2382 2383 2385 2393 2408 2418 2421 2427 2435 2437 2451 2452 2460 2499 2604 2714 2885 2944 3032 3088 3135 3168 3192 3222 3237 3241 3249 3254 3257 3257 3263 3281 3295 3296 3296 3296 3266 3228 3204 3080 2769 2508 2508 2508 2853 3221 3296 3313 3317 3317 3317 3293 3270 3241 3207 3135 2833 0 0 0 2046 2018 1994 1973 1963 1957 1952 1945 1941 1936 1929 1927 1923 1920 1916 1912 1909 1906 1903 1900 1898 1895 1894 1892 1890 1888 1885 1883 1881 1879 1878 1876 1875 1874 1873 1871 1870 1868 1868 1868 1868 1868 1868 1868 1868 1868 1869 1871 1871 1871 1871 1871 1871 1871 1871 1871 1871 1872 1873 1873 1874 1875 1876 1877 1878 1878 1879 1880 1881 1882 1885 1886 1890 1893 1896 1898 1900 1901 1904 1907 1909 1912 1914 1916 1918 1920 1922 1926 1929 1930 1932 1935 1937 1941 1944 1946 1950 1952 1956 1959 1962 1965 1969 1973 1978 1981 1981 1984 1986 1992 2000 2010 2010 2010 2001 0 0 0 0 0 0 0 0 2062 2027 1992 1976 1958 1958 1950 1943 1938 1936 1932 1927 1922 1918 1911 1908 1904 1898 1895 1893 1891 1887 1878 1872 1866 1863 1857 1854 1850 1844 1838 1833 1831 1827 1825 1822 1820 1817 1814 1812 1809 1805 1804 1802 1800 1798 1795 1792 1790 1787 1785 1783 1781 1780 1779 1778 1775 1773 1771 1768 1767 1766 1764 1763 1761 1759 1757 1755 1754 1753 1752 1751 1750 1750 1748 1748 1746 1746 1746 1745 1744 1743 1743 1742 1741 1741 1741 1741 1741 1741 1742 1742 1742 1743 1744 1744 1744 1745 1745 1745 1746 1746 1746 1746 1745 1745 1745 1745 1747 1748 1749 1750 1751 1751 1752 1753 1753 1754 1754 1754 1755 1755 1755 1758 1760 1765 1765 1768 1768 1768 1756 1754 0 0 0 0 0 0 0 0 0 0 0 0 0 0 0 0 0 0 0 0 0 0 0 0 0 0 0 0 0 0 0 0 0 0 0 0 0 0 0 0 0 0 0 0 2045 2051 2056 2059 2065 2077 2079 2091 2104 2106 2109 2109 2109 0 0 0 0 0 0 0 0 0 0 0 0 0 0 0 0 0 0 0 0 0 0 0 0 1391 1391 1400 1402 1402 1402 1391 1386 1378 1371 1360 1349 1336 1327 1315 1304 1290 1275 1254 0 0 0 0 998 995 977 968 964 964 964 965 965 965 964 962 960 959 958 956 956 956 956 956 957 958 960 962 965 966 967 969 972 975 975 975 974 971 970 967 963 957 952 951 951
1625 1625 1639 1642 1642 1642 1642 1638 1636 1636 1636 1636 1639 1656 1656 1669 1680 1693 1703 1709 1710 1711 1711 1728 1752 1756 1758 1759 1758 1756 1755 0 0 0 0 1634 1624 1597 1597 1597 1603 1620 1627 1656 1671 1671 1671 1653 1653 1653 1654 1658 1661 1663 1670 1684 1701 1707 1725 1743 1760 1788 1807 1812 1816 1816 1826 1834 1840 1846 1846 1847 1848 1848 1850 1850 1850 1831 1831 1831 1843 1867 1880 1889 1894 1899 1907 1914 1917 1917 1917 1917 1914 0 0 0 0 0 1973 1985 1996 2005 2020 2033 2035 2035 2037 2045 2053 2059 2064 2067 2069 2077 2082 2089 2095 2099 2104 2111 2116 2122 2126 2129 2130 2132 2143 2148 2154 2160 2161 2163 2166 2170 2175 2178 2189 2195 2203 2213 2222 2229 2237 2239 2240 2242 2245 2250 2256 2264 2273 2280 2281 2282 2282 2289 2296 2297 2298 2299 2303 2308 2315 2319 2322 2325 2327 2330 2332 2335 2337 2338 2344 2345 2346 2350 2356 2368 2374 2375 2381 2382 2385 2393 2410 2419 2422 2427 2435 2437 2460 2508 2578 2732 2840 2955 3053 3115 3179 3221 3242 3242 3242 3240 3237 3237 3227 3227 3227 3233 3244 3279 3290 3294 3294 3294 3264 3223 3102 3080 2753 2493 2493 2493 2887 3221 3282 3292 3293 3293 3285 3285 3256 3223 3187 3133 2833 0 0 0 2050 2018 1993 1973 1965 1957 1948 1945 1941 1936 1930 1926 1923 1918 1916 1912 1909 1906 1903 1900 1898 1895 1894 1892 1891 1888 1885 1883 1882 1880 1878 1877 1876 1874 1874 1872 1870 1869 1869 1869 1869 1869 1869 1869 1869 1869 1871 1871 1871 1871 1871 1871 1871 1871 1871 1871 1871 1872 1872 1873 1874 1875 1876 1877 1879 1879 1880 1881 1881 1882 1885 1887 1890 1893 1896 1898 1900 1902 1904 1907 1909 1913 1915 1917 1919 1923 1924 1928 1930 1932 1933 1936 1937 1941 1944 1946 1949 1952 1956 1959 1963 1965 1973 1976 1980 1982 1984 1987 1989 1994 2000 2008 2008 2008 1997 0 0 0 0 0 0 0 0 2089 2033 2002 1981 1958 1957 1950 1943 1939 1937 1933 1930 1925 1920 1914 1911 1906 1903 1899 1896 1893 1889 1883 1873 1868 1866 1861 1854 1851 1845 1838 1833 1830 1827 1824 1822 1819 1816 1813 1811 1808 1805 1804 1801 1800 1797 1795 1792 1790 1787 1787 1784 1782 1780 1779 1778 1775 1773 1771 1768 1767 1766 1764 1762 1761 1758 1757 1755 1754 1753 1752 1752 1751 1750 1748 1747 1746 1746 1746 1745 1744 1743 1743 1743 1742 1742 1742 1742 1742 1742 1742 1743 1743 1743 1744 1744 1744 1744 1745 1745 1745 1746 1746 1746 1746 1746 1746 1746 1747 1748 1749 1751 1751 1751 1752 1753 1753 1754 1754 1754 1755 1755 1755 1755 1759 1762 1764 1764 1764 1764 1749 1749 0 0 0 0 0 0 0 0 0 0 0 0 0 0 0 0 0 0 0 0 0 0 0 0 0 0 0 0 0 0 0 0 0 0 0 0 0 0 0 0 0 0 0 2034 2046 2051 2056 2059 2063 2070 2072 2091 2104 2106 2106 2106 0 0 0 0 0 0 0 0 0 0 0 0 0 0 0 0 0 0 0 0 0 0 0 0 0 1393 1398 1402 1402 1402 1395 1383 1379 1371 1364 1355 1343 1335 1326 1315 1304 1290 1275 1260 1241 0 0 0 0 1002 977 964 958 958 958 962 962 962 962 960 958 958 957 956 955 955 955 955 955 957 959 961 963 965 967 969 972 975 976 977 977 977 975 973 969 964 960 957 957
1616 1616 1629 1630 1630 1630 1630 1630 1632 1633 1634 1634 1635 1639 1652 1661 1671 1691 1703 1710 1714 1716 1722 1734 1752 1752 1758 1758 1750 1747 0 0 0 1615 1604 1602 1597 1580 1580 1580 1598 1623 1634 1642 1649 1650 1650 1650 1650 1653 1657 1665 1667 1674 1683 1690 1703 1708 1726 1745 1793 1801 1808 1815 1819 1823 1830 1835 1839 1846 1846 1846 1847 1849 1850 1850 1850 1844 1824 1824 1824 1855 1873 1885 1893 1899 1907 1914 1917 1917 1918 1918 1914 0 0 0 0 0 1965 1985 1997 2010 2024 2034 2036 2037 2040 2045 2053 2059 2064 2068 2072 2077 2082 2088 2089 2093 2099 2106 2114 2120 2124 2127 2128 2131 2137 2145 2151 2153 2157 2159 2162 2166 2175 2178 2189 2195 2203 2213 2222 2228 2233 2234 2235 2237 2244 2249 2254 2261 2270 2275 2276 2279 2280 2287 2294 2297 2298 2298 2302 2308 2312 2319 2322 2325 2327 2330 2332 2335 2336 2337 2339 2344 2346 2350 2356 2368 2374 2375 2381 2382 2385 2394 2412 2421 2431 0 0 2511 2663 2705 2773 2862 2984 3081 3174 3219 3253 3266 3266 3266 3251 3237 3231 3228 3226 3216 3216 3216 3227 3248 3290 3292 3292 3292 3263 3218 3097 2755 2748 0 0 0 2887 3221 3267 3270 3270 3270 3267 3263 3229 3202 3170 3119 2833 0 0 0 2061 2021 1993 1973 1966 1958 1948 1945 1941 1936 1931 1927 1923 1917 1914 1912 1909 1906 1903 1900 1898 1895 1894 1893 1891 1888 1886 1884 1883 1881 1880 1879 1877 1876 1874 1872 1871 1870 1870 1870 1870 1870 1870 1870 1870 1870 1871 1871 1871 1871 1871 1871 1871 1871 1871 1871 1871 1872 1873 1873 1874 1875 1876 1877 1879 1880 1881 1882 1882 1882 1885 1887 1890 1893 1896 1898 1900 1903 1905 1908 1911 1914 1916 1919 1921 1923 1927 1929 1931 1932 1933 1936 1938 1941 1944 1946 1949 1951 1955 1959 1963 1969 1973 1977 1980 1983 1985 1989 1994 2000 2003 2006 2006 2006 1993 0 0 0 0 0 0 0 2095 2095 2033 2008 1981 1958 1957 1952 1944 1941 1939 1934 1932 1928 1923 1918 1913 1908 1904 1901 1897 1893 1890 1885 1879 1871 1868 1864 1859 1853 1846 1838 1835 1830 1826 1823 1822 1818 1816 1813 1810 1808 1805 1804 1801 1799 1797 1795 1792 1790 1787 1787 1785 1783 1781 1779 1778 1775 1773 1771 1769 1767 1766 1764 1762 1759 1758 1757 1755 1755 1754 1753 1752 1751 1750 1748 1747 1746 1746 1746 1745 1745 1744 1744 1744 1743 1743 1743 1743 1743 1743 1743 1743 1743 1743 1743 1744 1744 1744 1745 1745 1745 1745 1746 1746 1746 1746 1746 1747 1747 1749 1749 1751 1751 1751 1752 1753 1753 1754 1755 1755 1755 1755 1755 1755 1756 1759 1760 1764 1764 1764 1741 1717 0 0 0 0 0 0 0 0 0 0 0 0 0 0 0 0 0 0 0 0 0 0 0 0 0 0 0 0 0 0 0 0 0 0 0 0 0 0 0 0 0 0 2023 2037 2050 2051 2057 2059 2063 2070 2072 2089 2097 2097 2097 0 0 0 0 0 0 0 0 0 0 0 0 0 0 0 0 0 0 0 0 0 0 0 0 0 0 1408 1410 1410 1410 1402 1393 1383 1374 1364 1355 1346 1336 1329 1323 1315 1304 1290 1275 1260 1241 0 0 0 0 0 979 963 958 958 958 962 962 962 959 959 958 957 956 956 954 954 954 954 954 956 958 959 961 963 966 969 972 975 976 978 979 979 979 978 974 970 962 958 958
1600 1600 1623 1623 1623 1615 1615 1615 1620 1632 1633 1634 1635 1639 1652 1661 1670 1690 1702 1710 1715 1720 1722 1734 1752 1752 1752 1736 1735 0 1667 1647 1624 1612 1604 1602 1578 1578 1578 1578 1598 1624 1634 1639 1640 1640 1641 1648 1650 1654 1675 1690 1706 1706 1721 1734 1750 1759 1763 1784 1795 1801 1809 1815 1819 1823 1830 1835 1839 1842 1844 1846 1846 1849 1850 1850 1850 1850 1830 1830 1830 1854 1872 1883 1890 1899 1907 1913 1917 1917 1917 1912 1906 0 0 0 0 0 1956 1985 1999 2011 2024 2035 2039 2039 2040 2045 2053 2059 2064 2068 2072 2077 2082 2087 2088 2091 2095 2102 2108 2119 2124 2125 2127 2130 2136 2143 2148 2150 2152 2158 2162 2166 2175 2178 2190 2195 2205 2213 2221 2228 2233 2233 2234 2237 2243 2248 2253 2259 2265 2270 2271 2272 2277 2285 2292 2293 2295 2297 2301 2307 2309 2314 2317 2322 2324 2329 2331 2332 2335 2336 2339 2344 2348 2354 2368 2371 2374 2375 2381 2386 2389 2402 2425 0 0 0 2588 2750 2830 2897 2952 3026 3108 3184 3244 3263 3275 3275 3275 3266 3251 3237 3231 3227 3226 3216 3216 3216 3227 3248 3291 3291 3291 3277 3252 3217 3088 2755 2709 0 0 0 2887 3214 3250 3253 3253 3250 3235 3229 3202 3179 3147 3086 2833 0 0 0 2061 2022 1993 1971 1966 1962 1948 1945 1941 1936 1932 1927 1923 1917 1914 1912 1909 1906 1903 1901 1898 1896 1895 1893 1891 1889 1887 1885 1883 1882 1881 1881 1879 1878 1876 1874 1872 1872 1872 1871 1870 1870 1870 1870 1870 1871 1872 1872 1872 1872 1872 1872 1872 1872 1871 1871 1871 1872 1873 1873 1874 1876 1876 1878 1879 1880 1881 1882 1884 1885 1886 1889 1892 1895 1897 1899 1900 1903 1905 1908 1912 1915 1916 1919 1921 1924 1928 1930 1932 1934 1935 1937 1938 1941 1943 1946 1949 1951 1955 1959 1965 1972 1973 1977 1981 1984 1986 1993 1998 2003 2006 2006 2006 1996 0 0 0 0 0 0 0 0 2095 2095 2027 2008 1988 1967 1957 1952 1949 1943 1939 1936 1932 1928 1923 1918 1913 1908 1904 1901 1897 1894 1890 1886 1882 1878 1872 1866 1861 1855 1847 1839 1835 1831 1826 1823 1820 1818 1815 1813 1810 1807 1805 1803 1801 1799 1797 1795 1792 1790 1788 1787 1785 1784 1782 1779 1778 1775 1773 1771 1769 1769 1767 1764 1762 1759 1758 1757 1755 1755 1754 1753 1752 1751 1750 1748 1747 1747 1746 1746 1746 1745 1745 1745 1745 1744 1743 1743 1743 1743 1743 1743 1743 1743 1743 1743 1744 1744 1744 1744 1744 1745 1745 1745 1746 1746 1746 1747 1747 1748 1749 1750 1751 1752 1752 1752 1753 1754 1754 1755 1755 1755 1755 1755 1756 1756 1756 1758 1764 1764 1764 1741 1715 0 0 0 0 0 0 0 0 0 0 0 0 0 0 0 0 0 0 0 0 0 0 0 0 0 0 0 0 0 0 0 0 0 0 0 0 0 0 0 0 0 0 2048 2056 2062 2065 2065 2069 2069 2070 2072 2086 2086 2086 0 0 0 0 0 0 0 0 0 0 0 0 0 0 0 0 0 0 0 0 0 0 0 0 0 0 0 1434 1434 1434 1418 1398 1391 1379 1368 1355 1348 1337 1328 1321 1315 1308 1299 1283 1273 1260 1241 0 0 0 0 0 989 963 958 958 958 960 960 960 959 957 956 956 955 954 953 953 953 953 953 954 957 958 960 963 965 968 972 974 976 978 979 981 981 981 976 970 964 960 960
1597 1597 1610 1610 1610 1603 1603 1603 1619 1632 1635 1636 1636 1641 1652 1660 1670 1690 1702 1715 1719 1721 1722 1734 1734 1734 0 0 0 1661 1640 1640 1624 1612 1604 1601 1575 1575 1575 1578 1598 1624 1636 1639 1640 1640 1641 1650 1655 1665 1677 1691 1723 1741 1745 1757 1770 1781 1785 1789 1795 1801 1808 1813 1818 1823 1830 1834 1839 1842 1844 1846 1846 1849 1851 1851 1851 1851 1839 1831 1831 1831 1869 1882 1888 1900 1909 1912 1917 1917 1917 1908 1898 0 0 0 0 0 0 1985 1999 2012 2027 2036 2041 2041 2042 2045 2052 2059 2064 2068 2072 2077 2080 2086 2087 2088 2091 2097 2107 2117 2122 2124 2124 2127 2134 2143 2148 2150 2152 2158 2162 2166 2175 2185 2196 2205 2209 2213 2221 2227 2229 2231 2233 2236 2242 2248 2251 2255 2260 2264 2267 2270 2276 2284 2289 2289 2291 2295 2300 2305 2308 2310 2313 2317 2322 2329 2329 2332 2335 2336 2339 2343 2348 2354 2368 2376 2383 2384 2384 2386 2398 0 0 2530 2652 2748 2897 2935 2994 3052 3098 3139 3176 3220 3272 3276 3276 3276 3275 3266 3251 3230 3227 3225 3222 3216 3216 3216 3227 3248 3274 3274 3274 3244 3215 3180 3078 2755 0 0 0 0 2863 3171 3225 3234 3235 3235 3235 3219 3197 3173 3147 3080 2836 0 0 0 2061 2023 1993 1971 1968 1964 1956 1945 1939 1936 1932 1927 1923 1917 1914 1911 1908 1906 1903 1901 1899 1896 1895 1893 1891 1890 1887 1886 1885 1883 1882 1881 1880 1878 1876 1874 1873 1873 1872 1872 1871 1870 1870 1870 1871 1871 1872 1872 1872 1872 1872 1872 1872 1872 1871 1871 1871 1872 1873 1874 1875 1876 1876 1878 1879 1881 1883 1884 1885 1886 1889 1891 1893 1895 1897 1900 1901 1903 1905 1908 1912 1915 1916 1919 1921 1924 1928 1931 1933 1934 1936 1937 1939 1941 1943 1946 1949 1951 1955 1962 1968 1972 1975 1978 1981 1985 1989 1996 1999 2004 2004 2004 2004 1986 0 0 0 0 0 0 0 0 2089 2089 2026 2002 1988 1973 1970 1965 1953 1945 1940 1936 1932 1929 1923 1919 1913 1908 1904 1901 1897 1895 1892 1887 1882 1878 1874 1869 1863 1855 1851 1846 1838 1831 1826 1823 1820 1818 1815 1813 1810 1807 1805 1803 1800 1799 1797 1795 1792 1790 1788 1787 1785 1784 1782 1780 1778 1776 1773 1772 1769 1769 1767 1764 1762 1759 1758 1757 1755 1755 1754 1753 1752 1751 1749 1748 1747 1747 1747 1747 1746 1746 1746 1745 1745 1744 1744 1743 1743 1743 1743 1743 1743 1743 1743 1743 1743 1744 1744 1744 1744 1745 1745 1745 1745 1746 1746 1747 1748 1748 1749 1751 1752 1752 1752 1752 1753 1754 1754 1755 1755 1755 1755 1755 1755 1755 1755 1758 1765 1765 1765 1741 0 0 0 0 0 0 0 0 0 0 0 0 0 0 0 0 0 0 0 0 0 0 0 0 0 0 0 0 0 0 0 0 0 0 0 0 0 0 0 0 0 0 2078 2081 2083 2086 2087 2087 2087 2086 2086 2086 2081 2079 2078 0 0 0 0 0 0 0 0 0 0 0 0 0 0 0 0 0 0 0 0 0 0 0 0 0 0 1440 1440 1437 1434 1418 1398 1386 1378 1363 1353 1344 1336 1328 1319 1309 1299 1289 1277 1268 1258 1241 1212 0 0 0 0 0 963 957 957 957 958 958 958 958 956 955 955 954 953 953 952 952 952 952 953 955 956 958 961 965 967 970 972 976 978 979 982 982 982 978 973 968 963 963
1591 1591 1602 1602 1602 1595 1595 1595 1616 1632 1635 1636 1636 1641 1652 1658 1670 1691 1704 1716 1718 1718 1718 1714 1710 1681 1647 1633 1626 1626 1621 1617 1612 1612 1600 1591 1575 1575 1575 1580 1601 1625 1636 1639 1640 1640 1641 1652 1664 1676 1689 1712 1726 1758 1761 1769 1775 1781 1785 1790 1794 1800 1808 1813 1818 1822 1828 1832 1837 1841 1844 1848 1849 1853 1853 1853 1853 1853 1840 1826 1826 1826 1847 1882 1888 1900 1909 1912 1914 1914 1914 1908 1879 0 0 0 0 0 0 1986 2007 2016 2027 2036 2041 2042 2042 2046 2051 2055 2058 2064 2069 2076 2079 2082 2084 2085 2088 2095 2100 2111 2118 2119 2120 2125 2131 2143 2148 2150 2152 2158 2162 2168 2176 2188 2197 2205 2209 2213 2219 2223 2225 2228 2232 2235 2242 2246 2249 2251 2257 2261 2261 2264 2271 2280 2285 2285 2288 2295 2300 2305 2306 2308 2309 2312 2316 2324 2327 2332 2335 2338 2340 2344 2350 2354 2368 2380 2400 2400 2400 0 0 0 2576 2758 2858 2954 3043 3113 3118 3158 3180 3189 3211 3234 3272 3276 3276 3276 3260 3253 3235 3226 3225 3224 3224 3222 3222 3224 3234 3256 3256 3256 3246 3210 3190 3152 3076 2801 0 0 0 0 2859 3167 3220 3234 3235 3235 3235 3213 3194 3173 3147 3080 2861 0 0 0 2060 2024 1993 1971 1968 1964 1956 1945 1939 1936 1934 1930 1924 1920 1914 1911 1908 1906 1903 1902 1899 1897 1895 1894 1892 1890 1889 1886 1885 1883 1882 1881 1880 1878 1877 1874 1874 1873 1873 1873 1872 1872 1872 1872 1872 1872 1872 1872 1872 1872 1872 1872 1872 1872 1871 1871 1871 1872 1874 1875 1876 1876 1877 1878 1879 1881 1883 1884 1886 1888 1890 1892 1894 1896 1898 1901 1904 1906 1907 1909 1912 1916 1918 1919 1922 1924 1929 1931 1933 1935 1937 1937 1939 1941 1943 1947 1950 1953 1958 1965 1970 1972 1975 1978 1981 1989 1992 1996 2000 2005 2005 2005 2004 1986 0 0 0 0 0 0 0 0 2057 2057 2012 2002 1988 1973 1970 1965 1962 1951 1941 1937 1933 1929 1924 1919 1913 1907 1903 1900 1897 1895 1893 1887 1882 1878 1874 1869 1863 1857 1853 1848 1841 1836 1831 1826 1821 1818 1815 1813 1810 1807 1804 1802 1800 1799 1797 1795 1793 1790 1788 1786 1785 1784 1782 1780 1778 1776 1773 1772 1769 1769 1768 1765 1762 1759 1758 1757 1755 1755 1753 1751 1751 1749 1749 1748 1748 1748 1748 1747 1747 1747 1746 1746 1746 1744 1744 1743 1743 1743 1743 1742 1742 1742 1743 1743 1743 1743 1743 1743 1743 1744 1745 1745 1745 1746 1746 1747 1748 1748 1749 1751 1752 1752 1752 1752 1753 1753 1754 1755 1755 1755 1755 1755 1755 1755 1755 1756 1765 1765 1765 1741 0 0 0 0 0 0 0 0 0 0 0 0 0 0 0 0 0 0 0 0 0 0 0 0 0 0 0 0 0 0 0 0 0 0 0 0 0 0 0 0 0 0 2113 2113 2113 2104 2102 2102 2102 2102 2101 2099 2087 2056 0 0 0 0 0 0 0 0 0 0 0 0 0 0 0 0 0 0 0 0 0 0 0 0 0 0 1448 1448 1446 1439 1434 1413 1396 1384 1375 1363 1353 1342 1336 1328 1319 1305 1292 1283 1275 1265 1254 1239 1212 1190 0 0 0 0 963 957 954 954 954 955 955 955 955 954 953 953 951 951 951 951 951 951 952 952 955 957 960 964 967 968 971 974 978 979 982 982 982 981 976 973 968 968
1586 1586 1586 1590 1590 1590 1590 1593 1611 1632 1635 1636 1636 1641 1652 1660 1672 1696 1709 1716 1716 1716 1701 1669 1640 1632 1624 1621 1618 1620 1618 1617 1612 1612 1594 1588 1578 1578 1578 1591 1608 1626 1640 1644 1647 1653 1660 1673 1693 1709 1735 1751 1758 1759 1761 1772 1777 1781 1787 1790 1795 1800 1807 1812 1817 1821 1825 1831 1835 1841 1844 1848 1849 1853 1853 1854 1854 1854 1846 1839 1839 1839 1841 1876 1888 1900 1903 1909 1909 1909 1909 1908 0 0 0 0 0 0 0 1996 2014 2021 2027 2036 2041 2042 2042 2046 2050 2052 2056 2060 2065 2070 2072 2073 2074 2078 2082 2088 2097 2107 2111 2113 2114 2120 2131 2141 2150 2157 2161 2163 2166 2170 2182 2191 2197 2205 2209 2213 2216 2218 2220 2224 2229 2235 2239 2242 2245 2250 2256 2260 2261 2262 2266 2276 2279 2281 2287 2295 2299 2305 2306 2306 2306 2307 2310 2317 2319 2326 2330 2336 2341 2344 2348 2354 2368 2381 0 0 0 2513 2663 2720 2805 2892 2965 3069 3152 3208 3208 3208 3208 3208 3214 3234 3272 3272 3272 3259 3254 3250 3232 3217 3217 3217 3217 3217 3222 3224 3234 3251 3251 3251 3206 3172 3156 3121 3047 2801 2472 0 0 2472 2818 3126 3210 3234 3234 3234 3231 3213 3194 3173 3147 3080 2899 2501 0 0 2059 2023 1999 1974 1968 1965 1956 1945 1939 1936 1936 1932 1925 1920 1915 1911 1908 1907 1905 1902 1900 1898 1895 1894 1892 1891 1889 1887 1885 1883 1882 1881 1880 1880 1877 1876 1874 1874 1874 1874 1873 1872 1872 1872 1872 1872 1872 1872 1872 1872 1872 1872 1871 1871 1871 1871 1871 1872 1874 1875 1876 1877 1878 1879 1880 1882 1883 1885 1886 1888 1890 1892 1894 1897 1900 1901 1904 1906 1908 1910 1912 1916 1918 1919 1922 1925 1930 1932 1934 1936 1937 1938 1939 1941 1945 1951 1953 1956 1961 1966 1970 1972 1976 1981 1985 1989 1992 1996 2000 2005 2005 2005 2004 0 0 0 0 0 0 0 0 0 0 1993 1993 1992 1984 1973 1970 1965 1962 1952 1945 1938 1933 1929 1924 1919 1913 1907 1903 1900 1897 1895 1893 1889 1882 1878 1874 1869 1864 1857 1853 1848 1842 1838 1833 1829 1822 1819 1816 1813 1810 1807 1804 1802 1800 1799 1797 1795 1792 1789 1788 1786 1784 1783 1781 1780 1778 1776 1773 1772 1769 1768 1768 1765 1762 1760 1758 1757 1755 1753 1751 1750 1750 1749 1749 1748 1748 1748 1748 1748 1748 1747 1747 1746 1746 1744 1744 1743 1743 1743 1743 1743 1743 1742 1742 1742 1742 1742 1742 1742 1743 1743 1744 1745 1745 1746 1746 1747 1748 1749 1749 1751 1752 1752 1752 1752 1753 1753 1754 1755 1755 1755 1755 1755 1755 1755 1755 1755 1765 1765 1765 1756 0 0 0 0 0 0 0 0 0 0 0 0 0 0 0 0 0 0 0 0 0 0 0 0 0 0 0 0 0 0 0 0 0 0 0 0 0 0 0 0 0 0 2134 2134 2129 2115 2111 2111 2111 2122 2122 2122 0 0 0 0 0 0 0 0 0 0 0 0 0 0 0 0 0 0 0 0 0 0 0 0 0 0 0 1449 1449 1449 1448 1444 1422 1403 1394 1384 1373 1363 1352 1342 1333 1328 1317 1305 1292 1281 1270 1260 1250 1231 1216 1202 1180 0 0 0 0 950 948 948 948 950 953 953 953 951 951 950 950 950 950 950 950 950 950 950 952 956 959 962 965 965 968 971 972 976 982 986 986 986 981 978 974 974
1586 1586 1586 1587 1587 1590 1590 1591 1611 1621 1632 1632 1633 1636 1652 1662 1678 1700 1709 1709 1709 1708 1699 1666 1619 1619 1617 1610 1610 1606 1606 1604 1603 1599 1594 1588 1585 1585 1585 1606 1624 1640 1650 1657 1660 1673 1689 1711 1732 1755 1763 1763 1763 1763 1767 1772 1777 1780 1787 1791 1795 1800 1807 1812 1817 1821 1825 1831 1834 1841 1844 1848 1849 1853 1853 1854 1854 1854 1854 1848 1837 1837 1837 1857 1884 1891 1897 1902 1909 1912 1912 1912 0 0 0 0 0 0 0 1996 2014 2021 2027 2032 2034 2037 2042 2046 2049 2052 2055 2059 2061 2063 2064 2064 2065 2071 2076 2085 2091 2102 2109 2110 2113 2116 2128 2140 2150 2157 2161 2164 2171 2174 2182 2191 2197 2202 2205 2208 2211 2215 2219 2223 2229 2233 2236 2238 2243 2249 2255 2260 2260 2260 2265 2271 2274 2278 2283 2289 2297 2301 2301 2302 2303 2304 2308 2308 2315 2317 2325 2336 2341 2344 2348 2354 0 0 0 2542 2669 2796 2827 2871 2919 2996 3055 3106 3152 3214 3224 3224 3224 3224 3224 3234 3252 3252 3252 3244 3244 3232 3231 3212 3212 3212 3216 3216 3217 3224 3234 3234 3234 3222 3185 3167 3145 3113 3028 2801 2511 2511 2511 2778 2818 3120 3204 3225 3231 3231 3231 3212 3195 3174 3147 3094 2922 2567 0 0 2059 2022 1999 1983 1973 1966 1956 1947 1939 1936 1936 1932 1926 1921 1917 1913 1909 1908 1906 1903 1901 1899 1896 1895 1892 1891 1889 1887 1885 1884 1883 1882 1881 1880 1878 1877 1876 1875 1875 1874 1874 1873 1873 1873 1873 1873 1873 1873 1872 1872 1872 1871 1871 1871 1871 1871 1871 1872 1874 1875 1876 1877 1879 1879 1881 1882 1884 1885 1887 1888 1890 1892 1895 1898 1900 1902 1904 1906 1908 1911 1914 1916 1918 1921 1923 1927 1930 1933 1934 1936 1937 1938 1940 1943 1947 1951 1953 1956 1961 1966 1970 1974 1978 1982 1986 1989 1992 1997 2000 2005 2006 2006 2006 0 0 0 0 0 0 0 0 0 0 0 1991 1991 1984 1971 1967 1965 1962 1953 1946 1941 1935 1930 1926 1921 1914 1907 1903 1900 1897 1896 1893 1889 1884 1879 1874 1869 1864 1858 1854 1849 1845 1840 1838 1833 1824 1819 1817 1814 1811 1807 1804 1802 1801 1799 1797 1795 1792 1789 1788 1786 1784 1782 1780 1779 1778 1775 1772 1770 1769 1768 1768 1765 1762 1760 1758 1757 1755 1753 1751 1750 1750 1749 1749 1748 1748 1748 1748 1748 1748 1747 1747 1746 1746 1745 1744 1743 1743 1743 1743 1743 1742 1742 1742 1741 1741 1741 1741 1741 1742 1743 1743 1744 1745 1746 1746 1747 1747 1749 1749 1751 1752 1752 1752 1752 1753 1753 1754 1755 1755 1755 1755 1755 1755 1755 1755 1755 1765 1765 1765 1762 0 0 0 0 0 0 0 0 0 0 0 0 0 0 0 0 0 0 0 0 0 0 0 0 0 0 0 0 0 0 0 0 0 0 0 0 0 0 0 0 0 2147 2147 2147 2142 2132 2129 2129 2129 2129 2129 2122 0 0 0 0 0 0 0 0 0 0 0 0 0 0 0 0 0 0 0 0 0 0 0 0 0 1475 1464 1459 1452 1449 1448 1444 1414 1402 1390 1376 1366 1357 1348 1342 1333 1328 1316 1304 1291 1281 1269 1258 1246 1227 1218 1202 1183 0 0 0 0 950 943 943 943 947 949 949 949 949 949 948 948 948 948 949 949 949 949 950 952 954 957 960 961 963 965 969 970 974 979 987 987 987 984 981 974 974
1586 1586 1586 1586 1586 1586 1584 1584 1584 1600 1607 1611 1611 1619 1647 1660 1678 1700 1700 1700 0 0 1639 1631 1615 1615 1609 1607 1607 1606 1605 1604 1603 1594 1594 1593 1593 1593 1599 1622 1647 1665 1672 1696 1704 1708 1723 1741 1750 1757 1763 1763 1764 1765 1768 1773 1777 1780 1787 1793 1797 1803 1807 1812 1816 1821 1825 1829 1833 1839 1843 1846 1848 1850 1852 1854 1854 1855 1855 1855 1839 1827 1827 1827 1865 1884 1890 1902 1909 1914 1914 1914 0 0 0 0 0 0 0 1996 2014 2021 2024 2026 2029 2035 2042 2046 2049 2051 2055 2059 2059 2060 2060 2060 2062 2068 2076 2085 2091 2098 2104 2106 2110 2113 2128 2139 2150 2157 2161 2164 2171 2174 2182 2191 2197 2199 2201 2206 2210 2214 2218 2223 2229 2233 2233 2237 2242 2248 2255 2257 2260 2260 2263 2267 2268 2272 2281 2288 2297 2301 2301 2301 2302 2302 2302 2303 2308 2311 2315 2330 2341 2344 2348 0 0 2518 2668 2804 2865 2917 2969 3006 3037 3057 3068 3106 3152 3214 3224 3224 3224 3222 3222 3222 3222 3221 3221 3221 3221 3216 3216 3202 3202 3202 3210 3213 3216 3217 3224 3224 3224 3210 3185 3162 3142 3108 3028 2801 2561 2561 2561 2778 2818 3120 3203 3224 3231 3231 3231 3212 3195 3174 3147 3094 2953 2633 0 0 0 2020 1999 1984 1974 1967 1956 1947 1939 1937 1936 1934 1927 1922 1917 1913 1909 1908 1906 1903 1901 1899 1897 1895 1893 1891 1889 1888 1887 1884 1884 1883 1882 1881 1880 1878 1878 1877 1876 1874 1874 1874 1874 1873 1873 1873 1873 1873 1873 1872 1872 1871 1871 1871 1871 1871 1871 1872 1873 1874 1876 1877 1879 1879 1881 1882 1884 1886 1887 1888 1890 1893 1895 1898 1900 1902 1904 1906 1908 1912 1915 1917 1920 1922 1924 1928 1931 1933 1935 1936 1937 1938 1942 1945 1948 1951 1953 1957 1961 1966 1970 1974 1978 1982 1986 1989 1992 1997 2001 2008 2009 2009 2008 0 0 0 0 0 0 0 0 0 0 0 1969 1971 1971 1971 1967 1965 1961 1957 1948 1942 1936 1931 1927 1923 1917 1910 1906 1900 1898 1896 1893 1889 1884 1879 1874 1869 1864 1859 1855 1850 1846 1842 1839 1835 1827 1822 1819 1816 1812 1810 1807 1804 1802 1800 1797 1795 1792 1789 1787 1785 1782 1780 1779 1778 1777 1775 1772 1770 1769 1767 1767 1765 1762 1760 1758 1756 1754 1752 1751 1749 1749 1749 1749 1748 1748 1748 1748 1748 1748 1747 1747 1747 1747 1746 1744 1744 1744 1744 1743 1743 1742 1742 1740 1740 1740 1740 1740 1741 1741 1742 1742 1743 1744 1745 1746 1747 1747 1748 1749 1751 1751 1751 1752 1752 1752 1753 1754 1755 1755 1755 1755 1755 1755 1755 1755 1756 1766 1772 1772 1772 0 0 0 0 0 0 0 0 0 0 0 0 0 0 0 0 0 0 0 0 0 0 0 0 0 0 0 0 0 0 0 0 0 0 0 0 0 0 0 0 0 2147 2147 2147 2142 2133 2133 2133 2136 2136 2136 2122 0 0 0 0 0 0 0 0 0 0 0 0 0 0 0 0 0 0 0 0 0 0 0 0 1475 1475 1463 1458 1452 1449 1448 1433 1408 1400 1380 1370 1361 1353 1343 1336 1333 1328 1315 1303 1290 1281 1268 1256 1245 1227 1221 1206 1187 1168 0 0 0 950 943 943 943 947 947 948 948 948 948 948 947 947 948 948 948 949 949 950 951 953 955 956 958 961 964 967 969 974 978 985 985 985 984 981 977 977
1590 1590 1592 1592 1592 1586 1583 1583 1583 1600 1600 1607 1608 1611 1643 1655 1678 1678 1678 0 0 0 1593 1591 1593 1593 1606 1606 1606 1606 1605 1604 1603 1594 1594 1594 1594 1613 1638 1661 1691 1713 1733 1737 1739 1739 1741 1742 1750 1757 1763 1763 1764 1765 1769 1773 1777 1780 1787 1793 1800 1803 1807 1812 1817 1821 1825 1828 1833 1837 1840 1842 1844 1849 1852 1854 1854 1856 1856 1856 1852 1833 1830 1830 1830 1866 1890 1902 1911 1920 1920 1920 0 0 0 0 0 0 0 1991 2014 2021 2024 2026 2029 2035 2040 2043 2047 2050 2053 2057 2057 2057 2057 2057 2062 2067 2076 2085 2091 2097 2102 2102 2107 2112 2125 2133 2141 2147 2157 2164 2171 2174 2181 2189 2196 2198 2200 2204 2210 2213 2218 2223 2228 2231 2233 2234 2239 2247 2253 2256 2257 2259 2261 2263 2264 2267 2276 2287 2297 2300 2300 2300 2296 2296 2296 2300 2305 2308 2312 2330 0 0 0 0 2661 2771 2857 2912 2960 3001 3033 3053 3064 3064 3074 3106 3133 3172 3206 3221 3221 3221 3217 3212 3212 3200 3200 3206 3206 3202 3202 3198 3198 3198 3201 3203 3203 3207 3207 3207 3207 3206 3183 3161 3139 3108 3028 2801 2561 2561 2561 2778 3041 3120 3196 3224 3224 3224 3213 3205 3193 3174 3144 3094 2953 2638 0 0 0 2015 1998 1984 1975 1968 1959 1950 1941 1937 1936 1934 1928 1922 1917 1913 1909 1908 1906 1903 1901 1899 1897 1895 1893 1891 1890 1888 1887 1886 1885 1884 1883 1882 1881 1880 1880 1878 1877 1875 1874 1874 1874 1874 1873 1873 1873 1873 1873 1872 1871 1871 1871 1871 1871 1871 1871 1872 1872 1874 1876 1877 1879 1880 1882 1883 1884 1886 1887 1888 1890 1893 1896 1899 1902 1903 1905 1906 1908 1912 1915 1917 1920 1922 1925 1928 1931 1933 1936 1937 1938 1940 1945 1949 1950 1952 1955 1957 1962 1966 1970 1974 1978 1982 1986 1988 1993 1999 2008 2009 2009 2009 2008 0 0 0 0 0 0 0 0 0 0 0 0 1971 1971 1971 1967 1965 1961 1957 1954 1946 1940 1935 1929 1925 1919 1913 1909 1904 1899 1896 1893 1889 1884 1879 1874 1870 1866 1862 1855 1850 1846 1842 1839 1836 1832 1826 1820 1817 1813 1810 1808 1805 1802 1800 1797 1795 1792 1789 1786 1783 1782 1780 1779 1778 1777 1775 1772 1770 1769 1767 1767 1765 1763 1760 1757 1756 1754 1752 1750 1749 1749 1749 1749 1748 1748 1748 1748 1747 1747 1747 1747 1747 1747 1746 1745 1744 1744 1744 1743 1743 1742 1741 1740 1740 1740 1740 1740 1740 1741 1741 1742 1743 1744 1744 1746 1746 1747 1748 1749 1751 1751 1751 1751 1752 1752 1753 1755 1755 1755 1755 1755 1755 1755 1755 1756 1759 1774 1774 1774 1774 0 0 0 0 0 0 0 0 0 0 0 0 0 0 0 0 0 0 0 0 0 0 0 0 0 0 0 0 0 0 0 0 0 0 0 0 0 0 0 0 2147 2147 2147 2147 2142 2133 2133 2133 2136 2136 2136 0 0 0 0 0 0 0 0 0 0 0 0 0 0 0 0 0 0 0 0 0 0 0 0 0 1522 1475 1464 1458 1449 1448 1439 1421 1405 1394 1379 1368 1360 1352 1343 1335 1325 1318 1308 1298 1289 1278 1268 1256 1245 1227 1222 1206 1192 1175 0 0 0 0 943 943 943 946 947 948 948 948 947 947 947 947 947 947 947 948 948 949 951 953 953 955 958 961 963 964 968 974 978 985 985 985 984 982 977 977
1591 1591 1595 1595 1595 1587 1583 1583 1583 1600 1600 1604 1607 1611 1628 1653 1655 1655 0 0 0 1565 1565 1565 1566 1572 1588 1606 1606 1606 1606 1605 1605 1606 1606 1608 1635 1656 1667 1670 1691 1713 1733 1739 1739 1739 1741 1742 1750 1757 1761 1761 1765 1767 1769 1774 1777 1782 1787 1794 1800 1804 1807 1812 1817 1821 1825 1828 1832 1837 1839 1842 1844 1849 1852 1854 1854 1858 1860 1860 1860 1853 1830 1830 1830 1853 1888 1908 1922 1930 1930 1930 0 0 0 0 0 0 0 1990 2009 2020 2024 2026 2029 2035 2040 2042 2043 2046 2049 2053 2053 2054 2055 2055 2062 2067 2076 2085 2091 2097 2100 2102 2107 2111 2119 2129 2137 2137 2145 2153 2163 2167 2175 2187 2193 2197 2198 2202 2208 2213 2218 2221 2227 2231 2232 2233 2237 2243 2248 2255 2256 2257 2261 2261 2263 2266 2274 2286 2298 2299 2299 2299 2286 2286 2286 2299 2305 2308 2312 0 0 0 2742 2747 2828 2906 2957 2985 3024 3043 3049 3055 3065 3067 3084 3106 3133 3142 3159 3188 3211 3211 3211 3202 3194 3193 3191 3191 3191 3183 3176 3176 3176 3185 3186 3189 3191 3191 3191 3187 3183 3175 3161 3158 3139 3101 3036 2809 2561 2561 2561 2758 3041 3120 3170 3191 3192 3192 3192 3191 3184 3159 3129 3083 2953 2646 0 0 0 2015 1995 1984 1980 1972 1960 1950 1941 1937 1936 1933 1929 1923 1917 1912 1908 1905 1903 1902 1900 1898 1897 1895 1893 1891 1890 1889 1887 1887 1886 1885 1885 1884 1883 1881 1881 1880 1878 1876 1875 1875 1875 1874 1874 1873 1873 1873 1873 1872 1871 1871 1871 1871 1871 1871 1871 1871 1872 1874 1875 1877 1879 1881 1882 1883 1886 1887 1889 1890 1892 1897 1899 1901 1903 1905 1905 1906 1909 1912 1915 1918 1920 1924 1926 1928 1931 1933 1936 1938 1940 1943 1949 1952 1953 1955 1956 1958 1962 1966 1970 1974 1978 1982 1987 1988 1993 2001 2008 2009 2009 2009 2008 0 0 0 0 0 0 0 0 0 0 0 0 1948 1970 1970 1970 1966 1961 1957 1954 1949 1947 1938 1933 1926 1919 1914 1909 1905 1899 1896 1893 1888 1884 1879 1874 1870 1866 1862 1855 1850 1845 1842 1839 1836 1833 1826 1821 1817 1814 1810 1808 1805 1802 1800 1797 1794 1791 1788 1785 1782 1781 1780 1779 1778 1777 1775 1773 1771 1769 1767 1767 1765 1763 1760 1757 1755 1753 1751 1750 1749 1749 1749 1748 1747 1746 1746 1746 1746 1746 1746 1747 1746 1746 1746 1745 1744 1744 1744 1743 1743 1741 1740 1740 1739 1739 1739 1740 1740 1740 1741 1742 1743 1744 1744 1745 1746 1747 1748 1749 1751 1751 1751 1751 1752 1752 1753 1755 1756 1756 1757 1757 1757 1757 1757 1757 1766 1776 1776 1776 1774 0 0 0 0 0 0 0 0 0 0 0 0 0 0 0 0 0 0 0 0 0 0 0 0 0 0 0 0 0 0 0 0 0 0 0 0 0 0 0 2123 2138 2138 2138 2136 2131 2131 2131 2132 2132 2132 2115 0 0 0 0 0 0 0 0 0 0 0 0 0 0 0 0 0 0 0 0 0 0 0 0 1520 1501 1475 1464 1454 1449 1439 1425 1411 1404 1394 1378 1367 1360 1351 1342 1331 1319 1305 1297 1292 1285 1276 1267 1256 1246 1234 1230 1217 1201 1183 0 0 0 0 945 944 944 944 947 948 948 948 947 946 946 946 945 945 946 946 947 949 951 952 953 955 957 960 962 964 968 974 978 984 984 984 984 982 978 978
1594 1594 1595 1596 1596 1596 1583 1583 1583 1603 1603 1603 1601 1601 1601 1616 0 0 0 0 0 1548 1548 1550 1551 1558 1577 1598 1606 1606 1607 1611 1617 1628 1636 1653 1661 1661 1667 1670 1691 1713 1733 1739 1739 1739 1739 1740 1742 1746 1755 1760 1764 1769 1773 1775 1781 1783 1788 1795 1800 1804 1808 1812 1817 1819 1824 1828 1832 1837 1839 1842 1844 1849 1852 1856 1857 1864 1866 1870 1870 1870 1849 1849 1849 1853 1888 1908 1922 1930 1930 1930 0 0 0 0 0 0 0 1986 2008 2017 2024 2029 2030 2035 2038 2041 2041 2043 2044 2047 2050 2050 2052 2054 2062 2068 2077 2085 2091 2095 2096 2100 2107 2111 2114 2119 2126 2135 2143 2149 2156 2164 2175 2186 2193 2196 2196 2199 2205 2213 2218 2221 2225 2226 2227 2229 2233 2240 2248 2251 2254 2254 2254 2254 2256 2262 2273 2287 2298 2298 2298 2292 2283 2283 2283 2299 2305 0 0 0 0 2605 2743 2919 2922 2986 3037 3068 3068 3068 3066 3066 3066 3071 3084 3106 3128 3129 3133 3142 3153 3173 3177 3180 3185 3187 3187 3187 3183 3179 3157 3157 3157 3160 3164 3170 3170 3170 3170 3159 3141 3141 3139 3139 3132 3099 3044 2866 2564 2564 2564 2722 3041 3118 3170 3171 3185 3185 3185 3173 3162 3137 3105 3051 2953 2742 0 0 0 0 1995 1983 1980 1972 1960 1950 1941 1937 1935 1932 1929 1923 1917 1912 1908 1905 1903 1902 1899 1898 1897 1895 1894 1891 1890 1889 1887 1887 1886 1885 1885 1884 1884 1882 1882 1880 1879 1876 1875 1875 1875 1874 1874 1873 1873 1873 1873 1872 1871 1871 1871 1871 1871 1871 1871 1871 1872 1874 1875 1877 1879 1881 1883 1885 1887 1889 1891 1892 1895 1898 1901 1904 1906 1906 1907 1908 1910 1912 1915 1918 1920 1924 1926 1928 1931 1933 1936 1940 1945 1951 1956 1958 1958 1959 1959 1961 1964 1967 1970 1974 1978 1982 1987 1988 1999 2001 2006 2007 2009 2007 2007 0 0 0 0 0 0 0 0 0 0 0 0 1935 1976 1976 1976 1967 1961 1957 1954 1949 1947 1938 1933 1926 1920 1914 1909 1905 1899 1895 1892 1888 1884 1879 1875 1871 1866 1862 1855 1849 1844 1842 1839 1836 1833 1827 1821 1817 1814 1811 1808 1805 1802 1800 1797 1794 1790 1788 1785 1782 1781 1780 1779 1778 1777 1775 1773 1771 1769 1768 1767 1765 1764 1760 1757 1755 1753 1751 1750 1749 1749 1748 1746 1745 1745 1745 1745 1745 1745 1746 1746 1746 1746 1745 1745 1744 1744 1743 1743 1742 1741 1740 1739 1739 1739 1739 1739 1740 1740 1741 1741 1742 1743 1743 1745 1746 1747 1747 1749 1750 1751 1751 1751 1751 1752 1752 1755 1756 1757 1757 1757 1757 1757 1757 1757 1766 1776 1776 1776 1774 0 0 0 0 0 0 0 0 0 0 0 0 0 0 0 0 0 0 0 0 0 0 0 0 0 0 0 0 0 0 0 0 0 0 0 0 0 0 2097 2123 2135 2135 2135 2115 2112 2112 2112 2117 2117 2117 0 0 0 0 0 0 0 0 0 0 0 0 0 0 0 0 0 0 0 0 0 0 0 0 1520 1505 1492 1475 1463 1448 1439 1426 1411 1402 1396 1385 1375 1365 1359 1350 1339 1328 1312 1296 1288 1285 1281 1273 1267 1258 1248 1244 1234 1225 1212 1192 1162 0 0 0 949 942 942 942 945 947 947 947 946 944 944 944 944 944 944 944 946 947 949 950 952 954 957 960 962 964 968 974 978 984 984 984 983 983 982 982
