2959 2959 2961 2961 2978 2983 3001 3055 3112 3138 3151 3164 3184 3204 3223 3236 3243 3247 3252 3254 3264 3272 3287 3287 3299 3314 3327 3327 3329 3332 3341 3360 3364 3373 3378 3378 3378 3383 3383 3384 3398 3408 3411 3414 3415 3416 3418 3420 3423 3426 3428 3428 3432 3442 3451 3455 3458 3460 3460 3460 3448 3445 3430 3428 3399 3356 3308 3308 3219 3176 3107 2974 2732 0 0 0 0 0 0 0 0 0 0 0 0 1355 1349 1349 1349 1349 1350 1350 1350 1350 1348 1347 1347 1347 1347 1348 1348 1348 1349 1349 1350 1350 1351 1351 1351 1352 1352 1353 1353 1353 1353 1353 1354 1354 1354 1353 1352 1352 1352 1352 1352 1352 1352 1352 1352 1352 1352 1352 1351 1351 1351 1351 1351 1354 1358 1361 1366 1371 1373 1373 1378 1380 1381 1381 1381 1384 1385 1386 1386 1386 1386 1386 1387 1388 1388 1389 1390 1391 1391 1392 1392 1393 1393 1393 1393 1393 1394 1394 1395 1395 1395 1395 1395 1396 1397 1397 1397 1398 1398 1399 1399 1399 1400 1402 1406 1407 1408 1410 1413 1415 1416 1417 1417 1417 1420 1422 1422 1422 1423 1424 1425 1425 1427 1427 1427 1427 1428 1431 1433 1436 1436 1436 1436 1436 1436 1437 1440 1443 1444 1445 1445 1445 1445 1445 1447 1450 1452 1452 1453 1454 1456 1457 1458 1460 1461 1462 1463 1464 1465 1467 1467 1468 1469 1469 1470 1471 1471 1472 1473 1474 1475 1476 1477 1480 1481 1483 1487 1488 1488 1488 1486 1486 1486 1489 1491 1493 1496 1496 1497 1497 1498 1498 1499 1501 1501 1502 1503 1503 1503 1505 1505 1506 1508 1511 1515 1519 1519 1526 1530 1530 1530 1532 1532 1532 1532 1532 1532 1536 1540 1545 1546 1546 1546 1547 1547 1547 1548 1548 1548 1548 1548 1548 1548 1548 1548 1547 1547 1547 1548 1550 1550 1550 1550 1551 1551 1554 1555 1556 1556 1556 1556 1557 1557 1560 1561 1562 1563 1563 1563 1565 1566 1568 1569 1571 1571 1572 1574 1576 1578 1580 1581 1582 1583 1584 1584 1586 1588 1590 1591 1593 1597 1597 1597 1596 1596 1596 1597 1598 1599 1601 1602 1603 1604 1605 1606 1606 1606 1606 1606 1607 1607 1608 1610 1615 1616 1617 1617 1617 1617 1618 1620 1620 1620 1620 1619 1619 1619 1621 1623 1626 1626 1627 1633 1641 1654 1672 1684 1690 1691 1695 1700 1701 1701 1701 1701 1696 1696 1695 1694 1689 1686 1683 1678 1673 1669 1663 1654 1647 1636 1627 1621 1610 1597 1589 1584 1578 1571 1567 1564 1561 1557 1555 1553 1553 1551 1551 1551 1551 1552 1554 1555 1556 1556 1557 1557 1557 1561 1561 1564 1567 1572 1575 1583 1609 1634 1656 1686 0 0 1819 1836 1850 1857 1862 1865 1868 1869 1869 1870 1871 1871 1872 1872 1873 1873 1873 1874 1874 1875 1875 1877 1877 1878 1879 1879 1880 1882 1883 1884 1885 1885 1887 1889 1890 1891 1893 1894 1897 1898 1899 1901 1903 1905 1907 1908 1909 1911 1913 1915 1918 1919 1920 1925 1926 1927 1927 1927 1926 1925 1919 1899 1895 0 0 0 0 0 0 0 0 0 0 0 0 0 0 0 0 0 0 0 0 0 0 0 0 0 0 0 0 0 0 0 0 0 0 0 0 0 0 0 0 0 0 0 0 0 0 0 0 0 0 0 0 0 0 0 0 0 0 0 0 0 0 0 0 0 0 0 0 0 0 0 0 0 0 0 0 0 0 0 0 0 0 0 0 0 0 0 0 0 0 0 0 0 0 0 0 0 0 0 0 0 0 0 0
2959 2959 2961 2961 2978 2983 3001 3055 3112 3150 3171 3180 3197 3219 3232 3243 3244 3247 3252 3254 3264 3272 3287 3297 3301 3314 3329 3329 3332 3334 3341 3360 3364 3372 3378 3378 3378 3383 3383 3384 3398 3407 3411 3414 3414 3416 3418 3420 3423 3426 3428 3431 3434 3442 3450 3451 3452 3453 3453 3453 3445 3445 3430 3428 3411 3383 3350 3347 3315 3266 3211 3127 3038 2954 2822 2651 0 0 0 0 0 0 0 0 0 1355 1343 1343 1343 1345 1348 1348 1348 1348 1346 1346 1346 1346 1346 1346 1346 1347 1347 1347 1347 1348 1349 1350 1350 1350 1350 1350 1350 1350 1351 1351 1351 1351 1351 1350 1349 1348 1347 1347 1347 1348 1349 1349 1349 1349 1350 1350 1349 1349 1349 1349 1350 1352 1355 1358 1363 1368 1370 1370 1371 1376 1377 1377 1378 1380 1381 1382 1384 1384 1384 1384 1386 1386 1386 1387 1388 1389 1389 1390 1390 1391 1391 1392 1392 1392 1392 1392 1393 1393 1393 1393 1393 1393 1393 1393 1395 1396 1397 1397 1397 1399 1399 1402 1405 1407 1408 1410 1412 1413 1413 1414 1415 1416 1417 1419 1420 1420 1421 1423 1423 1423 1424 1425 1426 1426 1426 1429 1432 1434 1434 1434 1433 1433 1433 1435 1437 1440 1443 1444 1444 1444 1445 1445 1446 1449 1450 1451 1453 1454 1454 1456 1457 1457 1458 1460 1461 1462 1463 1464 1465 1466 1467 1467 1469 1469 1470 1470 1472 1472 1472 1474 1476 1478 1481 1483 1486 1486 1486 1485 1484 1484 1484 1487 1490 1491 1492 1492 1493 1494 1495 1496 1496 1497 1498 1500 1500 1500 1501 1502 1502 1503 1503 1505 1508 1512 1512 1514 1521 1522 1524 1524 1524 1524 1523 1523 1523 1526 1531 1533 1538 1538 1540 1542 1542 1547 1548 1548 1548 1548 1548 1547 1547 1547 1547 1546 1546 1546 1546 1547 1547 1547 1549 1549 1550 1552 1552 1552 1553 1553 1554 1555 1556 1558 1560 1561 1561 1561 1561 1562 1564 1566 1568 1568 1569 1569 1571 1573 1575 1577 1579 1579 1580 1580 1581 1583 1585 1586 1588 1588 1589 1590 1590 1590 1591 1591 1591 1593 1595 1597 1599 1599 1600 1602 1605 1605 1605 1605 1605 1604 1604 1605 1605 1610 1612 1612 1613 1614 1615 1616 1617 1617 1617 1617 1618 1618 1619 1620 1623 1623 1623 1623 1624 1630 1643 1658 1668 1673 1679 1683 1691 1695 1696 1696 1696 1695 1694 1693 1691 1685 1679 1675 1671 1665 1658 1653 1649 1639 1629 1623 1616 1607 1595 1587 1580 1574 1568 1564 1562 1559 1556 1554 1552 1551 1550 1550 1550 1550 1551 1554 1555 1556 1556 1557 1557 1558 1561 1562 1564 1570 1573 1575 1590 1621 1655 1686 0 0 0 1837 1848 1856 1862 1864 1866 1868 1869 1870 1870 1871 1871 1872 1873 1874 1874 1875 1875 1876 1876 1877 1878 1878 1879 1880 1880 1881 1882 1883 1884 1885 1886 1888 1889 1891 1892 1894 1895 1897 1898 1900 1901 1903 1905 1907 1908 1910 1912 1914 1916 1918 1921 1921 1925 1926 1927 1929 1929 1935 1935 1935 1922 1921 1903 0 0 0 0 0 0 0 0 0 0 0 0 0 0 0 0 0 0 0 0 0 0 0 0 0 0 0 0 0 0 0 0 0 0 0 0 0 0 0 0 0 0 0 0 0 0 0 0 0 0 0 0 0 0 0 0 0 0 0 0 0 0 0 0 0 0 0 0 0 0 0 0 0 0 0 0 0 0 0 0 0 0 0 0 0 0 0 0 0 0 0 0 0 0 0 0 0 0 0 0 0 0 0
2961 2961 2961 2964 2979 2984 3018 3055 3116 3150 3171 3180 3197 3219 3234 3243 3244 3247 3251 3253 3264 3272 3288 3297 3302 3314 3329 3336 3337 3339 3345 3361 3366 3372 3378 3378 3378 3383 3383 3384 3398 3406 3411 3414 3414 3416 3420 3420 3423 3426 3428 3433 3438 3439 3444 3447 3448 3452 3452 3452 3440 3434 3432 3428 3411 3399 3381 3380 3361 3330 3298 3267 3230 3176 3136 3053 2992 2945 2904 2666 0 0 0 0 0 0 1339 1339 1339 1341 1346 1346 1346 1346 1343 1343 1343 1343 1343 1343 1344 1345 1345 1345 1346 1346 1348 1348 1348 1348 1349 1349 1349 1349 1349 1349 1349 1349 1349 1345 1345 1344 1343 1343 1343 1343 1344 1347 1347 1347 1348 1348 1348 1348 1348 1348 1348 1350 1354 1357 1362 1366 1369 1369 1370 1373 1374 1375 1377 1378 1378 1379 1381 1381 1381 1382 1383 1383 1384 1385 1386 1386 1387 1387 1388 1388 1389 1390 1390 1391 1391 1391 1391 1391 1391 1391 1391 1391 1391 1392 1394 1394 1394 1394 1394 1397 1398 1402 1404 1404 1407 1408 1408 1410 1411 1412 1414 1414 1416 1417 1418 1418 1419 1420 1420 1421 1421 1422 1423 1424 1424 1425 1429 1431 1431 1431 1431 1431 1431 1431 1434 1437 1440 1443 1443 1444 1444 1444 1445 1446 1448 1451 1452 1452 1453 1454 1454 1456 1457 1457 1458 1458 1459 1462 1462 1463 1465 1465 1465 1466 1466 1467 1469 1471 1472 1473 1474 1476 1480 1482 1485 1485 1485 1483 1483 1483 1483 1486 1488 1488 1489 1489 1490 1490 1491 1492 1493 1494 1495 1496 1497 1498 1499 1499 1500 1500 1501 1502 1503 1503 1503 1507 1512 1519 1519 1519 1518 1516 1515 1515 1515 1518 1521 1525 1531 1535 1537 1539 1541 1544 1547 1548 1548 1547 1547 1546 1546 1544 1543 1543 1543 1543 1543 1543 1544 1544 1545 1548 1550 1550 1551 1552 1552 1552 1553 1553 1554 1556 1557 1558 1558 1560 1560 1561 1562 1564 1566 1567 1568 1569 1570 1572 1573 1575 1576 1576 1576 1576 1577 1579 1582 1583 1583 1584 1584 1585 1586 1588 1588 1588 1588 1588 1589 1590 1592 1592 1594 1597 1599 1599 1601 1601 1602 1602 1604 1604 1604 1607 1608 1608 1608 1611 1613 1614 1614 1615 1615 1615 1615 1616 1616 1617 1618 1620 1620 1622 1622 1625 1633 1641 1657 1668 1671 1677 1681 1683 1686 1688 1689 1690 1690 1690 1688 1681 1673 1668 1663 1658 1651 1648 1641 1631 1623 1617 1612 1605 1594 1583 1576 1570 1565 1561 1560 1557 1555 1553 1551 1550 1550 1550 1550 1550 1551 1553 1555 1556 1557 1557 1557 1558 1562 1563 1570 1570 1574 1581 1601 0 0 0 0 0 1838 1848 1854 1863 1864 1864 1865 1868 1869 1870 1870 1871 1872 1872 1873 1874 1874 1875 1876 1876 1877 1877 1878 1879 1879 1880 1881 1881 1882 1883 1884 1885 1886 1888 1890 1891 1893 1894 1895 1897 1898 1900 1901 1904 1906 1907 1909 1910 1912 1914 1917 1919 1922 1923 1925 1926 1928 1930 1930 1937 1944 1946 1946 1946 1929 0 0 0 0 0 0 0 0 0 0 0 0 0 0 0 0 0 0 0 0 0 0 0 0 0 0 0 0 0 0 0 0 0 0 0 0 0 0 0 0 0 0 0 0 0 0 0 0 0 0 0 0 0 0 0 0 0 0 0 0 0 0 0 0 0 0 0 0 0 0 0 0 0 0 0 0 0 0 0 0 0 0 0 0 0 0 0 0 0 0 0 0 0 0 0 0 0 0 0 0 0 0 0
2986 2986 2990 2993 3014 3016 3049 3081 3116 3150 3171 3180 3200 3224 3236 3240 3241 3244 3247 3253 3264 3283 3301 3302 3302 3314 3328 3340 3341 3341 3347 3361 3372 3374 3374 3374 3374 3375 3375 3386 3399 3406 3411 3414 3414 3416 3420 3420 3423 3426 3428 3433 3438 3439 3442 3446 3447 3447 3447 3443 3438 3432 3432 3430 3416 3409 3401 3392 3390 3367 3345 3332 3322 3296 3266 3240 3232 3212 3178 2879 2647 0 0 0 0 0 1339 1339 1339 1340 1341 1343 1343 1343 1341 1341 1341 1341 1342 1342 1343 1343 1344 1344 1345 1345 1346 1346 1346 1347 1347 1347 1347 1347 1347 1347 1347 1347 1345 1342 1341 1341 1340 1338 1338 1338 1339 1344 1345 1346 1346 1347 1347 1347 1347 1348 1348 1350 1353 1356 1359 1364 1366 1367 1368 1370 1370 1372 1373 1377 1377 1378 1378 1378 1379 1379 1380 1381 1382 1382 1383 1384 1384 1385 1385 1386 1387 1387 1387 1387 1387 1387 1388 1388 1388 1389 1389 1389 1390 1391 1391 1392 1393 1394 1394 1396 1398 1400 1401 1402 1403 1405 1406 1407 1408 1411 1412 1412 1414 1415 1415 1416 1417 1418 1418 1419 1419 1420 1421 1422 1423 1424 1427 1428 1428 1428 1428 1428 1428 1429 1432 1435 1438 1442 1443 1443 1443 1443 1443 1444 1445 1447 1450 1450 1451 1452 1452 1452 1452 1454 1455 1456 1457 1458 1459 1460 1461 1461 1462 1462 1462 1465 1466 1467 1467 1469 1472 1476 1479 1479 1479 1480 1480 1480 1480 1481 1483 1484 1484 1485 1485 1486 1486 1488 1488 1488 1489 1490 1492 1493 1494 1495 1496 1497 1497 1497 1498 1501 1501 1502 1503 1505 1509 1516 1516 1516 1515 1513 1513 1513 1513 1514 1517 1522 1527 1533 1535 1536 1539 1541 1546 1546 1546 1544 1543 1543 1543 1543 1543 1540 1540 1540 1540 1542 1543 1543 1545 1545 1546 1548 1550 1550 1552 1552 1552 1553 1554 1556 1557 1557 1557 1557 1557 1559 1561 1561 1563 1564 1566 1567 1569 1570 1571 1571 1572 1573 1573 1574 1575 1576 1577 1579 1582 1582 1583 1583 1583 1584 1584 1584 1584 1584 1584 1584 1584 1586 1591 1594 1594 1594 1594 1594 1598 1599 1600 1600 1601 1603 1603 1603 1605 1608 1610 1611 1611 1611 1612 1612 1613 1613 1614 1614 1614 1615 1615 1619 1621 1621 1624 1630 1642 1657 1663 1668 1671 1675 1679 1679 1680 1683 1683 1683 1681 1674 1665 1661 1657 1652 1643 1640 1636 1626 1619 1614 1609 1602 1588 1579 1573 1567 1564 1560 1558 1557 1554 1553 1551 1550 1549 1549 1549 1550 1551 1553 1555 1556 1557 1557 1557 1558 1562 1568 1570 1571 1579 1596 1614 0 0 0 0 1838 1849 1853 1861 1863 1864 1864 1865 1868 1868 1870 1870 1871 1872 1872 1873 1874 1875 1876 1876 1877 1877 1878 1879 1880 1880 1881 1882 1882 1882 1883 1884 1885 1886 1888 1890 1892 1893 1895 1896 1897 1899 1900 1902 1904 1906 1907 1909 1910 1912 1914 1917 1919 1922 1924 1925 1928 1930 1932 1932 1937 1944 1948 1948 1948 1942 1937 0 0 0 0 0 0 0 0 0 0 0 0 0 0 0 0 0 0 0 0 0 0 0 0 0 0 0 0 0 0 0 0 0 0 0 0 0 0 0 0 0 0 0 0 0 0 0 0 0 0 0 0 0 0 0 0 0 0 0 0 0 0 0 0 0 0 0 0 0 0 0 0 0 0 0 0 0 0 0 0 0 0 0 0 0 0 0 0 0 0 0 0 0 0 0 0 0 0 0 0 0 0
2991 2991 3015 3037 3046 3051 3075 3103 3125 3143 3158 3179 3201 3225 3237 3240 3241 3245 3247 3253 3278 3301 3301 3303 3312 3312 3328 3340 3341 3341 3347 3361 3373 3374 3374 3374 3374 3375 3379 3391 3400 3406 3410 3413 3414 3416 3418 3419 3420 3421 3422 3433 3438 3439 3442 3445 3445 3445 3443 3434 3432 3432 3432 3428 3419 3416 3414 3400 3400 3374 3357 3350 3347 3335 3312 3285 3266 3237 3180 3051 2766 0 0 0 0 0 1339 1339 1339 1339 1340 1340 1340 1340 1340 1339 1339 1339 1339 1340 1341 1341 1342 1342 1343 1343 1343 1344 1344 1344 1345 1345 1345 1345 1345 1344 1344 1344 1343 1342 1341 1341 1336 1334 1334 1334 1338 1340 1342 1343 1345 1346 1346 1347 1347 1347 1348 1349 1351 1354 1357 1360 1361 1363 1365 1367 1368 1370 1371 1372 1374 1374 1375 1376 1376 1377 1378 1379 1380 1381 1382 1382 1382 1383 1383 1384 1384 1384 1384 1385 1385 1385 1384 1384 1384 1387 1387 1388 1388 1388 1389 1391 1392 1392 1394 1395 1396 1397 1399 1401 1402 1402 1404 1405 1407 1408 1410 1411 1411 1411 1412 1413 1415 1415 1415 1416 1417 1419 1419 1419 1420 1423 1425 1427 1427 1427 1427 1427 1427 1429 1431 1433 1436 1437 1438 1440 1440 1440 1440 1440 1442 1445 1448 1448 1448 1448 1449 1449 1449 1451 1452 1452 1453 1456 1456 1457 1458 1459 1459 1460 1461 1461 1463 1464 1465 1468 1471 1475 1477 1478 1478 1478 1478 1478 1479 1481 1482 1483 1483 1483 1483 1483 1484 1484 1484 1485 1487 1488 1489 1490 1491 1492 1494 1495 1495 1495 1497 1497 1499 1501 1503 1503 1508 1508 1514 1514 1514 1511 1510 1510 1510 1513 1517 1522 1527 1531 1531 1533 1534 1538 1544 1544 1544 1540 1540 1540 1540 1540 1540 1538 1538 1538 1539 1542 1542 1543 1543 1543 1543 1547 1550 1550 1550 1550 1550 1552 1555 1556 1556 1556 1556 1556 1556 1558 1559 1559 1560 1561 1563 1564 1565 1567 1567 1568 1569 1569 1570 1572 1572 1573 1575 1576 1577 1579 1579 1579 1579 1579 1579 1580 1581 1581 1581 1582 1582 1583 1586 1588 1588 1588 1588 1588 1592 1595 1596 1599 1600 1601 1602 1602 1605 1605 1607 1607 1607 1608 1608 1609 1610 1610 1611 1611 1611 1612 1612 1612 1617 1620 1621 1624 1632 1641 1654 1663 1667 1670 1674 1674 1675 1676 1676 1676 1671 1670 1664 1656 1653 1643 1637 1633 1630 1624 1617 1610 1606 1598 1583 1574 1570 1567 1564 1560 1557 1555 1552 1550 1549 1549 1549 1549 1549 1550 1551 1553 1555 1556 1557 1558 1558 1559 1563 1569 1570 1573 1582 1607 0 0 0 0 1843 1852 1854 1861 1861 1863 1864 1864 1864 1866 1867 1869 1870 1871 1872 1873 1873 1874 1875 1877 1877 1878 1878 1879 1880 1880 1881 1882 1882 1882 1882 1883 1884 1885 1886 1888 1890 1892 1893 1895 1896 1898 1899 1901 1903 1905 1906 1908 1909 1910 1913 1914 1917 1919 1922 1924 1925 1926 1930 1932 1933 1937 1944 1948 1948 1948 1945 1942 0 0 0 0 0 0 0 0 0 0 0 0 0 0 0 0 0 0 0 0 0 0 0 0 0 0 0 0 0 0 0 0 0 0 0 0 0 0 0 0 0 0 0 0 0 0 0 0 0 0 0 0 0 0 0 0 0 0 0 0 0 0 0 0 0 0 0 0 0 0 0 0 0 0 0 0 0 0 0 0 0 0 0 0 0 0 0 0 0 0 0 0 0 0 0 0 0 0 0 0 0 0
2991 2991 3015 3058 3085 3099 3104 3116 3131 3143 3158 3179 3201 3227 3241 3241 3241 3247 3247 3277 3306 3306 3306 3306 3306 3306 3325 3341 3341 3342 3347 3360 3373 3374 3374 3375 3375 3379 3387 3398 3402 3406 3410 3412 3412 3413 3414 3415 3417 3417 3418 3427 3437 3438 3441 3443 3443 3443 3433 3431 3431 3429 3429 3427 3424 3422 3418 3400 3400 3383 3357 3353 3350 3335 3313 3286 3268 3241 3188 3092 2943 2589 0 0 0 0 0 1340 1340 1340 1340 1340 1340 1339 1338 1338 1338 1338 1338 1339 1339 1339 1339 1340 1340 1340 1340 1340 1341 1342 1342 1342 1343 1343 1343 1343 1343 1342 1342 1342 1341 1341 1336 1334 1334 1334 1336 1338 1339 1340 1342 1345 1346 1347 1347 1347 1348 1348 1350 1351 1353 1357 1357 1359 1364 1366 1367 1368 1369 1370 1370 1371 1373 1374 1374 1375 1376 1377 1379 1379 1380 1380 1380 1381 1381 1381 1381 1382 1382 1383 1383 1383 1383 1383 1383 1384 1385 1385 1385 1385 1387 1389 1390 1390 1392 1393 1395 1396 1398 1399 1400 1401 1402 1404 1406 1407 1407 1408 1408 1408 1409 1410 1412 1413 1413 1414 1414 1416 1417 1417 1417 1417 1422 1424 1426 1426 1426 1426 1426 1428 1429 1430 1432 1432 1432 1433 1434 1434 1435 1436 1439 1442 1444 1446 1447 1447 1447 1447 1447 1449 1449 1451 1452 1452 1453 1453 1454 1455 1457 1457 1457 1458 1458 1460 1463 1466 1466 1466 1471 1472 1475 1476 1477 1477 1479 1481 1481 1481 1481 1481 1481 1481 1481 1481 1481 1483 1485 1486 1487 1487 1488 1490 1491 1492 1492 1493 1494 1494 1496 1498 1502 1503 1503 1505 1510 1510 1510 1507 1507 1507 1510 1513 1516 1521 1525 1526 1526 1526 1529 1534 1539 1539 1539 1539 1539 1537 1537 1537 1537 1536 1536 1536 1537 1541 1542 1542 1542 1542 1543 1545 1549 1549 1550 1550 1550 1552 1554 1555 1556 1556 1556 1556 1556 1557 1558 1558 1558 1559 1559 1560 1561 1563 1563 1565 1566 1567 1568 1569 1569 1570 1571 1572 1574 1575 1575 1576 1576 1576 1578 1579 1579 1579 1580 1580 1580 1581 1583 1584 1584 1584 1585 1587 1589 1593 1594 1595 1595 1597 1600 1601 1603 1604 1605 1605 1605 1605 1605 1606 1608 1609 1609 1609 1609 1609 1609 1610 1611 1614 1617 1619 1621 1632 1646 1657 1666 1668 1668 1669 1670 1671 1671 1671 1669 1668 1663 1656 1649 1638 1632 1629 1626 1620 1615 1607 1601 1595 1581 1572 1567 1566 1563 1559 1555 1554 1552 1548 1548 1547 1547 1547 1549 1550 1552 1554 1555 1556 1557 1558 1558 1561 1564 1569 1572 1575 1595 1622 0 0 0 1836 1854 1857 1859 1861 1861 1862 1864 1864 1864 1866 1867 1869 1870 1871 1873 1873 1874 1875 1875 1877 1878 1878 1879 1879 1880 1880 1881 1882 1882 1882 1882 1883 1884 1885 1886 1888 1890 1892 1894 1895 1897 1898 1900 1903 1904 1906 1906 1908 1909 1910 1913 1914 1916 1919 1922 1924 1925 1926 1929 1932 1933 1935 1941 1946 1946 1946 1946 1945 0 0 0 0 0 0 0 0 0 0 0 0 0 0 0 0 0 0 0 0 0 0 0 0 0 0 0 0 0 0 0 0 0 0 0 0 0 0 0 0 0 0 0 0 0 0 0 0 0 0 0 0 0 0 0 0 0 0 0 0 0 0 0 0 0 0 0 0 0 0 0 0 0 0 0 0 0 0 0 0 0 0 0 0 0 0 0 0 0 0 0 0 0 0 0 0 0 0 0 0 0 0
2991 2991 3015 3058 3085 3099 3104 3116 3131 3143 3158 3179 3209 3234 3245 3248 3250 3265 3296 3302 3311 3311 3311 3306 3306 3306 3325 3341 3341 3342 3346 3360 3373 3377 3378 3378 3380 3387 3391 3398 3404 3405 3408 3410 3411 3412 3414 3415 3416 3417 3417 3422 3434 3436 3439 3439 3439 3437 3432 3429 3429 3427 3426 3425 3424 3422 3419 3407 3404 3384 3361 3353 3351 3344 3326 3297 3269 3246 3217 3109 2954 2746 0 0 0 0 0 1341 1339 1338 1337 1338 1338 1337 1336 1336 1335 1335 1336 1336 1337 1337 1337 1337 1337 1338 1338 1339 1340 1340 1340 1340 1340 1340 1340 1341 1341 1342 1342 1342 1341 1340 1335 1333 1333 1333 1335 1337 1339 1339 1340 1343 1344 1346 1346 1346 1347 1348 1349 1351 1352 1355 1356 1358 1363 1363 1365 1365 1365 1365 1366 1369 1370 1372 1373 1374 1374 1375 1376 1377 1377 1378 1378 1378 1378 1378 1378 1378 1378 1380 1380 1380 1380 1380 1380 1381 1384 1384 1384 1385 1386 1386 1388 1390 1390 1392 1393 1395 1396 1397 1399 1399 1401 1402 1403 1405 1405 1405 1406 1406 1407 1408 1409 1410 1411 1411 1412 1412 1414 1416 1417 1417 1419 1421 1423 1425 1426 1426 1426 1428 1428 1428 1428 1429 1429 1429 1429 1429 1431 1435 1436 1439 1440 1442 1442 1442 1443 1443 1443 1446 1448 1449 1449 1450 1450 1450 1450 1450 1454 1455 1455 1456 1456 1456 1457 1458 1461 1464 1466 1469 1471 1473 1475 1476 1477 1477 1477 1478 1478 1478 1478 1478 1478 1479 1480 1480 1482 1483 1484 1485 1486 1487 1489 1490 1490 1490 1491 1493 1495 1496 1499 1500 1502 1502 1507 1507 1507 1507 1507 1507 1507 1510 1513 1517 1520 1520 1522 1525 1525 1533 1534 1535 1535 1535 1535 1535 1535 1534 1531 1531 1531 1532 1536 1537 1540 1540 1542 1542 1542 1545 1549 1549 1550 1550 1550 1552 1554 1555 1556 1556 1556 1556 1556 1556 1556 1556 1555 1555 1555 1556 1557 1558 1559 1561 1562 1564 1565 1566 1566 1567 1568 1570 1572 1574 1574 1574 1574 1575 1577 1577 1578 1578 1578 1580 1580 1580 1580 1582 1582 1582 1583 1584 1588 1588 1589 1591 1591 1593 1593 1597 1600 1600 1600 1601 1601 1601 1602 1603 1604 1606 1606 1606 1606 1607 1608 1608 1608 1609 1612 1614 1618 1626 1641 1653 1659 1661 1662 1662 1663 1665 1666 1666 1666 1665 1660 1654 1644 1633 1628 1624 1621 1617 1610 1605 1600 1590 1581 1571 1566 1565 1561 1557 1554 1552 1549 1548 1547 1547 1547 1547 1548 1550 1553 1554 1555 1556 1558 1558 1560 1562 1566 1569 1573 1588 1620 1646 0 0 0 1854 1858 1859 1860 1861 1861 1862 1864 1864 1864 1866 1867 1869 1870 1871 1873 1873 1874 1875 1875 1877 1878 1878 1879 1879 1880 1880 1881 1882 1882 1882 1882 1883 1884 1885 1886 1887 1890 1892 1894 1895 1897 1898 1900 1903 1904 1906 1907 1908 1908 1910 1912 1914 1916 1919 1921 1923 1924 1926 1929 1932 1934 1935 1937 1943 1943 1944 1945 1943 1935 0 0 0 0 0 0 0 0 0 0 0 0 0 0 0 0 0 0 0 0 0 0 0 0 0 0 0 0 0 0 0 0 0 0 0 0 0 0 0 0 0 0 0 0 0 0 0 0 0 0 0 0 0 0 0 0 0 0 0 0 0 0 0 0 0 0 0 0 0 0 0 0 0 0 0 0 0 0 0 0 0 0 0 0 0 0 0 0 0 0 0 0 0 0 0 0 0 0 0 0 0
2991 2991 3017 3058 3085 3099 3104 3121 3141 3148 3162 3193 3225 3234 3246 3252 3255 3275 3308 3312 3314 3314 3314 3306 3306 3306 3325 3341 3342 3344 3346 3358 3373 3377 3377 3378 3380 3387 3393 3398 3404 3406 3407 3408 3410 3412 3414 3415 3415 3417 3417 3418 3428 3436 3438 3438 3438 3437 3429 3426 3426 3425 3425 3425 3424 3424 3419 3407 3406 3384 3375 3365 3358 3352 3340 3307 3292 3263 3221 3142 2990 2819 0 0 0 0 0 1347 1337 1335 1334 1334 1334 1334 1333 1333 1333 1333 1334 1334 1334 1334 1334 1334 1335 1336 1336 1337 1337 1337 1338 1338 1338 1338 1338 1338 1338 1338 1339 1340 1340 1340 1334 1332 1332 1332 1333 1335 1336 1337 1337 1339 1339 1341 1343 1345 1346 1346 1348 1348 1350 1352 1355 1356 1359 1360 1361 1363 1364 1364 1364 1366 1367 1368 1372 1372 1372 1373 1373 1374 1374 1375 1375 1375 1374 1373 1373 1373 1375 1376 1376 1377 1377 1377 1378 1381 1381 1382 1383 1384 1385 1386 1387 1388 1390 1391 1392 1393 1394 1397 1397 1398 1399 1400 1401 1402 1403 1403 1403 1403 1405 1406 1407 1409 1409 1410 1410 1410 1411 1414 1415 1416 1418 1420 1422 1424 1424 1425 1426 1427 1427 1427 1427 1427 1427 1427 1428 1428 1431 1433 1436 1437 1437 1437 1436 1436 1436 1438 1440 1440 1443 1445 1445 1445 1445 1446 1449 1450 1452 1454 1454 1454 1454 1454 1455 1457 1461 1462 1463 1465 1467 1469 1472 1474 1475 1475 1475 1475 1475 1475 1475 1476 1476 1477 1477 1478 1478 1481 1482 1482 1483 1484 1485 1487 1488 1488 1490 1492 1493 1494 1496 1499 1499 1500 1500 1505 1506 1506 1506 1507 1507 1507 1508 1509 1514 1515 1517 1519 1520 1527 1530 1531 1532 1532 1532 1530 1530 1530 1530 1530 1530 1532 1535 1537 1538 1539 1540 1542 1544 1547 1549 1549 1550 1550 1550 1552 1554 1555 1555 1555 1555 1555 1555 1555 1555 1553 1552 1552 1552 1553 1554 1555 1555 1557 1559 1561 1562 1563 1563 1564 1566 1567 1570 1572 1572 1572 1573 1575 1575 1575 1576 1576 1576 1579 1579 1579 1580 1580 1581 1582 1582 1582 1585 1585 1586 1587 1587 1590 1592 1593 1595 1596 1597 1598 1598 1598 1600 1601 1602 1603 1603 1604 1604 1605 1606 1606 1606 1608 1610 1613 1617 1623 1630 1646 1649 1650 1652 1655 1657 1658 1659 1659 1659 1659 1655 1652 1640 1631 1625 1621 1617 1614 1609 1603 1596 1589 1580 1571 1564 1563 1559 1556 1553 1551 1548 1547 1546 1546 1546 1547 1548 1550 1552 1553 1554 1556 1558 1561 1562 1565 1571 1576 1591 1618 1644 0 0 0 0 1858 1859 1859 1861 1861 1862 1862 1864 1864 1865 1866 1867 1869 1870 1872 1873 1873 1874 1875 1875 1877 1878 1878 1879 1879 1880 1880 1881 1881 1881 1882 1882 1882 1884 1884 1886 1887 1889 1892 1894 1895 1897 1899 1900 1903 1904 1906 1907 1908 1908 1910 1913 1914 1916 1918 1920 1922 1924 1926 1929 1931 1933 1934 1935 1937 1937 1939 1939 1937 1935 0 0 0 0 0 0 0 0 0 0 0 0 0 0 0 0 0 0 0 0 0 0 0 0 0 0 0 0 0 0 0 0 0 0 0 0 0 0 0 0 0 0 0 0 0 0 0 0 0 0 0 0 0 0 0 0 0 0 0 0 0 0 0 0 0 0 0 0 0 0 0 0 0 0 0 0 0 0 0 0 0 0 0 0 0 0 0 0 0 0 0 0 0 0 0 0 0 0 0 0 0
2991 2991 3017 3058 3087 3110 3115 3125 3142 3155 3172 3193 3225 3234 3245 3254 3267 3285 3308 3312 3322 3322 3322 3318 3318 3318 3333 3339 3341 3342 3345 3356 3373 3377 3377 3378 3380 3387 3393 3398 3404 3406 3407 3408 3410 3412 3415 3416 3416 3416 3416 3418 3423 3429 3431 3432 3432 3432 3428 3425 3425 3424 3424 3424 3423 3423 3419 3406 3404 3398 3385 3371 3358 3352 3344 3336 3317 3307 3271 3194 3003 2834 2565 0 0 0 0 1347 1336 1331 1331 1330 1330 1330 1331 1331 1331 1331 1331 1331 1332 1332 1332 1332 1333 1334 1334 1335 1335 1335 1335 1336 1337 1337 1337 1337 1336 1336 1336 1338 1338 1338 1332 1328 1328 1328 1329 1331 1331 1331 1331 1332 1332 1336 1339 1343 1344 1344 1345 1347 1349 1352 1355 1356 1356 1357 1357 1358 1362 1362 1363 1364 1366 1368 1369 1369 1369 1370 1372 1372 1374 1374 1374 1372 1370 1370 1370 1372 1373 1373 1374 1374 1376 1376 1377 1378 1380 1381 1382 1383 1384 1385 1385 1387 1388 1389 1390 1391 1392 1393 1395 1396 1397 1399 1399 1400 1400 1401 1401 1402 1402 1404 1405 1406 1407 1408 1408 1409 1411 1412 1415 1415 1417 1420 1421 1422 1423 1423 1423 1423 1423 1423 1423 1423 1425 1425 1426 1427 1429 1433 1433 1433 1431 1431 1431 1431 1434 1436 1437 1438 1440 1441 1443 1443 1443 1444 1446 1447 1452 1452 1452 1452 1452 1452 1452 1457 1460 1460 1461 1461 1463 1464 1468 1472 1473 1473 1473 1473 1473 1473 1473 1474 1474 1474 1474 1475 1477 1478 1478 1480 1481 1482 1483 1485 1485 1487 1489 1490 1491 1492 1492 1495 1497 1497 1497 1498 1504 1504 1504 1504 1504 1505 1507 1509 1509 1510 1510 1511 1512 1512 1512 1512 1513 1518 1518 1518 1520 1520 1521 1525 1526 1530 1534 1535 1535 1537 1539 1542 1544 1547 1549 1549 1550 1550 1550 1552 1553 1553 1553 1553 1553 1553 1553 1553 1548 1548 1548 1549 1551 1551 1551 1552 1553 1554 1555 1557 1558 1559 1560 1561 1562 1565 1567 1568 1569 1569 1569 1572 1572 1573 1573 1574 1575 1575 1579 1579 1579 1579 1579 1581 1582 1582 1582 1583 1583 1585 1586 1588 1589 1590 1591 1592 1593 1594 1595 1596 1596 1597 1599 1600 1600 1601 1602 1603 1604 1605 1605 1607 1609 1613 1615 1616 1620 1625 1630 1639 1643 1645 1645 1645 1645 1645 1645 1645 1640 1637 1635 1630 1621 1619 1614 1611 1608 1603 1596 1588 1579 1571 1563 1560 1557 1555 1551 1549 1547 1547 1546 1546 1546 1547 1548 1550 1552 1553 1553 1556 1560 1565 1567 1572 1576 1586 1607 1641 1666 0 0 0 1852 1859 1859 1859 1861 1862 1862 1862 1864 1865 1867 1867 1868 1869 1870 1871 1873 1873 1874 1875 1875 1876 1877 1878 1879 1879 1880 1880 1881 1881 1881 1881 1882 1882 1884 1884 1885 1887 1889 1891 1893 1895 1897 1898 1900 1902 1904 1906 1907 1908 1908 1910 1912 1914 1916 1918 1920 1921 1924 1926 1928 1930 1933 1934 1934 1934 1933 1933 1933 1933 1933 0 0 0 0 0 0 0 0 0 0 0 0 0 0 0 0 0 0 0 0 0 0 0 0 0 0 0 0 0 0 0 0 0 0 0 0 0 0 0 0 0 0 0 0 0 0 0 0 0 0 0 0 0 0 0 0 0 0 0 0 0 0 0 0 0 0 0 0 0 0 0 0 0 0 0 0 0 0 0 0 0 0 0 0 0 0 0 0 0 0 0 0 0 0 0 0 0 0 0 0 0
3001 3001 3017 3058 3079 3110 3115 3125 3143 3155 3172 3193 3225 3227 3245 3259 3281 3291 3308 3312 3325 3325 3325 3325 3326 3331 3338 3339 3341 3341 3342 3348 3359 3363 3373 3376 3377 3387 3392 3398 3403 3406 3406 3406 3410 3412 3415 3416 3416 3416 3416 3417 3419 3422 3425 3429 3429 3429 3428 3425 3424 3424 3424 3422 3422 3421 3418 3404 3399 3398 3385 3371 3358 3352 3344 3340 3334 3322 3303 3255 3137 2952 2685 0 0 0 0 1347 1333 1328 1326 1326 1326 1327 1329 1329 1329 1329 1329 1329 1329 1330 1330 1330 1331 1331 1332 1333 1333 1333 1333 1334 1335 1335 1335 1335 1335 1335 1335 1335 1334 1332 1329 1325 1325 1325 1326 1326 1327 1327 1327 1327 1330 1335 1338 1341 1341 1342 1343 1347 1349 1351 1354 1354 1354 1354 1354 1356 1358 1360 1361 1362 1363 1364 1364 1366 1367 1370 1371 1371 1372 1371 1371 1371 1370 1370 1370 1370 1370 1370 1370 1372 1374 1374 1375 1375 1376 1380 1381 1382 1382 1382 1382 1383 1386 1387 1388 1389 1390 1391 1393 1394 1395 1396 1397 1397 1398 1399 1400 1400 1401 1402 1403 1403 1404 1406 1407 1408 1409 1410 1413 1415 1415 1415 1419 1419 1420 1420 1420 1421 1421 1421 1422 1422 1422 1423 1424 1424 1427 1431 1431 1431 1430 1429 1429 1430 1431 1434 1434 1434 1434 1434 1441 1441 1441 1435 1435 1435 1440 1444 1445 1447 1448 1450 1452 1455 1457 1458 1458 1459 1459 1460 1463 1468 1473 1473 1473 1472 1471 1471 1471 1471 1471 1472 1473 1473 1474 1475 1476 1478 1480 1481 1481 1482 1484 1486 1487 1488 1489 1489 1491 1491 1493 1493 1496 1496 1504 1504 1504 1504 1504 1504 1505 1505 1507 1506 1505 1505 1505 1505 1505 1505 1508 1513 1513 1513 1513 1513 1513 1517 1522 1525 1531 1532 1533 1537 1539 1541 1544 1547 1549 1549 1549 1550 1550 1551 1551 1551 1550 1550 1550 1553 1553 1553 1548 1548 1548 1548 1548 1549 1549 1550 1550 1550 1552 1554 1555 1556 1557 1558 1560 1562 1564 1564 1565 1566 1567 1569 1571 1572 1572 1573 1574 1574 1578 1578 1579 1579 1579 1580 1581 1581 1581 1581 1582 1583 1584 1585 1586 1587 1588 1590 1590 1590 1591 1592 1594 1595 1596 1597 1597 1598 1599 1600 1602 1603 1604 1606 1607 1609 1611 1612 1612 1617 1622 1625 1631 1632 1633 1634 1635 1635 1635 1635 1633 1628 1625 1622 1618 1615 1609 1605 1602 1598 1594 1586 1577 1569 1562 1558 1555 1552 1550 1548 1547 1546 1546 1546 1546 1547 1548 1550 1552 1552 1552 1553 1560 1565 1570 1576 1583 1595 1625 1661 1705 0 0 1840 1853 1859 1859 1860 1861 1862 1863 1863 1865 1865 1867 1867 1868 1869 1870 1871 1873 1873 1874 1875 1875 1876 1877 1878 1879 1879 1880 1880 1880 1880 1880 1881 1881 1882 1883 1884 1885 1886 1888 1889 1892 1895 1897 1898 1900 1902 1904 1905 1906 1907 1908 1910 1912 1914 1916 1918 1920 1921 1923 1926 1928 1930 1932 1934 1934 1934 1933 1933 1933 1933 1933 0 0 0 0 0 0 0 0 0 0 0 0 0 0 0 0 0 0 0 0 0 0 0 0 0 0 0 0 0 0 0 0 0 0 0 0 0 0 0 0 0 0 0 0 0 0 0 0 0 0 0 0 0 0 0 0 0 0 0 0 0 0 0 0 0 0 0 0 0 0 0 0 0 0 0 0 0 0 0 0 0 0 0 0 0 0 0 0 0 0 0 0 0 0 0 0 0 0 0 0 0
3027 3027 3038 3052 3073 3091 3097 3127 3144 3155 3172 3192 3201 3217 3245 3259 3281 3291 3301 3307 3325 3326 3328 3333 3333 3336 3338 3339 3339 3339 3339 3339 3339 3344 3355 3359 3370 3380 3391 3398 3401 3404 3405 3405 3406 3412 3415 3416 3416 3417 3417 3419 3419 3422 3425 3429 3429 3429 3429 3423 3423 3421 3421 3421 3421 3419 3413 3406 3398 3397 3385 3377 3363 3352 3344 3341 3337 3325 3315 3277 3173 2958 2737 0 0 0 0 0 1333 1326 1325 1325 1325 1326 1326 1328 1328 1328 1327 1326 1326 1326 1327 1327 1328 1329 1330 1330 1331 1331 1331 1331 1332 1333 1333 1333 1334 1334 1334 1334 1333 1331 1329 1325 1323 1323 1323 1324 1326 1326 1327 1327 1330 1335 1338 1340 1340 1341 1343 1346 1348 1350 1351 1351 1351 1352 1352 1354 1357 1359 1360 1360 1361 1361 1362 1364 1366 1369 1369 1369 1371 1369 1368 1368 1369 1368 1368 1368 1368 1368 1369 1371 1372 1372 1372 1372 1373 1377 1377 1378 1379 1379 1380 1382 1383 1385 1386 1387 1388 1389 1391 1392 1392 1394 1395 1395 1396 1397 1397 1398 1399 1399 1400 1401 1401 1403 1405 1406 1407 1408 1409 1409 1410 1414 1414 1415 1416 1416 1416 1421 1421 1421 1421 1420 1420 1420 1420 1420 1423 1426 1427 1427 1428 1428 1428 1429 1430 1430 1430 1431 1431 1431 1435 1435 1435 1431 1431 1431 1432 1434 1440 1444 1448 1449 1450 1451 1452 1453 1454 1454 1455 1457 1459 1465 1473 1473 1473 1472 1470 1470 1470 1470 1470 1470 1470 1471 1472 1474 1475 1476 1477 1478 1479 1481 1482 1484 1485 1486 1486 1488 1489 1490 1493 1493 1494 1495 1495 1501 1501 1501 1501 1501 1502 1504 1505 1504 1504 1504 1503 1503 1503 1504 1508 1510 1510 1511 1511 1512 1512 1516 1520 1522 1525 1531 1532 1534 1538 1541 1544 1547 1549 1549 1549 1549 1550 1550 1550 1548 1546 1546 1546 1551 1551 1551 1547 1545 1545 1545 1545 1546 1546 1547 1547 1547 1547 1549 1551 1551 1553 1555 1556 1558 1560 1560 1561 1562 1563 1566 1569 1570 1571 1571 1571 1571 1571 1572 1575 1575 1575 1575 1575 1577 1577 1579 1579 1580 1580 1581 1582 1583 1585 1587 1588 1589 1589 1589 1591 1592 1594 1594 1594 1596 1596 1596 1597 1599 1601 1602 1603 1606 1608 1609 1611 1613 1617 1621 1623 1627 1628 1628 1628 1628 1627 1627 1627 1626 1621 1617 1616 1612 1606 1602 1598 1593 1588 1580 1573 1566 1558 1556 1551 1550 1549 1547 1546 1545 1545 1545 1546 1547 1548 1550 1550 1552 1552 1553 1562 1567 1571 1582 1593 0 0 0 1743 1784 1830 1849 1857 1859 1859 1860 1861 1862 1863 1863 1865 1866 1867 1867 1868 1869 1870 1871 1872 1873 1874 1875 1875 1876 1877 1878 1879 1879 1879 1879 1879 1880 1880 1880 1881 1882 1882 1883 1885 1885 1887 1888 1892 1894 1896 1898 1900 1901 1904 1905 1906 1907 1908 1910 1912 1914 1916 1917 1920 1921 1923 1925 1926 1929 1931 1933 1933 1933 1934 1934 1935 1935 1935 1930 0 0 0 0 0 0 0 0 0 0 0 0 0 0 0 0 0 0 0 0 0 0 0 0 0 0 0 0 0 0 0 0 0 0 0 0 0 0 0 0 0 0 0 0 0 0 0 0 0 0 0 0 0 0 0 0 0 0 0 0 0 0 0 0 0 0 0 0 0 0 0 0 0 0 0 0 0 0 0 0 0 0 0 0 0 0 0 0 0 0 0 0 0 0 0 0 0 0 0 0
3033 3033 3038 3052 3073 3091 3101 3127 3144 3148 3151 3157 3168 3195 3231 3259 3281 3291 3300 3306 3325 3325 3326 3333 3333 3334 3334 3333 3330 3330 3330 3330 3337 3344 3348 3352 3359 3371 3388 3397 3400 3403 3405 3406 3406 3411 3415 3416 3416 3417 3417 3419 3419 3422 3425 3429 3429 3429 3429 3423 3419 3417 3417 3417 3417 3417 3413 3406 3398 3397 3385 3377 3363 3354 3344 3344 3337 3327 3315 3280 3193 2985 2750 0 0 0 0 0 1330 1326 1325 1324 1324 1324 1324 1324 1324 1324 1324 1324 1324 1324 1324 1325 1326 1327 1328 1328 1328 1328 1329 1329 1330 1330 1331 1331 1331 1330 1330 1330 1329 1329 1328 1325 1322 1322 1322 1324 1326 1326 1326 1327 1330 1335 1338 1338 1339 1341 1343 1346 1348 1348 1348 1349 1350 1351 1352 1354 1357 1357 1358 1358 1359 1360 1361 1362 1365 1366 1366 1366 1366 1367 1366 1366 1366 1366 1366 1366 1367 1367 1368 1369 1369 1369 1369 1369 1371 1375 1376 1376 1377 1377 1378 1378 1380 1382 1384 1385 1386 1387 1388 1389 1391 1391 1393 1393 1394 1394 1395 1396 1396 1397 1397 1398 1399 1400 1402 1403 1405 1406 1407 1408 1410 1412 1412 1412 1412 1412 1413 1418 1420 1420 1420 1419 1417 1417 1417 1419 1421 1423 1423 1424 1425 1425 1425 1427 1427 1427 1428 1428 1428 1430 1432 1432 1432 1431 1430 1430 1430 1432 1437 1441 1445 1447 1448 1448 1448 1446 1446 1446 1447 1450 1452 1457 1470 1470 1470 1468 1467 1467 1467 1467 1467 1468 1468 1468 1470 1471 1472 1474 1475 1477 1477 1479 1480 1482 1484 1484 1485 1486 1487 1488 1491 1491 1491 1492 1492 1494 1495 1496 1496 1497 1497 1499 1500 1500 1500 1500 1500 1500 1502 1503 1504 1505 1506 1507 1509 1510 1512 1516 1517 1519 1525 1528 1531 1534 1538 1540 1544 1544 1544 1544 1544 1544 1546 1546 1546 1545 1544 1544 1544 1548 1548 1548 1544 1543 1543 1543 1543 1543 1543 1544 1545 1545 1545 1546 1547 1548 1550 1552 1553 1555 1556 1558 1560 1562 1562 1564 1566 1568 1569 1569 1569 1570 1570 1570 1572 1572 1573 1574 1574 1575 1576 1577 1577 1578 1578 1579 1579 1580 1582 1583 1585 1586 1587 1588 1589 1589 1590 1591 1592 1593 1594 1594 1595 1595 1597 1598 1600 1602 1604 1607 1609 1610 1612 1616 1619 1622 1624 1624 1624 1621 1621 1621 1620 1620 1617 1613 1611 1611 1606 1600 1595 1588 1581 1575 1569 1561 1554 1551 1548 1548 1547 1546 1545 1545 1545 1545 1546 1547 1548 1549 1550 1551 1552 1556 1564 1567 1577 1591 1616 0 0 0 1775 1824 1842 1855 1858 1859 1859 1860 1861 1862 1863 1864 1864 1866 1867 1867 1868 1869 1870 1871 1872 1873 1873 1874 1875 1876 1877 1877 1879 1879 1879 1879 1879 1879 1880 1880 1880 1881 1882 1883 1883 1885 1886 1888 1890 1893 1895 1898 1899 1901 1903 1904 1906 1907 1908 1910 1912 1913 1916 1917 1920 1921 1923 1924 1925 1927 1928 1932 1932 1933 1934 1934 1944 1944 1944 1932 0 0 0 0 0 0 0 0 0 0 0 0 0 0 0 0 0 0 0 0 0 0 0 0 0 0 0 0 0 0 0 0 0 0 0 0 0 0 0 0 0 0 0 0 0 0 0 0 0 0 0 0 0 0 0 0 0 0 0 0 0 0 0 0 0 0 0 0 0 0 0 0 0 0 0 0 0 0 0 0 0 0 0 0 0 0 0 0 0 0 0 0 0 0 0 0 0 0 0 0
3033 3033 3038 3040 3058 3084 3101 3127 3127 3127 3134 3134 3134 3155 3196 3231 3252 3262 3281 3287 3314 3318 3325 3333 3333 3334 3334 3333 3330 3328 3328 3328 3336 3340 3345 3347 3356 3370 3383 3396 3399 3403 3405 3405 3406 3411 3413 3415 3416 3419 3420 3421 3421 3423 3427 3430 3431 3431 3431 3423 3419 3417 3417 3417 3414 3413 3413 3406 3398 3397 3385 3377 3363 3354 3344 3344 3338 3327 3316 3289 3234 3055 2766 0 0 0 0 0 1333 1326 1325 1322 1321 1320 1320 1320 1321 1322 1322 1322 1322 1322 1322 1324 1325 1325 1326 1326 1326 1326 1326 1327 1328 1329 1329 1329 1329 1329 1328 1328 1328 1327 1327 1325 1322 1322 1322 1324 1325 1326 1328 1329 1330 1335 1337 1338 1339 1340 1343 1346 1347 1347 1347 1347 1349 1350 1351 1352 1353 1353 1354 1356 1357 1357 1359 1361 1361 1362 1362 1362 1363 1365 1365 1365 1365 1364 1364 1364 1367 1367 1367 1367 1367 1366 1366 1366 1369 1372 1374 1374 1374 1375 1376 1377 1377 1380 1382 1383 1384 1385 1387 1387 1388 1389 1390 1391 1391 1392 1392 1394 1394 1395 1396 1396 1396 1399 1400 1401 1402 1403 1405 1407 1407 1408 1409 1410 1411 1411 1413 1416 1420 1420 1420 1418 1417 1417 1417 1418 1418 1419 1419 1421 1421 1423 1424 1426 1426 1426 1426 1425 1425 1425 1427 1429 1429 1429 1428 1428 1428 1429 1434 1438 1441 1443 1443 1443 1442 1438 1438 1438 1440 1442 1444 1452 1459 1466 1466 1466 1465 1465 1465 1465 1465 1465 1465 1466 1468 1469 1470 1472 1473 1474 1475 1476 1478 1480 1482 1483 1484 1485 1486 1487 1489 1490 1490 1491 1491 1491 1491 1491 1491 1491 1493 1495 1495 1495 1497 1497 1497 1498 1500 1500 1501 1502 1504 1505 1507 1507 1510 1511 1513 1515 1517 1518 1524 1534 1535 1535 1536 1536 1536 1537 1537 1539 1545 1545 1545 1543 1542 1542 1542 1547 1547 1547 1543 1543 1541 1541 1541 1541 1541 1541 1543 1544 1544 1544 1545 1546 1547 1549 1550 1552 1555 1555 1560 1560 1560 1562 1563 1564 1567 1568 1568 1569 1569 1569 1571 1571 1571 1572 1572 1574 1574 1575 1575 1575 1576 1576 1577 1578 1579 1580 1582 1583 1583 1585 1585 1586 1587 1588 1590 1591 1591 1592 1592 1594 1594 1596 1597 1598 1600 1602 1605 1606 1608 1609 1614 1621 1621 1621 1618 1617 1617 1616 1614 1614 1611 1609 1608 1607 1605 1597 1589 1582 1574 1567 1561 1556 1553 1548 1547 1546 1546 1545 1545 1545 1545 1545 1546 1547 1547 1549 1550 1551 1552 1557 1568 1582 1590 1611 0 0 0 0 1822 1838 1849 1855 1858 1859 1859 1860 1861 1862 1862 1864 1864 1865 1867 1867 1868 1869 1870 1871 1872 1872 1873 1874 1875 1876 1877 1877 1878 1878 1879 1879 1879 1879 1880 1880 1880 1881 1882 1882 1883 1885 1886 1887 1890 1893 1895 1897 1899 1901 1902 1904 1905 1907 1908 1909 1910 1912 1915 1917 1919 1921 1922 1924 1925 1926 1928 1930 1930 1932 1934 1936 1946 1946 1946 1932 0 0 0 0 0 0 0 0 0 0 0 0 0 0 0 0 0 0 0 0 0 0 0 0 0 0 0 0 0 0 0 0 0 0 0 0 0 0 0 0 0 0 0 0 0 0 0 0 0 0 0 0 0 0 0 0 0 0 0 0 0 0 0 0 0 0 0 0 0 0 0 0 0 0 0 0 0 0 0 0 0 0 0 0 0 0 0 0 0 0 0 0 0 0 0 0 0 0 0 0
3033 3033 3034 3036 3038 3066 3090 3105 3122 3122 3123 3123 3134 3153 3183 3210 3226 3234 3252 3281 3287 3309 3322 3325 3329 3333 3333 3333 3330 3328 3328 3328 3335 3339 3344 3347 3356 3370 3383 3395 3399 3403 3404 3405 3406 3411 3412 3415 3416 3419 3420 3422 3422 3425 3427 3431 3431 3431 3431 3429 3419 3417 3417 3417 3417 3417 3417 3417 3417 3416 3407 3393 3381 3362 3352 3344 3339 3331 3323 3292 3235 3121 2883 2558 0 0 0 0 0 1328 1325 1322 1317 1317 1317 1318 1319 1319 1319 1319 1320 1320 1320 1321 1321 1323 1323 1323 1324 1325 1325 1326 1326 1327 1327 1327 1327 1327 1327 1327 1328 1326 1326 1325 1322 1322 1322 1324 1325 1326 1328 1329 1330 1335 1337 1338 1339 1341 1342 1343 1343 1345 1345 1347 1349 1349 1350 1350 1351 1352 1352 1353 1354 1355 1356 1358 1359 1360 1360 1360 1360 1362 1362 1362 1362 1362 1362 1362 1365 1365 1365 1365 1364 1362 1362 1362 1364 1368 1370 1372 1372 1372 1374 1374 1375 1378 1380 1381 1382 1384 1385 1385 1386 1387 1388 1388 1389 1389 1389 1391 1391 1392 1393 1394 1395 1395 1396 1398 1401 1402 1404 1405 1405 1405 1407 1407 1408 1409 1412 1413 1414 1415 1415 1415 1415 1416 1416 1417 1417 1417 1418 1418 1418 1419 1420 1421 1422 1423 1423 1424 1424 1425 1426 1426 1426 1426 1425 1425 1425 1428 1432 1435 1437 1438 1441 1441 1441 1437 1437 1437 1438 1439 1441 1446 1451 1458 1462 1462 1462 1463 1462 1462 1462 1463 1463 1464 1465 1467 1468 1469 1470 1472 1473 1474 1476 1478 1479 1481 1482 1484 1485 1487 1489 1490 1490 1490 1490 1491 1490 1490 1490 1491 1493 1493 1493 1493 1494 1496 1496 1496 1497 1497 1498 1500 1501 1502 1503 1505 1507 1508 1511 1511 1512 1513 1519 1528 1528 1528 1529 1529 1530 1532 1535 1539 1543 1543 1543 1539 1539 1539 1540 1542 1543 1543 1543 1543 1541 1540 1539 1539 1539 1541 1541 1542 1542 1542 1542 1543 1544 1545 1548 1549 1550 1551 1553 1556 1556 1556 1558 1561 1561 1566 1566 1567 1568 1568 1569 1570 1570 1571 1571 1571 1572 1573 1573 1573 1573 1574 1574 1575 1576 1577 1578 1579 1581 1582 1582 1583 1584 1585 1587 1588 1588 1589 1591 1592 1593 1594 1595 1596 1596 1599 1601 1603 1604 1605 1607 1614 1614 1614 1613 1613 1612 1612 1611 1610 1610 1606 1606 1604 1597 1589 1581 1573 1560 1557 1556 1553 1550 1548 1547 1545 1544 1544 1544 1544 1545 1545 1546 1547 1547 1549 1550 1551 1554 1572 1587 1599 0 0 0 0 0 1835 1847 1849 1849 1855 1858 1859 1859 1860 1861 1862 1862 1864 1865 1865 1867 1867 1868 1868 1870 1870 1871 1872 1873 1874 1875 1875 1877 1877 1878 1878 1878 1879 1879 1879 1879 1880 1880 1881 1881 1881 1883 1884 1886 1887 1889 1892 1893 1896 1898 1900 1902 1903 1905 1906 1908 1909 1910 1912 1914 1916 1918 1921 1922 1924 1925 1926 1928 1930 1930 1932 1934 1936 1946 1946 1946 1932 0 0 0 0 0 0 0 0 0 0 0 0 0 0 0 0 0 0 0 0 0 0 0 0 0 0 0 0 0 0 0 0 0 0 0 0 0 0 0 0 0 0 0 0 0 0 0 0 0 0 0 0 0 0 0 0 0 0 0 0 0 0 0 0 0 0 0 0 0 0 0 0 0 0 0 0 0 0 0 0 0 0 0 0 0 0 0 0 0 0 0 0 0 0 0 0 0 0 0 0
3028 3028 3033 3034 3038 3062 3089 3092 3118 3119 3120 3123 3134 3153 3181 3205 3220 3224 3235 3259 3265 3289 3306 3315 3325 3333 3340 3340 3340 3331 3331 3331 3335 3339 3344 3345 3356 3370 3383 3393 3399 3405 3405 3407 3407 3411 3412 3415 3416 3419 3420 3422 3426 3430 3432 3434 3434 3434 3434 3429 3425 3422 3419 3419 3419 3423 3432 3432 3432 3425 3424 3408 3392 3377 3367 3350 3341 3333 3323 3301 3249 3170 3029 2717 0 0 0 0 0 1331 1326 1318 1314 1314 1314 1314 1316 1316 1317 1317 1318 1318 1318 1318 1319 1320 1321 1321 1322 1322 1323 1324 1324 1325 1326 1326 1326 1326 1326 1326 1326 1325 1325 1325 1322 1322 1322 1322 1323 1326 1328 1329 1330 1332 1335 1337 1338 1340 1340 1341 1342 1342 1345 1346 1347 1347 1348 1349 1350 1350 1350 1352 1353 1354 1354 1356 1356 1357 1357 1357 1357 1358 1358 1358 1358 1358 1358 1358 1360 1362 1362 1362 1362 1359 1359 1359 1361 1363 1365 1368 1370 1372 1372 1373 1373 1375 1378 1378 1380 1381 1382 1382 1383 1384 1385 1386 1386 1387 1387 1388 1390 1391 1392 1392 1392 1393 1395 1397 1400 1400 1401 1401 1402 1404 1406 1407 1407 1407 1410 1410 1410 1411 1413 1413 1414 1415 1415 1415 1415 1415 1415 1416 1416 1416 1417 1418 1418 1418 1420 1422 1423 1424 1425 1426 1426 1426 1423 1423 1423 1425 1430 1432 1434 1435 1438 1438 1438 1436 1436 1436 1437 1438 1440 1443 1446 1450 1455 1460 1460 1460 1460 1460 1460 1460 1460 1462 1463 1464 1466 1467 1468 1468 1470 1472 1473 1475 1477 1479 1481 1484 1485 1487 1489 1490 1490 1491 1491 1491 1490 1489 1489 1489 1490 1490 1490 1491 1493 1493 1494 1494 1494 1494 1496 1497 1498 1500 1500 1501 1503 1505 1509 1509 1510 1510 1514 1521 1522 1523 1523 1523 1526 1530 1534 1539 1540 1540 1540 1536 1535 1535 1535 1537 1538 1538 1540 1540 1540 1540 1537 1537 1537 1539 1539 1539 1540 1540 1539 1540 1540 1543 1544 1544 1545 1547 1548 1549 1550 1550 1550 1553 1559 1563 1566 1567 1567 1567 1567 1568 1569 1569 1569 1571 1571 1571 1571 1571 1571 1571 1572 1573 1574 1574 1574 1576 1577 1579 1579 1579 1581 1582 1583 1584 1585 1587 1589 1590 1592 1593 1594 1594 1594 1595 1597 1598 1600 1601 1601 1603 1607 1609 1609 1609 1609 1607 1606 1606 1606 1605 1604 1601 1590 1584 1576 1561 1554 1553 1552 1550 1549 1547 1546 1545 1544 1544 1544 1544 1544 1544 1546 1546 1547 1550 1553 1556 1569 1586 1603 0 0 0 0 0 1836 1845 1849 1849 1850 1852 1855 1858 1859 1860 1861 1862 1862 1864 1864 1865 1867 1867 1868 1868 1869 1870 1871 1872 1873 1874 1875 1875 1876 1877 1877 1877 1878 1878 1878 1879 1879 1880 1880 1880 1880 1881 1882 1884 1885 1887 1889 1891 1892 1894 1897 1899 1901 1903 1904 1906 1907 1909 1910 1912 1913 1915 1918 1921 1922 1924 1925 1926 1928 1930 1930 1932 1934 1936 1946 1946 1946 1931 0 0 0 0 0 0 0 0 0 0 0 0 0 0 0 0 0 0 0 0 0 0 0 0 0 0 0 0 0 0 0 0 0 0 0 0 0 0 0 0 0 0 0 0 0 0 0 0 0 0 0 0 0 0 0 0 0 0 0 0 0 0 0 0 0 0 0 0 0 0 0 0 0 0 0 0 0 0 0 0 0 0 0 0 0 0 0 0 0 0 0 0 0 0 0 0 0 0 0 0
3028 3028 3031 3033 3038 3042 3070 3074 3098 3118 3134 3147 3148 3153 3175 3203 3217 3220 3235 3259 3265 3289 3306 3315 3325 3332 3343 3343 3343 3343 3334 3334 3334 3337 3341 3345 3356 3373 3387 3392 3399 3402 3405 3407 3407 3411 3413 3415 3416 3417 3420 3422 3426 3430 3432 3434 3434 3434 3434 3430 3428 3428 3425 3425 3425 3428 3435 3435 3435 3433 3432 3419 3403 3392 3369 3354 3341 3333 3324 3308 3279 3208 3094 2859 2523 0 0 0 0 1336 1326 1318 1313 1313 1313 1313 1314 1315 1315 1315 1315 1316 1316 1316 1317 1318 1318 1320 1320 1320 1321 1322 1323 1324 1324 1324 1325 1325 1325 1325 1325 1324 1324 1323 1322 1322 1322 1322 1323 1324 1325 1327 1328 1331 1333 1336 1338 1340 1340 1340 1341 1341 1343 1344 1344 1345 1346 1347 1348 1348 1349 1350 1351 1352 1352 1353 1353 1353 1353 1353 1353 1353 1353 1354 1354 1354 1354 1355 1356 1359 1360 1360 1360 1359 1359 1359 1359 1361 1363 1365 1367 1370 1372 1372 1372 1373 1375 1376 1377 1378 1380 1381 1381 1382 1383 1384 1384 1384 1386 1388 1389 1390 1390 1390 1390 1391 1393 1395 1397 1399 1399 1399 1399 1401 1404 1405 1406 1406 1407 1407 1408 1408 1408 1411 1413 1413 1413 1413 1413 1413 1414 1414 1415 1415 1416 1416 1417 1417 1417 1419 1420 1422 1424 1426 1426 1426 1423 1423 1423 1423 1427 1430 1431 1432 1435 1435 1435 1435 1435 1435 1436 1437 1440 1442 1445 1448 1451 1452 1455 1456 1457 1458 1458 1459 1459 1459 1460 1462 1464 1465 1466 1467 1468 1471 1473 1475 1475 1477 1480 1483 1485 1487 1490 1490 1490 1490 1490 1489 1489 1489 1488 1488 1488 1488 1488 1489 1490 1491 1491 1492 1492 1492 1494 1495 1495 1496 1498 1499 1500 1502 1505 1508 1508 1508 1508 1508 1516 1517 1519 1520 1522 1526 1532 1538 1538 1538 1537 1536 1535 1535 1535 1535 1536 1538 1540 1540 1540 1539 1532 1532 1532 1534 1537 1537 1537 1537 1538 1538 1539 1540 1540 1542 1542 1545 1547 1548 1548 1549 1549 1553 1558 1562 1565 1565 1565 1565 1565 1567 1567 1567 1568 1568 1568 1568 1568 1568 1568 1569 1570 1570 1571 1572 1572 1573 1575 1575 1576 1577 1578 1579 1580 1581 1582 1583 1586 1588 1590 1590 1591 1591 1592 1593 1594 1595 1595 1596 1596 1597 1600 1602 1605 1605 1605 1604 1602 1602 1602 1598 1596 1591 1585 1578 1569 1558 1553 1551 1549 1548 1547 1545 1544 1543 1543 1543 1543 1543 1543 1544 1544 1545 1547 1552 1559 1569 1581 1599 0 0 0 0 0 0 1843 1846 1850 1850 1851 1852 1855 1857 1859 1860 1861 1862 1863 1864 1864 1865 1867 1867 1868 1868 1869 1870 1871 1871 1872 1873 1874 1875 1876 1876 1877 1877 1877 1878 1878 1878 1878 1879 1879 1880 1880 1881 1882 1883 1885 1887 1888 1889 1892 1894 1896 1898 1900 1901 1903 1905 1906 1908 1910 1911 1913 1915 1918 1920 1922 1924 1926 1926 1930 1931 1933 1933 1934 1934 1941 1941 1941 1932 0 0 0 0 0 0 0 0 0 0 0 0 0 0 0 0 0 0 0 0 0 0 0 0 0 0 0 0 0 0 0 0 0 0 0 0 0 0 0 0 0 0 0 0 0 0 0 0 0 0 0 0 0 0 0 0 0 0 0 0 0 0 0 0 0 0 0 0 0 0 0 0 0 0 0 0 0 0 0 0 0 0 0 0 0 0 0 0 0 0 0 0 0 0 0 0 0 0 0 0
3028 3028 3027 3027 3027 3027 3040 3045 3085 3119 3149 3153 3154 3164 3175 3187 3199 3219 3235 3259 3265 3289 3304 3311 3324 3332 3343 3343 3343 3343 3336 3334 3334 3334 3335 3341 3356 3373 3387 3392 3397 3402 3403 3407 3407 3410 3413 3415 3415 3417 3417 3418 3426 3430 3432 3434 3434 3436 3436 3436 3435 3435 3433 3433 3433 3434 3438 3438 3438 3433 3432 3419 3403 3392 3371 3354 3342 3336 3332 3319 3304 3256 3140 2899 2641 0 0 0 0 0 1326 1315 1313 1313 1313 1313 1313 1313 1313 1313 1313 1313 1315 1315 1315 1316 1316 1318 1318 1319 1319 1320 1321 1322 1322 1323 1323 1323 1323 1323 1323 1323 1323 1322 1322 1321 1321 1321 1323 1324 1325 1327 1328 1330 1333 1335 1337 1337 1337 1338 1339 1340 1342 1343 1343 1343 1344 1344 1345 1346 1347 1348 1348 1349 1349 1349 1350 1350 1350 1350 1349 1348 1348 1348 1350 1350 1351 1352 1354 1356 1358 1358 1358 1357 1357 1357 1359 1360 1362 1363 1363 1366 1370 1370 1371 1371 1372 1373 1375 1377 1378 1378 1379 1380 1381 1381 1382 1383 1385 1387 1388 1388 1388 1389 1389 1390 1392 1393 1394 1396 1396 1396 1397 1397 1400 1400 1403 1403 1404 1404 1405 1406 1406 1407 1408 1409 1410 1410 1410 1411 1413 1413 1413 1414 1415 1415 1415 1416 1416 1417 1417 1420 1421 1421 1421 1421 1420 1420 1420 1423 1426 1428 1429 1431 1432 1433 1434 1434 1434 1436 1436 1437 1440 1442 1445 1448 1451 1451 1452 1453 1456 1458 1458 1458 1458 1458 1459 1460 1462 1463 1465 1466 1467 1469 1472 1473 1475 1477 1480 1483 1485 1487 1489 1490 1490 1490 1489 1489 1489 1488 1488 1487 1486 1486 1486 1487 1487 1489 1489 1489 1490 1490 1491 1492 1493 1493 1495 1496 1497 1499 1501 1502 1503 1503 1505 1505 1508 1513 1517 1519 1519 1521 1525 1531 1532 1532 1533 1533 1533 1533 1534 1535 1536 1537 1539 1539 1539 1539 1531 1531 1531 1532 1532 1533 1535 1535 1535 1535 1535 1537 1537 1537 1541 1541 1543 1547 1547 1548 1549 1552 1554 1560 1563 1563 1563 1563 1564 1565 1565 1565 1566 1566 1566 1566 1565 1565 1565 1566 1567 1568 1568 1569 1570 1571 1572 1573 1574 1574 1575 1576 1577 1578 1579 1581 1582 1585 1586 1587 1588 1588 1589 1590 1590 1591 1592 1593 1594 1594 1598 1598 1601 1601 1601 1601 1598 1598 1598 1597 1589 1583 1578 1573 1565 1557 1549 1547 1546 1545 1544 1543 1543 1542 1542 1542 1543 1543 1543 1543 1544 1545 1547 1553 1566 1577 1597 0 0 0 0 1770 1828 1841 1845 1850 1850 1851 1851 1852 1854 1857 1859 1860 1861 1862 1863 1864 1864 1865 1866 1867 1868 1868 1869 1869 1870 1871 1872 1873 1874 1874 1875 1876 1877 1877 1877 1877 1878 1878 1878 1879 1879 1880 1880 1881 1882 1883 1884 1887 1888 1889 1891 1893 1895 1897 1898 1900 1902 1904 1906 1908 1910 1911 1912 1914 1917 1919 1922 1924 1926 1928 1930 1931 1933 1933 1933 1934 1935 1935 1935 1934 1897 0 0 0 0 0 0 0 0 0 0 0 0 0 0 0 0 0 0 0 0 0 0 0 0 0 0 0 0 0 0 0 0 0 0 0 0 0 0 0 0 0 0 0 0 0 0 0 0 0 0 0 0 0 0 0 0 0 0 0 0 0 0 0 0 0 0 0 0 0 0 0 0 0 0 0 0 0 0 0 0 0 0 0 0 0 0 0 0 0 0 0 0 0 0 0 0 0 0 0
3033 3033 3003 3003 3003 3003 3040 3045 3085 3119 3150 3153 3156 3165 3175 3187 3197 3219 3235 3257 3266 3285 3298 3310 3324 3332 3334 3341 3341 3341 3341 3334 3334 3334 3335 3341 3355 3373 3387 3391 3395 3396 3400 3401 3406 3410 3412 3413 3414 3414 3414 3417 3422 3430 3432 3434 3438 3443 3443 3443 3442 3442 3442 3442 3444 3444 3444 3444 3439 3433 3432 3421 3408 3392 3377 3360 3353 3351 3351 3344 3328 3278 3196 3016 2784 0 0 0 0 0 1326 1314 1313 1312 1312 1312 1312 1312 1312 1312 1312 1312 1313 1313 1314 1314 1315 1315 1315 1316 1317 1318 1320 1320 1320 1321 1321 1321 1321 1321 1322 1322 1322 1322 1322 1322 1322 1322 1323 1323 1324 1326 1328 1330 1331 1334 1334 1334 1334 1336 1338 1339 1340 1340 1341 1341 1342 1343 1343 1344 1346 1346 1346 1347 1347 1347 1347 1348 1348 1348 1348 1347 1347 1347 1349 1349 1349 1351 1352 1353 1356 1356 1356 1356 1356 1356 1358 1360 1360 1361 1361 1361 1367 1368 1369 1370 1370 1371 1373 1374 1375 1376 1377 1379 1379 1380 1381 1383 1385 1386 1386 1387 1387 1387 1388 1390 1390 1390 1390 1391 1392 1393 1394 1394 1396 1397 1399 1400 1401 1401 1402 1402 1403 1405 1405 1406 1406 1406 1408 1409 1410 1410 1411 1412 1412 1412 1413 1414 1415 1415 1416 1417 1418 1419 1420 1420 1420 1420 1420 1423 1426 1428 1429 1430 1430 1430 1434 1434 1435 1435 1436 1437 1440 1442 1445 1448 1451 1451 1452 1453 1453 1453 1453 1454 1454 1454 1456 1459 1461 1462 1465 1466 1466 1468 1470 1472 1475 1477 1480 1483 1484 1487 1488 1488 1489 1489 1488 1488 1487 1485 1485 1485 1483 1483 1483 1485 1485 1486 1486 1486 1487 1488 1488 1489 1491 1491 1491 1492 1494 1496 1497 1499 1499 1500 1502 1505 1506 1512 1515 1515 1517 1517 1517 1522 1526 1527 1528 1530 1530 1532 1533 1535 1535 1537 1538 1538 1538 1536 1528 1528 1528 1528 1529 1529 1530 1529 1531 1531 1531 1534 1534 1536 1537 1539 1542 1546 1547 1548 1549 1551 1554 1560 1560 1560 1563 1563 1563 1563 1564 1564 1564 1564 1564 1563 1562 1562 1562 1564 1564 1565 1566 1566 1567 1567 1569 1570 1571 1571 1571 1572 1574 1576 1576 1578 1579 1580 1582 1583 1584 1584 1586 1586 1587 1588 1589 1589 1591 1592 1594 1595 1595 1596 1596 1596 1596 1596 1595 1591 1579 1577 1571 1567 1559 1549 1547 1543 1542 1542 1541 1541 1541 1541 1541 1542 1543 1543 1543 1544 1544 1545 1548 1556 1574 1597 0 0 0 0 1772 1815 1836 1844 1847 1850 1851 1851 1851 1852 1854 1857 1859 1860 1861 1862 1863 1864 1864 1865 1865 1867 1867 1868 1868 1869 1870 1871 1872 1873 1873 1874 1875 1876 1877 1877 1877 1877 1877 1877 1878 1879 1879 1880 1880 1881 1882 1883 1884 1886 1887 1889 1889 1891 1894 1896 1898 1899 1901 1903 1905 1907 1909 1910 1912 1914 1916 1919 1922 1923 1926 1928 1930 1931 1933 1933 1934 1934 1935 1942 1943 1943 1943 0 0 0 0 0 0 0 0 0 0 0 0 0 0 0 0 0 0 0 0 0 0 0 0 0 0 0 0 0 0 0 0 0 0 0 0 0 0 0 0 0 0 0 0 0 0 0 0 0 0 0 0 0 0 0 0 0 0 0 0 0 0 0 0 0 0 0 0 0 0 0 0 0 0 0 0 0 0 0 0 0 0 0 0 0 0 0 0 0 0 0 0 0 0 0 0 0 0 0
3022 3022 2980 2985 2985 2985 3040 3045 3085 3129 3150 3163 3165 3173 3175 3186 3196 3218 3235 3257 3266 3285 3298 3301 3308 3315 3326 3338 3344 3344 3344 3344 3335 3335 3335 3341 3355 3368 3377 3379 3382 3382 3389 3394 3399 3407 3411 3412 3412 3413 3413 3417 3422 3426 3427 3433 3439 3446 3446 3446 3447 3447 3447 3447 3449 3449 3449 3446 3439 3433 3432 3424 3410 3392 3378 3373 3373 3367 3367 3367 3349 3306 3248 3110 2887 2502 0 0 0 0 1327 1314 1314 1313 1311 1311 1310 1310 1310 1310 1310 1311 1311 1312 1312 1313 1313 1313 1314 1314 1315 1316 1317 1318 1318 1319 1319 1319 1320 1320 1320 1321 1321 1321 1321 1321 1322 1322 1323 1323 1324 1325 1326 1329 1330 1332 1332 1333 1333 1334 1336 1336 1337 1337 1338 1339 1340 1341 1342 1342 1342 1344 1344 1344 1343 1343 1343 1344 1347 1347 1347 1347 1347 1347 1347 1347 1347 1347 1349 1351 1354 1355 1355 1355 1355 1355 1357 1357 1357 1357 1357 1358 1360 1364 1367 1368 1369 1370 1371 1372 1374 1375 1375 1377 1378 1379 1379 1381 1381 1382 1383 1384 1384 1384 1385 1386 1387 1387 1388 1389 1391 1392 1393 1393 1394 1394 1395 1397 1397 1397 1398 1400 1400 1401 1401 1401 1403 1404 1405 1406 1408 1408 1408 1409 1411 1411 1412 1412 1413 1413 1414 1414 1416 1417 1417 1417 1418 1420 1420 1423 1425 1427 1427 1427 1428 1428 1432 1435 1437 1438 1440 1442 1444 1446 1449 1450 1450 1451 1451 1451 1451 1452 1452 1452 1452 1452 1453 1455 1457 1460 1462 1463 1466 1468 1470 1472 1474 1475 1480 1483 1484 1487 1487 1487 1487 1487 1486 1486 1485 1483 1482 1482 1481 1481 1481 1482 1482 1482 1483 1483 1484 1484 1485 1487 1488 1488 1488 1489 1491 1492 1493 1494 1497 1499 1502 1503 1503 1504 1510 1510 1510 1510 1510 1513 1521 1524 1527 1528 1528 1530 1532 1535 1535 1535 1535 1535 1528 1523 1523 1523 1523 1525 1525 1526 1527 1527 1527 1528 1528 1528 1530 1534 1536 1539 1542 1545 1547 1548 1548 1550 1554 1558 1559 1559 1561 1561 1561 1562 1562 1562 1561 1561 1561 1561 1561 1561 1561 1562 1562 1562 1563 1563 1564 1565 1566 1567 1567 1568 1569 1570 1571 1572 1574 1575 1576 1578 1579 1579 1580 1582 1583 1583 1584 1584 1585 1586 1586 1588 1589 1591 1592 1592 1592 1592 1592 1591 1589 1580 1574 1569 1564 1558 1552 1549 1541 1540 1540 1540 1540 1539 1539 1539 1541 1542 1543 1543 1544 1544 1545 1550 1551 1561 0 0 0 0 0 1782 1823 1833 1840 1849 1853 1853 1853 1854 1854 1854 1855 1857 1859 1860 1861 1862 1863 1864 1864 1865 1865 1866 1867 1868 1868 1869 1870 1871 1872 1872 1873 1874 1875 1876 1876 1876 1877 1877 1877 1877 1878 1879 1879 1880 1881 1881 1882 1883 1884 1886 1887 1889 1889 1890 1893 1895 1897 1899 1901 1902 1905 1907 1908 1910 1912 1913 1916 1918 1920 1923 1926 1928 1930 1931 1932 1933 1933 1933 1935 1942 1949 1949 1949 0 0 0 0 0 0 0 0 0 0 0 0 0 0 0 0 0 0 0 0 0 0 0 0 0 0 0 0 0 0 0 0 0 0 0 0 0 0 0 0 0 0 0 0 0 0 0 0 0 0 0 0 0 0 0 0 0 0 0 0 0 0 0 0 0 0 0 0 0 0 0 0 0 0 0 0 0 0 0 0 0 0 0 0 0 0 0 0 0 0 0 0 0 0 0 0 0 0 0
3017 3017 2974 2985 2985 2985 3041 3094 3097 3132 3153 3169 3176 3177 3178 3178 3186 3205 3231 3253 3266 3272 3278 3283 3287 3289 3303 3327 3341 3344 3344 3344 3336 3336 3336 3340 3355 3359 3359 3364 3364 3371 3380 3387 3395 3403 3407 3410 3411 3412 3412 3416 3420 3426 3427 3433 3439 3447 3450 3450 3450 3450 3451 3453 3453 3453 3450 3447 3439 3433 3433 3425 3410 3392 3386 3386 3386 3386 3386 3383 3360 3335 3283 3168 2950 2724 0 0 0 0 0 1315 1314 1313 1311 1311 1308 1308 1308 1309 1309 1309 1310 1310 1310 1310 1311 1312 1312 1312 1313 1314 1315 1316 1317 1317 1318 1318 1318 1319 1319 1319 1319 1320 1320 1320 1321 1321 1322 1323 1324 1325 1326 1328 1329 1330 1331 1331 1332 1333 1333 1334 1335 1335 1336 1337 1338 1338 1338 1339 1340 1341 1341 1341 1341 1341 1341 1343 1346 1346 1346 1346 1346 1347 1347 1347 1344 1344 1344 1347 1351 1354 1354 1354 1354 1354 1354 1355 1355 1355 1355 1355 1356 1361 1366 1367 1367 1369 1370 1371 1372 1372 1373 1374 1375 1376 1376 1378 1379 1379 1382 1383 1384 1384 1384 1385 1385 1386 1386 1387 1389 1391 1392 1392 1393 1393 1393 1394 1395 1395 1395 1397 1397 1398 1398 1399 1400 1402 1403 1405 1405 1405 1406 1406 1408 1408 1409 1410 1410 1411 1412 1413 1414 1416 1416 1416 1416 1417 1419 1421 1425 1426 1427 1427 1427 1428 1430 1434 1438 1442 1444 1445 1446 1446 1449 1449 1450 1450 1449 1449 1450 1450 1450 1450 1450 1450 1450 1452 1456 1460 1462 1463 1466 1468 1470 1472 1474 1475 1476 1480 1483 1486 1486 1486 1486 1486 1484 1484 1484 1482 1482 1481 1480 1479 1479 1479 1480 1480 1480 1480 1481 1482 1482 1484 1484 1485 1486 1487 1488 1489 1490 1491 1493 1496 1498 1501 1501 1501 1504 1504 1505 1505 1505 1512 1516 1520 1521 1522 1522 1526 1528 1530 1530 1530 1530 1520 1519 1519 1519 1521 1523 1524 1524 1524 1523 1523 1523 1524 1524 1525 1527 1530 1535 1538 1542 1545 1547 1547 1548 1550 1553 1558 1558 1558 1560 1560 1560 1560 1560 1560 1559 1559 1559 1559 1559 1559 1559 1559 1560 1560 1560 1562 1562 1562 1563 1564 1565 1565 1566 1567 1569 1570 1571 1572 1573 1575 1576 1577 1578 1578 1578 1579 1580 1580 1581 1581 1583 1584 1585 1587 1587 1587 1588 1587 1587 1586 1580 1574 1569 1562 1556 1553 1547 1544 1539 1539 1539 1539 1539 1539 1539 1539 1541 1542 1543 1544 1544 1546 1548 1553 1554 1587 0 0 0 0 0 1835 1841 1843 1849 1851 1853 1854 1854 1854 1855 1855 1856 1858 1859 1860 1861 1862 1863 1864 1864 1865 1865 1866 1867 1868 1868 1869 1870 1871 1871 1872 1873 1874 1875 1876 1876 1876 1877 1877 1877 1877 1878 1879 1880 1880 1881 1881 1882 1883 1884 1886 1887 1888 1889 1890 1892 1894 1896 1898 1900 1902 1904 1906 1908 1910 1911 1913 1915 1918 1920 1923 1925 1927 1929 1930 1930 1931 1933 1935 1936 1942 1949 1949 1949 1920 0 0 0 0 0 0 0 0 0 0 0 0 0 0 0 0 0 0 0 0 0 0 0 0 0 0 0 0 0 0 0 0 0 0 0 0 0 0 0 0 0 0 0 0 0 0 0 0 0 0 0 0 0 0 0 0 0 0 0 0 0 0 0 0 0 0 0 0 0 0 0 0 0 0 0 0 0 0 0 0 0 0 0 0 0 0 0 0 0 0 0 0 0 0 0 0 0 0
2988 2988 2974 2985 2985 2985 3051 3102 3105 3138 3153 3169 3181 3181 3181 3183 3183 3204 3231 3253 3264 3265 3266 3265 3265 3267 3271 3298 3337 3339 3339 3337 3336 3336 3336 3340 3349 3349 3355 3359 3359 3371 3380 3387 3393 3400 3402 3404 3407 3410 3410 3412 3417 3426 3427 3433 3448 3453 3455 3455 3457 3457 3457 3457 3456 3455 3453 3448 3446 3443 3433 3433 3419 3405 3397 3397 3397 3397 3394 3383 3362 3336 3286 3195 3019 2828 2501 0 0 0 0 1323 1316 1313 1310 1309 1305 1305 1305 1307 1308 1308 1308 1308 1308 1309 1309 1310 1310 1310 1312 1313 1314 1314 1316 1316 1316 1316 1317 1317 1317 1317 1318 1318 1319 1319 1320 1321 1321 1322 1323 1324 1326 1327 1328 1329 1329 1330 1330 1331 1331 1332 1332 1333 1334 1334 1335 1335 1335 1336 1337 1338 1338 1338 1339 1340 1341 1341 1342 1342 1342 1343 1343 1346 1346 1346 1342 1342 1342 1342 1347 1352 1353 1353 1353 1353 1353 1353 1353 1353 1353 1353 1353 1356 1362 1363 1364 1367 1369 1369 1370 1371 1371 1371 1373 1373 1373 1375 1376 1377 1380 1382 1383 1383 1383 1384 1384 1384 1384 1384 1387 1388 1389 1390 1391 1391 1392 1393 1393 1393 1393 1393 1395 1396 1396 1397 1397 1398 1400 1401 1402 1403 1403 1405 1406 1407 1408 1408 1408 1409 1409 1411 1411 1412 1413 1413 1415 1416 1418 1421 1424 1426 1427 1427 1427 1428 1430 1434 1440 1445 1445 1445 1446 1446 1447 1447 1447 1446 1446 1446 1449 1449 1449 1449 1449 1449 1449 1450 1455 1459 1459 1463 1465 1468 1470 1472 1474 1475 1475 1477 1479 1483 1486 1486 1486 1486 1484 1482 1480 1480 1480 1479 1479 1477 1477 1477 1478 1478 1478 1478 1478 1479 1480 1481 1482 1482 1483 1484 1485 1486 1487 1488 1489 1491 1492 1495 1496 1499 1499 1499 1500 1501 1504 1509 1512 1512 1515 1515 1515 1516 1516 1516 1515 1514 1514 1514 1515 1515 1518 1519 1519 1519 1521 1521 1521 1523 1523 1523 1524 1524 1527 1530 1535 1538 1542 1545 1546 1547 1548 1550 1553 1555 1557 1558 1558 1559 1558 1558 1558 1557 1556 1556 1556 1556 1556 1556 1556 1556 1557 1558 1558 1559 1559 1559 1561 1562 1563 1563 1564 1566 1567 1568 1569 1571 1571 1572 1573 1575 1575 1575 1575 1575 1577 1578 1578 1579 1580 1581 1581 1581 1582 1583 1583 1582 1582 1580 1575 1569 1562 1555 1551 1548 1546 1540 1538 1537 1537 1537 1537 1537 1538 1539 1541 1544 1544 1545 1547 1547 1552 1559 1576 0 0 0 0 0 1837 1847 1849 1849 1849 1852 1853 1854 1855 1855 1855 1855 1856 1858 1859 1860 1861 1862 1863 1863 1864 1865 1865 1866 1867 1868 1868 1869 1870 1871 1871 1872 1873 1874 1875 1876 1876 1876 1877 1877 1878 1878 1879 1879 1880 1880 1881 1881 1882 1883 1884 1886 1887 1888 1889 1890 1892 1893 1896 1897 1899 1902 1904 1906 1907 1908 1910 1912 1914 1917 1919 1921 1924 1927 1928 1929 1930 1930 1932 1935 1937 1943 1949 1949 1949 1939 0 0 0 0 0 0 0 0 0 0 0 0 0 0 0 0 0 0 0 0 0 0 0 0 0 0 0 0 0 0 0 0 0 0 0 0 0 0 0 0 0 0 0 0 0 0 0 0 0 0 0 0 0 0 0 0 0 0 0 0 0 0 0 0 0 0 0 0 0 0 0 0 0 0 0 0 0 0 0 0 0 0 0 0 0 0 0 0 0 0 0 0 0 0 0 0 0 0
2967 2967 2974 2974 2978 3007 3054 3102 3106 3138 3153 3169 3181 3181 3181 3183 3183 3204 3231 3253 3264 3265 3266 3265 3265 3267 3271 3298 3319 3330 3330 3330 3336 3336 3336 3340 3340 3343 3349 3349 3359 3371 3380 3387 3392 3394 3395 3396 3400 3400 3401 3412 3417 3426 3436 3442 3450 3454 3455 3457 3458 3458 3458 3458 3457 3455 3453 3453 3453 3450 3450 3450 3435 3420 3412 3400 3398 3398 3394 3383 3364 3339 3291 3205 3040 2834 2528 0 0 0 0 0 1316 1312 1305 1303 1303 1303 1303 1306 1306 1306 1306 1306 1306 1307 1308 1308 1308 1309 1310 1311 1312 1313 1314 1314 1314 1315 1315 1316 1317 1317 1317 1317 1319 1319 1319 1319 1320 1320 1322 1323 1325 1325 1327 1327 1328 1328 1329 1329 1329 1330 1331 1331 1332 1332 1332 1332 1332 1334 1335 1335 1336 1336 1336 1337 1338 1338 1339 1339 1339 1339 1342 1346 1346 1346 1341 1338 1338 1338 1344 1348 1350 1352 1352 1352 1350 1350 1349 1349 1349 1351 1352 1356 1360 1363 1363 1364 1366 1366 1367 1367 1368 1368 1368 1369 1373 1375 1375 1376 1378 1380 1381 1382 1382 1383 1383 1383 1383 1383 1385 1386 1386 1386 1387 1387 1387 1391 1391 1391 1391 1391 1393 1393 1394 1395 1396 1396 1398 1399 1400 1400 1402 1403 1403 1404 1406 1406 1406 1406 1408 1409 1410 1410 1412 1412 1415 1416 1418 1420 1423 1425 1425 1427 1429 1430 1431 1434 1440 1445 1445 1445 1445 1438 1437 1437 1437 1439 1441 1442 1444 1444 1445 1445 1445 1446 1446 1449 1454 1458 1459 1462 1465 1466 1469 1472 1473 1474 1475 1475 1476 1479 1483 1485 1485 1485 1484 1482 1479 1479 1478 1477 1475 1474 1474 1474 1475 1475 1475 1475 1476 1477 1478 1479 1480 1480 1480 1481 1482 1483 1483 1485 1485 1487 1488 1491 1494 1495 1496 1496 1497 1501 1503 1507 1508 1509 1510 1508 1508 1512 1510 1509 1510 1513 1511 1513 1513 1514 1515 1515 1515 1516 1518 1518 1520 1521 1521 1522 1523 1524 1527 1530 1535 1538 1540 1544 1546 1547 1548 1549 1549 1552 1556 1557 1557 1557 1558 1558 1558 1554 1554 1554 1554 1554 1554 1554 1554 1554 1554 1554 1555 1556 1556 1557 1558 1558 1560 1561 1562 1564 1564 1566 1566 1567 1569 1571 1571 1571 1571 1571 1572 1572 1573 1574 1576 1576 1577 1577 1577 1577 1577 1578 1578 1578 1578 1575 1571 1564 1555 1550 1547 1545 1542 1538 1537 1537 1536 1535 1535 1535 1538 1539 1541 1545 1545 1547 1547 1551 1560 1573 0 0 0 0 1801 1844 1849 1849 1849 1849 1849 1852 1853 1854 1855 1856 1856 1856 1857 1858 1859 1860 1861 1862 1863 1864 1864 1865 1865 1866 1867 1868 1868 1869 1870 1870 1871 1872 1874 1875 1875 1876 1876 1876 1877 1878 1878 1879 1879 1880 1880 1880 1881 1881 1882 1883 1884 1886 1887 1888 1888 1890 1891 1893 1894 1897 1899 1901 1903 1905 1907 1907 1909 1912 1914 1916 1918 1920 1923 1926 1927 1928 1928 1930 1932 1935 1937 1944 1949 1949 1949 1940 0 0 0 0 0 0 0 0 0 0 0 0 0 0 0 0 0 0 0 0 0 0 0 0 0 0 0 0 0 0 0 0 0 0 0 0 0 0 0 0 0 0 0 0 0 0 0 0 0 0 0 0 0 0 0 0 0 0 0 0 0 0 0 0 0 0 0 0 0 0 0 0 0 0 0 0 0 0 0 0 0 0 0 0 0 0 0 0 0 0 0 0 0 0 0 0 0 0
2945 2945 2969 2974 2974 3007 3054 3102 3106 3138 3153 3169 3181 3181 3181 3183 3183 3204 3235 3261 3264 3265 3265 3265 3265 3267 3271 3298 3319 3330 3330 3330 3336 3332 3332 3335 3335 3335 3335 3343 3363 3375 3378 3384 3391 3391 3391 3390 3390 3390 3398 3412 3417 3433 3441 3445 3450 3454 3455 3457 3458 3458 3458 3458 3456 3455 3454 3453 3453 3450 3450 3450 3450 3438 3424 3404 3399 3399 3394 3383 3371 3360 3304 3216 3102 2960 2701 0 0 0 0 0 1317 1308 1305 1303 1302 1302 1303 1304 1304 1305 1305 1305 1305 1305 1305 1305 1306 1307 1307 1309 1310 1311 1312 1312 1313 1313 1314 1315 1315 1315 1316 1316 1317 1317 1317 1318 1319 1319 1320 1322 1322 1324 1324 1325 1326 1326 1327 1328 1328 1328 1329 1329 1329 1329 1330 1330 1330 1331 1332 1333 1333 1334 1334 1334 1334 1334 1335 1335 1335 1336 1339 1343 1343 1343 1338 1335 1335 1335 1339 1342 1347 1349 1349 1349 1346 1346 1346 1348 1349 1350 1352 1355 1360 1362 1362 1362 1363 1364 1364 1364 1365 1365 1366 1369 1371 1372 1374 1374 1374 1376 1379 1379 1379 1379 1379 1379 1379 1381 1383 1384 1384 1384 1382 1382 1382 1387 1388 1388 1388 1389 1390 1391 1392 1392 1393 1394 1395 1396 1398 1398 1399 1400 1402 1403 1403 1404 1404 1405 1405 1408 1409 1410 1410 1411 1413 1413 1414 1419 1421 1421 1423 1427 1429 1430 1431 1434 1440 1442 1442 1442 1433 1430 1430 1430 1434 1437 1437 1437 1437 1437 1437 1437 1440 1442 1443 1449 1454 1458 1458 1458 1458 1462 1467 1471 1473 1474 1474 1474 1475 1475 1479 1482 1484 1484 1484 1482 1479 1478 1477 1471 1471 1471 1471 1472 1472 1472 1472 1472 1473 1474 1475 1477 1477 1477 1478 1478 1479 1480 1481 1482 1484 1485 1485 1487 1490 1492 1493 1494 1496 1500 1503 1504 1504 1505 1505 1505 1507 1508 1508 1508 1509 1509 1509 1510 1510 1510 1512 1513 1514 1514 1516 1518 1518 1518 1520 1522 1523 1526 1529 1532 1535 1537 1539 1542 1545 1547 1547 1547 1548 1551 1553 1555 1555 1557 1557 1557 1556 1553 1551 1551 1551 1551 1551 1551 1551 1551 1551 1552 1552 1553 1553 1554 1555 1556 1557 1559 1560 1561 1562 1563 1564 1565 1567 1568 1568 1569 1569 1569 1569 1569 1569 1570 1572 1573 1573 1573 1573 1573 1573 1573 1573 1573 1573 1571 1566 1560 1553 1550 1546 1542 1539 1538 1537 1536 1535 1535 1535 1535 1538 1540 1543 1546 1547 1547 1548 1557 0 0 0 0 0 1786 1839 1844 1849 1849 1849 1849 1849 1852 1854 1856 1856 1856 1856 1857 1857 1858 1860 1860 1861 1862 1863 1864 1864 1865 1865 1866 1867 1868 1868 1869 1870 1870 1871 1872 1874 1875 1875 1876 1876 1876 1877 1878 1879 1879 1879 1880 1880 1881 1881 1881 1882 1883 1884 1886 1886 1887 1888 1890 1891 1892 1894 1897 1898 1899 1902 1903 1904 1906 1908 1910 1912 1915 1917 1920 1921 1924 1926 1928 1928 1930 1932 1935 1937 1943 1949 1949 1949 1940 0 0 0 0 0 0 0 0 0 0 0 0 0 0 0 0 0 0 0 0 0 0 0 0 0 0 0 0 0 0 0 0 0 0 0 0 0 0 0 0 0 0 0 0 0 0 0 0 0 0 0 0 0 0 0 0 0 0 0 0 0 0 0 0 0 0 0 0 0 0 0 0 0 0 0 0 0 0 0 0 0 0 0 0 0 0 0 0 0 0 0 0 0 0 0 0 0 0
2928 2928 2967 2974 2974 3007 3054 3102 3106 3118 3133 3153 3162 3166 3168 3176 3176 3204 3235 3261 3264 3265 3265 3271 3277 3279 3283 3301 3319 3330 3330 3330 3336 3332 3332 3335 3335 3335 3335 3347 3363 3375 3378 3382 3382 3382 3382 3382 3384 3384 3398 3413 3417 3433 3442 3445 3451 3454 3455 3456 3457 3457 3457 3456 3456 3455 3454 3453 3453 3450 3450 3450 3450 3444 3429 3418 3407 3399 3394 3383 3376 3376 3357 3272 3126 3001 2792 0 0 0 0 0 1318 1307 1303 1301 1301 1301 1302 1302 1302 1302 1302 1302 1302 1303 1303 1303 1303 1304 1306 1307 1309 1310 1310 1311 1311 1311 1312 1312 1313 1314 1314 1314 1315 1315 1316 1316 1317 1318 1319 1319 1321 1321 1322 1323 1324 1325 1325 1325 1325 1325 1326 1326 1327 1327 1327 1327 1328 1330 1330 1331 1331 1332 1332 1332 1333 1332 1332 1333 1333 1333 1335 1337 1337 1337 1334 1330 1330 1330 1335 1340 1344 1344 1344 1344 1344 1344 1344 1348 1348 1350 1352 1355 1358 1361 1361 1362 1362 1363 1363 1363 1364 1365 1366 1366 1366 1369 1369 1370 1373 1375 1379 1379 1379 1377 1377 1377 1377 1378 1379 1381 1381 1381 1381 1381 1381 1384 1385 1386 1387 1388 1388 1388 1389 1391 1391 1393 1393 1394 1395 1396 1397 1399 1399 1400 1401 1402 1402 1402 1403 1405 1407 1408 1409 1409 1409 1410 1410 1416 1417 1417 1420 1427 1429 1430 1431 1434 1436 1436 1436 1436 1433 1428 1428 1428 1428 1432 1432 1434 1434 1434 1435 1436 1437 1439 1441 1444 1450 1451 1452 1453 1455 1458 1463 1468 1473 1473 1473 1473 1473 1473 1473 1478 1483 1483 1483 1482 1478 1476 1476 1471 1469 1469 1469 1469 1469 1469 1469 1470 1470 1471 1472 1474 1475 1476 1476 1476 1477 1478 1478 1479 1481 1483 1484 1485 1486 1488 1488 1490 1490 1493 1501 1502 1503 1503 1502 1502 1503 1505 1507 1507 1507 1505 1505 1505 1506 1507 1509 1510 1511 1511 1512 1514 1516 1517 1519 1522 1524 1528 1530 1533 1536 1537 1539 1540 1545 1546 1547 1547 1547 1550 1552 1554 1554 1554 1554 1554 1554 1552 1551 1549 1549 1549 1549 1549 1549 1549 1549 1549 1550 1550 1550 1551 1553 1554 1555 1556 1557 1559 1560 1561 1562 1563 1564 1564 1565 1566 1566 1566 1566 1566 1566 1566 1568 1570 1570 1570 1570 1570 1570 1569 1569 1569 1569 1567 1563 1558 1553 1548 1543 1541 1539 1538 1537 1536 1535 1535 1535 1535 1538 1541 1543 1546 1546 1547 1549 1561 0 0 0 0 0 1835 1841 1844 1849 1849 1849 1849 1849 1853 1856 1856 1856 1856 1856 1857 1858 1859 1860 1860 1861 1862 1863 1864 1864 1865 1865 1866 1867 1868 1868 1869 1870 1870 1871 1872 1874 1875 1875 1875 1876 1877 1877 1878 1879 1879 1879 1880 1880 1881 1881 1881 1882 1883 1884 1886 1886 1887 1889 1890 1891 1892 1894 1896 1897 1898 1901 1901 1904 1906 1907 1908 1912 1914 1917 1920 1921 1923 1926 1927 1928 1931 1933 1935 1940 1941 1944 1944 1944 1940 1928 0 0 0 0 0 0 0 0 0 0 0 0 0 0 0 0 0 0 0 0 0 0 0 0 0 0 0 0 0 0 0 0 0 0 0 0 0 0 0 0 0 0 0 0 0 0 0 0 0 0 0 0 0 0 0 0 0 0 0 0 0 0 0 0 0 0 0 0 0 0 0 0 0 0 0 0 0 0 0 0 0 0 0 0 0 0 0 0 0 0 0 0 0 0 0 0 0
2912 2912 2958 2964 2966 2984 3014 3035 3036 3065 3102 3134 3153 3161 3162 3165 3176 3204 3238 3265 3265 3265 3265 3271 3281 3300 3308 3316 3338 3339 3339 3339 3339 3339 3339 3335 3335 3335 3335 3347 3363 3372 3372 3372 3372 3372 3374 3376 3376 3382 3398 3417 3421 3433 3442 3443 3448 3450 3452 3454 3454 3453 3452 3453 3453 3450 3450 3450 3450 3450 3450 3450 3450 3448 3434 3425 3419 3404 3394 3387 3378 3376 3357 3319 3168 3022 2793 2515 0 0 0 0 0 1307 1300 1300 1300 1300 1300 1299 1299 1299 1299 1300 1301 1301 1301 1301 1301 1303 1304 1305 1306 1307 1308 1308 1308 1309 1310 1311 1312 1312 1312 1313 1313 1313 1314 1315 1315 1316 1317 1318 1318 1319 1320 1321 1321 1322 1322 1323 1323 1324 1324 1324 1324 1325 1325 1325 1326 1327 1328 1328 1328 1329 1329 1329 1329 1329 1328 1329 1330 1330 1331 1333 1333 1333 1328 1327 1327 1327 1329 1332 1336 1338 1341 1342 1342 1343 1344 1346 1346 1350 1350 1351 1354 1358 1360 1361 1362 1362 1362 1362 1362 1363 1364 1364 1364 1364 1365 1367 1372 1374 1375 1375 1376 1376 1376 1376 1376 1376 1376 1377 1377 1379 1380 1380 1381 1381 1383 1385 1385 1385 1386 1386 1387 1388 1389 1390 1391 1392 1393 1394 1395 1396 1397 1398 1399 1399 1400 1400 1401 1403 1403 1404 1407 1407 1408 1408 1410 1413 1416 1416 1418 1424 1428 1428 1428 1428 1424 1424 1424 1426 1426 1426 1426 1426 1427 1427 1428 1428 1429 1432 1432 1432 1433 1433 1436 1442 1444 1446 1447 1449 1453 1457 1463 1468 1473 1473 1473 1473 1473 1473 1473 1478 1482 1482 1482 1482 1478 1475 1474 1470 1469 1468 1467 1467 1467 1467 1467 1468 1469 1469 1470 1471 1472 1473 1474 1474 1475 1476 1477 1477 1480 1481 1482 1482 1482 1482 1483 1485 1487 1490 1490 1490 1494 1497 1497 1498 1498 1498 1500 1500 1500 1501 1501 1502 1503 1503 1504 1506 1508 1509 1510 1511 1512 1517 1518 1520 1524 1528 1530 1533 1536 1537 1539 1540 1542 1544 1545 1546 1547 1550 1551 1551 1552 1552 1552 1552 1552 1552 1550 1548 1547 1546 1546 1546 1546 1546 1546 1547 1547 1547 1547 1549 1550 1552 1552 1553 1555 1556 1558 1559 1559 1560 1560 1561 1562 1562 1562 1563 1563 1563 1564 1565 1565 1566 1567 1567 1567 1568 1568 1567 1567 1567 1566 1562 1560 1556 1552 1547 1542 1540 1537 1537 1536 1536 1535 1535 1535 1535 1539 1543 1545 1545 1546 1547 1554 1580 0 0 0 0 1822 1842 1842 1844 1849 1850 1850 1851 1851 1854 1856 1856 1857 1857 1857 1858 1859 1859 1859 1860 1861 1862 1863 1863 1864 1865 1865 1866 1867 1868 1869 1869 1870 1870 1871 1872 1873 1874 1874 1875 1876 1877 1877 1878 1879 1879 1879 1880 1880 1881 1881 1881 1882 1883 1884 1886 1886 1887 1889 1890 1891 1892 1894 1895 1897 1898 1900 1901 1903 1905 1906 1908 1909 1912 1915 1918 1921 1922 1926 1927 1928 1932 1934 1936 1940 1941 1944 1944 1944 1939 1928 0 0 0 0 0 0 0 0 0 0 0 0 0 0 0 0 0 0 0 0 0 0 0 0 0 0 0 0 0 0 0 0 0 0 0 0 0 0 0 0 0 0 0 0 0 0 0 0 0 0 0 0 0 0 0 0 0 0 0 0 0 0 0 0 0 0 0 0 0 0 0 0 0 0 0 0 0 0 0 0 0 0 0 0 0 0 0 0 0 0 0 0 0 0 0 0 0
2912 2912 2933 2947 2948 2960 2978 2979 2983 3013 3058 3107 3139 3154 3157 3158 3175 3203 3238 3248 3253 3262 3262 3262 3281 3300 3308 3316 3338 3339 3345 3348 3354 3354 3354 3350 3347 3347 3348 3348 3349 3349 3349 3349 3349 3350 3365 3369 3370 3378 3399 3407 3417 3421 3441 3442 3442 3445 3447 3451 3452 3452 3451 3449 3449 3447 3445 3445 3447 3447 3450 3450 3450 3449 3448 3443 3430 3423 3402 3391 3380 3376 3357 3319 3252 3135 2892 2630 0 0 0 0 0 1307 1300 1300 1300 1299 1299 1296 1296 1296 1297 1298 1298 1299 1299 1299 1300 1301 1302 1304 1305 1305 1306 1307 1307 1307 1308 1308 1310 1310 1310 1310 1311 1312 1312 1313 1314 1314 1316 1316 1317 1318 1318 1319 1319 1319 1319 1320 1320 1321 1322 1322 1322 1322 1322 1323 1324 1325 1325 1326 1326 1327 1327 1327 1327 1326 1326 1326 1327 1329 1330 1330 1330 1326 1326 1326 1326 1327 1327 1328 1331 1333 1337 1339 1341 1342 1343 1344 1345 1348 1350 1350 1351 1354 1357 1357 1357 1357 1358 1358 1358 1358 1358 1359 1359 1361 1362 1364 1368 1372 1372 1372 1372 1372 1373 1374 1374 1374 1374 1374 1375 1376 1378 1378 1378 1378 1380 1381 1381 1383 1384 1384 1385 1386 1386 1388 1389 1389 1390 1392 1393 1394 1394 1396 1397 1397 1398 1399 1400 1401 1401 1402 1403 1405 1405 1405 1405 1408 1411 1412 1415 1415 1416 1421 1421 1421 1422 1422 1424 1426 1426 1426 1425 1425 1424 1424 1424 1426 1427 1428 1429 1430 1432 1433 1435 1440 1441 1443 1443 1447 1452 1457 1462 1468 1473 1473 1473 1473 1472 1472 1472 1478 1481 1481 1481 1479 1477 1475 1471 1469 1468 1468 1467 1466 1465 1465 1466 1466 1467 1467 1468 1468 1471 1471 1472 1473 1473 1474 1476 1476 1478 1478 1478 1479 1479 1480 1483 1484 1485 1487 1488 1489 1489 1492 1493 1494 1494 1495 1495 1497 1498 1498 1498 1498 1500 1500 1501 1503 1505 1506 1508 1508 1510 1514 1518 1520 1524 1528 1530 1533 1536 1536 1539 1540 1542 1542 1543 1546 1547 1550 1550 1550 1548 1548 1548 1550 1550 1550 1546 1545 1545 1544 1544 1544 1544 1544 1543 1543 1543 1544 1545 1546 1547 1549 1549 1550 1552 1554 1556 1556 1557 1557 1558 1559 1559 1559 1560 1560 1560 1561 1561 1561 1562 1562 1562 1563 1564 1564 1564 1564 1564 1563 1561 1559 1557 1554 1550 1544 1540 1537 1535 1535 1535 1535 1535 1535 1535 1536 1541 1545 1545 1545 1546 1549 1571 1611 0 0 0 1805 1839 1843 1843 1844 1850 1851 1852 1852 1853 1855 1856 1857 1857 1858 1858 1858 1859 1859 1859 1860 1861 1862 1863 1864 1864 1865 1865 1866 1867 1868 1869 1869 1870 1870 1871 1872 1873 1874 1874 1875 1876 1877 1878 1878 1878 1879 1879 1880 1880 1881 1881 1882 1882 1883 1884 1886 1886 1887 1889 1890 1891 1892 1893 1895 1896 1897 1898 1899 1902 1904 1906 1907 1909 1911 1913 1916 1918 1920 1923 1926 1928 1932 1934 1936 1937 1940 1940 1940 1940 1939 1928 0 0 0 0 0 0 0 0 0 0 0 0 0 0 0 0 0 0 0 0 0 0 0 0 0 0 0 0 0 0 0 0 0 0 0 0 0 0 0 0 0 0 0 0 0 0 0 0 0 0 0 0 0 0 0 0 0 0 0 0 0 0 0 0 0 0 0 0 0 0 0 0 0 0 0 0 0 0 0 0 0 0 0 0 0 0 0 0 0 0 0 0 0 0 0 0 0
2912 2912 2925 2928 2934 2944 2955 2956 2960 2962 3006 3097 3118 3148 3150 3151 3171 3199 3235 3248 3253 3256 3256 3256 3281 3300 3308 3316 3338 3339 3345 3348 3354 3354 3354 3354 3354 3356 3363 3363 3363 3353 3327 3327 3327 3332 3354 3357 3358 3367 3399 3407 3421 3422 3425 3433 3436 3436 3437 3448 3448 3448 3446 3443 3443 3443 3442 3443 3445 3445 3450 3452 3453 3453 3453 3443 3430 3423 3407 3396 3383 3377 3357 3326 3269 3160 2966 2720 0 0 0 0 0 1307 1299 1298 1298 1298 1294 1294 1294 1294 1295 1296 1297 1297 1297 1298 1298 1299 1301 1301 1303 1304 1304 1304 1304 1304 1305 1306 1306 1308 1308 1308 1309 1309 1310 1311 1312 1313 1314 1314 1315 1315 1316 1316 1317 1317 1317 1318 1318 1318 1319 1319 1320 1320 1321 1321 1321 1322 1322 1323 1324 1324 1325 1325 1325 1325 1325 1325 1325 1325 1325 1325 1325 1322 1322 1322 1324 1326 1327 1327 1331 1331 1332 1333 1334 1335 1340 1341 1344 1347 1348 1348 1349 1351 1352 1353 1353 1354 1354 1354 1354 1354 1354 1354 1356 1357 1360 1362 1366 1366 1367 1368 1368 1369 1370 1370 1371 1371 1371 1371 1372 1373 1374 1374 1377 1377 1377 1377 1379 1381 1382 1382 1382 1383 1385 1385 1387 1387 1389 1389 1390 1392 1392 1393 1395 1395 1397 1397 1398 1399 1400 1401 1401 1401 1401 1402 1402 1403 1406 1406 1408 1408 1412 1412 1413 1414 1414 1415 1415 1416 1419 1420 1420 1421 1421 1421 1421 1423 1425 1425 1426 1428 1430 1432 1432 1433 1436 1438 1441 1447 1452 1456 1462 1468 1474 1474 1474 1473 1471 1471 1471 1473 1476 1476 1476 1474 1473 1471 1470 1469 1467 1466 1463 1463 1463 1463 1464 1465 1465 1465 1466 1467 1468 1469 1470 1471 1472 1473 1473 1474 1476 1477 1477 1477 1477 1480 1482 1483 1484 1486 1487 1488 1488 1489 1491 1492 1492 1493 1494 1494 1495 1495 1496 1496 1496 1497 1498 1500 1501 1503 1504 1507 1508 1510 1515 1517 1520 1526 1527 1528 1532 1536 1539 1541 1541 1542 1542 1545 1547 1547 1547 1545 1542 1542 1542 1545 1545 1545 1541 1541 1540 1541 1541 1540 1540 1540 1540 1540 1541 1541 1542 1543 1545 1546 1546 1548 1550 1551 1552 1553 1554 1556 1556 1556 1556 1556 1557 1557 1557 1558 1558 1559 1559 1559 1560 1560 1560 1561 1561 1561 1560 1556 1555 1555 1553 1551 1547 1541 1538 1534 1534 1534 1535 1535 1535 1535 1536 1538 1544 1545 1545 1546 1547 1557 1586 1623 0 0 1768 1827 1841 1844 1847 1848 1850 1851 1854 1855 1855 1856 1856 1857 1857 1858 1858 1858 1859 1859 1859 1860 1861 1862 1863 1863 1864 1865 1865 1866 1867 1868 1869 1869 1870 1870 1871 1872 1873 1873 1874 1875 1876 1877 1878 1878 1878 1879 1879 1880 1880 1881 1881 1882 1882 1883 1884 1886 1886 1887 1889 1889 1891 1892 1893 1894 1895 1897 1897 1899 1901 1902 1904 1906 1907 1909 1911 1913 1916 1918 1920 1924 1927 1932 1934 1934 1934 1936 1936 1939 1939 1939 1929 1908 0 0 0 0 0 0 0 0 0 0 0 0 0 0 0 0 0 0 0 0 0 0 0 0 0 0 0 0 0 0 0 0 0 0 0 0 0 0 0 0 0 0 0 0 0 0 0 0 0 0 0 0 0 0 0 0 0 0 0 0 0 0 0 0 0 0 0 0 0 0 0 0 0 0 0 0 0 0 0 0 0 0 0 0 0 0 0 0 0 0 0 0 0 0 0 0
2904 2904 2914 2920 2930 2930 2930 2934 2934 2934 2977 3032 3093 3113 3122 3127 3139 3177 3231 3245 3249 3249 3249 3249 3264 3282 3286 3296 3313 3328 3342 3348 3354 3354 3354 3354 3354 3356 3357 3357 3357 3353 3314 3286 3286 3286 3307 3316 3329 3354 3395 3398 3399 3420 3420 3420 3427 3427 3429 3438 3442 3442 3442 3440 3440 3434 3436 3440 3444 3449 3453 3455 3455 3453 3453 3443 3430 3423 3415 3404 3394 3377 3357 3326 3282 3188 3010 2755 0 0 0 0 0 0 1300 1298 1294 1294 1294 1294 1294 1294 1294 1294 1294 1295 1295 1295 1295 1297 1298 1299 1300 1301 1301 1302 1302 1303 1303 1304 1304 1305 1306 1306 1307 1308 1309 1309 1310 1311 1312 1312 1313 1313 1314 1314 1315 1315 1315 1315 1316 1316 1316 1317 1317 1318 1318 1319 1319 1320 1321 1321 1322 1322 1323 1323 1323 1325 1325 1325 1322 1322 1322 1322 1322 1322 1322 1322 1324 1325 1326 1326 1328 1331 1331 1332 1333 1335 1338 1341 1342 1343 1344 1345 1347 1349 1349 1349 1350 1350 1352 1352 1352 1351 1351 1351 1351 1352 1355 1357 1362 1362 1362 1363 1363 1364 1365 1367 1368 1370 1370 1370 1370 1370 1370 1371 1373 1373 1373 1374 1376 1378 1380 1380 1381 1381 1383 1383 1384 1385 1386 1387 1388 1389 1390 1391 1393 1393 1394 1395 1396 1397 1398 1399 1399 1400 1400 1400 1401 1401 1401 1401 1402 1404 1409 1409 1409 1409 1409 1411 1411 1413 1415 1417 1417 1417 1417 1418 1419 1421 1422 1423 1424 1424 1426 1428 1429 1430 1433 1438 1441 1445 1451 1456 1461 1468 1474 1474 1474 1473 1471 1469 1469 1469 1469 1469 1469 1468 1468 1467 1466 1466 1465 1464 1460 1460 1460 1460 1461 1462 1463 1463 1464 1465 1466 1468 1468 1470 1470 1472 1473 1473 1474 1476 1477 1477 1477 1479 1480 1482 1484 1485 1485 1486 1486 1487 1488 1489 1489 1490 1491 1492 1492 1492 1492 1493 1494 1494 1495 1497 1498 1499 1501 1503 1505 1507 1509 1511 1512 1516 1521 1523 1529 1536 1539 1541 1541 1542 1543 1544 1544 1544 1542 1540 1537 1537 1537 1540 1540 1540 1539 1536 1535 1535 1535 1535 1537 1537 1538 1538 1538 1539 1541 1542 1543 1544 1545 1545 1547 1548 1549 1551 1552 1553 1553 1553 1553 1553 1553 1554 1554 1555 1555 1556 1556 1557 1557 1557 1557 1558 1558 1558 1556 1555 1554 1554 1551 1548 1545 1540 1536 1534 1534 1534 1535 1535 1535 1536 1536 1539 1544 1545 1546 1548 1557 1579 1605 1654 0 1749 1807 1833 1842 1848 1849 1851 1851 1853 1856 1856 1856 1856 1856 1857 1857 1858 1858 1858 1859 1859 1859 1860 1861 1862 1863 1863 1864 1865 1866 1867 1867 1868 1869 1869 1870 1870 1871 1872 1873 1873 1874 1875 1875 1877 1877 1878 1878 1878 1879 1879 1879 1881 1881 1882 1882 1883 1884 1885 1886 1887 1888 1889 1890 1891 1892 1893 1895 1896 1896 1898 1899 1901 1903 1905 1907 1908 1909 1912 1913 1915 1918 1920 1922 1928 1932 1932 1933 1934 1934 1939 1939 1939 1933 1927 0 0 0 0 0 0 0 0 0 0 0 0 0 0 0 0 0 0 0 0 0 0 0 0 0 0 0 0 0 0 0 0 0 0 0 0 0 0 0 0 0 0 0 0 0 0 0 0 0 0 0 0 0 0 0 0 0 0 0 0 0 0 0 0 0 0 0 0 0 0 0 0 0 0 0 0 0 0 0 0 0 0 0 0 0 0 0 0 0 0 0 0 0 0 0 0
2904 2904 2905 2910 2915 2914 2914 2914 2914 2914 2939 2996 3044 3055 3058 3061 3073 3117 3193 3233 3238 3238 3233 3233 3238 3252 3260 3269 3284 3296 3304 3312 3331 3347 3348 3352 3353 3356 3357 3357 3357 3348 3281 3211 3206 3206 3206 3221 3249 3300 3355 3391 3395 3397 3415 3415 3420 3420 3421 3437 3437 3437 3437 3437 3437 3431 3436 3440 3442 3450 3453 3455 3455 3453 3453 3435 3428 3424 3418 3415 3408 3377 3355 3326 3282 3222 3074 2852 2569 0 0 0 0 0 1301 1296 1293 1293 1293 1293 1293 1293 1292 1292 1292 1292 1292 1292 1293 1294 1295 1296 1297 1297 1298 1299 1299 1300 1301 1301 1302 1303 1303 1304 1305 1305 1307 1307 1308 1309 1310 1310 1311 1311 1312 1312 1312 1313 1313 1313 1314 1314 1314 1315 1315 1316 1316 1317 1317 1318 1318 1320 1320 1321 1321 1321 1322 1322 1322 1322 1321 1321 1321 1320 1317 1319 1319 1318 1319 1319 1320 1324 1327 1329 1330 1331 1332 1333 1337 1337 1339 1340 1342 1344 1344 1346 1346 1346 1346 1347 1348 1349 1349 1349 1348 1347 1347 1347 1347 1352 1356 1359 1359 1359 1359 1359 1359 1362 1365 1368 1368 1368 1367 1367 1367 1367 1369 1370 1370 1373 1374 1377 1377 1377 1378 1380 1381 1382 1383 1383 1384 1385 1386 1387 1388 1389 1390 1391 1392 1393 1394 1396 1396 1397 1398 1398 1400 1400 1400 1401 1400 1401 1401 1404 1407 1407 1408 1409 1409 1410 1411 1413 1415 1415 1415 1415 1415 1415 1417 1418 1419 1421 1421 1422 1423 1424 1426 1427 1430 1436 1440 1444 1446 1450 1456 1464 1474 1474 1474 1473 1468 1467 1466 1466 1465 1464 1464 1464 1464 1464 1464 1463 1463 1460 1460 1458 1458 1458 1458 1459 1459 1461 1462 1463 1464 1466 1467 1468 1469 1469 1471 1472 1474 1475 1475 1476 1476 1478 1478 1480 1483 1484 1484 1484 1484 1485 1485 1485 1486 1487 1487 1488 1489 1490 1490 1491 1491 1492 1492 1494 1494 1497 1498 1500 1501 1505 1507 1509 1511 1516 1520 1522 1527 1532 1538 1541 1541 1542 1543 1543 1542 1542 1539 1534 1534 1534 1534 1540 1540 1540 1537 1535 1534 1534 1534 1535 1535 1535 1535 1535 1536 1537 1538 1539 1541 1542 1542 1543 1544 1546 1546 1548 1549 1550 1550 1550 1550 1550 1550 1551 1552 1552 1553 1554 1554 1554 1555 1555 1555 1555 1555 1554 1554 1554 1554 1553 1551 1547 1544 1538 1534 1534 1534 1534 1535 1535 1536 1536 1537 1540 1544 1545 1546 1550 1567 1593 0 0 1750 1781 1830 1848 1850 1853 1853 1853 1854 1854 1856 1856 1856 1857 1857 1857 1857 1858 1858 1858 1859 1859 1859 1860 1861 1862 1863 1864 1864 1865 1866 1867 1867 1867 1869 1869 1870 1870 1871 1872 1873 1873 1874 1875 1875 1876 1877 1877 1878 1878 1878 1879 1879 1881 1881 1881 1882 1883 1883 1884 1885 1887 1888 1888 1889 1890 1891 1892 1893 1894 1895 1896 1898 1899 1901 1904 1905 1907 1908 1910 1911 1913 1915 1917 1919 1923 1928 1928 1929 1930 1934 1938 1938 1938 1934 1933 0 0 0 0 0 0 0 0 0 0 0 0 0 0 0 0 0 0 0 0 0 0 0 0 0 0 0 0 0 0 0 0 0 0 0 0 0 0 0 0 0 0 0 0 0 0 0 0 0 0 0 0 0 0 0 0 0 0 0 0 0 0 0 0 0 0 0 0 0 0 0 0 0 0 0 0 0 0 0 0 0 0 0 0 0 0 0 0 0 0 0 0 0 0 0 0
2858 2858 2858 2858 2841 2835 2835 2841 2847 2851 2901 2951 2968 2969 2971 2975 2977 3011 3081 3147 3174 3174 3174 3156 3156 3156 3162 3176 3201 3221 3254 3262 3278 3301 3313 3317 3326 3330 3349 3349 3349 3276 3220 3163 3091 3079 3079 3079 3085 3124 3235 3298 3331 3331 3333 3337 3337 3369 3387 3422 3434 3434 3434 3434 3434 3431 3436 3439 3440 3452 3453 3453 3453 3453 3443 3435 3428 3425 3424 3415 3408 3377 3353 3326 3284 3234 3165 2970 2652 0 0 0 0 0 1302 1296 1292 1291 1291 1291 1291 1291 1291 1291 1290 1290 1290 1290 1292 1292 1293 1294 1295 1295 1296 1296 1296 1297 1299 1299 1300 1300 1302 1302 1303 1303 1304 1306 1306 1307 1308 1309 1309 1309 1309 1311 1311 1311 1311 1311 1312 1312 1312 1313 1313 1314 1314 1315 1316 1317 1317 1318 1318 1319 1319 1320 1320 1320 1320 1320 1320 1320 1317 1317 1317 1317 1318 1318 1319 1319 1319 1322 1326 1328 1329 1330 1331 1333 1334 1335 1337 1339 1340 1341 1342 1343 1343 1344 1345 1345 1346 1347 1347 1347 1347 1343 1341 1341 1341 1347 1352 1354 1354 1354 1354 1354 1358 1360 1363 1367 1367 1367 1365 1364 1364 1364 1366 1368 1368 1370 1374 1375 1376 1376 1377 1378 1380 1380 1381 1381 1381 1383 1383 1384 1385 1385 1387 1388 1390 1391 1392 1394 1394 1395 1395 1396 1396 1398 1398 1398 1397 1397 1397 1399 1403 1406 1406 1408 1408 1410 1411 1412 1412 1412 1412 1412 1412 1413 1413 1415 1416 1417 1418 1418 1419 1421 1423 1424 1426 1431 1433 1437 1440 1445 1451 1458 1468 1468 1468 1467 1466 1465 1465 1465 1462 1462 1462 1462 1462 1462 1461 1460 1458 1458 1457 1456 1455 1455 1455 1456 1457 1458 1459 1462 1463 1464 1465 1467 1468 1469 1470 1472 1473 1474 1474 1474 1476 1476 1477 1480 1482 1482 1482 1482 1482 1482 1483 1483 1483 1484 1485 1486 1486 1487 1488 1489 1489 1489 1490 1490 1491 1493 1495 1497 1499 1501 1506 1508 1509 1512 1513 1514 1519 1524 1530 1537 1541 1541 1541 1541 1540 1539 1534 1530 1530 1530 1533 1535 1535 1535 1533 1533 1531 1531 1531 1531 1531 1531 1531 1532 1532 1534 1535 1537 1538 1540 1540 1541 1542 1543 1544 1546 1546 1547 1548 1548 1548 1548 1548 1548 1550 1551 1552 1552 1552 1552 1552 1553 1553 1553 1553 1553 1554 1554 1554 1553 1551 1547 1542 1536 1534 1533 1533 1533 1534 1535 1536 1538 1538 1540 1544 1545 1548 1565 1585 0 0 0 1764 1819 1841 1852 1853 1854 1854 1854 1855 1855 1856 1856 1856 1857 1857 1857 1857 1858 1858 1858 1859 1859 1859 1860 1861 1862 1863 1864 1864 1865 1866 1867 1867 1868 1869 1869 1870 1870 1871 1871 1872 1873 1873 1874 1875 1876 1876 1877 1877 1877 1877 1878 1879 1880 1880 1880 1881 1882 1882 1883 1884 1885 1885 1886 1887 1889 1889 1890 1892 1892 1894 1895 1897 1898 1900 1901 1903 1905 1907 1908 1910 1912 1914 1916 1918 1921 1925 1925 1927 1928 1931 1937 1937 1943 1943 1936 1921 0 0 0 0 0 0 0 0 0 0 0 0 0 0 0 0 0 0 0 0 0 0 0 0 0 0 0 0 0 0 0 0 0 0 0 0 0 0 0 0 0 0 0 0 0 0 0 0 0 0 0 0 0 0 0 0 0 0 0 0 0 0 0 0 0 0 0 0 0 0 0 0 0 0 0 0 0 0 0 0 0 0 0 0 0 0 0 0 0 0 0 0 0 0 0
2734 2734 2758 2758 2758 2697 2677 2677 2677 2681 2758 2816 2816 2817 2841 2856 2861 2868 2894 2941 2982 3035 3035 3035 3030 3030 3030 3036 3044 3095 3115 3130 3140 3173 3213 3215 3216 3216 3232 3232 3232 3194 3131 3048 2945 2945 2945 3025 3079 3092 3092 3092 3092 3092 3119 3133 3155 3196 3260 3350 3411 3418 3422 3429 3429 3431 3436 3439 3440 3448 3448 3448 3439 3439 3434 3433 3428 3425 3425 3415 3408 3377 3350 3325 3284 3241 3171 2984 2763 0 0 0 0 0 0 1296 1292 1289 1289 1289 1290 1290 1290 1289 1289 1289 1289 1289 1290 1290 1291 1291 1292 1293 1294 1294 1295 1296 1296 1297 1298 1299 1300 1300 1301 1301 1303 1304 1305 1305 1306 1307 1308 1308 1309 1309 1309 1309 1309 1309 1310 1310 1310 1311 1311 1312 1313 1314 1314 1315 1315 1316 1316 1317 1317 1318 1318 1318 1318 1319 1318 1317 1317 1316 1316 1316 1318 1318 1318 1319 1319 1322 1323 1325 1327 1330 1330 1331 1332 1333 1334 1336 1337 1339 1339 1340 1340 1341 1342 1342 1342 1342 1342 1342 1342 1342 1340 1340 1340 1345 1350 1351 1351 1351 1351 1351 1356 1359 1362 1365 1365 1365 1363 1363 1363 1363 1364 1366 1367 1369 1372 1374 1375 1375 1377 1377 1378 1379 1379 1379 1380 1380 1381 1381 1381 1383 1384 1386 1388 1389 1390 1390 1390 1392 1394 1395 1395 1396 1396 1396 1396 1396 1396 1397 1400 1403 1404 1405 1405 1406 1408 1409 1409 1409 1410 1410 1410 1410 1411 1412 1413 1413 1415 1415 1416 1417 1420 1422 1422 1424 1429 1432 1434 1438 1445 1449 1455 1457 1457 1457 1460 1464 1464 1464 1462 1462 1462 1462 1462 1462 1460 1458 1457 1457 1456 1454 1454 1453 1453 1453 1454 1455 1457 1459 1461 1462 1464 1466 1467 1468 1468 1470 1472 1473 1473 1473 1473 1474 1474 1476 1479 1480 1481 1481 1481 1481 1481 1481 1482 1482 1482 1483 1484 1485 1485 1486 1486 1487 1487 1488 1489 1489 1492 1494 1495 1499 1501 1502 1503 1506 1508 1509 1510 1514 1524 1530 1539 1540 1540 1540 1533 1530 1528 1528 1527 1523 1523 1523 1524 1525 1525 1525 1525 1526 1526 1526 1528 1528 1528 1529 1530 1531 1533 1534 1536 1537 1538 1539 1540 1540 1541 1542 1543 1545 1546 1546 1546 1547 1547 1548 1548 1549 1549 1549 1550 1550 1550 1550 1551 1551 1552 1552 1553 1553 1553 1553 1549 1544 1539 1536 1533 1533 1533 1533 1533 1535 1536 1538 1538 1541 1544 1548 1565 1583 0 0 0 0 1796 1839 1849 1852 1853 1854 1854 1854 1855 1855 1855 1856 1856 1857 1857 1857 1857 1858 1858 1858 1858 1859 1859 1860 1861 1862 1862 1863 1864 1865 1865 1867 1867 1867 1868 1869 1870 1870 1870 1871 1872 1872 1873 1873 1874 1874 1875 1875 1876 1877 1877 1878 1879 1879 1880 1880 1880 1881 1882 1882 1883 1884 1885 1886 1887 1888 1889 1889 1890 1891 1893 1893 1895 1896 1898 1899 1902 1904 1905 1906 1908 1911 1913 1915 1917 1920 1922 1923 1923 1927 1931 1937 1937 1941 1941 1941 1936 0 0 0 0 0 0 0 0 0 0 0 0 0 0 0 0 0 0 0 0 0 0 0 0 0 0 0 0 0 0 0 0 0 0 0 0 0 0 0 0 0 0 0 0 0 0 0 0 0 0 0 0 0 0 0 0 0 0 0 0 0 0 0 0 0 0 0 0 0 0 0 0 0 0 0 0 0 0 0 0 0 0 0 0 0 0 0 0 0 0 0 0 0 0 0
2516 2516 2504 2504 2502 0 0 0 0 2552 2555 2602 2636 2664 2712 2724 2728 2732 2742 2769 2803 2867 2867 2867 2846 2830 2830 2830 2848 2883 2914 2927 2942 2942 2979 2980 2993 2999 3043 3088 3088 3088 2999 2859 2859 2859 2930 3016 3073 3088 3088 3088 3060 3034 3030 2993 2992 2992 2992 3115 3166 3263 3364 3395 3427 3427 3436 3438 3438 3447 3447 3447 3427 3427 3425 3427 3427 3425 3424 3413 3390 3358 3332 3314 3282 3248 3179 3033 2857 2622 0 0 0 0 0 1302 1292 1288 1288 1288 1288 1288 1288 1288 1287 1287 1287 1287 1287 1288 1289 1290 1291 1291 1292 1293 1293 1293 1294 1295 1296 1297 1298 1299 1299 1300 1300 1302 1303 1303 1304 1305 1305 1306 1306 1307 1307 1307 1307 1307 1308 1308 1308 1309 1309 1310 1311 1311 1312 1312 1313 1314 1314 1315 1315 1316 1316 1316 1316 1317 1317 1316 1315 1315 1315 1315 1315 1317 1317 1318 1318 1321 1323 1324 1325 1328 1329 1331 1331 1332 1333 1335 1335 1337 1337 1338 1338 1339 1339 1340 1340 1340 1340 1340 1339 1338 1338 1338 1340 1341 1347 1350 1350 1350 1350 1350 1354 1356 1359 1362 1362 1362 1361 1361 1361 1362 1363 1365 1367 1367 1371 1372 1372 1373 1375 1376 1376 1376 1376 1376 1377 1378 1378 1378 1380 1381 1382 1384 1384 1385 1386 1387 1389 1392 1393 1393 1394 1395 1395 1395 1395 1395 1395 1395 1399 1400 1401 1402 1402 1403 1404 1404 1406 1406 1407 1407 1408 1409 1409 1410 1410 1411 1411 1411 1412 1414 1416 1419 1421 1422 1424 1430 1431 1433 1439 1441 1443 1443 1445 1449 1454 1459 1461 1461 1461 1460 1460 1460 1460 1460 1458 1457 1456 1456 1455 1453 1452 1452 1452 1452 1452 1453 1455 1457 1458 1459 1461 1465 1466 1466 1468 1469 1470 1471 1471 1472 1472 1473 1474 1476 1477 1478 1478 1479 1480 1480 1480 1480 1480 1480 1481 1481 1482 1482 1483 1483 1484 1484 1485 1485 1486 1486 1488 1490 1491 1496 1497 1497 1498 1500 1500 1502 1507 1511 1522 1528 1534 1536 1536 1536 1532 1528 1526 1526 1522 1516 1516 1516 1516 1520 1521 1521 1521 1521 1521 1523 1524 1525 1526 1527 1527 1529 1530 1532 1534 1535 1536 1537 1538 1538 1540 1540 1540 1542 1543 1544 1544 1544 1545 1545 1546 1547 1548 1548 1548 1548 1548 1548 1549 1549 1550 1550 1551 1551 1551 1549 1544 1539 1537 1535 1533 1532 1532 1532 1533 1535 1536 1538 1540 1541 1544 1554 1574 1593 0 0 0 0 1827 1844 1849 1852 1853 1854 1855 1855 1855 1855 1855 1856 1856 1857 1857 1857 1857 1858 1858 1858 1858 1858 1859 1860 1860 1861 1862 1863 1864 1865 1865 1866 1867 1867 1868 1869 1869 1870 1870 1871 1872 1872 1872 1873 1873 1873 1874 1875 1875 1876 1876 1876 1877 1877 1878 1879 1879 1879 1881 1881 1882 1883 1884 1884 1886 1887 1888 1888 1889 1890 1892 1893 1894 1895 1896 1899 1900 1902 1904 1905 1907 1910 1912 1915 1917 1919 1920 1920 1921 1924 1930 1933 1938 1938 1938 1938 1938 1937 0 0 0 0 0 0 0 0 0 0 0 0 0 0 0 0 0 0 0 0 0 0 0 0 0 0 0 0 0 0 0 0 0 0 0 0 0 0 0 0 0 0 0 0 0 0 0 0 0 0 0 0 0 0 0 0 0 0 0 0 0 0 0 0 0 0 0 0 0 0 0 0 0 0 0 0 0 0 0 0 0 0 0 0 0 0 0 0 0 0 0 0 0 0
0 0 0 0 0 0 0 0 0 0 0 0 2508 2540 2589 2608 2608 2629 2654 2691 2721 2730 2739 2740 2740 2740 2737 2737 2737 2746 2800 2816 2822 2822 2822 2806 2806 2804 2806 2806 2806 2803 2793 2793 2793 2839 2913 2961 2987 3032 3035 3035 3035 3030 3029 2972 2912 2816 2816 2816 2847 2978 3144 3237 3333 3392 3420 3427 3436 3436 3436 3432 3419 3411 3411 3411 3421 3421 3421 3404 3371 3340 3316 3301 3282 3248 3179 3059 2938 2702 0 0 0 0 0 0 1292 1284 1283 1283 1283 1284 1285 1285 1286 1286 1286 1286 1286 1287 1287 1288 1289 1290 1290 1291 1291 1292 1292 1292 1294 1295 1295 1296 1297 1298 1299 1300 1300 1301 1302 1303 1303 1303 1303 1304 1304 1304 1305 1305 1305 1305 1306 1307 1308 1308 1308 1309 1310 1310 1311 1312 1313 1313 1313 1313 1313 1314 1314 1313 1315 1313 1313 1313 1314 1314 1315 1317 1317 1318 1318 1320 1321 1323 1324 1326 1327 1329 1329 1330 1331 1331 1333 1334 1335 1336 1336 1337 1337 1337 1337 1337 1337 1336 1335 1335 1336 1336 1338 1340 1343 1347 1347 1347 1347 1348 1352 1353 1355 1356 1358 1358 1359 1359 1359 1360 1360 1360 1363 1367 1369 1369 1369 1372 1373 1373 1373 1373 1373 1374 1375 1376 1376 1376 1377 1379 1380 1381 1381 1381 1384 1385 1385 1386 1389 1390 1390 1390 1390 1391 1391 1391 1392 1392 1395 1398 1399 1399 1399 1400 1401 1402 1404 1405 1405 1405 1405 1407 1407 1407 1408 1409 1409 1410 1410 1412 1413 1416 1418 1420 1423 1428 1429 1432 1434 1434 1435 1435 1436 1441 1448 1454 1456 1456 1456 1455 1455 1455 1458 1458 1458 1456 1455 1454 1453 1452 1451 1451 1451 1451 1451 1451 1454 1456 1458 1459 1461 1464 1466 1466 1468 1469 1470 1470 1471 1472 1472 1473 1474 1476 1477 1477 1478 1479 1479 1479 1479 1478 1478 1478 1478 1479 1480 1480 1480 1480 1481 1481 1482 1482 1483 1484 1484 1486 1488 1490 1492 1493 1493 1493 1493 1495 1500 1506 1511 1518 1523 1523 1523 1523 1523 1522 1522 1518 1514 1514 1514 1514 1515 1515 1516 1517 1518 1518 1518 1521 1521 1523 1523 1524 1526 1527 1528 1530 1532 1533 1534 1535 1535 1536 1537 1538 1538 1539 1540 1541 1542 1542 1543 1543 1544 1545 1545 1545 1545 1545 1545 1545 1545 1545 1545 1545 1545 1545 1541 1539 1538 1537 1536 1535 1533 1532 1532 1532 1532 1534 1537 1538 1540 1543 1551 1563 1585 0 0 0 0 0 1835 1845 1849 1852 1853 1854 1854 1854 1854 1854 1854 1856 1856 1857 1857 1857 1857 1858 1858 1858 1858 1858 1858 1860 1860 1861 1862 1863 1863 1864 1864 1866 1867 1867 1867 1869 1869 1869 1870 1870 1871 1871 1872 1872 1872 1872 1873 1873 1874 1875 1875 1876 1876 1877 1877 1878 1878 1879 1879 1880 1881 1881 1883 1884 1885 1886 1887 1888 1888 1889 1891 1892 1892 1894 1895 1897 1899 1901 1903 1903 1906 1908 1910 1913 1916 1917 1919 1919 1919 1924 1930 1931 1932 1933 1938 1938 1938 1937 0 0 0 0 0 0 0 0 0 0 0 0 0 0 0 0 0 0 0 0 0 0 0 0 0 0 0 0 0 0 0 0 0 0 0 0 0 0 0 0 0 0 0 0 0 0 0 0 0 0 0 0 0 0 0 0 0 0 0 0 0 0 0 0 0 0 0 0 0 0 0 0 0 0 0 0 0 0 0 0 0 0 0 0 0 0 0 0 0 0 0 0 0 0
