2938 2938 2938 2962 2972 2976 2995 3008 3025 3031 3034 3044 3056 3070 3087 3109 3127 3148 3156 3173 3199 3212 3228 3254 3277 3279 3282 3282 3282 3282 3288 3288 3292 3305 3305 3305 3309 3309 3316 3325 3340 3358 3369 3378 3383 3389 3395 3397 3400 3401 3407 3407 3409 3409 3409 3409 3409 3409 3407 3407 3407 3407 3407 3408 3410 3413 3414 3417 3421 3423 3425 3428 3430 3435 3439 3443 3444 3446 3454 3462 3469 3474 3477 3483 3490 3498 3501 3501 3501 3485 3474 3474 3463 3419 3350 3182 2676 0 0 0 0 1648 1647 1647 1647 1647 1647 1647 1646 1644 1644 1642 1642 1642 1641 1641 1640 1640 1639 1639 1639 1639 1638 1637 1636 1636 1636 1636 1636 1636 1636 1636 1636 1636 1636 1634 1634 1633 1633 1633 1632 1629 1629 1629 1629 1629 1629 1629 1629 1628 1627 1627 1627 1628 1628 1628 1628 1628 1628 1628 1627 1627 1627 1627 1627 1627 1627 1627 1627 1627 1627 1627 1627 1627 1627 1627 1627 1627 1628 1628 1628 1627 1627 1626 1626 1625 1625 1624 1623 1622 1621 1621 1621 1621 1621 1621 1621 1622 1622 1622 1623 1623 1623 1624 1624 1625 1625 1625 1625 1624 1624 1624 1622 1622 1622 1622 1622 1622 1622 1622 1622 1621 1621 1621 1621 1622 1622 1622 1620 1619 1618 1618 1618 1618 1619 1619 1619 1619 1619 1619 1620 1620 1620 1620 1620 1619 1619 1619 1619 1619 1618 1617 1616 1616 1616 1616 1616 1616 1616 1616 1616 1615 1614 1614 1614 1614 1614 1614 1614 1614 1614 1615 1615 1615 1614 1612 1612 1612 1611 1611 1611 1611 1611 1611 1611 1611 1611 1610 1610 1610 1611 1611 1611 1611 1611 1611 1611 1611 1610 1610 1610 1610 1610 1610 1610 1610 1610 1609 1609 1608 1608 1608 1608 1608 1608 1609 1609 1609 1609 1606 1605 1605 1604 1604 1604 1604 1604 1604 1605 1605 1606 1606 1606 1606 1606 1604 1603 1603 1603 1603 1603 1601 1599 1599 1599 1600 1600 1601 1601 1601 1601 1601 1601 1601 1601 1601 1601 1603 1603 1603 1603 1603 1604 1606 1608 1611 1620 1628 1628 1628 1619 1605 1590 1582 1567 1565 1561 1556 1553 1551 1549 1549 1547 1545 1544 1544 1543 1541 1539 1538 1535 1533 1531 1528 1525 1523 1521 1519 1518 1517 1517 1516 1516 1515 1515 1514 1513 1513 1513 1512 1511 1510 1509 1507 1504 1502 1501 1500 1499 1497 1497 1495 1494 1493 1493 1492 1490 1490 1490 1489 1487 1487 1487 1486 1486 1486 1486 1486 1486 1487 1488 1490 1491 1492 1492 1493 1494 1496 1497 1498 1499 1501 1502 1503 1504 1505 1506 1507 1507 1508 1508 1509 1511 1513 1515 1517 1519 1521 1524 1528 1532 1535 1538 1539 1544 1552 1558 1562 1568 1580 1592 1612 1637 1663 1674 1687 1689 1689 1689 1688 1687 1687 1686 1683 1678 1676 1669 1650 1638 1633 1633 1633 1638 1640 1642 1643 1647 1648 1650 1653 1656 1658 1660 1662 1664 1665 1666 1669 1672 1675 1677 1679 1681 1686 1689 1692 1693 1701 1709 1712 1714 1716 1716 1717 1721 1726 1727 1727 1730 1730 1733 1740 1745 1751 1758 1764 1773 1779 1781 1784 1787 1789 1796 1805 1811 1813 1815 1816 1823 1828 1842 1855 1855 1855 1850 1846 1846 0 0 0 0 0 0 0 0 0 0 0 0 0 0 0 0 0 0 0 0 0 0 0 0 0 0 0 0 0 0 0 0 0 0 0 0 0 0 0 0 0 0 0 0 0 0 0 0 0 0 0 0 0 0 0 0 0 0 0 0 0 0 0 0 0 0 0 0 0 0 0 0 0
2938 2938 2938 2938 2962 2975 2995 3008 3025 3031 3034 3047 3058 3070 3087 3104 3114 3132 3140 3171 3198 3212 3228 3254 3277 3279 3282 3282 3282 3282 3282 3282 3288 3298 3305 3310 3310 3310 3316 3325 3340 3358 3369 3378 3383 3389 3395 3396 3399 3403 3407 3409 3411 3411 3411 3412 3410 3410 3411 3411 3411 3411 3411 3411 3412 3413 3414 3417 3421 3423 3425 3428 3431 3435 3440 3443 3447 3448 3458 3469 3478 3481 3482 3485 3496 3505 3505 3505 3501 3480 3457 3456 3430 3377 3297 3182 2676 0 0 0 0 1645 1645 1645 1645 1645 1645 1645 1645 1644 1642 1642 1641 1641 1641 1641 1640 1640 1639 1639 1639 1638 1638 1637 1637 1637 1636 1636 1636 1636 1635 1635 1635 1635 1635 1634 1633 1633 1632 1631 1630 1629 1629 1629 1629 1628 1628 1628 1628 1627 1627 1627 1627 1628 1628 1628 1628 1628 1628 1627 1627 1627 1627 1627 1627 1627 1627 1627 1627 1627 1627 1627 1627 1627 1627 1627 1627 1628 1628 1628 1628 1626 1626 1626 1625 1625 1625 1624 1623 1621 1621 1621 1620 1620 1620 1620 1621 1621 1622 1622 1622 1622 1622 1622 1624 1625 1625 1625 1624 1624 1624 1623 1622 1622 1622 1622 1622 1622 1622 1621 1621 1621 1620 1620 1620 1620 1620 1620 1619 1619 1618 1618 1618 1618 1619 1619 1619 1618 1618 1618 1619 1620 1620 1620 1619 1619 1619 1619 1619 1619 1618 1617 1616 1616 1616 1616 1616 1616 1616 1616 1616 1615 1614 1614 1614 1614 1614 1614 1614 1614 1614 1614 1614 1614 1613 1611 1611 1611 1611 1611 1610 1610 1610 1610 1611 1611 1611 1610 1610 1610 1610 1611 1611 1611 1611 1610 1610 1610 1610 1610 1610 1610 1610 1610 1610 1609 1608 1608 1608 1607 1607 1607 1608 1608 1608 1608 1607 1607 1606 1605 1604 1603 1603 1603 1603 1602 1602 1602 1602 1602 1602 1603 1602 1602 1602 1602 1602 1601 1601 1601 1600 1599 1599 1599 1599 1599 1600 1600 1600 1600 1599 1599 1599 1599 1600 1600 1601 1603 1603 1603 1603 1603 1603 1603 1606 1607 1611 1627 1627 1627 1619 1596 1589 1577 1567 1565 1560 1556 1553 1551 1549 1549 1547 1546 1544 1543 1543 1541 1539 1538 1535 1533 1531 1528 1525 1522 1521 1519 1519 1517 1517 1516 1516 1516 1516 1515 1515 1514 1514 1514 1512 1511 1509 1508 1506 1503 1502 1501 1500 1498 1497 1496 1496 1494 1494 1493 1492 1492 1491 1489 1489 1488 1487 1487 1487 1487 1486 1486 1486 1487 1488 1490 1491 1492 1492 1493 1494 1496 1497 1498 1499 1501 1502 1503 1504 1505 1506 1507 1507 1508 1509 1511 1512 1514 1515 1517 1519 1521 1524 1529 1534 1537 1539 1541 1546 1553 1561 1568 1577 1582 1603 1633 1653 1666 1693 1701 1701 1701 1698 1696 1695 1694 1694 1694 1686 1683 1670 1651 1638 1635 1635 1635 1642 1643 1644 1646 1648 1652 1654 1657 1659 1661 1663 1665 1667 1669 1671 1673 1675 1679 1679 1680 1683 1688 1691 1696 1698 1711 1716 1717 1718 1721 1723 1724 1726 1729 1730 1733 1734 1737 1740 1744 1750 1757 1763 1770 1775 1780 1781 1787 1789 1792 1797 1808 1816 1819 1824 1829 1837 1843 1843 1855 1855 1855 0 0 0 0 0 0 0 0 0 0 0 0 0 0 0 0 0 0 0 0 0 0 0 0 0 0 0 0 0 0 0 0 0 0 0 0 0 0 0 0 0 0 0 0 0 0 0 0 0 0 0 0 0 0 0 0 0 0 0 0 0 0 0 0 0 0 0 0 0 0 0 0 0 0 0 0
2938 2938 2938 2944 2946 2960 2960 2982 3007 3028 3040 3051 3061 3070 3087 3094 3111 3122 3140 3171 3198 3212 3227 3246 3263 3266 3271 3279 3279 3279 3282 3282 3288 3298 3310 3314 3318 3322 3330 3339 3347 3356 3369 3378 3383 3389 3395 3396 3399 3404 3408 3410 3411 3411 3411 3412 3411 3411 3411 3411 3411 3411 3411 3411 3412 3414 3417 3420 3421 3423 3425 3428 3432 3435 3442 3443 3448 3450 3461 3472 3485 3488 3490 3490 3499 3506 3506 3506 3503 3476 3456 3441 3408 3369 3297 3182 2662 0 0 0 0 1645 1645 1645 1645 1645 1645 1645 1644 1643 1642 1642 1641 1641 1641 1640 1640 1640 1639 1639 1639 1638 1638 1637 1637 1637 1636 1636 1636 1636 1635 1635 1635 1634 1634 1633 1632 1632 1631 1629 1629 1628 1628 1628 1627 1627 1627 1626 1626 1626 1626 1626 1626 1626 1627 1627 1627 1627 1627 1626 1626 1626 1626 1627 1627 1627 1627 1627 1627 1627 1627 1627 1627 1627 1627 1628 1628 1628 1628 1628 1627 1626 1626 1625 1625 1624 1624 1624 1622 1621 1620 1620 1620 1619 1619 1619 1620 1620 1620 1621 1621 1622 1622 1622 1624 1624 1624 1624 1624 1624 1624 1623 1623 1623 1623 1622 1622 1622 1621 1621 1621 1621 1620 1619 1619 1619 1619 1619 1619 1618 1618 1618 1618 1618 1618 1618 1618 1618 1618 1618 1619 1620 1620 1620 1619 1619 1619 1619 1619 1619 1618 1617 1616 1616 1616 1616 1616 1616 1616 1616 1616 1615 1614 1614 1614 1614 1614 1614 1613 1613 1613 1614 1614 1614 1612 1611 1611 1611 1611 1611 1610 1610 1610 1610 1611 1611 1611 1610 1610 1610 1610 1610 1610 1610 1610 1610 1610 1610 1610 1610 1610 1610 1610 1610 1610 1609 1608 1608 1607 1606 1606 1606 1607 1607 1607 1606 1606 1605 1605 1604 1603 1602 1602 1602 1602 1601 1601 1600 1600 1600 1601 1601 1601 1601 1601 1601 1601 1600 1600 1600 1599 1599 1599 1599 1599 1599 1599 1599 1599 1599 1599 1599 1599 1599 1599 1600 1601 1602 1602 1602 1602 1602 1602 1602 1604 1606 1610 1623 1623 1623 1613 1591 1586 1571 1567 1564 1560 1556 1553 1551 1549 1549 1547 1546 1544 1543 1543 1541 1539 1537 1535 1533 1530 1528 1525 1522 1521 1520 1519 1518 1518 1518 1517 1517 1517 1517 1516 1516 1516 1515 1513 1512 1510 1508 1506 1505 1504 1502 1500 1499 1498 1497 1497 1495 1495 1495 1494 1493 1492 1491 1490 1490 1489 1488 1488 1487 1487 1487 1488 1488 1488 1490 1491 1492 1493 1493 1494 1496 1497 1498 1499 1501 1502 1504 1504 1505 1506 1507 1507 1508 1510 1511 1512 1514 1516 1518 1520 1522 1525 1529 1534 1538 1540 1543 1550 1558 1566 1575 1581 1587 1617 1642 1653 1693 1711 1711 1711 1711 1708 1704 1702 1700 1699 1699 1692 1684 1670 1655 1639 1639 1639 1642 1644 1646 1647 1649 1651 1655 1658 1659 1662 1664 1667 1668 1670 1672 1674 1677 1680 1682 1684 1686 1688 1694 1698 1703 1714 1722 1722 1722 1722 1725 1727 1727 1728 1732 1732 1736 1738 1740 1745 1750 1754 1759 1765 1770 1776 1780 1784 1787 1789 1802 1810 1815 1817 1826 1844 1844 1844 1848 1848 1843 1843 0 0 0 0 0 0 0 0 0 0 0 0 0 0 0 0 0 0 0 0 0 0 0 0 0 0 0 0 0 0 0 0 0 0 0 0 0 0 0 0 0 0 0 0 0 0 0 0 0 0 0 0 0 0 0 0 0 0 0 0 0 0 0 0 0 0 0 0 0 0 0 0 0 0 0 0 0
2938 2938 2938 2938 2944 2954 2960 2982 3001 3015 3039 3051 3061 3073 3087 3094 3111 3122 3140 3171 3197 3211 3217 3234 3247 3256 3259 3266 3274 3275 3277 3280 3285 3297 3310 3320 3327 3333 3336 3343 3347 3356 3367 3374 3383 3389 3396 3397 3400 3404 3410 3411 3412 3413 3413 3413 3412 3412 3412 3412 3412 3412 3412 3412 3412 3415 3417 3420 3422 3423 3427 3431 3432 3435 3442 3445 3449 3452 3465 3482 3492 3496 3497 3500 3505 3508 3508 3508 3503 3473 3456 3439 3406 3369 3297 3176 2676 0 0 0 0 1645 1645 1645 1644 1645 1644 1644 1644 1642 1642 1641 1641 1641 1641 1640 1640 1639 1639 1639 1639 1638 1638 1638 1637 1637 1636 1636 1636 1636 1635 1635 1635 1634 1634 1633 1632 1632 1629 1629 1628 1627 1627 1627 1627 1626 1626 1625 1625 1625 1624 1624 1624 1625 1625 1626 1626 1626 1626 1626 1626 1626 1626 1626 1626 1626 1626 1626 1626 1627 1627 1627 1627 1627 1627 1628 1628 1628 1628 1627 1627 1626 1625 1625 1623 1622 1622 1622 1621 1620 1619 1618 1618 1618 1618 1618 1619 1619 1620 1620 1620 1621 1622 1622 1622 1623 1623 1624 1624 1624 1624 1624 1623 1623 1623 1622 1622 1622 1621 1621 1620 1620 1620 1619 1619 1619 1619 1619 1619 1618 1618 1617 1617 1617 1618 1618 1618 1618 1618 1618 1619 1619 1619 1619 1619 1619 1618 1618 1618 1618 1617 1616 1615 1615 1615 1615 1615 1616 1616 1616 1615 1615 1614 1614 1614 1614 1614 1614 1613 1613 1613 1613 1613 1613 1612 1611 1611 1611 1611 1611 1610 1610 1610 1610 1610 1610 1610 1610 1609 1609 1609 1610 1610 1610 1610 1610 1610 1610 1610 1610 1610 1610 1610 1610 1610 1609 1608 1607 1606 1606 1605 1605 1604 1604 1604 1604 1604 1604 1604 1603 1602 1602 1602 1602 1600 1600 1600 1600 1600 1600 1600 1600 1600 1601 1600 1600 1600 1599 1599 1599 1599 1599 1599 1599 1599 1599 1599 1599 1599 1599 1599 1599 1599 1599 1599 1599 1601 1602 1602 1602 1602 1602 1602 1602 1603 1605 1608 1619 1619 1619 1597 1588 1575 1571 1568 1563 1560 1556 1553 1551 1550 1549 1548 1546 1544 1543 1543 1541 1539 1537 1534 1532 1530 1527 1524 1522 1521 1520 1520 1519 1519 1518 1518 1518 1517 1517 1517 1517 1517 1516 1515 1513 1511 1509 1508 1506 1505 1502 1501 1500 1499 1498 1498 1497 1497 1496 1496 1495 1494 1494 1492 1491 1491 1491 1489 1488 1488 1488 1488 1489 1489 1490 1491 1493 1494 1494 1494 1496 1497 1498 1500 1501 1502 1504 1505 1505 1506 1507 1508 1509 1511 1512 1513 1516 1518 1520 1522 1524 1526 1531 1535 1539 1544 1550 1558 1565 1574 1581 1582 1599 1645 1653 1697 1723 1724 1724 1724 1722 1722 1716 1711 1708 1707 1702 1696 1684 1671 1655 1643 1643 1643 1646 1648 1650 1650 1652 1654 1657 1660 1663 1666 1667 1670 1671 1673 1676 1678 1682 1684 1686 1691 1696 1698 1699 1702 1712 1719 1726 1726 1727 1727 1728 1728 1729 1733 1736 1737 1739 1740 1741 1745 1751 1755 1761 1768 1778 1780 1781 1784 1787 1799 1814 1819 1821 1824 1831 1844 1844 1844 1848 0 0 0 0 0 0 0 0 0 0 0 0 0 0 0 0 0 0 0 0 0 0 0 0 0 0 0 0 0 0 0 0 0 0 0 0 0 0 0 0 0 0 0 0 0 0 0 0 0 0 0 0 0 0 0 0 0 0 0 0 0 0 0 0 0 0 0 0 0 0 0 0 0 0 0 0 0 0 0 0
2929 2929 2938 2944 2944 2954 2960 2982 3001 3015 3040 3062 3068 3081 3087 3094 3111 3122 3143 3174 3196 3205 3214 3234 3247 3256 3259 3266 3273 3274 3277 3278 3285 3297 3313 3323 3332 3344 3344 3345 3349 3356 3367 3374 3383 3387 3388 3396 3402 3408 3411 3411 3412 3413 3413 3413 3413 3413 3412 3412 3412 3412 3413 3413 3414 3416 3418 3421 3424 3427 3431 3434 3434 3438 3443 3448 3454 3463 3474 3485 3492 3496 3498 3500 3505 3511 3511 3511 3503 3471 3462 3437 3405 3366 3300 3176 2681 0 0 0 0 1648 1647 1646 1644 1644 1644 1643 1643 1642 1642 1641 1641 1641 1640 1640 1640 1639 1639 1639 1639 1638 1638 1638 1637 1637 1637 1636 1636 1635 1635 1634 1634 1634 1633 1632 1632 1631 1629 1628 1626 1625 1624 1623 1623 1623 1623 1623 1623 1623 1624 1624 1624 1625 1625 1625 1625 1625 1624 1624 1624 1624 1624 1625 1626 1626 1626 1626 1626 1627 1627 1627 1627 1627 1628 1628 1628 1628 1628 1627 1627 1626 1625 1624 1623 1621 1620 1619 1619 1619 1617 1617 1617 1617 1617 1617 1617 1617 1617 1618 1619 1620 1621 1621 1622 1623 1623 1624 1624 1624 1624 1624 1623 1623 1623 1623 1622 1622 1621 1621 1620 1620 1620 1619 1619 1619 1619 1618 1618 1618 1617 1617 1617 1617 1617 1617 1617 1617 1617 1617 1617 1617 1617 1617 1618 1617 1617 1617 1617 1616 1615 1615 1615 1615 1615 1615 1615 1615 1615 1614 1614 1614 1614 1613 1613 1613 1613 1613 1613 1612 1612 1612 1612 1612 1612 1611 1611 1611 1611 1611 1610 1609 1609 1609 1609 1610 1610 1610 1609 1609 1609 1610 1610 1610 1609 1609 1609 1609 1610 1610 1610 1610 1610 1609 1609 1609 1608 1607 1606 1605 1605 1604 1604 1603 1603 1603 1603 1603 1603 1602 1602 1601 1600 1599 1599 1599 1599 1599 1599 1599 1600 1600 1600 1600 1599 1599 1598 1598 1598 1598 1598 1598 1598 1598 1598 1599 1599 1599 1599 1599 1599 1598 1598 1598 1598 1599 1599 1600 1600 1600 1600 1601 1602 1602 1602 1604 1604 1604 1604 1600 1593 1583 1573 1570 1568 1564 1560 1556 1553 1551 1550 1549 1548 1547 1545 1544 1543 1542 1540 1537 1534 1532 1530 1527 1524 1522 1521 1520 1520 1519 1519 1519 1519 1518 1518 1518 1518 1518 1517 1517 1515 1514 1512 1510 1508 1507 1506 1504 1502 1501 1500 1500 1499 1499 1498 1498 1497 1497 1497 1497 1495 1493 1493 1493 1491 1490 1489 1489 1489 1490 1490 1491 1492 1493 1494 1494 1495 1497 1498 1499 1501 1502 1503 1504 1505 1507 1507 1509 1509 1511 1512 1513 1516 1518 1521 1522 1524 1526 1530 1532 1536 1540 1549 1559 1566 1573 1583 1586 1599 1651 1663 1701 1736 1737 1737 1736 1731 1729 1728 1727 1725 1719 1714 1706 1697 1685 1671 1655 1646 1646 1646 1648 1651 1653 1655 1656 1659 1661 1664 1666 1668 1670 1672 1675 1677 1680 1682 1685 1689 1693 1699 1700 1701 1702 1706 1718 1723 1728 1728 1728 1730 1730 1730 1735 1738 1739 1745 1745 1745 1746 1749 1752 1759 1766 1776 1790 1793 1795 1798 1804 1807 1814 1819 1821 1824 1831 1844 1844 0 0 0 0 0 0 0 0 0 0 0 0 0 0 0 0 0 0 0 0 0 0 0 0 0 0 0 0 0 0 0 0 0 0 0 0 0 0 0 0 0 0 0 0 0 0 0 0 0 0 0 0 0 0 0 0 0 0 0 0 0 0 0 0 0 0 0 0 0 0 0 0 0 0 0 0 0 0 0 0 0 0
2920 2920 2942 2954 2957 2966 2979 2994 3001 3015 3048 3075 3094 3099 3106 3109 3128 3134 3155 3179 3197 3205 3214 3234 3247 3256 3259 3266 3273 3273 3274 3277 3285 3298 3314 3331 3347 3347 3349 3349 3349 3356 3363 3372 3383 3387 3387 3392 3402 3408 3411 3411 3412 3413 3414 3414 3414 3414 3413 3412 3412 3412 3413 3414 3415 3416 3418 3423 3427 3430 3433 3434 3435 3441 3446 3452 3460 3468 3477 3487 3492 3496 3499 3502 3506 3511 3511 3511 3493 3466 3462 3435 3405 3365 3300 3183 2903 0 0 0 0 1651 1648 1648 1647 1644 1644 1643 1643 1642 1641 1641 1641 1640 1640 1640 1640 1639 1639 1639 1639 1638 1638 1638 1637 1637 1637 1636 1636 1635 1635 1634 1634 1634 1633 1632 1631 1629 1629 1626 1626 1624 1623 1623 1622 1621 1620 1620 1620 1621 1621 1622 1624 1624 1624 1623 1622 1622 1622 1623 1623 1623 1624 1624 1625 1625 1626 1626 1626 1627 1627 1628 1628 1628 1628 1628 1628 1628 1628 1627 1627 1626 1625 1624 1622 1619 1619 1619 1618 1617 1616 1616 1616 1616 1616 1616 1616 1616 1617 1618 1619 1619 1620 1621 1621 1623 1623 1623 1624 1624 1624 1624 1624 1624 1623 1623 1622 1622 1621 1621 1620 1620 1620 1619 1619 1619 1619 1618 1618 1617 1617 1617 1617 1617 1617 1617 1617 1617 1616 1616 1616 1616 1616 1616 1616 1616 1616 1616 1615 1615 1615 1615 1615 1614 1614 1614 1614 1614 1614 1614 1613 1613 1613 1613 1613 1613 1613 1612 1612 1612 1612 1612 1612 1611 1611 1611 1610 1610 1610 1610 1610 1609 1609 1609 1609 1609 1609 1609 1609 1609 1609 1609 1609 1609 1609 1609 1609 1609 1609 1609 1609 1609 1609 1609 1609 1608 1607 1606 1606 1605 1604 1604 1604 1603 1603 1602 1602 1602 1602 1601 1601 1600 1600 1599 1599 1599 1599 1599 1599 1599 1599 1600 1600 1600 1598 1598 1597 1597 1597 1597 1597 1598 1598 1598 1598 1598 1598 1598 1598 1598 1598 1598 1598 1598 1598 1599 1599 1599 1599 1599 1600 1600 1601 1601 1601 1601 1602 1602 1602 1597 1589 1582 1573 1570 1568 1564 1560 1557 1555 1552 1551 1550 1549 1547 1546 1544 1543 1543 1541 1538 1534 1532 1530 1527 1524 1522 1521 1520 1520 1520 1520 1520 1519 1520 1520 1520 1519 1519 1518 1517 1516 1514 1512 1510 1509 1508 1507 1504 1504 1502 1502 1501 1501 1500 1500 1500 1500 1500 1500 1499 1498 1497 1495 1495 1494 1492 1491 1491 1490 1490 1490 1491 1493 1493 1495 1495 1496 1497 1499 1500 1501 1503 1504 1505 1506 1507 1508 1509 1510 1512 1514 1516 1519 1521 1522 1525 1527 1528 1533 1537 1537 1544 1557 1567 1571 1580 1591 1606 1657 1677 1697 1740 1741 1741 1741 1740 1739 1737 1734 1733 1730 1725 1716 1709 1698 1684 1670 1654 1647 1647 1647 1650 1654 1656 1658 1660 1662 1664 1667 1669 1671 1673 1676 1680 1682 1684 1687 1690 1693 1696 1699 1702 1704 1704 1711 1722 1725 1729 1731 1732 1732 1732 1732 1736 1738 1742 1750 1750 1750 1750 1750 1754 1763 1769 1781 1793 1804 1804 1807 1807 1807 1814 1819 1821 1824 1821 0 0 0 0 0 0 0 0 0 0 0 0 0 0 0 0 0 0 0 0 0 0 0 0 0 0 0 0 0 0 0 0 0 0 0 0 0 0 0 0 0 0 0 0 0 0 0 0 0 0 0 0 0 0 0 0 0 0 0 0 0 0 0 0 0 0 0 0 0 0 0 0 0 0 0 0 0 0 0 0 0 0 0 0
2909 2909 2943 2959 2961 2966 2979 2994 3001 3015 3048 3088 3126 3127 3128 3128 3142 3148 3157 3182 3199 3205 3214 3234 3254 3264 3265 3266 3271 3273 3274 3277 3285 3298 3316 3337 3347 3350 3350 3356 3356 3356 3363 3366 3373 3381 3387 3390 3402 3408 3411 3411 3412 3415 3417 3417 3417 3415 3413 3412 3412 3412 3415 3416 3416 3418 3419 3423 3427 3430 3434 3435 3436 3441 3449 3458 3467 3476 3480 3488 3492 3496 3499 3503 3507 3507 3507 3505 3486 3462 3461 3435 3405 3365 3300 3184 2903 0 0 0 0 1651 1648 1648 1647 1644 1644 1643 1642 1641 1641 1641 1641 1640 1640 1640 1640 1639 1639 1639 1639 1638 1638 1638 1637 1637 1637 1636 1636 1635 1635 1634 1634 1634 1633 1632 1631 1629 1627 1626 1625 1622 1620 1620 1618 1617 1617 1617 1618 1618 1618 1618 1618 1618 1618 1619 1620 1620 1620 1621 1621 1622 1623 1624 1625 1625 1626 1626 1627 1627 1627 1628 1628 1628 1628 1628 1628 1628 1628 1627 1626 1626 1625 1623 1621 1619 1618 1617 1616 1616 1615 1615 1615 1614 1614 1614 1614 1614 1615 1617 1618 1619 1620 1620 1621 1622 1622 1623 1623 1624 1624 1624 1624 1624 1623 1623 1622 1622 1621 1621 1621 1620 1620 1619 1619 1619 1619 1618 1618 1617 1616 1616 1616 1616 1616 1616 1616 1616 1616 1615 1615 1615 1615 1615 1615 1615 1615 1615 1615 1615 1615 1615 1614 1614 1614 1614 1614 1614 1613 1613 1613 1613 1612 1612 1612 1612 1612 1612 1612 1612 1612 1611 1611 1611 1611 1610 1610 1609 1609 1609 1609 1609 1609 1609 1609 1609 1609 1608 1608 1608 1608 1608 1608 1608 1608 1608 1608 1608 1608 1608 1608 1608 1608 1608 1608 1607 1607 1606 1606 1605 1604 1604 1603 1603 1602 1602 1601 1601 1601 1600 1600 1600 1599 1599 1598 1598 1598 1598 1598 1598 1599 1599 1599 1599 1598 1597 1597 1597 1597 1597 1597 1597 1597 1597 1598 1598 1598 1598 1597 1597 1597 1597 1598 1598 1598 1598 1598 1598 1599 1599 1599 1600 1600 1600 1600 1600 1600 1600 1600 1596 1588 1580 1573 1571 1568 1564 1561 1558 1556 1553 1552 1551 1549 1548 1546 1545 1545 1544 1541 1538 1535 1533 1530 1528 1525 1523 1522 1521 1521 1521 1521 1521 1521 1521 1521 1521 1521 1520 1519 1518 1517 1516 1514 1513 1511 1508 1507 1506 1505 1504 1504 1503 1503 1503 1503 1503 1502 1502 1502 1502 1501 1499 1498 1497 1496 1495 1493 1493 1493 1493 1493 1493 1494 1495 1495 1497 1497 1498 1499 1501 1502 1503 1505 1506 1508 1509 1510 1511 1512 1514 1516 1518 1521 1523 1525 1528 1529 1533 1537 1539 1540 1545 1566 1569 1579 1593 1608 1651 1676 1698 1742 1751 1752 1752 1752 1752 1749 1746 1744 1736 1734 1728 1718 1712 1699 1684 1670 1654 1650 1650 1650 1652 1656 1659 1662 1664 1665 1668 1670 1672 1674 1679 1683 1685 1688 1688 1690 1692 1695 1696 1702 1705 1707 1707 1716 1724 1726 1730 1735 1735 1735 1735 1735 1738 1741 1749 1752 1752 1752 1753 1754 1758 1763 1769 1782 1795 1805 1805 1807 1807 1807 1804 1802 0 0 0 0 0 0 0 0 0 0 0 0 0 0 0 0 0 0 0 0 0 0 0 0 0 0 0 0 0 0 0 0 0 0 0 0 0 0 0 0 0 0 0 0 0 0 0 0 0 0 0 0 0 0 0 0 0 0 0 0 0 0 0 0 0 0 0 0 0 0 0 0 0 0 0 0 0 0 0 0 0 0 0 0 0 0 0
2906 2906 2942 2959 2961 2966 2979 2994 3001 3015 3039 3088 3131 3131 3132 3145 3151 3157 3164 3182 3197 3205 3213 3239 3255 3264 3265 3266 3273 3274 3274 3277 3285 3298 3324 3337 3347 3356 3358 3359 3360 3360 3362 3363 3366 3370 3381 3385 3401 3408 3411 3411 3411 3411 3418 3418 3418 3416 3414 3414 3414 3414 3417 3419 3419 3419 3421 3424 3427 3431 3434 3438 3441 3442 3449 3459 3472 3479 3483 3488 3492 3496 3499 3506 3509 3509 3509 3500 3477 3457 3456 3427 3389 3357 3296 3175 2903 0 0 0 0 1651 1648 1648 1646 1643 1642 1642 1642 1641 1641 1641 1640 1640 1640 1640 1639 1639 1639 1639 1639 1638 1638 1638 1637 1637 1637 1636 1636 1635 1635 1635 1634 1633 1633 1632 1630 1629 1627 1626 1624 1621 1616 1615 1614 1614 1614 1615 1617 1617 1617 1617 1616 1614 1614 1614 1617 1618 1618 1619 1620 1621 1622 1623 1624 1624 1626 1626 1627 1627 1628 1628 1628 1628 1628 1628 1628 1628 1628 1627 1626 1626 1625 1623 1620 1618 1617 1616 1616 1614 1614 1614 1613 1612 1612 1612 1612 1613 1614 1616 1617 1618 1618 1619 1621 1621 1622 1623 1623 1623 1624 1624 1624 1624 1623 1623 1622 1622 1622 1621 1621 1621 1620 1620 1619 1619 1619 1619 1618 1617 1616 1616 1615 1615 1614 1614 1614 1614 1614 1614 1614 1615 1615 1615 1615 1615 1615 1615 1615 1615 1615 1615 1614 1614 1614 1614 1614 1614 1613 1613 1613 1613 1612 1612 1612 1612 1612 1612 1612 1612 1612 1611 1611 1611 1611 1610 1610 1609 1609 1609 1609 1609 1609 1609 1609 1609 1609 1608 1608 1608 1608 1608 1608 1607 1608 1607 1607 1608 1608 1608 1608 1608 1608 1608 1608 1607 1607 1606 1606 1605 1604 1604 1604 1603 1602 1601 1601 1601 1601 1600 1600 1599 1599 1599 1598 1598 1598 1598 1598 1598 1598 1598 1598 1597 1597 1597 1597 1596 1596 1596 1596 1596 1596 1597 1597 1597 1597 1597 1597 1597 1597 1597 1597 1597 1598 1598 1598 1598 1598 1599 1599 1599 1599 1598 1598 1598 1598 1598 1598 1592 1585 1579 1574 1571 1568 1564 1561 1558 1556 1554 1552 1551 1550 1548 1547 1546 1546 1544 1542 1539 1536 1533 1530 1528 1525 1523 1523 1523 1522 1522 1522 1522 1522 1522 1522 1522 1522 1521 1520 1519 1518 1516 1515 1514 1511 1510 1509 1507 1506 1506 1505 1505 1505 1505 1505 1505 1505 1504 1504 1504 1503 1502 1500 1500 1499 1498 1496 1495 1494 1494 1494 1495 1495 1495 1497 1498 1499 1499 1501 1502 1503 1505 1506 1509 1510 1511 1512 1513 1514 1517 1519 1521 1524 1526 1528 1530 1534 1537 1538 1540 1541 1553 1568 1579 1594 1612 1641 1666 1686 1731 1746 1759 1760 1760 1760 1760 1758 1755 1748 1747 1745 1739 1727 1713 1700 1683 1662 1655 1655 1655 1656 1656 1659 1661 1664 1668 1670 1672 1674 1676 1680 1683 1686 1687 1688 1691 1693 1696 1697 1698 1705 1709 1711 1713 1724 1731 1733 1735 1740 1741 1742 1743 1745 1745 1751 1751 1755 1755 1758 1762 1765 1770 1771 1773 1782 1798 1805 1805 1805 1796 1781 0 0 0 0 0 0 0 0 0 0 0 0 0 0 0 0 0 0 0 0 0 0 0 0 0 0 0 0 0 0 0 0 0 0 0 0 0 0 0 0 0 0 0 0 0 0 0 0 0 0 0 0 0 0 0 0 0 0 0 0 0 0 0 0 0 0 0 0 0 0 0 0 0 0 0 0 0 0 0 0 0 0 0 0 0 0 0 0 0
2904 2904 2942 2959 2961 2963 2969 2982 2996 3007 3034 3088 3132 3133 3142 3145 3157 3161 3164 3179 3193 3205 3213 3239 3255 3264 3265 3266 3273 3275 3282 3285 3297 3320 3324 3337 3346 3356 3359 3362 3364 3364 3364 3364 3364 3370 3381 3385 3401 3406 3406 3409 3410 3411 3417 3417 3417 3417 3416 3416 3416 3421 3421 3421 3422 3422 3425 3426 3428 3431 3435 3440 3442 3444 3450 3465 3479 3485 3488 3489 3492 3496 3502 3508 3509 3509 3509 3499 3473 3441 3441 3403 3373 3337 3291 3184 2885 0 0 0 0 1650 1648 1647 1645 1642 1642 1642 1642 1641 1640 1640 1639 1639 1639 1639 1639 1639 1639 1639 1639 1638 1638 1638 1638 1637 1637 1636 1636 1635 1635 1635 1634 1633 1633 1632 1630 1628 1627 1625 1622 1619 1616 1615 1612 1610 1610 1610 1611 1611 1611 1611 1611 1610 1610 1610 1611 1614 1616 1618 1619 1620 1621 1623 1624 1624 1626 1626 1627 1627 1628 1629 1629 1629 1629 1629 1629 1628 1628 1628 1626 1626 1625 1623 1620 1618 1616 1612 1610 1610 1610 1610 1610 1609 1609 1609 1609 1610 1612 1614 1615 1615 1615 1616 1619 1621 1621 1622 1623 1623 1624 1624 1624 1624 1623 1623 1623 1622 1622 1622 1621 1621 1620 1620 1619 1619 1619 1618 1618 1617 1616 1616 1615 1614 1614 1613 1612 1612 1612 1612 1612 1613 1613 1614 1614 1614 1614 1614 1614 1615 1615 1615 1614 1614 1614 1614 1614 1613 1613 1613 1613 1612 1612 1612 1612 1612 1612 1612 1612 1612 1612 1612 1611 1611 1611 1610 1610 1609 1609 1609 1609 1609 1609 1609 1609 1608 1608 1608 1607 1607 1607 1607 1607 1607 1607 1607 1607 1607 1608 1608 1608 1608 1608 1608 1608 1608 1607 1606 1606 1605 1605 1604 1604 1602 1602 1601 1601 1601 1600 1600 1599 1599 1598 1598 1598 1598 1598 1597 1597 1597 1597 1597 1597 1597 1596 1596 1596 1596 1596 1595 1595 1595 1596 1596 1597 1597 1597 1597 1597 1597 1597 1597 1597 1597 1597 1597 1598 1598 1598 1598 1598 1598 1597 1597 1596 1595 1595 1595 1595 1588 1584 1579 1575 1572 1569 1565 1561 1559 1557 1554 1553 1552 1551 1549 1548 1547 1547 1545 1542 1540 1537 1534 1531 1529 1527 1526 1525 1524 1524 1524 1524 1524 1524 1524 1523 1523 1523 1522 1522 1521 1519 1517 1516 1515 1514 1512 1510 1509 1508 1508 1507 1507 1507 1507 1507 1507 1507 1506 1506 1505 1505 1504 1503 1503 1502 1500 1499 1498 1497 1497 1497 1497 1497 1498 1499 1499 1501 1502 1503 1504 1506 1508 1509 1511 1512 1512 1514 1516 1517 1521 1524 1525 1526 1528 1530 1532 1536 1538 1540 1541 1549 1561 1573 1582 1607 1637 1656 1673 1721 1741 1752 1760 1760 1761 1762 1765 1765 1765 1762 1759 1746 1739 1734 1726 1700 1676 1662 1660 1660 1660 1661 1661 1662 1664 1667 1671 1674 1677 1678 1682 1684 1687 1688 1689 1691 1693 1696 1699 1701 1708 1712 1713 1715 1721 1733 1738 1743 1746 1746 1747 1748 1749 1751 1754 1756 1765 1769 1770 1773 1776 1783 1785 1785 1787 1788 1798 1804 1804 1804 0 0 0 0 0 0 0 0 0 0 0 0 0 0 0 0 0 0 0 0 0 0 0 0 0 0 0 0 0 0 0 0 0 0 0 0 0 0 0 0 0 0 0 0 0 0 0 0 0 0 0 0 0 0 0 0 0 0 0 0 0 0 0 0 0 0 0 0 0 0 0 0 0 0 0 0 0 0 0 0 0 0 0 0 0 0 0 0 0 0 0
2891 2891 2926 2952 2955 2963 2969 2982 2996 3004 3014 3068 3121 3143 3145 3148 3157 3161 3164 3169 3184 3199 3211 3239 3255 3255 3258 3262 3268 3282 3288 3292 3310 3320 3324 3332 3337 3348 3359 3362 3364 3364 3364 3364 3364 3370 3381 3385 3401 3406 3406 3406 3407 3411 3414 3421 3421 3421 3421 3421 3424 3425 3425 3425 3425 3425 3428 3430 3435 3437 3440 3441 3443 3446 3451 3471 3484 3485 3493 3497 3498 3500 3509 3509 3509 3509 3509 3499 3471 3435 3433 3391 3360 3332 3270 3206 2878 0 0 0 0 1648 1645 1645 1644 1642 1641 1641 1641 1641 1639 1639 1639 1639 1639 1639 1639 1639 1639 1639 1639 1638 1638 1638 1638 1637 1637 1637 1636 1635 1635 1635 1634 1633 1632 1631 1630 1628 1627 1625 1622 1618 1615 1613 1612 1610 1606 1606 1606 1609 1609 1609 1609 1609 1609 1610 1610 1612 1614 1616 1618 1618 1621 1622 1624 1624 1625 1627 1627 1628 1628 1629 1629 1629 1629 1629 1629 1629 1628 1628 1627 1625 1624 1622 1620 1617 1613 1610 1608 1608 1608 1608 1608 1608 1607 1607 1607 1610 1611 1612 1614 1614 1614 1616 1619 1620 1621 1622 1623 1623 1624 1624 1624 1624 1623 1623 1623 1623 1622 1622 1621 1621 1620 1620 1620 1619 1619 1619 1618 1617 1616 1615 1615 1614 1612 1611 1611 1611 1612 1612 1612 1611 1611 1611 1612 1612 1613 1614 1614 1615 1615 1615 1614 1614 1614 1614 1614 1613 1613 1613 1613 1612 1612 1612 1612 1612 1612 1612 1612 1612 1612 1612 1612 1612 1612 1611 1610 1609 1609 1609 1608 1608 1608 1608 1608 1608 1608 1608 1607 1607 1607 1607 1607 1607 1607 1607 1607 1607 1607 1608 1608 1608 1608 1608 1608 1608 1607 1606 1606 1605 1605 1604 1603 1602 1602 1601 1601 1601 1600 1599 1599 1599 1598 1598 1598 1597 1597 1597 1597 1597 1597 1597 1597 1596 1595 1595 1595 1595 1595 1595 1595 1595 1596 1596 1597 1597 1597 1598 1598 1597 1597 1597 1597 1597 1598 1597 1598 1597 1597 1597 1597 1596 1596 1595 1595 1593 1592 1591 1590 1586 1583 1578 1576 1573 1569 1565 1562 1560 1557 1555 1554 1553 1552 1551 1549 1548 1547 1545 1543 1541 1538 1535 1533 1530 1529 1527 1527 1527 1527 1526 1526 1526 1525 1525 1525 1524 1524 1524 1523 1522 1520 1519 1517 1516 1514 1513 1512 1510 1510 1509 1509 1509 1509 1509 1509 1509 1509 1509 1509 1508 1507 1507 1507 1506 1505 1504 1502 1501 1500 1499 1499 1499 1499 1500 1501 1502 1503 1504 1506 1507 1508 1510 1512 1513 1513 1514 1516 1518 1519 1524 1525 1528 1528 1530 1531 1534 1539 1539 1540 1547 1559 1568 1582 1596 1611 1656 1668 1719 1744 1754 1758 1760 1760 1761 1762 1765 1765 1765 1764 1759 1746 1739 1734 1726 1700 1675 1662 1662 1662 1663 1664 1664 1664 1667 1672 1676 1679 1682 1683 1687 1690 1692 1692 1694 1695 1696 1698 1700 1705 1713 1715 1716 1719 1730 1737 1743 1749 1749 1750 1750 1761 1761 1763 1765 1765 1770 1775 1775 1776 1776 1783 1785 1785 1787 1788 1787 1781 0 0 0 0 0 0 0 0 0 0 0 0 0 0 0 0 0 0 0 0 0 0 0 0 0 0 0 0 0 0 0 0 0 0 0 0 0 0 0 0 0 0 0 0 0 0 0 0 0 0 0 0 0 0 0 0 0 0 0 0 0 0 0 0 0 0 0 0 0 0 0 0 0 0 0 0 0 0 0 0 0 0 0 0 0 0 0 0 0 0 0 0 0
2886 2886 2926 2952 2955 2963 2969 2982 2996 3004 3014 3057 3096 3124 3143 3148 3156 3156 3158 3162 3164 3178 3193 3216 3237 3237 3239 3255 3268 3283 3293 3297 3310 3320 3323 3324 3326 3340 3352 3359 3364 3364 3364 3364 3364 3371 3385 3388 3401 3403 3405 3406 3407 3411 3412 3420 3422 3424 3425 3427 3428 3429 3430 3430 3430 3430 3431 3433 3437 3442 3444 3447 3447 3450 3461 3481 3485 3490 3493 3499 3504 3510 3510 3512 3512 3509 3509 3499 3471 3435 3433 3391 3360 3332 3270 3184 2865 0 0 0 0 1648 1643 1640 1640 1640 1641 1641 1641 1640 1639 1639 1638 1638 1638 1638 1638 1639 1639 1639 1639 1638 1638 1638 1638 1637 1637 1637 1636 1636 1635 1635 1634 1633 1632 1631 1630 1628 1627 1625 1622 1618 1613 1612 1611 1608 1604 1604 1604 1604 1604 1604 1605 1606 1607 1608 1609 1611 1612 1616 1617 1617 1621 1622 1623 1624 1625 1627 1627 1628 1629 1629 1629 1629 1629 1629 1629 1629 1628 1628 1627 1625 1624 1622 1620 1617 1613 1609 1607 1607 1607 1607 1607 1607 1606 1606 1606 1608 1610 1610 1612 1612 1614 1616 1618 1619 1621 1622 1622 1623 1624 1624 1624 1624 1623 1623 1623 1623 1622 1622 1621 1621 1620 1620 1620 1619 1619 1619 1618 1617 1615 1614 1613 1612 1611 1609 1609 1609 1609 1610 1610 1610 1610 1610 1610 1610 1612 1612 1613 1613 1613 1614 1614 1614 1614 1614 1614 1614 1613 1613 1613 1613 1613 1612 1613 1613 1613 1613 1613 1612 1612 1612 1612 1612 1612 1611 1609 1609 1609 1609 1609 1609 1609 1609 1608 1607 1607 1607 1607 1607 1607 1606 1606 1606 1606 1606 1607 1607 1607 1608 1608 1608 1608 1608 1608 1608 1607 1607 1606 1605 1605 1604 1603 1603 1602 1601 1601 1601 1600 1599 1598 1598 1598 1598 1598 1597 1597 1597 1597 1597 1596 1596 1596 1596 1595 1595 1594 1595 1595 1595 1595 1595 1596 1596 1596 1597 1597 1598 1598 1598 1598 1598 1598 1597 1597 1597 1597 1597 1597 1597 1596 1595 1595 1595 1593 1591 1591 1591 1588 1585 1581 1578 1576 1573 1569 1566 1563 1560 1558 1557 1556 1555 1553 1552 1550 1549 1548 1546 1544 1541 1538 1537 1534 1532 1531 1530 1530 1529 1529 1529 1528 1528 1528 1526 1526 1526 1526 1524 1523 1522 1522 1520 1518 1516 1515 1514 1513 1512 1511 1511 1511 1511 1511 1511 1511 1511 1511 1511 1511 1511 1510 1510 1509 1508 1507 1506 1505 1504 1502 1502 1502 1502 1502 1503 1504 1504 1504 1506 1508 1510 1510 1512 1513 1514 1515 1517 1519 1523 1525 1527 1529 1529 1529 1531 1533 1535 1539 1540 1545 1555 1565 1576 1590 1608 1639 1661 1717 1745 1746 1754 1758 1760 1760 1760 1762 1765 1765 1765 1764 1759 1750 1742 1734 1726 1698 1675 1667 1667 1667 1667 1667 1668 1670 1674 1676 1680 1684 1685 1687 1689 1692 1695 1697 1699 1700 1700 1700 1700 1706 1714 1717 1722 1728 1736 1739 1744 1756 1756 1759 1770 1776 1776 1779 1779 1779 1779 1779 1776 1776 1776 1783 1785 0 0 0 0 0 0 0 0 0 0 0 0 0 0 0 0 0 0 0 0 0 0 0 0 0 0 0 0 0 0 0 0 0 0 0 0 0 0 0 0 0 0 0 0 0 0 0 0 0 0 0 0 0 0 0 0 0 0 0 0 0 0 0 0 0 0 0 0 0 0 0 0 0 0 0 0 0 0 0 0 0 0 0 0 0 0 0 0 0 0 0 0 0 0 0 0 0 0
2883 2883 2926 2947 2949 2966 2983 2999 3004 3009 3014 3038 3077 3116 3143 3148 3150 3150 3150 3150 3150 3160 3169 3190 3204 3217 3219 3232 3264 3283 3293 3297 3309 3309 3310 3312 3313 3331 3335 3345 3351 3359 3360 3364 3367 3373 3385 3388 3400 3401 3401 3404 3405 3411 3412 3420 3424 3429 3433 3433 3433 3434 3436 3436 3436 3436 3437 3438 3442 3445 3451 3451 3452 3456 3470 3486 3489 3492 3496 3500 3507 3510 3510 3512 3512 3509 3509 3498 3471 3435 3433 3391 3360 3332 3269 3161 2841 0 0 0 0 1648 1643 1640 1640 1640 1640 1640 1639 1639 1638 1638 1638 1638 1638 1638 1638 1638 1638 1638 1638 1638 1638 1638 1638 1637 1637 1637 1636 1636 1636 1635 1634 1634 1632 1631 1630 1628 1627 1625 1622 1618 1610 1610 1608 1606 1602 1600 1600 1600 1601 1601 1602 1603 1607 1607 1609 1609 1612 1613 1615 1617 1621 1622 1623 1624 1625 1627 1627 1628 1629 1629 1629 1629 1629 1629 1629 1629 1628 1627 1627 1625 1624 1622 1620 1617 1613 1609 1606 1606 1606 1606 1606 1606 1606 1606 1606 1608 1610 1610 1611 1612 1613 1615 1616 1618 1620 1622 1622 1623 1623 1624 1624 1624 1624 1623 1623 1623 1622 1622 1622 1621 1621 1621 1620 1620 1619 1619 1618 1617 1614 1612 1611 1610 1609 1608 1608 1608 1608 1608 1608 1608 1608 1608 1608 1610 1610 1611 1611 1612 1613 1614 1614 1614 1614 1614 1614 1614 1614 1613 1613 1613 1613 1613 1613 1613 1613 1613 1613 1612 1612 1612 1612 1612 1612 1611 1609 1609 1609 1609 1609 1609 1609 1609 1607 1607 1607 1606 1606 1606 1606 1605 1605 1605 1605 1605 1606 1606 1607 1607 1608 1608 1608 1608 1608 1608 1607 1607 1606 1606 1605 1604 1603 1603 1602 1601 1601 1600 1600 1599 1598 1598 1598 1597 1596 1596 1596 1596 1596 1596 1595 1594 1594 1594 1594 1594 1594 1594 1594 1594 1594 1595 1595 1596 1596 1597 1598 1598 1598 1598 1598 1598 1598 1597 1597 1597 1597 1597 1596 1596 1596 1594 1593 1593 1592 1590 1589 1589 1586 1584 1581 1578 1576 1573 1569 1566 1563 1561 1560 1559 1557 1556 1554 1553 1551 1551 1548 1546 1544 1542 1540 1538 1536 1535 1533 1532 1531 1531 1531 1530 1530 1529 1529 1528 1527 1526 1526 1525 1524 1523 1522 1520 1519 1517 1516 1515 1514 1513 1513 1513 1513 1513 1513 1513 1513 1514 1514 1514 1514 1513 1512 1512 1512 1511 1510 1509 1508 1507 1505 1505 1505 1505 1506 1506 1506 1507 1507 1508 1509 1511 1514 1514 1515 1516 1517 1519 1524 1527 1529 1529 1529 1530 1530 1532 1535 1537 1541 1544 1551 1560 1569 1580 1601 1642 1664 1678 1719 1746 1747 1754 1758 1759 1759 1760 1761 1763 1764 1764 1764 1758 1750 1739 1729 1716 1692 1673 1670 1670 1670 1672 1673 1673 1675 1677 1680 1684 1687 1690 1691 1694 1697 1698 1699 1699 1702 1702 1703 1704 1706 1716 1726 1731 1735 1750 1750 1751 1758 1759 1759 1770 1776 1776 1779 1779 1779 1779 1779 1765 1763 0 0 0 0 0 0 0 0 0 0 0 0 0 0 0 0 0 0 0 0 0 0 0 0 0 0 0 0 0 0 0 0 0 0 0 0 0 0 0 0 0 0 0 0 0 0 0 0 0 0 0 0 0 0 0 0 0 0 0 0 0 0 0 0 0 0 0 0 0 0 0 0 0 0 0 0 0 0 0 0 0 0 0 0 0 0 0 0 0 0 0 0 0 0 0 0 0 0 0 0 0
2875 2875 2926 2947 2949 2966 2983 2999 3004 3009 3014 3036 3060 3068 3087 3136 3147 3147 3147 3144 3144 3144 3151 3173 3195 3204 3215 3217 3247 3283 3293 3297 3300 3300 3304 3304 3308 3314 3322 3332 3339 3349 3359 3360 3367 3373 3385 3388 3397 3400 3400 3404 3409 3411 3412 3420 3426 3435 3437 3438 3440 3440 3442 3444 3446 3446 3446 3447 3447 3450 3453 3456 3461 3465 3479 3488 3489 3492 3499 3503 3507 3510 3510 3513 3513 3511 3511 3498 3475 3474 3443 3413 3378 3332 3255 3124 2770 0 0 0 1666 1647 1642 1640 1639 1639 1639 1639 1637 1637 1637 1637 1637 1638 1638 1638 1638 1638 1638 1638 1638 1638 1638 1638 1638 1637 1637 1637 1636 1636 1636 1635 1634 1634 1632 1631 1630 1628 1627 1625 1622 1617 1609 1608 1607 1604 1601 1599 1599 1599 1599 1599 1599 1600 1603 1604 1607 1609 1611 1613 1614 1617 1621 1623 1623 1624 1625 1627 1628 1629 1629 1629 1629 1629 1629 1629 1629 1628 1628 1627 1626 1625 1625 1623 1620 1618 1613 1609 1606 1606 1605 1605 1604 1603 1603 1603 1605 1608 1610 1610 1611 1612 1612 1614 1615 1618 1620 1621 1622 1622 1623 1624 1624 1624 1624 1624 1623 1623 1623 1622 1622 1622 1621 1621 1621 1620 1619 1619 1617 1615 1613 1612 1611 1610 1609 1608 1608 1606 1606 1606 1607 1607 1607 1607 1607 1607 1608 1610 1611 1611 1612 1613 1614 1614 1614 1614 1614 1614 1614 1613 1613 1613 1613 1613 1613 1613 1613 1613 1613 1612 1612 1612 1612 1612 1611 1610 1609 1609 1608 1608 1608 1608 1608 1608 1607 1607 1606 1606 1606 1606 1606 1605 1604 1604 1604 1605 1605 1606 1607 1607 1608 1608 1608 1608 1608 1608 1608 1607 1607 1606 1605 1604 1603 1603 1602 1601 1601 1600 1600 1599 1598 1598 1595 1595 1594 1594 1594 1594 1594 1594 1593 1592 1592 1592 1592 1592 1592 1593 1592 1592 1593 1594 1595 1596 1597 1597 1598 1598 1598 1598 1598 1598 1598 1597 1597 1597 1596 1596 1596 1595 1594 1593 1593 1592 1591 1589 1589 1589 1586 1583 1581 1578 1576 1573 1569 1566 1564 1562 1561 1559 1558 1557 1556 1554 1553 1551 1549 1547 1546 1544 1541 1539 1538 1536 1535 1534 1533 1533 1532 1532 1532 1531 1530 1529 1528 1528 1527 1526 1524 1523 1522 1521 1519 1518 1516 1516 1514 1514 1514 1514 1515 1515 1516 1516 1516 1516 1516 1517 1517 1517 1516 1514 1514 1514 1512 1511 1511 1510 1510 1510 1510 1509 1509 1509 1509 1509 1509 1510 1512 1514 1516 1516 1516 1518 1520 1524 1528 1530 1530 1530 1531 1531 1532 1534 1536 1539 1544 1552 1562 1571 1576 1592 1638 1664 1676 1713 1743 1746 1747 1748 1751 1755 1758 1759 1760 1762 1762 1762 1761 1757 1748 1738 1727 1710 1686 1675 1675 1675 1675 1675 1675 1676 1676 1680 1683 1685 1688 1690 1693 1697 1699 1701 1701 1702 1702 1703 1704 1706 1710 1723 1733 1737 1750 1761 1761 1761 1761 1761 1764 1770 1776 1776 1779 1779 1779 1779 0 0 0 0 0 0 0 0 0 0 0 0 0 0 0 0 0 0 0 0 0 0 0 0 0 0 0 0 0 0 0 0 0 0 0 0 0 0 0 0 0 0 0 0 0 0 0 0 0 0 0 0 0 0 0 0 0 0 0 0 0 0 0 0 0 0 0 0 0 0 0 0 0 0 0 0 0 0 0 0 0 0 0 0 0 0 0 0 0 0 0 0 0 0 0 0 0 0 0 0 0 0 0 0
2781 2781 2825 2916 2919 2966 2983 2999 3004 3009 3014 3027 3048 3064 3083 3124 3137 3137 3137 3125 3125 3125 3140 3173 3194 3197 3204 3206 3228 3265 3287 3292 3298 3298 3298 3298 3300 3309 3319 3329 3338 3343 3348 3358 3367 3371 3382 3384 3386 3388 3389 3404 3409 3411 3418 3420 3427 3436 3438 3439 3443 3448 3449 3449 3453 3454 3454 3454 3454 3454 3455 3461 3467 3471 3479 3489 3489 3496 3499 3500 3506 3509 3509 3511 3511 3511 3511 3498 3475 3474 3445 3413 3378 3332 3254 3108 2707 0 0 0 1662 1647 1640 1640 1640 1638 1638 1637 1637 1637 1637 1637 1637 1637 1637 1637 1638 1638 1638 1638 1638 1638 1638 1638 1637 1637 1637 1637 1636 1636 1636 1635 1635 1634 1632 1631 1630 1628 1627 1623 1622 1612 1606 1606 1603 1601 1599 1599 1599 1598 1598 1598 1598 1599 1601 1604 1605 1608 1611 1612 1614 1616 1621 1623 1624 1624 1626 1627 1629 1629 1630 1630 1630 1630 1630 1629 1629 1628 1628 1627 1626 1625 1625 1623 1621 1618 1613 1610 1606 1606 1605 1604 1603 1603 1603 1603 1605 1607 1609 1610 1611 1611 1612 1612 1614 1618 1620 1621 1622 1622 1623 1624 1624 1624 1624 1624 1624 1623 1623 1623 1623 1622 1621 1621 1621 1620 1619 1619 1617 1615 1612 1612 1611 1610 1608 1608 1607 1605 1605 1605 1605 1605 1605 1605 1606 1606 1606 1607 1611 1611 1612 1613 1614 1615 1615 1615 1614 1614 1614 1614 1613 1613 1613 1613 1613 1613 1613 1613 1613 1613 1612 1612 1612 1612 1611 1610 1609 1608 1608 1608 1608 1608 1608 1607 1607 1606 1605 1605 1605 1605 1605 1605 1604 1604 1604 1605 1605 1606 1607 1607 1608 1608 1608 1608 1608 1608 1608 1607 1607 1606 1605 1604 1603 1603 1602 1601 1601 1600 1599 1598 1597 1596 1595 1595 1594 1593 1593 1593 1593 1592 1592 1591 1591 1591 1591 1591 1591 1591 1591 1591 1592 1593 1595 1596 1596 1597 1597 1598 1598 1598 1598 1598 1597 1597 1597 1596 1596 1595 1595 1595 1594 1592 1592 1591 1590 1589 1589 1587 1585 1583 1581 1578 1576 1573 1569 1567 1565 1563 1561 1560 1559 1558 1556 1555 1554 1552 1549 1547 1546 1544 1542 1540 1540 1538 1537 1536 1535 1534 1534 1533 1533 1532 1532 1530 1529 1528 1528 1527 1525 1523 1523 1521 1520 1518 1518 1517 1516 1516 1516 1516 1517 1517 1518 1518 1518 1518 1518 1519 1518 1518 1518 1517 1517 1516 1516 1515 1515 1515 1515 1515 1515 1514 1514 1513 1513 1513 1513 1513 1514 1516 1518 1518 1519 1521 1524 1528 1531 1531 1531 1531 1532 1533 1536 1537 1538 1546 1553 1566 1578 1585 1601 1641 1664 1675 1706 1730 1743 1746 1746 1746 1747 1751 1755 1757 1759 1761 1761 1761 1761 1757 1749 1738 1725 1700 1680 1678 1677 1677 1677 1677 1677 1678 1680 1683 1687 1688 1691 1695 1699 1700 1703 1704 1705 1705 1707 1713 1713 1715 1717 1730 1736 1750 1756 1761 1761 1761 1761 1761 1764 1766 1774 1774 1774 1761 1719 1688 0 0 0 0 0 0 0 0 0 0 0 0 0 0 0 0 0 0 0 0 0 0 0 0 0 0 0 0 0 0 0 0 0 0 0 0 0 0 0 0 0 0 0 0 0 0 0 0 0 0 0 0 0 0 0 0 0 0 0 0 0 0 0 0 0 0 0 0 0 0 0 0 0 0 0 0 0 0 0 0 0 0 0 0 0 0 0 0 0 0 0 0 0 0 0 0 0 0 0 0 0 0 0 0
0 0 0 0 0 0 0 0 2887 2936 2972 2994 3010 3021 3068 3101 3102 3102 3102 3102 3102 3106 3132 3170 3192 3194 3197 3206 3228 3261 3265 3284 3286 3286 3288 3294 3296 3308 3318 3328 3334 3341 3343 3348 3362 3371 3372 3372 3372 3372 3372 3394 3409 3411 3418 3427 3435 3436 3439 3441 3445 3450 3450 3451 3453 3457 3457 3457 3457 3457 3457 3464 3471 3475 3479 3489 3490 3496 3499 3503 3507 3509 3509 3512 3512 3512 3511 3498 3475 3474 3445 3413 3378 3331 3246 3084 2633 0 0 0 1662 1646 1640 1640 1640 1638 1638 1637 1636 1636 1637 1637 1637 1637 1637 1637 1637 1638 1638 1638 1638 1638 1638 1638 1637 1637 1637 1637 1636 1636 1636 1636 1635 1634 1633 1632 1630 1628 1627 1623 1620 1609 1605 1604 1601 1599 1599 1599 1598 1598 1597 1597 1597 1599 1601 1603 1603 1606 1608 1612 1614 1616 1621 1623 1624 1625 1627 1628 1629 1629 1630 1630 1630 1630 1630 1630 1629 1628 1628 1627 1626 1625 1625 1623 1621 1618 1614 1611 1608 1606 1605 1604 1603 1603 1603 1603 1605 1607 1609 1610 1610 1610 1611 1612 1614 1618 1620 1621 1622 1622 1623 1624 1624 1624 1624 1624 1624 1624 1623 1623 1623 1622 1622 1621 1621 1620 1618 1617 1617 1615 1612 1611 1609 1609 1608 1606 1605 1604 1603 1603 1603 1603 1604 1604 1604 1605 1605 1607 1611 1612 1612 1613 1614 1615 1615 1615 1614 1614 1614 1614 1614 1614 1614 1614 1614 1614 1614 1613 1613 1613 1612 1612 1612 1612 1611 1610 1609 1608 1608 1608 1607 1607 1607 1607 1606 1605 1605 1605 1605 1604 1604 1604 1604 1604 1605 1605 1605 1606 1606 1607 1607 1608 1608 1608 1608 1608 1607 1607 1607 1606 1605 1604 1604 1603 1602 1601 1601 1600 1599 1598 1597 1596 1595 1594 1594 1593 1593 1592 1592 1591 1591 1590 1590 1590 1590 1590 1590 1590 1590 1590 1592 1593 1595 1596 1596 1597 1597 1598 1598 1598 1598 1598 1597 1597 1597 1596 1596 1595 1594 1594 1592 1592 1591 1591 1590 1589 1588 1587 1585 1583 1581 1578 1576 1573 1571 1568 1566 1564 1563 1561 1559 1558 1557 1556 1554 1552 1550 1548 1547 1545 1543 1541 1540 1540 1539 1538 1537 1536 1535 1535 1534 1533 1532 1532 1530 1529 1528 1528 1526 1524 1524 1522 1521 1520 1519 1518 1518 1518 1518 1518 1518 1519 1520 1520 1520 1520 1521 1521 1521 1521 1520 1520 1519 1519 1518 1518 1518 1518 1519 1519 1519 1519 1518 1517 1516 1516 1516 1516 1517 1519 1520 1524 1526 1526 1531 1532 1533 1533 1533 1534 1535 1538 1541 1542 1546 1559 1570 1587 1600 1616 1648 1670 1678 1717 1727 1735 1743 1746 1746 1746 1747 1751 1754 1756 1757 1759 1759 1759 1759 1757 1749 1738 1721 1691 1680 1680 1679 1678 1678 1678 1680 1683 1686 1687 1691 1693 1697 1701 1702 1705 1708 1713 1713 1714 1716 1719 1722 1722 1724 1730 1737 1750 1756 1761 0 0 0 0 0 0 0 0 0 0 0 0 0 0 0 0 0 0 0 0 0 0 0 0 0 0 0 0 0 0 0 0 0 0 0 0 0 0 0 0 0 0 0 0 0 0 0 0 0 0 0 0 0 0 0 0 0 0 0 0 0 0 0 0 0 0 0 0 0 0 0 0 0 0 0 0 0 0 0 0 0 0 0 0 0 0 0 0 0 0 0 0 0 0 0 0 0 0 0 0 0 0 0 0 0 0 0 0 0 0 0 0 0 0 0 0
0 0 0 0 0 0 0 0 0 2563 2639 2701 2710 2758 2851 2929 2933 2981 2983 3000 3017 3064 3123 3169 3191 3193 3197 3206 3221 3251 3256 3274 3280 3280 3283 3285 3289 3305 3317 3325 3333 3336 3338 3339 3339 3349 3349 3349 3353 3355 3355 3383 3395 3410 3418 3427 3435 3437 3443 3443 3445 3453 3454 3454 3462 3463 3463 3463 3463 3463 3463 3468 3475 3475 3484 3491 3495 3498 3501 3505 3507 3509 3509 3512 3512 3512 3510 3495 3474 3473 3445 3413 3376 3324 3246 3082 2611 0 0 0 1659 1645 1640 1640 1639 1638 1638 1637 1636 1636 1637 1637 1637 1637 1637 1637 1637 1638 1638 1638 1638 1638 1638 1638 1637 1637 1637 1637 1636 1636 1636 1636 1635 1634 1633 1632 1630 1629 1627 1623 1620 1609 1603 1601 1600 1599 1599 1599 1598 1598 1597 1597 1597 1598 1601 1602 1603 1604 1607 1612 1614 1616 1621 1624 1625 1627 1628 1628 1629 1630 1630 1630 1630 1630 1630 1630 1629 1629 1628 1627 1626 1625 1625 1623 1621 1616 1614 1611 1610 1607 1605 1604 1602 1602 1602 1602 1604 1604 1606 1607 1607 1609 1609 1611 1614 1618 1620 1621 1622 1622 1623 1624 1624 1624 1624 1624 1624 1624 1623 1623 1623 1622 1622 1621 1621 1620 1618 1617 1616 1614 1612 1611 1609 1608 1607 1606 1605 1603 1602 1601 1601 1601 1601 1601 1602 1602 1604 1607 1611 1612 1612 1613 1614 1615 1615 1615 1614 1614 1614 1614 1614 1614 1614 1614 1614 1614 1614 1614 1613 1613 1613 1612 1612 1612 1611 1611 1609 1608 1607 1607 1607 1607 1606 1605 1605 1605 1604 1604 1604 1604 1604 1604 1604 1604 1605 1605 1606 1606 1606 1607 1607 1607 1607 1607 1607 1607 1607 1607 1606 1606 1605 1604 1604 1603 1602 1601 1601 1600 1599 1597 1597 1596 1595 1594 1594 1593 1591 1591 1590 1590 1590 1590 1589 1589 1589 1589 1589 1589 1589 1590 1592 1593 1594 1595 1596 1596 1597 1598 1598 1598 1598 1598 1598 1597 1597 1596 1596 1595 1594 1593 1592 1592 1591 1590 1590 1588 1587 1586 1584 1583 1581 1579 1577 1574 1571 1570 1568 1566 1565 1563 1561 1560 1558 1557 1555 1552 1550 1549 1548 1546 1544 1543 1542 1541 1540 1539 1539 1538 1537 1537 1535 1534 1534 1534 1532 1530 1529 1528 1527 1526 1525 1523 1522 1521 1521 1520 1520 1520 1520 1520 1522 1522 1522 1522 1522 1522 1522 1522 1523 1522 1522 1522 1521 1521 1521 1521 1521 1521 1521 1521 1522 1522 1522 1521 1521 1521 1520 1520 1520 1522 1528 1531 1532 1533 1536 1537 1537 1537 1539 1541 1541 1552 1553 1554 1561 1575 1597 1611 1633 1659 1670 1672 1711 1727 1731 1736 1742 1746 1746 1746 1747 1750 1754 1756 1756 1756 1757 1757 1757 1757 1748 1730 1712 1690 1680 1679 1679 1679 1679 1679 1683 1685 1688 1693 1698 1701 1703 1709 1712 1714 1717 1718 1718 1720 1720 1720 1726 1729 1730 1736 1737 1747 1747 0 0 0 0 0 0 0 0 0 0 0 0 0 0 0 0 0 0 0 0 0 0 0 0 0 0 0 0 0 0 0 0 0 0 0 0 0 0 0 0 0 0 0 0 0 0 0 0 0 0 0 0 0 0 0 0 0 0 0 0 0 0 0 0 0 0 0 0 0 0 0 0 0 0 0 0 0 0 0 0 0 0 0 0 0 0 0 0 0 0 0 0 0 0 0 0 0 0 0 0 0 0 0 0 0 0 0 0 0 0 0 0 0 0 0 0 0
0 0 0 0 0 0 0 0 0 0 0 0 0 0 0 2533 2536 2596 2665 2747 2799 2862 2914 2949 3002 3089 3140 3154 3179 3213 3217 3257 3268 3268 3269 3272 3280 3295 3302 3311 3317 3329 3329 3329 3329 3329 3329 3330 3336 3346 3355 3371 3383 3399 3417 3427 3435 3441 3443 3443 3445 3453 3457 3457 3464 3464 3464 3464 3464 3466 3468 3472 3476 3481 3485 3491 3498 3500 3501 3505 3508 3511 3513 3513 3513 3511 3502 3481 3457 3456 3433 3413 3374 3322 3232 3048 2581 0 0 0 1659 1645 1642 1641 1640 1639 1638 1637 1637 1636 1636 1636 1636 1637 1637 1637 1637 1638 1638 1638 1638 1638 1638 1638 1637 1637 1637 1637 1636 1636 1636 1636 1635 1635 1633 1632 1630 1629 1627 1624 1620 1609 1603 1601 1600 1599 1599 1599 1598 1598 1597 1597 1597 1598 1600 1600 1601 1604 1606 1611 1616 1618 1621 1624 1626 1627 1628 1629 1630 1630 1630 1630 1630 1630 1630 1630 1629 1629 1628 1627 1626 1625 1625 1623 1620 1616 1614 1611 1610 1607 1605 1604 1601 1601 1601 1602 1602 1604 1604 1606 1606 1607 1608 1611 1614 1618 1620 1621 1622 1622 1623 1624 1624 1624 1624 1624 1624 1624 1624 1623 1623 1622 1622 1621 1620 1619 1618 1617 1616 1614 1612 1611 1609 1608 1607 1605 1605 1603 1601 1600 1599 1599 1599 1601 1601 1601 1602 1605 1610 1612 1612 1613 1614 1615 1615 1615 1615 1614 1614 1614 1614 1614 1614 1614 1614 1614 1614 1614 1613 1613 1613 1613 1613 1612 1611 1611 1609 1608 1607 1606 1606 1605 1604 1604 1604 1604 1604 1604 1604 1604 1604 1604 1604 1604 1605 1605 1606 1606 1607 1607 1607 1607 1607 1607 1607 1607 1606 1606 1606 1605 1605 1605 1604 1603 1602 1602 1601 1601 1599 1597 1596 1596 1595 1594 1593 1593 1591 1590 1590 1589 1589 1589 1589 1589 1589 1589 1589 1589 1589 1590 1591 1592 1594 1595 1596 1596 1597 1597 1598 1598 1598 1598 1598 1597 1597 1596 1596 1595 1594 1593 1592 1592 1591 1590 1589 1587 1586 1585 1584 1583 1581 1580 1577 1575 1572 1571 1569 1567 1566 1564 1563 1562 1560 1558 1556 1553 1551 1550 1549 1546 1545 1544 1543 1542 1541 1541 1541 1539 1539 1538 1537 1537 1536 1535 1533 1532 1530 1528 1528 1526 1526 1525 1523 1522 1522 1522 1522 1522 1522 1523 1523 1523 1523 1524 1524 1524 1524 1524 1524 1524 1524 1524 1524 1523 1523 1523 1523 1523 1524 1524 1525 1525 1525 1525 1525 1525 1525 1527 1530 1532 1534 1536 1537 1541 1542 1542 1542 1544 1550 1558 1560 1564 1567 1574 1588 1606 1625 1638 1656 1673 1695 1714 1723 1730 1733 1737 1739 1745 1746 1747 1747 1750 1754 1754 1754 1752 1752 1751 1751 1750 1742 1729 1695 1687 1682 1681 1681 1681 1681 1682 1686 1686 1691 1699 1702 1702 1706 1713 1716 1722 1724 1725 1725 1725 1726 1726 1726 1729 1730 1730 0 0 0 0 0 0 0 0 0 0 0 0 0 0 0 0 0 0 0 0 0 0 0 0 0 0 0 0 0 0 0 0 0 0 0 0 0 0 0 0 0 0 0 0 0 0 0 0 0 0 0 0 0 0 0 0 0 0 0 0 0 0 0 0 0 0 0 0 0 0 0 0 0 0 0 0 0 0 0 0 0 0 0 0 0 0 0 0 0 0 0 0 0 0 0 0 0 0 0 0 0 0 0 0 0 0 0 0 0 0 0 0 0 0 0 0 0 0 0 0
0 0 0 0 0 0 0 0 0 0 0 0 0 0 0 0 0 0 0 0 0 0 0 2510 2611 2716 2786 2850 2895 2929 2932 3065 3183 3215 3241 3251 3258 3277 3283 3287 3296 3316 3316 3316 3316 3316 3317 3320 3336 3344 3351 3362 3365 3373 3390 3416 3435 3436 3441 3443 3444 3453 3457 3458 3465 3465 3465 3466 3466 3466 3472 3482 3483 3485 3487 3492 3498 3502 3508 3509 3513 3513 3516 3513 3511 3501 3480 3467 3457 3456 3433 3413 3374 3319 3228 3026 0 0 0 0 1655 1645 1642 1641 1640 1640 1639 1637 1637 1636 1636 1636 1636 1636 1637 1637 1637 1638 1638 1638 1638 1638 1638 1637 1637 1637 1637 1637 1636 1636 1636 1636 1635 1635 1634 1632 1631 1628 1627 1624 1622 1611 1603 1601 1600 1600 1600 1599 1598 1597 1597 1597 1597 1597 1597 1598 1601 1604 1606 1611 1616 1619 1622 1624 1626 1627 1628 1629 1630 1630 1631 1631 1631 1631 1630 1630 1629 1629 1628 1627 1626 1625 1624 1622 1620 1615 1614 1611 1610 1607 1605 1602 1600 1600 1600 1600 1601 1603 1604 1606 1606 1607 1608 1611 1615 1618 1620 1621 1622 1622 1623 1624 1624 1624 1624 1624 1624 1624 1624 1623 1623 1623 1622 1621 1620 1619 1618 1617 1616 1614 1612 1611 1609 1608 1606 1604 1603 1603 1601 1600 1599 1599 1599 1599 1600 1601 1601 1604 1610 1612 1613 1613 1613 1615 1615 1615 1615 1615 1615 1615 1615 1615 1615 1615 1615 1615 1615 1614 1614 1613 1613 1613 1613 1613 1611 1611 1609 1608 1607 1605 1605 1603 1603 1603 1603 1603 1604 1604 1605 1605 1605 1604 1604 1604 1605 1606 1606 1606 1607 1607 1607 1607 1607 1607 1607 1607 1606 1606 1605 1605 1605 1604 1604 1603 1602 1602 1601 1601 1599 1597 1596 1595 1594 1593 1593 1592 1591 1590 1589 1589 1588 1588 1588 1588 1588 1588 1589 1589 1590 1590 1591 1591 1593 1594 1596 1596 1597 1597 1598 1598 1598 1598 1598 1597 1597 1596 1595 1594 1594 1593 1592 1591 1590 1590 1589 1587 1586 1585 1584 1582 1581 1580 1577 1575 1573 1572 1570 1569 1567 1566 1565 1564 1563 1560 1557 1554 1553 1552 1550 1548 1547 1546 1545 1544 1544 1543 1542 1542 1541 1540 1539 1538 1538 1536 1534 1532 1531 1530 1529 1527 1527 1526 1525 1524 1524 1524 1524 1524 1525 1525 1526 1526 1526 1526 1526 1526 1526 1526 1526 1526 1526 1526 1525 1525 1525 1525 1525 1525 1527 1527 1527 1528 1527 1527 1527 1527 1527 1533 1537 1537 1537 1541 1544 1547 1549 1549 1551 1554 1557 1569 1570 1584 1587 1596 1610 1633 1646 1663 1672 1703 1718 1725 1733 1736 1737 1738 1739 1743 1746 1747 1748 1750 1751 1751 1751 1750 1749 1748 1746 1742 1736 1715 1694 1687 1682 1682 1682 1683 1684 1686 1687 1692 1700 1703 1704 1706 1711 1717 1723 1730 1732 1732 1732 1729 1726 1726 1726 0 0 0 0 0 0 0 0 0 0 0 0 0 0 0 0 0 0 0 0 0 0 0 0 0 0 0 0 0 0 0 0 0 0 0 0 0 0 0 0 0 0 0 0 0 0 0 0 0 0 0 0 0 0 0 0 0 0 0 0 0 0 0 0 0 0 0 0 0 0 0 0 0 0 0 0 0 0 0 0 0 0 0 0 0 0 0 0 0 0 0 0 0 0 0 0 0 0 0 0 0 0 0 0 0 0 0 0 0 0 0 0 0 0 0 0 0 0 0 0 0 0 0
0 0 0 0 0 0 0 0 0 0 0 0 0 0 0 0 0 0 0 0 0 0 0 0 0 0 0 0 0 0 0 2552 2654 2740 2828 2944 3042 3103 3111 3149 3209 3267 3294 3298 3299 3313 3316 3319 3336 3336 3340 3356 3363 3364 3377 3401 3428 3431 3436 3437 3439 3452 3454 3458 3465 3465 3465 3466 3466 3466 3472 3485 3490 3494 3497 3498 3498 3502 3509 3515 3515 3515 3514 3510 3497 3494 3480 3467 3457 3456 3433 3415 3374 3310 3228 2994 0 0 0 0 1655 1646 1642 1641 1640 1639 1639 1638 1637 1636 1636 1636 1636 1637 1637 1637 1637 1637 1637 1638 1638 1638 1637 1637 1637 1637 1637 1637 1636 1636 1636 1635 1635 1635 1634 1633 1631 1628 1627 1625 1622 1615 1605 1604 1604 1603 1602 1600 1598 1597 1597 1597 1597 1597 1597 1598 1601 1604 1606 1610 1616 1619 1622 1625 1626 1627 1628 1629 1630 1630 1631 1631 1631 1631 1630 1630 1629 1629 1628 1627 1626 1625 1624 1622 1620 1615 1613 1612 1610 1607 1604 1602 1600 1600 1600 1600 1600 1603 1604 1606 1606 1607 1608 1611 1615 1618 1620 1621 1622 1622 1623 1624 1624 1624 1624 1624 1624 1624 1624 1624 1623 1623 1622 1621 1620 1619 1618 1616 1613 1612 1612 1611 1609 1607 1606 1604 1603 1602 1601 1600 1599 1599 1599 1599 1600 1601 1601 1603 1608 1610 1612 1613 1613 1615 1615 1615 1615 1615 1615 1615 1615 1615 1616 1616 1616 1615 1615 1615 1614 1614 1614 1613 1613 1613 1611 1610 1607 1607 1607 1605 1605 1603 1603 1603 1603 1603 1604 1604 1605 1605 1605 1604 1604 1604 1605 1606 1606 1606 1607 1607 1607 1607 1607 1607 1607 1606 1606 1606 1605 1605 1605 1604 1604 1603 1602 1602 1601 1601 1599 1598 1596 1595 1594 1593 1592 1591 1590 1589 1589 1588 1588 1588 1587 1587 1588 1588 1588 1589 1589 1590 1591 1591 1593 1594 1596 1596 1597 1597 1598 1598 1598 1598 1598 1598 1597 1596 1596 1594 1594 1593 1592 1590 1590 1589 1588 1587 1585 1584 1584 1582 1581 1580 1578 1577 1575 1573 1572 1570 1569 1568 1567 1566 1564 1561 1559 1556 1554 1554 1552 1550 1549 1547 1547 1546 1545 1545 1544 1543 1543 1541 1541 1540 1539 1538 1535 1533 1533 1531 1530 1529 1528 1527 1526 1526 1526 1526 1526 1526 1526 1526 1528 1528 1528 1527 1527 1527 1527 1528 1528 1528 1528 1528 1527 1527 1527 1527 1527 1528 1531 1531 1531 1530 1529 1529 1529 1530 1531 1538 1543 1544 1546 1547 1549 1553 1554 1556 1558 1561 1574 1598 1599 1615 1620 1623 1631 1652 1657 1683 1718 1721 1723 1728 1733 1738 1739 1739 1739 1743 1745 1747 1748 1748 1748 1748 1748 1748 1747 1746 1743 1739 1733 1704 1694 1687 1684 1684 1684 1685 1686 1689 1695 1702 1705 1707 1711 1715 1720 1723 1729 1730 1732 1732 1732 1729 1722 0 0 0 0 0 0 0 0 0 0 0 0 0 0 0 0 0 0 0 0 0 0 0 0 0 0 0 0 0 0 0 0 0 0 0 0 0 0 0 0 0 0 0 0 0 0 0 0 0 0 0 0 0 0 0 0 0 0 0 0 0 0 0 0 0 0 0 0 0 0 0 0 0 0 0 0 0 0 0 0 0 0 0 0 0 0 0 0 0 0 0 0 0 0 0 0 0 0 0 0 0 0 0 0 0 0 0 0 0 0 0 0 0 0 0 0 0 0 0 0 0 0 0 0 0
0 0 0 0 0 0 0 0 0 0 0 0 0 0 0 0 0 0 0 0 0 0 0 0 0 0 0 0 0 0 0 0 0 0 0 0 2547 2639 2738 2821 2880 2912 2979 3034 3085 3153 3158 3227 3254 3285 3332 3355 3357 3357 3377 3396 3415 3425 3425 3428 3435 3447 3454 3458 3465 3465 3465 3463 3463 3463 3475 3488 3494 3496 3498 3498 3501 3502 3509 3519 3519 3519 3516 3510 3497 3494 3480 3467 3460 3459 3445 3420 3376 3310 3228 2923 0 0 0 0 1655 1646 1643 1640 1640 1639 1639 1638 1637 1637 1637 1636 1636 1637 1637 1637 1637 1637 1637 1637 1637 1637 1637 1637 1636 1636 1636 1636 1636 1636 1635 1635 1635 1635 1634 1633 1631 1629 1627 1626 1623 1620 1609 1606 1605 1605 1605 1602 1598 1598 1598 1597 1597 1598 1598 1598 1602 1605 1607 1609 1616 1619 1622 1625 1626 1628 1628 1629 1630 1630 1631 1631 1631 1631 1630 1630 1629 1628 1628 1627 1626 1625 1623 1621 1620 1615 1613 1612 1610 1607 1604 1602 1600 1600 1600 1600 1600 1603 1606 1607 1608 1609 1611 1613 1615 1618 1620 1621 1622 1623 1624 1624 1624 1624 1624 1624 1624 1624 1624 1624 1623 1623 1622 1621 1620 1619 1618 1616 1613 1612 1611 1609 1608 1605 1605 1604 1603 1602 1601 1601 1601 1600 1600 1600 1600 1600 1601 1603 1605 1610 1612 1613 1613 1614 1615 1615 1616 1616 1616 1616 1616 1616 1616 1616 1616 1616 1615 1615 1615 1614 1614 1613 1613 1613 1611 1609 1607 1607 1606 1605 1605 1603 1603 1603 1603 1603 1604 1604 1605 1605 1605 1604 1604 1604 1605 1606 1606 1606 1607 1607 1607 1607 1607 1607 1607 1606 1606 1605 1605 1604 1604 1604 1603 1603 1602 1602 1601 1601 1600 1598 1596 1595 1594 1593 1592 1591 1590 1589 1588 1588 1588 1587 1587 1587 1587 1588 1588 1589 1590 1590 1591 1591 1593 1594 1596 1596 1597 1597 1598 1598 1598 1598 1598 1598 1597 1597 1596 1594 1594 1592 1591 1590 1589 1588 1587 1587 1585 1584 1583 1582 1581 1580 1579 1577 1575 1575 1573 1572 1570 1570 1569 1566 1565 1564 1562 1559 1558 1556 1553 1552 1551 1550 1548 1548 1547 1547 1545 1545 1544 1543 1542 1541 1540 1539 1537 1535 1533 1532 1531 1530 1529 1529 1528 1528 1528 1528 1529 1529 1529 1529 1529 1529 1529 1529 1529 1529 1529 1529 1529 1529 1529 1529 1529 1529 1529 1529 1530 1530 1533 1533 1533 1532 1532 1532 1532 1534 1539 1545 1555 1559 1559 1561 1561 1561 1563 1568 1582 1591 1617 1631 1633 1636 1641 1647 1656 1676 1701 1721 1722 1722 1723 1728 1733 1738 1739 1740 1740 1742 1745 1746 1747 1747 1747 1748 1748 1747 1746 1742 1739 1731 1720 1703 1694 1689 1689 1689 1690 1692 1694 1697 1701 1708 1711 1716 1720 1725 1725 1729 1729 1730 1732 1732 0 0 0 0 0 0 0 0 0 0 0 0 0 0 0 0 0 0 0 0 0 0 0 0 0 0 0 0 0 0 0 0 0 0 0 0 0 0 0 0 0 0 0 0 0 0 0 0 0 0 0 0 0 0 0 0 0 0 0 0 0 0 0 0 0 0 0 0 0 0 0 0 0 0 0 0 0 0 0 0 0 0 0 0 0 0 0 0 0 0 0 0 0 0 0 0 0 0 0 0 0 0 0 0 0 0 0 0 0 0 0 0 0 0 0 0 0 0 0 0 0 0 0 0 0 0 0 0
0 0 0 0 0 0 0 0 0 0 0 0 0 0 0 0 0 0 0 0 0 0 0 0 0 0 0 0 0 0 0 0 0 0 0 0 0 2500 2556 2563 2563 2563 2563 2577 2638 2723 2725 2821 2905 3011 3059 3137 3255 3292 3334 3360 3391 3394 3403 3414 3434 3441 3450 3454 3463 3463 3463 3462 3462 3462 3472 3488 3494 3497 3497 3497 3498 3498 3512 3519 3519 3519 3514 3510 3497 3494 3493 3487 3478 3477 3453 3425 3385 3310 3228 2923 0 0 0 0 1655 1646 1643 1640 1639 1639 1639 1638 1637 1637 1637 1636 1636 1637 1637 1637 1637 1637 1637 1637 1637 1637 1636 1636 1636 1636 1636 1636 1635 1635 1635 1635 1635 1634 1634 1633 1631 1629 1627 1626 1623 1621 1615 1611 1608 1607 1606 1605 1601 1600 1599 1599 1599 1599 1599 1600 1603 1606 1607 1609 1616 1619 1622 1625 1626 1628 1629 1629 1630 1630 1631 1631 1631 1631 1630 1630 1629 1628 1627 1627 1625 1624 1622 1621 1620 1616 1614 1613 1611 1607 1604 1602 1601 1600 1600 1600 1600 1603 1607 1609 1611 1613 1614 1615 1616 1618 1620 1621 1623 1623 1624 1624 1624 1624 1624 1624 1624 1624 1624 1624 1623 1623 1622 1621 1620 1619 1618 1616 1613 1612 1609 1608 1605 1605 1605 1604 1603 1603 1601 1601 1601 1601 1601 1600 1600 1600 1601 1603 1605 1609 1612 1613 1613 1614 1615 1616 1616 1616 1616 1616 1616 1616 1616 1616 1616 1616 1616 1615 1615 1614 1614 1613 1613 1612 1611 1609 1607 1606 1606 1605 1604 1603 1603 1603 1603 1603 1604 1604 1604 1604 1604 1605 1605 1605 1606 1606 1607 1607 1607 1607 1607 1607 1607 1606 1606 1606 1606 1605 1605 1604 1604 1603 1603 1603 1602 1602 1602 1601 1599 1598 1597 1595 1594 1593 1592 1591 1590 1589 1588 1588 1588 1587 1587 1587 1587 1588 1588 1589 1590 1590 1591 1592 1593 1595 1596 1596 1597 1598 1598 1598 1598 1598 1598 1598 1597 1597 1596 1595 1594 1593 1591 1590 1589 1588 1587 1586 1585 1584 1583 1582 1582 1581 1580 1578 1578 1576 1575 1574 1572 1571 1569 1567 1567 1566 1565 1563 1561 1559 1557 1555 1552 1551 1551 1549 1549 1548 1548 1547 1546 1546 1543 1542 1541 1540 1537 1536 1535 1534 1533 1532 1531 1530 1530 1530 1530 1530 1530 1531 1531 1532 1532 1532 1531 1531 1531 1531 1531 1530 1530 1530 1530 1530 1530 1530 1531 1531 1532 1533 1534 1535 1535 1535 1537 1538 1539 1543 1548 1562 1569 1570 1573 1573 1578 1588 1598 1612 1614 1627 1644 1658 1665 1666 1675 1702 1724 1726 1726 1726 1725 1725 1725 1728 1733 1738 1739 1740 1740 1742 1745 1745 1745 1745 1745 1745 1746 1746 1746 1738 1730 1725 1714 1703 1694 1694 1694 1698 1698 1699 1700 1701 1710 1729 1733 1733 1733 1731 1729 1721 1721 1721 1718 1717 0 0 0 0 0 0 0 0 0 0 0 0 0 0 0 0 0 0 0 0 0 0 0 0 0 0 0 0 0 0 0 0 0 0 0 0 0 0 0 0 0 0 0 0 0 0 0 0 0 0 0 0 0 0 0 0 0 0 0 0 0 0 0 0 0 0 0 0 0 0 0 0 0 0 0 0 0 0 0 0 0 0 0 0 0 0 0 0 0 0 0 0 0 0 0 0 0 0 0 0 0 0 0 0 0 0 0 0 0 0 0 0 0 0 0 0 0 0 0 0 0 0 0 0 0 0 0 0
2861 2862 2861 2861 2837 2830 2826 2812 2812 2724 2659 2626 2594 2548 2501 0 0 0 0 0 0 0 0 0 0 0 0 0 0 0 0 0 0 0 0 0 2460 2500 2556 2556 2556 2555 2515 2508 2508 2508 2511 2532 2553 2554 2554 2583 2672 2794 2868 2944 2979 3053 3138 3271 3336 3380 3398 3410 3425 3429 3449 3449 3457 3457 3471 3488 3494 3494 3494 3496 3496 3496 3507 3517 3517 3517 3510 3510 3510 3507 3507 3507 3502 3485 3458 3425 3385 3316 3228 2923 0 0 0 0 1651 1646 1643 1640 1639 1639 1638 1637 1637 1637 1636 1636 1636 1636 1637 1637 1637 1637 1636 1636 1636 1636 1636 1636 1635 1635 1635 1634 1634 1634 1634 1634 1633 1633 1633 1632 1631 1630 1628 1625 1623 1621 1617 1613 1610 1608 1608 1606 1604 1603 1602 1601 1601 1601 1601 1603 1606 1607 1608 1609 1616 1619 1622 1623 1626 1628 1629 1629 1630 1630 1631 1631 1631 1631 1630 1629 1629 1627 1627 1626 1625 1624 1622 1621 1621 1617 1617 1617 1616 1612 1607 1605 1603 1600 1600 1600 1600 1603 1607 1610 1612 1614 1615 1616 1618 1619 1620 1622 1623 1623 1624 1624 1624 1624 1624 1624 1624 1624 1624 1624 1624 1623 1622 1621 1620 1619 1618 1616 1613 1612 1608 1607 1605 1605 1605 1605 1605 1603 1602 1602 1602 1602 1602 1601 1601 1601 1601 1603 1605 1609 1613 1613 1614 1614 1615 1616 1617 1617 1617 1617 1616 1616 1616 1616 1616 1616 1616 1615 1615 1614 1614 1613 1613 1611 1611 1608 1607 1606 1606 1605 1604 1603 1603 1603 1603 1603 1604 1604 1604 1604 1604 1605 1605 1605 1606 1607 1607 1607 1607 1607 1607 1607 1607 1607 1606 1606 1605 1605 1604 1604 1603 1603 1603 1603 1602 1602 1601 1601 1599 1598 1597 1596 1594 1594 1593 1591 1590 1589 1588 1588 1588 1587 1587 1587 1587 1588 1588 1590 1591 1591 1592 1593 1594 1595 1596 1596 1598 1598 1598 1599 1599 1598 1598 1598 1597 1597 1596 1595 1594 1593 1591 1590 1589 1588 1587 1586 1585 1584 1583 1582 1582 1581 1580 1579 1578 1577 1576 1575 1573 1572 1571 1570 1569 1567 1566 1566 1564 1562 1559 1558 1557 1555 1552 1552 1551 1550 1550 1549 1549 1547 1545 1544 1542 1541 1539 1538 1537 1535 1535 1533 1533 1532 1532 1532 1532 1532 1533 1534 1534 1535 1535 1535 1534 1534 1533 1533 1532 1532 1531 1531 1531 1531 1531 1532 1532 1533 1533 1534 1535 1535 1536 1540 1542 1545 1555 1562 1571 1580 1584 1586 1589 1600 1616 1628 1635 1642 0 0 1703 1720 1724 1725 1725 1728 1729 1729 1729 1728 1727 1727 1728 1728 1732 1736 1739 1740 1740 1742 1743 1743 1743 1743 1743 1743 1742 1742 1740 1737 1726 1723 1714 1703 1699 1699 1699 1708 1710 1710 1711 1711 1723 1747 1747 1747 1743 1731 1719 0 0 0 0 0 0 0 0 0 0 0 0 0 0 0 0 0 0 0 0 0 0 0 0 0 0 0 0 0 0 0 0 0 0 0 0 0 0 0 0 0 0 0 0 0 0 0 0 0 0 0 0 0 0 0 0 0 0 0 0 0 0 0 0 0 0 0 0 0 0 0 0 0 0 0 0 0 0 0 0 0 0 0 0 0 0 0 0 0 0 0 0 0 0 0 0 0 0 0 0 0 0 0 0 0 0 0 0 0 0 0 0 0 0 0 0 0 0 0 0 0 0 0 0 0 0 0 0 0 0 0 0 0
2959 2959 2970 2970 3001 3022 3038 3065 3065 3065 3060 3047 3039 3028 3022 2988 2986 2921 2867 2830 2788 2728 2704 2621 2517 0 0 0 0 0 0 0 0 0 0 2426 2460 2500 2556 2556 2556 2555 2515 2508 2508 2508 2511 2532 2543 2543 2543 2531 2531 2531 2560 2577 2586 2592 2606 2718 2804 2850 2939 3006 3076 3078 3135 3256 3299 3355 3456 3484 3490 3490 3490 3493 3493 3493 3507 3516 3516 3516 3510 3510 3510 3507 3507 3507 3502 3489 3458 3425 3385 3316 3228 2923 0 0 0 0 1651 1646 1643 1640 1640 1639 1638 1638 1637 1637 1636 1636 1636 1636 1636 1636 1636 1636 1636 1636 1636 1636 1635 1635 1634 1634 1634 1634 1634 1633 1633 1633 1633 1633 1633 1632 1631 1630 1628 1626 1623 1622 1618 1614 1612 1610 1609 1608 1607 1606 1605 1603 1603 1603 1604 1606 1607 1609 1610 1613 1617 1619 1622 1623 1626 1628 1629 1629 1630 1630 1630 1630 1630 1630 1629 1629 1628 1627 1627 1626 1625 1624 1624 1623 1622 1622 1620 1620 1618 1614 1610 1609 1608 1604 1601 1601 1601 1603 1607 1610 1612 1614 1616 1618 1620 1620 1621 1623 1623 1623 1624 1624 1624 1624 1624 1624 1624 1624 1624 1624 1624 1623 1622 1621 1620 1619 1618 1616 1615 1613 1608 1607 1607 1606 1606 1606 1606 1603 1603 1603 1603 1603 1603 1603 1602 1602 1602 1605 1606 1610 1613 1614 1614 1615 1616 1616 1617 1617 1617 1617 1617 1617 1617 1617 1617 1616 1616 1615 1615 1614 1614 1613 1612 1611 1610 1608 1607 1606 1606 1605 1605 1603 1603 1603 1603 1603 1604 1604 1604 1605 1605 1605 1605 1606 1607 1607 1607 1608 1608 1608 1607 1607 1607 1607 1606 1605 1605 1604 1604 1604 1603 1603 1603 1603 1602 1602 1601 1601 1599 1598 1597 1596 1595 1594 1593 1591 1590 1588 1588 1588 1588 1588 1588 1588 1588 1588 1589 1590 1592 1592 1593 1593 1594 1595 1597 1597 1598 1598 1598 1599 1599 1598 1598 1598 1597 1597 1596 1595 1594 1593 1591 1591 1589 1588 1588 1586 1585 1584 1584 1583 1582 1581 1581 1580 1579 1578 1577 1576 1575 1574 1573 1572 1570 1569 1568 1567 1566 1564 1562 1560 1559 1558 1557 1554 1553 1552 1551 1551 1549 1547 1546 1545 1544 1542 1540 1539 1538 1537 1536 1535 1535 1535 1535 1535 1535 1536 1537 1537 1537 1537 1537 1537 1537 1537 1535 1535 1534 1533 1533 1533 1532 1533 1533 1533 1533 1535 1535 1535 1536 1537 1542 1544 1548 1558 1570 1579 1589 1605 1612 1612 1613 1623 1635 1652 1678 1701 1714 1727 1728 1728 1728 1728 1728 1731 1731 1731 1731 1731 1729 1729 1729 1729 1732 1736 1739 1740 1740 1741 1741 1741 1741 1741 1740 1739 1739 1739 1738 1734 1725 1723 1714 1712 1712 1712 1718 1723 1733 1753 1762 1763 1765 1772 1772 1772 1743 0 0 0 0 0 0 0 0 0 0 0 0 0 0 0 0 0 0 0 0 0 0 0 0 0 0 0 0 0 0 0 0 0 0 0 0 0 0 0 0 0 0 0 0 0 0 0 0 0 0 0 0 0 0 0 0 0 0 0 0 0 0 0 0 0 0 0 0 0 0 0 0 0 0 0 0 0 0 0 0 0 0 0 0 0 0 0 0 0 0 0 0 0 0 0 0 0 0 0 0 0 0 0 0 0 0 0 0 0 0 0 0 0 0 0 0 0 0 0 0 0 0 0 0 0 0 0 0 0 0 0 0 0 0 0
2968 2968 2993 2994 3023 3051 3080 3108 3127 3144 3162 3173 3180 3189 3194 3196 3198 3198 3198 3190 3168 3137 3126 3092 3031 2982 2947 2933 2887 2816 2815 2717 2580 2522 2522 2522 2533 2570 2576 2576 2576 2555 2515 2508 2508 2508 2511 2532 2543 2543 2543 2531 2531 2531 2560 2561 2561 2562 2562 2562 2578 2594 2618 2641 2642 2659 2673 2689 2787 2927 3010 3110 3210 3256 3318 3361 3404 3424 3451 3479 3490 3498 3506 3507 3507 3507 3507 3507 3502 3489 3458 3423 3380 3316 3228 2918 0 0 0 0 1639 1639 1639 1639 1639 1639 1638 1638 1638 1637 1637 1636 1636 1636 1636 1636 1636 1636 1635 1635 1635 1635 1634 1634 1634 1632 1632 1632 1632 1632 1633 1632 1632 1632 1632 1631 1630 1630 1628 1626 1623 1622 1618 1615 1612 1611 1611 1609 1608 1607 1606 1605 1605 1605 1607 1608 1608 1609 1612 1616 1618 1621 1622 1623 1626 1627 1629 1629 1629 1630 1630 1630 1630 1629 1629 1628 1628 1626 1626 1626 1625 1624 1624 1624 1624 1623 1622 1621 1621 1620 1617 1616 1611 1608 1605 1605 1605 1605 1607 1611 1614 1616 1617 1620 1620 1622 1622 1623 1623 1624 1624 1624 1624 1624 1624 1624 1624 1624 1624 1624 1623 1623 1622 1621 1620 1619 1619 1617 1615 1613 1608 1608 1608 1608 1608 1608 1608 1605 1605 1605 1605 1605 1605 1605 1604 1604 1604 1605 1608 1611 1613 1614 1615 1615 1616 1617 1617 1617 1617 1617 1617 1617 1617 1617 1617 1616 1616 1615 1615 1614 1613 1612 1611 1610 1609 1608 1607 1606 1606 1605 1604 1604 1604 1604 1604 1604 1604 1604 1605 1605 1605 1606 1607 1607 1607 1608 1608 1608 1608 1608 1607 1607 1607 1607 1606 1605 1605 1604 1604 1603 1603 1603 1603 1602 1602 1602 1601 1601 1599 1598 1597 1596 1595 1594 1593 1591 1590 1589 1589 1589 1588 1588 1588 1588 1588 1589 1590 1590 1592 1593 1593 1594 1595 1596 1597 1598 1598 1598 1598 1599 1599 1598 1598 1598 1598 1597 1596 1595 1594 1593 1592 1591 1590 1588 1588 1586 1586 1585 1584 1584 1582 1582 1582 1581 1580 1579 1579 1578 1577 1577 1575 1574 1573 1572 1571 1569 1567 1567 1565 1563 1562 1560 1558 1557 1556 1554 1553 1552 1551 1548 1546 1546 1544 1544 1541 1541 1540 1538 1538 1537 1537 1537 1538 1539 1539 1539 1540 1540 1540 1541 1541 1541 1539 1539 1538 1535 1535 1534 1534 1534 1534 1534 1534 1535 1536 1537 1538 1539 1540 1545 1549 1554 1564 1573 1586 1603 1618 1625 1632 1636 0 0 1701 1710 1722 1730 1732 1732 1732 1731 1731 1731 1731 1731 1732 1733 1733 1733 1732 1732 1732 1732 1732 1736 1739 1740 1740 1740 1739 1739 1739 1739 1739 1737 1735 1735 1732 1730 1725 1723 1721 1721 1721 1733 1755 1758 1763 1778 1778 1780 1785 1785 1785 1772 0 0 0 0 0 0 0 0 0 0 0 0 0 0 0 0 0 0 0 0 0 0 0 0 0 0 0 0 0 0 0 0 0 0 0 0 0 0 0 0 0 0 0 0 0 0 0 0 0 0 0 0 0 0 0 0 0 0 0 0 0 0 0 0 0 0 0 0 0 0 0 0 0 0 0 0 0 0 0 0 0 0 0 0 0 0 0 0 0 0 0 0 0 0 0 0 0 0 0 0 0 0 0 0 0 0 0 0 0 0 0 0 0 0 0 0 0 0 0 0 0 0 0 0 0 0 0 0 0 0 0 0 0 0 0 0
2968 2968 2993 2995 3023 3060 3097 3130 3151 3156 3167 3173 3180 3189 3194 3196 3211 3231 3243 3260 3267 3267 3267 3261 3261 3261 3262 3262 3265 3265 3261 3225 3192 3180 3145 3101 3056 2969 2900 2802 2720 2659 2600 2554 2525 2525 2525 2544 2544 2544 2543 2531 2531 2531 2560 2561 2561 2562 2562 2562 2578 2581 2583 2596 2599 2612 2612 2632 2646 2652 2653 2653 2669 2669 2788 2900 2949 2998 3081 3171 3220 3266 3317 3356 3388 3404 3427 3447 3450 3450 3450 3404 3346 3269 3162 2896 0 0 0 0 1638 1638 1638 1638 1638 1638 1638 1638 1638 1637 1637 1637 1636 1636 1636 1636 1636 1636 1635 1635 1634 1633 1633 1631 1631 1631 1631 1632 1632 1632 1632 1632 1632 1632 1632 1630 1630 1630 1628 1626 1623 1621 1618 1615 1614 1612 1611 1610 1609 1607 1607 1607 1607 1608 1608 1608 1608 1610 1612 1617 1621 1622 1623 1623 1626 1627 1628 1628 1628 1628 1629 1629 1629 1629 1628 1628 1628 1626 1626 1626 1625 1624 1624 1624 1624 1623 1622 1622 1621 1621 1621 1619 1616 1613 1610 1610 1610 1610 1611 1613 1616 1618 1619 1621 1622 1623 1623 1623 1623 1624 1624 1624 1624 1624 1623 1624 1623 1624 1623 1623 1623 1623 1622 1621 1620 1619 1619 1617 1615 1615 1610 1609 1609 1609 1609 1609 1609 1607 1607 1607 1607 1607 1607 1607 1604 1604 1604 1607 1611 1613 1613 1614 1615 1615 1617 1617 1617 1617 1617 1617 1617 1617 1617 1617 1616 1616 1616 1615 1615 1614 1613 1612 1611 1610 1609 1608 1607 1606 1606 1605 1604 1604 1604 1604 1604 1604 1604 1605 1605 1605 1606 1607 1608 1608 1608 1609 1609 1609 1608 1608 1608 1607 1607 1607 1606 1605 1605 1605 1604 1603 1603 1603 1602 1602 1602 1602 1601 1601 1599 1597 1596 1596 1595 1593 1592 1591 1590 1589 1589 1589 1589 1589 1589 1589 1589 1589 1590 1591 1592 1593 1594 1594 1595 1597 1597 1598 1598 1598 1599 1599 1599 1599 1598 1598 1598 1597 1596 1595 1594 1594 1592 1591 1591 1589 1589 1588 1586 1585 1584 1584 1583 1583 1582 1582 1582 1580 1580 1579 1579 1578 1577 1576 1575 1573 1572 1570 1569 1568 1567 1566 1564 1562 1560 1559 1558 1557 1556 1554 1552 1550 1549 1548 1546 1545 1543 1542 1541 1541 1540 1540 1540 1540 1541 1542 1542 1542 1543 1543 1544 1545 1545 1545 1542 1541 1540 1538 1537 1536 1536 1536 1536 1536 1536 1536 1538 1540 1543 1548 1552 1556 1561 1570 1582 1601 1621 1633 1639 1646 1672 1697 1719 1729 1729 1730 1734 1736 1736 1736 1736 1736 1735 1734 1734 1733 1733 1733 1734 1735 1735 1735 1735 1735 1735 1737 1739 1739 1739 1739 1739 1739 1739 1739 1735 1733 1732 1732 1732 1730 1726 1723 1723 1723 1725 1757 1765 1784 1787 1788 1792 1793 1793 1792 1791 1772 0 0 0 0 1419 1408 1408 1401 0 0 0 0 0 0 0 0 0 0 0 0 0 0 0 0 0 0 0 0 0 0 0 0 0 0 0 0 0 0 0 0 0 0 0 0 0 0 0 0 0 0 0 0 0 0 0 0 0 0 0 0 0 0 0 0 0 0 0 0 0 0 0 0 0 0 0 0 0 0 0 0 0 0 0 0 0 0 0 0 0 0 0 0 0 0 0 0 0 0 0 0 0 0 0 0 0 0 0 0 0 0 0 0 0 0 0 0 0 0 0 0 0 0 0 0 0 0 0 0 0 0 0 0 0 0 0 0
2968 2968 2993 2995 3023 3060 3098 3134 3160 3162 3167 3173 3180 3189 3194 3196 3211 3231 3243 3260 3268 3278 3285 3286 3289 3296 3312 3324 3346 3353 3353 3353 3346 3346 3346 3342 3338 3334 3322 3298 3269 3244 3223 3193 3109 2932 2928 2894 2808 2745 2677 2608 2583 2583 2574 2574 2574 2562 2562 2562 2578 2581 2583 2596 2599 2612 2612 2630 2630 2630 2626 2615 2599 2583 2578 2578 2578 2579 2590 2591 2606 2670 2815 2877 2925 2972 3027 3119 3121 3203 3203 3203 3156 3156 3103 2808 0 0 0 0 1638 1638 1638 1638 1638 1638 1638 1638 1638 1637 1637 1637 1636 1636 1636 1636 1635 1635 1635 1634 1633 1631 1630 1630 1629 1629 1629 1630 1631 1631 1631 1631 1630 1630 1630 1630 1630 1630 1628 1626 1623 1621 1618 1617 1615 1613 1611 1610 1609 1608 1608 1608 1609 1609 1610 1611 1611 1613 1619 1621 1622 1622 1623 1624 1625 1627 1627 1627 1627 1627 1627 1628 1628 1628 1627 1627 1626 1626 1626 1626 1625 1624 1624 1624 1622 1622 1622 1622 1622 1622 1622 1621 1619 1615 1614 1614 1614 1615 1617 1618 1619 1619 1621 1622 1623 1623 1623 1623 1623 1623 1623 1623 1623 1623 1623 1623 1623 1623 1623 1623 1622 1622 1621 1621 1620 1620 1619 1617 1616 1616 1610 1610 1610 1610 1612 1612 1612 1611 1611 1611 1611 1611 1611 1609 1607 1607 1607 1610 1612 1613 1614 1615 1615 1616 1617 1617 1617 1617 1617 1617 1617 1617 1617 1617 1616 1616 1615 1615 1614 1614 1613 1612 1611 1610 1609 1608 1607 1607 1606 1605 1604 1604 1604 1604 1604 1604 1605 1606 1606 1606 1607 1608 1608 1609 1609 1609 1609 1609 1608 1608 1608 1608 1607 1607 1606 1605 1605 1605 1604 1604 1603 1603 1602 1602 1601 1601 1601 1600 1599 1597 1596 1595 1595 1593 1592 1591 1590 1589 1589 1589 1589 1589 1589 1589 1589 1590 1591 1592 1592 1593 1595 1595 1596 1597 1597 1598 1599 1599 1599 1599 1599 1599 1599 1598 1598 1597 1596 1595 1594 1594 1592 1591 1591 1591 1590 1588 1586 1586 1584 1584 1584 1583 1583 1583 1582 1582 1581 1581 1580 1580 1579 1577 1576 1575 1574 1573 1571 1570 1568 1568 1566 1565 1564 1563 1560 1559 1558 1557 1554 1552 1551 1549 1548 1547 1545 1545 1544 1544 1544 1543 1543 1543 1544 1545 1545 1545 1546 1547 1548 1548 1548 1546 1544 1542 1542 1541 1541 1541 1539 1539 1539 1539 1539 1540 1543 1546 1552 1561 1567 1571 1577 1592 1619 1643 1652 1656 1679 1702 1718 1725 1728 1732 1733 1733 1737 1738 1738 1738 1736 1736 1735 1735 1734 1734 1734 1735 1735 1737 1737 1737 1737 1737 1737 1738 1739 1739 1739 1739 1739 1738 1737 1736 1734 1733 1732 1732 1732 1730 1730 1730 1732 1740 1747 1760 1791 1794 1796 1800 1800 1801 1801 1797 1791 1769 0 0 0 1442 1412 1408 1408 1400 0 0 0 0 0 0 0 0 0 0 0 0 0 0 0 0 0 0 0 0 0 0 0 0 0 0 0 0 0 0 0 0 0 0 0 0 0 0 0 0 0 0 0 0 0 0 0 0 0 0 0 0 0 0 0 0 0 0 0 0 0 0 0 0 0 0 0 0 0 0 0 0 0 0 0 0 0 0 0 0 0 0 0 0 0 0 0 0 0 0 0 0 0 0 0 0 0 0 0 0 0 0 0 0 0 0 0 0 0 0 0 0 0 0 0 0 0 0 0 0 0 0 0 0 0 0 0 0
2966 2966 2993 2994 3023 3060 3098 3134 3160 3162 3167 3168 3171 3177 3188 3194 3211 3231 3246 3260 3276 3278 3299 3306 3308 3310 3314 3326 3349 3356 3356 3356 3350 3350 3350 3355 3358 3360 3366 3379 3380 3387 3394 3396 3396 3396 3376 3351 3305 3259 3214 3154 3075 3016 2986 2918 2804 2679 2626 2593 2588 2588 2588 2596 2599 2612 2612 2630 2630 2630 2626 2615 2599 2583 2578 2578 2578 2577 2566 2562 2530 2529 2529 2529 2530 2531 2536 2543 2546 2563 2592 2609 2609 2609 2609 0 0 0 0 0 1638 1638 1638 1638 1638 1638 1638 1638 1638 1638 1637 1637 1637 1636 1636 1636 1634 1633 1632 1630 1630 1629 1628 1628 1628 1628 1628 1628 1628 1629 1629 1629 1628 1627 1627 1628 1628 1628 1628 1626 1624 1622 1618 1617 1617 1615 1615 1614 1613 1612 1612 1612 1612 1613 1613 1615 1617 1619 1620 1621 1622 1622 1623 1624 1625 1625 1625 1625 1625 1625 1625 1626 1626 1626 1625 1625 1625 1625 1625 1625 1625 1624 1623 1623 1622 1622 1623 1623 1623 1623 1623 1622 1619 1618 1618 1618 1620 1620 1620 1620 1620 1621 1621 1622 1623 1623 1623 1623 1623 1623 1623 1622 1622 1622 1622 1622 1622 1622 1622 1622 1621 1621 1621 1621 1620 1620 1620 1618 1616 1616 1614 1612 1612 1612 1613 1613 1613 1613 1613 1613 1613 1613 1613 1612 1610 1610 1610 1612 1613 1614 1615 1616 1617 1617 1617 1617 1617 1617 1617 1617 1617 1617 1617 1616 1616 1615 1615 1614 1614 1613 1612 1612 1611 1610 1609 1608 1607 1607 1607 1606 1605 1605 1605 1605 1605 1605 1605 1606 1606 1607 1607 1608 1609 1609 1609 1609 1609 1609 1608 1608 1608 1608 1607 1607 1606 1605 1605 1604 1604 1604 1603 1603 1602 1602 1601 1601 1601 1600 1599 1597 1596 1595 1595 1593 1592 1591 1590 1590 1589 1589 1589 1589 1589 1589 1589 1590 1591 1592 1593 1594 1595 1596 1597 1597 1598 1598 1599 1599 1599 1599 1599 1599 1599 1599 1598 1597 1596 1596 1594 1594 1592 1591 1591 1591 1591 1589 1586 1586 1585 1585 1584 1584 1584 1584 1584 1583 1583 1582 1582 1581 1580 1579 1578 1576 1575 1574 1574 1573 1571 1570 1568 1568 1567 1566 1564 1561 1559 1559 1556 1554 1552 1551 1549 1549 1548 1548 1547 1547 1546 1547 1547 1547 1549 1549 1549 1550 1550 1551 1551 1551 1549 1547 1546 1545 1545 1545 1544 1544 1543 1542 1542 1542 1545 1546 1550 1555 1563 1570 1578 1588 1603 1628 1652 1666 1679 1714 1724 1725 1726 1728 1730 1732 1733 1735 1737 1739 1739 1739 1739 1738 1738 1737 1737 1737 1737 1737 1737 1737 1738 1738 1738 1738 1738 1739 1740 1740 1740 1739 1739 1738 1737 1736 1734 1733 1733 1733 1735 1737 1737 1739 1751 1767 1776 1785 1794 1797 1801 1801 1801 1803 1803 1800 1788 0 0 0 0 1441 1412 1408 1408 1401 0 0 0 0 0 0 0 0 0 0 0 0 0 0 0 0 0 0 0 0 0 0 0 0 0 0 0 0 0 0 0 0 0 0 0 0 0 0 0 0 0 0 0 0 0 0 0 0 0 0 0 0 0 0 0 0 0 0 0 0 0 0 0 0 0 0 0 0 0 0 0 0 0 0 0 0 0 0 0 0 0 0 0 0 0 0 0 0 0 0 0 0 0 0 0 0 0 0 0 0 0 0 0 0 0 0 0 0 0 0 0 0 0 0 0 0 0 0 0 0 0 0 0 0 0 0 0 0
2966 2966 2996 2998 3024 3060 3098 3134 3160 3162 3162 3163 3168 3170 3178 3184 3187 3223 3243 3260 3268 3277 3299 3320 3320 3323 3331 3338 3352 3356 3356 3356 3355 3355 3355 3358 3365 3367 3372 3379 3380 3387 3394 3396 3396 3396 3388 3388 3388 3393 3398 3398 3398 3390 3370 3366 3356 3287 3267 3216 3189 3083 2968 2850 2849 2790 2728 2672 2637 2630 2626 2615 2599 2583 2578 2578 2578 2577 2566 2562 2530 2529 2529 2529 2530 2530 2530 2517 2515 2496 0 0 0 0 0 0 0 0 0 1658 1648 1638 1638 1638 1638 1638 1638 1638 1638 1638 1638 1637 1637 1636 1636 1635 1634 1632 1631 1628 1625 1625 1625 1626 1626 1626 1625 1625 1625 1625 1625 1624 1624 1623 1622 1622 1622 1622 1623 1624 1625 1625 1625 1624 1623 1621 1621 1621 1621 1621 1621 1621 1620 1620 1620 1620 1621 1621 1622 1622 1622 1622 1623 1623 1624 1624 1624 1624 1622 1622 1622 1622 1622 1623 1622 1622 1623 1623 1625 1625 1625 1624 1623 1623 1622 1622 1623 1623 1624 1624 1624 1623 1620 1620 1620 1620 1622 1622 1622 1622 1622 1622 1622 1624 1624 1624 1624 1623 1623 1623 1623 1622 1622 1621 1621 1621 1621 1621 1621 1621 1621 1621 1621 1620 1620 1620 1620 1619 1619 1619 1618 1616 1615 1614 1614 1613 1613 1613 1613 1614 1614 1614 1613 1613 1613 1613 1613 1613 1615 1616 1617 1617 1617 1617 1617 1617 1617 1617 1617 1617 1617 1616 1616 1616 1615 1614 1614 1614 1613 1613 1612 1611 1611 1609 1609 1608 1608 1607 1607 1606 1606 1605 1605 1605 1605 1605 1606 1606 1606 1607 1607 1608 1609 1609 1609 1609 1609 1609 1608 1608 1608 1608 1607 1606 1606 1605 1605 1604 1604 1604 1603 1603 1602 1602 1601 1601 1600 1600 1599 1597 1596 1595 1595 1595 1594 1593 1592 1591 1590 1590 1590 1590 1590 1590 1590 1590 1591 1592 1593 1594 1595 1596 1597 1597 1598 1598 1599 1600 1600 1600 1600 1600 1600 1599 1598 1598 1596 1596 1594 1594 1592 1592 1592 1591 1591 1589 1588 1586 1585 1585 1585 1585 1585 1585 1585 1584 1584 1583 1583 1582 1582 1580 1579 1578 1577 1576 1575 1575 1574 1573 1572 1571 1570 1569 1566 1564 1563 1562 1560 1558 1555 1553 1553 1552 1551 1550 1550 1550 1549 1549 1549 1551 1552 1553 1553 1554 1554 1554 1554 1553 1552 1549 1548 1547 1547 1547 1546 1546 1545 1545 1545 1549 1551 1553 1555 1559 1567 1576 1591 1609 1637 1654 1670 1701 1718 1721 1724 1725 1726 1729 1731 1733 1735 1736 1738 1739 1739 1739 1739 1740 1739 1739 1739 1739 1739 1739 1739 1739 1740 1740 1739 1740 1740 1740 1740 1740 1740 1739 1739 1738 1737 1736 1734 1734 1734 1735 1740 1746 1756 1757 1763 1781 1791 1796 1797 1799 1801 1801 1805 1808 1808 1808 0 0 0 0 0 1421 1412 1408 1408 1400 0 0 0 0 0 0 0 0 0 0 0 0 0 0 0 0 0 0 0 0 0 0 0 0 0 0 0 0 0 0 0 0 0 0 0 0 0 0 0 0 0 0 0 0 0 0 0 0 0 0 0 0 0 0 0 0 0 0 0 0 0 0 0 0 0 0 0 0 0 0 0 0 0 0 0 0 0 0 0 0 0 0 0 0 0 0 0 0 0 0 0 0 0 0 0 0 0 0 0 0 0 0 0 0 0 0 0 0 0 0 0 0 0 0 0 0 0 0 0 0 0 0 0 0 0 0 0 0
2966 2966 2996 2998 3024 3060 3099 3127 3146 3148 3154 3159 3162 3165 3168 3172 3187 3209 3242 3254 3267 3277 3299 3320 3333 3338 3340 3340 3352 3356 3356 3356 3355 3355 3355 3358 3365 3368 3374 3379 3380 3387 3394 3396 3396 3396 3390 3390 3390 3398 3400 3400 3400 3398 3398 3397 3398 3402 3405 3416 3416 3416 3390 3346 3343 3302 3260 3214 3177 3123 3074 2953 2834 2748 2650 2601 2598 2597 2582 2562 2530 2529 2529 2529 2530 2530 2530 2517 2515 2496 0 0 0 0 0 0 0 0 0 1658 1648 1639 1638 1638 1638 1638 1638 1638 1638 1638 1638 1637 1637 1636 1636 1635 1633 1632 1630 1627 1624 1621 1620 1618 1618 1616 1614 1614 1614 1614 1614 1614 1614 1611 1611 1611 1611 1616 1622 1625 1625 1625 1625 1625 1626 1626 1625 1625 1625 1625 1625 1624 1624 1623 1622 1622 1622 1623 1623 1623 1622 1622 1622 1621 1621 1621 1621 1621 1621 1621 1621 1620 1621 1621 1621 1621 1622 1622 1623 1623 1623 1622 1621 1621 1621 1622 1623 1623 1624 1624 1624 1624 1623 1622 1622 1622 1622 1622 1623 1623 1623 1623 1623 1623 1623 1623 1623 1623 1623 1623 1622 1621 1621 1621 1620 1620 1620 1620 1620 1620 1620 1620 1620 1620 1620 1620 1620 1619 1619 1619 1619 1617 1616 1614 1614 1614 1614 1614 1614 1614 1614 1614 1615 1615 1615 1614 1614 1614 1615 1617 1617 1617 1617 1617 1617 1617 1617 1617 1617 1617 1616 1616 1615 1615 1615 1614 1613 1613 1612 1612 1611 1611 1610 1609 1609 1608 1608 1608 1607 1606 1606 1606 1606 1606 1606 1606 1606 1606 1606 1607 1607 1608 1609 1609 1609 1609 1609 1608 1608 1608 1608 1607 1607 1606 1606 1605 1605 1604 1604 1604 1603 1602 1602 1601 1601 1600 1600 1600 1599 1598 1596 1596 1596 1596 1595 1595 1593 1592 1591 1590 1590 1590 1590 1591 1591 1591 1592 1592 1593 1594 1596 1597 1597 1598 1598 1599 1600 1600 1600 1600 1600 1600 1600 1599 1598 1598 1597 1596 1595 1594 1592 1592 1592 1591 1591 1589 1588 1586 1586 1585 1585 1585 1585 1585 1585 1585 1585 1585 1584 1583 1582 1581 1580 1579 1578 1577 1577 1577 1577 1576 1576 1575 1572 1572 1569 1568 1566 1563 1561 1560 1558 1556 1556 1555 1554 1553 1553 1552 1552 1552 1552 1553 1556 1556 1557 1557 1557 1557 1557 1555 1554 1552 1551 1549 1548 1547 1547 1547 1547 1550 1552 1553 1556 1559 1559 1562 1572 1591 1614 1639 1666 1677 1710 1716 1719 1723 1725 1727 1727 1730 1731 1734 1735 1737 1738 1739 1739 1740 1740 1740 1740 1740 1740 1740 1741 1740 1741 1741 1741 1740 1740 1740 1740 1740 1741 1741 1741 1740 1740 1740 1739 1738 1738 1738 1741 1741 1754 1761 1763 1772 1779 1785 1793 1797 1797 1799 1801 1802 1805 1808 1808 1808 0 0 0 0 0 1417 1412 1406 1406 1400 0 0 0 0 0 0 0 0 0 0 0 0 0 0 0 0 0 0 0 0 0 0 0 0 0 0 0 0 0 0 0 0 0 0 0 0 0 0 0 0 0 0 0 0 0 0 0 0 0 0 0 0 0 0 0 0 0 0 0 0 0 0 0 0 0 0 0 0 0 0 0 0 0 0 0 0 0 0 0 0 0 0 0 0 0 0 0 0 0 0 0 0 0 0 0 0 0 0 0 0 0 0 0 0 0 0 0 0 0 0 0 0 0 0 0 0 0 0 0 0 0 0 0 0 0 0 0 0
2970 2970 3004 3009 3050 3082 3095 3114 3122 3127 3149 3159 3162 3165 3168 3172 3187 3209 3233 3252 3253 3263 3292 3320 3333 3340 3342 3344 3356 3361 3361 3361 3361 3361 3361 3363 3368 3369 3375 3376 3377 3378 3378 3391 3391 3394 3394 3394 3394 3400 3402 3402 3402 3398 3398 3398 3402 3407 3412 3421 3421 3421 3417 3417 3417 3421 3433 3439 3439 3439 3429 3365 3350 3323 3278 3213 3160 3123 3017 2856 2740 2678 2646 2617 2590 2561 2538 2517 2515 2496 0 0 0 0 0 0 0 0 0 1657 1648 1639 1639 1638 1638 1639 1639 1638 1638 1638 1638 1638 1637 1636 1635 1635 1633 1632 1628 1626 1620 1618 1615 1614 1612 1611 1609 1608 1608 1608 1608 1609 1609 1609 1607 1607 1607 1615 1621 1624 1625 1625 1626 1626 1626 1627 1627 1627 1627 1626 1626 1625 1625 1625 1624 1624 1624 1624 1624 1624 1622 1620 1616 1614 1614 1614 1613 1614 1614 1614 1614 1616 1617 1618 1618 1618 1617 1616 1615 1615 1615 1616 1619 1620 1621 1623 1624 1625 1626 1626 1626 1625 1625 1625 1625 1625 1624 1624 1625 1624 1624 1624 1624 1624 1624 1623 1623 1623 1622 1621 1621 1621 1621 1620 1619 1618 1618 1618 1618 1618 1619 1619 1619 1619 1619 1619 1619 1619 1619 1619 1619 1618 1617 1616 1616 1615 1614 1614 1614 1614 1615 1615 1616 1616 1616 1616 1615 1615 1615 1617 1617 1617 1617 1617 1617 1617 1617 1617 1617 1616 1616 1615 1615 1614 1613 1613 1612 1612 1612 1611 1611 1611 1610 1609 1609 1608 1608 1608 1607 1606 1606 1606 1606 1606 1606 1606 1606 1606 1606 1607 1607 1607 1608 1608 1608 1608 1608 1608 1608 1608 1608 1607 1607 1606 1605 1605 1605 1604 1604 1603 1602 1602 1602 1601 1601 1600 1600 1599 1599 1598 1597 1596 1596 1596 1595 1595 1593 1593 1592 1591 1591 1591 1592 1592 1592 1592 1593 1593 1593 1595 1597 1597 1597 1598 1598 1599 1600 1600 1600 1600 1600 1600 1600 1599 1599 1598 1597 1596 1595 1594 1593 1592 1592 1592 1591 1590 1588 1587 1586 1586 1586 1586 1586 1586 1586 1586 1586 1586 1585 1585 1584 1583 1582 1581 1580 1580 1579 1579 1578 1578 1577 1576 1575 1575 1573 1571 1568 1566 1563 1563 1560 1560 1559 1558 1558 1556 1555 1555 1555 1555 1556 1557 1558 1559 1561 1561 1561 1561 1559 1558 1555 1555 1554 1552 1551 1550 1550 1550 1555 1557 1558 1558 1561 1564 1565 1572 1594 1615 1641 1664 1680 1712 1716 1719 1721 1725 1726 1727 1727 1731 1732 1734 1735 1737 1738 1739 1740 1740 1741 1741 1741 1741 1741 1741 1741 1742 1742 1742 1742 1742 1742 1741 1741 1741 1742 1743 1743 1743 1743 1743 1743 1743 1745 1749 1752 1756 1761 1765 1772 1778 1782 1787 1793 1797 1798 1800 1801 1802 1802 1808 1808 1808 0 0 0 0 1415 1412 1407 1406 1400 1384 0 0 0 0 0 0 0 0 0 0 0 0 0 0 0 0 0 0 0 0 0 0 0 0 0 0 0 0 0 0 0 0 0 0 0 0 0 0 0 0 0 0 0 0 0 0 0 0 0 0 0 0 0 0 0 0 0 0 0 0 0 0 0 0 0 0 0 0 0 0 0 0 0 0 0 0 0 0 0 0 0 0 0 0 0 0 0 0 0 0 0 0 0 0 0 0 0 0 0 0 0 0 0 0 0 0 0 0 0 0 0 0 0 0 0 0 0 0 0 0 0 0 0 0 0 0 0 0
3003 3003 3007 3034 3055 3082 3091 3104 3104 3125 3148 3159 3162 3165 3168 3172 3187 3208 3227 3241 3252 3263 3285 3312 3333 3340 3342 3344 3356 3361 3362 3362 3366 3366 3367 3368 3369 3373 3376 3376 3377 3378 3378 3391 3393 3394 3394 3394 3394 3400 3402 3402 3402 3400 3400 3400 3402 3407 3415 3421 3421 3421 3419 3419 3419 3423 3433 3443 3443 3444 3447 3454 3463 3469 3469 3469 3468 3465 3414 3348 3312 3296 3278 3240 3179 3051 2938 2844 2844 2761 2663 2528 0 0 0 0 0 0 0 1655 1646 1639 1639 1638 1639 1639 1639 1639 1639 1638 1638 1638 1637 1636 1635 1635 1633 1629 1626 1624 1619 1616 1613 1612 1611 1610 1608 1606 1606 1606 1606 1607 1607 1607 1607 1607 1607 1615 1621 1624 1625 1625 1627 1627 1627 1628 1628 1628 1628 1627 1627 1627 1626 1625 1625 1625 1625 1625 1624 1624 1622 1620 1616 1614 1613 1613 1611 1611 1609 1607 1607 1607 1607 1610 1610 1610 1610 1608 1608 1608 1609 1615 1619 1620 1621 1624 1625 1627 1627 1627 1627 1627 1626 1626 1626 1626 1626 1626 1626 1626 1625 1625 1625 1625 1624 1622 1622 1622 1621 1621 1621 1620 1619 1619 1617 1617 1616 1616 1616 1616 1616 1617 1618 1618 1619 1619 1619 1619 1619 1619 1619 1618 1618 1618 1618 1617 1616 1616 1616 1617 1617 1617 1617 1617 1617 1616 1616 1616 1616 1617 1618 1618 1618 1617 1617 1617 1617 1617 1617 1616 1615 1615 1614 1614 1613 1612 1612 1611 1611 1611 1611 1611 1610 1609 1608 1608 1608 1608 1607 1607 1606 1606 1606 1606 1606 1606 1606 1606 1606 1607 1607 1607 1607 1607 1607 1607 1607 1607 1607 1607 1607 1607 1607 1605 1605 1605 1604 1603 1603 1602 1601 1601 1600 1600 1600 1600 1599 1599 1598 1598 1597 1597 1597 1597 1596 1595 1594 1593 1593 1592 1592 1592 1592 1592 1593 1593 1593 1594 1594 1595 1597 1597 1597 1598 1599 1600 1600 1601 1601 1601 1601 1600 1600 1599 1599 1598 1598 1596 1595 1595 1595 1594 1594 1593 1591 1590 1589 1588 1588 1587 1587 1587 1587 1587 1587 1587 1587 1586 1586 1586 1585 1584 1583 1582 1581 1581 1581 1580 1580 1580 1580 1579 1578 1577 1576 1575 1573 1570 1567 1566 1565 1563 1562 1562 1561 1560 1559 1559 1559 1559 1560 1561 1563 1566 1568 1568 1568 1565 1562 1561 1560 1559 1558 1557 1555 1555 1555 1555 1560 1563 1563 1567 1572 1575 1578 1591 1611 1641 1664 1680 1702 1714 1721 1722 1723 1726 1727 1727 1728 1732 1733 1735 1735 1737 1739 1740 1741 1741 1741 1742 1742 1742 1743 1743 1743 1744 1744 1744 1744 1744 1743 1743 1743 1743 1743 1744 1744 1744 1745 1747 1747 1747 1749 1753 1756 1758 1762 1768 1775 1781 1783 1789 1793 1798 1798 1800 1801 1802 1802 1806 1806 1806 0 0 0 0 1405 1403 1403 1403 1392 1376 0 0 0 0 0 0 0 0 0 0 0 0 0 0 0 0 0 0 0 0 0 0 0 0 0 0 0 0 0 0 0 0 0 0 0 0 0 0 0 0 0 0 0 0 0 0 0 0 0 0 0 0 0 0 0 0 0 0 0 0 0 0 0 0 0 0 0 0 0 0 0 0 0 0 0 0 0 0 0 0 0 0 0 0 0 0 0 0 0 0 0 0 0 0 0 0 0 0 0 0 0 0 0 0 0 0 0 0 0 0 0 0 0 0 0 0 0 0 0 0 0 0 0 0 0 0 0 0
3003 3003 3007 3034 3055 3082 3088 3094 3103 3118 3136 3159 3173 3177 3178 3178 3187 3208 3227 3239 3250 3263 3285 3312 3334 3338 3342 3344 3356 3361 3362 3362 3366 3368 3371 3372 3374 3374 3376 3376 3377 3378 3378 3391 3395 3399 3402 3402 3408 3408 3408 3407 3406 3401 3401 3401 3405 3409 3417 3421 3421 3421 3422 3422 3422 3424 3433 3443 3443 3444 3447 3455 3467 3470 3470 3470 3470 3470 3470 3471 3485 3499 3512 3512 3512 3497 3437 3407 3403 3347 3306 3200 3042 2896 2764 0 0 0 0 0 1637 1637 1637 1637 1638 1639 1639 1639 1639 1638 1638 1638 1637 1636 1635 1634 1632 1628 1626 1621 1617 1614 1612 1611 1610 1609 1607 1605 1605 1605 1605 1605 1606 1606 1606 1606 1606 1614 1621 1624 1625 1625 1627 1628 1628 1629 1629 1629 1629 1629 1628 1628 1628 1628 1627 1627 1627 1626 1626 1624 1622 1620 1616 1614 1613 1612 1611 1610 1608 1607 1606 1606 1606 1606 1607 1607 1607 1606 1606 1606 1609 1615 1619 1620 1622 1624 1626 1627 1628 1628 1628 1627 1627 1627 1626 1626 1627 1627 1626 1626 1625 1625 1625 1625 1624 1622 1621 1621 1621 1620 1618 1616 1616 1615 1615 1613 1613 1613 1614 1614 1614 1614 1614 1614 1615 1618 1618 1619 1619 1619 1619 1619 1619 1619 1618 1618 1618 1617 1617 1617 1617 1617 1618 1618 1618 1617 1616 1616 1616 1617 1617 1617 1617 1617 1616 1616 1616 1615 1615 1615 1615 1614 1614 1613 1612 1612 1611 1611 1610 1610 1610 1610 1610 1609 1608 1608 1608 1608 1607 1607 1607 1607 1607 1607 1607 1606 1606 1606 1606 1606 1606 1606 1606 1606 1607 1607 1607 1607 1607 1607 1606 1606 1606 1605 1605 1604 1603 1603 1602 1602 1601 1600 1600 1600 1600 1599 1599 1598 1598 1598 1598 1598 1597 1597 1596 1596 1595 1594 1593 1592 1592 1592 1593 1593 1593 1593 1593 1594 1594 1595 1597 1597 1597 1598 1599 1600 1600 1601 1601 1601 1601 1601 1600 1599 1599 1598 1598 1597 1597 1597 1596 1596 1594 1593 1592 1591 1589 1588 1588 1588 1588 1588 1588 1589 1589 1589 1588 1588 1588 1587 1586 1586 1585 1584 1583 1582 1582 1582 1582 1582 1582 1582 1582 1581 1581 1580 1579 1577 1571 1570 1569 1568 1566 1565 1564 1563 1563 1563 1563 1563 1565 1569 1571 1573 1573 1573 1573 1569 1566 1565 1564 1564 1563 1560 1559 1559 1559 1560 1565 1568 1572 1580 1590 1592 1596 1610 1638 1663 1674 1695 1709 1714 1721 1722 1724 1726 1727 1728 1730 1732 1734 1735 1736 1737 1739 1740 1741 1742 1742 1743 1744 1744 1744 1745 1745 1745 1745 1745 1745 1745 1745 1745 1745 1745 1745 1745 1745 1746 1746 1748 1750 1752 1753 1756 1758 1761 1764 1769 1775 1781 1787 1791 1796 1800 1801 1801 1802 1802 1802 1802 1802 1799 0 0 0 0 1402 1402 1401 1401 1392 1375 0 0 0 0 0 0 0 0 0 0 0 0 0 0 0 0 0 0 0 0 0 0 0 0 0 0 0 0 0 0 0 0 0 0 0 0 0 0 0 0 0 0 0 0 0 0 0 0 0 0 0 0 0 0 0 0 0 0 0 0 0 0 0 0 0 0 0 0 0 0 0 0 0 0 0 0 0 0 0 0 0 0 0 0 0 0 0 0 0 0 0 0 0 0 0 0 0 0 0 0 0 0 0 0 0 0 0 0 0 0 0 0 0 0 0 0 0 0 0 0 0 0 0 0 0 0 0 0
3003 3003 3004 3034 3055 3061 3068 3083 3094 3109 3135 3159 3173 3177 3180 3180 3180 3206 3219 3234 3250 3265 3285 3312 3330 3334 3335 3343 3357 3361 3362 3364 3368 3368 3372 3373 3375 3377 3378 3378 3379 3379 3381 3391 3395 3399 3402 3402 3408 3411 3411 3411 3407 3402 3402 3402 3406 3412 3417 3421 3421 3421 3422 3422 3422 3424 3430 3440 3440 3443 3445 3455 3467 3473 3473 3473 3472 3472 3472 3478 3490 3503 3514 3518 3519 3529 3548 3548 3548 3541 3517 3487 3436 3329 3223 2632 0 0 0 0 1637 1637 1637 1637 1638 1638 1639 1638 1638 1638 1638 1637 1637 1636 1635 1634 1631 1628 1625 1620 1616 1613 1611 1609 1609 1609 1606 1604 1604 1604 1603 1603 1603 1604 1603 1604 1604 1613 1620 1624 1625 1625 1627 1628 1629 1629 1630 1630 1630 1630 1630 1630 1630 1630 1628 1628 1628 1627 1627 1625 1622 1620 1616 1614 1613 1612 1611 1610 1608 1607 1605 1603 1603 1603 1605 1605 1605 1605 1605 1605 1609 1615 1619 1620 1622 1625 1626 1627 1628 1628 1628 1628 1628 1627 1627 1627 1627 1627 1627 1626 1626 1626 1625 1625 1624 1622 1621 1620 1620 1618 1616 1616 1614 1612 1610 1610 1610 1611 1611 1612 1613 1613 1613 1613 1614 1618 1618 1619 1619 1619 1619 1619 1619 1619 1619 1619 1619 1619 1618 1618 1618 1618 1618 1618 1618 1618 1617 1617 1617 1617 1617 1617 1617 1617 1616 1615 1615 1615 1615 1614 1614 1613 1612 1612 1611 1611 1611 1610 1610 1609 1609 1609 1609 1609 1608 1608 1608 1608 1607 1607 1607 1607 1607 1607 1607 1607 1606 1606 1606 1606 1606 1606 1606 1606 1607 1607 1607 1607 1606 1606 1606 1606 1605 1605 1604 1603 1603 1603 1602 1601 1601 1600 1600 1599 1599 1599 1598 1598 1598 1598 1598 1598 1598 1598 1597 1596 1595 1594 1594 1593 1593 1593 1593 1593 1593 1593 1594 1594 1595 1596 1597 1597 1598 1598 1599 1600 1600 1601 1601 1601 1601 1601 1600 1600 1599 1599 1598 1598 1598 1597 1596 1596 1594 1593 1593 1591 1590 1589 1589 1589 1590 1590 1590 1592 1592 1592 1591 1590 1589 1588 1588 1587 1587 1585 1584 1583 1583 1583 1583 1584 1584 1585 1586 1586 1586 1586 1586 1584 1577 1573 1572 1571 1571 1570 1569 1569 1569 1569 1569 1570 1572 1574 1576 1578 1578 1578 1578 1575 1573 1571 1569 1568 1567 1566 1564 1564 1564 1566 1570 1573 1581 1595 1604 1609 1619 1640 1666 1675 1686 1711 1712 1714 1721 1722 1724 1726 1727 1728 1730 1732 1734 1735 1736 1738 1739 1740 1741 1742 1743 1744 1745 1745 1745 1746 1746 1747 1747 1747 1747 1747 1747 1746 1747 1747 1747 1747 1747 1748 1749 1750 1751 1753 1753 1756 1759 1761 1764 1769 1775 1781 1787 1792 1796 1800 1802 1803 1803 1805 1805 1805 1805 1798 0 0 0 0 1402 1402 1414 1414 1414 1362 0 0 0 0 0 0 0 0 0 0 0 0 0 0 0 0 0 0 0 0 0 0 0 0 0 0 0 0 0 0 0 0 0 0 0 0 0 0 0 0 0 0 0 0 0 0 0 0 0 0 0 0 0 0 0 0 0 0 0 0 0 0 0 0 0 0 0 0 0 0 0 0 0 0 0 0 0 0 0 0 0 0 0 0 0 0 0 0 0 0 0 0 0 0 0 0 0 0 0 0 0 0 0 0 0 0 0 0 0 0 0 0 0 0 0 0 0 0 0 0 0 0 0 0 0 0 0 0
