0 0 0 0 0 0 0 2754 2769 2812 2846 2855 2859 2887 2940 2973 3001 3016 3022 3024 3026 3027 3043 3073 3098 3102 3102 3108 3108 3108 3131 3131 3131 3127 3127 3127 3127 3128 3146 3148 3148 3148 3146 3146 3146 3151 3163 3163 3167 3171 3173 3173 3196 3208 3208 3208 3210 3207 3207 3211 3211 3217 3231 3247 3256 3268 3273 3284 3300 3309 3321 3321 3326 3326 3326 3327 3327 3327 3321 3321 3321 3321 3330 3337 3347 3350 3350 3350 3349 3341 3333 3306 3306 3306 3313 3418 3440 3443 3453 3467 3480 3484 3484 3484 3488 3488 3488 3490 3490 3493 3493 3493 3487 3483 3483 3483 3489 3489 3490 3493 3490 3489 3488 3481 3478 3477 3476 3474 3470 3463 3459 3454 3445 3445 3445 3446 3447 3456 3456 3456 3453 3444 3433 3433 3423 3433 3451 3451 3465 3465 3465 3461 3456 3435 3425 3425 3425 3427 3435 3436 3436 3436 3435 3433 3429 3428 3428 3428 3428 3428 3426 3423 3418 3418 3418 3422 3428 3430 3431 3432 3434 3435 3439 3440 3440 3439 3396 3342 3226 2930 2657 2478 2395 2375 2368 2358 2349 2343 2335 2331 2330 2329 2329 2328 2325 2320 2315 2307 2296 2289 2273 2268 2266 2264 2262 2258 2250 2243 2235 2229 2229 2228 2225 2222 2221 2221 2221 2223 2225 2226 2226 2225 2211 2187 2171 2161 2155 2144 2125 2112 2100 2091 2081 2051 2012 1986 1951 1904 1903 1901 1898 1898 1898 1913 1948 1982 1988 2000 2006 2006 2006 2006 2006 2006 2006 2006 2006 2005 2003 2002 2000 1999 1998 1997 1996 1995 1995 1993 1991 1989 1988 1986 1985 1984 1984 1983 1983 1983 1983 1983 1983 1983 1983 1983 1982 1980 1980 1980 1980 1980 1980 1976 1971 1968 1964 1938 1899 1862 1851 1840 1830 1816 1799 1789 1783 1782 1781 1781 1781 1777 1777 1777 1785 1794 1796 1797 1799 1802 1803 1805 1807 1812 1819 1827 1831 1831 1831 1842 1859 1869 1875 1878 1893 1907 1921 1929 1929 1930 1930 1930 1931 1931 1931 1931 1931 1928 1923 1916 1916 1914 1913 1913 1912 1912 1912 1913 1915 1919 1921 1924 1928 1933 1935 1936 1942 1947 1949 1950 1950 1950 1950 1949 1949 1949 1949 1948 1947 1947 1947 1947 1946 1946 1946 1946 1946 1946 1945 1945 1946 1946 1946 1946 1945 1945 1945 1944 1944 1943 1943 1942 1942 1942 1943 1944 1945 1945 1947 1948 1949 1950 1953 1955 1957 1960 1961 1963 1966 1970 1974 1976 1980 1983 1986 1991 1994 1994 1995 1995 1996 1998 1999 1999 2000 2002 2009 2017 2020 2026 2034 2037 2050 2050 2050 2049 2047 2043 2035 2029 2029 2029 2038 2038 2038 2028 0 0 0 0 0 0 0 0 0 1601 1597 1595 1593 1590 1588 1581 1579 1579 1578 1577 1575 1574 1570 1565 1564 1562 1560 1559 1557 1556 1553 1551 1548 1545 1543 1541 1539 1538 1535 1532 1529 1526 1524 1522 1520 1518 1516 1514 1513 1511 1509 1508 1506 1505 1503 1501 1499 1498 1495 1494 1493 1491 1489 1487 1485 1483 1481 1479 1477 1475 1473 1470 1468 1466 1464 1460 1460 1459 1459 1455 1448 1442 1439 1431 1396 0 0 0 0 0 0 0 0 0 0 0 0 0 0 0 0 0 0 0 0 0 0 0 0 0 0 0 0 0 0 0 0 0 0 0 0 0 0 0 0 0 0 0 0 0 0 0 0 0 0 0 0 0 0 0 0 0 0 0 0 0 0 0 0 0 0 0 0 0 0 0 0 0 0 0 0 0 0 0 0 0 0 0 0 0 0 0 0 0 0 0
0 0 0 0 0 2712 2750 2764 2805 2872 2882 2912 2958 2984 2999 3001 3021 3024 3032 3033 3039 3046 3057 3073 3098 3105 3105 3115 3115 3117 3144 3145 3145 3145 3133 3133 3133 3137 3146 3148 3148 3148 3146 3146 3146 3151 3163 3171 3171 3175 3181 3192 3210 3216 3219 3219 3219 3219 3221 3229 3238 3247 3257 3262 3269 3278 3284 3305 3326 3337 3337 3337 3336 3336 3336 3353 3353 3353 3341 3341 3341 3341 3348 3356 3358 3366 3366 3366 3364 3355 3334 3307 3307 3307 3321 3418 3443 3448 3458 3471 3480 3486 3486 3486 3488 3488 3488 3490 3491 3493 3493 3493 3490 3487 3487 3487 3489 3489 3490 3493 3490 3489 3488 3480 3478 3474 3471 3469 3461 3455 3448 3444 3436 3433 3433 3433 3444 3454 3454 3454 3453 3445 3443 3443 3441 3433 3423 3423 3423 3431 3447 3447 3447 3442 3425 3425 3425 3427 3430 3430 3430 3428 3425 3425 3424 3425 3428 3428 3428 3428 3427 3423 3420 3420 3420 3422 3427 3428 3431 3431 3435 3435 3439 3440 3440 3439 3396 3332 3200 2857 2569 2443 2377 2366 2361 2354 2348 2341 2335 2335 2335 2333 2329 2328 2325 2320 2315 2307 2297 2289 2283 2271 2267 2264 2263 2259 2251 2245 2238 2235 2234 2233 2233 2226 2224 2224 2224 2224 2226 2228 2228 2226 2220 2197 2178 2170 2161 2151 2136 2123 2111 2097 2082 2053 2014 1996 1951 1905 1905 1905 1905 1908 1909 1919 1945 1974 1991 2000 2004 2005 2006 2006 2006 2006 2006 2006 2005 2005 2003 2002 2000 1999 1998 1997 1996 1995 1994 1993 1991 1989 1988 1986 1985 1984 1983 1983 1982 1982 1982 1982 1982 1982 1982 1982 1981 1979 1979 1979 1979 1979 1979 1970 1965 1957 1933 1900 1856 1841 1830 1817 1807 1791 1781 1775 1775 1775 1776 1776 1776 1775 1775 1775 1777 1786 1795 1796 1799 1802 1803 1805 1805 1812 1818 1822 1822 1822 1823 1824 1831 1845 1854 1864 1866 1871 1883 1904 1915 1922 1928 1929 1929 1930 1930 1930 1930 1927 1920 1915 1913 1912 1912 1912 1911 1911 1911 1911 1913 1916 1918 1922 1927 1931 1934 1936 1939 1943 1947 1949 1949 1949 1949 1949 1949 1949 1949 1948 1948 1948 1947 1947 1947 1947 1947 1946 1946 1946 1946 1946 1946 1946 1946 1946 1946 1945 1945 1944 1944 1943 1943 1942 1942 1942 1943 1944 1944 1945 1946 1948 1949 1951 1953 1955 1957 1959 1960 1962 1966 1970 1974 1976 1979 1980 1981 1985 1989 1990 1991 1991 1995 1997 1998 1999 1999 2001 2003 2007 2014 2020 2023 2032 2039 2039 2039 2034 2033 2031 2024 2016 0 0 0 0 0 0 0 0 0 0 0 0 0 1609 1604 1601 1596 1594 1591 1588 1583 1581 1579 1579 1577 1576 1575 1572 1570 1565 1564 1562 1560 1559 1557 1555 1553 1551 1547 1545 1543 1541 1539 1537 1534 1532 1529 1526 1524 1522 1520 1518 1516 1514 1513 1511 1509 1508 1506 1503 1502 1500 1498 1497 1495 1493 1491 1490 1488 1486 1484 1483 1481 1479 1477 1475 1471 1470 1468 1465 1463 1460 1460 1459 1459 1455 1448 1442 1439 1431 0 0 0 0 0 0 0 0 0 0 0 0 0 0 0 0 0 0 0 0 0 0 0 0 0 0 0 0 0 0 0 0 0 0 0 0 0 0 0 0 0 0 0 0 0 0 0 0 0 0 0 0 0 0 0 0 0 0 0 0 0 0 0 0 0 0 0 0 0 0 0 0 0 0 0 0 0 0 0 0 0 0 0 0 0 0 0 0 0 0 0 0
0 0 0 0 2607 2785 2809 2811 2842 2875 2915 2960 2979 2989 2999 3001 3021 3024 3037 3038 3043 3047 3058 3079 3098 3110 3110 3116 3117 3117 3150 3150 3153 3156 3153 3153 3153 3153 3151 3151 3151 3151 3146 3146 3146 3151 3163 3170 3175 3181 3189 3207 3223 3234 3234 3234 3227 3227 3227 3241 3261 3273 3277 3278 3281 3281 3290 3312 3327 3338 3338 3338 3337 3337 3337 3357 3357 3357 3348 3348 3348 3356 3364 3365 3366 3374 3380 3380 3380 3361 3334 3307 3307 3307 3350 3425 3446 3454 3466 3478 3484 3490 3490 3490 3488 3488 3488 3490 3491 3493 3493 3493 3490 3489 3489 3489 3489 3489 3489 3489 3488 3487 3486 3479 3467 3459 3459 3457 3454 3448 3446 3437 3431 3431 3431 3433 3444 3450 3453 3453 3453 3448 3448 3448 3448 3448 3423 3423 3423 3426 3445 3445 3445 3442 3425 3425 3425 3427 3429 3429 3429 3424 3419 3419 3419 3420 3424 3428 3428 3428 3428 3423 3420 3420 3420 3422 3424 3428 3428 3431 3435 3439 3439 3439 3439 3429 3396 3332 3093 2714 2548 2434 2377 2366 2361 2354 2348 2341 2337 2336 2335 2333 2329 2328 2325 2320 2314 2309 2297 2291 2284 2275 2267 2264 2263 2260 2253 2246 2242 2239 2237 2235 2233 2229 2226 2225 2225 2225 2229 2230 2230 2230 2226 2206 2191 2182 2170 2156 2143 2130 2119 2102 2086 2078 2040 1998 1952 1916 1909 1909 1909 1912 1920 1927 1944 1962 1988 2000 2004 2005 2005 2005 2005 2005 2005 2005 2005 2005 2003 2002 2000 1999 1998 1997 1996 1995 1993 1993 1991 1989 1988 1986 1984 1984 1983 1982 1982 1981 1981 1981 1981 1980 1980 1979 1978 1976 1976 1976 1974 1973 1973 1967 1952 1925 1895 1852 1834 1821 1800 1787 1779 1777 1775 1774 1774 1773 1771 1770 1770 1770 1772 1772 1774 1778 1790 1795 1798 1801 1804 1804 1805 1811 1816 1818 1818 1819 1820 1821 1822 1824 1830 1841 1853 1861 1866 1876 1889 1903 1919 1924 1926 1926 1930 1930 1930 1924 1918 1915 1912 1912 1911 1910 1910 1910 1910 1910 1912 1914 1914 1920 1926 1930 1934 1936 1939 1943 1945 1948 1948 1949 1949 1949 1949 1949 1949 1949 1948 1948 1948 1948 1948 1948 1947 1947 1946 1946 1946 1946 1946 1946 1946 1946 1946 1945 1945 1944 1944 1943 1943 1943 1943 1943 1943 1944 1944 1945 1946 1948 1949 1951 1953 1955 1957 1958 1960 1962 1966 1970 1974 1976 1979 1980 1981 1983 1987 1988 1988 1991 1994 1996 1998 1998 1998 1999 2000 2001 2005 2008 2012 2015 2020 2020 2020 2016 2013 2002 0 0 0 0 0 0 0 0 0 0 0 1620 1619 1612 1610 1607 1604 1599 1596 1594 1591 1587 1583 1581 1581 1579 1577 1575 1572 1570 1566 1564 1563 1562 1560 1557 1555 1553 1552 1550 1547 1545 1543 1541 1539 1536 1533 1531 1528 1526 1524 1522 1520 1518 1516 1514 1512 1511 1508 1507 1504 1503 1502 1500 1498 1496 1495 1493 1491 1489 1487 1486 1483 1482 1481 1479 1476 1473 1471 1468 1467 1464 1462 1460 1460 1460 1460 1455 1448 1442 1431 1429 0 0 0 0 0 0 0 0 0 0 0 0 0 0 0 0 0 0 0 0 0 0 0 0 0 0 0 0 0 0 0 0 0 0 0 0 0 0 0 0 0 0 0 0 0 0 0 0 0 0 0 0 0 0 0 0 0 0 0 0 0 0 0 0 0 0 0 0 0 0 0 0 0 0 0 0 0 0 0 0 0 0 0 0 0 0 0 0 0 0 0 0
0 0 0 0 0 2847 2850 2857 2861 2896 2951 2972 2979 2989 2999 3001 3021 3027 3038 3043 3049 3051 3058 3080 3098 3117 3117 3117 3117 3117 3150 3152 3156 3156 3160 3167 3167 3167 3159 3155 3153 3153 3149 3153 3153 3156 3166 3171 3178 3183 3190 3207 3231 3243 3243 3243 3244 3244 3245 3267 3281 3287 3289 3289 3290 3294 3294 3313 3331 3338 3338 3338 3342 3342 3343 3359 3359 3359 3355 3355 3355 3363 3369 3371 3373 3380 3387 3387 3387 3362 3334 3315 3315 3315 3378 3443 3457 3469 3475 3483 3489 3492 3492 3492 3490 3490 3490 3490 3491 3494 3494 3494 3492 3490 3490 3489 3489 3488 3483 3483 3483 3482 3482 3476 3464 3459 3459 3457 3454 3448 3443 3437 3431 3431 3431 3433 3444 3450 3452 3452 3452 3449 3449 3449 3449 3449 3439 3426 3426 3423 3426 3433 3437 3437 3437 3424 3424 3424 3428 3428 3428 3423 3419 3419 3419 3419 3422 3427 3428 3428 3428 3423 3422 3422 3422 3423 3424 3427 3430 3435 3440 3441 3440 3435 3426 3401 3349 3280 3054 2714 2515 2430 2377 2366 2361 2354 2348 2339 2339 2339 2335 2333 2329 2327 2323 2320 2315 2309 2297 2291 2284 2275 2267 2265 2263 2260 2253 2251 2247 2243 2239 2237 2233 2232 2230 2228 2228 2228 2229 2232 2232 2232 2232 2216 2200 2192 2177 2157 2144 2136 2126 2119 2113 2094 2060 2010 1970 1926 1909 1909 1909 1923 1934 1934 1944 1956 1986 1998 2003 2005 2005 2005 2005 2005 2005 2005 2005 2005 2003 2002 2000 1999 1998 1997 1995 1995 1993 1992 1990 1989 1988 1986 1984 1983 1982 1981 1981 1980 1979 1979 1978 1978 1978 1978 1975 1972 1971 1970 1967 1964 1963 1949 1916 1888 1851 1838 1825 1802 1781 1775 1774 1773 1773 1773 1770 1770 1767 1765 1764 1764 1764 1768 1773 1776 1783 1795 1797 1800 1804 1804 1805 1808 1814 1814 1815 1815 1816 1818 1819 1823 1827 1828 1830 1839 1854 1865 1869 1873 1881 1899 1909 1914 1920 1923 1923 1923 1918 1913 1910 1909 1909 1909 1909 1908 1908 1908 1910 1912 1914 1917 1922 1928 1931 1935 1939 1943 1945 1947 1947 1948 1949 1949 1949 1949 1949 1949 1949 1949 1949 1949 1949 1949 1948 1947 1947 1946 1946 1946 1946 1946 1946 1945 1945 1945 1945 1944 1944 1943 1943 1943 1943 1943 1943 1943 1944 1945 1946 1948 1949 1951 1953 1956 1957 1958 1960 1962 1966 1971 1974 1977 1978 1979 1980 1983 1987 1987 1988 1990 1993 1994 1994 1994 1993 1992 1991 1991 1991 1992 1994 1995 1997 1995 0 0 0 0 0 0 0 0 0 0 0 0 1627 1621 1618 1618 1616 1611 1610 1606 1599 1598 1596 1594 1591 1587 1583 1582 1581 1580 1577 1574 1571 1568 1566 1564 1563 1561 1559 1556 1554 1553 1550 1550 1547 1545 1542 1539 1538 1535 1532 1530 1528 1525 1524 1522 1520 1518 1516 1514 1512 1510 1508 1507 1504 1503 1501 1499 1498 1496 1494 1492 1490 1489 1487 1486 1483 1482 1480 1478 1475 1473 1470 1468 1466 1464 1462 1460 1460 1460 1460 1453 1443 1433 1421 1394 0 0 0 0 0 0 0 0 0 0 0 0 0 0 0 0 0 0 0 0 0 0 0 0 0 0 0 0 0 0 0 0 0 0 0 0 0 0 0 0 0 0 0 0 0 0 0 0 0 0 0 0 0 0 0 0 0 0 0 0 0 0 0 0 0 0 0 0 0 0 0 0 0 0 0 0 0 0 0 0 0 0 0 0 0 0 0 0 0 0 0 0
0 0 0 0 2902 2902 2902 2902 2906 2947 2972 2976 2979 2988 2989 2999 3001 3027 3038 3048 3052 3055 3058 3080 3098 3114 3114 3117 3117 3117 3150 3152 3156 3156 3160 3168 3168 3168 3159 3154 3153 3153 3149 3153 3156 3158 3166 3174 3179 3185 3192 3209 3239 3256 3256 3256 3257 3257 3257 3275 3286 3291 3296 3298 3300 3305 3307 3321 3335 3338 3340 3342 3345 3345 3352 3361 3364 3366 3366 3366 3366 3371 3372 3374 3380 3380 3387 3387 3387 3362 3320 3315 3315 3315 3379 3443 3459 3469 3480 3485 3491 3492 3492 3493 3494 3495 3495 3495 3495 3495 3494 3494 3492 3492 3490 3489 3488 3482 3480 3480 3478 3478 3478 3474 3464 3459 3457 3457 3454 3448 3443 3437 3431 3431 3431 3437 3444 3450 3452 3452 3452 3451 3451 3451 3463 3474 3474 3474 3454 3433 3433 3433 3435 3435 3435 3428 3428 3428 3428 3428 3428 3423 3419 3419 3419 3419 3422 3427 3428 3428 3428 3423 3423 3423 3423 3424 3425 3427 3430 3452 3452 3452 3448 3445 3426 3387 3321 3220 2974 2678 2506 2424 2386 2373 2369 2357 2348 2340 2339 2339 2337 2333 2329 2327 2322 2318 2313 2309 2297 2292 2287 2275 2267 2266 2263 2260 2254 2251 2249 2246 2243 2241 2238 2237 2235 2235 2232 2232 2232 2234 2236 2236 2236 2218 2203 2197 2181 2160 2147 2140 2133 2128 2123 2106 2074 2043 2008 1955 1908 1908 1908 1923 1936 1939 1941 1950 1979 1998 2002 2005 2005 2005 2005 2005 2005 2005 2005 2005 2003 2002 2000 1999 1998 1997 1995 1994 1993 1991 1990 1989 1988 1986 1984 1983 1982 1980 1980 1979 1979 1978 1977 1976 1975 1973 1973 1971 1970 1967 1963 1962 1955 1912 1886 1851 1842 1830 1811 1787 1770 1770 1770 1766 1766 1766 1765 1764 1762 1761 1761 1761 1762 1763 1769 1774 1778 1785 1795 1800 1803 1804 1804 1808 1809 1810 1810 1810 1810 1813 1816 1820 1824 1826 1828 1831 1831 1840 1856 1862 1867 1871 1878 1896 1906 1913 1918 1918 1918 1913 1910 1907 1907 1906 1906 1906 1906 1907 1908 1911 1913 1916 1920 1924 1928 1934 1939 1942 1945 1946 1947 1948 1948 1949 1949 1949 1950 1950 1950 1950 1950 1950 1950 1950 1949 1948 1947 1947 1946 1946 1946 1946 1946 1945 1945 1945 1945 1944 1944 1944 1944 1943 1943 1943 1943 1943 1943 1944 1946 1948 1949 1951 1954 1956 1957 1958 1960 1962 1966 1972 1975 1977 1978 1979 1980 1982 1986 1986 1987 1987 1990 1990 1990 1989 1988 1987 1978 1977 1977 1976 0 0 0 0 0 0 0 0 0 0 0 1648 1639 1636 1636 1631 1626 1619 1614 1614 1611 1610 1606 1605 1600 1598 1596 1595 1591 1587 1585 1583 1581 1580 1577 1574 1571 1568 1566 1564 1562 1560 1558 1556 1554 1553 1550 1548 1546 1544 1541 1539 1536 1533 1531 1529 1527 1525 1523 1521 1520 1518 1516 1513 1512 1509 1508 1507 1504 1502 1501 1499 1498 1496 1493 1491 1490 1488 1486 1484 1483 1481 1479 1476 1474 1472 1470 1468 1466 1464 1462 1460 1460 1460 1460 1451 1443 1433 1416 0 0 0 0 0 0 0 0 0 0 0 0 0 0 0 0 0 0 0 0 0 0 0 0 0 0 0 0 0 0 0 0 0 0 0 0 0 0 0 0 0 0 0 0 0 0 0 0 0 0 0 0 0 0 0 0 0 0 0 0 0 0 0 0 0 0 0 0 0 0 0 0 0 0 0 0 0 0 0 0 0 0 0 0 0 0 0 0 0 0 0 0 0
0 0 0 0 2902 2906 2908 2920 2937 2971 2976 2979 2981 2988 2989 2999 3001 3037 3050 3057 3065 3070 3081 3102 3114 3114 3114 3117 3117 3117 3134 3145 3149 3152 3160 3168 3168 3168 3161 3156 3155 3155 3155 3155 3157 3159 3168 3174 3181 3188 3200 3222 3244 3258 3258 3258 3257 3257 3257 3275 3286 3293 3296 3298 3308 3310 3320 3324 3336 3338 3340 3341 3345 3350 3358 3363 3364 3364 3365 3370 3371 3374 3376 3379 3380 3381 3391 3391 3391 3362 3317 3316 3316 3317 3389 3446 3462 3472 3481 3487 3491 3495 3495 3495 3496 3497 3498 3498 3498 3496 3494 3494 3494 3492 3490 3489 3488 3479 3474 3473 3471 3470 3470 3462 3461 3459 3459 3457 3455 3449 3443 3437 3435 3435 3435 3443 3448 3454 3454 3454 3452 3452 3452 3457 3469 3480 3480 3480 3473 3465 3435 3435 3435 3435 3435 3429 3429 3428 3428 3428 3427 3423 3423 3423 3422 3422 3422 3427 3434 3434 3434 3430 3428 3427 3428 3428 3428 3428 3432 3452 3460 3460 3460 3460 3426 3382 3311 3206 2907 2639 2484 2414 2386 2373 2370 2361 2349 2341 2339 2339 2337 2333 2329 2327 2321 2318 2313 2309 2305 2294 2289 2279 2270 2266 2264 2260 2257 2252 2251 2248 2245 2244 2241 2241 2239 2238 2238 2237 2237 2237 2237 2237 2237 2224 2207 2199 2186 2168 2154 2147 2138 2128 2123 2107 2075 2061 2013 1956 1909 1909 1909 1923 1936 1939 1941 1944 1968 1987 1999 2005 2005 2005 2005 2006 2006 2006 2006 2005 2003 2002 2000 1999 1998 1998 1995 1994 1992 1991 1990 1988 1987 1986 1984 1983 1981 1979 1979 1979 1978 1977 1976 1975 1974 1971 1970 1969 1969 1966 1961 1951 1922 1893 1861 1846 1824 1814 1798 1781 1766 1766 1763 1762 1762 1758 1758 1758 1759 1760 1761 1761 1761 1763 1766 1768 1776 1781 1787 1792 1798 1799 1799 1801 1801 1806 1807 1808 1810 1811 1812 1812 1812 1819 1825 1825 1825 1826 1826 1835 1846 1859 1862 1868 1880 1893 1900 1908 1908 1908 1907 1904 1903 1903 1903 1903 1903 1904 1906 1907 1910 1914 1917 1921 1925 1930 1939 1942 1945 1946 1947 1947 1948 1949 1949 1949 1950 1950 1950 1950 1950 1950 1950 1950 1949 1948 1947 1947 1946 1946 1946 1946 1945 1945 1945 1945 1945 1944 1944 1944 1944 1943 1943 1943 1943 1943 1943 1944 1946 1948 1949 1951 1955 1957 1958 1958 1960 1964 1967 1972 1975 1977 1978 1979 1980 1982 1985 1985 1985 1985 1985 1985 1985 1984 1982 1977 1960 0 0 0 0 0 0 0 0 0 0 0 0 1643 1642 1640 1634 1633 1633 1624 1622 1619 1613 1611 1609 1606 1604 1601 1599 1597 1597 1595 1592 1589 1585 1583 1581 1580 1577 1574 1571 1568 1566 1564 1562 1560 1558 1555 1554 1552 1550 1547 1545 1542 1540 1538 1535 1533 1531 1528 1527 1524 1522 1521 1519 1517 1515 1513 1511 1508 1507 1506 1503 1502 1499 1498 1497 1495 1493 1491 1489 1487 1485 1484 1482 1479 1478 1476 1473 1471 1469 1467 1466 1464 1461 1459 1459 1458 1458 1451 1443 1433 1416 0 0 0 0 0 0 0 0 0 0 0 0 0 0 0 0 0 0 0 0 0 0 0 0 0 0 0 0 0 0 0 0 0 0 0 0 0 0 0 0 0 0 0 0 0 0 0 0 0 0 0 0 0 0 0 0 0 0 0 0 0 0 0 0 0 0 0 0 0 0 0 0 0 0 0 0 0 0 0 0 0 0 0 0 0 0 0 0 0 0 0 0 0
0 0 0 2830 2902 2906 2908 2920 2945 2975 2979 2981 2982 2988 2989 3002 3016 3054 3068 3072 3076 3088 3096 3102 3112 3114 3115 3115 3117 3118 3133 3143 3149 3150 3154 3168 3171 3171 3171 3160 3158 3157 3157 3158 3160 3166 3171 3174 3181 3191 3210 3232 3249 3258 3258 3258 3257 3257 3257 3275 3286 3293 3296 3298 3308 3310 3320 3338 3341 3341 3341 3341 3343 3350 3359 3363 3364 3364 3364 3374 3378 3379 3381 3381 3382 3383 3387 3387 3387 3360 3321 3320 3320 3321 3393 3449 3463 3474 3481 3489 3498 3499 3500 3500 3500 3500 3500 3499 3499 3499 3497 3495 3494 3494 3492 3489 3488 3479 3471 3471 3468 3464 3463 3458 3458 3458 3463 3463 3463 3457 3454 3448 3447 3446 3446 3446 3451 3459 3459 3459 3457 3457 3457 3466 3476 3484 3484 3484 3482 3475 3466 3461 3436 3435 3435 3431 3431 3429 3429 3428 3428 3428 3430 3430 3430 3430 3430 3430 3436 3436 3436 3434 3430 3430 3428 3430 3430 3436 3441 3452 3461 3462 3462 3461 3429 3378 3311 3160 2832 2570 0 0 2386 2373 2370 2361 2356 2347 2343 2341 2337 2336 2332 2327 2321 2316 2313 2309 2306 2298 2292 2284 2274 2266 2265 2263 2260 2257 2254 2253 2250 2248 2246 2243 2243 2242 2242 2243 2243 2244 2244 2244 2240 2231 2214 2199 2186 2174 2160 2150 2138 2128 2123 2107 2078 2061 2027 1963 1913 1913 1913 1920 1933 1934 1936 1936 1960 1983 1998 2005 2005 2006 2006 2006 2006 2006 2006 2005 2004 2002 2001 1999 1998 1998 1996 1994 1992 1990 1989 1988 1986 1985 1983 1981 1980 1979 1979 1978 1978 1977 1976 1975 1973 1969 1969 1968 1968 1966 1951 1925 1895 1859 1854 1827 1811 1803 1793 1776 1765 1762 1762 1760 1757 1757 1757 1758 1759 1759 1760 1760 1761 1763 1765 1767 1773 1780 1785 1789 1791 1795 1795 1796 1798 1804 1806 1807 1808 1810 1811 1811 1811 1813 1819 1821 1822 1823 1823 1823 1827 1838 1851 1859 1864 1870 1879 1891 1902 1902 1902 1901 1901 1900 1900 1900 1900 1900 1903 1905 1906 1910 1915 1918 1923 1929 1937 1942 1943 1946 1947 1947 1948 1948 1948 1949 1950 1950 1951 1950 1950 1950 1950 1950 1949 1948 1947 1947 1946 1946 1946 1946 1945 1945 1945 1945 1945 1944 1944 1944 1944 1944 1944 1943 1943 1943 1943 1944 1946 1948 1949 1952 1955 1957 1958 1959 1961 1964 1967 1971 1974 1976 1977 1977 1979 1982 1982 1982 1980 1976 1975 0 0 0 0 0 0 0 0 0 0 0 0 0 0 1656 1649 1646 1645 1641 1637 1635 1632 1631 1630 1623 1620 1617 1614 1611 1609 1606 1603 1601 1599 1597 1597 1595 1592 1589 1585 1583 1581 1580 1577 1573 1571 1568 1566 1564 1562 1560 1558 1555 1552 1551 1547 1544 1543 1541 1539 1537 1535 1533 1531 1528 1525 1523 1522 1520 1519 1516 1515 1513 1511 1508 1507 1505 1503 1501 1499 1497 1496 1494 1492 1490 1488 1486 1484 1483 1480 1478 1477 1475 1473 1471 1469 1466 1465 1463 1461 1459 1458 1457 1457 1451 1449 1441 1416 0 0 0 0 0 0 0 0 0 0 0 0 0 0 0 0 0 0 0 0 0 0 0 0 0 0 0 0 0 0 0 0 0 0 0 0 0 0 0 0 0 0 0 0 0 0 0 0 0 0 0 0 0 0 0 0 0 0 0 0 0 0 0 0 0 0 0 0 0 0 0 0 0 0 0 0 0 0 0 0 0 0 0 0 0 0 0 0 0 0 0 0 0
0 0 0 2830 2884 2885 2902 2920 2952 2975 2981 2989 3003 3026 3030 3031 3053 3081 3089 3093 3097 3097 3097 3102 3112 3114 3115 3116 3117 3118 3131 3142 3144 3148 3152 3161 3170 3170 3170 3160 3160 3160 3164 3168 3176 3177 3177 3179 3183 3199 3219 3233 3249 3252 3252 3252 3252 3252 3252 3275 3283 3289 3293 3295 3308 3310 3320 3338 3342 3342 3342 3342 3342 3350 3359 3362 3364 3364 3364 3374 3384 3388 3388 3388 3387 3387 3387 3387 3387 3358 3323 3322 3322 3323 3393 3455 3473 3487 3495 3501 3508 3512 3512 3512 3511 3507 3502 3502 3502 3501 3499 3498 3496 3495 3492 3489 3488 3479 3471 3471 3468 3464 3463 3458 3458 3458 3466 3466 3466 3463 3457 3456 3456 3454 3454 3454 3459 3465 3465 3465 3467 3467 3469 3473 3481 3489 3489 3489 3489 3477 3470 3468 3462 3448 3443 3441 3431 3428 3428 3427 3428 3428 3432 3439 3439 3439 3437 3437 3437 3437 3437 3435 3435 3435 3438 3438 3439 3445 3455 3467 3468 3468 3468 3462 3436 3378 3313 3100 2748 2542 0 0 2379 2372 2370 2361 2356 2348 2344 2343 2338 2336 2332 2327 2321 2316 2313 2311 2309 2303 2296 2286 2277 2268 2268 2266 2264 2263 2259 2257 2254 2251 2247 2245 2245 2245 2246 2246 2247 2247 2247 2245 2242 2232 2215 2199 2187 2175 2163 2151 2138 2127 2114 2107 2080 2059 2027 1984 1927 1920 1920 1920 1920 1922 1926 1929 1958 1981 1998 2005 2005 2006 2006 2007 2007 2007 2006 2005 2004 2003 2001 2000 1999 1998 1996 1994 1992 1990 1989 1987 1986 1983 1982 1981 1980 1979 1978 1977 1976 1975 1975 1975 1973 1969 1967 1967 1967 1939 1903 1872 1849 1845 1830 1813 1799 1794 1781 1775 1765 1760 1759 1759 1757 1757 1757 1758 1758 1759 1759 1760 1761 1763 1764 1767 1772 1777 1780 1786 1789 1791 1791 1794 1796 1803 1805 1806 1808 1809 1809 1810 1810 1812 1816 1819 1821 1821 1821 1821 1822 1827 1837 1848 1858 1863 1863 1870 1888 1899 1900 1900 1899 1899 1898 1898 1898 1898 1899 1900 1902 1907 1912 1917 1921 1927 1936 1940 1943 1945 1946 1946 1947 1947 1948 1949 1950 1950 1951 1950 1950 1950 1950 1950 1949 1948 1947 1947 1946 1946 1946 1946 1945 1945 1945 1945 1945 1945 1944 1944 1944 1944 1944 1944 1943 1943 1943 1943 1946 1948 1949 1952 1955 1957 1959 1960 1961 1964 1967 1967 1967 1966 1966 1966 1966 1966 1963 0 0 0 0 0 0 0 0 0 0 0 0 0 1685 1671 1671 1666 1654 1650 1648 1646 1644 1638 1636 1634 1631 1628 1625 1622 1619 1616 1613 1610 1609 1606 1603 1601 1599 1597 1597 1594 1592 1589 1587 1583 1581 1580 1577 1573 1570 1567 1566 1564 1562 1559 1557 1553 1550 1547 1546 1544 1541 1539 1538 1536 1533 1532 1529 1526 1523 1522 1522 1520 1518 1516 1514 1512 1510 1508 1506 1505 1503 1501 1499 1497 1495 1494 1492 1490 1488 1485 1483 1482 1480 1478 1476 1474 1472 1470 1467 1466 1464 1462 1461 1459 1458 1457 1454 1451 1450 1444 1429 1420 0 0 0 0 0 0 0 0 0 0 0 0 0 0 0 0 0 0 0 0 0 0 0 0 0 0 0 0 0 0 0 0 0 0 0 0 0 0 0 0 0 0 0 0 0 0 0 0 0 0 0 0 0 0 0 0 0 0 0 0 0 0 0 0 0 0 0 0 0 0 0 0 0 0 0 0 0 0 0 0 0 0 0 0 0 0 0 0 0 0 0 0
0 0 0 2830 2872 2874 2890 2921 2968 2989 2992 2999 3023 3056 3056 3065 3077 3081 3093 3097 3100 3100 3104 3112 3112 3114 3115 3117 3117 3118 3130 3138 3141 3143 3145 3153 3163 3170 3170 3170 3172 3172 3172 3179 3179 3181 3181 3181 3191 3214 3223 3233 3240 3240 3240 3228 3228 3228 3242 3267 3283 3289 3290 3294 3295 3298 3314 3338 3341 3341 3341 3341 3341 3350 3359 3362 3364 3364 3364 3374 3384 3388 3388 3388 3387 3387 3387 3387 3387 3353 3323 3322 3322 3323 3397 3462 3489 3492 3496 3502 3509 3514 3515 3515 3515 3514 3510 3506 3506 3505 3505 3503 3501 3495 3493 3491 3488 3482 3476 3475 3471 3468 3463 3458 3458 3458 3466 3469 3469 3469 3463 3462 3459 3458 3458 3458 3463 3467 3467 3468 3469 3473 3479 3487 3491 3495 3495 3495 3490 3481 3474 3471 3463 3454 3447 3445 3442 3437 3437 3430 3430 3430 3435 3440 3441 3441 3441 3439 3438 3438 3437 3437 3437 3437 3443 3446 3448 3454 3462 3468 3469 3470 3470 3470 3437 3378 3309 3097 2730 2525 0 0 2375 2368 2366 2360 2356 2348 2344 2343 2338 2336 2332 2326 2321 2316 2313 2311 2309 2305 2298 2290 2279 2269 2268 2268 2266 2266 2262 2259 2255 2252 2250 2249 2249 2250 2250 2250 2250 2250 2248 2246 2244 2232 2216 2199 2187 2175 2163 2151 2137 2123 2106 2096 2081 2059 2020 1984 1947 1930 1918 1915 1913 1913 1913 1922 1949 1981 1996 2004 2005 2006 2008 2008 2008 2007 2006 2005 2005 2003 2002 2000 1999 1998 1996 1994 1992 1990 1987 1985 1985 1983 1982 1980 1979 1979 1978 1977 1976 1975 1975 1974 1972 1965 1964 1961 1936 1896 1855 1837 1831 1824 1811 1801 1790 1776 1772 1770 1765 1759 1759 1758 1757 1757 1757 1757 1757 1757 1758 1759 1761 1763 1764 1766 1770 1773 1775 1778 1783 1789 1791 1791 1792 1796 1801 1803 1807 1808 1808 1809 1810 1810 1814 1818 1818 1818 1819 1820 1820 1822 1823 1829 1838 1847 1856 1860 1867 1881 1894 1896 1896 1896 1894 1894 1894 1895 1896 1897 1897 1902 1911 1915 1920 1924 1931 1939 1942 1944 1945 1945 1946 1947 1947 1949 1950 1950 1950 1950 1950 1950 1950 1950 1949 1948 1947 1947 1946 1946 1945 1945 1945 1945 1945 1945 1945 1945 1944 1944 1944 1944 1944 1944 1943 1943 1943 1943 1946 1948 1949 1952 1955 1957 1959 1960 1961 1961 1961 1961 1960 1959 1956 1947 0 0 0 0 0 0 0 0 0 0 0 0 0 1681 1675 1674 1668 1655 1654 1653 1652 1650 1648 1644 1640 1635 1635 1634 1631 1628 1625 1622 1618 1615 1612 1610 1609 1606 1603 1601 1599 1597 1595 1594 1591 1589 1586 1583 1581 1579 1577 1573 1570 1567 1564 1562 1560 1558 1554 1551 1548 1545 1544 1542 1540 1538 1538 1536 1532 1529 1525 1524 1522 1522 1521 1519 1517 1516 1514 1512 1510 1508 1506 1504 1503 1501 1498 1496 1494 1493 1491 1489 1487 1485 1483 1481 1479 1478 1476 1474 1472 1469 1467 1466 1464 1462 1461 1459 1458 1456 1454 1452 1450 1444 1436 1431 0 0 0 0 0 0 0 0 0 0 0 0 0 0 0 0 0 0 0 0 0 0 0 0 0 0 0 0 0 0 0 0 0 0 0 0 0 0 0 0 0 0 0 0 0 0 0 0 0 0 0 0 0 0 0 0 0 0 0 0 0 0 0 0 0 0 0 0 0 0 0 0 0 0 0 0 0 0 0 0 0 0 0 0 0 0 0 0 0 0 0 0
0 0 0 2811 2848 2855 2885 2921 2975 3018 3030 3036 3058 3072 3082 3085 3085 3089 3096 3097 3100 3104 3105 3112 3115 3115 3116 3116 3117 3119 3127 3132 3136 3137 3139 3148 3160 3169 3176 3176 3178 3178 3185 3185 3185 3182 3182 3182 3194 3214 3223 3233 3233 3233 3229 3219 3219 3219 3232 3259 3279 3282 3282 3282 3282 3288 3298 3323 3336 3336 3337 3337 3337 3348 3359 3362 3364 3364 3364 3374 3384 3388 3388 3388 3391 3391 3391 3391 3391 3352 3323 3322 3322 3323 3407 3467 3491 3495 3499 3503 3509 3514 3516 3519 3519 3519 3512 3510 3510 3509 3508 3507 3501 3497 3493 3492 3491 3491 3485 3485 3479 3470 3463 3460 3460 3460 3467 3471 3471 3471 3471 3464 3460 3460 3460 3462 3467 3470 3470 3471 3473 3476 3479 3487 3498 3499 3499 3499 3497 3489 3480 3472 3463 3456 3448 3448 3448 3448 3443 3443 3439 3439 3439 3441 3443 3443 3441 3439 3439 3439 3438 3438 3439 3443 3443 3446 3448 3455 3463 3469 3470 3470 3470 3470 3436 3380 3292 3081 2693 2502 0 2379 2371 2366 2365 2355 2351 2348 2344 2343 2338 2336 2331 2326 2321 2317 2313 2311 2309 2305 2299 2291 2283 2270 2269 2268 2267 2267 2262 2260 2256 2254 2254 2253 2252 2252 2252 2252 2252 2252 2251 2246 2245 2235 2220 2203 2187 2175 2165 2151 2135 2123 2106 2094 2084 2061 2027 1986 1969 1932 1918 1905 1905 1905 1910 1910 1928 1978 1988 2000 2004 2006 2008 2008 2008 2007 2006 2006 2005 2005 2002 2001 2000 1998 1997 1994 1992 1989 1987 1985 1983 1982 1980 1979 1978 1978 1978 1977 1975 1974 1974 1972 1965 1954 1949 0 0 1845 1829 1820 1812 1806 1797 1791 1777 1769 1767 1765 1763 1759 1758 1758 1757 1757 1757 1757 1757 1757 1758 1759 1761 1763 1764 1765 1766 1770 1773 1773 1776 1783 1789 1789 1789 1789 1795 1799 1802 1807 1807 1808 1808 1809 1812 1815 1816 1816 1817 1818 1819 1820 1823 1827 1829 1831 1839 1852 1858 1862 1870 1879 1886 1891 1891 1891 1891 1893 1894 1896 1896 1896 1905 1910 1916 1920 1924 1933 1939 1943 1943 1944 1944 1944 1945 1948 1949 1950 1950 1950 1950 1950 1950 1950 1949 1948 1947 1946 1946 1945 1945 1945 1945 1944 1944 1944 1944 1944 1944 1943 1943 1943 1943 1943 1943 1943 1943 1943 1943 1943 1945 1947 1951 1956 1959 1960 1960 1960 1960 1959 1953 1945 0 0 0 0 0 0 0 0 0 0 1708 1699 1693 1682 1672 1669 1667 1661 1660 1655 1654 1653 1652 1649 1647 1643 1638 1635 1634 1633 1630 1627 1624 1622 1618 1615 1612 1610 1609 1606 1603 1601 1599 1597 1595 1593 1591 1589 1585 1583 1580 1579 1577 1573 1570 1566 1564 1562 1558 1555 1552 1549 1546 1543 1543 1540 1538 1537 1537 1535 1530 1525 1524 1522 1521 1521 1520 1519 1517 1516 1514 1512 1510 1508 1506 1504 1502 1501 1498 1496 1494 1492 1491 1488 1487 1485 1483 1481 1479 1478 1476 1473 1471 1469 1466 1465 1464 1462 1460 1459 1458 1456 1454 1452 1450 1446 1441 1437 1434 0 0 0 0 0 0 0 0 0 0 0 0 0 0 0 0 0 0 0 0 0 0 0 0 0 0 0 0 0 0 0 0 0 0 0 0 0 0 0 0 0 0 0 0 0 0 0 0 0 0 0 0 0 0 0 0 0 0 0 0 0 0 0 0 0 0 0 0 0 0 0 0 0 0 0 0 0 0 0 0 0 0 0 0 0 0 0 0 0 0 0
0 0 0 2801 2804 2855 2885 2939 2994 3057 3057 3060 3067 3082 3085 3087 3089 3094 3098 3099 3100 3104 3104 3110 3116 3118 3118 3118 3119 3121 3127 3131 3136 3136 3139 3145 3158 3169 3176 3176 3178 3178 3185 3185 3185 3183 3183 3183 3195 3214 3223 3225 3225 3225 3225 3219 3219 3219 3232 3253 3277 3277 3277 3277 3277 3277 3289 3307 3320 3325 3328 3332 3337 3348 3359 3362 3362 3364 3364 3368 3369 3381 3385 3385 3391 3391 3385 3385 3384 3344 3333 3327 3327 3333 3418 3470 3492 3499 3502 3505 3509 3515 3520 3521 3521 3521 3518 3515 3512 3511 3511 3508 3502 3500 3499 3497 3497 3497 3496 3493 3488 3479 3474 3469 3469 3469 3469 3475 3476 3476 3476 3470 3464 3464 3464 3466 3468 3473 3473 3473 3474 3476 3480 3487 3498 3499 3499 3499 3497 3489 3480 3472 3463 3456 3448 3448 3448 3448 3443 3442 3440 3440 3440 3441 3445 3445 3443 3441 3441 3440 3439 3439 3441 3443 3444 3448 3449 3462 3471 3473 3480 3480 3473 3462 3431 3380 3281 3055 2667 0 2389 2376 2367 2366 2362 2350 2344 2344 2343 2341 2336 2335 2329 2326 2321 2317 2314 2312 2309 2305 2299 2292 2285 2275 2272 2272 2269 2267 2262 2260 2258 2258 2257 2256 2256 2255 2255 2255 2255 2255 2255 2251 2250 2241 2225 2210 2194 2180 2165 2151 2135 2123 2106 2093 2084 2070 2030 2005 1997 1974 1918 1905 1905 1905 1905 1909 1910 1952 1987 1996 2004 2006 2008 2008 2008 2007 2006 2006 2006 2005 2003 2002 2000 1999 1997 1994 1991 1988 1986 1984 1982 1981 1980 1978 1977 1977 1976 1976 1974 1974 1973 1960 1934 1906 1899 1872 1836 1831 1815 1803 1793 1790 1787 1781 1769 1764 1764 1764 1762 1758 1756 1756 1756 1755 1756 1756 1756 1757 1757 1759 1760 1762 1764 1765 1766 1768 1771 1772 1773 1776 1783 1785 1786 1787 1791 1795 1797 1803 1807 1807 1807 1809 1809 1811 1813 1816 1817 1818 1819 1819 1822 1827 1829 1829 1830 1834 1846 1854 1859 1859 1869 1881 1885 1886 1889 1890 1893 1893 1894 1894 1897 1906 1909 1912 1915 1928 1934 1940 1941 1942 1943 1943 1944 1946 1949 1949 1949 1949 1949 1949 1949 1949 1949 1948 1947 1946 1945 1945 1945 1944 1944 1943 1943 1943 1943 1943 1943 1943 1943 1942 1942 1943 1942 1942 1942 1942 1940 1939 1939 1943 1944 1953 1959 1959 1959 1955 1949 1934 0 0 0 0 0 0 0 1710 1708 1706 1701 1695 1691 1686 1681 1678 1670 1666 1664 1661 1660 1655 1654 1651 1651 1649 1646 1643 1638 1635 1634 1633 1630 1627 1624 1621 1618 1615 1612 1610 1607 1606 1603 1601 1599 1596 1594 1593 1590 1588 1585 1583 1580 1578 1574 1571 1568 1566 1563 1560 1557 1552 1550 1548 1546 1542 1539 1534 1529 1529 1528 1527 1525 1523 1521 1521 1520 1520 1519 1518 1517 1515 1514 1512 1510 1508 1506 1504 1502 1500 1497 1496 1494 1492 1490 1488 1486 1485 1483 1481 1479 1477 1475 1473 1471 1469 1466 1465 1464 1462 1460 1459 1458 1456 1454 1452 1451 1447 1443 1443 1437 0 0 0 0 0 0 0 0 0 0 0 0 0 0 0 0 0 0 0 0 0 0 0 0 0 0 0 0 0 0 0 0 0 0 0 0 0 0 0 0 0 0 0 0 0 0 0 0 0 0 0 0 0 0 0 0 0 0 0 0 0 0 0 0 0 0 0 0 0 0 0 0 0 0 0 0 0 0 0 0 0 0 0 0 0 0 0 0 0 0 0
0 0 0 2792 2794 2855 2890 2961 3031 3060 3067 3080 3080 3086 3088 3089 3091 3094 3098 3099 3100 3104 3105 3118 3118 3119 3120 3120 3120 3124 3127 3131 3136 3136 3139 3145 3147 3163 3174 3174 3177 3178 3185 3185 3185 3183 3183 3183 3195 3213 3218 3220 3223 3220 3219 3219 3219 3219 3232 3253 3270 3270 3270 3274 3275 3275 3289 3301 3303 3306 3320 3332 3337 3348 3359 3360 3362 3362 3364 3368 3368 3369 3373 3376 3377 3383 3383 3383 3383 3337 3327 3327 3327 3327 3428 3476 3496 3499 3502 3506 3514 3516 3521 3523 3523 3523 3522 3518 3515 3515 3513 3511 3511 3511 3511 3511 3506 3504 3503 3501 3497 3487 3484 3483 3480 3479 3479 3479 3480 3480 3480 3479 3476 3474 3474 3474 3473 3474 3474 3474 3477 3478 3482 3489 3498 3499 3499 3499 3497 3489 3481 3473 3464 3456 3449 3449 3448 3447 3444 3443 3443 3444 3446 3446 3448 3446 3446 3445 3445 3444 3442 3442 3442 3444 3446 3448 3450 3466 3475 3475 3482 3475 3473 3459 3431 3380 3249 2939 2606 0 2389 2373 2364 2362 2359 2350 2342 2341 2340 2339 2333 2330 2326 2324 2321 2317 2314 2311 2309 2305 2299 2293 2285 2277 2275 2274 2272 2270 2266 2264 2262 2262 2261 2260 2260 2259 2258 2258 2258 2258 2257 2256 2255 2250 2232 2215 2197 2183 2165 2151 2135 2123 2108 2093 2086 2081 2066 2029 2006 1979 1918 1905 1905 1905 1905 1908 1910 1920 1965 1996 2004 2006 2008 2008 2008 2007 2007 2007 2006 2005 2004 2002 2000 1999 1997 1994 1991 1988 1985 1984 1981 1979 1978 1976 1976 1976 1975 1975 1974 1974 1972 1951 1905 1856 1835 1824 1816 1807 1790 1788 1787 1782 1779 1772 1765 1762 1762 1760 1760 1758 1754 1754 1754 1754 1754 1754 1756 1756 1756 1759 1760 1762 1763 1765 1766 1768 1769 1770 1772 1774 1777 1782 1784 1785 1787 1792 1797 1802 1805 1806 1806 1808 1809 1811 1813 1815 1817 1818 1818 1819 1821 1824 1827 1829 1830 1831 1835 1840 1844 1854 1855 1865 1868 1874 1880 1886 1888 1890 1891 1892 1894 1902 1907 1909 1913 1921 1929 1933 1939 1939 1939 1941 1942 1945 1949 1949 1949 1949 1948 1948 1948 1948 1948 1947 1947 1946 1944 1944 1943 1942 1942 1941 1941 1941 1941 1941 1941 1941 1941 1942 1942 1942 1941 1940 1940 1938 1937 1935 1937 1937 1937 1945 1946 1946 1946 0 0 0 0 0 0 0 1719 1709 1697 1694 1693 1692 1689 1685 1681 1679 1676 1672 1669 1665 1662 1660 1659 1655 1654 1651 1650 1648 1644 1641 1637 1635 1634 1632 1630 1627 1624 1621 1617 1614 1612 1609 1607 1605 1603 1601 1598 1596 1594 1592 1590 1587 1584 1583 1580 1577 1573 1570 1567 1565 1562 1558 1555 1551 1549 1546 1545 1541 1536 1528 1515 1514 1514 1514 1517 1519 1519 1519 1518 1518 1518 1517 1516 1515 1514 1512 1510 1508 1506 1504 1502 1500 1497 1495 1494 1492 1490 1488 1486 1485 1483 1481 1479 1477 1475 1473 1471 1469 1466 1465 1464 1462 1460 1459 1457 1456 1453 1452 1451 1450 1450 1449 1449 1438 0 0 0 0 0 0 0 0 0 0 0 0 0 0 0 0 0 0 0 0 0 0 0 0 0 0 0 0 0 0 0 0 0 0 0 0 0 0 0 0 0 0 0 0 0 0 0 0 0 0 0 0 0 0 0 0 0 0 0 0 0 0 0 0 0 0 0 0 0 0 0 0 0 0 0 0 0 0 0 0 0 0 0 0 0 0 0 0 0 0
0 0 0 2769 2794 2870 2897 2973 3045 3069 3075 3080 3080 3086 3088 3089 3091 3095 3098 3099 3104 3107 3113 3124 3124 3124 3122 3122 3122 3127 3128 3131 3136 3144 3145 3147 3147 3160 3172 3172 3174 3175 3175 3179 3182 3183 3183 3183 3195 3210 3218 3219 3220 3220 3225 3225 3225 3226 3234 3253 3270 3270 3270 3273 3274 3275 3289 3297 3301 3304 3315 3332 3340 3352 3359 3360 3360 3362 3364 3368 3368 3369 3372 3376 3376 3378 3383 3383 3383 3330 3330 3323 3323 3339 3431 3482 3497 3503 3506 3513 3518 3521 3525 3529 3529 3529 3527 3522 3520 3519 3517 3514 3514 3514 3514 3514 3514 3514 3509 3505 3500 3492 3491 3489 3486 3484 3484 3484 3487 3487 3489 3489 3489 3488 3484 3483 3483 3483 3486 3486 3486 3488 3488 3489 3498 3500 3500 3500 3497 3494 3481 3476 3466 3456 3451 3450 3449 3447 3447 3447 3449 3449 3453 3453 3449 3449 3448 3448 3449 3451 3451 3451 3451 3448 3448 3448 3452 3469 3475 3475 3488 3475 3466 3436 3393 3341 3109 2766 2550 0 2387 2371 2360 2359 2358 2348 2342 2337 2337 2336 2332 2328 2325 2322 2320 2317 2314 2311 2308 2305 2300 2294 2287 2282 2277 2276 2272 2271 2269 2268 2266 2265 2265 2265 2264 2262 2261 2261 2261 2260 2259 2258 2258 2257 2240 2221 2203 2186 2169 2153 2142 2127 2111 2094 2086 2085 2067 2037 2009 1993 1934 1914 1914 1909 1909 1914 1919 1920 1965 1996 2008 2009 2009 2009 2009 2009 2007 2007 2006 2005 2004 2002 2000 1999 1996 1993 1990 1987 1984 1983 1981 1979 1978 1976 1974 1974 1973 1972 1972 1969 1969 1926 1871 1836 1825 1819 1809 1796 1786 1786 1785 1781 1775 1766 1761 1760 1759 1757 1756 1753 1752 1752 1752 1753 1753 1754 1754 1755 1756 1758 1760 1762 1763 1765 1766 1768 1769 1770 1771 1774 1775 1777 1779 1781 1785 1787 1791 1797 1802 1804 1805 1807 1809 1811 1813 1815 1817 1818 1818 1820 1821 1823 1827 1828 1829 1829 1830 1832 1833 1842 1845 1849 1856 1863 1869 1873 1876 1878 1884 1888 1892 1901 1905 1909 1913 1921 1929 1930 1935 1935 1938 1939 1941 1945 1948 1949 1949 1949 1948 1948 1948 1947 1947 1945 1945 1944 1943 1943 1943 1941 1940 1939 1939 1939 1940 1940 1940 1940 1941 1941 1941 1941 1940 1936 1933 1929 1929 1927 1925 1925 1925 1924 1922 0 0 0 0 0 0 0 1714 1708 1703 1699 1692 1690 1689 1689 1685 1681 1679 1678 1674 1671 1667 1664 1661 1660 1658 1655 1654 1650 1646 1645 1643 1640 1637 1635 1633 1631 1629 1627 1623 1621 1617 1614 1611 1609 1607 1605 1602 1601 1598 1596 1594 1592 1589 1587 1584 1581 1579 1576 1573 1569 1566 1565 1562 1554 1548 1546 1546 1543 1534 1531 1528 1518 1509 1508 1507 1506 1506 1506 1510 1513 1517 1517 1517 1516 1516 1515 1514 1512 1510 1509 1507 1504 1502 1500 1497 1495 1494 1492 1490 1488 1486 1485 1483 1481 1479 1477 1475 1473 1471 1469 1466 1465 1464 1462 1460 1459 1457 1455 1454 1453 1453 1450 1450 1449 1449 1438 0 0 0 0 0 0 0 0 0 0 0 0 0 0 0 0 0 0 0 0 0 0 0 0 0 0 0 0 0 0 0 0 0 0 0 0 0 0 0 0 0 0 0 0 0 0 0 0 0 0 0 0 0 0 0 0 0 0 0 0 0 0 0 0 0 0 0 0 0 0 0 0 0 0 0 0 0 0 0 0 0 0 0 0 0 0 0 0 0 0
0 0 0 2769 2794 2890 2944 2987 3045 3069 3075 3080 3080 3088 3092 3095 3095 3098 3105 3108 3109 3113 3120 3130 3131 3131 3131 3133 3135 3135 3139 3141 3147 3147 3147 3148 3148 3159 3172 3172 3173 3175 3175 3181 3183 3184 3184 3184 3197 3210 3218 3219 3220 3230 3230 3236 3241 3244 3244 3257 3267 3267 3267 3269 3270 3283 3295 3297 3301 3302 3315 3334 3350 3358 3359 3359 3360 3363 3366 3368 3368 3369 3372 3374 3374 3375 3374 3374 3369 3319 3319 3319 3325 3349 3437 3483 3505 3512 3518 3519 3521 3523 3531 3531 3531 3531 3530 3526 3524 3524 3523 3521 3516 3516 3516 3516 3516 3516 3513 3510 3503 3499 3494 3491 3488 3488 3488 3490 3490 3499 3504 3504 3504 3498 3492 3490 3490 3490 3495 3498 3498 3498 3498 3498 3498 3500 3500 3500 3497 3494 3481 3476 3469 3460 3451 3451 3449 3449 3451 3451 3451 3453 3455 3455 3453 3452 3452 3452 3452 3463 3465 3465 3465 3456 3456 3456 3458 3471 3475 3475 3475 3466 3432 3404 3374 3320 3087 2731 2528 0 2381 2369 2357 2354 2354 2347 2342 2336 2335 2332 2329 2327 2324 2322 2318 2316 2314 2311 2308 2305 2301 2295 2288 2286 2282 2276 2273 2271 2271 2269 2267 2267 2267 2267 2267 2264 2264 2264 2263 2262 2260 2259 2258 2258 2248 2224 2207 2191 2177 2158 2145 2128 2111 2094 2088 2085 2072 2039 2016 2001 1955 1936 1927 1926 1920 1920 1920 1920 1965 1993 2002 2009 2010 2010 2010 2009 2007 2007 2006 2005 2004 2002 2000 1998 1996 1993 1990 1986 1984 1982 1980 1979 1977 1975 1972 1971 1968 1965 1957 1948 1920 1875 1837 1824 1817 1811 1793 1788 1786 1784 1777 1772 1766 1761 1757 1756 1755 1755 1751 1750 1750 1750 1750 1751 1752 1753 1754 1755 1756 1758 1760 1762 1763 1765 1766 1767 1769 1770 1771 1773 1775 1776 1776 1777 1780 1785 1787 1791 1795 1800 1804 1807 1809 1811 1813 1815 1817 1818 1818 1820 1821 1823 1827 1828 1829 1829 1829 1829 1831 1833 1833 1840 1854 1860 1864 1864 1868 1870 1872 1875 1881 1893 1898 1905 1913 1919 1927 1930 1930 1933 1937 1938 1939 1943 1948 1949 1949 1949 1947 1947 1947 1946 1946 1945 1944 1943 1943 1943 1942 1941 1939 1939 1939 1939 1939 1939 1939 1939 1939 1941 1941 1941 1936 1931 1923 1910 1910 1907 1906 1897 0 0 0 0 0 0 0 1733 1717 1705 1703 1702 1699 1695 1689 1688 1688 1685 1682 1680 1678 1677 1673 1670 1665 1661 1661 1660 1658 1655 1653 1649 1645 1643 1642 1640 1636 1635 1632 1630 1628 1626 1623 1621 1617 1614 1611 1609 1607 1605 1602 1601 1598 1595 1594 1591 1589 1586 1583 1580 1578 1575 1573 1569 1564 1560 1559 1552 1543 1541 1539 1534 1531 1528 1516 1510 1506 1506 1501 1501 1501 1504 1507 1512 1516 1516 1516 1516 1516 1515 1514 1513 1510 1509 1506 1505 1502 1500 1497 1495 1493 1492 1490 1488 1486 1485 1483 1481 1479 1477 1475 1473 1471 1469 1466 1465 1464 1462 1460 1459 1457 1455 1454 1453 1453 1450 1450 1449 1449 1437 0 0 0 0 0 0 0 0 0 0 0 0 0 0 0 0 0 0 0 0 0 0 0 0 0 0 0 0 0 0 0 0 0 0 0 0 0 0 0 0 0 0 0 0 0 0 0 0 0 0 0 0 0 0 0 0 0 0 0 0 0 0 0 0 0 0 0 0 0 0 0 0 0 0 0 0 0 0 0 0 0 0 0 0 0 0 0 0 0 0
0 0 0 0 2866 2902 2959 3013 3045 3067 3069 3080 3080 3088 3092 3095 3095 3098 3108 3109 3111 3113 3120 3130 3133 3137 3137 3139 3139 3139 3141 3146 3149 3149 3150 3153 3153 3160 3172 3172 3172 3172 3175 3184 3184 3184 3186 3188 3197 3210 3219 3225 3237 3245 3252 3255 3255 3255 3256 3257 3267 3267 3268 3269 3270 3287 3297 3299 3301 3302 3315 3334 3350 3357 3358 3359 3360 3364 3366 3369 3370 3370 3372 3372 3373 3374 3373 3372 3368 3338 3338 3338 3343 3349 3456 3497 3515 3522 3524 3524 3527 3531 3535 3535 3535 3534 3531 3528 3524 3524 3523 3523 3522 3518 3516 3516 3516 3516 3513 3511 3507 3503 3496 3492 3492 3492 3492 3499 3501 3506 3506 3506 3506 3502 3499 3494 3494 3494 3495 3502 3503 3503 3503 3503 3502 3501 3501 3500 3497 3496 3492 3487 3481 3471 3460 3455 3451 3451 3451 3451 3456 3458 3458 3458 3457 3461 3458 3458 3464 3465 3465 3465 3465 3456 3456 3456 3460 3476 3476 3476 3476 3445 3432 3402 3370 3303 3026 2719 2502 0 2381 2369 2354 2353 2350 2346 2342 2336 2332 2330 2326 2324 2323 2320 2316 2314 2312 2311 2308 2306 2303 2300 2291 2287 2284 2280 2275 2272 2271 2269 2269 2268 2268 2268 2268 2266 2266 2266 2266 2265 2265 2264 2260 2259 2255 2227 2212 2198 2182 2162 2145 2129 2112 2101 2095 2087 2073 2052 2022 2002 1957 1940 1931 1927 1923 1923 1923 1937 1969 1998 2002 2005 2010 2010 2010 2010 2008 2007 2006 2005 2004 2002 2000 1997 1995 1993 1989 1986 1983 1981 1980 1979 1977 1972 1966 1964 1957 1944 1929 1902 1872 1841 1824 1809 1799 1789 1786 1785 1782 1774 1769 1767 1762 1759 1754 1752 1751 1749 1749 1749 1749 1749 1749 1750 1752 1752 1754 1755 1756 1757 1760 1761 1763 1765 1766 1767 1769 1769 1771 1773 1775 1775 1775 1776 1778 1783 1784 1788 1791 1794 1800 1805 1808 1810 1813 1815 1817 1818 1819 1820 1821 1823 1826 1828 1828 1829 1829 1829 1831 1833 1833 1836 1841 1849 1857 1857 1859 1859 1862 1864 1872 1878 1888 1895 1903 1908 1918 1923 1929 1929 1932 1935 1936 1940 1945 1947 1947 1947 1946 1946 1946 1946 1946 1944 1943 1943 1942 1942 1942 1941 1939 1939 1939 1938 1938 1938 1937 1937 1936 1936 1936 1933 1928 1921 1908 1892 1880 0 0 0 0 0 0 0 1741 1726 1713 1709 1705 1702 1699 1698 1696 1691 1689 1687 1687 1685 1681 1679 1678 1676 1673 1668 1663 1660 1658 1657 1656 1654 1651 1648 1644 1641 1638 1637 1636 1634 1632 1630 1627 1626 1623 1620 1617 1614 1611 1609 1607 1605 1602 1600 1598 1595 1593 1591 1589 1586 1582 1579 1575 1573 1567 1563 1559 1558 1553 1546 1537 1529 1522 1518 1518 1515 1515 1509 1506 1503 1501 1501 1501 1501 1505 1509 1514 1516 1516 1516 1516 1515 1514 1513 1510 1509 1507 1505 1502 1500 1497 1495 1493 1491 1490 1488 1486 1484 1483 1481 1479 1477 1475 1473 1471 1469 1466 1465 1464 1462 1460 1458 1457 1455 1455 1454 1453 1445 1445 1444 1444 1435 0 0 0 0 0 0 0 0 0 0 0 0 0 0 0 0 0 0 0 0 0 0 0 0 0 0 0 0 0 0 0 0 0 0 0 0 0 0 0 0 0 0 0 0 0 0 0 0 0 0 0 0 0 0 0 0 0 0 0 0 0 0 0 0 0 0 0 0 0 0 0 0 0 0 0 0 0 0 0 0 0 0 0 0 0 0 0 0 0 0
2713 2713 2843 2844 2892 2978 3003 3013 3042 3066 3066 3070 3086 3088 3094 3096 3099 3102 3109 3112 3114 3116 3120 3130 3138 3142 3142 3144 3147 3147 3148 3149 3152 3153 3154 3158 3163 3166 3172 3172 3174 3176 3176 3189 3194 3198 3200 3201 3215 3228 3234 3245 3263 3264 3285 3285 3285 3281 3271 3269 3269 3269 3270 3270 3276 3288 3299 3299 3301 3302 3315 3334 3350 3354 3356 3358 3359 3364 3368 3371 3372 3372 3374 3374 3374 3373 3373 3372 3368 3343 3343 3343 3349 3375 3467 3510 3524 3525 3526 3528 3529 3531 3537 3537 3537 3536 3532 3528 3525 3525 3525 3525 3524 3519 3516 3516 3516 3516 3514 3512 3511 3507 3500 3495 3495 3495 3499 3500 3504 3508 3508 3508 3506 3503 3500 3498 3497 3497 3497 3502 3507 3509 3509 3511 3509 3509 3504 3501 3501 3501 3498 3496 3488 3479 3471 3461 3454 3454 3454 3457 3460 3461 3462 3462 3461 3461 3466 3467 3467 3467 3466 3466 3465 3464 3464 3464 3479 3491 3491 3491 3476 3445 3432 3402 3370 3294 2982 2659 0 2409 2381 2366 2354 2350 2345 2341 2336 2335 2329 2325 2323 2322 2322 2318 2316 2312 2312 2310 2308 2306 2304 2300 2296 2290 2286 2281 2276 2273 2273 2272 2271 2270 2270 2269 2269 2268 2268 2268 2268 2272 2272 2272 2261 2261 2261 2238 2218 2204 2182 2163 2146 2131 2116 2111 2106 2102 2075 2059 2037 2002 1960 1942 1931 1931 1931 1944 1956 1971 1988 2001 2008 2012 2012 2012 2012 2011 2009 2008 2006 2006 2004 2002 1999 1996 1994 1992 1988 1985 1982 1980 1979 1979 1977 1972 1966 1957 1940 1919 1898 1863 1847 1830 1815 1798 1792 1788 1781 1778 1772 1767 1764 1763 1759 1756 1751 1750 1748 1748 1748 1748 1748 1748 1749 1750 1751 1752 1753 1755 1756 1757 1759 1761 1763 1765 1766 1767 1768 1769 1771 1772 1774 1774 1775 1776 1777 1780 1782 1784 1786 1790 1793 1801 1808 1810 1813 1814 1817 1818 1819 1821 1822 1823 1826 1828 1829 1829 1829 1829 1831 1832 1833 1835 1837 1838 1842 1847 1847 1848 1850 1853 1854 1862 1872 1884 1893 1898 1898 1905 1918 1925 1926 1930 1931 1935 1939 1942 1942 1942 1942 1942 1943 1943 1943 1941 1940 1939 1939 1939 1939 1939 1938 1938 1938 1936 1936 1935 1934 1932 1932 1929 1922 1914 1909 1898 1888 0 0 0 0 0 0 1732 1721 1718 1717 1717 1711 1705 1704 1701 1698 1695 1692 1691 1689 1686 1684 1683 1681 1679 1678 1674 1672 1668 1663 1660 1658 1657 1655 1652 1650 1648 1643 1641 1638 1637 1635 1633 1632 1630 1627 1625 1623 1619 1616 1613 1611 1608 1607 1604 1602 1599 1597 1595 1593 1591 1588 1585 1580 1577 1575 1572 1563 1555 1555 1554 1547 1531 1518 1518 1517 1516 1516 1514 1511 1508 1505 1503 1501 1501 1501 1501 1505 1509 1514 1516 1516 1516 1516 1515 1514 1513 1510 1508 1507 1505 1502 1500 1498 1495 1493 1491 1490 1488 1486 1484 1483 1481 1479 1477 1475 1473 1471 1469 1466 1465 1463 1462 1460 1458 1457 1455 1455 1455 1451 1445 1445 1443 1442 1427 0 0 0 0 0 0 0 0 0 0 0 0 0 0 0 0 0 0 0 0 0 0 0 0 0 0 0 0 0 0 0 0 0 0 0 0 0 0 0 0 0 0 0 0 0 0 0 0 0 0 0 0 0 0 0 0 0 0 0 0 0 0 0 0 0 0 0 0 0 0 0 0 0 0 0 0 0 0 0 0 0 0 0 0 0 0 0 0 0 0
2831 2831 2875 2877 2927 2979 3020 3022 3023 3044 3052 3070 3086 3091 3097 3097 3102 3105 3113 3113 3117 3119 3119 3128 3140 3142 3143 3147 3156 3156 3156 3156 3155 3155 3156 3174 3175 3176 3176 3175 3175 3178 3182 3197 3205 3220 3230 3235 3244 3250 3254 3263 3269 3294 3317 3317 3317 3311 3291 3284 3282 3282 3282 3282 3286 3293 3299 3301 3302 3308 3320 3334 3347 3352 3354 3357 3357 3364 3368 3373 3375 3375 3375 3375 3374 3374 3373 3372 3366 3351 3347 3347 3351 3393 3479 3517 3526 3527 3528 3530 3530 3532 3537 3538 3538 3538 3534 3529 3529 3528 3527 3527 3524 3520 3516 3516 3516 3516 3514 3513 3512 3508 3503 3503 3503 3506 3507 3507 3508 3508 3508 3508 3506 3503 3502 3501 3501 3501 3504 3507 3516 3516 3516 3516 3515 3511 3504 3501 3501 3501 3498 3496 3488 3479 3471 3467 3463 3460 3460 3460 3463 3464 3465 3466 3465 3466 3467 3468 3469 3469 3469 3464 3462 3460 3460 3464 3479 3491 3491 3491 3476 3445 3432 3401 3368 3279 2850 2588 0 2404 2379 2365 2354 2350 2340 2338 2333 2332 2329 2324 2321 2321 2319 2317 2313 2311 2311 2310 2308 2306 2304 2300 2296 2291 2287 2283 2279 2276 2274 2274 2273 2273 2271 2271 2271 2271 2271 2271 2273 2275 2275 2275 2270 2269 2267 2243 2225 2210 2187 2163 2147 2131 2122 2114 2111 2102 2081 2069 2050 2013 1977 1943 1943 1943 1958 1968 1996 2003 2006 2011 2013 2014 2014 2014 2013 2011 2010 2008 2006 2005 2004 2002 1999 1995 1990 1988 1987 1984 1982 1980 1978 1978 1975 1968 1956 1941 1916 1893 1867 1854 1839 1821 1809 1795 1791 1787 1781 1775 1770 1765 1764 1763 1758 1753 1751 1750 1748 1748 1748 1748 1748 1748 1749 1749 1750 1752 1753 1754 1756 1757 1759 1761 1762 1764 1766 1767 1768 1769 1770 1772 1773 1774 1774 1775 1776 1777 1779 1781 1783 1787 1791 1796 1805 1810 1813 1814 1816 1818 1819 1821 1823 1824 1826 1827 1829 1830 1832 1832 1832 1832 1833 1835 1837 1838 1840 1843 1843 1844 1846 1847 1851 1852 1859 1869 1879 1883 1884 1885 1895 1905 1917 1922 1923 1924 1927 1934 1935 1936 1937 1938 1940 1940 1940 1937 1935 1935 1935 1938 1938 1938 1938 1938 1936 1934 1934 1927 1920 1915 1906 1898 1884 1876 1868 0 0 0 0 1751 1742 1734 1723 1722 1717 1717 1715 1715 1709 1704 1702 1699 1697 1695 1692 1690 1689 1686 1684 1683 1680 1679 1676 1673 1671 1667 1663 1660 1657 1656 1654 1652 1650 1648 1643 1640 1638 1637 1635 1633 1631 1628 1626 1624 1622 1618 1615 1612 1610 1608 1607 1604 1602 1599 1597 1595 1593 1591 1588 1584 1580 1577 1575 1571 1562 1546 1540 1540 1525 1516 1516 1516 1516 1516 1516 1512 1511 1508 1505 1503 1502 1501 1501 1501 1505 1508 1513 1515 1516 1516 1516 1515 1514 1513 1511 1508 1506 1505 1502 1500 1498 1495 1493 1491 1490 1487 1486 1484 1482 1480 1478 1477 1475 1473 1471 1469 1467 1465 1463 1462 1460 1458 1457 1455 1455 1455 1451 1444 1444 1443 1442 1427 0 0 0 0 0 0 0 0 0 0 0 0 0 0 0 0 0 0 0 0 0 0 0 0 0 0 0 0 0 0 0 0 0 0 0 0 0 0 0 0 0 0 0 0 0 0 0 0 0 0 0 0 0 0 0 0 0 0 0 0 0 0 0 0 0 0 0 0 0 0 0 0 0 0 0 0 0 0 0 0 0 0 0 0 0 0 0 0 0 0
2877 2877 2877 2906 2945 3003 3011 3015 3020 3023 3050 3070 3086 3091 3097 3097 3102 3114 3121 3121 3121 3121 3121 3128 3145 3145 3148 3148 3161 3161 3161 3157 3157 3157 3173 3183 3188 3190 3190 3190 3190 3190 3191 3200 3216 3240 3253 3256 3257 3257 3259 3268 3287 3309 3321 3321 3321 3311 3295 3293 3293 3294 3294 3296 3299 3299 3299 3300 3303 3312 3320 3331 3343 3350 3352 3354 3357 3364 3369 3373 3378 3380 3380 3380 3374 3374 3373 3372 3365 3351 3347 3347 3351 3398 3479 3517 3527 3528 3529 3530 3531 3533 3538 3540 3540 3540 3536 3533 3529 3529 3528 3527 3525 3521 3519 3517 3516 3516 3515 3513 3513 3509 3509 3509 3511 3513 3513 3513 3513 3511 3510 3504 3502 3502 3502 3501 3501 3501 3504 3509 3521 3521 3521 3520 3518 3511 3507 3501 3501 3498 3498 3496 3488 3479 3471 3467 3465 3462 3462 3462 3464 3466 3466 3466 3466 3470 3474 3477 3477 3477 3476 3462 3460 3456 3456 3456 3479 3496 3496 3496 3496 3479 3447 3401 3342 3231 2810 2574 0 2402 2378 2365 2354 2346 2336 2332 2332 2331 2329 2323 2320 2320 2318 2315 2313 2311 2311 2309 2308 2306 2304 2301 2297 2292 2290 2285 2281 2279 2277 2277 2276 2275 2275 2274 2274 2275 2276 2278 2279 2279 2279 2279 2277 2276 2276 2254 2231 2213 2189 2166 2151 2138 2124 2116 2113 2102 2092 2083 2078 2064 2016 1985 1985 1985 1989 1992 2000 2015 2016 2016 2016 2016 2016 2015 2014 2012 2011 2008 2006 2005 2004 2002 1998 1992 1988 1985 1983 1983 1981 1976 1972 1965 1956 1953 1950 1932 1895 1857 1846 1841 1829 1814 1799 1795 1790 1787 1781 1774 1770 1765 1763 1762 1758 1753 1751 1749 1748 1748 1748 1748 1748 1748 1748 1749 1749 1751 1752 1753 1756 1756 1758 1760 1762 1764 1766 1767 1768 1769 1770 1771 1773 1774 1774 1775 1775 1777 1779 1780 1782 1785 1790 1795 1799 1807 1813 1814 1814 1817 1818 1822 1823 1824 1826 1827 1829 1830 1832 1833 1833 1833 1833 1836 1837 1838 1840 1842 1842 1844 1846 1846 1850 1851 1853 1853 1859 1863 1866 1870 1877 1878 1880 1881 1886 1896 1904 1914 1927 1929 1930 1933 1936 1936 1936 1935 1934 1934 1935 1937 1937 1937 1937 1933 1930 1923 1917 1907 1899 1885 1877 1861 1851 1839 0 0 0 1754 1742 1731 1728 1727 1723 1719 1716 1715 1713 1712 1708 1703 1701 1698 1696 1695 1692 1689 1689 1686 1683 1682 1680 1679 1676 1673 1670 1666 1663 1660 1657 1655 1652 1649 1648 1646 1642 1640 1638 1636 1635 1633 1631 1628 1625 1623 1620 1618 1615 1612 1610 1608 1606 1604 1601 1599 1597 1595 1593 1590 1588 1584 1580 1576 1575 1571 1560 1545 1539 1533 1523 1515 1511 1511 1511 1512 1512 1512 1506 1505 1504 1504 1504 1503 1503 1504 1505 1508 1513 1515 1515 1515 1515 1515 1513 1513 1510 1508 1506 1504 1502 1500 1497 1495 1493 1491 1490 1487 1486 1484 1482 1480 1478 1477 1475 1473 1471 1469 1467 1465 1463 1462 1460 1458 1456 1455 1455 1454 1451 1444 1444 1443 1442 1432 0 0 0 0 0 0 0 0 0 0 0 0 0 0 0 0 0 0 0 0 0 0 0 0 0 0 0 0 0 0 0 0 0 0 0 0 0 0 0 0 0 0 0 0 0 0 0 0 0 0 0 0 0 0 0 0 0 0 0 0 0 0 0 0 0 0 0 0 0 0 0 0 0 0 0 0 0 0 0 0 0 0 0 0 0 0 0 0 0 0
2877 2877 2906 2939 2969 3006 3011 3015 3022 3023 3050 3070 3089 3089 3089 3093 3094 3116 3125 3125 3125 3128 3131 3131 3146 3146 3151 3162 3163 3163 3163 3160 3160 3160 3173 3183 3195 3197 3197 3203 3204 3206 3206 3212 3229 3247 3259 3259 3261 3261 3269 3278 3295 3309 3321 3321 3321 3311 3304 3300 3300 3300 3301 3301 3301 3300 3300 3300 3304 3314 3321 3331 3342 3349 3352 3354 3357 3364 3369 3376 3383 3390 3390 3390 3380 3377 3375 3375 3365 3351 3346 3346 3351 3402 3479 3517 3528 3532 3538 3538 3538 3539 3541 3543 3543 3543 3539 3536 3534 3531 3529 3529 3525 3523 3523 3521 3521 3520 3518 3515 3513 3513 3513 3514 3514 3515 3515 3515 3513 3511 3509 3504 3502 3502 3501 3501 3501 3501 3504 3509 3521 3521 3521 3520 3518 3514 3507 3499 3499 3498 3498 3490 3479 3469 3468 3467 3465 3463 3463 3463 3465 3466 3467 3467 3468 3470 3474 3477 3477 3477 3476 3462 3460 3459 3459 3459 3475 3496 3496 3496 3496 3479 3447 3400 3337 3180 2793 2573 0 2398 2377 2360 2354 2346 2334 2332 2331 2328 2327 2323 2320 2320 2317 2314 2313 2311 2311 2309 2307 2306 2304 2302 2299 2295 2292 2287 2281 2280 2279 2278 2277 2277 2277 2277 2278 2279 2279 2282 2284 2284 2284 2284 2279 2277 2277 2258 2233 2216 2192 2168 2154 2139 2127 2122 2113 2103 2092 2085 2083 2067 2049 2019 2011 2011 2011 2014 2017 2017 2018 2018 2018 2018 2016 2015 2014 2013 2011 2008 2005 2003 2002 2001 1998 1992 1988 1985 1983 1983 1980 1972 1964 1954 1946 1946 1935 1901 1866 1849 1838 1832 1818 1803 1794 1793 1790 1787 1780 1774 1769 1765 1760 1758 1754 1751 1750 1748 1747 1747 1746 1746 1746 1747 1748 1749 1749 1750 1752 1753 1755 1756 1758 1760 1762 1764 1766 1768 1768 1769 1770 1771 1772 1773 1774 1774 1775 1776 1778 1779 1781 1783 1788 1792 1797 1800 1807 1812 1814 1817 1818 1822 1824 1825 1826 1828 1829 1830 1832 1833 1834 1834 1835 1836 1838 1839 1840 1842 1842 1842 1843 1844 1847 1848 1848 1848 1848 1848 1849 1852 1857 1861 1862 1863 1864 1869 1876 1892 1906 1916 1921 1927 1935 1935 1935 1933 1933 1933 1933 1933 1933 1931 1926 1917 1906 1903 1889 1876 1869 1855 0 0 0 1793 1767 1759 1746 1739 1734 1731 1727 1725 1721 1719 1716 1714 1712 1711 1706 1703 1701 1698 1696 1694 1692 1689 1686 1684 1683 1680 1680 1677 1674 1672 1669 1666 1662 1660 1657 1653 1651 1649 1646 1645 1642 1640 1638 1636 1634 1631 1630 1628 1624 1621 1619 1618 1614 1612 1610 1608 1605 1603 1601 1599 1597 1594 1593 1590 1588 1584 1581 1576 1575 1571 1559 1537 1531 1528 1518 1510 1509 1509 1509 1509 1509 1509 1506 1505 1505 1505 1505 1505 1505 1506 1506 1508 1513 1515 1515 1515 1514 1514 1513 1512 1510 1507 1506 1504 1502 1499 1497 1495 1493 1491 1490 1487 1486 1484 1482 1480 1478 1477 1475 1473 1471 1469 1467 1465 1463 1462 1460 1458 1456 1455 1455 1454 1451 1449 1443 1442 1440 1433 0 0 0 0 0 0 0 0 0 0 0 0 0 0 0 0 0 0 0 0 0 0 0 0 0 0 0 0 0 0 0 0 0 0 0 0 0 0 0 0 0 0 0 0 0 0 0 0 0 0 0 0 0 0 0 0 0 0 0 0 0 0 0 0 0 0 0 0 0 0 0 0 0 0 0 0 0 0 0 0 0 0 0 0 0 0 0 0 0 0
2877 2877 2907 2939 2969 3006 3011 3015 3022 3023 3052 3070 3089 3089 3089 3089 3093 3116 3126 3131 3132 3138 3140 3141 3153 3154 3161 3162 3164 3164 3164 3162 3162 3162 3173 3183 3195 3197 3201 3207 3212 3213 3223 3229 3238 3255 3259 3261 3261 3261 3271 3286 3298 3311 3328 3328 3328 3314 3308 3303 3303 3303 3302 3302 3302 3301 3301 3301 3305 3314 3324 3331 3341 3349 3357 3359 3364 3364 3372 3382 3392 3400 3400 3400 3392 3385 3382 3378 3365 3349 3346 3346 3349 3405 3481 3513 3529 3535 3542 3544 3545 3545 3546 3546 3546 3543 3540 3537 3535 3535 3533 3531 3529 3528 3526 3525 3524 3523 3521 3518 3515 3515 3515 3515 3515 3516 3516 3516 3513 3511 3509 3504 3501 3499 3499 3499 3498 3498 3499 3509 3520 3520 3520 3520 3518 3514 3507 3498 3498 3497 3496 3488 3475 3468 3465 3465 3465 3464 3465 3465 3465 3467 3468 3468 3469 3470 3474 3474 3474 3473 3472 3472 3467 3466 3462 3442 3442 3442 3481 3481 3481 3479 3447 3367 3270 2962 2696 2521 0 2395 2377 2360 2354 2346 2334 2332 2331 2327 2325 2323 2320 2320 2317 2314 2313 2312 2311 2309 2307 2306 2304 2302 2301 2297 2294 2292 2286 2282 2281 2279 2278 2278 2278 2279 2280 2281 2284 2285 2286 2286 2286 2286 2283 2281 2278 2262 2234 2216 2194 2169 2154 2141 2131 2124 2115 2106 2095 2088 2083 2072 2062 2049 2042 2019 2016 2016 2019 2021 2021 2021 2019 2018 2017 2015 2015 2013 2011 2008 2005 2003 2001 2001 1998 1992 1988 1985 1983 1983 1973 1963 1950 1942 1929 1918 1902 1879 1857 1834 1814 1812 1804 1797 1792 1788 1786 1783 1780 1773 1765 1760 1755 1752 1751 1748 1746 1746 1746 1746 1745 1745 1745 1746 1746 1748 1748 1750 1751 1753 1754 1756 1758 1760 1762 1764 1766 1768 1769 1769 1770 1771 1772 1773 1773 1774 1775 1776 1777 1779 1780 1782 1784 1790 1796 1800 1803 1808 1812 1814 1817 1822 1824 1826 1827 1828 1829 1830 1832 1835 1835 1836 1837 1838 1840 1841 1841 1842 1842 1842 1843 1843 1843 1843 1840 1840 1840 1840 1840 1842 1844 1844 1847 1849 1850 1855 1860 1864 1880 1891 1898 1898 1907 1916 1921 1927 1931 1931 1931 1929 1916 1898 1886 1876 1866 1861 0 0 1812 1795 1775 1758 1752 1749 1745 1741 1737 1736 1733 1729 1725 1723 1721 1719 1716 1714 1712 1710 1705 1703 1700 1698 1696 1694 1691 1689 1686 1684 1682 1679 1677 1675 1673 1671 1668 1665 1662 1659 1655 1652 1649 1647 1645 1644 1641 1639 1637 1634 1632 1631 1628 1626 1624 1621 1619 1617 1614 1611 1609 1607 1604 1603 1600 1599 1596 1594 1592 1590 1588 1586 1581 1577 1575 1570 1559 1537 1527 1520 1514 1509 1508 1508 1508 1508 1508 1507 1505 1504 1504 1504 1505 1505 1506 1507 1507 1507 1511 1514 1514 1514 1514 1513 1512 1511 1509 1507 1505 1503 1501 1498 1496 1495 1493 1491 1490 1487 1486 1484 1482 1480 1478 1477 1475 1473 1471 1469 1467 1465 1463 1462 1460 1458 1456 1455 1455 1454 1453 1451 1443 1443 1439 1432 0 0 0 0 0 0 0 0 0 0 0 0 0 0 0 0 0 0 0 0 0 0 0 0 0 0 0 0 0 0 0 0 0 0 0 0 0 0 0 0 0 0 0 0 0 0 0 0 0 0 0 0 0 0 0 0 0 0 0 0 0 0 0 0 0 0 0 0 0 0 0 0 0 0 0 0 0 0 0 0 0 0 0 0 0 0 0 0 0 0
2877 2877 2909 2940 2969 3006 3022 3023 3032 3033 3061 3089 3090 3090 3089 3089 3093 3124 3128 3132 3133 3141 3145 3151 3154 3155 3162 3164 3167 3167 3167 3165 3165 3165 3175 3181 3193 3197 3203 3210 3216 3221 3227 3239 3254 3263 3263 3263 3263 3263 3273 3287 3298 3316 3328 3328 3328 3314 3310 3303 3303 3303 3304 3304 3304 3303 3303 3303 3311 3319 3328 3334 3340 3349 3357 3361 3367 3370 3375 3388 3404 3409 3409 3409 3405 3400 3396 3391 3362 3349 3344 3344 3344 3415 3483 3513 3526 3536 3544 3546 3546 3548 3546 3546 3546 3544 3540 3538 3537 3537 3535 3534 3533 3533 3533 3532 3530 3527 3524 3521 3519 3516 3516 3516 3517 3517 3517 3517 3514 3509 3509 3504 3501 3498 3496 3495 3495 3495 3497 3501 3507 3513 3514 3514 3514 3514 3507 3500 3498 3497 3495 3488 3474 3467 3465 3465 3465 3465 3466 3469 3469 3469 3469 3469 3469 3469 3470 3471 3475 3475 3475 3476 3467 3467 3467 3437 3409 3409 3434 3437 3434 3434 3410 3332 3185 2902 2636 0 2414 2386 2377 2360 2355 2348 2334 2332 2330 2327 2325 2323 2320 2320 2317 2314 2313 2312 2311 2309 2307 2306 2304 2303 2302 2300 2298 2292 2289 2284 2284 2282 2281 2280 2280 2280 2282 2284 2286 2287 2287 2287 2287 2287 2286 2286 2282 2269 2238 2216 2195 2174 2155 2142 2134 2126 2115 2106 2097 2089 2083 2076 2065 2057 2055 2040 2024 2024 2024 2025 2025 2025 2020 2020 2019 2018 2016 2015 2011 2008 2005 2002 2001 2001 1997 1992 1986 1983 1981 1980 1972 1959 1945 1925 1904 1893 1882 1857 1821 1807 1804 1799 1796 1795 1790 1785 1782 1779 1775 1765 1757 1754 1751 1749 1748 1746 1744 1744 1744 1744 1744 1744 1745 1745 1746 1747 1748 1750 1751 1753 1754 1756 1757 1760 1762 1764 1766 1768 1769 1770 1771 1771 1772 1773 1773 1774 1775 1776 1777 1779 1780 1781 1784 1788 1792 1797 1801 1804 1809 1813 1814 1820 1824 1828 1829 1829 1830 1834 1835 1836 1839 1839 1839 1839 1841 1843 1843 1843 1843 1842 1842 1842 1842 1841 1840 1839 1839 1839 1839 1839 1838 1838 1838 1838 1838 1839 1844 1854 1854 1856 1857 1865 1872 1892 1898 1900 1903 1903 1900 1892 1876 1862 1852 1843 1826 1801 1789 1784 1776 1769 1761 1757 1752 1749 1745 1740 1736 1734 1731 1725 1725 1723 1721 1719 1715 1713 1711 1709 1705 1703 1700 1698 1696 1693 1690 1688 1686 1684 1681 1679 1677 1674 1671 1668 1667 1664 1661 1658 1655 1650 1647 1645 1643 1642 1641 1638 1634 1631 1629 1627 1626 1623 1622 1620 1617 1615 1613 1611 1608 1606 1604 1602 1600 1598 1596 1594 1592 1590 1588 1586 1581 1579 1576 1570 1557 1535 1527 1518 1511 1507 1506 1506 1506 1505 1505 1504 1504 1503 1503 1503 1505 1505 1506 1507 1507 1507 1511 1513 1514 1514 1514 1513 1512 1510 1509 1506 1505 1502 1501 1498 1496 1495 1493 1491 1489 1487 1486 1484 1482 1480 1478 1476 1474 1472 1471 1469 1467 1465 1463 1462 1460 1458 1456 1455 1455 1454 1454 1452 1444 1444 1439 1432 0 0 0 0 0 0 0 0 0 0 0 0 0 0 0 0 0 0 0 0 0 0 0 0 0 0 0 0 0 0 0 0 0 0 0 0 0 0 0 0 0 0 0 0 0 0 0 0 0 0 0 0 0 0 0 0 0 0 0 0 0 0 0 0 0 0 0 0 0 0 0 0 0 0 0 0 0 0 0 0 0 0 0 0 0 0 0 0 0 0
2867 2867 2914 2940 2969 2983 2991 3014 3032 3077 3097 3097 3097 3093 3089 3089 3093 3124 3128 3132 3136 3144 3153 3153 3156 3161 3164 3165 3167 3170 3170 3170 3175 3175 3175 3181 3185 3196 3204 3213 3216 3226 3231 3249 3264 3264 3264 3263 3263 3263 3273 3289 3299 3309 3317 3317 3317 3310 3310 3309 3306 3306 3305 3305 3304 3304 3304 3312 3324 3329 3332 3336 3341 3349 3357 3361 3369 3371 3378 3395 3413 3413 3413 3412 3411 3410 3408 3407 3364 3362 3344 3344 3344 3437 3483 3513 3526 3538 3546 3546 3546 3548 3546 3546 3546 3544 3540 3539 3539 3538 3539 3538 3539 3539 3539 3538 3538 3532 3529 3525 3522 3518 3518 3518 3519 3519 3519 3517 3514 3509 3506 3504 3501 3498 3494 3494 3494 3494 3497 3501 3503 3506 3507 3507 3507 3507 3507 3500 3495 3491 3490 3487 3473 3466 3465 3465 3465 3466 3468 3471 3472 3472 3472 3470 3470 3470 3470 3471 3475 3476 3476 3478 3478 3481 3481 3481 3437 3391 3390 3384 3360 3326 3326 3290 3155 2829 2600 0 2401 2381 2370 2360 2357 2353 2336 2332 2330 2327 2325 2324 2322 2320 2317 2315 2314 2312 2311 2309 2307 2306 2304 2303 2303 2302 2299 2294 2293 2288 2285 2285 2282 2282 2282 2282 2284 2285 2286 2289 2289 2290 2290 2293 2293 2293 2287 2270 2238 2216 2197 2185 2168 2147 2134 2127 2116 2107 2098 2090 2083 2076 2073 2065 2056 2050 2045 2040 2036 2034 2030 2027 2023 2023 2022 2022 2020 2015 2011 2007 2005 2001 2001 2000 1996 1992 1986 1980 1980 1978 1971 1957 1924 1897 1879 1869 1839 1822 1811 1806 1802 1797 1796 1792 1787 1781 1777 1772 1765 1758 1755 1750 1749 1748 1746 1744 1743 1743 1743 1743 1743 1743 1744 1745 1746 1747 1748 1750 1751 1753 1754 1756 1758 1760 1762 1763 1766 1768 1769 1771 1772 1772 1773 1773 1773 1774 1775 1776 1777 1779 1780 1781 1783 1786 1790 1794 1796 1802 1807 1812 1814 1820 1824 1829 1832 1835 1837 1838 1838 1838 1842 1842 1843 1843 1843 1843 1843 1843 1843 1842 1842 1839 1838 1838 1838 1838 1838 1838 1838 1838 1838 1837 1836 1835 1834 1834 1834 1837 1837 1837 1837 1837 1854 1874 1874 1874 1867 1866 1859 1852 1847 1835 1821 1808 1788 1777 1769 1768 1768 1764 1760 1755 1751 1748 1745 1740 1736 1734 1730 1726 1725 1723 1719 1717 1715 1712 1710 1707 1704 1702 1699 1697 1695 1692 1690 1688 1686 1683 1681 1679 1677 1674 1671 1668 1665 1663 1661 1658 1654 1650 1647 1645 1643 1642 1640 1638 1634 1627 1625 1624 1624 1623 1621 1618 1617 1615 1613 1611 1608 1606 1604 1602 1600 1598 1596 1594 1592 1590 1588 1586 1581 1579 1576 1570 1557 1535 1527 1518 1510 1506 1505 1504 1503 1503 1503 1503 1503 1503 1503 1503 1505 1505 1505 1506 1507 1507 1510 1513 1513 1513 1513 1512 1511 1509 1508 1505 1503 1502 1499 1498 1496 1494 1492 1490 1489 1486 1484 1483 1481 1479 1478 1476 1474 1472 1470 1468 1467 1465 1463 1462 1459 1458 1456 1455 1455 1455 1454 1453 1448 1445 1439 1433 0 0 0 0 0 0 0 0 0 0 0 0 0 0 0 0 0 0 0 0 0 0 0 0 0 0 0 0 0 0 0 0 0 0 0 0 0 0 0 0 0 0 0 0 0 0 0 0 0 0 0 0 0 0 0 0 0 0 0 0 0 0 0 0 0 0 0 0 0 0 0 0 0 0 0 0 0 0 0 0 0 0 0 0 0 0 0 0 0 0
2867 2867 2914 2940 2952 2957 2965 3002 3032 3077 3100 3101 3105 3105 3105 3105 3113 3130 3132 3132 3144 3144 3155 3155 3158 3162 3165 3165 3167 3170 3171 3175 3175 3176 3177 3181 3185 3196 3208 3215 3221 3226 3235 3249 3264 3266 3266 3269 3269 3269 3282 3293 3301 3307 3317 3317 3317 3311 3311 3311 3312 3312 3312 3312 3312 3312 3315 3325 3333 3337 3339 3340 3342 3349 3356 3363 3370 3378 3388 3403 3414 3416 3416 3416 3414 3412 3408 3407 3367 3360 3344 3344 3344 3445 3493 3513 3529 3536 3546 3547 3547 3547 3546 3546 3545 3544 3543 3541 3541 3541 3541 3541 3542 3543 3543 3543 3543 3540 3536 3528 3524 3521 3520 3520 3520 3520 3520 3517 3514 3509 3506 3504 3498 3494 3493 3493 3493 3493 3497 3501 3503 3506 3507 3507 3507 3507 3507 3501 3495 3490 3488 3483 3473 3468 3468 3468 3469 3470 3471 3471 3472 3472 3472 3471 3470 3470 3470 3471 3475 3479 3480 3480 3481 3490 3490 3490 3482 3437 3390 3326 3304 3299 3283 3262 3116 2812 2568 0 2399 2380 2368 2360 2357 2353 2338 2332 2330 2329 2327 2324 2322 2320 2317 2316 2314 2312 2311 2309 2307 2306 2305 2305 2303 2303 2302 2300 2295 2292 2288 2287 2285 2285 2285 2285 2287 2287 2287 2289 2291 2292 2293 2294 2294 2294 2288 2272 2239 2218 2202 2192 2177 2155 2139 2130 2116 2108 2102 2098 2084 2076 2074 2070 2062 2054 2047 2042 2039 2034 2031 2027 2023 2023 2023 2022 2020 2015 2009 2004 2001 1995 1990 1988 1984 1983 1980 1980 1972 1970 1939 1899 1874 1861 1857 1842 1831 1821 1810 1805 1800 1796 1795 1787 1780 1772 1768 1764 1759 1754 1752 1750 1748 1747 1745 1742 1742 1742 1742 1742 1742 1742 1743 1744 1745 1746 1748 1750 1751 1753 1754 1756 1758 1760 1761 1763 1765 1767 1769 1771 1772 1773 1773 1774 1774 1775 1776 1777 1778 1779 1780 1781 1782 1783 1787 1792 1795 1800 1806 1809 1812 1817 1824 1830 1834 1839 1842 1844 1844 1844 1845 1845 1845 1845 1844 1844 1843 1843 1843 1842 1842 1839 1838 1838 1838 1839 1838 1838 1838 1837 1837 1836 1835 1834 1831 1831 1831 1832 1832 1832 1830 1830 1830 1834 1838 1838 1838 1838 1838 1829 1817 1808 1789 1775 1774 1772 1769 1768 1765 1763 1758 1754 1751 1748 1745 1740 1736 1732 1730 1726 1725 1722 1719 1716 1714 1711 1708 1706 1704 1701 1699 1696 1694 1692 1690 1688 1686 1683 1681 1679 1676 1674 1670 1667 1665 1663 1661 1657 1654 1650 1647 1643 1641 1641 1638 1637 1633 1626 1625 1623 1622 1621 1620 1618 1616 1615 1613 1611 1608 1606 1604 1602 1600 1598 1596 1594 1592 1590 1587 1585 1581 1579 1576 1570 1557 1535 1523 1516 1509 1503 1502 1501 1501 1501 1501 1502 1503 1503 1503 1503 1504 1505 1505 1505 1507 1507 1510 1512 1512 1512 1512 1512 1510 1509 1506 1505 1503 1500 1498 1497 1495 1494 1491 1489 1487 1485 1483 1481 1480 1478 1476 1474 1473 1471 1470 1468 1466 1464 1462 1461 1458 1457 1456 1455 1455 1455 1455 1453 1449 1446 1439 1433 0 0 0 0 0 0 0 0 0 0 0 0 0 0 0 0 0 0 0 0 0 0 0 0 0 0 0 0 0 0 0 0 0 0 0 0 0 0 0 0 0 0 0 0 0 0 0 0 0 0 0 0 0 0 0 0 0 0 0 0 0 0 0 0 0 0 0 0 0 0 0 0 0 0 0 0 0 0 0 0 0 0 0 0 0 0 0 0 0 0
2867 2867 2914 2940 2952 2957 2965 3002 3049 3082 3100 3114 3118 3120 3121 3122 3126 3130 3132 3140 3144 3148 3157 3157 3159 3163 3164 3166 3168 3170 3171 3172 3175 3176 3179 3180 3185 3196 3210 3221 3227 3233 3235 3249 3264 3269 3269 3269 3271 3280 3289 3298 3301 3306 3312 3314 3315 3315 3315 3316 3315 3314 3315 3317 3319 3324 3328 3331 3339 3340 3342 3342 3343 3352 3356 3365 3374 3386 3399 3408 3414 3416 3416 3416 3414 3412 3408 3407 3369 3357 3345 3345 3345 3445 3495 3513 3529 3536 3546 3547 3547 3547 3546 3546 3546 3546 3545 3545 3545 3544 3544 3544 3545 3546 3546 3546 3546 3542 3541 3532 3524 3521 3520 3520 3520 3520 3520 3518 3514 3511 3506 3499 3492 3492 3491 3491 3492 3493 3499 3504 3504 3506 3507 3507 3507 3507 3507 3502 3495 3490 3488 3483 3473 3473 3473 3474 3474 3474 3474 3474 3474 3474 3474 3474 3474 3474 3474 3478 3486 3486 3486 3491 3491 3492 3499 3499 3499 3452 3408 3326 3304 3292 3283 3147 2971 2700 0 0 2399 2379 2366 2360 2357 2353 2343 2333 2330 2330 2327 2324 2322 2320 2318 2316 2314 2312 2311 2309 2307 2306 2306 2305 2304 2303 2303 2302 2298 2294 2293 2290 2288 2287 2287 2287 2288 2290 2291 2292 2292 2295 2296 2296 2296 2295 2289 2274 2242 2223 2210 2199 2182 2161 2145 2132 2119 2113 2110 2104 2093 2087 2081 2072 2064 2055 2048 2044 2039 2036 2032 2027 2023 2023 2023 2022 2020 2010 2002 1995 1987 1977 1973 1973 1972 1969 1968 1965 1962 1945 1894 1871 1848 1838 1836 1831 1825 1815 1808 1803 1800 1796 1790 1781 1774 1763 1762 1760 1756 1754 1752 1750 1748 1746 1741 1741 1741 1741 1741 1741 1741 1742 1743 1744 1745 1747 1748 1750 1751 1753 1754 1756 1758 1759 1761 1762 1765 1767 1769 1771 1773 1774 1774 1775 1775 1775 1777 1778 1779 1779 1780 1781 1782 1783 1784 1789 1795 1797 1799 1804 1811 1816 1823 1831 1839 1846 1846 1846 1846 1846 1846 1846 1846 1845 1845 1845 1844 1843 1843 1842 1842 1839 1838 1838 1838 1839 1838 1838 1838 1837 1836 1835 1834 1833 1831 1829 1827 1827 1825 1825 1824 1821 1812 1807 1806 1803 1802 1801 1796 1795 1787 1783 1780 1775 1772 1771 1768 1767 1764 1762 1758 1754 1751 1748 1745 1740 1736 1731 1729 1726 1725 1722 1718 1715 1713 1710 1708 1706 1703 1701 1698 1696 1694 1692 1690 1688 1685 1683 1681 1678 1676 1673 1669 1666 1664 1661 1657 1652 1651 1650 1646 1641 1636 1633 1630 1629 1629 1626 1622 1620 1620 1620 1619 1618 1616 1614 1613 1610 1608 1606 1604 1602 1599 1598 1596 1594 1591 1590 1587 1585 1581 1580 1576 1569 1557 1533 1519 1515 1509 1503 1502 1501 1501 1501 1501 1502 1503 1503 1503 1503 1503 1503 1504 1505 1506 1507 1510 1512 1512 1512 1511 1510 1509 1508 1506 1503 1502 1500 1498 1495 1494 1492 1489 1488 1486 1485 1483 1480 1478 1477 1476 1474 1472 1471 1469 1467 1465 1463 1462 1460 1458 1456 1455 1455 1455 1454 1454 1453 1449 1446 1438 1429 1412 0 0 0 0 0 0 0 0 0 0 0 0 0 0 0 0 0 0 0 0 0 0 0 0 0 0 0 0 0 0 0 0 0 0 0 0 0 0 0 0 0 0 0 0 0 0 0 0 0 0 0 0 0 0 0 0 0 0 0 0 0 0 0 0 0 0 0 0 0 0 0 0 0 0 0 0 0 0 0 0 0 0 0 0 0 0 0 0 0
2881 2881 2923 2951 2952 2957 2965 3002 3049 3082 3100 3114 3118 3122 3122 3122 3126 3130 3130 3143 3144 3148 3157 3160 3160 3163 3167 3167 3168 3170 3171 3174 3175 3177 3185 3186 3192 3196 3212 3221 3228 3233 3235 3240 3250 3266 3271 3282 3286 3294 3298 3299 3300 3301 3310 3312 3315 3315 3316 3318 3318 3315 3318 3318 3320 3327 3328 3334 3339 3340 3342 3344 3347 3352 3356 3367 3381 3396 3406 3408 3414 3415 3415 3415 3414 3408 3408 3394 3370 3354 3350 3350 3350 3458 3495 3510 3525 3536 3544 3548 3548 3548 3546 3546 3546 3548 3548 3548 3548 3547 3547 3547 3547 3548 3548 3548 3548 3546 3541 3532 3524 3521 3521 3521 3521 3521 3521 3518 3515 3511 3505 3497 3492 3492 3491 3491 3492 3494 3499 3509 3514 3514 3514 3510 3510 3508 3508 3506 3498 3490 3490 3483 3473 3473 3473 3475 3475 3475 3478 3478 3478 3479 3480 3480 3479 3479 3480 3481 3489 3489 3489 3491 3491 3493 3505 3505 3505 3465 3433 3396 3375 3285 3283 3105 2779 2518 0 2396 2390 2376 2362 2354 2354 2350 2343 2340 2335 2330 2327 2324 2322 2320 2318 2316 2314 2313 2311 2309 2308 2307 2307 2306 2305 2305 2303 2303 2301 2298 2296 2293 2290 2290 2290 2290 2290 2291 2294 2295 2295 2297 2298 2298 2298 2296 2290 2274 2249 2233 2219 2204 2185 2165 2147 2133 2124 2119 2118 2110 2100 2091 2083 2073 2066 2056 2052 2047 2040 2036 2032 2027 2023 2022 2018 2015 2005 1994 1981 1970 1963 1960 1960 1959 1958 1952 1940 1939 1922 1904 1885 1849 1832 1826 1825 1824 1816 1807 1803 1798 1793 1783 1776 1771 1762 1760 1756 1752 1751 1751 1751 1748 1746 1742 1740 1740 1740 1740 1740 1740 1741 1742 1743 1744 1745 1747 1748 1750 1751 1753 1754 1756 1757 1758 1760 1762 1764 1766 1769 1771 1774 1774 1776 1776 1776 1776 1778 1779 1779 1780 1781 1782 1782 1783 1784 1786 1792 1794 1797 1801 1806 1813 1821 1830 1840 1849 1851 1851 1851 1850 1849 1848 1848 1846 1846 1845 1844 1844 1843 1843 1843 1841 1841 1840 1839 1839 1839 1838 1838 1837 1836 1835 1834 1833 1829 1826 1823 1820 1817 1815 1815 1811 1808 1805 1805 1803 1797 1793 1792 1789 1782 1779 1778 1774 1771 1770 1766 1765 1762 1758 1754 1751 1748 1746 1742 1738 1735 1731 1729 1727 1725 1722 1718 1715 1713 1710 1708 1705 1703 1701 1698 1696 1694 1692 1690 1688 1685 1683 1680 1678 1676 1673 1669 1666 1663 1658 1650 1649 1647 1646 1645 1638 1633 1633 1630 1624 1621 1618 1617 1617 1617 1617 1617 1617 1614 1613 1611 1610 1608 1606 1604 1602 1599 1598 1596 1594 1591 1588 1586 1584 1581 1580 1576 1569 1557 1533 1519 1515 1509 1503 1502 1501 1501 1501 1502 1502 1503 1503 1503 1503 1503 1503 1504 1504 1504 1507 1510 1512 1512 1512 1511 1509 1508 1506 1505 1503 1501 1499 1497 1494 1492 1491 1489 1488 1485 1484 1482 1478 1477 1476 1474 1473 1471 1470 1467 1466 1465 1463 1461 1460 1458 1456 1454 1454 1454 1454 1454 1451 1449 1444 1438 1429 1412 0 0 0 0 0 0 0 0 0 0 0 0 0 0 0 0 0 0 0 0 0 0 0 0 0 0 0 0 0 0 0 0 0 0 0 0 0 0 0 0 0 0 0 0 0 0 0 0 0 0 0 0 0 0 0 0 0 0 0 0 0 0 0 0 0 0 0 0 0 0 0 0 0 0 0 0 0 0 0 0 0 0 0 0 0 0 0 0 0
2925 2925 2961 2984 2985 3008 3027 3047 3070 3082 3090 3105 3117 3122 3126 3126 3128 3128 3130 3143 3144 3145 3157 3157 3160 3163 3166 3167 3168 3170 3171 3171 3175 3176 3188 3195 3197 3199 3212 3221 3228 3233 3234 3239 3250 3265 3272 3282 3290 3294 3294 3298 3299 3299 3310 3312 3315 3316 3319 3319 3319 3318 3318 3318 3321 3328 3330 3335 3337 3340 3342 3346 3355 3359 3363 3371 3389 3404 3407 3408 3408 3409 3409 3409 3407 3407 3402 3386 3370 3359 3358 3359 3359 3458 3495 3510 3529 3536 3544 3549 3549 3549 3548 3548 3548 3550 3550 3550 3550 3550 3550 3550 3551 3551 3551 3550 3550 3547 3542 3533 3524 3521 3521 3521 3522 3522 3522 3519 3516 3511 3505 3497 3492 3492 3491 3491 3492 3494 3502 3511 3523 3523 3523 3522 3520 3520 3511 3510 3504 3500 3495 3492 3486 3482 3481 3481 3479 3479 3481 3482 3483 3484 3485 3485 3484 3482 3482 3482 3489 3489 3490 3491 3491 3493 3505 3505 3505 3472 3454 3445 3428 3371 3270 3074 2727 0 0 2387 2376 2368 2358 2353 2351 2348 2343 2340 2335 2330 2327 2324 2321 2320 2318 2316 2314 2313 2311 2309 2309 2309 2309 2308 2307 2306 2304 2304 2303 2300 2298 2296 2292 2292 2292 2292 2292 2293 2296 2297 2298 2299 2299 2299 2299 2298 2294 2279 2257 2242 2228 2215 2191 2166 2148 2135 2131 2127 2118 2110 2100 2093 2083 2074 2066 2059 2055 2049 2044 2037 2032 2026 2021 2016 2008 1998 1982 1965 1945 1933 1933 1931 1931 1931 1923 1918 1912 1905 1895 1881 1847 1829 1824 1823 1822 1817 1806 1796 1790 1787 1774 1764 1759 1758 1758 1757 1753 1750 1749 1748 1746 1743 1740 1738 1738 1738 1738 1739 1739 1739 1740 1742 1743 1744 1746 1747 1748 1750 1751 1753 1754 1756 1757 1758 1759 1760 1762 1765 1769 1771 1774 1775 1776 1776 1776 1777 1778 1779 1779 1780 1781 1782 1783 1783 1784 1786 1790 1793 1796 1801 1806 1811 1821 1830 1840 1849 1853 1853 1853 1853 1852 1852 1851 1850 1848 1847 1844 1844 1844 1844 1844 1843 1842 1841 1839 1839 1838 1838 1838 1836 1836 1835 1833 1830 1828 1826 1823 1819 1815 1815 1812 1811 1807 1804 1803 1801 1797 1792 1791 1784 1782 1778 1777 1774 1771 1770 1766 1761 1757 1754 1752 1749 1747 1744 1741 1737 1734 1731 1729 1727 1725 1721 1718 1715 1713 1710 1707 1705 1703 1701 1698 1696 1694 1692 1690 1688 1685 1683 1680 1677 1675 1673 1669 1666 1661 1655 1650 1645 1643 1641 1636 1631 1629 1627 1626 1623 1618 1615 1614 1614 1614 1616 1616 1616 1613 1611 1610 1609 1608 1605 1604 1602 1599 1598 1595 1593 1591 1588 1586 1584 1581 1580 1576 1569 1554 1533 1519 1515 1512 1506 1502 1501 1501 1501 1502 1503 1503 1503 1503 1503 1503 1503 1504 1504 1504 1507 1510 1511 1511 1511 1510 1509 1508 1505 1504 1502 1500 1497 1494 1493 1490 1489 1489 1488 1485 1481 1478 1477 1474 1473 1472 1471 1469 1467 1466 1465 1464 1462 1461 1459 1457 1456 1454 1454 1453 1452 1451 1449 1449 1444 1438 1429 1414 0 0 0 0 0 0 0 0 0 0 0 0 0 0 0 0 0 0 0 0 0 0 0 0 0 0 0 0 0 0 0 0 0 0 0 0 0 0 0 0 0 0 0 0 0 0 0 0 0 0 0 0 0 0 0 0 0 0 0 0 0 0 0 0 0 0 0 0 0 0 0 0 0 0 0 0 0 0 0 0 0 0 0 0 0 0 0 0 0
2948 2948 2985 2989 2991 3008 3027 3047 3070 3082 3088 3089 3093 3122 3122 3122 3129 3129 3130 3142 3144 3146 3150 3155 3159 3163 3164 3166 3168 3169 3171 3174 3174 3176 3196 3204 3208 3211 3212 3224 3228 3230 3234 3239 3250 3265 3274 3282 3290 3292 3293 3294 3299 3299 3310 3322 3324 3324 3325 3325 3324 3322 3322 3322 3324 3329 3332 3335 3337 3339 3342 3351 3359 3364 3372 3386 3399 3406 3406 3407 3407 3407 3407 3407 3407 3403 3398 3386 3370 3359 3358 3359 3359 3458 3482 3510 3529 3536 3544 3549 3549 3549 3549 3549 3551 3552 3552 3553 3553 3554 3555 3555 3555 3554 3553 3552 3551 3548 3544 3533 3526 3521 3521 3521 3525 3525 3525 3522 3516 3514 3505 3497 3497 3497 3498 3500 3502 3503 3505 3513 3525 3526 3526 3526 3524 3522 3517 3513 3509 3504 3504 3503 3498 3493 3485 3485 3485 3485 3485 3485 3490 3491 3491 3490 3488 3486 3486 3486 3489 3489 3490 3494 3494 3499 3508 3508 3508 3499 3494 3470 3441 3395 3270 3012 2697 0 0 2382 2374 2366 2358 2351 2350 2348 2343 2340 2335 2330 2327 2324 2321 2319 2318 2316 2314 2313 2311 2311 2310 2309 2309 2309 2308 2307 2306 2305 2304 2303 2301 2298 2294 2293 2293 2293 2293 2295 2297 2299 2299 2300 2300 2300 2300 2299 2295 2280 2263 2255 2236 2215 2191 2166 2148 2138 2136 2129 2118 2110 2100 2093 2086 2079 2070 2062 2056 2051 2047 2037 2032 2026 2015 2006 1991 1966 1943 1922 1915 1915 1915 1913 1912 1910 1903 1901 1899 1888 1877 1857 1837 1827 1816 1809 1807 1804 1794 1787 1782 1772 1765 1760 1758 1757 1757 1756 1752 1749 1746 1744 1741 1739 1738 1737 1737 1737 1737 1737 1737 1739 1740 1742 1743 1745 1746 1748 1749 1751 1752 1753 1754 1756 1756 1757 1758 1760 1761 1762 1765 1771 1774 1775 1776 1776 1777 1777 1778 1779 1779 1780 1781 1783 1783 1784 1785 1786 1788 1789 1792 1798 1803 1809 1817 1830 1839 1849 1853 1853 1853 1853 1852 1852 1852 1850 1849 1849 1846 1846 1845 1845 1844 1844 1842 1842 1840 1840 1839 1838 1836 1835 1834 1833 1832 1829 1828 1826 1822 1818 1814 1813 1812 1809 1807 1804 1803 1801 1796 1788 1783 1783 1782 1778 1776 1772 1770 1767 1763 1759 1755 1752 1750 1749 1745 1744 1740 1737 1734 1731 1729 1727 1725 1722 1718 1716 1713 1709 1707 1705 1703 1701 1698 1696 1694 1692 1690 1688 1685 1683 1680 1677 1675 1673 1669 1663 1658 1655 1648 1640 1637 1632 1625 1622 1620 1620 1620 1620 1617 1614 1614 1613 1613 1613 1613 1613 1613 1611 1610 1608 1607 1605 1603 1602 1599 1597 1595 1593 1590 1587 1586 1584 1581 1578 1572 1565 1551 1533 1525 1522 1514 1508 1503 1501 1501 1501 1503 1503 1503 1503 1503 1503 1503 1504 1504 1504 1504 1508 1510 1510 1510 1510 1509 1508 1507 1504 1502 1500 1498 1497 1492 1489 1488 1488 1487 1487 1485 1477 1473 1473 1472 1472 1471 1471 1469 1467 1466 1465 1464 1462 1461 1459 1457 1455 1454 1453 1452 1451 1450 1448 1448 1443 1438 1429 0 0 0 0 0 0 0 0 0 0 0 0 0 0 0 0 0 0 0 0 0 0 0 0 0 0 0 0 0 0 0 0 0 0 0 0 0 0 0 0 0 0 0 0 0 0 0 0 0 0 0 0 0 0 0 0 0 0 0 0 0 0 0 0 0 0 0 0 0 0 0 0 0 0 0 0 0 0 0 0 0 0 0 0 0 0 0 0 0 0
2979 2979 2986 2997 2998 3008 3027 3047 3070 3082 3088 3089 3093 3122 3122 3122 3129 3129 3134 3136 3141 3141 3141 3141 3150 3153 3164 3164 3168 3169 3172 3175 3175 3182 3197 3209 3213 3213 3213 3224 3228 3230 3234 3239 3253 3264 3274 3282 3290 3290 3292 3294 3294 3306 3318 3322 3328 3328 3330 3330 3330 3330 3330 3330 3331 3333 3335 3337 3339 3339 3342 3352 3363 3371 3384 3396 3405 3405 3405 3407 3407 3407 3407 3407 3407 3403 3398 3386 3369 3369 3362 3369 3380 3458 3468 3512 3534 3542 3547 3549 3549 3549 3549 3549 3551 3552 3554 3554 3557 3558 3559 3559 3559 3556 3554 3553 3552 3548 3544 3534 3526 3522 3522 3522 3528 3528 3528 3524 3522 3517 3513 3504 3504 3504 3510 3515 3515 3517 3518 3518 3527 3529 3529 3529 3529 3528 3519 3519 3519 3516 3516 3516 3510 3499 3491 3488 3487 3487 3488 3490 3493 3493 3494 3494 3494 3494 3493 3493 3493 3489 3494 3494 3494 3514 3518 3518 3518 3507 3499 3478 3451 3395 3270 2921 2667 0 2402 2380 2374 2364 2357 2351 2348 2346 2342 2339 2333 2330 2327 2324 2321 2319 2317 2316 2314 2313 2311 2311 2310 2310 2310 2310 2310 2309 2309 2307 2305 2304 2301 2300 2298 2295 2294 2294 2294 2296 2298 2301 2301 2301 2301 2301 2301 2300 2297 2282 2270 2255 2236 2215 2191 2167 2156 2152 2142 2130 2119 2110 2102 2094 2086 2079 2074 2065 2056 2051 2047 2037 2030 2017 2001 1980 1953 1925 1905 1905 1905 1901 1901 1901 1897 1897 1892 1892 1886 1872 1859 1851 1837 1819 1808 1801 1801 1797 1790 1785 1779 1771 1765 1760 1757 1757 1756 1755 1751 1747 1743 1742 1740 1738 1737 1735 1735 1735 1735 1735 1737 1738 1740 1741 1743 1746 1747 1748 1750 1751 1752 1753 1754 1756 1756 1757 1758 1760 1761 1762 1763 1766 1771 1775 1775 1776 1777 1778 1778 1779 1779 1780 1781 1783 1784 1784 1786 1786 1788 1789 1791 1793 1801 1804 1809 1825 1839 1848 1853 1853 1853 1853 1852 1852 1852 1850 1849 1849 1847 1846 1846 1845 1845 1844 1843 1842 1842 1840 1839 1837 1836 1835 1833 1832 1831 1829 1827 1824 1822 1817 1813 1812 1811 1809 1805 1802 1800 1798 1792 1787 1783 1783 1781 1778 1776 1772 1770 1767 1763 1759 1754 1751 1748 1747 1745 1742 1739 1736 1734 1731 1729 1726 1724 1721 1718 1716 1713 1709 1707 1705 1702 1701 1698 1697 1694 1692 1690 1688 1685 1683 1680 1677 1675 1672 1669 1660 1657 1647 1643 1639 1633 1625 1622 1618 1616 1615 1613 1612 1612 1612 1612 1612 1612 1612 1612 1612 1612 1610 1610 1608 1606 1605 1603 1601 1599 1596 1595 1592 1590 1587 1585 1584 1580 1576 1571 1562 1550 1533 1530 1523 1518 1510 1503 1502 1502 1502 1503 1503 1503 1503 1503 1503 1503 1504 1504 1504 1504 1508 1510 1510 1510 1510 1509 1508 1506 1503 1500 1498 1495 1491 1487 1484 1484 1484 1484 1484 1484 1476 1470 1470 1470 1470 1470 1470 1468 1467 1466 1464 1463 1461 1460 1459 1457 1455 1454 1453 1451 1451 1449 1448 1443 1442 1438 1429 0 0 0 0 0 0 0 0 0 0 0 0 0 0 0 0 0 0 0 0 0 0 0 0 0 0 0 0 0 0 0 0 0 0 0 0 0 0 0 0 0 0 0 0 0 0 0 0 0 0 0 0 0 0 0 0 0 0 0 0 0 0 0 0 0 0 0 0 0 0 0 0 0 0 0 0 0 0 0 0 0 0 0 0 0 0 0 0 0 0
2986 2986 2986 2999 3004 3008 3020 3038 3066 3086 3088 3090 3093 3122 3122 3122 3129 3129 3134 3136 3141 3141 3139 3139 3141 3148 3164 3169 3172 3172 3174 3178 3178 3183 3198 3211 3215 3218 3219 3224 3228 3230 3238 3245 3255 3264 3272 3278 3283 3284 3286 3289 3292 3306 3318 3322 3328 3329 3331 3333 3340 3342 3342 3342 3339 3339 3339 3339 3339 3343 3346 3356 3367 3375 3391 3397 3404 3404 3404 3404 3404 3406 3408 3408 3408 3403 3398 3393 3360 3360 3360 3364 3383 3458 3468 3519 3536 3543 3549 3549 3549 3549 3549 3549 3551 3552 3555 3556 3559 3561 3561 3561 3561 3558 3555 3553 3553 3550 3550 3542 3532 3532 3532 3532 3539 3539 3539 3535 3532 3530 3524 3519 3519 3519 3525 3525 3525 3524 3524 3524 3534 3536 3536 3536 3530 3529 3529 3529 3531 3531 3531 3528 3519 3508 3497 3491 3490 3490 3490 3494 3500 3501 3502 3502 3502 3502 3501 3496 3496 3496 3499 3501 3509 3520 3520 3520 3518 3509 3499 3486 3462 3395 3217 2857 2633 0 2396 2380 2371 2363 2356 2351 2347 2346 2342 2336 2333 2330 2327 2324 2321 2319 2317 2316 2314 2313 2311 2311 2310 2310 2310 2310 2310 2310 2310 2309 2309 2307 2304 2303 2302 2299 2296 2296 2296 2299 2301 2302 2302 2302 2302 2305 2305 2305 2297 2285 2271 2255 2236 2221 2191 2172 2167 2161 2151 2132 2119 2110 2102 2094 2086 2080 2074 2065 2056 2051 2047 2034 2018 1993 1963 1940 1918 1901 1898 1898 1898 1898 1898 1898 1890 1889 1887 1885 1873 1858 1843 1835 1825 1812 1800 1795 1791 1785 1783 1780 1775 1769 1765 1760 1756 1756 1756 1754 1751 1747 1743 1741 1739 1738 1737 1735 1735 1735 1735 1735 1736 1738 1739 1741 1743 1746 1748 1749 1750 1751 1753 1753 1754 1755 1756 1757 1758 1760 1761 1762 1763 1765 1768 1772 1774 1775 1777 1778 1778 1779 1780 1781 1781 1783 1784 1784 1786 1788 1788 1789 1791 1793 1799 1803 1807 1812 1830 1842 1847 1847 1849 1850 1850 1850 1850 1849 1849 1849 1848 1846 1846 1846 1845 1845 1844 1844 1843 1840 1839 1837 1836 1835 1833 1831 1830 1827 1824 1822 1820 1817 1813 1810 1808 1805 1804 1801 1799 1796 1790 1786 1783 1783 1781 1778 1775 1772 1770 1767 1762 1758 1754 1751 1748 1747 1745 1742 1739 1736 1733 1731 1729 1726 1724 1721 1718 1716 1713 1709 1707 1705 1702 1701 1699 1697 1694 1692 1690 1688 1685 1683 1679 1677 1675 1669 1664 1659 1647 1640 1635 1634 1630 1623 1617 1614 1613 1612 1611 1610 1608 1608 1608 1610 1610 1610 1612 1612 1612 1610 1609 1607 1606 1605 1603 1601 1598 1596 1595 1592 1590 1586 1583 1581 1576 1573 1568 1560 1548 1533 1531 1525 1519 1514 1512 1508 1504 1504 1504 1504 1504 1504 1504 1504 1504 1505 1505 1505 1505 1509 1509 1509 1509 1508 1508 1507 1505 1502 1498 1496 1491 1487 1485 1482 1481 1480 1477 1470 1465 1465 1465 1467 1468 1468 1468 1468 1468 1466 1465 1464 1462 1461 1460 1458 1457 1455 1453 1452 1450 1450 1448 1445 1441 1441 1439 1435 0 0 0 0 0 0 0 0 0 0 0 0 0 0 0 0 0 0 0 0 0 0 0 0 0 0 0 0 0 0 0 0 0 0 0 0 0 0 0 0 0 0 0 0 0 0 0 0 0 0 0 0 0 0 0 0 0 0 0 0 0 0 0 0 0 0 0 0 0 0 0 0 0 0 0 0 0 0 0 0 0 0 0 0 0 0 0 0 0 0
2993 2993 2993 3002 3008 3008 3020 3038 3066 3086 3098 3102 3107 3124 3124 3124 3129 3129 3134 3136 3141 3141 3139 3139 3141 3148 3164 3169 3172 3176 3179 3180 3183 3183 3202 3219 3226 3228 3228 3232 3236 3240 3246 3249 3255 3264 3272 3276 3276 3277 3277 3281 3290 3306 3318 3322 3328 3329 3331 3340 3348 3348 3348 3344 3342 3342 3342 3344 3345 3348 3350 3359 3368 3378 3391 3397 3402 3402 3402 3402 3403 3406 3408 3409 3409 3408 3404 3393 3355 3355 3355 3370 3383 3397 3471 3520 3537 3548 3548 3548 3548 3548 3549 3549 3551 3552 3555 3558 3562 3565 3565 3565 3563 3562 3561 3560 3559 3557 3556 3555 3555 3548 3548 3548 3549 3549 3549 3545 3543 3542 3542 3535 3535 3535 3534 3534 3532 3529 3529 3529 3539 3545 3545 3545 3537 3531 3531 3531 3532 3535 3535 3535 3534 3522 3504 3493 3493 3493 3495 3499 3500 3501 3505 3506 3506 3506 3506 3501 3501 3501 3506 3513 3520 3525 3525 3525 3518 3517 3512 3489 3451 3392 3175 2798 2530 0 2391 2377 2365 2362 2356 2350 2347 2344 2340 2336 2333 2330 2327 2324 2321 2319 2317 2315 2314 2312 2311 2311 2311 2311 2311 2311 2311 2311 2311 2311 2311 2311 2308 2305 2305 2303 2300 2300 2300 2301 2302 2304 2304 2305 2306 2307 2307 2307 2300 2289 2272 2255 2236 2221 2191 2179 2173 2163 2151 2138 2125 2110 2102 2095 2086 2080 2074 2065 2056 2050 2035 2015 1985 1948 1925 1903 1893 1892 1892 1892 1893 1893 1893 1891 1884 1880 1876 1869 1858 1839 1827 1820 1813 1803 1789 1787 1783 1780 1777 1776 1775 1769 1765 1761 1757 1756 1755 1753 1750 1746 1742 1740 1737 1736 1735 1734 1734 1734 1734 1735 1736 1737 1739 1741 1742 1746 1748 1749 1750 1751 1753 1754 1754 1755 1756 1756 1758 1760 1761 1762 1763 1764 1768 1770 1773 1775 1776 1778 1779 1781 1782 1783 1783 1783 1785 1785 1787 1788 1789 1789 1791 1793 1799 1803 1807 1811 1816 1834 1841 1843 1846 1847 1847 1847 1847 1847 1848 1848 1848 1847 1846 1846 1846 1845 1845 1844 1843 1841 1839 1837 1836 1835 1833 1831 1829 1826 1823 1821 1818 1815 1813 1810 1807 1805 1801 1800 1797 1792 1789 1785 1783 1783 1781 1778 1775 1772 1770 1766 1762 1758 1754 1751 1748 1746 1744 1741 1739 1736 1733 1730 1728 1725 1722 1720 1717 1715 1712 1709 1707 1705 1703 1702 1699 1697 1694 1692 1690 1688 1685 1683 1679 1677 1674 1667 1661 1653 1647 1640 1635 1631 1626 1621 1615 1613 1612 1612 1611 1609 1606 1606 1606 1607 1610 1610 1611 1611 1611 1610 1609 1607 1606 1604 1603 1600 1598 1596 1594 1592 1589 1586 1583 1579 1575 1570 1568 1560 1548 1534 1531 1525 1519 1514 1512 1508 1506 1505 1505 1504 1504 1504 1504 1505 1505 1505 1507 1507 1507 1509 1509 1509 1509 1507 1506 1505 1503 1499 1496 1493 1489 1486 1478 1478 1478 1477 1475 1470 1461 1461 1461 1462 1463 1463 1467 1467 1467 1466 1464 1463 1462 1461 1460 1458 1456 1455 1453 1452 1450 1450 1447 1443 1441 1440 1439 1435 0 0 0 0 0 0 0 0 0 0 0 0 0 0 0 0 0 0 0 0 0 0 0 0 0 0 0 0 0 0 0 0 0 0 0 0 0 0 0 0 0 0 0 0 0 0 0 0 0 0 0 0 0 0 0 0 0 0 0 0 0 0 0 0 0 0 0 0 0 0 0 0 0 0 0 0 0 0 0 0 0 0 0 0 0 0 0 0 0 0
2993 2993 3002 3002 3006 3006 3020 3038 3066 3089 3104 3107 3123 3130 3130 3130 3130 3130 3134 3148 3148 3148 3142 3142 3142 3148 3169 3171 3172 3180 3181 3185 3186 3186 3202 3225 3230 3232 3235 3235 3239 3245 3248 3249 3255 3260 3266 3273 3273 3273 3273 3275 3282 3296 3300 3313 3313 3318 3328 3340 3348 3348 3348 3344 3342 3342 3342 3344 3350 3357 3361 3365 3371 3379 3391 3397 3397 3400 3402 3402 3402 3407 3408 3409 3409 3408 3404 3393 3349 3349 3349 3368 3383 3397 3471 3520 3541 3548 3548 3548 3548 3548 3549 3549 3551 3553 3557 3560 3563 3566 3566 3566 3567 3566 3566 3566 3561 3559 3559 3559 3558 3558 3556 3556 3556 3556 3556 3557 3557 3555 3555 3552 3549 3549 3547 3544 3537 3532 3532 3532 3539 3548 3548 3548 3547 3542 3542 3542 3543 3544 3544 3544 3544 3531 3517 3501 3499 3499 3499 3499 3500 3502 3507 3508 3508 3508 3507 3503 3503 3503 3506 3513 3526 3526 3526 3525 3518 3517 3500 3486 3442 3346 3107 2723 2509 0 2374 2360 2358 2357 2354 2350 2347 2343 2340 2336 2333 2330 2327 2324 2321 2319 2316 2315 2313 2312 2311 2311 2311 2311 2311 2311 2312 2312 2312 2312 2312 2312 2312 2309 2307 2306 2305 2303 2303 2303 2304 2307 2308 2308 2308 2308 2308 2308 2300 2294 2277 2255 2236 2221 2200 2187 2177 2164 2151 2138 2125 2110 2104 2100 2086 2079 2072 2064 2054 2025 1999 1966 1943 1923 1901 1893 1890 1889 1890 1890 1889 1889 1889 1881 1874 1863 1852 1844 1839 1828 1813 1811 1803 1793 1789 1787 1783 1778 1775 1774 1771 1769 1765 1761 1757 1754 1753 1751 1748 1744 1740 1738 1737 1735 1734 1733 1733 1733 1733 1735 1735 1737 1738 1739 1741 1744 1748 1749 1750 1751 1753 1754 1755 1756 1756 1756 1758 1759 1761 1762 1763 1764 1766 1768 1770 1774 1776 1778 1780 1782 1783 1784 1784 1785 1786 1788 1789 1789 1790 1790 1791 1793 1799 1803 1807 1811 1816 1823 1836 1841 1844 1844 1844 1844 1845 1846 1847 1847 1847 1847 1846 1846 1846 1846 1845 1845 1843 1841 1840 1839 1836 1835 1833 1831 1829 1826 1823 1821 1818 1815 1813 1810 1807 1804 1801 1799 1796 1791 1789 1786 1783 1781 1780 1776 1775 1772 1769 1766 1761 1757 1752 1749 1747 1745 1743 1741 1737 1735 1731 1728 1725 1723 1720 1718 1716 1714 1712 1709 1707 1705 1703 1702 1699 1697 1694 1692 1690 1688 1685 1682 1680 1677 1674 1666 1655 1653 1646 1638 1634 1629 1624 1620 1615 1612 1612 1612 1610 1607 1605 1605 1605 1605 1608 1610 1610 1610 1610 1609 1608 1607 1605 1604 1602 1599 1597 1595 1594 1592 1589 1586 1582 1578 1574 1570 1568 1560 1548 1533 1531 1523 1519 1514 1512 1509 1507 1506 1506 1506 1506 1507 1507 1507 1508 1508 1508 1509 1509 1509 1509 1509 1507 1505 1504 1502 1500 1497 1494 1492 1486 1480 1476 1475 1473 1473 1471 1465 1461 1461 1461 1461 1461 1462 1465 1465 1465 1465 1463 1463 1462 1461 1459 1458 1456 1455 1453 1452 1450 1449 1447 1443 1441 1440 1439 1435 0 0 0 0 0 0 0 0 0 0 0 0 0 0 0 0 0 0 0 0 0 0 0 0 0 0 0 0 0 0 0 0 0 0 0 0 0 0 0 0 0 0 0 0 0 0 0 0 0 0 0 0 0 0 0 0 0 0 0 0 0 0 0 0 0 0 0 0 0 0 0 0 0 0 0 0 0 0 0 0 0 0 0 0 0 0 0 0 0 0
2993 2993 3002 3002 3006 3006 3020 3038 3069 3118 3124 3125 3128 3134 3134 3141 3142 3142 3144 3157 3163 3164 3165 3165 3167 3171 3182 3182 3192 3192 3186 3186 3188 3188 3210 3225 3230 3232 3236 3236 3239 3245 3249 3250 3253 3253 3260 3266 3266 3266 3266 3266 3282 3288 3290 3296 3300 3304 3320 3340 3348 3348 3348 3344 3343 3343 3343 3347 3353 3360 3368 3371 3377 3379 3382 3390 3396 3400 3402 3402 3402 3407 3413 3413 3413 3411 3407 3383 3359 3359 3359 3370 3383 3397 3490 3529 3542 3546 3548 3549 3549 3550 3552 3554 3559 3561 3562 3563 3566 3569 3570 3570 3570 3570 3570 3569 3564 3562 3562 3562 3561 3561 3562 3562 3561 3561 3562 3562 3564 3564 3564 3563 3557 3556 3551 3549 3540 3533 3533 3533 3541 3549 3552 3553 3554 3556 3557 3557 3557 3557 3556 3555 3553 3540 3524 3509 3503 3502 3502 3502 3502 3506 3508 3510 3510 3510 3508 3504 3504 3504 3506 3513 3526 3526 3526 3525 3520 3513 3500 3486 3442 3271 3012 2669 0 0 2369 2360 2358 2357 2354 2350 2347 2343 2340 2336 2332 2330 2327 2323 2320 2318 2316 2315 2313 2312 2311 2311 2311 2311 2311 2312 2312 2312 2313 2313 2313 2313 2313 2310 2308 2307 2305 2304 2304 2304 2306 2308 2309 2309 2310 2309 2309 2309 2303 2302 2291 2265 2243 2228 2209 2196 2185 2165 2151 2138 2125 2110 2104 2100 2085 2079 2054 2027 2006 1983 1954 1936 1918 1902 1890 1888 1886 1887 1887 1886 1883 1878 1870 1864 1855 1851 1844 1825 1817 1816 1812 1803 1795 1790 1787 1784 1782 1777 1774 1773 1770 1768 1765 1761 1757 1754 1752 1750 1748 1743 1739 1737 1737 1735 1733 1732 1732 1732 1732 1734 1734 1736 1737 1739 1740 1742 1746 1748 1749 1751 1752 1754 1755 1756 1756 1756 1758 1759 1760 1762 1763 1764 1766 1768 1770 1772 1776 1778 1780 1782 1784 1786 1786 1787 1787 1789 1790 1791 1791 1791 1793 1794 1799 1803 1807 1809 1815 1822 1833 1841 1844 1844 1844 1844 1845 1846 1847 1848 1848 1848 1847 1846 1846 1846 1846 1845 1843 1842 1841 1839 1837 1835 1833 1831 1828 1826 1823 1820 1818 1815 1813 1809 1806 1804 1801 1798 1795 1791 1788 1786 1783 1781 1779 1775 1774 1770 1767 1765 1761 1757 1752 1749 1747 1744 1742 1739 1735 1731 1727 1725 1723 1723 1719 1717 1715 1714 1712 1709 1707 1705 1703 1702 1699 1697 1694 1692 1689 1687 1685 1682 1680 1676 1673 1665 1655 1652 1644 1638 1634 1628 1623 1618 1614 1612 1612 1612 1608 1605 1604 1604 1604 1605 1608 1609 1609 1609 1609 1608 1608 1606 1605 1604 1601 1599 1596 1594 1593 1590 1587 1585 1582 1578 1574 1570 1568 1560 1548 1533 1529 1523 1519 1515 1512 1509 1508 1508 1508 1508 1509 1509 1509 1508 1509 1509 1508 1509 1509 1509 1509 1509 1506 1502 1502 1500 1497 1491 1489 1486 1477 1476 1473 1473 1466 1461 1460 1459 1459 1459 1458 1458 1461 1462 1464 1464 1464 1463 1462 1462 1461 1460 1459 1458 1456 1454 1453 1451 1450 1449 1447 1443 1442 1440 1439 1435 1430 0 0 0 0 0 0 0 0 0 0 0 0 0 0 0 0 0 0 0 0 0 0 0 0 0 0 0 0 0 0 0 0 0 0 0 0 0 0 0 0 0 0 0 0 0 0 0 0 0 0 0 0 0 0 0 0 0 0 0 0 0 0 0 0 0 0 0 0 0 0 0 0 0 0 0 0 0 0 0 0 0 0 0 0 0 0 0 0 0
