3056 3058 3058 3084 3130 3183 3189 3224 3224 3227 3233 3233 3238 3246 3256 3256 3256 3259 3259 3259 3262 3273 3280 3283 3288 3303 3308 3308 3308 3308 3308 3314 3328 3334 3345 3353 3367 3375 3389 3393 3397 3401 3408 3415 3425 3434 3444 3450 3458 3461 3473 3486 3487 3488 3489 3493 3504 3507 3512 3513 3515 3525 3539 3551 3557 3561 3564 3568 3573 3586 3596 3600 3601 3607 3615 3623 3629 3635 3644 3650 3653 3654 3657 3659 3670 3679 3679 3679 3681 3682 3682 3683 3687 3692 3708 3720 3723 3725 3729 3739 3746 3754 3759 3763 3764 3765 3765 3768 3772 3773 3773 3776 3780 3785 3789 3793 3795 3797 3801 3803 3807 3811 3815 3823 3823 3823 3825 3825 3825 3827 3831 3836 3842 3843 3846 3848 3851 3854 3858 3858 3858 3854 3854 3854 3856 3863 3866 3872 3875 3878 3878 3878 3873 3868 3865 3864 3864 3863 3860 3857 3852 3847 3847 3839 3833 3793 3763 3763 3763 3831 3883 3904 3910 3919 3922 3922 3922 3923 3923 3923 3925 3928 3932 3932 3932 3930 3925 3922 3916 3907 3896 3886 3885 3883 3883 3883 3888 3890 3896 3896 3896 3896 3876 3876 3876 3878 3893 3893 3893 3889 3883 3873 3865 3852 3851 3851 3851 3857 3857 3857 3847 3837 3829 3819 3811 3798 3782 3771 3771 3771 3769 3767 3767 3767 3776 3779 3779 3779 3772 3772 3772 3787 3789 3789 3789 3789 3783 3783 3783 3787 3787 3787 3772 3741 3723 3706 3695 3680 3662 3631 3606 3591 3530 3470 3385 3246 2934 2647 0 0 2339 2292 2265 2245 2228 2214 2202 2198 2191 2183 2175 2172 2170 2167 2166 2164 2163 2160 2160 2159 2159 2152 2150 2148 2144 2141 2138 2132 2121 2105 2061 2007 1980 1969 1961 1960 1959 1959 1954 1953 1953 1953 1950 1950 1950 1948 1944 1942 1939 1936 1933 1933 1932 1931 1931 1930 1929 1928 1928 1927 1927 1927 1925 1925 1925 1923 1923 1919 1917 1916 1916 1916 1915 1912 1911 1908 1906 1904 1904 1904 1904 1906 1906 1906 1889 1878 1878 1878 1883 1885 1885 1885 1884 1880 1880 1880 1883 1883 1883 1880 1880 1880 1882 1890 1890 1890 1889 1889 1889 1889 1888 1887 1886 1886 1886 1886 1886 1885 1884 1884 1884 1880 1878 1871 1868 1865 1861 1858 1858 1857 1857 1856 1856 1854 1853 1853 1853 1854 1854 1855 1856 1857 1857 1861 1863 1863 1864 1864 1865 1865 1865 1865 1865 1864 1863 1862 1859 1856 1855 1854 1853 1851 1850 1848 1846 1840 1840 1840 1840 1840 1840 1832 1820 1810 1808 1808 1808 1810 1811 1812 1815 1821 1828 1830 1830 1830 1830 1830 1830 1830 1830 1829 1829 1829 1829 1830 1832 1836 1837 1839 1840 1841 1843 1846 1848 1848 1850 1851 1854 1862 1870 1876 1876 1883 1900 1932 1946 1949 1954 1970 1974 1983 1989 1995 1998 2002 2003 2006 2007 2008 2014 2017 2017 2019 2023 2027 2031 2035 2041 2048 2053 2057 2065 2071 2075 2079 2083 2087 2092 2098 2104 2107 2110 2112 2117 2121 2121 2135 2149 2157 2184 2203 2208 2216 2221 2227 2230 2233 2233 2233 2229 2205 0 0 0 0 0 0 0 0 0 0 0 0 0 0 0 0 0 0 0 0 0 0 0 0 0 0 0 0 0 0 0 0 0 0 0 0 0 0 0 0 0 0 0 0 0 0 0 0 0 0 0 0 0 0 0 0 0 0 0 0 0 0 0 0 0 0 0 0 0 0 0 0 0 0 0 0 0 0 0 0 0 0 0 0 0 0 0 0 0 0 0 0 0 0 0 0 0 0
3056 3058 3058 3084 3148 3175 3200 3223 3223 3227 3234 3234 3238 3246 3256 3262 3262 3262 3262 3262 3262 3273 3282 3285 3292 3303 3308 3308 3308 3310 3310 3319 3332 3337 3355 3362 3367 3375 3389 3403 3406 3409 3420 3423 3426 3434 3444 3450 3458 3461 3473 3488 3493 3495 3497 3510 3518 3521 3521 3522 3524 3536 3545 3555 3558 3561 3566 3573 3578 3589 3596 3600 3602 3610 3618 3623 3629 3637 3645 3650 3653 3654 3657 3662 3670 3679 3679 3679 3682 3685 3686 3687 3692 3699 3716 3724 3725 3727 3733 3739 3746 3754 3759 3763 3764 3765 3765 3768 3772 3773 3773 3776 3780 3785 3789 3793 3798 3801 3804 3804 3807 3811 3817 3823 3823 3823 3825 3825 3825 3828 3831 3836 3841 3842 3844 3845 3850 3857 3865 3865 3865 3857 3857 3857 3863 3869 3873 3878 3881 3881 3881 3880 3874 3870 3870 3870 3868 3868 3868 3864 3861 3855 3848 3839 3833 3793 3763 3763 3763 3838 3879 3895 3903 3913 3922 3923 3923 3923 3923 3923 3925 3928 3932 3932 3932 3926 3924 3919 3909 3897 3891 3886 3885 3883 3883 3883 3885 3890 3896 3900 3900 3900 3888 3883 3883 3883 3895 3902 3902 3902 3888 3875 3865 3859 3851 3851 3851 3857 3857 3857 3847 3831 3819 3818 3810 3797 3782 3773 3772 3771 3770 3770 3770 3771 3778 3779 3780 3780 3780 3780 3780 3787 3789 3789 3789 3789 3783 3783 3783 3787 3787 3787 3772 3741 3723 3707 3696 3680 3663 3640 3612 3573 3522 3470 3385 3267 2980 2674 0 0 2339 2292 2265 2245 2229 2218 2205 2198 2187 2183 2174 2169 2167 2166 2164 2160 2158 2155 2151 2148 2147 2146 2145 2142 2141 2139 2138 2132 2121 2087 2046 1997 1967 1956 1955 1954 1953 1952 1950 1950 1950 1950 1948 1946 1946 1940 1938 1934 1927 1922 1922 1922 1929 1929 1929 1926 1924 1923 1923 1921 1921 1921 1923 1923 1923 1921 1919 1916 1915 1915 1915 1914 1914 1912 1909 1907 1906 1904 1904 1904 1904 1902 1901 1896 1886 1878 1872 1872 1872 1872 1880 1880 1880 1876 1875 1875 1875 1878 1879 1879 1878 1878 1879 1885 1887 1887 1887 1887 1886 1885 1885 1885 1884 1884 1883 1883 1883 1883 1882 1881 1881 1880 1875 1867 1862 1862 1861 1859 1858 1857 1854 1853 1851 1851 1851 1851 1852 1854 1854 1854 1855 1856 1856 1859 1862 1862 1862 1862 1863 1863 1863 1863 1861 1861 1860 1858 1857 1854 1852 1849 1848 1848 1844 1843 1838 1828 1828 1828 1825 1825 1825 1819 1812 1807 1806 1806 1806 1805 1806 1806 1812 1820 1822 1825 1826 1827 1827 1827 1827 1826 1826 1826 1827 1827 1828 1829 1829 1831 1836 1838 1840 1841 1844 1849 1852 1852 1853 1856 1862 1872 1877 1887 1901 1916 1924 1946 1959 1960 1970 1974 1979 1986 1994 1999 2000 2002 2004 2007 2008 2011 2016 2019 2019 2021 2024 2028 2032 2035 2041 2049 2054 2058 2061 2067 2073 2077 2081 2086 2090 2096 2100 2105 2109 2112 2117 2119 2123 2138 2151 2159 2184 2203 2208 2216 2221 2224 2227 2231 2231 2231 2229 2205 0 0 0 0 0 0 0 0 0 0 0 0 0 0 0 0 0 0 0 0 0 0 0 0 0 0 0 0 0 0 0 0 0 0 0 0 0 0 0 0 0 0 0 0 0 0 0 0 0 0 0 0 0 0 0 0 0 0 0 0 0 0 0 0 0 0 0 0 0 0 0 0 0 0 0 0 0 0 0 0 0 0 0 0 0 0 0 0 0 0 0 0 0 0 0 0 0 0
3058 3058 3080 3110 3164 3181 3217 3222 3222 3222 3232 3236 3241 3246 3256 3264 3268 3268 3268 3274 3276 3276 3285 3285 3295 3303 3308 3315 3317 3322 3336 3372 3376 3378 3378 3378 3378 3378 3389 3403 3406 3409 3420 3430 3438 3447 3456 3461 3463 3466 3474 3488 3493 3501 3512 3529 3529 3532 3534 3534 3547 3553 3558 3560 3561 3563 3566 3574 3579 3590 3596 3600 3604 3614 3623 3629 3637 3643 3645 3649 3653 3654 3658 3663 3670 3671 3673 3676 3682 3685 3689 3691 3694 3703 3716 3724 3725 3727 3733 3739 3746 3754 3759 3763 3764 3765 3765 3768 3773 3775 3776 3776 3780 3785 3789 3794 3799 3804 3806 3809 3810 3811 3818 3824 3824 3824 3825 3825 3825 3828 3835 3840 3841 3842 3843 3844 3849 3857 3866 3866 3866 3863 3863 3863 3870 3875 3879 3882 3887 3887 3887 3881 3875 3872 3872 3872 3873 3873 3873 3873 3871 3865 3855 3847 3833 3793 3758 3758 3758 3838 3878 3895 3903 3913 3921 3929 3929 3929 3926 3926 3926 3928 3931 3931 3931 3925 3920 3914 3906 3897 3891 3887 3885 3882 3882 3882 3884 3890 3896 3900 3900 3900 3888 3883 3883 3883 3895 3902 3902 3902 3888 3875 3866 3861 3852 3852 3852 3858 3858 3858 3841 3828 3818 3813 3809 3797 3782 3777 3774 3773 3773 3771 3771 3771 3778 3779 3784 3784 3784 3782 3782 3782 3788 3789 3789 3788 3783 3763 3763 3763 3760 3760 3749 3741 3728 3711 3696 3683 3664 3643 3612 3570 3522 3474 3442 3305 3026 2687 0 0 2339 2292 2262 2244 2228 2218 2205 2195 2187 2181 2174 2168 2167 2163 2161 2157 2155 2151 2146 2143 2142 2142 2140 2138 2138 2138 2137 2132 2118 2087 2035 1986 1963 1956 1951 1948 1947 1946 1946 1946 1945 1945 1945 1944 1941 1938 1933 1930 1924 1915 1915 1915 1918 1918 1918 1918 1913 1911 1909 1909 1909 1911 1915 1921 1921 1921 1919 1915 1914 1914 1914 1913 1911 1910 1909 1907 1906 1904 1904 1902 1901 1899 1899 1891 1885 1876 1872 1866 1866 1866 1870 1872 1872 1872 1872 1872 1874 1877 1877 1877 1877 1877 1877 1882 1884 1884 1885 1884 1884 1883 1882 1882 1882 1882 1882 1881 1881 1880 1880 1879 1878 1876 1870 1865 1861 1861 1860 1858 1857 1856 1853 1852 1851 1850 1850 1850 1850 1852 1852 1853 1853 1855 1856 1856 1858 1859 1859 1859 1859 1859 1859 1859 1858 1857 1856 1856 1854 1852 1848 1846 1843 1843 1843 1842 1838 1822 1814 1811 1810 1810 1809 1807 1805 1805 1805 1805 1805 1805 1806 1806 1811 1815 1815 1824 1824 1824 1824 1823 1823 1823 1823 1824 1824 1825 1825 1825 1826 1826 1832 1838 1841 1843 1846 1850 1855 1861 1863 1868 1873 1882 1896 1917 1933 1943 1957 1958 1964 1970 1976 1980 1987 1993 1998 2000 2001 2003 2005 2007 2010 2014 2017 2020 2020 2022 2027 2028 2033 2036 2042 2049 2054 2058 2060 2065 2068 2074 2079 2083 2088 2093 2097 2102 2108 2111 2114 2119 2123 2138 2151 2160 2184 2203 2208 2214 2220 2221 2224 2229 2229 2229 2229 2205 0 0 0 0 0 0 0 0 0 0 0 0 0 0 0 0 0 0 0 0 0 0 0 0 0 0 0 0 0 0 0 0 0 0 0 0 0 0 0 0 0 0 0 0 0 0 0 0 0 0 0 0 0 0 0 0 0 0 0 0 0 0 0 0 0 0 0 0 0 0 0 0 0 0 0 0 0 0 0 0 0 0 0 0 0 0 0 0 0 0 0 0 0 0 0 0 0 0
3062 3062 3089 3126 3170 3181 3217 3222 3223 3223 3232 3240 3241 3241 3252 3265 3270 3270 3270 3275 3276 3276 3285 3285 3295 3300 3306 3321 3349 3366 3366 3375 3380 3380 3380 3383 3383 3383 3394 3403 3406 3409 3420 3437 3453 3470 3477 3479 3480 3480 3484 3488 3493 3501 3512 3529 3529 3532 3534 3534 3547 3553 3560 3560 3562 3563 3567 3576 3582 3589 3595 3600 3609 3620 3632 3639 3642 3645 3645 3649 3653 3654 3658 3663 3667 3669 3672 3676 3681 3685 3689 3694 3697 3703 3716 3724 3725 3727 3733 3739 3743 3747 3756 3760 3764 3765 3768 3774 3780 3782 3782 3785 3785 3785 3789 3795 3803 3809 3811 3814 3817 3821 3825 3827 3827 3827 3826 3826 3826 3829 3836 3844 3844 3844 3845 3845 3848 3857 3866 3866 3866 3868 3868 3868 3874 3880 3881 3884 3888 3888 3888 3883 3878 3876 3876 3876 3878 3878 3878 3877 3876 3872 3863 3852 3838 3793 3752 3752 3752 3838 3875 3895 3903 3913 3918 3929 3929 3929 3926 3926 3926 3928 3929 3929 3929 3922 3914 3910 3905 3897 3894 3891 3890 3884 3884 3884 3884 3886 3890 3891 3891 3890 3888 3883 3883 3883 3895 3902 3902 3902 3888 3875 3869 3861 3856 3856 3856 3858 3858 3858 3841 3825 3815 3806 3803 3797 3789 3785 3784 3781 3781 3781 3781 3779 3781 3781 3781 3781 3781 3781 3781 3781 3784 3784 3784 3782 3772 3757 3750 3748 3748 3747 3747 3741 3729 3715 3706 3683 3664 3643 3622 3564 3519 3477 3448 3323 3062 2698 0 0 2322 2286 2254 2244 2228 2218 2205 2190 2183 2179 2173 2168 2164 2160 2157 2155 2151 2147 2143 2139 2139 2138 2136 2136 2136 2135 2135 2132 2117 2087 2032 1981 1961 1956 1949 1948 1945 1943 1943 1942 1942 1942 1940 1939 1937 1934 1928 1923 1917 1908 1908 1908 1910 1912 1912 1912 1904 1900 1900 1900 1902 1910 1913 1916 1916 1916 1914 1912 1911 1911 1911 1910 1909 1908 1907 1905 1904 1903 1902 1899 1897 1896 1894 1888 1883 1874 1870 1865 1862 1862 1862 1864 1864 1864 1864 1864 1869 1873 1873 1874 1876 1877 1877 1879 1881 1882 1882 1882 1882 1882 1882 1881 1880 1880 1880 1880 1879 1877 1876 1875 1875 1873 1867 1863 1861 1860 1859 1857 1856 1854 1852 1851 1850 1850 1847 1847 1847 1852 1852 1852 1853 1855 1856 1856 1856 1856 1856 1856 1856 1855 1855 1855 1854 1854 1853 1850 1850 1847 1845 1842 1839 1838 1836 1831 1828 1819 1806 1804 1804 1803 1803 1803 1803 1803 1805 1805 1805 1805 1805 1806 1807 1809 1812 1821 1821 1821 1817 1817 1817 1819 1820 1821 1821 1821 1820 1820 1820 1820 1828 1837 1841 1847 1853 1857 1864 1866 1872 1879 1895 1915 1922 1937 1957 1965 1969 1969 1972 1975 1978 1986 1994 1999 2000 2001 2001 2003 2005 2008 2011 2016 2018 2020 2021 2024 2027 2030 2033 2036 2044 2049 2054 2058 2060 2063 2067 2072 2078 2081 2085 2090 2094 2097 2105 2110 2113 2113 2123 2138 2151 2160 2187 2203 2204 2211 2219 2219 2221 2224 2224 2224 2214 2197 0 0 0 0 0 0 0 0 0 0 0 0 0 0 0 0 0 0 0 0 0 0 0 0 0 0 0 0 0 0 0 0 0 0 0 0 0 0 0 0 0 0 0 0 0 0 0 0 0 0 0 0 0 0 0 0 0 0 0 0 0 0 0 0 0 0 0 0 0 0 0 0 0 0 0 0 0 0 0 0 0 0 0 0 0 0 0 0 0 0 0 0 0 0 0 0 0 0
3070 3070 3089 3130 3177 3181 3217 3222 3223 3223 3230 3240 3241 3241 3252 3265 3272 3273 3273 3275 3279 3279 3281 3285 3295 3297 3306 3322 3352 3367 3367 3379 3383 3384 3384 3391 3391 3391 3401 3405 3406 3409 3420 3438 3461 3478 3494 3494 3494 3491 3491 3491 3495 3501 3512 3529 3529 3532 3534 3534 3547 3553 3560 3561 3562 3563 3569 3577 3582 3587 3594 3605 3617 3630 3632 3639 3642 3645 3645 3649 3653 3657 3658 3663 3665 3669 3672 3676 3681 3685 3689 3694 3697 3703 3707 3713 3714 3715 3722 3730 3743 3747 3753 3760 3764 3765 3769 3774 3780 3786 3786 3786 3789 3789 3789 3797 3806 3812 3814 3818 3820 3822 3826 3833 3833 3833 3826 3826 3826 3830 3839 3848 3848 3848 3845 3845 3845 3854 3861 3866 3868 3869 3869 3877 3878 3880 3881 3884 3888 3888 3888 3886 3882 3879 3879 3879 3879 3879 3879 3878 3878 3877 3869 3861 3844 3793 3742 3742 3742 3838 3875 3895 3903 3913 3918 3924 3926 3926 3926 3926 3926 3928 3928 3928 3923 3914 3906 3905 3904 3898 3898 3896 3893 3887 3882 3882 3882 3885 3885 3885 3882 3881 3880 3881 3882 3883 3892 3896 3896 3896 3885 3875 3869 3869 3869 3868 3866 3864 3862 3858 3841 3825 3812 3799 3792 3791 3791 3790 3789 3786 3783 3782 3782 3779 3781 3782 3783 3791 3791 3791 3783 3778 3775 3774 3774 3771 3764 3751 3745 3744 3744 3744 3744 3744 3731 3724 3720 3696 3672 3646 3622 3564 3519 3482 3448 3324 3062 2707 0 0 2313 2277 2251 2239 2227 2215 2201 2188 2182 2175 2171 2166 2160 2157 2154 2152 2149 2144 2141 2139 2138 2137 2134 2134 2134 2133 2133 2128 2117 2086 0 1980 1960 1953 1948 1945 1943 1943 1942 1941 1940 1940 1934 1931 1930 1929 1923 1917 1914 1908 1907 1907 1907 1904 1904 1904 1902 1900 1900 1900 1901 1907 1910 1914 1914 1914 1913 1911 1910 1910 1909 1907 1907 1906 1906 1904 1903 1901 1900 1899 1896 1893 1889 1887 1882 1871 1870 1863 1859 1855 1855 1855 1855 1855 1856 1858 1864 1868 1869 1874 1874 1876 1876 1876 1878 1878 1879 1879 1879 1879 1879 1879 1879 1879 1878 1878 1877 1875 1873 1871 1870 1869 1867 1863 1861 1860 1858 1854 1854 1854 1853 1851 1850 1850 1847 1846 1844 1843 1844 1844 1844 1850 1853 1853 1853 1853 1852 1852 1852 1852 1852 1852 1851 1850 1850 1847 1845 1843 1840 1837 1834 1831 1828 1825 1822 1817 1803 1803 1803 1803 1803 1803 1803 1803 1805 1805 1805 1805 1806 1807 1807 1808 1810 1812 1813 1813 1813 1813 1813 1816 1816 1818 1818 1818 1816 1814 1814 1814 1822 1835 1841 1847 1857 1866 1867 1872 1891 1912 1934 1939 1948 1959 1967 1970 1971 1971 1974 1976 1982 1989 1996 2000 2001 2002 2003 2003 2007 2010 2014 2016 2019 2021 2023 2025 2027 2030 2033 2038 2044 2049 2054 2058 2060 2063 2067 2072 2075 2080 2084 2088 2092 2095 2099 2107 2109 2110 2122 2133 2148 2160 2187 2198 2200 2211 2219 2219 2221 2222 2222 2222 2201 2178 0 0 0 0 0 0 0 0 0 0 0 0 0 0 0 0 0 0 0 0 0 0 0 0 0 0 0 0 0 0 0 0 0 0 0 0 0 0 0 0 0 0 0 0 0 0 0 0 0 0 0 0 0 0 0 0 0 0 0 0 0 0 0 0 0 0 0 0 0 0 0 0 0 0 0 0 0 0 0 0 0 0 0 0 0 0 0 0 0 0 0 0 0 0 0 0 0 0
3080 3080 3113 3149 3179 3182 3217 3222 3223 3230 3236 3240 3241 3249 3252 3266 3275 3277 3278 3280 3281 3280 3280 3281 3290 3297 3306 3324 3352 3369 3370 3379 3383 3385 3387 3388 3388 3398 3405 3406 3406 3409 3420 3438 3461 3478 3494 3496 3496 3496 3495 3495 3495 3499 3509 3513 3519 3522 3523 3527 3534 3546 3554 3559 3563 3566 3569 3577 3582 3587 3594 3605 3617 3630 3632 3639 3643 3646 3646 3649 3653 3657 3658 3659 3663 3666 3672 3676 3681 3685 3690 3694 3697 3697 3701 3709 3713 3714 3722 3730 3743 3747 3753 3760 3766 3767 3770 3774 3780 3786 3789 3790 3791 3791 3795 3801 3811 3818 3819 3821 3822 3823 3826 3833 3840 3841 3841 3840 3840 3842 3842 3848 3848 3848 3844 3844 3844 3848 3856 3866 3869 3871 3872 3877 3878 3880 3881 3884 3888 3888 3888 3887 3886 3883 3882 3880 3879 3879 3879 3878 3878 3877 3869 3861 3844 3793 3738 3738 3738 3834 3875 3911 3911 3914 3918 3924 3924 3924 3923 3922 3922 3922 3923 3923 3923 3914 3906 3905 3904 3903 3900 3898 3893 3887 3883 3883 3883 3884 3884 3884 3880 3876 3876 3876 3878 3881 3886 3891 3891 3891 3885 3875 3875 3875 3879 3879 3879 3870 3868 3866 3845 3825 3812 3799 3791 3790 3790 3789 3789 3786 3786 3786 3786 3786 3784 3784 3784 3795 3795 3795 3786 3777 3763 3759 3758 3758 3757 3751 3743 3743 3743 3744 3755 3755 3755 3745 3720 3702 3688 3676 3635 3564 3519 3477 3448 3324 3062 2711 0 0 2304 2272 2246 2230 2217 2199 2194 2188 2177 2168 2163 2160 2156 2152 2151 2147 2144 2140 2137 2136 2135 2135 2133 2130 2130 2129 2128 2121 2112 2086 0 1976 1960 1953 1946 1945 1941 1940 1938 1938 1938 1936 1933 1928 1923 1917 1916 1916 1913 1908 1907 1905 1905 1903 1903 1901 1900 1899 1899 1899 1901 1907 1908 1913 1913 1913 1909 1909 1909 1908 1907 1905 1904 1904 1903 1902 1901 1900 1898 1898 1896 1893 1880 1880 1872 1870 1869 1863 1857 1853 1852 1851 1848 1848 1848 1854 1860 1863 1866 1867 1872 1872 1872 1873 1873 1874 1875 1876 1877 1877 1877 1877 1877 1877 1877 1877 1875 1873 1870 1868 1867 1866 1866 1861 1861 1860 1854 1845 1845 1845 1847 1851 1851 1851 1847 1844 1843 1842 1840 1840 1840 1843 1849 1850 1850 1850 1850 1850 1849 1849 1849 1848 1847 1847 1845 1842 1837 1836 1835 1833 1831 1830 1827 1823 1820 1816 1803 1803 1803 1803 1803 1803 1804 1806 1806 1807 1807 1807 1807 1807 1807 1807 1808 1808 1809 1809 1809 1810 1812 1813 1813 1813 1813 1812 1812 1812 1812 1814 1818 1830 1840 1850 1858 1867 1878 1897 1906 1921 1945 1954 1959 1965 1967 1973 1974 1976 1977 1981 1985 1990 1996 2000 2003 2003 2003 2006 2009 2013 2016 2018 2020 2021 2023 2026 2028 2031 2034 2039 2044 2049 2054 2058 2060 2062 2066 2071 2075 2078 2083 2088 2090 2091 2096 2107 2109 2110 2122 2132 2144 2157 2187 2197 2198 2210 2218 2219 2220 2220 2220 2220 2201 2165 0 0 0 0 0 0 0 0 0 0 0 0 0 0 0 0 0 0 0 0 0 0 0 0 0 0 0 0 0 0 0 0 0 0 0 0 0 0 0 0 0 0 0 0 0 0 0 0 0 0 0 0 0 0 0 0 0 0 0 0 0 0 0 0 0 0 0 0 0 0 0 0 0 0 0 0 0 0 0 0 0 0 0 0 0 0 0 0 0 0 0 0 0 0 0 0 0 0
3098 3098 3127 3149 3179 3183 3209 3222 3224 3230 3236 3241 3252 3253 3258 3267 3275 3277 3278 3281 3281 3281 3281 3284 3284 3297 3308 3325 3352 3370 3374 3377 3383 3386 3387 3387 3388 3398 3407 3410 3411 3412 3420 3438 3461 3478 3494 3496 3496 3496 3495 3495 3495 3497 3498 3501 3507 3508 3508 3515 3533 3545 3553 3559 3563 3568 3569 3574 3577 3585 3593 3605 3617 3630 3632 3639 3643 3646 3647 3650 3653 3657 3658 3659 3663 3666 3672 3677 3682 3687 3690 3694 3695 3695 3701 3709 3713 3714 3722 3730 3743 3749 3753 3763 3771 3774 3774 3774 3777 3783 3789 3793 3795 3798 3800 3805 3812 3819 3822 3823 3824 3824 3826 3833 3840 3841 3841 3840 3840 3842 3842 3848 3848 3848 3844 3844 3844 3845 3853 3865 3868 3871 3872 3877 3878 3879 3881 3883 3886 3887 3887 3887 3886 3884 3884 3881 3880 3879 3879 3878 3878 3877 3869 3861 3844 3794 3741 3741 3741 3806 3875 3924 3924 3924 3924 3924 3924 3924 3918 3918 3918 3922 3923 3923 3923 3914 3906 3906 3905 3904 3900 3898 3893 3887 3883 3883 3883 3880 3880 3880 3878 3873 3873 3873 3877 3880 3884 3885 3885 3885 3885 3881 3881 3881 3882 3882 3882 3878 3874 3867 3854 3829 3812 3799 3791 3791 3791 3791 3791 3786 3786 3786 3786 3786 3786 3786 3786 3795 3795 3795 3787 3777 3763 3759 3758 3758 3757 3751 3743 3743 3743 3744 3765 3765 3765 3764 3732 3706 3693 3676 3635 3593 3529 3477 3430 3331 3066 2726 2508 0 2304 2272 2246 2229 2211 2190 2186 2186 2172 2161 2155 2151 2150 2149 2147 2144 2140 2136 2134 2133 2133 2132 2130 2128 2126 2125 2125 2115 2099 2080 0 1973 1959 1953 1946 1941 1939 1938 1935 1934 1932 1931 1930 1926 1919 1914 1912 1912 1912 1908 1904 1902 1901 1900 1898 1897 1897 1896 1895 1895 1895 1899 1905 1907 1907 1907 1907 1906 1906 1906 1905 1903 1901 1900 1900 1900 1898 1897 1895 1895 1894 1885 1880 1873 1865 1860 1852 1851 1851 1851 1850 1850 1848 1848 1848 1851 1857 1860 1862 1862 1869 1869 1869 1870 1870 1871 1873 1875 1875 1875 1875 1875 1875 1875 1875 1875 1872 1870 1868 1865 1864 1863 1861 1861 1860 1859 1852 1843 1843 1843 1843 1850 1850 1850 1847 1843 1842 1842 1839 1839 1839 1843 1844 1845 1845 1846 1846 1846 1846 1846 1846 1846 1846 1845 1842 1839 1837 1836 1835 1832 1830 1828 1825 1821 1817 1812 1804 1804 1804 1804 1804 1804 1805 1806 1806 1807 1807 1807 1807 1806 1806 1806 1807 1807 1808 1807 1808 1808 1809 1809 1810 1810 1810 1809 1809 1809 1809 1809 1815 1825 1840 1851 1861 1879 1907 1922 1929 1941 1946 1954 1961 1966 1969 1974 1977 1980 1984 1985 1987 1991 1997 2000 2003 2004 2006 2009 2013 2015 2017 2018 2021 2022 2024 2026 2030 2033 2036 2039 2043 2049 2053 2057 2059 2062 2066 2071 2075 2077 2082 2086 2088 2090 2096 2107 2109 2110 2119 2130 2142 2155 2181 2193 2198 2210 2218 2219 2219 2219 2219 2218 2201 2165 0 0 0 0 0 0 0 0 0 0 0 0 0 0 0 0 0 0 0 0 0 0 0 0 0 0 0 0 0 0 0 0 0 0 0 0 0 0 0 0 0 0 0 0 0 0 0 0 0 0 0 0 0 0 0 0 0 0 0 0 0 0 0 0 0 0 0 0 0 0 0 0 0 0 0 0 0 0 0 0 0 0 0 0 0 0 0 0 0 0 0 0 0 0 0 0 0 0
3099 3099 3127 3149 3179 3183 3193 3208 3224 3229 3236 3241 3252 3261 3263 3268 3275 3275 3278 3278 3280 3280 3280 3284 3284 3297 3309 3325 3349 3366 3374 3377 3383 3386 3386 3387 3388 3398 3410 3410 3411 3412 3420 3436 3456 3473 3485 3492 3493 3496 3497 3498 3497 3498 3499 3501 3504 3506 3507 3515 3531 3545 3552 3559 3565 3569 3575 3577 3579 3585 3593 3603 3617 3626 3631 3638 3643 3647 3649 3651 3655 3658 3658 3659 3663 3666 3672 3678 3684 3688 3690 3691 3694 3695 3701 3709 3719 3724 3729 3738 3747 3758 3768 3774 3774 3774 3772 3772 3772 3776 3786 3794 3803 3810 3810 3811 3814 3819 3824 3824 3824 3824 3825 3829 3840 3841 3841 3840 3840 3842 3842 3842 3842 3842 3841 3841 3841 3845 3853 3863 3868 3871 3872 3872 3876 3879 3881 3882 3886 3888 3888 3888 3886 3884 3884 3883 3881 3879 3879 3875 3874 3870 3869 3861 3844 3794 3761 3761 3761 3806 3877 3929 3936 3936 3936 3930 3926 3924 3918 3918 3918 3922 3928 3928 3928 3919 3911 3910 3907 3906 3900 3892 3886 3884 3883 3880 3880 3879 3879 3879 3877 3873 3873 3873 3874 3878 3879 3879 3885 3890 3890 3890 3882 3882 3882 3892 3892 3892 3882 3867 3854 3841 3841 3819 3791 3791 3791 3791 3791 3786 3786 3786 3786 3786 3784 3784 3784 3795 3795 3795 3784 3770 3763 3759 3758 3758 3757 3757 3743 3743 3743 3752 3765 3765 3765 3764 3733 3706 3693 3676 3635 3593 3539 3482 3430 3331 3066 2732 2508 0 2304 2272 2246 2229 2199 2181 2181 2180 2170 2157 2150 2147 2146 2146 2144 2142 2139 2134 2131 2129 2128 2127 2126 2125 2124 2122 2121 2112 2088 2066 2018 1965 1953 1947 1941 1939 1936 1935 1933 1929 1928 1927 1925 1925 1916 1910 1910 1909 1909 1908 1904 1902 1901 1900 1897 1894 1892 1892 1890 1890 1890 1899 1903 1903 1903 1903 1903 1903 1903 1903 1902 1900 1897 1896 1896 1895 1894 1894 1893 1893 1892 1884 1880 1872 1859 1852 1851 1851 1851 1851 1850 1850 1848 1848 1848 1851 1855 1858 1859 1861 1865 1867 1867 1868 1869 1869 1871 1872 1872 1873 1873 1873 1872 1871 1871 1871 1866 1866 1864 1863 1861 1860 1859 1854 1852 1852 1848 1843 1843 1843 1843 1846 1847 1847 1847 1843 1841 1840 1838 1838 1838 1838 1837 1838 1838 1838 1839 1839 1839 1839 1839 1841 1841 1841 1841 1838 1836 1832 1831 1829 1826 1823 1820 1818 1816 1812 1807 1804 1804 1804 1804 1804 1805 1806 1806 1806 1806 1806 1806 1806 1806 1806 1805 1805 1805 1805 1805 1805 1805 1806 1806 1807 1807 1807 1807 1806 1806 1806 1810 1825 1840 1851 1866 1894 1918 1932 1941 1948 1956 1960 1962 1967 1970 1974 1978 1981 1985 1987 1990 1994 1998 2001 2003 2005 2007 2012 2014 2015 2017 2019 2021 2023 2025 2027 2031 2033 2036 2040 2043 2048 2052 2055 2058 2061 2066 2071 2075 2077 2082 2086 2087 2090 2096 2106 2112 2113 2119 2130 2141 2153 2176 2186 2197 2209 2217 2218 2219 2219 2219 2215 2194 2165 0 0 0 0 0 0 0 0 0 0 0 0 0 0 0 0 0 0 0 0 0 0 0 0 0 0 0 0 0 0 0 0 0 0 0 0 0 0 0 0 0 0 0 0 0 0 0 0 0 0 0 0 0 0 0 0 0 0 0 0 0 0 0 0 0 0 0 0 0 0 0 0 0 0 0 0 0 0 0 0 0 0 0 0 0 0 0 0 0 0 0 0 0 0 0 0 0 0
3101 3101 3127 3142 3167 3182 3191 3207 3224 3225 3228 3236 3250 3261 3268 3272 3275 3275 3276 3277 3278 3277 3280 3284 3284 3297 3309 3325 3349 3370 3377 3379 3383 3386 3386 3386 3389 3394 3410 3410 3411 3412 3418 3434 3451 3466 3473 3479 3483 3487 3487 3498 3498 3499 3500 3501 3504 3505 3506 3514 3529 3542 3552 3557 3563 3569 3575 3577 3579 3585 3593 3603 3617 3626 3631 3636 3643 3647 3649 3651 3655 3659 3661 3663 3665 3669 3673 3680 3687 3690 3691 3691 3692 3695 3703 3715 3726 3732 3737 3751 3763 3768 3771 3774 3774 3774 3771 3771 3771 3776 3786 3795 3806 3810 3811 3811 3814 3819 3824 3824 3824 3824 3824 3824 3828 3835 3836 3837 3837 3838 3842 3842 3842 3842 3841 3841 3841 3845 3853 3863 3863 3863 3867 3872 3876 3879 3881 3882 3886 3888 3888 3888 3887 3885 3884 3884 3884 3882 3879 3873 3865 3863 3861 3851 3833 3794 3761 3761 3761 3806 3878 3929 3939 3939 3939 3937 3927 3922 3918 3918 3918 3925 3932 3932 3932 3930 3924 3920 3911 3906 3891 3884 3882 3882 3882 3878 3877 3877 3877 3875 3873 3873 3873 3874 3878 3879 3880 3880 3885 3890 3890 3890 3881 3881 3881 3892 3894 3894 3892 3869 3854 3843 3841 3833 3797 3797 3793 3791 3791 3787 3787 3787 3787 3787 3793 3790 3790 3796 3796 3790 3784 3770 3766 3766 3765 3761 3759 3758 3757 3755 3755 3755 3765 3765 3765 3764 3733 3706 3693 3662 3630 3593 3548 3488 3430 3330 3057 2732 2508 0 2307 2279 2254 2227 2196 2180 2179 2177 2170 2157 2150 2146 2146 2144 2142 2140 2136 2131 2128 2124 2123 2122 2122 2121 2120 2116 2112 2102 2080 2056 2013 1959 1945 1942 1937 1934 1933 1931 1928 1925 1923 1921 1921 1921 1913 1906 1905 1905 1905 1904 1904 1902 1899 1896 1892 1890 1888 1886 1886 1886 1886 1897 1897 1897 1897 1897 1898 1899 1899 1899 1899 1898 1896 1894 1893 1892 1892 1891 1890 1888 1887 1882 1873 1872 1859 1852 1851 1851 1851 1851 1850 1850 1848 1848 1848 1851 1854 1858 1858 1858 1863 1864 1864 1864 1864 1866 1869 1870 1870 1870 1868 1867 1867 1866 1864 1863 1860 1860 1859 1859 1859 1858 1853 1850 1849 1849 1847 1844 1843 1841 1841 1841 1842 1843 1843 1843 1840 1838 1838 1837 1837 1835 1835 1835 1835 1836 1836 1835 1835 1834 1833 1831 1831 1831 1834 1834 1834 1829 1824 1821 1818 1818 1818 1818 1812 1812 1807 1805 1805 1805 1806 1806 1806 1806 1806 1806 1806 1806 1806 1806 1805 1805 1805 1804 1804 1804 1804 1804 1803 1803 1803 1804 1804 1804 1804 1804 1804 1804 1805 1825 1840 1869 1896 1911 1925 1945 1954 1959 1961 1963 1965 1967 1971 1974 1979 1983 1985 1990 1993 1996 1999 2002 2004 2006 2010 2012 2014 2016 2018 2019 2022 2023 2025 2028 2031 2034 2036 2040 2043 2048 2052 2055 2058 2061 2065 2071 2075 2077 2082 2086 2087 2089 2096 2106 2112 2114 2122 2130 2140 2152 2170 2182 2192 2204 2213 2213 2213 2214 2214 2214 2194 2179 0 0 0 0 0 0 0 0 0 0 0 0 0 0 0 0 0 0 0 0 0 0 0 0 0 0 0 0 0 0 0 0 0 0 0 0 0 0 0 0 0 0 0 0 0 0 0 0 0 0 0 0 0 0 0 0 0 0 0 0 0 0 0 0 0 0 0 0 0 0 0 0 0 0 0 0 0 0 0 0 0 0 0 0 0 0 0 0 0 0 0 0 0 0 0 0 0 0
3102 3102 3122 3142 3164 3170 3191 3204 3214 3223 3224 3234 3249 3259 3269 3275 3277 3277 3277 3280 3280 3279 3284 3284 3287 3297 3309 3324 3344 3370 3379 3380 3384 3385 3385 3386 3386 3386 3399 3406 3410 3410 3411 3430 3445 3458 3461 3462 3466 3470 3484 3498 3498 3499 3500 3501 3503 3504 3505 3514 3527 3537 3546 3557 3563 3568 3568 3576 3580 3583 3593 3603 3616 3624 3631 3636 3644 3648 3649 3651 3656 3660 3663 3668 3672 3675 3677 3682 3687 3691 3691 3691 3692 3694 3703 3715 3726 3732 3744 3751 3763 3768 3771 3771 3771 3771 3766 3766 3766 3776 3786 3799 3806 3810 3811 3812 3814 3818 3820 3822 3823 3824 3824 3824 3828 3835 3836 3837 3837 3838 3839 3841 3841 3842 3843 3844 3846 3850 3857 3863 3863 3863 3867 3872 3876 3880 3881 3882 3886 3889 3889 3889 3886 3885 3884 3884 3884 3882 3879 3873 3865 3863 3861 3851 3833 3794 3761 3761 3761 3824 3884 3929 3939 3939 3939 3937 3927 3922 3920 3920 3920 3925 3933 3933 3933 3931 3925 3920 3911 3901 3886 3879 3878 3877 3878 3877 3877 3877 3877 3875 3873 3873 3873 3874 3878 3879 3880 3880 3885 3890 3890 3890 3881 3876 3876 3876 3880 3880 3880 3867 3846 3843 3841 3841 3828 3822 3818 3816 3802 3787 3787 3786 3786 3786 3786 3786 3790 3799 3799 3790 3785 3776 3770 3767 3767 3767 3759 3758 3757 3755 3755 3755 3765 3765 3765 3764 3733 3704 3687 3639 3613 3595 3553 3513 3456 3330 3055 2732 2506 0 2317 2287 2254 2225 2196 2180 2175 2174 2167 2157 2149 2146 2145 2144 2141 2137 2133 2129 2125 2122 2119 2119 2118 2117 2117 2114 2107 2096 2068 2041 2005 1958 1942 1940 1935 1931 1928 1925 1922 1919 1919 1918 1917 1915 1910 1903 1903 1903 1901 1901 1901 1901 1898 1895 1892 1888 1886 1883 1883 1883 1889 1895 1895 1895 1895 1895 1895 1895 1894 1894 1894 1894 1894 1894 1893 1890 1888 1887 1885 1885 1881 1875 1873 1867 1859 1856 1854 1854 1854 1854 1853 1853 1853 1853 1854 1854 1855 1855 1856 1857 1858 1858 1859 1859 1863 1865 1865 1865 1865 1864 1864 1863 1861 1858 1856 1856 1856 1857 1857 1857 1856 1848 1848 1846 1846 1846 1845 1844 1843 1841 1840 1840 1839 1838 1838 1838 1838 1838 1836 1836 1835 1835 1834 1834 1834 1832 1827 1826 1825 1823 1821 1817 1816 1816 1816 1816 1816 1816 1812 1812 1812 1810 1810 1811 1810 1810 1807 1805 1805 1805 1806 1806 1806 1805 1805 1805 1805 1805 1805 1805 1804 1804 1804 1803 1802 1802 1802 1802 1800 1800 1800 1801 1801 1802 1802 1802 1803 1803 1804 1826 1854 1883 1917 1924 1945 1955 1959 1960 1963 1965 1967 1969 1973 1976 1980 1984 1987 1991 1995 1997 2000 2002 2004 2008 2011 2013 2015 2017 2018 2020 2022 2023 2025 2029 2032 2034 2037 2040 2044 2048 2052 2055 2058 2061 2065 2070 2075 2078 2082 2085 2087 2089 2096 2105 2112 2114 2122 2130 2140 2152 2169 2182 2191 2200 2206 2207 2207 2208 2208 2208 2197 2179 0 0 0 0 0 0 0 0 0 0 0 0 0 0 0 0 0 0 0 0 0 0 0 0 0 0 0 0 0 0 0 0 0 0 0 0 0 0 0 0 0 0 0 0 0 0 0 0 0 0 0 0 0 0 0 0 0 0 0 0 0 0 0 0 0 0 0 0 0 0 0 0 0 0 0 0 0 0 0 0 0 0 0 0 0 0 0 0 0 0 0 0 0 0 0 0 0 0
3102 3102 3117 3141 3147 3170 3193 3204 3214 3223 3225 3236 3250 3261 3271 3275 3279 3279 3279 3280 3280 3282 3284 3285 3287 3297 3302 3317 3340 3366 3374 3377 3383 3384 3385 3386 3389 3389 3395 3401 3402 3404 3407 3423 3442 3452 3455 3456 3460 3466 3483 3496 3497 3499 3500 3501 3503 3503 3505 3513 3523 3529 3538 3551 3561 3568 3568 3576 3580 3583 3591 3603 3616 3624 3631 3638 3644 3648 3649 3649 3656 3661 3667 3672 3676 3678 3679 3683 3687 3691 3691 3692 3695 3696 3703 3715 3726 3732 3744 3751 3763 3763 3763 3761 3754 3754 3754 3759 3766 3778 3791 3800 3807 3810 3811 3812 3812 3814 3816 3819 3823 3823 3824 3824 3828 3835 3836 3836 3837 3838 3838 3839 3843 3845 3847 3849 3854 3857 3860 3863 3863 3863 3867 3872 3879 3881 3881 3882 3887 3890 3890 3890 3888 3885 3884 3884 3884 3882 3879 3873 3865 3863 3861 3851 3833 3794 3760 3760 3760 3843 3887 3929 3939 3939 3939 3937 3927 3922 3921 3921 3921 3928 3934 3934 3934 3931 3926 3920 3911 3901 3886 3876 3871 3871 3871 3877 3877 3877 3877 3875 3875 3875 3875 3875 3880 3883 3884 3884 3885 3885 3885 3883 3877 3871 3868 3868 3868 3868 3868 3866 3847 3847 3847 3848 3848 3848 3844 3832 3818 3799 3787 3787 3787 3787 3788 3790 3790 3799 3799 3790 3785 3776 3775 3770 3770 3767 3759 3753 3753 3752 3752 3752 3764 3764 3764 3764 3734 3704 3687 3639 3613 3595 3574 3533 3472 3331 3081 2732 2506 0 2328 2291 2256 2227 2196 2180 2175 2173 2165 2156 2149 2146 2145 2143 2138 2133 2130 2125 2122 2120 2117 2116 2116 2115 2114 2109 2102 2089 2062 2032 1993 1951 1941 1938 1933 1928 1924 1920 1918 1916 1916 1915 1914 1914 1908 1902 1901 1901 1899 1899 1898 1897 1897 1893 1892 1887 1886 1883 1883 1883 1889 1893 1893 1893 1892 1891 1890 1890 1890 1891 1892 1893 1893 1893 1892 1888 1884 1884 1883 1880 1875 1872 1871 1867 1858 1858 1858 1857 1857 1856 1853 1853 1853 1853 1854 1854 1855 1855 1855 1857 1857 1858 1858 1859 1860 1860 1860 1858 1856 1855 1855 1855 1850 1845 1845 1845 1848 1852 1852 1852 1847 1845 1845 1843 1843 1843 1843 1843 1843 1841 1840 1839 1838 1838 1838 1838 1838 1837 1836 1835 1835 1834 1834 1833 1831 1821 1817 1812 1812 1812 1812 1812 1812 1809 1809 1808 1808 1808 1804 1803 1803 1803 1806 1809 1809 1809 1807 1805 1805 1805 1806 1806 1806 1805 1805 1805 1805 1804 1804 1804 1804 1803 1803 1802 1801 1800 1800 1798 1798 1798 1798 1798 1798 1799 1801 1801 1801 1801 1802 1826 1854 1883 1918 1935 1953 1961 1964 1964 1964 1965 1971 1973 1975 1979 1982 1985 1988 1992 1996 1999 2000 2003 2005 2008 2011 2013 2016 2017 2018 2020 2022 2024 2027 2030 2032 2035 2037 2041 2045 2049 2053 2056 2059 2061 2065 2070 2074 2078 2082 2085 2086 2089 2096 2103 2107 2114 2121 2129 2140 2151 2166 2181 2190 2200 2202 2204 2204 2205 2205 2205 2197 2181 2157 0 0 0 0 0 0 0 0 0 0 0 0 0 0 0 0 0 0 0 0 0 0 0 0 0 0 0 0 0 0 0 0 0 0 0 0 0 0 0 0 0 0 0 0 0 0 0 0 0 0 0 0 0 0 0 0 0 0 0 0 0 0 0 0 0 0 0 0 0 0 0 0 0 0 0 0 0 0 0 0 0 0 0 0 0 0 0 0 0 0 0 0 0 0 0 0 0
3108 3108 3112 3141 3146 3170 3194 3204 3214 3223 3225 3236 3250 3269 3273 3277 3279 3280 3280 3282 3283 3283 3284 3286 3291 3297 3302 3311 3339 3362 3373 3376 3382 3383 3385 3386 3389 3393 3393 3394 3396 3397 3405 3419 3434 3446 3450 3453 3458 3463 3480 3496 3496 3496 3497 3497 3497 3499 3503 3510 3519 3528 3533 3543 3554 3563 3567 3576 3580 3583 3591 3602 3616 3624 3631 3638 3644 3647 3647 3649 3656 3665 3671 3675 3678 3680 3681 3683 3689 3691 3693 3693 3696 3696 3704 3715 3726 3738 3744 3748 3751 3751 3751 3749 3749 3749 3750 3759 3766 3779 3791 3800 3807 3807 3807 3808 3808 3809 3814 3819 3823 3825 3825 3828 3832 3837 3837 3837 3836 3836 3836 3839 3843 3850 3853 3855 3857 3862 3865 3865 3865 3867 3868 3875 3881 3883 3886 3886 3891 3891 3891 3891 3888 3885 3885 3885 3885 3885 3880 3874 3869 3865 3861 3857 3843 3806 3757 3757 3757 3843 3887 3927 3936 3936 3936 3925 3919 3919 3919 3920 3924 3934 3935 3935 3934 3931 3926 3920 3911 3901 3886 3876 3870 3870 3870 3873 3879 3879 3879 3879 3878 3877 3878 3880 3880 3887 3887 3888 3887 3887 3881 3878 3875 3870 3866 3866 3866 3865 3863 3861 3847 3847 3847 3855 3858 3858 3858 3832 3818 3803 3792 3792 3788 3788 3788 3792 3794 3800 3800 3794 3787 3785 3781 3776 3770 3750 3750 3750 3751 3751 3751 3751 3752 3766 3766 3766 3734 3704 3687 3639 3613 3595 3575 3539 3474 3333 3081 2732 2506 0 2332 2291 2264 2230 2200 2180 2172 2171 2163 2154 2149 2144 2140 2137 2135 2130 2127 2122 2120 2119 2117 2116 2114 2112 2110 2105 2097 2083 2060 2031 1981 1938 1935 1931 1927 1922 1919 1916 1914 1914 1913 1911 1910 1907 1904 1901 1901 1900 1898 1897 1895 1894 1890 1888 1888 1886 1885 1883 1883 1883 1888 1889 1890 1890 1890 1888 1887 1887 1886 1886 1886 1886 1886 1886 1886 1884 1881 1880 1878 1875 1870 1870 1870 1867 1859 1859 1858 1858 1857 1857 1857 1855 1855 1854 1854 1854 1854 1854 1855 1855 1855 1855 1855 1855 1855 1852 1852 1852 1851 1851 1849 1848 1845 1842 1842 1842 1845 1845 1845 1845 1844 1843 1841 1840 1840 1840 1840 1841 1841 1841 1839 1839 1838 1837 1837 1837 1836 1835 1833 1833 1833 1833 1833 1831 1829 1818 1814 1811 1805 1805 1805 1804 1802 1795 1794 1794 1793 1793 1793 1793 1793 1794 1803 1807 1807 1807 1805 1805 1805 1805 1805 1805 1805 1805 1805 1804 1804 1804 1803 1803 1802 1802 1802 1800 1799 1798 1798 1797 1795 1795 1795 1795 1795 1795 1796 1796 1797 1798 1798 1826 1854 1884 1921 1938 1956 1963 1967 1967 1968 1972 1974 1977 1978 1980 1984 1987 1989 1992 1996 1999 2001 2003 2005 2008 2011 2014 2016 2018 2019 2022 2023 2025 2028 2030 2033 2036 2038 2042 2046 2049 2053 2057 2061 2063 2065 2070 2074 2078 2082 2084 2086 2090 2096 2099 2104 2112 2121 2129 2139 2151 2165 2175 2190 2199 2202 2204 2204 2204 2204 2201 2197 2182 2158 0 0 0 0 0 0 0 0 0 0 0 0 0 0 0 0 0 0 0 0 0 0 0 0 0 0 0 0 0 0 0 0 0 0 0 0 0 0 0 0 0 0 0 0 0 0 0 0 0 0 0 0 0 0 0 0 0 0 0 0 0 0 0 0 0 0 0 0 0 0 0 0 0 0 0 0 0 0 0 0 0 0 0 0 0 0 0 0 0 0 0 0 0 0 0 0 0
3108 3108 3112 3141 3146 3171 3204 3222 3226 3231 3238 3247 3254 3270 3275 3277 3279 3280 3280 3282 3283 3284 3284 3286 3291 3299 3302 3303 3334 3362 3371 3375 3378 3383 3389 3393 3394 3394 3394 3393 3393 3393 3402 3417 3428 3435 3442 3445 3452 3463 3479 3488 3488 3488 3488 3488 3488 3493 3499 3505 3513 3520 3527 3534 3543 3552 3556 3562 3565 3575 3587 3602 3611 3625 3631 3640 3643 3646 3647 3649 3658 3665 3673 3676 3682 3683 3684 3685 3689 3691 3693 3696 3698 3700 3704 3715 3726 3738 3740 3741 3748 3748 3748 3748 3748 3748 3750 3759 3772 3783 3792 3800 3805 3806 3807 3807 3808 3809 3814 3819 3822 3826 3828 3832 3835 3838 3838 3838 3837 3837 3837 3839 3846 3850 3855 3860 3864 3868 3868 3868 3868 3868 3871 3877 3881 3883 3887 3892 3896 3896 3896 3892 3888 3886 3886 3885 3885 3885 3881 3875 3871 3871 3865 3858 3848 3818 3757 3757 3757 3843 3887 3913 3925 3925 3925 3925 3918 3918 3918 3923 3928 3936 3939 3939 3939 3936 3930 3920 3911 3903 3890 3877 3870 3870 3870 3873 3879 3879 3879 3879 3879 3882 3882 3882 3885 3889 3889 3889 3888 3887 3878 3876 3874 3870 3866 3866 3866 3865 3863 3861 3855 3855 3855 3858 3858 3858 3858 3832 3818 3807 3792 3785 3785 3785 3788 3792 3800 3802 3805 3805 3805 3800 3798 3783 3773 3750 3750 3741 3729 3734 3734 3734 3734 3768 3768 3768 3751 3715 3688 3667 3620 3595 3575 3539 3476 3359 3124 2770 2547 0 0 2298 2265 2227 2200 2181 2169 2168 2161 2152 2143 2136 2133 2132 2130 2128 2125 2120 2119 2118 2117 2115 2111 2109 2106 2103 2091 2075 2049 2022 1977 1936 1927 1925 1919 1917 1915 1913 1910 1909 1908 1908 1906 1903 1901 1901 1899 1897 1897 1894 1894 1893 1890 1888 1888 1886 1885 1883 1883 1883 1883 1883 1886 1886 1886 1883 1882 1881 1880 1880 1877 1872 1872 1872 1873 1875 1875 1875 1870 1868 1867 1864 1864 1864 1863 1859 1858 1858 1858 1858 1858 1857 1856 1855 1855 1854 1854 1854 1854 1854 1852 1851 1850 1849 1846 1843 1842 1841 1840 1840 1840 1838 1839 1840 1840 1840 1840 1840 1837 1837 1837 1837 1837 1837 1837 1837 1837 1837 1838 1838 1838 1838 1837 1835 1835 1835 1834 1832 1831 1831 1831 1831 1830 1829 1824 1816 1814 1809 1803 1799 1794 1790 1784 1784 1784 1784 1784 1784 1787 1787 1787 1790 1801 1805 1805 1805 1805 1804 1804 1804 1805 1805 1805 1805 1804 1804 1803 1802 1801 1801 1800 1800 1800 1799 1797 1796 1795 1794 1793 1792 1792 1791 1791 1791 1792 1792 1793 1794 1795 1819 1854 1884 1928 1943 1958 1966 1968 1970 1973 1975 1977 1979 1981 1983 1985 1988 1990 1993 1996 1999 2001 2003 2005 2008 2011 2014 2016 2018 2020 2022 2023 2025 2028 2031 2033 2037 2039 2042 2046 2050 2053 2057 2061 2064 2066 2070 2073 2076 2080 2082 2086 2090 2096 2099 2104 2111 2121 2129 2138 2151 2163 2174 2189 2199 2202 2203 2203 2203 2203 2201 2201 2183 2160 0 0 0 0 0 0 0 0 0 0 0 0 0 0 0 0 0 0 0 0 0 0 0 0 0 0 0 0 0 0 0 0 0 0 0 0 0 0 0 0 0 0 0 0 0 0 0 0 0 0 0 0 0 0 0 0 0 0 0 0 0 0 0 0 0 0 0 0 0 0 0 0 0 0 0 0 0 0 0 0 0 0 0 0 0 0 0 0 0 0 0 0 0 0 0 0 0
3108 3108 3117 3144 3147 3175 3207 3229 3236 3248 3254 3258 3260 3270 3275 3277 3280 3280 3280 3282 3283 3284 3284 3286 3291 3299 3300 3301 3325 3348 3366 3370 3378 3383 3396 3397 3397 3397 3394 3393 3393 3393 3400 3410 3416 3417 3425 3429 3446 3466 3479 3488 3488 3488 3486 3486 3486 3490 3499 3505 3513 3520 3527 3534 3541 3542 3548 3549 3554 3569 3583 3596 3611 3625 3632 3640 3642 3642 3645 3650 3658 3667 3673 3678 3682 3686 3686 3687 3690 3692 3696 3699 3701 3703 3708 3716 3726 3738 3739 3740 3746 3748 3748 3748 3748 3748 3750 3762 3776 3787 3795 3800 3804 3805 3806 3807 3808 3809 3814 3819 3823 3826 3829 3833 3835 3838 3838 3838 3838 3838 3838 3842 3849 3854 3858 3865 3866 3869 3869 3869 3869 3869 3871 3877 3883 3886 3887 3892 3896 3896 3896 3896 3894 3894 3893 3892 3892 3890 3887 3882 3877 3874 3869 3864 3851 3835 3772 3772 3772 3832 3869 3902 3923 3925 3925 3925 3918 3918 3918 3923 3928 3936 3939 3939 3939 3936 3930 3921 3914 3908 3900 3884 3870 3870 3870 3871 3879 3879 3879 3879 3879 3882 3884 3885 3886 3889 3889 3889 3888 3887 3878 3876 3873 3870 3868 3866 3865 3864 3863 3858 3858 3858 3859 3868 3868 3868 3858 3828 3817 3807 3797 3786 3786 3786 3788 3793 3803 3804 3808 3808 3808 3808 3801 3786 3773 3750 3750 3741 3729 3734 3734 3734 3734 3768 3768 3768 3757 3740 3711 3667 3620 3595 3575 3535 3478 3395 3235 2954 2665 0 0 2313 2271 2229 2200 2181 2168 2161 2153 2145 2135 2130 2126 2125 2125 2124 2122 2118 2116 2115 2115 2113 2109 2105 2101 2099 2087 2063 2040 1998 1965 1932 1921 1919 1916 1913 1912 1910 1908 1905 1905 1903 1902 1901 1899 1898 1898 1897 1896 1894 1892 1890 1888 1888 1887 1886 1885 1881 1881 1881 1882 1883 1883 1882 1876 1873 1871 1868 1862 1858 1858 1857 1857 1857 1856 1856 1856 1857 1859 1861 1861 1862 1864 1862 1861 1860 1859 1859 1858 1858 1857 1857 1856 1855 1855 1855 1854 1854 1854 1854 1852 1851 1850 1843 1841 1840 1839 1839 1837 1836 1834 1833 1832 1832 1832 1835 1835 1835 1831 1831 1831 1832 1833 1834 1834 1834 1834 1834 1834 1835 1835 1835 1834 1834 1834 1834 1833 1831 1830 1830 1830 1829 1829 1828 1821 1814 1810 1805 1797 1793 1787 1781 1775 1775 1775 1778 1780 1781 1781 1781 1784 1790 1798 1801 1801 1802 1802 1802 1803 1803 1803 1804 1804 1804 1803 1803 1801 1801 1800 1799 1798 1798 1798 1797 1795 1794 1793 1791 1791 1790 1789 1788 1787 1787 1787 1789 1790 1792 1795 1819 1848 1883 1928 1947 1958 1966 1968 1971 1973 1975 1977 1979 1982 1984 1986 1989 1991 1993 1996 1999 2001 2004 2007 2009 2011 2014 2016 2018 2020 2022 2024 2025 2029 2031 2034 2037 2039 2043 2046 2050 2053 2057 2061 2064 2066 2070 2073 2075 2078 2082 2085 2091 2096 2099 2104 2111 2115 2122 2133 2140 2156 2172 2188 2199 2202 2202 2202 2202 2202 2202 2201 2187 2160 0 0 0 0 0 0 0 0 0 0 0 0 0 0 0 0 0 0 0 0 0 0 0 0 0 0 0 0 0 0 0 0 0 0 0 0 0 0 0 0 0 0 0 0 0 0 0 0 0 0 0 0 0 0 0 0 0 0 0 0 0 0 0 0 0 0 0 0 0 0 0 0 0 0 0 0 0 0 0 0 0 0 0 0 0 0 0 0 0 0 0 0 0 0 0 0 0
3108 3108 3117 3146 3150 3175 3207 3235 3237 3249 3260 3260 3265 3270 3275 3276 3277 3280 3280 3281 3284 3287 3287 3288 3291 3299 3300 3306 3325 3348 3365 3370 3378 3386 3396 3397 3397 3397 3396 3396 3396 3396 3396 3399 3407 3415 3425 3429 3446 3466 3479 3485 3485 3486 3485 3485 3486 3490 3499 3505 3513 3520 3527 3534 3539 3540 3546 3548 3553 3566 3580 3596 3607 3625 3632 3639 3640 3640 3645 3652 3662 3671 3677 3680 3683 3686 3687 3689 3691 3695 3698 3701 3703 3705 3711 3720 3733 3738 3739 3739 3742 3748 3748 3748 3748 3748 3753 3764 3778 3789 3797 3800 3804 3805 3807 3807 3811 3813 3815 3819 3823 3827 3830 3833 3836 3840 3840 3840 3840 3840 3842 3847 3853 3858 3862 3865 3866 3869 3869 3869 3869 3869 3871 3877 3883 3885 3887 3892 3896 3896 3897 3897 3897 3897 3900 3901 3902 3902 3902 3897 3883 3876 3871 3864 3851 3850 3804 3804 3804 3806 3869 3902 3921 3926 3926 3926 3919 3919 3919 3924 3928 3936 3939 3939 3939 3937 3931 3924 3920 3919 3908 3892 3870 3870 3867 3867 3867 3867 3867 3869 3869 3882 3887 3888 3888 3890 3890 3890 3888 3887 3878 3876 3873 3872 3871 3867 3866 3863 3860 3860 3860 3861 3871 3871 3871 3868 3844 3825 3817 3807 3800 3788 3787 3787 3788 3797 3805 3808 3810 3810 3811 3811 3810 3803 3780 3768 3757 3755 3751 3741 3734 3734 3734 3768 3768 3768 3757 3740 3711 3667 3620 3585 3569 3533 3489 3404 3245 3040 2721 2503 0 0 2271 2230 2198 2181 2168 2158 2146 2138 2129 2127 2125 2123 2122 2119 2116 2114 2113 2113 2112 2112 2108 2101 2095 2092 2086 2057 2027 1984 1957 1927 1918 1915 1912 1910 1909 1908 1905 1902 1902 1901 1901 1900 1898 1897 1897 1897 1895 1893 1890 1888 1888 1887 1887 1885 1884 1880 1880 1880 1881 1881 1881 1881 1871 1867 1867 1864 1860 1858 1857 1855 1854 1849 1848 1848 1848 1850 1853 1856 1857 1861 1861 1861 1860 1859 1859 1859 1859 1858 1857 1857 1856 1855 1855 1855 1854 1854 1854 1854 1851 1850 1849 1843 1840 1837 1834 1833 1831 1830 1829 1826 1822 1822 1822 1825 1825 1825 1823 1823 1823 1826 1829 1831 1831 1831 1832 1832 1832 1832 1832 1832 1832 1833 1832 1832 1831 1830 1829 1828 1826 1825 1824 1823 1819 1813 1810 1803 1795 1790 1786 1781 1775 1774 1774 1774 1775 1775 1776 1777 1777 1783 1789 1797 1799 1800 1800 1800 1801 1801 1801 1802 1801 1801 1801 1801 1800 1799 1798 1797 1797 1797 1796 1795 1794 1792 1792 1790 1789 1788 1788 1787 1786 1786 1786 1786 1786 1791 1795 1813 1846 1881 1928 1947 1958 1966 1968 1971 1973 1976 1977 1979 1982 1984 1986 1990 1992 1994 1997 1999 2002 2004 2007 2009 2012 2014 2016 2019 2020 2022 2024 2026 2029 2032 2034 2037 2040 2043 2046 2050 2053 2057 2061 2064 2067 2070 2072 2075 2078 2081 2085 2091 2095 2101 2105 2111 2115 2121 2132 2140 2154 2168 2181 2194 2196 2200 2201 2201 2201 2204 2204 2204 2176 0 0 0 0 0 0 0 0 0 0 0 0 0 0 0 0 0 0 0 0 0 0 0 0 0 0 0 0 0 0 0 0 0 0 0 0 0 0 0 0 0 0 0 0 0 0 0 0 0 0 0 0 0 0 0 0 0 0 0 0 0 0 0 0 0 0 0 0 0 0 0 0 0 0 0 0 0 0 0 0 0 0 0 0 0 0 0 0 0 0 0 0 0 0 0 0 0
3108 3108 3122 3146 3150 3175 3207 3235 3240 3251 3260 3260 3265 3269 3274 3275 3276 3278 3279 3279 3280 3287 3291 3291 3295 3300 3300 3307 3325 3347 3364 3369 3378 3386 3396 3397 3400 3406 3407 3407 3406 3406 3406 3406 3407 3415 3425 3429 3446 3466 3481 3485 3485 3485 3485 3485 3486 3490 3500 3508 3514 3522 3532 3537 3538 3539 3544 3548 3553 3566 3578 3589 3602 3618 3632 3636 3636 3640 3645 3654 3664 3674 3683 3686 3686 3687 3688 3691 3694 3695 3698 3701 3703 3706 3711 3721 3733 3736 3736 3739 3739 3741 3748 3750 3750 3752 3753 3764 3778 3789 3797 3801 3804 3807 3808 3809 3813 3818 3820 3821 3824 3827 3830 3833 3836 3839 3842 3844 3846 3846 3846 3852 3857 3862 3862 3865 3866 3869 3870 3870 3870 3871 3873 3877 3883 3884 3887 3889 3891 3896 3896 3897 3897 3900 3902 3904 3908 3908 3908 3906 3891 3878 3872 3864 3851 3850 3816 3804 3804 3804 3869 3902 3921 3933 3933 3933 3929 3924 3924 3924 3928 3934 3939 3939 3939 3937 3932 3930 3926 3921 3914 3899 3882 3870 3870 3870 3867 3867 3866 3866 3866 3881 3891 3893 3894 3894 3893 3893 3891 3888 3883 3876 3874 3873 3872 3872 3867 3863 3860 3860 3860 3862 3874 3874 3874 3865 3844 3825 3817 3807 3800 3790 3787 3787 3787 3797 3808 3811 3811 3811 3811 3812 3812 3812 3809 3795 3786 3782 3779 3763 3755 3755 3755 3758 3758 3758 3757 3740 3711 3661 3599 3544 3536 3535 3490 3409 3278 3074 2774 2573 0 0 2277 2229 2193 2178 2168 2158 2142 2131 2129 2126 2125 2123 2121 2117 2114 2112 2110 2109 2108 2106 2103 2095 2086 2080 2077 2049 2021 1980 1953 1924 1914 1912 1912 1910 1907 1904 1902 1900 1900 1900 1899 1898 1897 1896 1895 1895 1893 1891 1888 1887 1886 1886 1886 1884 1882 1878 1877 1877 1877 1878 1878 1878 1867 1861 1860 1859 1859 1857 1857 1855 1854 1849 1845 1843 1843 1843 1845 1847 1854 1854 1857 1859 1859 1859 1858 1858 1858 1858 1857 1857 1856 1855 1855 1854 1854 1854 1853 1852 1851 1850 1848 1843 1840 1835 1828 1826 1826 1825 1822 1821 1817 1817 1817 1817 1817 1817 1820 1821 1822 1824 1826 1826 1829 1830 1830 1830 1831 1831 1831 1831 1831 1830 1830 1830 1829 1828 1828 1826 1824 1823 1821 1817 1813 1811 1810 1803 1794 1789 1785 1781 1775 1771 1771 1771 1771 1771 1771 1772 1773 1780 1782 1790 1796 1796 1797 1797 1798 1799 1799 1799 1799 1799 1799 1798 1798 1797 1797 1796 1795 1795 1794 1794 1791 1790 1789 1788 1787 1786 1786 1786 1784 1784 1784 1786 1786 1789 1795 1812 1842 1881 1923 1947 1958 1963 1968 1971 1973 1976 1977 1980 1982 1984 1986 1990 1992 1995 1997 1999 2002 2005 2007 2009 2012 2014 2016 2019 2020 2022 2024 2027 2029 2032 2035 2038 2040 2043 2046 2050 2053 2057 2060 2064 2066 2068 2072 2074 2077 2080 2085 2091 2095 2101 2105 2110 2113 2121 2132 2139 2153 2166 2176 2182 2190 2192 2195 2196 2197 2200 2200 2200 2183 0 0 0 0 0 0 0 0 0 0 0 0 0 0 0 0 0 0 0 0 0 0 0 0 0 0 0 0 0 0 0 0 0 0 0 0 0 0 0 0 0 0 0 0 0 0 0 0 0 0 0 0 0 0 0 0 0 0 0 0 0 0 0 0 0 0 0 0 0 0 0 0 0 0 0 0 0 0 0 0 0 0 0 0 0 0 0 0 0 0 0 0 0 0 0 0 0
3109 3109 3139 3150 3153 3167 3184 3235 3243 3251 3260 3263 3263 3264 3269 3269 3271 3276 3282 3282 3283 3286 3291 3299 3300 3300 3300 3308 3325 3348 3364 3369 3378 3386 3388 3391 3398 3402 3411 3422 3422 3422 3407 3407 3407 3415 3429 3433 3447 3468 3481 3482 3483 3485 3483 3483 3486 3492 3501 3512 3520 3528 3535 3537 3537 3538 3544 3548 3553 3566 3578 3589 3602 3613 3622 3628 3633 3639 3646 3655 3664 3675 3687 3692 3692 3692 3692 3693 3697 3698 3701 3702 3704 3706 3711 3721 3733 3736 3736 3738 3738 3738 3748 3748 3750 3752 3753 3764 3778 3789 3797 3801 3804 3807 3808 3809 3813 3818 3824 3824 3825 3827 3831 3834 3836 3839 3841 3845 3849 3851 3855 3857 3860 3862 3862 3863 3864 3867 3869 3870 3871 3871 3873 3880 3883 3885 3885 3889 3891 3891 3892 3894 3897 3900 3902 3907 3912 3912 3912 3906 3895 3882 3872 3860 3851 3850 3816 3802 3802 3802 3873 3913 3923 3933 3939 3939 3939 3933 3928 3928 3928 3934 3935 3936 3936 3936 3936 3934 3928 3922 3915 3904 3889 3877 3870 3870 3870 3867 3866 3866 3866 3879 3891 3893 3895 3895 3893 3893 3891 3888 3883 3879 3875 3874 3872 3872 3867 3858 3857 3857 3857 3866 3874 3874 3874 3865 3844 3825 3817 3815 3805 3795 3787 3787 3787 3793 3805 3807 3808 3808 3810 3814 3814 3814 3814 3811 3805 3803 3785 3769 3763 3761 3761 3761 3760 3758 3748 3720 3694 3639 3574 3544 3536 3535 3498 3449 3362 3166 2840 2573 0 0 2285 2227 2190 2176 2167 2154 2141 2130 2126 2125 2124 2123 2120 2115 2112 2109 2105 2102 2100 2098 2094 2088 2083 2079 2070 2043 2019 1974 1949 1922 1913 1910 1910 1907 1904 1901 1899 1898 1897 1896 1896 1896 1895 1895 1895 1892 1890 1888 1886 1886 1885 1885 1884 1882 1880 1878 1876 1876 1876 1876 1876 1869 1857 1857 1857 1859 1859 1859 1858 1857 1854 1849 1845 1841 1840 1840 1840 1845 1850 1852 1855 1858 1858 1858 1858 1858 1858 1858 1856 1855 1854 1854 1854 1854 1854 1852 1852 1852 1851 1850 1848 1843 1839 1835 1826 1818 1818 1817 1817 1815 1810 1810 1810 1811 1814 1814 1814 1815 1821 1821 1823 1824 1826 1828 1829 1829 1829 1829 1829 1829 1829 1829 1828 1827 1827 1826 1825 1823 1821 1821 1818 1813 1810 1808 1807 1799 1791 1786 1785 1780 1775 1771 1771 1771 1770 1769 1769 1769 1769 1777 1782 1790 1793 1793 1794 1795 1796 1797 1797 1797 1797 1797 1796 1796 1795 1794 1793 1793 1793 1792 1791 1790 1789 1787 1786 1785 1784 1784 1784 1782 1782 1782 1782 1782 1784 1787 1793 1811 1840 1876 1915 1937 1958 1962 1967 1971 1973 1976 1977 1979 1981 1984 1986 1990 1992 1995 1997 2000 2002 2005 2007 2010 2012 2015 2017 2019 2020 2022 2025 2028 2030 2032 2035 2038 2040 2043 2046 2050 2053 2057 2059 2063 2066 2068 2071 2073 2076 2080 2084 2088 2095 2101 2105 2107 2113 2121 2131 2137 2149 2165 2174 2178 2184 2189 2190 2195 2195 2197 2197 2197 2191 0 0 0 0 0 0 0 0 0 0 0 0 0 0 0 0 0 0 0 0 0 0 0 0 0 0 0 0 0 0 0 0 0 0 0 0 0 0 0 0 0 0 0 0 0 0 0 0 0 0 0 0 0 0 0 0 0 0 0 0 0 0 0 0 0 0 0 0 0 0 0 0 0 0 0 0 0 0 0 0 0 0 0 0 0 0 0 0 0 0 0 0 0 0 0 0 0
3124 3124 3159 3164 3167 3169 3184 3235 3248 3251 3256 3259 3261 3261 3265 3269 3271 3276 3281 3281 3283 3286 3300 3305 3306 3306 3306 3308 3325 3348 3364 3369 3370 3378 3388 3390 3398 3402 3411 3425 3425 3425 3414 3414 3414 3426 3435 3440 3452 3469 3480 3480 3481 3483 3483 3484 3486 3493 3501 3512 3530 3537 3537 3538 3538 3538 3542 3551 3559 3569 3578 3589 3602 3613 3615 3620 3628 3639 3648 3655 3664 3677 3690 3698 3698 3698 3698 3698 3700 3701 3704 3704 3705 3708 3712 3721 3733 3736 3736 3738 3738 3738 3744 3748 3751 3752 3756 3767 3779 3787 3797 3801 3804 3807 3808 3809 3813 3818 3824 3824 3826 3828 3831 3834 3836 3839 3841 3845 3850 3856 3859 3861 3861 3861 3862 3862 3862 3866 3868 3871 3871 3875 3877 3881 3883 3885 3885 3889 3891 3891 3892 3892 3894 3900 3902 3907 3912 3912 3912 3906 3895 3882 3872 3856 3836 3835 3816 3802 3802 3802 3873 3913 3923 3934 3944 3944 3944 3942 3937 3934 3934 3934 3934 3935 3936 3936 3936 3936 3931 3923 3918 3905 3891 3878 3878 3878 3874 3874 3874 3874 3874 3874 3891 3893 3895 3895 3893 3893 3891 3888 3883 3879 3875 3874 3874 3872 3867 3858 3858 3858 3861 3866 3874 3874 3874 3865 3855 3836 3823 3817 3809 3797 3787 3787 3787 3797 3804 3807 3807 3807 3810 3814 3814 3818 3818 3818 3818 3809 3786 3769 3763 3761 3760 3758 3749 3728 3703 3663 3639 3601 3574 3555 3544 3544 3536 3449 3362 3169 2869 2602 0 0 0 2226 2183 2176 2167 2152 2141 2130 2125 2123 2123 2120 2119 2115 2110 2106 2103 2101 2099 2093 2088 2084 2081 2075 2063 2039 2018 1972 1947 1919 1911 1908 1907 1905 1902 1900 1898 1896 1895 1894 1894 1894 1894 1894 1893 1891 1890 1887 1885 1884 1883 1883 1882 1879 1879 1877 1875 1875 1873 1873 1871 1865 1857 1856 1856 1856 1858 1858 1858 1857 1854 1853 1845 1841 1840 1840 1840 1843 1845 1850 1853 1855 1855 1856 1856 1856 1856 1855 1855 1853 1852 1852 1852 1852 1851 1851 1850 1850 1850 1849 1847 1843 1838 1830 1822 1817 1813 1812 1812 1810 1807 1805 1805 1805 1810 1810 1812 1814 1819 1820 1820 1823 1823 1828 1828 1828 1828 1828 1827 1827 1827 1826 1826 1825 1824 1823 1823 1821 1819 1818 1816 1813 1808 1803 1798 1791 1780 1780 1779 1779 1775 1771 1771 1771 1769 1769 1769 1769 1769 1775 1782 1789 1790 1790 1792 1793 1794 1794 1794 1794 1794 1793 1793 1792 1791 1791 1791 1790 1790 1790 1789 1786 1785 1784 1783 1782 1781 1781 1780 1778 1778 1777 1776 1776 1776 1778 1786 1800 1835 1865 1906 1932 1954 1961 1966 1970 1973 1976 1977 1979 1981 1984 1986 1990 1992 1995 1998 2000 2002 2005 2007 2010 2012 2015 2017 2019 2021 2023 2026 2028 2030 2032 2034 2038 2041 2043 2046 2049 2052 2055 2059 2062 2064 2066 2068 2070 2074 2076 2082 2087 2092 2100 2104 2104 2109 2118 2126 2135 2144 2161 2173 2178 2183 2189 2190 2192 2192 2193 2194 2194 2190 0 0 0 0 0 0 0 0 0 0 0 0 0 0 0 0 0 0 0 0 0 0 0 0 0 0 0 0 0 0 0 0 0 0 0 0 0 0 0 0 0 0 0 0 0 0 0 0 0 0 0 0 0 0 0 0 0 0 0 0 0 0 0 0 0 0 0 0 0 0 0 0 0 0 0 0 0 0 0 0 0 0 0 0 0 0 0 0 0 0 0 0 0 0 0 0 0
3144 3144 3166 3167 3170 3170 3184 3241 3251 3252 3255 3256 3257 3259 3264 3269 3270 3276 3281 3281 3283 3286 3301 3305 3306 3306 3306 3308 3327 3349 3364 3369 3370 3378 3388 3390 3396 3402 3411 3425 3425 3425 3418 3418 3418 3432 3446 3450 3461 3469 3469 3469 3477 3477 3481 3484 3485 3493 3501 3512 3530 3537 3537 3538 3538 3538 3542 3551 3565 3573 3586 3599 3608 3613 3615 3620 3628 3639 3649 3656 3665 3677 3690 3699 3699 3699 3700 3700 3703 3705 3708 3710 3710 3713 3718 3725 3733 3735 3736 3736 3736 3738 3740 3743 3748 3753 3757 3768 3780 3787 3793 3800 3804 3807 3807 3808 3812 3818 3824 3824 3826 3829 3833 3835 3836 3839 3841 3845 3850 3856 3861 3861 3861 3861 3859 3859 3859 3862 3868 3872 3877 3880 3881 3881 3883 3885 3885 3890 3891 3892 3892 3892 3894 3898 3901 3907 3911 3911 3911 3904 3895 3882 3872 3855 3831 3796 3788 3788 3788 3800 3873 3913 3923 3934 3944 3944 3944 3942 3937 3935 3935 3935 3935 3935 3936 3937 3937 3937 3935 3925 3921 3910 3892 3879 3879 3879 3888 3888 3888 3880 3878 3878 3878 3893 3893 3893 3884 3879 3879 3879 3878 3878 3875 3875 3874 3871 3867 3856 3856 3856 3862 3866 3873 3873 3873 3865 3858 3846 3827 3819 3810 3797 3789 3789 3789 3800 3807 3807 3810 3810 3810 3815 3818 3819 3820 3818 3818 3809 3786 3769 3763 3761 3760 3748 3724 3699 3666 3656 3639 3601 3574 3555 3555 3544 3536 3449 3369 3179 2877 2604 0 0 0 2219 2183 2170 2161 2151 2139 2130 2125 2123 2120 2120 2115 2111 2108 2103 2101 2099 2095 2091 2086 2081 2076 2072 2056 2036 1995 1972 1938 1913 1904 1903 1902 1902 1901 1898 1897 1895 1893 1891 1891 1891 1891 1891 1890 1888 1887 1886 1885 1882 1881 1879 1877 1875 1874 1874 1872 1871 1870 1867 1866 1861 1856 1855 1855 1855 1858 1858 1858 1857 1854 1853 1851 1845 1840 1836 1836 1836 1843 1849 1850 1851 1852 1852 1852 1853 1853 1853 1852 1851 1851 1850 1850 1849 1849 1848 1847 1847 1847 1847 1846 1840 1833 1827 1819 1813 1812 1810 1809 1808 1807 1805 1805 1805 1808 1809 1810 1812 1817 1818 1819 1822 1822 1826 1826 1826 1826 1825 1825 1825 1825 1825 1823 1821 1820 1819 1819 1818 1817 1816 1813 1808 1803 1795 1785 1781 1775 1774 1773 1773 1773 1769 1769 1769 1769 1769 1769 1769 1769 1774 1781 1787 1788 1789 1790 1790 1790 1791 1791 1791 1791 1791 1790 1790 1789 1788 1788 1787 1787 1787 1785 1783 1782 1781 1780 1779 1779 1777 1776 1774 1774 1774 1774 1772 1772 1772 1779 1786 1824 1860 1889 1930 1950 1961 1966 1970 1974 1976 1977 1979 1981 1984 1986 1990 1992 1995 1998 2000 2002 2005 2007 2010 2012 2015 2017 2019 2022 2024 2026 2028 2030 2032 2034 2037 2040 2043 2046 2049 2051 2055 2058 2061 2064 2065 2066 2068 2071 2074 2080 2085 2089 2097 2103 2103 2108 2116 2125 2131 2139 2160 2171 2177 2182 2187 2190 2191 2191 2191 2192 2191 2187 0 0 0 0 0 0 0 0 0 0 0 0 0 0 0 0 0 0 0 0 0 0 0 0 0 0 0 0 0 0 0 0 0 0 0 0 0 0 0 0 0 0 0 0 0 0 0 0 0 0 0 0 0 0 0 0 0 0 0 0 0 0 0 0 0 0 0 0 0 0 0 0 0 0 0 0 0 0 0 0 0 0 0 0 0 0 0 0 0 0 0 0 0 0 0 0 0
3152 3152 3200 3210 3221 3223 3225 3241 3243 3251 3254 3257 3261 3261 3264 3269 3271 3276 3279 3280 3281 3282 3302 3305 3306 3306 3308 3310 3333 3351 3364 3369 3370 3378 3389 3390 3390 3396 3409 3425 3425 3425 3419 3419 3419 3434 3454 3457 3464 3466 3468 3468 3467 3468 3469 3474 3486 3500 3501 3516 3530 3534 3534 3538 3538 3538 3540 3551 3566 3580 3594 3605 3608 3613 3615 3620 3628 3640 3649 3657 3665 3679 3690 3699 3699 3699 3701 3701 3704 3707 3708 3711 3714 3717 3721 3727 3732 3734 3735 3735 3736 3738 3739 3742 3748 3754 3763 3771 3780 3787 3793 3800 3804 3806 3806 3807 3811 3817 3821 3824 3826 3829 3833 3835 3836 3839 3840 3843 3850 3856 3861 3861 3861 3861 3859 3856 3856 3856 3868 3873 3877 3880 3881 3881 3883 3885 3893 3901 3901 3901 3898 3898 3898 3898 3901 3904 3910 3910 3910 3898 3887 3879 3871 3855 3831 3796 3775 3775 3775 3800 3873 3910 3923 3934 3944 3944 3944 3942 3937 3937 3937 3937 3937 3937 3938 3938 3942 3942 3942 3938 3932 3923 3901 3883 3883 3883 3888 3888 3888 3880 3873 3873 3873 3874 3874 3874 3865 3865 3865 3873 3873 3873 3870 3870 3867 3867 3867 3857 3857 3857 3863 3866 3870 3870 3870 3865 3858 3851 3838 3826 3816 3804 3804 3801 3801 3810 3810 3803 3810 3810 3810 3814 3814 3817 3817 3817 3817 3809 3785 3769 3759 3759 3757 3743 3719 3686 3664 3643 3627 3601 3574 3555 3555 3544 3536 3436 3369 3185 2901 2616 0 0 0 2219 2183 2170 2151 2143 2141 2131 2125 2121 2120 2117 2114 2110 2106 2101 2099 2097 2092 2086 2081 2077 2071 2065 2049 2026 1986 1961 1923 1901 1896 1896 1896 1896 1896 1895 1893 1891 1889 1887 1887 1887 1887 1887 1887 1886 1885 1883 1881 1879 1877 1875 1873 1872 1870 1869 1869 1865 1863 1862 1857 1856 1853 1852 1852 1852 1854 1854 1854 1854 1854 1853 1851 1845 1840 1837 1837 1837 1841 1845 1846 1849 1851 1851 1851 1851 1851 1850 1849 1849 1849 1849 1848 1847 1846 1845 1844 1844 1843 1839 1836 1836 1826 1822 1817 1812 1811 1810 1808 1807 1807 1804 1804 1804 1806 1807 1809 1811 1811 1815 1815 1815 1821 1824 1824 1824 1824 1823 1823 1823 1822 1822 1820 1818 1817 1817 1816 1814 1814 1813 1811 1804 1801 1795 1785 1781 1775 1772 1768 1768 1768 1769 1770 1771 1771 1771 1771 1771 1771 1774 1781 1782 1784 1784 1784 1785 1787 1788 1788 1788 1787 1787 1787 1787 1787 1787 1787 1787 1787 1785 1784 1779 1778 1778 1777 1775 1773 1772 1771 1771 1771 1771 1771 1770 1770 1770 1774 1780 1806 1851 1880 1928 1950 1960 1966 1970 1974 1976 1977 1980 1981 1984 1986 1989 1992 1995 1998 2000 2002 2005 2007 2010 2012 2015 2017 2019 2022 2024 2026 2027 2028 2031 2034 2037 2040 2043 2046 2049 2051 2054 2057 2060 2062 2065 2066 2068 2069 2073 2080 2085 2088 2095 2102 2102 2103 2113 2123 2128 2137 2148 2164 2175 2182 2187 2189 2189 2189 2189 2190 2190 2186 0 0 0 0 0 0 0 0 0 0 0 0 0 0 0 0 0 0 0 0 0 0 0 0 0 0 0 0 0 0 0 0 0 0 0 0 0 0 0 0 0 0 0 0 0 0 0 0 0 0 0 0 0 0 0 0 0 0 0 0 0 0 0 0 0 0 0 0 0 0 0 0 0 0 0 0 0 0 0 0 0 0 0 0 0 0 0 0 0 0 0 0 0 0 0 0 0
3172 3172 3214 3222 3234 3241 3244 3246 3246 3252 3255 3257 3264 3265 3266 3272 3272 3278 3279 3280 3281 3290 3300 3300 3302 3303 3305 3315 3342 3361 3371 3377 3387 3389 3389 3393 3393 3396 3409 3420 3420 3421 3423 3424 3424 3440 3456 3461 3464 3466 3468 3468 3464 3468 3468 3470 3487 3503 3514 3516 3530 3530 3530 3533 3533 3533 3538 3552 3568 3586 3598 3605 3608 3613 3619 3620 3628 3640 3652 3661 3666 3679 3687 3696 3697 3700 3702 3702 3704 3708 3710 3712 3716 3721 3723 3727 3732 3734 3735 3735 3736 3738 3739 3742 3748 3755 3764 3775 3784 3787 3793 3800 3805 3805 3805 3806 3809 3813 3817 3820 3824 3829 3833 3835 3836 3839 3840 3843 3848 3854 3859 3859 3859 3858 3855 3855 3855 3855 3868 3873 3877 3880 3881 3881 3883 3885 3893 3901 3908 3908 3908 3906 3901 3901 3901 3904 3907 3907 3907 3897 3880 3872 3870 3856 3831 3796 3775 3775 3775 3800 3873 3910 3922 3934 3945 3945 3945 3942 3942 3938 3938 3938 3943 3943 3944 3945 3946 3949 3949 3949 3947 3936 3911 3892 3888 3888 3888 3888 3888 3880 3873 3857 3857 3856 3855 3855 3855 3855 3859 3861 3861 3861 3861 3861 3863 3863 3863 3856 3856 3856 3860 3862 3863 3863 3863 3862 3858 3853 3842 3835 3825 3813 3812 3807 3805 3805 3805 3803 3803 3803 3809 3809 3810 3814 3809 3806 3806 3781 3777 3761 3759 3748 3739 3737 3713 3685 3663 3631 3616 3601 3574 3555 3534 3514 3486 3436 3351 3197 2924 2622 0 0 0 2219 2193 2170 2151 2143 2141 2131 2126 2120 2117 2115 2112 2108 2102 2098 2094 2093 2089 2086 2081 2077 2070 2064 2042 2018 1971 1940 1913 1895 1892 1891 1891 1891 1890 1890 1889 1887 1886 1885 1884 1883 1883 1883 1883 1881 1880 1879 1877 1876 1874 1872 1871 1869 1868 1868 1867 1863 1861 1860 1854 1851 1849 1848 1848 1848 1848 1847 1848 1848 1850 1850 1850 1845 1840 1837 1837 1837 1840 1844 1845 1847 1848 1849 1849 1849 1848 1847 1847 1847 1846 1846 1846 1845 1843 1842 1841 1841 1840 1836 1834 1831 1826 1818 1811 1809 1808 1808 1808 1807 1807 1804 1804 1804 1805 1805 1806 1807 1808 1810 1812 1815 1819 1819 1819 1818 1817 1817 1817 1817 1817 1817 1815 1812 1812 1812 1811 1811 1810 1810 1809 1803 1798 1795 1785 1781 1775 1772 1768 1768 1768 1769 1771 1773 1774 1775 1775 1775 1774 1774 1774 1777 1778 1779 1780 1781 1785 1786 1786 1786 1784 1783 1783 1783 1785 1785 1785 1785 1785 1785 1778 1774 1772 1771 1769 1769 1768 1768 1768 1768 1768 1768 1768 1768 1768 1768 1771 1776 1800 1838 1880 1921 1946 1960 1966 1970 1974 1976 1977 1980 1982 1984 1988 1990 1992 1995 1998 2000 2002 2005 2007 2010 2012 2014 2017 2019 2021 2024 2025 2026 2028 2031 2034 2037 2040 2043 2047 2050 2051 2054 2057 2059 2062 2064 2066 2068 2069 2073 2080 2085 2088 2094 2097 2101 2103 2112 2122 2128 2136 2144 2159 2173 2181 2186 2187 2187 2187 2187 2187 2184 2170 0 0 0 0 0 0 0 0 0 0 0 0 0 0 0 0 0 0 0 0 0 0 0 0 0 0 0 0 0 0 0 0 0 0 0 0 0 0 0 0 0 0 0 0 0 0 0 0 0 0 0 0 0 0 0 0 0 0 0 0 0 0 0 0 0 0 0 0 0 0 0 0 0 0 0 0 0 0 0 0 0 0 0 0 0 0 0 0 0 0 0 0 0 0 0 0 0
3187 3187 3218 3231 3240 3249 3252 3254 3254 3252 3255 3257 3264 3266 3269 3269 3272 3278 3278 3281 3281 3290 3295 3297 3302 3302 3304 3315 3342 3367 3373 3386 3388 3389 3389 3393 3393 3396 3409 3420 3423 3426 3432 3434 3440 3451 3457 3463 3464 3466 3466 3466 3464 3466 3466 3468 3487 3503 3514 3523 3530 3530 3530 3524 3524 3524 3536 3552 3578 3595 3604 3605 3606 3610 3620 3629 3638 3648 3657 3669 3677 3680 3687 3692 3694 3700 3703 3705 3706 3708 3711 3716 3720 3724 3728 3729 3732 3734 3735 3735 3736 3739 3739 3742 3748 3755 3765 3775 3785 3795 3800 3805 3805 3805 3806 3806 3806 3809 3812 3816 3820 3828 3832 3835 3836 3838 3840 3843 3846 3848 3849 3851 3851 3851 3849 3849 3849 3855 3868 3873 3874 3875 3876 3877 3878 3884 3893 3901 3908 3908 3908 3906 3904 3904 3904 3904 3904 3904 3904 3890 3878 3871 3870 3857 3841 3812 3775 3775 3775 3806 3873 3910 3922 3937 3945 3945 3945 3942 3942 3942 3942 3947 3953 3953 3955 3956 3958 3958 3958 3956 3953 3937 3914 3896 3889 3889 3884 3884 3884 3869 3856 3841 3841 3839 3839 3841 3842 3848 3858 3858 3858 3841 3841 3841 3851 3851 3855 3855 3855 3855 3855 3857 3857 3857 3857 3857 3855 3854 3843 3835 3834 3825 3813 3812 3807 3807 3807 3805 3805 3806 3805 3801 3806 3811 3806 3806 3806 3781 3777 3761 3759 3743 3724 3710 3696 3668 3637 3622 3616 3601 3563 3524 3491 3471 3437 3395 3339 3259 2964 2640 0 0 0 2242 2211 2172 2151 2143 2138 2131 2126 2120 2116 2111 2109 2104 2099 2094 2090 2090 2089 2086 2081 2077 2069 2059 2039 2012 1966 1936 1910 1894 1890 1889 1888 1887 1886 1885 1885 1885 1883 1882 1881 1879 1879 1879 1879 1877 1877 1875 1875 1873 1872 1870 1869 1868 1866 1866 1864 1862 1858 1857 1853 1846 1845 1845 1843 1840 1839 1836 1836 1836 1841 1841 1841 1839 1838 1837 1837 1837 1839 1840 1840 1844 1846 1846 1846 1846 1846 1846 1845 1844 1844 1843 1843 1842 1841 1839 1838 1838 1837 1832 1831 1828 1823 1814 1811 1808 1808 1804 1804 1804 1804 1804 1803 1801 1801 1801 1801 1802 1802 1805 1809 1815 1815 1815 1813 1810 1809 1809 1809 1809 1810 1810 1810 1809 1809 1809 1809 1809 1808 1806 1806 1801 1798 1791 1782 1779 1773 1772 1768 1768 1768 1771 1773 1773 1774 1775 1775 1775 1773 1773 1773 1775 1777 1777 1778 1779 1781 1781 1781 1781 1781 1781 1781 1781 1782 1782 1782 1780 1778 1775 1769 1766 1766 1765 1764 1764 1764 1764 1765 1765 1766 1767 1767 1767 1766 1766 1766 1767 1783 1837 1877 1916 1939 1958 1966 1970 1974 1976 1977 1980 1983 1985 1988 1990 1992 1995 1998 2000 2002 2005 2007 2010 2012 2014 2017 2019 2021 2022 2025 2026 2028 2031 2034 2037 2040 2043 2047 2050 2052 2053 2057 2059 2062 2064 2066 2068 2069 2073 2080 2084 2088 2093 2096 2101 2103 2112 2121 2127 2132 2141 2156 2170 2178 2179 2181 2181 2181 2181 2180 2180 2159 0 0 0 0 0 0 0 0 0 0 0 0 0 0 0 0 0 0 0 0 0 0 0 0 0 0 0 0 0 0 0 0 0 0 0 0 0 0 0 0 0 0 0 0 0 0 0 0 0 0 0 0 0 0 0 0 0 0 0 0 0 0 0 0 0 0 0 0 0 0 0 0 0 0 0 0 0 0 0 0 0 0 0 0 0 0 0 0 0 0 0 0 0 0 0 0 0
3191 3191 3229 3231 3240 3249 3252 3253 3253 3253 3257 3266 3266 3267 3269 3269 3272 3273 3277 3279 3279 3290 3295 3296 3298 3300 3303 3315 3342 3367 3373 3386 3388 3388 3388 3393 3393 3397 3411 3420 3423 3434 3445 3449 3451 3454 3457 3463 3466 3468 3468 3468 3468 3468 3468 3468 3487 3503 3514 3523 3531 3531 3531 3519 3519 3519 3533 3553 3585 3595 3601 3602 3604 3609 3621 3636 3646 3655 3665 3679 3684 3684 3687 3692 3693 3699 3702 3705 3706 3709 3712 3718 3723 3728 3732 3734 3736 3736 3736 3738 3739 3739 3739 3744 3750 3758 3767 3776 3786 3797 3804 3808 3808 3808 3806 3806 3806 3808 3808 3813 3819 3825 3828 3832 3836 3838 3842 3844 3846 3846 3847 3851 3851 3851 3849 3849 3849 3855 3869 3873 3874 3875 3876 3877 3878 3882 3891 3897 3901 3905 3905 3906 3906 3906 3909 3909 3909 3904 3897 3886 3878 3871 3870 3867 3857 3845 3775 3775 3775 3806 3888 3914 3922 3938 3947 3947 3947 3947 3947 3947 3950 3957 3962 3966 3966 3967 3967 3966 3965 3961 3953 3937 3916 3900 3894 3892 3889 3889 3884 3869 3853 3841 3839 3835 3831 3831 3831 3839 3851 3851 3851 3835 3824 3824 3824 3832 3842 3842 3843 3844 3844 3844 3844 3848 3848 3853 3853 3853 3844 3839 3838 3825 3813 3811 3807 3807 3810 3807 3806 3806 3806 3801 3801 3801 3806 3806 3806 3781 3777 3761 3758 3743 3719 3693 3676 3653 3604 3600 3596 3587 3537 3502 3485 3471 3437 3395 3339 3265 3028 2648 0 0 0 2245 2216 2179 2157 2143 2138 2131 2126 2119 2110 2106 2103 2100 2095 2091 2089 2089 2089 2085 2081 2076 2069 2056 2039 2004 1955 1925 1904 1892 1888 1886 1885 1883 1882 1882 1881 1881 1880 1879 1877 1877 1877 1876 1876 1874 1873 1873 1870 1870 1869 1868 1868 1866 1865 1863 1859 1858 1855 1854 1851 1843 1840 1837 1837 1836 1836 1834 1834 1833 1832 1832 1832 1833 1834 1835 1835 1836 1836 1837 1837 1842 1843 1844 1844 1844 1843 1843 1843 1842 1842 1841 1840 1839 1837 1837 1835 1834 1832 1827 1827 1823 1815 1813 1810 1808 1808 1804 1802 1798 1798 1798 1798 1798 1798 1799 1799 1799 1799 1803 1808 1811 1812 1812 1812 1809 1804 1804 1804 1804 1805 1806 1807 1807 1807 1808 1808 1808 1807 1806 1801 1799 1796 1791 1788 1783 1776 1775 1774 1771 1771 1771 1773 1773 1774 1775 1775 1775 1773 1773 1773 1773 1776 1776 1777 1778 1780 1780 1780 1780 1780 1780 1777 1774 1773 1772 1770 1768 1761 1760 1759 1759 1759 1761 1761 1762 1763 1763 1763 1763 1763 1764 1764 1764 1763 1763 1763 1767 1780 1817 1864 1908 1934 1951 1963 1969 1973 1976 1978 1980 1983 1985 1988 1990 1992 1995 1998 2000 2002 2005 2007 2010 2012 2014 2017 2019 2021 2022 2024 2026 2028 2031 2034 2037 2040 2043 2047 2050 2052 2053 2056 2059 2062 2064 2067 2069 2072 2076 2080 2083 2088 2092 2094 2101 2104 2112 2120 2127 2131 2139 2152 2162 2173 2175 2179 2179 2179 2176 2176 2173 2159 0 0 0 0 0 0 0 0 0 0 0 0 0 0 0 0 0 0 0 0 0 0 0 0 0 0 0 0 0 0 0 0 0 0 0 0 0 0 0 0 0 0 0 0 0 0 0 0 0 0 0 0 0 0 0 0 0 0 0 0 0 0 0 0 0 0 0 0 0 0 0 0 0 0 0 0 0 0 0 0 0 0 0 0 0 0 0 0 0 0 0 0 0 0 0 0 0
3191 3191 3229 3229 3240 3249 3252 3253 3253 3253 3257 3266 3266 3267 3269 3269 3272 3278 3278 3280 3280 3280 3293 3295 3297 3300 3303 3315 3343 3367 3373 3386 3388 3388 3388 3390 3390 3400 3414 3423 3433 3447 3454 3454 3455 3455 3456 3463 3465 3469 3469 3469 3469 3468 3468 3468 3480 3491 3502 3523 3527 3527 3527 3516 3516 3516 3533 3556 3587 3596 3601 3602 3604 3609 3621 3636 3646 3655 3666 3679 3684 3684 3687 3691 3692 3697 3702 3705 3706 3709 3712 3718 3723 3728 3732 3736 3736 3738 3738 3739 3739 3739 3741 3746 3754 3758 3767 3776 3786 3797 3804 3809 3809 3810 3809 3809 3808 3808 3808 3813 3819 3825 3827 3829 3835 3838 3842 3844 3844 3844 3845 3846 3849 3849 3850 3850 3850 3862 3872 3874 3874 3875 3876 3877 3878 3881 3890 3897 3898 3899 3903 3903 3904 3906 3910 3910 3910 3904 3897 3886 3878 3878 3873 3871 3859 3850 3779 3779 3779 3806 3888 3925 3929 3938 3948 3955 3960 3963 3963 3963 3964 3964 3965 3971 3975 3975 3975 3970 3966 3962 3955 3938 3918 3906 3898 3897 3895 3892 3884 3869 3853 3841 3839 3835 3831 3831 3831 3832 3839 3839 3839 3829 3824 3824 3824 3832 3832 3833 3840 3840 3840 3840 3840 3840 3840 3853 3853 3853 3846 3839 3838 3825 3813 3806 3805 3805 3806 3809 3809 3809 3805 3801 3801 3801 3811 3811 3811 3795 3781 3770 3758 3743 3719 3693 3672 3647 3604 3595 3589 3558 3520 3502 3485 3471 3437 3395 3339 3267 3098 2768 2516 0 0 2257 2216 2179 2157 2143 2137 2130 2124 2114 2109 2103 2100 2097 2093 2090 2089 2088 2088 2085 2081 2076 2065 2050 2032 1984 1946 1918 1896 1887 1885 1883 1883 1880 1880 1880 1879 1879 1878 1876 1875 1875 1875 1875 1874 1873 1871 1869 1867 1867 1866 1865 1865 1864 1862 1860 1857 1854 1854 1853 1850 1842 1835 1832 1832 1832 1834 1834 1834 1831 1826 1826 1826 1826 1827 1831 1831 1831 1834 1834 1834 1838 1839 1842 1842 1842 1841 1841 1840 1839 1839 1839 1838 1836 1834 1833 1833 1832 1830 1826 1824 1823 1814 1811 1809 1808 1807 1804 1802 1798 1798 1798 1798 1797 1797 1797 1797 1797 1798 1801 1807 1809 1809 1809 1808 1803 1800 1800 1800 1803 1804 1805 1805 1805 1806 1806 1806 1806 1805 1803 1800 1795 1791 1788 1786 1783 1778 1775 1774 1772 1772 1772 1771 1771 1772 1772 1772 1772 1772 1772 1770 1770 1769 1768 1768 1768 1771 1773 1774 1775 1775 1775 1772 1772 1771 1770 1767 1764 1759 1755 1754 1754 1754 1756 1758 1758 1759 1759 1760 1760 1761 1761 1761 1761 1761 1761 1761 1765 1776 1813 1849 1896 1934 1948 1962 1969 1973 1976 1978 1981 1983 1985 1988 1990 1992 1995 1997 2000 2002 2005 2007 2010 2012 2014 2017 2019 2020 2022 2024 2026 2028 2031 2034 2038 2041 2044 2047 2049 2052 2053 2056 2059 2061 2064 2067 2069 2072 2076 2080 2083 2087 2089 2094 2098 2104 2110 2118 2127 2130 2138 2146 2155 2163 2168 2174 2175 2175 2175 2174 2169 2159 0 0 0 0 0 0 0 0 0 0 0 0 0 0 0 0 0 0 0 0 0 0 0 0 0 0 0 0 0 0 0 0 0 0 0 0 0 0 0 0 0 0 0 0 0 0 0 0 0 0 0 0 0 0 0 0 0 0 0 0 0 0 0 0 0 0 0 0 0 0 0 0 0 0 0 0 0 0 0 0 0 0 0 0 0 0 0 0 0 0 0 0 0 0 0 0 0
3187 3187 3225 3227 3229 3229 3238 3251 3251 3253 3257 3257 3257 3265 3265 3265 3269 3279 3279 3280 3283 3283 3290 3297 3300 3302 3303 3315 3343 3358 3364 3376 3382 3388 3388 3390 3393 3402 3416 3430 3439 3447 3454 3454 3455 3455 3455 3459 3463 3469 3470 3470 3470 3468 3468 3468 3479 3489 3499 3521 3526 3526 3526 3516 3516 3516 3533 3577 3587 3601 3602 3603 3605 3610 3621 3636 3646 3655 3666 3679 3684 3687 3687 3688 3691 3695 3702 3704 3705 3709 3713 3718 3723 3728 3732 3736 3736 3738 3739 3740 3742 3744 3746 3749 3754 3758 3767 3776 3786 3797 3804 3809 3811 3813 3813 3813 3811 3811 3811 3813 3819 3825 3827 3829 3833 3834 3842 3842 3843 3843 3843 3846 3849 3849 3850 3854 3868 3879 3879 3879 3877 3877 3877 3878 3879 3881 3889 3897 3897 3897 3897 3897 3900 3906 3910 3910 3910 3904 3897 3886 3881 3880 3880 3879 3861 3850 3782 3782 3782 3788 3888 3930 3937 3944 3951 3955 3960 3963 3964 3964 3964 3964 3965 3971 3975 3975 3975 3970 3967 3963 3960 3950 3931 3918 3908 3903 3899 3899 3888 3871 3853 3843 3840 3835 3831 3831 3831 3832 3838 3838 3838 3828 3824 3824 3824 3832 3832 3833 3840 3840 3840 3840 3840 3840 3840 3853 3861 3861 3861 3850 3839 3817 3812 3806 3805 3805 3806 3809 3809 3809 3805 3801 3801 3801 3813 3818 3818 3818 3783 3772 3756 3743 3719 3693 3672 3647 3604 3593 3578 3540 3520 3502 3485 3481 3456 3420 3372 3304 3111 2847 2575 0 0 2257 2216 2179 2157 2141 2129 2126 2121 2114 2109 2103 2099 2094 2091 2088 2085 2085 2084 2083 2080 2074 2064 2049 2020 1971 1933 1907 1887 1883 1880 1878 1877 1877 1877 1876 1876 1875 1873 1873 1872 1871 1870 1868 1868 1868 1867 1866 1864 1861 1861 1860 1860 1859 1857 1856 1855 1853 1853 1853 1845 1839 1835 1831 1831 1831 1833 1833 1833 1829 1825 1825 1825 1826 1827 1831 1831 1831 1833 1833 1833 1836 1838 1839 1840 1840 1840 1840 1839 1838 1836 1836 1834 1832 1832 1832 1831 1830 1825 1822 1821 1820 1811 1809 1809 1808 1807 1805 1802 1798 1798 1798 1798 1797 1797 1797 1797 1797 1797 1801 1801 1801 1799 1798 1798 1797 1793 1793 1793 1795 1796 1798 1798 1799 1799 1798 1796 1796 1796 1795 1795 1789 1787 1786 1785 1782 1776 1775 1775 1772 1772 1772 1772 1771 1772 1772 1772 1772 1772 1771 1770 1769 1768 1768 1765 1765 1765 1766 1767 1770 1770 1770 1770 1769 1768 1768 1764 1759 1753 1748 1743 1743 1743 1747 1750 1754 1754 1757 1757 1759 1759 1759 1758 1757 1757 1758 1759 1761 1774 1813 1846 1896 1933 1946 1960 1969 1973 1976 1978 1981 1983 1986 1988 1990 1992 1994 1997 1999 2002 2004 2006 2009 2011 2014 2017 2019 2020 2022 2023 2026 2028 2031 2034 2038 2042 2044 2046 2048 2050 2053 2055 2059 2061 2064 2067 2069 2072 2076 2080 2083 2087 2089 2093 2098 2104 2108 2114 2122 2126 2135 2143 2149 2161 2166 2172 2174 2174 2174 2170 2169 2163 2133 0 0 0 0 0 0 0 0 0 0 0 0 0 0 0 0 0 0 0 0 0 0 0 0 0 0 0 0 0 0 0 0 0 0 0 0 0 0 0 0 0 0 0 0 0 0 0 0 0 0 0 0 0 0 0 0 0 0 0 0 0 0 0 0 0 0 0 0 0 0 0 0 0 0 0 0 0 0 0 0 0 0 0 0 0 0 0 0 0 0 0 0 0 0 0 0
3179 3179 3183 3190 3192 3192 3216 3240 3250 3250 3251 3251 3251 3255 3255 3264 3268 3268 3286 3286 3288 3288 3289 3300 3305 3311 3314 3325 3343 3351 3357 3364 3379 3386 3390 3395 3400 3407 3418 3430 3439 3447 3447 3447 3448 3448 3448 3455 3463 3469 3472 3473 3473 3473 3473 3473 3479 3489 3498 3513 3513 3513 3513 3513 3513 3518 3557 3596 3598 3603 3603 3605 3605 3610 3618 3626 3639 3653 3666 3676 3682 3687 3687 3688 3689 3689 3691 3692 3701 3705 3714 3718 3723 3728 3732 3736 3736 3736 3737 3740 3744 3749 3750 3752 3754 3758 3763 3773 3785 3793 3799 3803 3808 3813 3817 3819 3820 3820 3822 3824 3825 3827 3828 3829 3833 3834 3834 3834 3833 3833 3833 3846 3849 3849 3850 3854 3868 3879 3889 3889 3889 3885 3882 3882 3882 3882 3890 3895 3895 3895 3895 3895 3896 3902 3910 3910 3910 3904 3897 3895 3892 3891 3886 3880 3861 3850 3784 3784 3784 3788 3887 3930 3937 3944 3951 3955 3960 3963 3964 3964 3964 3964 3965 3971 3975 3975 3975 3971 3970 3968 3967 3964 3953 3936 3923 3915 3912 3911 3903 3887 3873 3861 3851 3846 3842 3841 3838 3837 3837 3832 3832 3828 3828 3828 3832 3833 3837 3838 3840 3846 3846 3846 3846 3846 3854 3862 3866 3866 3866 3850 3839 3817 3808 3806 3806 3806 3810 3810 3810 3809 3805 3803 3803 3803 3814 3818 3818 3818 3791 3773 3758 3743 3728 3700 3672 3647 3619 3585 3562 3536 3520 3513 3506 3481 3456 3429 3382 3312 3132 2881 2578 0 0 2257 2210 2171 2150 2139 2129 2122 2118 2113 2107 2102 2097 2090 2088 2084 2082 2079 2077 2077 2075 2071 2060 2040 2015 1966 1926 1896 1883 1879 1876 1874 1873 1873 1872 1870 1870 1869 1869 1868 1867 1867 1867 1867 1867 1867 1867 1864 1863 1859 1859 1857 1857 1855 1854 1852 1852 1850 1849 1847 1843 1839 1833 1831 1831 1831 1832 1832 1832 1829 1825 1825 1825 1826 1827 1831 1831 1831 1832 1832 1832 1836 1837 1837 1837 1838 1838 1838 1838 1836 1830 1830 1828 1828 1828 1825 1825 1825 1821 1820 1819 1817 1811 1807 1807 1806 1805 1805 1802 1802 1801 1801 1799 1799 1797 1796 1795 1795 1795 1795 1795 1793 1789 1789 1789 1789 1789 1789 1789 1789 1790 1792 1796 1796 1796 1796 1795 1788 1788 1787 1786 1786 1786 1785 1782 1779 1776 1775 1774 1772 1772 1771 1771 1771 1771 1771 1771 1771 1771 1770 1769 1769 1768 1767 1765 1765 1765 1766 1766 1766 1766 1764 1761 1757 1756 1755 1754 1754 1749 1744 1740 1740 1740 1741 1748 1750 1753 1755 1756 1756 1756 1756 1756 1755 1754 1754 1754 1755 1760 1807 1839 1889 1931 1945 1960 1969 1975 1978 1980 1981 1983 1986 1988 1990 1993 1994 1997 1999 2001 2004 2006 2009 2011 2014 2016 2018 2020 2022 2023 2026 2028 2031 2034 2038 2042 2044 2046 2048 2050 2052 2055 2058 2061 2063 2066 2068 2072 2076 2079 2082 2085 2089 2093 2098 2103 2105 2111 2118 2126 2134 2143 2149 2157 2163 2167 2171 2171 2171 2170 2168 2163 2133 0 0 0 0 0 0 0 0 0 0 0 0 0 0 0 0 0 0 0 0 0 0 0 0 0 0 0 0 0 0 0 0 0 0 0 0 0 0 0 0 0 0 0 0 0 0 0 0 0 0 0 0 0 0 0 0 0 0 0 0 0 0 0 0 0 0 0 0 0 0 0 0 0 0 0 0 0 0 0 0 0 0 0 0 0 0 0 0 0 0 0 0 0 0 0 0
3146 3146 3147 3151 3152 3167 3198 3239 3250 3250 3251 3251 3251 3255 3256 3262 3266 3268 3281 3281 3286 3290 3291 3300 3306 3311 3315 3325 3343 3351 3357 3360 3371 3381 3390 3397 3404 3409 3419 3430 3439 3444 3444 3444 3444 3444 3448 3455 3463 3469 3475 3476 3476 3476 3476 3477 3479 3487 3493 3500 3506 3506 3512 3513 3527 3533 3585 3602 3603 3603 3606 3608 3610 3611 3618 3626 3639 3653 3665 3675 3682 3686 3686 3686 3686 3686 3689 3692 3701 3705 3714 3718 3723 3728 3731 3736 3736 3736 3736 3740 3744 3749 3750 3752 3753 3756 3762 3771 3782 3789 3793 3796 3802 3814 3823 3826 3826 3826 3826 3826 3826 3828 3830 3830 3833 3833 3833 3830 3830 3830 3830 3841 3846 3849 3851 3854 3868 3879 3889 3889 3889 3887 3886 3883 3883 3883 3890 3895 3895 3895 3895 3895 3896 3899 3902 3902 3902 3901 3897 3895 3892 3891 3886 3874 3859 3846 3793 3788 3788 3788 3883 3930 3937 3944 3951 3953 3954 3957 3964 3964 3964 3964 3965 3966 3973 3973 3973 3973 3970 3969 3968 3964 3953 3940 3934 3931 3930 3930 3916 3905 3886 3868 3861 3852 3843 3841 3839 3837 3834 3832 3834 3836 3836 3841 3842 3842 3845 3845 3845 3849 3849 3849 3850 3850 3866 3876 3876 3876 3866 3855 3839 3817 3811 3811 3811 3815 3817 3817 3817 3810 3808 3805 3808 3810 3814 3821 3821 3821 3803 3774 3774 3774 3776 3776 3776 3712 3644 3593 3562 3536 3522 3518 3506 3481 3456 3429 3387 3324 3167 2909 2589 0 0 0 2203 2169 2150 2136 2129 2120 2114 2110 2106 2101 2094 2089 2084 2081 2077 2074 2070 2068 2065 2059 2053 2025 2000 1953 1911 1896 1882 1876 1873 1872 1871 1869 1867 1866 1863 1863 1861 1860 1859 1859 1859 1861 1863 1863 1863 1860 1855 1853 1852 1852 1852 1852 1850 1848 1848 1846 1843 1842 1841 1836 1832 1831 1831 1831 1831 1831 1831 1828 1825 1825 1825 1827 1827 1828 1828 1828 1828 1828 1828 1832 1836 1836 1836 1834 1831 1831 1829 1827 1823 1823 1822 1822 1820 1820 1820 1819 1819 1819 1815 1815 1810 1805 1805 1805 1805 1805 1802 1802 1801 1801 1799 1799 1795 1794 1794 1794 1795 1795 1795 1786 1782 1782 1781 1781 1780 1780 1780 1784 1785 1786 1789 1789 1789 1789 1788 1785 1782 1782 1782 1782 1782 1782 1779 1777 1776 1775 1774 1772 1771 1771 1771 1771 1770 1770 1770 1770 1770 1770 1769 1768 1767 1767 1764 1764 1763 1762 1763 1763 1762 1760 1757 1750 1750 1750 1748 1748 1748 1743 1738 1737 1737 1737 1744 1749 1750 1752 1752 1754 1754 1754 1754 1753 1752 1752 1752 1752 1752 1792 1828 1871 1922 1944 1960 1973 1975 1979 1980 1981 1984 1986 1988 1991 1993 1995 1997 1999 2001 2004 2006 2008 2011 2013 2016 2018 2020 2022 2023 2026 2028 2031 2034 2038 2042 2044 2046 2048 2050 2052 2055 2057 2059 2062 2065 2068 2072 2074 2078 2082 2085 2088 2093 2098 2103 2105 2110 2118 2126 2134 2140 2146 2156 2163 2165 2166 2167 2168 2168 2168 2163 2133 0 0 0 0 0 0 0 0 0 0 0 0 0 0 0 0 0 0 0 0 0 0 0 0 0 0 0 0 0 0 0 0 0 0 0 0 0 0 0 0 0 0 0 0 0 0 0 0 0 0 0 0 0 0 0 0 0 0 0 0 0 0 0 0 0 0 0 0 0 0 0 0 0 0 0 0 0 0 0 0 0 0 0 0 0 0 0 0 0 0 0 0 0 0 0 0
3129 3133 3133 3140 3152 3167 3198 3237 3251 3251 3251 3251 3251 3255 3257 3264 3268 3268 3281 3283 3286 3291 3293 3303 3309 3312 3317 3325 3343 3351 3356 3358 3365 3379 3390 3397 3404 3409 3420 3431 3438 3442 3442 3443 3443 3444 3448 3455 3465 3469 3475 3478 3478 3484 3484 3486 3487 3489 3493 3500 3506 3506 3513 3520 3543 3548 3585 3602 3603 3603 3606 3608 3610 3613 3618 3626 3639 3653 3665 3675 3682 3683 3683 3686 3686 3686 3689 3692 3701 3705 3715 3721 3725 3725 3730 3734 3735 3735 3736 3740 3744 3749 3750 3752 3752 3756 3762 3771 3779 3784 3787 3792 3800 3815 3823 3826 3826 3826 3826 3826 3826 3828 3830 3832 3834 3834 3834 3829 3829 3829 3830 3841 3846 3849 3852 3852 3859 3870 3882 3887 3887 3887 3886 3884 3884 3884 3890 3895 3895 3895 3894 3894 3894 3895 3896 3896 3896 3895 3895 3893 3892 3891 3886 3873 3857 3838 3796 3788 3788 3788 3878 3918 3928 3937 3944 3953 3954 3957 3964 3964 3964 3964 3965 3966 3972 3975 3975 3975 3971 3970 3970 3964 3953 3940 3940 3938 3938 3938 3926 3907 3888 3877 3868 3852 3843 3841 3839 3835 3834 3832 3834 3835 3841 3843 3851 3856 3856 3856 3854 3854 3854 3855 3857 3859 3869 3876 3876 3876 3866 3853 3831 3817 3811 3811 3811 3815 3815 3815 3812 3811 3810 3808 3810 3811 3816 3824 3824 3824 3810 3781 3781 3781 3781 3781 3776 3712 3644 3593 3562 3536 3530 3518 3506 3481 3451 3429 3393 3334 3212 2945 2589 0 0 0 2198 2168 2150 2135 2121 2116 2110 2107 2105 2100 2093 2086 2081 2078 2074 2070 2066 2064 2061 2058 2046 2021 1988 1933 1908 1895 1881 1874 1870 1870 1868 1866 1864 1860 1857 1855 1852 1849 1847 1847 1847 1847 1850 1852 1852 1852 1851 1851 1850 1850 1850 1848 1848 1847 1845 1844 1841 1836 1835 1832 1831 1831 1831 1831 1831 1831 1829 1827 1825 1825 1825 1827 1827 1827 1827 1826 1826 1825 1825 1825 1835 1835 1835 1831 1829 1824 1818 1817 1815 1813 1813 1811 1808 1808 1808 1815 1815 1815 1814 1809 1808 1804 1804 1804 1803 1803 1802 1802 1801 1801 1799 1799 1795 1794 1792 1792 1791 1791 1789 1784 1776 1773 1772 1772 1770 1768 1768 1768 1771 1774 1774 1775 1780 1780 1780 1779 1777 1777 1777 1778 1778 1778 1776 1775 1774 1773 1773 1772 1771 1771 1771 1771 1770 1770 1770 1770 1770 1770 1769 1768 1765 1765 1764 1764 1761 1761 1761 1761 1760 1759 1756 1747 1740 1740 1740 1742 1742 1742 1736 1736 1736 1737 1744 1747 1748 1748 1751 1752 1752 1751 1751 1751 1751 1750 1750 1750 1751 1770 1814 1858 1913 1941 1960 1973 1977 1979 1980 1981 1984 1986 1989 1991 1993 1995 1997 1999 2001 2004 2006 2008 2010 2013 2016 2017 2020 2022 2023 2026 2028 2031 2034 2037 2040 2043 2045 2047 2050 2052 2055 2057 2059 2061 2064 2067 2070 2073 2077 2082 2085 2086 2092 2098 2102 2105 2110 2117 2126 2133 2140 2146 2156 2161 2163 2164 2166 2167 2167 2166 2162 2133 0 0 0 0 0 0 0 0 0 0 0 0 0 0 0 0 0 0 0 0 0 0 0 0 0 0 0 0 0 0 0 0 0 0 0 0 0 0 0 0 0 0 0 0 0 0 0 0 0 0 0 0 0 0 0 0 0 0 0 0 0 0 0 0 0 0 0 0 0 0 0 0 0 0 0 0 0 0 0 0 0 0 0 0 0 0 0 0 0 0 0 0 0 0 0 0
3129 3133 3133 3139 3152 3167 3198 3237 3246 3249 3251 3252 3252 3260 3262 3265 3269 3270 3280 3283 3284 3290 3291 3303 3312 3317 3319 3324 3334 3345 3351 3354 3361 3372 3386 3397 3404 3409 3421 3430 3438 3442 3442 3442 3443 3450 3455 3463 3470 3473 3477 3479 3484 3490 3490 3490 3491 3493 3493 3500 3506 3515 3520 3534 3546 3551 3585 3602 3603 3603 3606 3608 3611 3613 3618 3627 3640 3653 3664 3674 3682 3682 3682 3682 3682 3686 3691 3697 3701 3709 3717 3722 3725 3725 3730 3734 3734 3735 3736 3740 3743 3747 3749 3750 3752 3756 3762 3770 3773 3777 3782 3790 3800 3816 3823 3826 3826 3826 3826 3826 3826 3828 3830 3833 3834 3834 3834 3829 3829 3829 3830 3841 3846 3849 3850 3852 3855 3865 3878 3883 3886 3886 3886 3885 3885 3885 3892 3897 3897 3897 3894 3894 3893 3893 3892 3892 3891 3891 3890 3890 3890 3890 3886 3873 3857 3838 3806 3806 3806 3813 3878 3909 3918 3932 3944 3952 3954 3957 3964 3964 3964 3964 3965 3966 3972 3975 3975 3975 3972 3972 3970 3959 3947 3941 3941 3941 3941 3941 3932 3914 3897 3882 3868 3852 3843 3839 3837 3835 3834 3835 3836 3836 3842 3844 3851 3856 3856 3856 3854 3854 3854 3855 3860 3866 3871 3871 3871 3871 3861 3851 3831 3817 3811 3811 3811 3815 3815 3815 3811 3811 3810 3809 3810 3812 3816 3827 3827 3836 3836 3820 3819 3791 3789 3781 3776 3712 3657 3616 3579 3548 3530 3518 3490 3462 3427 3415 3387 3335 3258 2951 2613 0 0 0 2188 2168 2151 2135 2121 2111 2109 2106 2104 2098 2092 2082 2077 2075 2071 2068 2065 2063 2061 2056 2042 2017 1986 1929 1908 1892 1878 1873 1868 1867 1865 1863 1861 1857 1855 1852 1845 1841 1839 1839 1839 1842 1844 1849 1849 1850 1850 1850 1850 1850 1849 1847 1847 1844 1840 1840 1834 1833 1832 1831 1830 1830 1830 1830 1830 1828 1828 1827 1825 1825 1825 1826 1826 1826 1826 1825 1825 1824 1824 1824 1828 1828 1828 1826 1818 1815 1815 1814 1814 1813 1813 1805 1803 1803 1803 1805 1807 1809 1809 1809 1805 1803 1802 1802 1802 1801 1800 1799 1798 1797 1796 1796 1795 1794 1792 1790 1789 1789 1789 1784 1773 1772 1772 1770 1770 1767 1764 1764 1762 1762 1762 1765 1771 1773 1773 1773 1772 1772 1772 1772 1775 1775 1775 1775 1774 1773 1772 1771 1770 1770 1770 1768 1768 1768 1768 1768 1768 1768 1767 1765 1764 1762 1762 1762 1760 1760 1758 1757 1757 1756 1751 1742 1730 1730 1730 1735 1735 1735 1730 1730 1730 1737 1742 1745 1746 1746 1748 1748 1749 1749 1749 1747 1745 1742 1742 1742 1743 1757 1805 1851 1902 1940 1962 1973 1977 1979 1980 1982 1984 1986 1989 1991 1993 1995 1996 1999 2001 2004 2006 2008 2010 2013 2015 2017 2019 2020 2023 2026 2028 2031 2034 2037 2040 2042 2045 2047 2049 2052 2055 2056 2058 2061 2063 2067 2069 2073 2077 2082 2084 2085 2090 2097 2102 2105 2109 2117 2126 2133 2140 2146 2156 2159 2160 2162 2164 2164 2164 2158 2152 2132 0 0 0 0 0 0 0 0 0 0 0 0 0 0 0 0 0 0 0 0 0 0 0 0 0 0 0 0 0 0 0 0 0 0 0 0 0 0 0 0 0 0 0 0 0 0 0 0 0 0 0 0 0 0 0 0 0 0 0 0 0 0 0 0 0 0 0 0 0 0 0 0 0 0 0 0 0 0 0 0 0 0 0 0 0 0 0 0 0 0 0 0 0 0 0 0
3129 3133 3133 3139 3152 3172 3208 3237 3246 3249 3249 3250 3261 3263 3265 3269 3269 3276 3279 3282 3284 3286 3288 3303 3312 3318 3324 3325 3332 3335 3341 3348 3359 3372 3385 3394 3399 3409 3421 3431 3434 3434 3439 3443 3450 3457 3460 3468 3473 3474 3480 3485 3492 3494 3494 3494 3493 3493 3493 3505 3518 3522 3528 3538 3546 3551 3580 3595 3601 3604 3606 3611 3612 3614 3622 3630 3640 3653 3664 3674 3679 3679 3682 3682 3682 3686 3691 3697 3702 3712 3718 3722 3725 3725 3728 3732 3734 3735 3737 3740 3743 3746 3749 3750 3752 3756 3762 3770 3773 3777 3782 3790 3800 3816 3820 3820 3822 3824 3825 3826 3826 3827 3830 3833 3834 3834 3834 3830 3830 3830 3838 3847 3850 3850 3850 3852 3852 3858 3871 3879 3883 3883 3883 3884 3884 3888 3893 3898 3898 3898 3894 3891 3891 3890 3889 3889 3889 3889 3889 3889 3889 3887 3885 3872 3857 3838 3809 3809 3809 3813 3876 3909 3918 3930 3943 3951 3960 3962 3964 3969 3969 3969 3969 3969 3972 3974 3974 3974 3973 3972 3970 3959 3945 3941 3941 3941 3941 3941 3934 3922 3910 3892 3870 3854 3843 3839 3837 3835 3835 3837 3839 3844 3844 3845 3851 3856 3856 3856 3854 3854 3854 3856 3864 3871 3871 3871 3869 3868 3860 3851 3835 3817 3809 3809 3809 3810 3810 3810 3810 3810 3810 3810 3810 3812 3817 3828 3832 3836 3836 3832 3820 3781 3776 3739 3717 3689 3672 3664 3632 3548 3530 3510 3489 3447 3410 3394 3387 3335 3258 2951 2613 0 0 0 2186 2168 2151 2134 2121 2111 2107 2105 2103 2097 2088 2079 2075 2072 2070 2067 2065 2063 2061 2052 2036 2011 1984 1929 1902 1886 1877 1873 1867 1864 1863 1860 1857 1854 1850 1843 1839 1834 1834 1834 1834 1839 1844 1847 1848 1849 1849 1849 1849 1849 1846 1846 1845 1843 1840 1837 1833 1832 1832 1830 1829 1829 1828 1828 1828 1827 1827 1827 1824 1824 1824 1824 1824 1824 1824 1824 1824 1820 1820 1820 1823 1823 1823 1822 1815 1815 1814 1814 1814 1811 1808 1805 1802 1800 1800 1800 1801 1806 1806 1806 1802 1801 1800 1800 1800 1800 1799 1798 1797 1797 1796 1795 1795 1794 1792 1790 1789 1789 1788 1782 1775 1773 1772 1770 1766 1764 1761 1761 1759 1758 1758 1758 1763 1768 1768 1768 1766 1766 1766 1768 1772 1773 1774 1774 1774 1772 1772 1771 1770 1769 1768 1767 1766 1766 1766 1766 1765 1764 1764 1761 1761 1761 1761 1761 1759 1759 1758 1755 1752 1750 1746 1737 1727 1727 1727 1729 1729 1729 1725 1725 1725 1735 1742 1743 1744 1744 1744 1744 1744 1745 1745 1745 1742 1740 1739 1739 1739 1754 1798 1842 1892 1936 1962 1973 1977 1979 1980 1982 1984 1986 1989 1991 1993 1995 1997 1998 2001 2004 2006 2008 2010 2013 2014 2017 2019 2020 2023 2026 2028 2030 2033 2037 2039 2042 2044 2047 2049 2052 2054 2056 2058 2061 2063 2066 2069 2072 2077 2081 2084 2085 2090 2097 2102 2105 2109 2117 2126 2133 2137 2145 2153 2158 2159 2161 2163 2163 2163 2153 2137 2125 0 0 0 0 0 0 0 0 0 0 0 0 0 0 0 0 0 0 0 0 0 0 0 0 0 0 0 0 0 0 0 0 0 0 0 0 0 0 0 0 0 0 0 0 0 0 0 0 0 0 0 0 0 0 0 0 0 0 0 0 0 0 0 0 0 0 0 0 0 0 0 0 0 0 0 0 0 0 0 0 0 0 0 0 0 0 0 0 0 0 0 0 0 0 0 0
3137 3140 3140 3141 3167 3187 3230 3242 3246 3249 3249 3250 3261 3263 3265 3269 3269 3276 3278 3282 3284 3286 3288 3296 3321 3323 3324 3327 3332 3335 3341 3348 3359 3372 3385 3393 3399 3409 3422 3433 3434 3434 3439 3447 3451 3458 3462 3468 3473 3478 3481 3489 3492 3495 3495 3495 3496 3498 3501 3515 3529 3536 3540 3541 3553 3558 3580 3595 3601 3604 3606 3611 3612 3619 3627 3633 3641 3653 3664 3674 3676 3678 3680 3680 3682 3686 3691 3699 3703 3713 3718 3722 3725 3725 3727 3732 3734 3736 3737 3740 3743 3746 3749 3750 3752 3758 3765 3770 3773 3777 3782 3790 3802 3816 3816 3818 3819 3823 3825 3826 3826 3827 3829 3833 3834 3834 3834 3834 3834 3835 3843 3849 3850 3850 3850 3852 3852 3858 3862 3871 3878 3882 3883 3884 3886 3888 3893 3898 3898 3898 3894 3891 3891 3890 3889 3889 3889 3889 3888 3888 3888 3885 3883 3872 3857 3837 3809 3809 3809 3813 3875 3909 3918 3929 3943 3951 3960 3966 3972 3974 3974 3974 3972 3972 3972 3974 3974 3974 3973 3972 3971 3955 3939 3939 3939 3941 3943 3943 3943 3922 3913 3893 3871 3854 3843 3839 3837 3837 3837 3840 3845 3845 3845 3845 3845 3851 3853 3853 3853 3853 3853 3856 3871 3871 3871 3866 3865 3864 3859 3851 3834 3817 3810 3807 3803 3803 3803 3803 3807 3809 3810 3810 3811 3814 3818 3835 3835 3836 3835 3832 3820 3772 3735 3710 3695 3690 3690 3689 3638 3548 3505 3492 3477 3447 3410 3388 3363 3340 3258 2951 2597 0 0 0 2186 2168 2151 2134 2123 2111 2106 2103 2099 2091 2082 2077 2072 2070 2069 2065 2063 2062 2057 2045 2024 2003 1976 1929 1900 1877 1875 1870 1864 1860 1859 1857 1854 1851 1847 1843 1839 1834 1825 1825 1825 1832 1833 1841 1845 1845 1846 1846 1845 1845 1844 1844 1844 1836 1836 1835 1832 1831 1831 1829 1828 1828 1828 1828 1827 1827 1826 1826 1824 1823 1822 1822 1822 1822 1822 1821 1821 1814 1812 1812 1811 1811 1810 1809 1809 1809 1815 1815 1815 1811 1796 1791 1791 1789 1789 1794 1795 1800 1800 1800 1800 1799 1799 1799 1799 1799 1798 1798 1797 1796 1795 1795 1794 1792 1792 1790 1788 1787 1786 1782 1775 1773 1771 1770 1764 1760 1759 1758 1757 1755 1755 1755 1757 1758 1760 1760 1762 1762 1762 1767 1771 1772 1772 1772 1771 1771 1771 1771 1769 1768 1766 1765 1764 1764 1763 1763 1762 1761 1760 1760 1760 1759 1760 1760 1759 1758 1756 1752 1748 1747 1742 1733 1725 1725 1725 1724 1724 1724 1716 1716 1716 1732 1739 1740 1740 1739 1740 1740 1740 1740 1740 1740 1740 1739 1739 1739 1739 1750 1798 1831 1886 1934 1962 1973 1977 1979 1982 1983 1984 1986 1988 1990 1993 1995 1996 1999 2001 2003 2006 2008 2010 2012 2014 2016 2018 2020 2022 2024 2027 2030 2033 2036 2039 2041 2043 2046 2049 2052 2054 2055 2057 2060 2063 2066 2068 2072 2076 2080 2083 2085 2090 2096 2102 2104 2109 2117 2126 2130 2135 2144 2152 2157 2159 2159 2162 2162 2162 2153 2137 2124 0 0 0 0 0 0 0 0 0 0 0 0 0 0 0 0 0 0 0 0 0 0 0 0 0 0 0 0 0 0 0 0 0 0 0 0 0 0 0 0 0 0 0 0 0 0 0 0 0 0 0 0 0 0 0 0 0 0 0 0 0 0 0 0 0 0 0 0 0 0 0 0 0 0 0 0 0 0 0 0 0 0 0 0 0 0 0 0 0 0 0 0 0 0 0 0
3156 3156 3156 3158 3171 3188 3230 3249 3249 3249 3249 3249 3261 3263 3265 3271 3271 3276 3278 3282 3286 3286 3288 3296 3323 3329 3331 3332 3332 3335 3341 3348 3359 3377 3385 3393 3399 3409 3425 3433 3434 3434 3439 3448 3453 3459 3463 3468 3473 3478 3484 3489 3494 3497 3498 3502 3504 3505 3509 3520 3530 3539 3541 3541 3554 3561 3580 3595 3601 3606 3613 3614 3620 3629 3633 3636 3642 3652 3664 3670 3671 3672 3673 3678 3682 3686 3692 3700 3705 3713 3718 3722 3725 3725 3727 3732 3734 3738 3740 3741 3744 3746 3749 3750 3752 3759 3768 3774 3778 3783 3790 3801 3808 3816 3818 3818 3818 3822 3825 3826 3827 3827 3829 3833 3834 3834 3835 3836 3837 3844 3849 3850 3851 3851 3850 3851 3851 3858 3862 3871 3878 3878 3881 3884 3886 3888 3893 3898 3898 3898 3894 3891 3891 3890 3889 3889 3884 3884 3884 3884 3884 3883 3877 3872 3857 3837 3809 3805 3805 3805 3878 3911 3918 3926 3941 3951 3960 3967 3973 3978 3978 3978 3973 3973 3973 3972 3973 3973 3972 3972 3971 3955 3936 3931 3931 3931 3942 3942 3942 3922 3913 3893 3871 3854 3848 3847 3845 3840 3840 3840 3845 3845 3845 3845 3845 3851 3851 3851 3850 3850 3850 3856 3868 3868 3868 3858 3857 3856 3855 3846 3831 3822 3812 3807 3801 3801 3801 3803 3804 3807 3811 3811 3816 3816 3818 3836 3836 3836 3832 3830 3800 3759 3732 3710 3695 3695 3691 3689 3661 3558 3500 3478 3477 3447 3410 3388 3363 3340 3257 2943 2597 0 0 2232 2186 2168 2151 2135 2125 2114 2106 2103 2097 2090 2082 2076 2071 2069 2067 2062 2058 2054 2048 2038 2022 1998 1962 1921 1891 1870 1868 1864 1859 1857 1856 1855 1852 1848 1845 1842 1837 1832 1823 1823 1823 1826 1831 1831 1832 1832 1833 1835 1841 1843 1843 1843 1839 1835 1834 1834 1832 1831 1831 1828 1828 1828 1827 1826 1826 1825 1825 1824 1824 1822 1821 1821 1820 1819 1817 1816 1815 1812 1809 1809 1809 1809 1804 1804 1804 1806 1815 1815 1815 1812 1792 1788 1788 1788 1788 1790 1793 1794 1797 1797 1798 1798 1798 1798 1798 1798 1798 1797 1796 1795 1794 1794 1792 1790 1790 1789 1788 1785 1784 1782 1775 1773 1771 1770 1764 1759 1755 1755 1754 1752 1751 1751 1752 1752 1753 1758 1759 1759 1761 1765 1769 1769 1769 1770 1770 1769 1769 1769 1768 1766 1765 1764 1763 1763 1762 1760 1760 1759 1758 1758 1757 1756 1755 1755 1755 1755 1755 1749 1745 1741 1737 1726 1724 1724 1724 1724 1724 1719 1716 1716 1716 1725 1734 1735 1735 1735 1735 1736 1736 1738 1739 1739 1739 1738 1738 1738 1738 1749 1787 1818 0 1934 1959 1972 1977 1980 1982 1984 1985 1986 1988 1990 1993 1995 1996 1999 2001 2003 2005 2007 2010 2012 2013 2016 2018 2020 2022 2024 2027 2030 2033 2035 2038 2041 2042 2045 2048 2050 2052 2054 2057 2059 2062 2066 2068 2072 2075 2078 2082 2085 2090 2096 2100 2103 2106 2115 2122 2128 2134 2143 2152 2155 2155 2156 2159 2159 2159 2153 2137 2124 2100 0 0 0 0 0 0 0 0 0 0 0 0 0 0 0 0 0 0 0 0 0 0 0 0 0 0 0 0 0 0 0 0 0 0 0 0 0 0 0 0 0 0 0 0 0 0 0 0 0 0 0 0 0 0 0 0 0 0 0 0 0 0 0 0 0 0 0 0 0 0 0 0 0 0 0 0 0 0 0 0 0 0 0 0 0 0 0 0 0 0 0 0 0 0 0
