3154 3154 3167 3180 3185 3196 3218 3234 3254 3259 3261 3273 3281 3283 3283 3284 3284 3286 3294 3299 3303 3312 3322 3338 3355 3356 3357 3357 3364 3369 3375 3381 3387 3399 3409 3421 3432 3441 3450 3454 3457 3459 3459 3459 3461 3465 3473 3479 3492 3505 3516 3520 3525 3535 3538 3540 3541 3549 3560 3576 3582 3583 3587 3594 3605 3614 3619 3627 3631 3632 3634 3636 3641 3643 3646 3650 3653 3659 3664 3669 3673 3676 3678 3680 3683 3690 3699 3709 3715 3720 3725 3730 3735 3741 3746 3746 3748 3749 3751 3756 3761 3764 3767 3771 3773 3773 3774 3775 3775 3775 3771 3757 3731 3698 3606 3300 2686 0 0 0 0 0 2336 2366 2369 2369 2369 2349 2334 2334 2334 2348 2348 2348 2342 2342 2333 2333 2333 2297 2265 2242 2232 2232 2230 2219 2209 2209 2208 2195 2188 2175 2164 2144 2130 2129 2127 2117 2116 2089 2065 2044 2044 2043 2043 2046 2046 2050 2050 2050 2025 2005 1981 1957 1957 1957 1971 2013 2013 2013 1983 1956 1934 1919 1919 1919 1929 1937 1950 1950 1951 1951 1950 1950 1946 1946 1946 1946 1929 1926 1926 1926 1955 1955 1955 1929 1910 1892 1882 1882 1882 1886 1909 1909 1909 1904 1904 1904 1904 1905 1907 1911 0 0 0 2634 3086 3363 3485 3544 3544 3544 3515 3492 3491 3491 3491 3494 3494 3494 3493 3478 3472 3470 3465 3448 3444 3442 3440 3425 3392 3330 3330 3328 3317 3317 3287 3267 3247 3221 3196 3181 3181 3181 3181 3181 3166 3147 3147 3147 3155 3156 3156 3156 3151 3131 3106 3096 3091 3089 3085 3085 3085 3109 3125 3131 3132 3146 3236 3310 3310 3310 3166 3057 2996 2969 2954 2954 2954 2976 3051 3051 3051 3019 2765 2547 0 2425 2407 2392 2379 2367 2351 2345 2330 2312 2302 2288 2278 2270 2260 2250 2243 2238 2234 2230 2222 2217 2212 2207 2202 2196 2186 2178 2175 2173 2170 2169 2164 2160 2154 2151 2150 2149 2149 2148 2145 2142 2138 2134 2129 2129 2129 2128 2128 2122 2116 2112 2110 2106 2105 2104 2103 2100 2097 2094 2090 2086 2084 2080 2076 2074 2073 2072 2072 2071 2069 2065 2064 2064 2064 2060 2056 2055 2054 2052 2049 2044 2040 2040 2040 2039 2039 2036 2031 2027 2026 2022 2017 2014 2014 2013 2012 2011 2008 2008 2008 2008 2009 2009 2009 2009 2008 2006 2004 2003 2002 2002 2001 2001 2000 1999 1999 1997 1997 1996 1996 1996 1996 1995 1995 1995 1995 1995 1995 1995 1995 1995 1995 1995 1995 1995 1995 1995 1994 1994 1994 1994 1994 1994 1993 1993 1993 1993 1993 1992 1992 1992 1992 1992 1993 1993 1993 1993 1994 1994 1994 1994 1994 1994 1994 1994 1995 1995 1995 1995 1995 1995 1995 1995 1995 1995 1995 1995 1995 1995 1995 1995 1995 1995 1995 1995 1996 1997 1997 1997 1998 1998 1999 2000 2001 2001 2001 2001 2001 2001 2002 2002 2003 2003 2004 2005 2005 2007 2008 2009 2011 2011 2012 2013 2015 2016 2016 2017 2019 2020 2021 2022 2023 2024 2025 2026 2027 2030 2031 2033 2035 2036 2037 2038 2040 2043 2045 2045 2047 2049 2050 2057 2057 2057 0 0 0 0 0 0 0 0 0 0 0 0 0 0 0 0 0 0 0 0 0 0 0 0 0 0 0 0 0 0 0 0 0 0 0 0 0 0 0 0 0 0 0 0 0 0 0 0 0 0 0 0 0 0 0 0 0 0 0 0 0 0 0 0 0 0 0 0 0 0 0 0 0 0 0 0 0 0 0 0 0 0 0 0 0 0 0 0 0 0
3154 3154 3167 3186 3191 3195 3214 3234 3254 3262 3267 3275 3281 3284 3284 3284 3286 3286 3294 3296 3302 3311 3328 3342 3354 3356 3356 3357 3363 3368 3371 3378 3385 3396 3409 3420 3431 3440 3448 3454 3455 3457 3458 3459 3461 3465 3473 3479 3492 3505 3513 3517 3524 3533 3538 3538 3540 3549 3558 3568 3576 3581 3587 3593 3600 3609 3615 3622 3624 3627 3633 3636 3641 3644 3647 3650 3653 3659 3664 3669 3673 3676 3678 3680 3683 3689 3698 3709 3715 3720 3725 3730 3735 3741 3747 3749 3749 3750 3751 3756 3759 3764 3767 3770 3773 3773 3774 3775 3775 3775 3772 3764 3748 3732 3626 3446 2865 0 0 0 0 0 2324 2369 2369 2369 2348 2347 2333 2333 2333 2349 2349 2349 2328 2316 2305 2302 2302 2276 2261 2242 2232 2232 2227 2215 2215 2215 2214 2214 2188 2175 2164 2148 2148 2148 2148 2148 2130 2093 2067 2049 2046 2044 2046 2046 2046 2065 2065 2065 2036 1990 1971 1954 1954 1954 2023 2059 2059 2059 2017 1970 1938 1926 1926 1926 1934 1942 1946 1958 1951 1946 1946 1951 1951 1948 1948 1948 0 1929 1929 1935 1955 1955 1955 1929 1910 1905 1886 1868 1868 1868 1892 1892 1898 1898 1902 1921 1921 1921 1921 1921 1966 0 0 2514 3052 3311 3456 3545 3545 3545 3542 3527 3507 3506 3506 3506 3506 3506 3496 3488 3487 3484 3483 3479 3469 3468 3465 3452 3414 3404 3398 3393 3388 3349 3307 3279 3264 3251 3241 3239 3234 3233 3222 3222 3172 3160 3160 3160 3165 3178 3179 3179 3179 3159 3139 3129 3124 3123 3111 3111 3111 3113 3142 3152 3164 3181 3247 3311 3311 3311 3202 3122 3066 3031 2994 2994 2994 3051 3104 3104 3104 3038 2780 2555 0 2425 2407 2392 2380 2372 2362 2348 2330 2311 2300 2288 2279 2271 2261 2250 2243 2241 2238 2232 2224 2217 2212 2207 2202 2196 2186 2178 2177 2174 2172 2169 2164 2159 2154 2151 2150 2149 2149 2148 2145 2142 2138 2134 2131 2131 2130 2129 2129 2122 2118 2114 2112 2109 2107 2107 2106 2103 2100 2096 2093 2092 2089 2085 2080 2078 2076 2075 2074 2074 2074 2074 2071 2067 2064 2061 2058 2056 2055 2053 2053 2049 2044 2044 2043 2043 2043 2040 2036 2034 2031 2028 2025 2020 2019 2018 2017 2016 2012 2011 2011 2010 2010 2010 2010 2009 2008 2006 2004 2004 2003 2002 2002 2001 2000 1999 1998 1997 1996 1996 1996 1996 1996 1995 1995 1994 1994 1994 1994 1994 1994 1994 1994 1994 1994 1994 1994 1994 1994 1994 1994 1994 1994 1994 1993 1993 1993 1993 1993 1992 1992 1992 1992 1992 1992 1993 1993 1993 1993 1993 1993 1994 1994 1994 1994 1994 1995 1995 1995 1995 1995 1995 1995 1995 1995 1994 1994 1994 1994 1994 1994 1994 1994 1994 1994 1995 1995 1996 1997 1997 1997 1997 1998 1999 2000 2001 2001 2001 2001 2001 2002 2002 2003 2003 2004 2004 2005 2007 2008 2009 2010 2011 2012 2013 2014 2015 2016 2017 2019 2020 2021 2022 2023 2023 2024 2025 2027 2028 2031 2032 2034 2035 2037 2038 2040 2044 2046 2047 2049 2054 2054 2057 2057 2057 0 0 0 0 0 0 0 0 0 0 0 0 0 0 0 0 0 0 0 0 0 0 0 0 0 0 0 0 0 0 0 0 0 0 0 0 0 0 0 0 0 0 0 0 0 0 0 0 0 0 0 0 0 0 0 0 0 0 0 0 0 0 0 0 0 0 0 0 0 0 0 0 0 0 0 0 0 0 0 0 0 0 0 0 0 0 0 0 0 0
3176 3176 3192 3192 3195 3198 3214 3234 3254 3262 3264 3273 3281 3284 3284 3286 3287 3287 3293 3296 3302 3311 3328 3342 3352 3354 3356 3356 3359 3365 3371 3378 3385 3396 3408 3417 3425 3436 3448 3454 3454 3455 3456 3459 3465 3469 3477 3483 3492 3504 3512 3515 3524 3529 3535 3536 3540 3549 3554 3558 3567 3576 3582 3590 3598 3607 3613 3619 3622 3623 3628 3636 3641 3645 3647 3650 3653 3659 3664 3669 3673 3676 3678 3680 3683 3689 3698 3707 3713 3720 3724 3729 3735 3741 3747 3750 3750 3750 3752 3756 3759 3763 3767 3769 3769 3770 3771 3771 3772 3772 3772 3771 3762 3737 3669 3579 2999 0 0 0 0 0 0 2364 2364 2364 2348 2346 0 2322 2322 2328 2328 2328 2322 2297 2273 0 0 0 0 0 0 2227 2218 2216 2216 2214 2214 2214 2188 2173 2157 2151 2151 2151 2151 2151 2141 2094 2068 2052 2049 2032 2032 2032 2058 2065 2065 2065 0 0 0 0 0 0 0 2064 2064 2064 2036 1979 1942 1926 1926 1926 1950 1950 1950 1942 1937 1933 1933 1933 1937 1959 1959 1959 1945 1939 1939 1939 1935 1935 1934 1925 1910 1905 1886 1868 1868 1868 1874 1883 1889 1892 1910 1921 1921 1921 1921 1921 1959 0 0 0 2916 3282 3452 3542 3571 3571 3571 3549 3521 3521 3521 3523 3523 3523 3523 3513 3513 3511 3507 3507 3493 3492 3488 3469 3427 3418 3413 3410 3410 3377 3332 3310 3307 3292 3299 3299 3292 3286 3269 3237 3206 3190 3190 3190 3191 3202 3202 3202 3199 3173 3166 3161 3153 3142 3132 3132 3132 3136 3164 3185 3203 3213 3274 3330 3330 3330 3204 3123 3069 3034 3019 3019 3019 3095 3165 3165 3165 3063 2792 2558 0 2425 2406 2392 2380 2374 2364 2349 2328 2311 2298 2286 2282 2271 2261 2250 2245 2243 2238 2232 2224 2217 2212 2207 2201 2195 2188 2185 2182 2179 2175 2171 2164 2159 2154 2151 2150 2149 2148 2148 2145 2142 2138 2134 2131 2131 2130 2130 2129 2123 2118 2115 2112 2112 2112 2111 2109 2105 2100 2096 2094 2093 2089 2086 2083 2081 2078 2076 2076 2076 2075 2075 2071 2068 2064 2061 2058 2057 2055 2055 2054 2052 2047 2044 2044 2043 2043 2041 2039 2036 2033 2030 2027 2023 2021 2021 2019 2018 2015 2012 2011 2011 2010 2010 2010 2009 2008 2006 2004 2004 2003 2002 2002 2001 2000 1999 1997 1997 1996 1996 1996 1996 1995 1994 1994 1994 1994 1994 1994 1994 1994 1994 1994 1993 1994 1993 1994 1993 1994 1994 1994 1993 1993 1993 1993 1993 1993 1993 1993 1992 1992 1992 1992 1992 1992 1992 1992 1992 1992 1993 1993 1994 1994 1994 1994 1994 1995 1995 1995 1995 1995 1995 1995 1995 1994 1994 1994 1994 1994 1993 1994 1994 1994 1994 1994 1994 1995 1995 1995 1996 1996 1996 1997 1999 1999 2000 2000 2001 2001 2001 2002 2002 2003 2003 2004 2004 2005 2006 2007 2007 2009 2010 2011 2012 2014 2015 2016 2017 2019 2020 2021 2022 2023 2023 2024 2025 2027 2028 2029 2032 2032 2035 2037 2038 2040 2044 2046 2047 2049 2054 2064 2065 2065 2065 2056 0 0 0 0 0 0 0 0 0 0 0 0 0 0 0 0 0 0 0 0 0 0 0 0 0 0 0 0 0 0 0 0 0 0 0 0 0 0 0 0 0 0 0 0 0 0 0 0 0 0 0 0 0 0 0 0 0 0 0 0 0 0 0 0 0 0 0 0 0 0 0 0 0 0 0 0 0 0 0 0 0 0 0 0 0 0 0 0 0
3176 3176 3193 3195 3198 3199 3214 3246 3263 3265 3265 3265 3277 3283 3285 3288 3288 3289 3290 3295 3302 3312 3328 3342 3349 3349 3354 3354 3354 3365 3371 3378 3385 3396 3408 3417 3424 3436 3448 3454 3454 3455 3456 3460 3469 3475 3484 3489 3496 3504 3512 3515 3518 3525 3532 3535 3540 3546 3553 3558 3563 3570 3577 3587 3596 3606 3611 3616 3618 3619 3624 3634 3641 3645 3647 3652 3655 3660 3664 3669 3673 3676 3678 3679 3680 3684 3688 3695 3704 3713 3720 3726 3732 3740 3747 3750 3750 3752 3752 3756 3759 3763 3767 3769 3769 3770 3771 3771 3772 3773 3773 3773 3765 3741 3671 3618 3173 2537 0 0 0 0 0 0 2358 2358 2343 2341 0 2301 2301 2323 2323 2323 2320 2285 2259 0 0 0 0 0 0 0 2210 2210 2210 2212 2212 2212 2188 2173 2157 2155 2155 2155 2169 2169 2169 2143 2105 2079 2049 2032 2032 2032 2046 0 0 0 0 0 0 0 0 0 0 0 2064 2064 2036 1979 1938 1926 1926 1926 1960 1960 1960 1924 1898 1898 1898 1910 1930 1959 1959 1959 1946 1939 1938 1935 1928 1923 1899 1899 0 0 0 0 0 0 0 0 1874 1889 1922 1922 1922 1921 1921 1921 1955 0 0 0 2839 3244 3447 3537 3580 3580 3580 3573 3538 3538 3538 3541 3553 3567 3567 3567 3548 3544 3536 3525 3516 3511 3506 3486 3450 3426 3423 3413 3411 3400 3373 3360 3360 3360 3360 3360 3360 3347 3316 3284 3257 3249 3241 3241 3241 3241 3241 3234 3199 3173 3166 3162 3161 3155 3147 3147 3147 3150 3182 3217 3230 3244 3307 3370 3370 3370 3210 3125 3076 3044 3044 3044 3050 3098 3165 3165 3165 3069 2792 2558 0 2423 2406 2390 2380 2374 2364 2349 2328 2310 2296 2286 2282 2271 2259 2250 2245 2243 2238 2232 2224 2217 2212 2207 2200 2195 2191 2188 2185 2181 2176 2172 2165 2160 2155 2152 2150 2149 2147 2145 2144 2140 2137 2133 2131 2131 2130 2130 2128 2123 2118 2116 2113 2113 2113 2111 2109 2105 2100 2096 2094 2093 2089 2086 2083 2081 2079 2076 2076 2076 2075 2075 2072 2068 2065 2062 2060 2060 2060 2059 2056 2052 2048 2046 2044 2044 2043 2041 2039 2036 2033 2030 2027 2025 2024 2023 2021 2018 2016 2014 2012 2011 2011 2011 2010 2009 2008 2006 2004 2004 2003 2002 2001 2000 2000 1998 1997 1997 1996 1996 1996 1995 1995 1994 1993 1993 1993 1993 1993 1993 1993 1993 1993 1993 1993 1993 1993 1993 1993 1993 1993 1993 1993 1993 1993 1993 1992 1992 1992 1992 1991 1991 1991 1991 1991 1991 1992 1992 1992 1992 1993 1993 1994 1994 1994 1994 1994 1994 1994 1994 1994 1994 1994 1994 1994 1994 1994 1994 1993 1993 1993 1993 1993 1993 1993 1994 1994 1994 1995 1995 1995 1996 1997 1998 1999 1999 2000 2001 2001 2001 2002 2002 2002 2003 2003 2004 2005 2006 2007 2007 2008 2010 2010 2011 2013 2015 2016 2017 2018 2020 2021 2022 2022 2023 2024 2025 2027 2028 2029 2031 2032 2035 2037 2039 2041 2044 2045 2047 2048 2055 2064 2066 2066 2066 2057 0 0 0 0 0 0 0 0 0 0 0 0 0 0 0 0 0 0 0 0 0 0 0 0 0 0 0 0 0 0 0 0 0 0 0 0 0 0 0 0 0 0 0 0 0 0 0 0 0 0 0 0 0 0 0 0 0 0 0 0 0 0 0 0 0 0 0 0 0 0 0 0 0 0 0 0 0 0 0 0 0 0 0 0 0 0 0 0 0
3203 3203 3202 3202 3202 3202 3218 3258 3265 3265 3270 3270 3270 3279 3285 3288 3288 3289 3290 3295 3302 3312 3330 3338 3344 3348 3349 3351 3354 3365 3376 3382 3391 3399 3408 3417 3424 3436 3446 3450 3451 3452 3455 3460 3469 3475 3484 3489 3496 3504 3508 3512 3518 3525 3531 3532 3537 3544 3552 3556 3562 3567 3574 3584 3595 3602 3608 3611 3614 3614 3620 3631 3641 3645 3647 3652 3655 3660 3664 3669 3672 3675 3677 3677 3679 3679 3683 3689 3697 3707 3714 3720 3727 3736 3744 3747 3750 3752 3754 3758 3760 3763 3767 3769 3769 3770 3771 3771 3772 3773 3773 3773 3771 3744 3673 3618 3245 2654 0 0 0 0 0 0 2350 2350 2334 2334 2301 2301 2301 2312 2319 2319 2319 2273 2259 0 0 0 0 0 0 0 0 2198 2198 2195 2195 2189 2188 2173 2157 2157 2157 2165 2184 2184 2184 2183 2105 2104 2056 2032 0 0 0 0 0 0 0 0 0 0 0 0 0 0 0 0 0 0 0 0 1934 1960 1960 1960 1941 1890 1890 1890 1896 1910 1930 1957 1958 1958 1958 1939 0 0 0 0 0 0 0 0 0 0 0 0 0 0 1868 1895 1903 1903 1906 1906 1906 1916 1932 0 0 0 2766 3186 3426 3537 3580 3585 3585 3585 3561 3561 3561 3572 3578 3578 3578 3567 3556 3553 3540 3534 3528 3523 3520 3510 3490 3454 3454 3454 3449 3449 3449 3411 3395 3395 3394 3380 3375 3361 3359 3352 3350 3336 3314 3309 3292 3276 3246 3234 3199 3173 3166 3164 3164 3163 3163 3164 3164 3168 3192 3218 3233 3244 3331 3381 3381 3381 3227 3139 3077 3052 3052 3052 3080 3112 3167 3167 3167 3078 2793 2558 0 2418 2406 2393 2382 2376 2364 2348 2326 2309 2295 2286 2282 2271 2259 2250 2246 2243 2238 2230 2224 2217 2212 2207 2200 2195 2191 2188 2185 2181 2176 2172 2166 2161 2156 2155 2152 2149 2147 2145 2142 2140 2136 2133 2131 2131 2129 2128 2125 2123 2119 2116 2115 2114 2113 2111 2109 2105 2100 2096 2095 2093 2090 2086 2083 2081 2079 2077 2077 2076 2076 2075 2073 2068 2065 2064 2063 2062 2061 2059 2056 2053 2049 2047 2047 2045 2044 2041 2039 2036 2033 2030 2027 2025 2024 2023 2021 2019 2017 2016 2014 2013 2011 2011 2010 2009 2008 2006 2004 2003 2002 2002 2001 2000 2000 1998 1997 1996 1995 1995 1995 1995 1994 1993 1993 1993 1993 1993 1992 1992 1993 1993 1993 1993 1992 1992 1992 1992 1992 1992 1992 1992 1992 1992 1992 1992 1992 1992 1992 1991 1991 1990 1990 1990 1990 1991 1991 1991 1992 1992 1992 1993 1993 1994 1994 1994 1994 1994 1994 1994 1994 1994 1994 1994 1994 1994 1994 1993 1993 1993 1993 1993 1993 1993 1993 1993 1993 1993 1994 1995 1995 1996 1997 1998 1998 1999 2000 2000 2001 2001 2001 2002 2002 2003 2003 2004 2004 2005 2006 2006 2008 2008 2010 2011 2013 2014 2016 2016 2018 2019 2020 2021 2022 2023 2024 2025 2027 2028 2029 2031 2032 2035 2038 2040 2041 2044 2045 2046 2046 2055 2064 2066 2066 2066 2066 0 0 0 0 0 0 0 0 0 0 0 0 0 0 0 0 0 0 0 0 0 0 0 0 0 0 0 0 0 0 0 0 0 0 0 0 0 0 0 0 0 0 0 0 0 0 0 0 0 0 0 0 0 0 0 0 0 0 0 0 0 0 0 0 0 0 0 0 0 0 0 0 0 0 0 0 0 0 0 0 0 0 0 0 0 0 0 0 0
3204 3204 3207 3210 3215 3215 3223 3259 3265 3265 3265 3265 3265 3270 3284 3285 3287 3288 3289 3294 3310 3321 3328 3335 3342 3344 3346 3348 3354 3365 3376 3387 3393 3401 3410 3420 3424 3436 3441 3444 3444 3446 3454 3460 3469 3475 3484 3489 3496 3504 3506 3512 3517 3525 3530 3532 3537 3544 3551 3556 3561 3566 3573 3582 3592 3600 3604 3607 3608 3612 3618 3627 3636 3641 3647 3652 3655 3660 3664 3668 3672 3675 3677 3677 3679 3679 3683 3689 3697 3707 3714 3720 3727 3734 3741 3744 3749 3752 3757 3760 3763 3764 3767 3771 3773 3773 3774 3776 3777 3780 3782 3782 3782 3764 3704 3628 3309 2749 0 0 0 0 0 0 2334 2334 2334 2333 2322 2302 2302 2302 2317 2317 2317 2273 2259 0 0 0 0 0 0 0 0 0 2188 2183 2188 2191 2180 2180 2178 2173 2173 2173 2184 2184 2184 2183 2105 2104 2076 0 0 0 0 0 0 0 0 0 0 0 0 0 0 0 0 0 0 0 0 0 0 1963 1963 1963 1924 1890 1890 1890 1896 1901 1928 1948 1958 1958 0 0 0 0 0 0 0 0 0 0 0 0 0 0 0 0 0 1916 1916 1916 1904 1904 1904 1916 1929 0 0 0 2606 3060 3380 3520 3580 3601 3601 3601 3596 3596 3596 3607 3607 3607 3591 3572 3565 3555 3545 3543 3543 3540 3537 3533 3497 3497 3497 3499 3499 3499 3462 3437 3421 3413 3402 3382 3382 3382 3381 3381 3355 3336 3314 3309 3304 3276 3247 3234 3199 3173 3168 3168 3168 3172 3172 3180 3180 3184 3198 3219 3235 3244 3338 3396 3396 3396 3229 3153 3100 3070 3070 3070 3084 3115 3167 3167 3167 3107 2796 2558 0 2418 2406 2393 2384 2376 2363 2343 2322 2305 2294 2288 2281 2266 2258 2250 2246 2243 2236 2228 2221 2217 2212 2207 2200 2195 2191 2188 2185 2181 2176 2172 2166 2162 2158 2156 2154 2150 2147 2145 2142 2139 2136 2133 2131 2131 2129 2127 2125 2123 2119 2117 2115 2114 2113 2111 2108 2105 2100 2096 2095 2093 2090 2086 2084 2081 2079 2077 2077 2077 2076 2076 2073 2069 2067 2065 2064 2062 2061 2059 2056 2053 2050 2048 2048 2045 2044 2041 2038 2036 2032 2030 2027 2025 2025 2023 2022 2020 2019 2018 2015 2013 2011 2011 2010 2008 2007 2005 2004 2003 2002 2001 2001 2000 1999 1997 1996 1995 1995 1995 1994 1994 1993 1992 1992 1992 1992 1992 1992 1992 1992 1992 1992 1991 1991 1991 1991 1992 1992 1992 1992 1992 1992 1992 1992 1992 1991 1991 1991 1991 1990 1990 1990 1990 1990 1990 1990 1991 1991 1991 1992 1992 1992 1993 1993 1993 1993 1993 1993 1994 1994 1994 1994 1994 1994 1993 1993 1993 1993 1992 1992 1992 1992 1992 1992 1993 1993 1993 1994 1994 1995 1995 1996 1997 1998 1998 1999 2000 2001 2001 2001 2002 2002 2002 2003 2004 2004 2004 2005 2006 2007 2008 2009 2010 2012 2013 2015 2016 2017 2018 2019 2020 2022 2023 2024 2025 2027 2028 2029 2031 2032 2035 2038 2040 2041 2044 2045 2046 2046 2054 2062 2068 2073 2073 2073 0 0 0 0 0 0 0 0 0 0 0 0 0 0 0 0 0 0 0 0 0 0 0 0 0 0 0 0 0 0 0 0 0 0 0 0 0 0 0 0 0 0 0 0 0 0 0 0 0 0 0 0 0 0 0 0 0 0 0 0 0 0 0 0 0 0 0 0 0 0 0 0 0 0 0 0 0 0 0 0 0 0 0 0 0 0 0 0 0
3204 3204 3224 3230 3230 3235 3238 3259 3264 3264 3264 3264 3264 3267 3281 3284 3284 3286 3288 3294 3310 3321 3327 3332 3339 3343 3344 3348 3358 3370 3380 3388 3394 3405 3417 3430 3436 3438 3439 3439 3439 3443 3447 3453 3463 3472 3479 3483 3489 3496 3505 3512 3517 3524 3530 3532 3537 3544 3552 3556 3560 3566 3573 3582 3586 3591 3598 3603 3604 3609 3613 3621 3627 3635 3643 3650 3654 3658 3662 3666 3672 3675 3677 3677 3679 3679 3683 3689 3697 3707 3714 3720 3727 3734 3740 3744 3749 3751 3757 3763 3765 3767 3768 3771 3775 3777 3779 3786 3786 3790 3790 3790 3790 3786 3740 3629 3558 3053 0 0 0 0 0 0 2334 2334 2334 2333 2323 2302 2302 2302 2312 2312 2312 2273 2266 0 0 0 0 0 0 0 0 0 2160 2180 2180 2180 2180 2180 2178 2178 2178 2182 2184 2184 0 0 0 0 0 0 0 0 0 0 0 0 0 0 0 0 0 0 0 0 0 0 0 0 0 0 0 0 1994 1994 1920 1893 1892 1891 0 0 0 0 0 0 0 0 0 0 0 0 0 0 0 0 0 0 0 0 0 0 0 1917 1917 1917 1904 1897 1897 1904 0 0 0 0 0 2854 3287 3501 3569 3597 3612 3620 3622 3631 3631 3631 3630 3608 3597 3581 3565 3557 3557 3557 3559 3560 3560 3559 3547 3537 3530 3523 3523 3499 3468 3451 3442 3428 3413 3413 3410 3409 3409 3409 3355 3336 3317 3314 3306 3278 3262 3232 3199 3173 3169 3169 3169 3175 3176 3183 3183 3184 3202 3221 3235 3250 3338 3398 3398 3398 3272 3191 3134 3110 3100 3100 3100 3119 3172 3172 3172 3122 2796 2558 0 2418 2407 2393 2384 2376 2357 2330 2309 2299 2293 2288 2278 2266 2258 2250 2246 2242 2234 2227 2221 2216 2211 2207 2199 2195 2191 2188 2184 2180 2176 2171 2167 2164 2160 2157 2154 2150 2147 2144 2142 2139 2136 2133 2132 2131 2129 2127 2125 2123 2120 2117 2115 2114 2111 2110 2108 2105 2100 2098 2095 2093 2090 2086 2084 2081 2079 2078 2077 2077 2077 2076 2073 2069 2068 2066 2064 2063 2061 2059 2056 2054 2051 2049 2048 2045 2044 2041 2038 2036 2032 2030 2028 2026 2025 2023 2022 2021 2019 2018 2015 2013 2012 2011 2010 2008 2007 2005 2004 2003 2002 2001 2001 2000 1999 1997 1996 1995 1995 1994 1994 1992 1992 1992 1991 1991 1991 1991 1991 1991 1991 1991 1991 1991 1991 1991 1991 1991 1991 1991 1991 1991 1991 1991 1991 1991 1991 1991 1990 1990 1990 1989 1989 1989 1990 1990 1990 1990 1990 1991 1991 1992 1992 1992 1992 1992 1992 1992 1992 1992 1992 1992 1992 1993 1993 1993 1992 1992 1992 1992 1992 1992 1992 1992 1992 1992 1992 1993 1993 1994 1994 1995 1996 1997 1997 1998 1999 2000 2001 2001 2001 2001 2002 2002 2003 2004 2004 2004 2005 2006 2007 2008 2009 2010 2011 2013 2014 2015 2016 2017 2018 2019 2022 2022 2024 2025 2026 2028 2028 2031 2032 2035 2038 2040 2041 2043 2045 2046 2046 2050 2061 2066 2076 2076 2076 2042 0 0 0 0 0 0 0 0 0 0 0 0 0 0 0 0 0 0 0 0 0 0 0 0 0 0 0 0 0 0 0 0 0 0 0 0 0 0 0 0 0 0 0 0 0 0 0 0 0 0 0 0 0 0 0 0 0 0 0 0 0 0 0 0 0 0 0 0 0 0 0 0 0 0 0 0 0 0 0 0 0 0 0 0 0 0 0 0
3203 3203 3224 3230 3230 3235 3238 3259 3263 3263 3263 3263 3263 3267 3270 3276 3280 3283 3287 3297 3310 3321 3323 3324 3330 3339 3348 3355 3363 3371 3381 3388 3394 3407 3425 3439 3439 3439 3439 3439 3439 3440 3441 3449 3461 3472 3478 3483 3489 3496 3505 3511 3517 3524 3530 3533 3541 3546 3552 3556 3560 3566 3573 3582 3585 3585 3591 3596 3600 3605 3609 3614 3620 3629 3639 3648 3653 3658 3662 3666 3671 3676 3679 3681 3686 3688 3690 3694 3702 3713 3722 3727 3730 3734 3740 3744 3749 3751 3758 3763 3767 3769 3770 3772 3775 3778 3781 3786 3792 3794 3796 3797 3797 3797 3773 3669 3603 3197 2602 0 0 0 0 0 2321 2334 2334 2334 2324 2315 2315 2315 2310 2310 2310 2273 2266 0 0 0 0 0 0 0 0 0 2160 2180 2180 2180 2180 2180 2178 2178 2178 2188 2195 0 0 0 0 0 0 0 0 0 0 0 0 0 0 0 0 0 0 0 0 0 0 0 0 0 0 0 0 0 0 0 1920 0 1893 1892 0 0 0 0 0 0 0 0 0 0 0 0 0 0 0 0 0 0 0 0 0 0 0 0 0 0 0 0 0 0 0 0 0 0 0 2778 3256 3468 3551 3596 3623 3645 3656 3656 3656 3646 3645 3621 3597 3581 3581 3581 3582 3584 3584 3591 3584 3583 3581 3563 3552 3536 3525 3499 3472 3456 3455 3430 3428 3423 3418 3415 3410 3409 3355 3337 3326 3321 3310 3278 3262 3232 3201 3183 3183 3183 3183 3183 3183 3183 3183 3184 3202 3221 3240 3251 3338 3408 3408 3408 3297 3225 3170 3138 3124 3124 3124 3139 3184 3184 3184 3128 2796 2559 0 2418 2407 2393 2384 2373 2349 2320 2303 2293 2293 2288 2278 2266 2258 2255 2248 2241 2233 2226 2220 2216 2211 2206 2199 2195 2190 2186 2182 2178 2174 2171 2167 2164 2161 2157 2154 2150 2147 2145 2142 2139 2136 2134 2132 2131 2129 2127 2125 2123 2120 2118 2115 2114 2111 2110 2107 2105 2102 2099 2097 2094 2091 2088 2085 2083 2081 2079 2079 2078 2077 2075 2073 2070 2068 2066 2064 2062 2061 2058 2056 2054 2051 2049 2048 2046 2044 2041 2038 2036 2032 2030 2028 2026 2025 2023 2022 2021 2019 2018 2015 2013 2012 2011 2010 2008 2007 2005 2005 2003 2002 2001 2000 1999 1998 1997 1996 1995 1994 1994 1992 1992 1991 1991 1991 1991 1991 1991 1991 1990 1990 1990 1990 1990 1990 1990 1990 1989 1989 1989 1989 1989 1990 1990 1990 1990 1990 1990 1990 1990 1989 1989 1989 1989 1989 1989 1989 1989 1990 1990 1990 1991 1991 1991 1991 1992 1992 1992 1992 1992 1991 1991 1991 1991 1991 1992 1992 1992 1992 1992 1992 1992 1992 1992 1992 1992 1992 1992 1993 1993 1994 1995 1995 1996 1997 1997 1999 2000 2001 2001 2001 2001 2002 2002 2003 2004 2004 2004 2005 2006 2007 2008 2009 2009 2010 2012 2014 2015 2016 2017 2017 2019 2021 2022 2022 2024 2026 2028 2028 2030 2032 2035 2038 2040 2041 2043 2046 2046 2047 2050 2059 2066 2077 2077 2077 2067 0 0 0 0 0 0 0 0 0 0 0 0 0 0 0 0 0 0 0 0 0 0 0 0 0 0 0 0 0 0 0 0 0 0 0 0 0 0 0 0 0 0 0 0 0 0 0 0 0 0 0 0 0 0 0 0 0 0 0 0 0 0 0 0 0 0 0 0 0 0 0 0 0 0 0 0 0 0 0 0 0 0 0 0 0 0 0 0
3181 3181 3209 3230 3230 3235 3238 3260 3260 3260 3260 3260 3260 3263 3270 3276 3280 3283 3287 3302 3308 3310 3311 3313 3322 3338 3348 3358 3367 3374 3381 3388 3394 3407 3425 3439 3439 3439 3439 3439 3439 3440 3441 3448 3461 3470 3476 3482 3488 3496 3505 3511 3517 3525 3530 3535 3542 3549 3553 3556 3560 3567 3573 3579 3580 3582 3584 3590 3596 3600 3609 3614 3619 3629 3639 3647 3653 3658 3662 3666 3671 3676 3681 3683 3686 3689 3694 3699 3707 3716 3723 3729 3734 3737 3740 3745 3749 3751 3758 3763 3767 3769 3771 3774 3775 3778 3782 3787 3792 3798 3803 3804 3804 3804 3803 3737 3624 3288 2661 0 0 0 0 0 0 2342 2347 2347 2347 2332 2324 2320 2319 2316 2305 2273 0 0 0 0 0 0 0 0 0 0 2160 2184 2184 2193 2193 2193 2173 2173 2173 2189 2189 0 0 0 0 0 0 0 0 0 0 0 0 0 0 0 0 0 0 0 0 0 0 0 0 0 0 0 0 0 0 0 0 0 0 0 0 0 0 0 0 0 0 0 0 0 0 0 0 0 0 0 0 0 0 0 0 0 0 0 0 0 0 0 0 0 0 0 0 0 0 2569 3140 3399 3537 3595 3632 3646 3656 3656 3656 3646 3645 3642 3629 3606 3595 3591 3591 3591 3591 3591 3590 3585 3585 3574 3565 3546 3526 3499 3472 3458 3456 3449 3438 3434 3430 3428 3425 3409 3355 3337 3335 3327 3321 3296 3263 3232 3210 3199 3198 3197 3194 3194 3183 3181 3181 3181 3202 3221 3244 3253 3353 3409 3409 3409 3315 3237 3184 3154 3144 3144 3144 3157 3206 3206 3206 3128 2796 2559 0 2418 2407 2393 2382 2368 2337 2319 2303 2293 2292 2287 2278 2266 2258 2255 2248 2241 2231 2225 2220 2214 2208 2204 2199 2195 2190 2184 2181 2175 2172 2170 2167 2164 2161 2157 2153 2150 2147 2145 2142 2140 2136 2134 2133 2131 2129 2128 2125 2123 2120 2118 2116 2114 2111 2110 2107 2105 2103 2100 2097 2095 2092 2090 2087 2084 2082 2081 2079 2078 2077 2075 2073 2070 2068 2066 2064 2062 2060 2058 2056 2054 2051 2049 2048 2045 2043 2041 2038 2036 2033 2031 2029 2026 2025 2024 2022 2021 2019 2018 2016 2013 2012 2011 2010 2008 2007 2006 2005 2003 2002 2001 2000 1999 1997 1996 1996 1995 1994 1993 1992 1992 1991 1991 1991 1991 1990 1990 1990 1990 1990 1990 1989 1989 1989 1989 1989 1989 1989 1989 1989 1989 1989 1989 1989 1989 1990 1990 1990 1989 1989 1989 1989 1989 1989 1989 1989 1989 1989 1990 1990 1990 1991 1991 1991 1991 1991 1991 1991 1990 1990 1990 1990 1990 1991 1991 1991 1991 1991 1991 1991 1991 1991 1991 1991 1992 1992 1992 1993 1993 1994 1995 1995 1996 1997 1997 1998 2000 2000 2001 2001 2001 2002 2003 2004 2004 2004 2004 2005 2006 2007 2008 2009 2009 2010 2011 2012 2013 2015 2016 2017 2019 2020 2022 2022 2022 2025 2027 2028 2029 2031 2035 2038 2040 2041 2043 2046 2048 2048 2048 2054 2066 2079 2079 2079 2069 0 0 0 0 0 0 0 0 0 0 0 0 0 0 0 0 0 0 0 0 0 0 0 0 0 0 0 0 0 0 0 0 0 0 0 0 0 0 0 0 0 0 0 0 0 0 0 0 0 0 0 0 0 0 0 0 0 0 0 0 0 0 0 0 0 0 0 0 0 0 0 0 0 0 0 0 0 0 0 0 0 0 0 0 0 0 0 0
3168 3168 3185 3202 3216 3220 3237 3256 3260 3260 3260 3260 3260 3260 3270 3276 3280 3284 3288 3302 3303 3305 3305 3309 3318 3330 3348 3358 3371 3375 3381 3388 3393 3407 3425 3439 3441 3442 3442 3441 3441 3441 3441 3448 3460 3469 3475 3481 3487 3496 3505 3510 3515 3525 3532 3541 3552 3557 3561 3563 3566 3567 3573 3578 3578 3579 3583 3586 3593 3600 3608 3614 3619 3629 3638 3647 3653 3660 3664 3666 3669 3676 3681 3685 3686 3689 3695 3701 3708 3717 3724 3730 3734 3743 3748 3750 3752 3754 3759 3763 3767 3771 3772 3774 3778 3780 3782 3787 3792 3798 3803 3806 3807 3807 3807 3768 3627 3402 2723 0 0 0 0 0 0 0 2368 2378 2378 2378 2335 2321 2317 0 0 0 0 0 0 0 0 0 0 0 0 0 2227 2243 2239 2239 2225 2193 2173 2173 2173 2193 0 0 0 0 0 0 0 0 0 0 0 0 0 0 0 0 0 0 0 0 0 0 0 0 0 0 0 0 0 0 0 0 0 0 0 0 0 0 0 0 0 0 0 0 0 0 0 0 0 0 0 0 0 0 0 0 0 0 0 0 0 0 0 0 0 0 0 0 0 0 0 0 3061 3316 3526 3594 3634 3649 3656 3656 3656 3645 3645 3645 3645 3643 3613 3595 3594 3591 3591 3591 3590 3585 3585 3577 3565 3547 3526 3499 3481 3473 3467 3466 3462 3441 3439 3430 3430 3409 3355 3349 3340 3338 3338 3309 3281 3255 3234 3226 3209 3207 3197 3189 3169 3169 3169 3176 3198 3222 3245 3263 3358 3423 3423 3423 3318 3238 3186 3157 3148 3148 3148 3173 3217 3217 3217 3128 2792 2559 0 2418 2402 2387 2377 2355 2337 2317 2302 2293 2292 2287 2275 2266 2258 2255 2248 2238 2230 2223 2217 2210 2205 2202 2197 2193 2189 2183 2178 2175 2172 2170 2167 2164 2161 2156 2152 2150 2147 2144 2142 2140 2137 2135 2133 2131 2130 2128 2125 2123 2120 2118 2115 2114 2112 2110 2108 2105 2103 2100 2097 2095 2092 2090 2088 2085 2083 2081 2079 2078 2077 2075 2073 2070 2068 2066 2064 2062 2060 2058 2056 2054 2051 2049 2047 2045 2043 2041 2039 2036 2033 2031 2029 2027 2025 2024 2022 2021 2019 2017 2015 2014 2012 2011 2010 2008 2007 2006 2005 2003 2002 2001 1999 1999 1997 1996 1995 1994 1993 1993 1992 1990 1990 1990 1990 1990 1990 1990 1989 1989 1989 1989 1989 1989 1988 1988 1988 1988 1988 1988 1988 1988 1989 1989 1989 1989 1989 1989 1989 1989 1989 1989 1988 1988 1988 1988 1989 1989 1989 1989 1989 1990 1990 1990 1990 1990 1990 1990 1990 1990 1990 1990 1990 1990 1990 1990 1990 1991 1991 1991 1991 1991 1991 1991 1991 1991 1992 1992 1993 1993 1994 1995 1995 1996 1997 1997 1998 1999 2000 2001 2001 2001 2002 2003 2004 2004 2004 2004 2006 2006 2007 2007 2008 2009 2010 2011 2012 2013 2015 2016 2016 2019 2020 2021 2022 2022 2024 2026 2028 2029 2031 2034 2037 2039 2041 2044 2046 2048 2048 2048 2051 2064 2078 2078 2078 2069 0 0 0 0 0 0 0 0 0 0 0 0 0 0 0 0 0 0 0 0 0 0 0 0 0 0 0 0 0 0 0 0 0 0 0 0 0 0 0 0 0 0 0 0 0 0 0 0 0 0 0 0 0 0 0 0 0 0 0 0 0 0 0 0 0 0 0 0 0 0 0 0 0 0 0 0 0 0 0 0 0 0 0 0 0 0 0 0
3167 3167 3168 3183 3199 3201 3234 3251 3257 3257 3257 3257 3260 3260 3270 3276 3280 3284 3288 3302 3302 3302 3303 3307 3314 3325 3343 3358 3371 3375 3375 3383 3388 3404 3421 3429 3439 3441 3441 3441 3441 3441 3441 3445 3451 3458 3467 3478 3483 3496 3505 3509 3515 3524 3532 3543 3559 3561 3561 3563 3566 3567 3573 3577 3578 3579 3583 3586 3593 3599 3608 3613 3619 3629 3638 3646 3653 3662 3665 3666 3669 3676 3682 3686 3687 3691 3697 3703 3710 3717 3724 3730 3735 3743 3748 3752 3754 3756 3759 3764 3769 3771 3772 3775 3778 3783 3784 3789 3795 3798 3803 3806 3807 3807 3807 3774 3627 3470 2906 0 0 0 0 0 0 0 0 2381 2381 2381 2339 0 0 0 0 0 0 0 0 0 0 0 0 0 0 0 2243 2243 2243 2243 2225 2199 2181 2181 2181 0 0 0 0 0 0 0 0 0 0 0 0 0 0 0 0 0 0 0 0 0 0 0 0 0 0 0 0 0 0 0 0 0 0 0 0 0 0 0 0 0 0 0 0 0 0 0 0 0 0 0 0 0 0 0 0 0 0 0 0 0 0 0 0 0 0 0 0 0 0 0 0 0 2970 3239 3481 3594 3635 3636 3636 3636 3633 3633 3633 3643 3643 3643 3618 3600 3591 3586 3586 3586 3589 3589 3589 3579 3574 3556 3536 3511 3496 3495 3492 3485 3485 3465 3451 3444 3438 3425 3410 3391 3382 3365 3346 3317 3297 3286 3266 3244 3223 3207 3201 3182 3167 3167 3167 3176 3198 3226 3247 3266 3363 3423 3423 3423 3318 3243 3188 3158 3148 3148 3148 3173 3217 3217 3217 3126 2792 2559 0 2415 2399 2382 2372 2355 2337 2317 2302 2292 2292 2286 2274 2264 2257 2250 2241 2235 2229 2222 2214 2209 2205 2201 2197 2193 2189 2183 2178 2174 2171 2168 2164 2163 2160 2156 2152 2149 2147 2144 2142 2140 2137 2135 2133 2131 2130 2128 2125 2123 2120 2117 2115 2114 2112 2110 2108 2105 2103 2100 2097 2095 2092 2090 2088 2085 2083 2081 2079 2078 2077 2075 2073 2070 2068 2066 2064 2062 2060 2058 2056 2054 2051 2049 2047 2045 2043 2041 2039 2036 2033 2031 2029 2028 2026 2024 2022 2021 2019 2017 2015 2014 2012 2011 2010 2008 2007 2006 2005 2003 2002 2001 1999 1998 1997 1996 1995 1994 1993 1992 1992 1990 1990 1990 1990 1990 1990 1989 1989 1989 1989 1989 1988 1988 1988 1987 1987 1987 1987 1987 1987 1987 1987 1988 1988 1988 1989 1989 1989 1989 1988 1988 1988 1988 1988 1988 1988 1988 1989 1989 1989 1989 1989 1989 1989 1989 1989 1989 1989 1989 1989 1989 1989 1990 1990 1990 1990 1990 1990 1991 1991 1991 1991 1991 1991 1991 1992 1992 1993 1993 1994 1995 1996 1997 1998 1998 1998 1999 2000 2001 2001 2002 2003 2003 2004 2004 2004 2005 2006 2006 2007 2007 2008 2009 2010 2011 2012 2013 2015 2016 2016 2017 2018 2021 2021 2022 2023 2026 2028 2029 2032 2034 2035 2039 2041 2044 2046 2048 2048 2048 2051 2063 2070 2070 2070 2067 2052 0 0 0 0 0 0 0 0 0 0 0 0 0 0 0 0 0 0 0 0 0 0 0 0 0 0 0 0 0 0 0 0 0 0 0 0 0 0 0 0 0 0 0 0 0 0 0 0 0 0 0 0 0 0 0 0 0 0 0 0 0 0 0 0 0 0 0 0 0 0 0 0 0 0 0 0 0 0 0 0 0 0 0 0 0 0 0
3144 3144 3154 3170 3186 3189 3222 3251 3251 3251 3256 3256 3256 3263 3275 3279 3297 3304 3304 3304 3303 3303 3303 3307 3314 3319 3342 3358 3370 3371 3374 3378 3382 3397 3411 3418 3426 3436 3441 3441 3441 3433 3433 3433 3433 3436 3450 3465 3470 3480 3489 3499 3512 3523 3532 3543 3559 3561 3561 3563 3566 3566 3570 3573 3576 3579 3583 3586 3592 3598 3604 3613 3619 3629 3638 3646 3653 3662 3667 3667 3669 3676 3682 3686 3687 3692 3701 3707 3712 3719 3724 3730 3736 3743 3748 3752 3755 3758 3761 3766 3769 3771 3772 3775 3779 3786 3794 3795 3795 3796 3799 3806 3810 3810 3810 3783 3651 3496 3022 0 0 0 0 0 0 0 0 0 2381 2381 0 0 0 0 0 0 0 0 0 0 0 0 0 0 0 0 0 2271 2271 2271 2255 2255 2223 2188 0 0 0 0 0 0 0 0 0 0 0 0 0 0 0 0 0 0 0 0 0 0 0 0 0 0 0 0 0 0 0 0 0 0 0 0 0 0 0 0 0 0 0 0 0 0 0 0 0 0 0 0 0 0 0 0 0 0 0 0 0 0 0 0 0 0 0 0 0 0 0 0 0 0 2860 3151 3430 3593 3637 3637 3637 3636 3629 3629 3629 3643 3643 3643 3618 3601 3591 3586 3586 3586 3589 3589 3589 3581 3579 3573 3550 3526 3516 3516 3516 3516 3516 3515 3496 3483 3481 3479 3457 3435 3395 3372 3349 3317 3297 3286 3266 3249 3230 3212 3203 3182 3167 3167 3167 3176 3198 3228 3262 3284 3373 3431 3431 3431 3320 3243 3201 3165 3148 3148 3148 3173 3222 3222 3222 3119 2792 2559 0 2415 2396 2382 2372 2355 2336 2318 2303 2292 2288 2283 2274 2263 2256 2248 2239 2234 2228 2220 2213 2208 2204 2200 2197 2193 2188 2183 2178 2174 2171 2168 2164 2163 2160 2156 2152 2149 2147 2145 2142 2140 2137 2135 2133 2131 2129 2127 2125 2122 2120 2116 2114 2112 2112 2110 2107 2105 2103 2099 2097 2095 2092 2090 2090 2086 2083 2082 2080 2078 2077 2075 2073 2070 2068 2066 2064 2062 2060 2058 2056 2054 2051 2049 2047 2045 2043 2041 2038 2036 2033 2031 2029 2028 2026 2024 2022 2021 2019 2017 2015 2014 2012 2011 2010 2008 2007 2006 2005 2003 2002 2001 1999 1998 1996 1995 1994 1993 1993 1992 1991 1990 1990 1990 1990 1989 1989 1989 1989 1989 1988 1988 1988 1988 1987 1987 1987 1987 1987 1987 1987 1987 1987 1987 1987 1988 1988 1988 1988 1988 1988 1988 1988 1988 1988 1988 1988 1988 1988 1988 1988 1988 1988 1989 1989 1989 1989 1989 1989 1989 1989 1989 1989 1989 1989 1990 1990 1990 1990 1990 1990 1991 1991 1991 1991 1991 1992 1992 1993 1993 1994 1995 1996 1997 1998 1998 1999 1999 2000 2001 2001 2003 2003 2003 2003 2004 2004 2005 2005 2006 2007 2007 2008 2009 2010 2011 2012 2013 2014 2015 2016 2017 2018 2019 2021 2022 2023 2025 2028 2029 2031 2034 2035 2038 2041 2044 2046 2048 2048 2049 2051 2057 2070 2070 2070 2067 2055 0 0 0 0 0 0 0 0 0 0 0 0 0 0 0 0 0 0 0 0 0 0 0 0 0 0 0 0 0 0 0 0 0 0 0 0 0 0 0 0 0 0 0 0 0 0 0 0 0 0 0 0 0 0 0 0 0 0 0 0 0 0 0 0 0 0 0 0 0 0 0 0 0 0 0 0 0 0 0 0 0 0 0 0 0 0 0
3113 3113 3129 3140 3161 3175 3185 3208 3227 3247 3249 3250 3256 3282 3287 3290 3297 3308 3308 3308 3303 3303 3303 3309 3314 3319 3337 3349 3357 3365 3366 3368 3370 3386 3400 3406 3413 3425 3425 3425 3423 3415 3414 3414 3414 3414 3435 3452 3464 3469 3475 3486 3502 3517 3532 3543 3559 3559 3560 3560 3560 3560 3566 3570 3575 3579 3583 3586 3592 3595 3601 3609 3621 3629 3635 3643 3653 3662 3667 3669 3672 3678 3684 3685 3685 3692 3701 3707 3715 3721 3724 3730 3736 3743 3748 3752 3756 3760 3762 3766 3769 3771 3772 3774 3780 3788 3794 3795 3798 3799 3799 3806 3810 3810 3810 3793 3690 3612 3184 2531 0 0 0 0 0 0 0 0 0 0 0 0 0 0 0 0 0 0 0 0 0 0 0 0 0 0 0 0 0 0 0 0 0 0 0 0 0 0 0 0 0 0 0 0 0 0 0 0 0 0 0 0 0 0 0 0 0 0 0 0 0 0 0 0 0 0 0 0 0 0 0 0 0 0 0 0 0 0 0 0 0 0 0 0 0 0 0 0 0 0 0 0 0 0 0 0 0 0 0 0 0 0 0 0 0 0 0 0 2634 3151 3415 3587 3635 3636 3636 3636 3629 3629 3629 3624 3624 3624 3618 3603 3591 3586 3586 3586 3597 3598 3598 3597 3591 3579 3563 3539 3539 3539 3540 3548 3548 3548 3539 3520 3519 3501 3457 3435 3395 3372 3349 3317 3297 3286 3266 3249 3230 3214 3203 3182 3168 3168 3168 3187 3218 3231 3262 3284 3378 3433 3433 3433 3322 3243 3209 3175 3148 3148 3148 3173 3222 3222 3222 3119 2805 2573 0 2415 2396 2382 2372 2355 2336 2319 2306 2292 2288 2279 2271 2263 2255 2246 2237 2232 2227 2220 2212 2206 2203 2199 2196 2193 2188 2182 2178 2174 2171 2167 2164 2162 2160 2156 2153 2150 2148 2146 2142 2140 2137 2135 2133 2130 2128 2126 2124 2121 2118 2115 2113 2111 2111 2109 2107 2104 2102 2099 2097 2094 2092 2091 2090 2087 2084 2082 2080 2078 2077 2075 2073 2070 2068 2066 2064 2062 2060 2058 2056 2053 2051 2049 2047 2045 2043 2040 2038 2036 2033 2031 2029 2028 2026 2024 2022 2020 2018 2017 2015 2014 2012 2011 2010 2008 2007 2006 2004 2003 2002 2000 1999 1997 1996 1995 1994 1993 1992 1992 1991 1990 1989 1989 1989 1989 1989 1989 1989 1988 1988 1988 1988 1987 1987 1987 1987 1986 1986 1986 1986 1986 1986 1987 1987 1987 1987 1988 1988 1988 1988 1988 1988 1988 1988 1988 1988 1988 1988 1988 1988 1988 1988 1988 1988 1988 1988 1988 1988 1988 1988 1988 1989 1989 1989 1989 1989 1989 1990 1990 1990 1990 1990 1991 1991 1991 1992 1992 1993 1994 1995 1996 1996 1997 1998 1998 1999 1999 2000 2001 2002 2003 2003 2003 2004 2004 2004 2005 2005 2006 2007 2007 2008 2008 2010 2011 2012 2013 2014 2015 2016 2017 2018 2018 2020 2021 2023 2025 2027 2029 2031 2034 2035 2037 2041 2044 2046 2047 2048 2050 2054 2057 2066 2068 2068 2068 2059 0 0 0 0 0 0 0 0 0 0 0 0 0 0 0 0 0 0 0 0 0 0 0 0 0 0 0 0 0 0 0 0 0 0 0 0 0 0 0 0 0 0 0 0 0 0 0 0 0 0 0 0 0 0 0 0 0 0 0 0 0 0 0 0 0 0 0 0 0 0 0 0 0 0 0 0 0 0 0 0 0 0 0 0 0 0 0
3080 3080 3104 3123 3146 3163 3182 3184 3185 3198 3218 3250 3256 3279 3282 3287 3291 3304 3304 3304 3311 3311 3310 3315 3318 3321 3337 3337 3338 3339 3339 3347 3366 3371 3385 3389 3393 3403 3403 3403 3404 3402 3396 3396 3397 3397 3414 3432 3442 3446 3457 3477 3494 3509 3520 3533 3535 3541 3545 3545 3548 3556 3561 3569 3574 3578 3583 3585 3590 3590 3596 3606 3621 3631 3635 3640 3649 3660 3667 3669 3672 3678 3684 3685 3685 3692 3701 3707 3715 3721 3725 3732 3736 3743 3748 3752 3757 3760 3765 3766 3770 3771 3772 3774 3780 3788 3794 3795 3799 3800 3800 3804 3810 3810 3810 3804 3730 3615 3261 2648 0 0 0 0 0 0 0 0 0 0 0 0 0 0 0 0 0 0 0 0 0 2271 2261 2261 0 0 0 0 0 0 0 0 0 0 0 0 0 0 0 0 0 0 0 0 0 0 0 0 0 0 0 0 0 0 0 0 0 0 0 0 0 0 0 0 0 0 0 0 0 0 0 0 0 0 0 0 0 0 0 0 0 0 0 0 0 0 0 0 0 0 0 0 0 0 0 0 0 0 0 0 0 0 0 0 0 0 0 0 2514 3004 3399 3587 3635 3664 3664 3664 3655 3643 3640 3638 3624 3624 3618 3613 3609 3609 3609 3616 3620 3620 3620 3607 3594 3583 3573 3560 3553 3553 3553 3561 3561 3561 3560 3542 3532 3501 3457 3435 3395 3372 3352 3329 3310 3299 3278 3253 3232 3215 3205 3199 3196 3196 3196 3213 3228 3231 3262 3284 3373 3433 3433 3433 3320 3240 3209 3185 3152 3152 3152 3173 3225 3225 3225 3119 2826 2597 0 2422 2396 2382 2372 2355 2336 2320 2308 2296 2288 2278 2271 2262 2255 2246 2237 2232 2227 2218 2210 2204 2200 2198 2195 2192 2187 2182 2178 2174 2170 2167 2164 2162 2160 2156 2154 2150 2148 2146 2142 2140 2137 2133 2132 2129 2127 2126 2123 2121 2118 2115 2113 2110 2109 2108 2106 2104 2101 2098 2096 2094 2092 2091 2090 2087 2084 2082 2080 2078 2077 2075 2073 2070 2068 2066 2064 2062 2060 2058 2055 2053 2051 2049 2047 2045 2043 2040 2038 2036 2033 2031 2029 2027 2025 2024 2021 2020 2018 2017 2015 2013 2012 2011 2010 2008 2007 2006 2004 2003 2002 2000 1998 1997 1996 1995 1993 1993 1992 1991 1990 1990 1989 1989 1989 1989 1989 1989 1989 1988 1988 1988 1987 1987 1987 1987 1986 1986 1985 1985 1985 1985 1985 1986 1986 1986 1987 1987 1987 1987 1988 1988 1988 1988 1988 1988 1988 1988 1988 1988 1988 1988 1988 1988 1988 1988 1988 1988 1988 1988 1988 1988 1988 1988 1989 1989 1989 1989 1989 1990 1990 1990 1990 1991 1991 1991 1992 1992 1993 1994 1995 1996 1997 1998 1998 1998 1999 1999 1999 2000 2002 2003 2003 2003 2004 2004 2004 2005 2005 2006 2007 2007 2008 2008 2010 2011 2012 2013 2014 2015 2016 2016 2018 2018 2020 2020 2022 2025 2026 2029 2031 2033 2035 2037 2040 2043 2045 2046 2048 2050 2055 2056 2060 2067 2067 2067 2063 0 0 0 0 0 0 0 0 0 0 0 0 0 0 0 0 0 0 0 0 0 0 0 0 0 0 0 0 0 0 0 0 0 0 0 0 0 0 0 0 0 0 0 0 0 0 0 0 0 0 0 0 0 0 0 0 0 0 0 0 0 0 0 0 0 0 0 0 0 0 0 0 0 0 0 0 0 0 0 0 0 0 0 0 0 0 0
3047 3047 3070 3108 3135 3139 3139 3139 3146 3146 3146 3193 3242 3279 3279 3282 3287 3295 3295 3303 3310 3311 3308 3315 3316 3321 3330 3337 3338 3339 3339 3339 3347 3351 3363 3365 3370 3382 3382 3382 3391 3380 3379 3379 3382 3382 3385 3393 3406 3409 3436 3446 3477 3493 3502 3511 3524 3526 3529 3531 3531 3541 3553 3563 3571 3577 3581 3583 3584 3585 3594 3606 3621 3631 3635 3639 3642 3648 3658 3669 3672 3678 3684 3685 3685 3685 3694 3706 3715 3721 3726 3734 3737 3745 3750 3752 3757 3761 3765 3768 3771 3771 3772 3775 3781 3788 3793 3798 3798 3801 3802 3804 3810 3810 3810 3804 3766 3640 3317 2718 0 0 0 0 0 0 0 0 0 0 0 0 0 0 0 0 0 0 0 0 2264 2264 2261 2261 2255 0 0 0 0 0 0 0 0 0 0 0 0 0 0 0 0 0 0 0 0 0 0 0 0 0 0 0 0 0 0 0 0 0 0 0 0 0 0 0 0 0 0 0 0 0 0 0 0 0 0 0 0 0 0 0 0 0 0 0 0 0 0 0 0 0 0 0 0 0 0 0 0 0 0 0 0 0 0 0 0 0 0 0 0 2865 3238 3542 3635 3670 3675 3676 3676 3675 3665 3643 3638 3627 3627 3627 3627 3628 3630 3637 3640 3640 3640 3624 3608 3597 3588 3579 3572 3570 3568 3562 3562 3562 3561 3554 3534 3501 3454 3411 3378 3372 3352 3329 3310 3299 3278 3256 3233 3215 3206 3206 3206 3209 3210 3215 3228 3231 3234 3240 3378 3422 3422 3422 3319 3239 3219 3209 3195 3193 3193 3193 3264 3264 3264 3142 2827 2600 0 2422 2396 2382 2372 2351 2333 2321 2308 2297 2286 2278 2269 2262 2254 2246 2236 2232 2226 2217 2209 2203 2199 2197 2193 2190 2185 2181 2177 2174 2170 2167 2164 2162 2160 2156 2154 2151 2148 2146 2142 2140 2137 2133 2132 2129 2127 2125 2123 2120 2118 2114 2112 2109 2108 2106 2104 2103 2100 2098 2096 2094 2092 2091 2089 2087 2084 2082 2080 2078 2077 2074 2073 2070 2068 2065 2063 2062 2060 2058 2055 2053 2051 2049 2046 2045 2043 2040 2038 2035 2033 2031 2029 2027 2025 2023 2021 2019 2017 2016 2015 2013 2012 2011 2010 2008 2007 2006 2004 2003 2001 2000 1998 1997 1995 1995 1993 1992 1991 1990 1989 1989 1989 1989 1988 1988 1988 1988 1988 1988 1988 1988 1987 1987 1987 1986 1986 1985 1985 1985 1985 1985 1985 1985 1986 1986 1986 1986 1987 1987 1987 1987 1987 1987 1987 1987 1987 1987 1987 1987 1988 1988 1988 1988 1988 1988 1988 1987 1987 1987 1988 1988 1988 1988 1989 1989 1989 1989 1989 1990 1990 1990 1990 1991 1991 1992 1992 1992 1993 1994 1996 1996 1997 1998 1998 1998 1998 1999 1999 2000 2002 2003 2003 2003 2004 2004 2004 2005 2005 2006 2007 2007 2008 2008 2010 2011 2011 2013 2014 2015 2016 2016 2017 2018 2019 2019 2020 2024 2025 2028 2031 2033 2035 2037 2040 2042 2045 2045 2048 2050 2055 2056 2056 2061 2063 2063 2063 2044 0 0 0 0 0 0 0 0 0 0 0 0 0 0 0 0 0 0 0 0 0 0 0 0 0 0 0 0 0 0 0 0 0 0 0 0 0 0 0 0 0 0 0 0 0 0 0 0 0 0 0 0 0 0 0 0 0 0 0 0 0 0 0 0 0 0 0 0 0 0 0 0 0 0 0 0 0 0 0 0 0 0 0 0 0 0
2989 2989 2994 3041 3118 3118 3118 3087 3072 3072 3072 3076 3149 3210 3251 3262 3268 3295 3295 3303 3310 3311 3305 3313 3315 3321 3325 3328 3333 3333 3337 3338 3347 3350 3351 3360 3370 3377 3377 3377 3373 3369 3362 3311 3311 3311 3341 3358 3371 3373 3406 3423 3429 3429 3454 3484 3502 3518 3519 3523 3528 3531 3542 3549 3562 3574 3580 3580 3583 3584 3592 3602 3620 3631 3634 3636 3639 3643 3646 3658 3669 3676 3676 3677 3677 3681 3687 3695 3705 3717 3726 3736 3746 3752 3753 3754 3758 3761 3765 3769 3771 3771 3773 3776 3781 3786 3791 3798 3798 3800 3802 3804 3810 3810 3810 3804 3772 3670 3506 2949 2573 0 0 0 0 0 0 0 0 0 0 0 0 0 0 0 0 0 0 0 2281 2264 2264 2264 2255 0 0 0 0 0 0 0 0 0 0 0 0 0 0 0 0 0 0 0 0 0 0 0 0 0 0 0 0 0 0 0 0 0 0 0 0 0 0 0 0 0 0 0 0 0 0 0 0 0 0 0 0 0 0 0 0 0 0 0 0 0 0 0 0 0 0 0 0 0 0 0 0 0 0 0 0 0 0 0 0 0 0 0 0 2782 3211 3521 3631 3671 3695 3695 3695 3690 3689 3689 3671 3660 3659 3658 3652 3647 3647 3647 3642 3642 3642 3636 3630 3621 3613 3598 3591 3586 3570 3562 3562 3562 3557 3554 3534 3485 3429 3393 3377 3372 3357 3330 3314 3299 3278 3256 3239 3218 3208 3208 3208 3209 3210 3210 3210 3208 3208 3208 3378 3419 3419 3419 3319 3239 3219 3210 3210 3219 3219 3239 3283 3283 3283 3143 2828 2600 0 2427 2396 2382 2358 2343 2330 2321 2308 2297 2286 2276 2268 2260 2254 2246 2236 2232 2224 2216 2209 2203 2199 2195 2191 2188 2183 2179 2176 2173 2170 2167 2164 2162 2159 2156 2154 2151 2148 2145 2142 2140 2136 2133 2132 2129 2127 2125 2122 2120 2117 2114 2112 2109 2108 2106 2104 2102 2100 2098 2096 2094 2092 2090 2088 2086 2084 2082 2080 2078 2076 2074 2072 2070 2067 2065 2063 2062 2060 2057 2055 2053 2051 2048 2046 2044 2043 2040 2037 2035 2032 2031 2029 2027 2025 2023 2021 2019 2017 2016 2015 2013 2012 2011 2010 2008 2007 2006 2004 2003 2001 2000 1998 1997 1995 1994 1993 1992 1991 1990 1989 1989 1988 1988 1988 1988 1988 1988 1988 1988 1988 1987 1987 1987 1986 1986 1985 1985 1985 1985 1984 1984 1984 1984 1985 1985 1986 1986 1986 1987 1987 1987 1987 1987 1987 1987 1987 1987 1987 1987 1988 1987 1987 1988 1988 1988 1988 1987 1987 1987 1988 1988 1988 1989 1989 1989 1989 1989 1990 1990 1990 1990 1990 1991 1992 1992 1992 1993 1994 1995 1996 1996 1997 1998 1998 1998 1998 1999 1999 2000 2001 2003 2003 2003 2004 2004 2005 2005 2006 2006 2007 2007 2007 2008 2010 2010 2011 2013 2013 2015 2015 2016 2016 2017 2019 2019 2020 2023 2025 2028 2030 2032 2034 2037 2040 2042 2044 2045 2048 2050 2055 2055 2056 2061 2063 2063 2063 2044 0 0 0 0 0 0 0 0 0 0 0 0 0 0 0 0 0 0 0 0 0 0 0 0 0 0 0 0 0 0 0 0 0 0 0 0 0 0 0 0 0 0 0 0 0 0 0 0 0 0 0 0 0 0 0 0 0 0 0 0 0 0 0 0 0 0 0 0 0 0 0 0 0 0 0 0 0 0 0 0 0 0 0 0 0 0
2743 2743 2743 2768 2768 2864 2868 2883 2889 2900 2922 2971 3031 3060 3060 3071 3086 3100 3149 3154 3219 3219 3219 3211 3211 3211 3281 3314 3326 3326 3328 3333 3339 3343 3348 3351 3353 3357 3357 3357 3357 3291 3257 3257 3257 3305 3328 3357 3364 3364 3364 3359 3359 3359 3371 3421 3438 3479 3498 3514 3518 3527 3532 3538 3550 3565 3576 3578 3580 3582 3587 3602 3616 3624 3626 3636 3639 3641 3646 3648 3660 3676 3676 3677 3677 3679 3687 3690 3702 3715 3729 3743 3752 3755 3757 3760 3761 3764 3769 3772 3773 3774 3775 3778 3781 3786 3789 3794 3798 3798 3799 3799 3801 3805 3805 3805 3772 3683 3559 3088 2600 0 0 0 0 0 0 0 0 0 0 0 0 2330 2323 2323 2320 2320 2319 2317 2301 2285 2285 2285 0 0 0 0 0 0 0 0 0 0 0 0 0 0 0 0 0 0 0 0 0 0 0 0 0 0 0 0 0 0 0 0 0 0 0 0 0 0 0 0 0 0 0 0 0 0 0 0 0 0 0 0 0 0 0 0 0 0 0 0 0 0 0 0 0 0 0 0 0 0 0 0 0 0 0 0 0 0 0 0 0 0 0 0 0 2773 3184 3501 3629 3676 3695 3695 3695 3702 3693 3690 3689 3680 3659 3658 3652 3648 3648 3648 3649 3649 3650 3650 3648 3640 3633 3627 3603 3586 3570 3556 3556 3556 3554 3554 3534 3478 3422 3393 3375 3374 3370 3351 3326 3299 3278 3256 3239 3218 3208 3208 3208 3209 3210 3210 3210 3196 3196 3196 3355 3416 3416 3416 3312 3240 3219 3212 3212 3219 3219 3253 3304 3304 3304 3146 2834 2600 0 2427 2396 2374 2353 2338 2330 2321 2308 2297 2286 2276 2265 2256 2249 2242 2236 2230 2223 2216 2209 2203 2199 2195 2191 2187 2183 2179 2176 2173 2170 2167 2164 2161 2159 2156 2154 2151 2146 2143 2141 2139 2136 2134 2132 2129 2128 2124 2122 2119 2117 2114 2111 2109 2108 2106 2104 2102 2100 2097 2095 2093 2091 2090 2088 2086 2084 2081 2080 2078 2076 2074 2072 2069 2066 2065 2063 2061 2059 2057 2055 2053 2050 2048 2046 2044 2042 2039 2037 2034 2032 2030 2029 2027 2025 2023 2021 2019 2017 2016 2015 2013 2013 2011 2010 2008 2007 2006 2004 2003 2001 2000 1998 1996 1994 1993 1992 1991 1990 1990 1989 1989 1988 1988 1988 1988 1988 1988 1988 1988 1987 1987 1987 1986 1986 1986 1985 1985 1985 1985 1984 1984 1984 1984 1984 1985 1985 1985 1986 1986 1986 1987 1987 1987 1987 1987 1987 1987 1987 1987 1988 1987 1987 1988 1988 1988 1988 1987 1987 1987 1988 1988 1988 1989 1989 1989 1989 1989 1990 1990 1990 1990 1990 1991 1992 1992 1992 1993 1994 1995 1996 1996 1997 1998 1998 1998 1999 1999 1999 2000 2001 2003 2003 2003 2004 2004 2005 2005 2006 2006 2007 2007 2008 2008 2010 2010 2011 2012 2013 2014 2014 2015 2016 2017 2018 2019 2020 2022 2025 2026 2030 2032 2034 2036 2039 2041 2043 2044 2047 2050 2055 2055 2056 2061 2066 2066 2066 2044 0 0 0 0 0 0 0 0 0 0 0 0 0 0 0 0 0 0 0 0 0 0 0 0 0 0 0 0 0 0 0 0 0 0 0 0 0 0 0 0 0 0 0 0 0 0 0 0 0 0 0 0 0 0 0 0 0 0 0 0 0 0 0 0 0 0 0 0 0 0 0 0 0 0 0 0 0 0 0 0 0 0 0 0 0 0
2548 2548 2588 2622 2626 2646 2647 2700 2739 2763 2814 2859 2905 2940 2974 2974 2980 2980 2980 2983 3013 3056 3056 3065 3070 3070 3124 3209 3279 3291 3292 3322 3336 3339 3339 3339 3257 3228 3221 3187 3104 3104 3104 3117 3244 3303 3328 3350 3360 3360 3360 3358 3358 3343 3311 3311 3311 3433 3453 3458 3501 3524 3526 3534 3545 3558 3568 3571 3575 3579 3587 3602 3605 3605 3619 3632 3638 3639 3644 3648 3660 3673 3676 3676 3677 3679 3685 3689 3701 3714 3729 3743 3752 3755 3757 3760 3765 3771 3773 3773 3774 3774 3775 3778 3782 3786 3789 3792 3795 3798 3798 3799 3801 3805 3805 3805 3773 3695 3605 3220 2649 0 0 0 0 0 0 0 0 0 0 0 2331 2331 2331 2329 2331 2329 2328 2320 2317 2303 2303 2302 0 0 0 0 0 0 0 0 0 0 0 0 0 0 0 0 0 0 0 0 0 0 0 0 0 0 0 0 0 0 0 0 0 0 0 0 0 0 0 0 0 0 0 0 0 0 0 0 0 0 0 0 0 0 0 0 0 0 0 0 0 0 0 0 0 0 0 0 0 0 0 0 0 0 0 0 0 0 0 0 0 0 0 0 0 2535 3010 3383 3627 3676 3695 3695 3695 3702 3702 3690 3689 3683 3659 3658 3652 3648 3648 3648 3649 3663 3663 3663 3650 3640 3633 3627 3603 3586 3568 3547 3540 3540 3537 3528 3516 3466 3418 3387 3374 3372 3370 3351 3326 3299 3278 3256 3239 3218 3206 3185 3179 3167 3165 3165 3142 3142 3142 3195 3331 3389 3389 3389 3305 3256 3217 3199 3199 3199 3219 3253 3310 3310 3310 3165 2845 2593 0 2426 2392 2374 2353 2338 2330 2315 2298 2292 2279 2269 2261 2255 2249 2242 2236 2230 2223 2216 2209 2203 2199 2195 2191 2187 2183 2179 2176 2173 2170 2167 2164 2161 2158 2155 2153 2150 2146 2143 2140 2139 2136 2134 2132 2130 2128 2124 2122 2119 2117 2114 2111 2109 2108 2105 2104 2101 2099 2096 2095 2093 2091 2090 2088 2085 2083 2081 2080 2077 2075 2073 2070 2069 2066 2065 2063 2060 2058 2056 2054 2052 2050 2048 2046 2043 2041 2039 2037 2034 2032 2030 2029 2027 2025 2023 2021 2019 2018 2016 2015 2014 2012 2012 2010 2008 2007 2005 2004 2002 2001 2000 1998 1996 1994 1993 1992 1991 1990 1989 1989 1988 1988 1988 1988 1988 1988 1988 1987 1987 1987 1987 1987 1986 1986 1986 1985 1985 1985 1985 1984 1984 1984 1984 1984 1984 1985 1985 1986 1986 1986 1987 1987 1987 1987 1987 1987 1988 1988 1988 1988 1988 1988 1988 1988 1988 1988 1987 1987 1987 1988 1988 1989 1989 1989 1989 1989 1990 1990 1990 1990 1990 1991 1991 1992 1992 1992 1994 1994 1995 1996 1996 1997 1998 1999 1999 1999 1999 1999 2000 2001 2002 2003 2003 2004 2004 2005 2005 2005 2006 2007 2007 2007 2008 2010 2010 2011 2012 2013 2014 2014 2015 2016 2017 2018 2019 2019 2021 2023 2025 2028 2031 2033 2035 2038 2041 2042 2044 2047 2050 2054 2055 2056 2059 2066 2066 2066 2044 0 0 0 0 0 0 0 0 0 0 0 0 0 0 0 0 0 0 0 0 0 0 0 0 0 0 0 0 0 0 0 0 0 0 0 0 0 0 0 0 0 0 0 0 0 0 0 0 0 0 0 0 0 0 0 0 0 0 0 0 0 0 0 0 0 0 0 0 0 0 0 0 0 0 0 0 0 0 0 0 0 0 0 0 0 0
0 0 0 2396 2474 2528 2532 2634 2692 2742 2807 2830 2845 2877 2905 2908 2912 2915 2921 2927 2927 2966 2994 2994 2994 2987 2987 2987 3035 3077 3108 3129 3184 3188 3239 3239 3239 3202 3022 3022 3022 3053 3065 3106 3213 3302 3328 3350 3350 3350 3348 3333 3326 3315 3287 3254 3209 3209 3209 3328 3448 3470 3516 3527 3540 3551 3553 3557 3561 3567 3574 3584 3587 3591 3603 3620 3634 3637 3641 3647 3658 3673 3676 3676 3679 3679 3685 3687 3696 3713 3729 3743 3752 3755 3757 3760 3765 3771 3773 3773 3774 3774 3776 3780 3783 3786 3789 3792 3795 3798 3798 3799 3801 3805 3805 3805 3773 3707 3609 3333 2714 0 0 0 0 0 0 0 0 0 0 2329 2331 2331 2331 2328 2331 2328 2328 2326 2326 2321 2318 2303 0 0 0 0 0 0 0 0 0 0 0 0 0 0 0 0 0 0 0 0 0 0 0 0 0 0 0 0 0 0 0 0 0 0 0 0 0 0 0 0 0 0 0 0 0 0 0 0 0 0 0 0 0 0 0 0 0 0 0 0 0 0 0 0 0 0 0 0 0 0 0 0 0 0 0 0 0 0 0 0 0 0 0 0 0 2418 2913 3332 3584 3676 3692 3692 3692 3692 3692 3687 3687 3687 3655 3648 3648 3648 3681 3715 3715 3715 3715 3677 3653 3640 3633 3627 3603 3586 3568 3540 3515 3509 3506 3496 3486 3452 3417 3383 3374 3370 3366 3351 3326 3295 3251 3171 3117 3117 3117 3117 3117 3100 3073 3064 3064 3064 3089 3122 3219 3318 3318 3318 3294 3256 3232 3202 3202 3202 3219 3253 3310 3310 3310 3226 2864 2593 0 2421 2391 2374 2353 2338 2330 2315 2297 2289 2279 2269 2261 2254 2247 2241 2236 2230 2223 2216 2210 2205 2201 2195 2190 2187 2182 2179 2176 2173 2170 2167 2164 2161 2158 2155 2153 2150 2146 2143 2140 2139 2136 2134 2132 2130 2128 2124 2122 2119 2117 2114 2111 2110 2108 2105 2104 2101 2099 2096 2094 2092 2091 2090 2088 2085 2083 2081 2079 2077 2075 2072 2070 2068 2066 2065 2063 2060 2058 2056 2053 2052 2050 2047 2046 2043 2041 2039 2036 2034 2032 2030 2028 2027 2025 2023 2021 2019 2018 2016 2015 2014 2012 2012 2010 2008 2007 2005 2004 2002 2001 2000 1998 1996 1994 1993 1992 1991 1990 1989 1988 1988 1988 1988 1988 1988 1987 1987 1987 1987 1987 1987 1986 1986 1986 1986 1985 1985 1985 1985 1984 1984 1984 1984 1984 1984 1984 1985 1986 1986 1986 1987 1987 1987 1987 1988 1988 1988 1988 1988 1988 1988 1988 1988 1988 1988 1988 1988 1988 1988 1988 1988 1989 1989 1989 1989 1989 1990 1990 1990 1990 1990 1991 1991 1992 1992 1993 1994 1994 1995 1996 1996 1997 1998 1999 1999 2000 2000 2000 2000 2001 2002 2002 2003 2003 2004 2005 2005 2005 2006 2006 2006 2007 2008 2009 2010 2011 2012 2013 2013 2014 2015 2016 2016 2017 2018 2019 2021 2021 2023 2026 2030 2032 2034 2037 2040 2041 2043 2047 2050 2054 2055 2056 2059 2065 2065 2065 2044 0 0 0 0 0 0 0 0 0 0 0 0 0 0 0 0 0 0 0 0 0 0 0 0 0 0 0 0 0 0 0 0 0 0 0 0 0 0 0 0 0 0 0 0 0 0 0 0 0 0 0 0 0 0 0 0 0 0 0 0 0 0 0 0 0 0 0 0 0 0 0 0 0 0 0 0 0 0 0 0 0 0 0 0 0 0
0 0 0 0 0 0 0 0 0 0 0 0 0 0 2812 2816 2816 2816 2816 2816 2838 2842 2862 2875 2897 2898 2912 2943 2946 2964 2969 2996 3028 3031 3037 3037 3037 2953 2953 2953 3006 3016 3056 3106 3213 3302 3328 3350 3350 3350 3348 3333 3302 3286 3276 3245 3206 3151 3151 3151 3208 3407 3440 3497 3516 3521 3532 3535 3542 3547 3554 3560 3571 3578 3587 3599 3616 3633 3642 3644 3653 3673 3676 3676 3678 3678 3683 3685 3694 3709 3724 3738 3748 3750 3752 3760 3765 3771 3773 3773 3774 3776 3783 3784 3786 3787 3790 3792 3795 3798 3800 3801 3803 3805 3805 3805 3782 3708 3628 3455 2819 0 0 0 0 0 0 0 0 0 0 0 0 0 2328 2328 2334 2328 2328 0 2334 2324 2322 2304 0 0 0 0 0 0 0 0 0 0 0 0 0 0 0 0 0 0 0 0 0 0 0 0 0 0 0 0 0 0 0 0 0 0 0 0 0 0 0 0 0 0 0 0 0 0 0 0 0 0 0 0 0 0 0 0 0 0 0 0 0 0 0 0 0 0 0 0 0 0 0 0 0 0 0 0 0 0 0 0 0 0 0 0 0 0 2842 3276 3551 3656 3673 3673 3673 3682 3682 3687 3687 3687 3648 3647 3647 3647 3681 3715 3723 3723 3723 3693 3655 3637 3607 3598 3589 3581 3565 3538 3506 3489 3488 3477 3459 3433 3405 3360 3319 3305 3295 3278 3227 3213 3181 3171 3117 3117 3117 3117 3117 3100 3073 3064 3064 3064 3089 3122 3157 3193 3235 3242 3242 3242 3236 3203 3203 3203 3219 3245 3284 3284 3284 3233 2875 2593 0 2417 2389 2374 2361 2340 2332 2315 2297 2289 2279 2269 2261 2254 2247 2241 2236 2230 2223 2216 2210 2205 2201 2195 2190 2187 2182 2179 2176 2173 2170 2167 2164 2161 2158 2155 2153 2150 2146 2143 2140 2139 2136 2134 2132 2130 2127 2124 2121 2119 2117 2114 2111 2110 2108 2105 2103 2101 2098 2096 2094 2092 2090 2088 2087 2085 2083 2081 2078 2077 2074 2072 2070 2068 2066 2065 2062 2060 2058 2056 2053 2051 2049 2047 2046 2043 2041 2039 2036 2034 2032 2030 2028 2026 2025 2023 2021 2019 2018 2016 2015 2014 2012 2012 2010 2008 2007 2005 2004 2003 2001 2000 1998 1996 1995 1993 1992 1991 1990 1989 1988 1988 1988 1988 1988 1987 1987 1987 1987 1987 1987 1987 1986 1986 1986 1986 1986 1985 1985 1985 1984 1984 1984 1984 1984 1984 1984 1985 1986 1986 1986 1987 1987 1987 1988 1988 1988 1988 1988 1988 1988 1988 1988 1988 1988 1988 1988 1988 1988 1988 1988 1988 1989 1989 1989 1989 1989 1990 1990 1990 1990 1990 1991 1991 1992 1992 1993 1994 1995 1995 1996 1996 1997 1998 1999 1999 2000 2000 2000 2000 2001 2002 2002 2003 2003 2004 2004 2004 2004 2005 2006 2006 2007 2008 2009 2010 2011 2012 2012 2013 2014 2015 2016 2016 2017 2019 2019 2021 2021 2023 2025 2028 2029 2033 2036 2039 2041 2043 2047 2052 2054 2055 2056 2059 2065 2065 2065 2061 2044 0 0 0 0 0 0 0 0 0 0 0 0 0 0 0 0 0 0 0 0 0 0 0 0 0 0 0 0 0 0 0 0 0 0 0 0 0 0 0 0 0 0 0 0 0 0 0 0 0 0 0 0 0 0 0 0 0 0 0 0 0 0 0 0 0 0 0 0 0 0 0 0 0 0 0 0 0 0 0 0 0 0 0 0 0
0 0 0 0 0 0 0 0 0 0 0 0 0 0 0 2529 2568 2664 2724 2726 2766 2830 2830 2848 2848 2847 2847 2853 2873 2874 2876 2902 2933 2934 2934 2933 2901 2901 2901 2932 2995 3000 3002 3013 3080 3193 3278 3289 3296 3308 3308 3308 3292 3286 3276 3237 3198 3128 3072 3072 3072 3174 3287 3393 3448 3462 3483 3490 3491 3494 3505 3519 3547 3566 3573 3584 3595 3627 3639 3641 3650 3673 3673 3674 3676 3676 3683 3685 3694 3707 3712 3727 3733 3736 3740 3749 3759 3769 3771 3772 3774 3777 3783 3787 3788 3790 3792 3793 3796 3798 3800 3801 3803 3803 3803 3803 3782 3732 3656 3588 2844 0 0 0 0 0 0 0 0 0 0 0 0 0 0 2328 2334 2334 2334 2341 2341 2341 2323 2304 0 0 0 0 0 0 0 0 0 0 0 0 0 0 0 0 0 0 0 0 0 0 0 0 0 0 0 0 0 0 0 0 0 0 0 0 0 0 0 0 0 0 0 0 0 0 0 0 0 0 0 0 0 0 0 0 0 0 0 0 0 0 0 0 0 0 0 0 0 0 0 0 0 0 0 0 0 0 0 0 0 0 0 0 0 0 2672 3053 3490 3648 3670 3670 3670 3677 3677 3687 3687 3687 3617 3617 3617 3647 3681 3715 3723 3723 3723 3693 3653 3634 3607 3594 3589 3576 3558 3533 3476 3439 3422 3391 3353 3350 3319 3316 3315 3305 3295 3278 3227 3213 3181 3171 3117 3117 3117 3117 3117 3100 3073 3064 3064 3064 3089 3122 3157 3185 3189 3208 3229 3229 3229 3220 3220 3220 3220 3245 3284 3284 3284 3233 2875 2599 0 2417 2389 2375 2361 2340 2332 2316 2297 2289 2280 2269 2261 2254 2247 2241 2235 2230 2223 2216 2210 2205 2201 2195 2189 2185 2181 2179 2176 2173 2170 2167 2164 2161 2158 2156 2153 2151 2147 2144 2142 2139 2136 2133 2131 2128 2127 2124 2121 2119 2117 2114 2112 2110 2108 2105 2103 2101 2098 2096 2093 2091 2089 2088 2086 2084 2082 2080 2077 2076 2074 2072 2070 2068 2066 2065 2062 2060 2058 2056 2053 2051 2049 2047 2045 2043 2041 2038 2036 2034 2032 2030 2028 2026 2024 2023 2021 2019 2017 2016 2014 2013 2012 2011 2010 2008 2006 2005 2004 2002 2001 1999 1998 1996 1995 1993 1992 1991 1990 1989 1988 1988 1988 1987 1987 1987 1987 1987 1987 1987 1987 1987 1986 1986 1986 1986 1986 1986 1985 1985 1985 1985 1984 1984 1984 1984 1985 1985 1986 1986 1987 1987 1987 1988 1988 1988 1988 1988 1988 1988 1988 1988 1988 1988 1988 1988 1988 1988 1988 1988 1988 1989 1989 1989 1990 1990 1990 1990 1990 1990 1991 1991 1991 1992 1992 1992 1993 1994 1995 1995 1996 1996 1997 1998 1999 1999 2000 2000 2000 2000 2001 2002 2002 2002 2003 2003 2004 2004 2004 2005 2005 2005 2006 2007 2008 2009 2011 2011 2012 2013 2014 2015 2016 2016 2017 2019 2019 2021 2021 2023 2025 2027 2029 2032 2034 2038 2041 2043 2047 2052 2054 2054 2056 2059 2065 2073 2073 2073 2064 0 0 0 0 0 0 0 0 0 0 0 0 0 0 0 0 0 0 0 0 0 0 0 0 0 0 0 0 0 0 0 0 0 0 0 0 0 0 0 0 0 0 0 0 0 0 0 0 0 0 0 0 0 0 0 0 0 0 0 0 0 0 0 0 0 0 0 0 0 0 0 0 0 0 0 0 0 0 0 0 0 0 0 0 0
0 0 0 0 0 0 0 0 0 0 0 0 0 0 0 0 0 0 0 0 0 0 2608 2666 2719 2761 2787 2793 2815 2838 2847 2843 2846 2846 2843 2800 2800 2800 2826 2929 2985 2985 2986 2986 3014 3094 3125 3131 3134 3137 3137 3137 3137 3132 3130 3118 3089 3041 3041 3041 3070 3161 3227 3262 3304 3399 3442 3465 3476 3476 3489 3492 3496 3513 3520 3531 3569 3612 3623 3634 3634 3634 3634 3640 3660 3667 3676 3682 3691 3696 3704 3716 3725 3730 3736 3742 3755 3766 3769 3772 3774 3778 3783 3787 3788 3790 3792 3793 3796 3798 3800 3801 3803 3803 3803 3803 3787 3748 3706 3594 3012 0 0 0 0 0 0 0 0 0 0 0 0 0 0 2328 2334 2334 2334 2341 2346 2346 2346 2328 2312 0 0 0 0 0 0 0 0 0 0 0 0 0 0 0 0 0 0 0 0 0 0 0 0 0 0 0 0 0 0 0 0 0 0 0 0 0 0 0 0 0 0 0 0 0 0 0 0 0 0 0 0 0 0 0 0 0 0 0 0 0 0 0 0 0 0 0 0 0 0 0 0 0 0 0 0 0 0 0 0 0 0 0 0 0 2528 2891 3454 3645 3651 3651 3651 3624 3622 3594 3593 3577 3577 3577 3591 3630 3660 3703 3723 3723 3723 3693 3646 3625 3572 3529 3510 3462 3424 3423 3422 3413 3409 3391 3353 3350 3319 3316 3315 3305 3295 3278 3227 3227 3227 3228 3229 3230 3229 3228 3187 3133 3102 3096 3096 3096 3104 3125 3157 3183 3187 3208 3229 3233 3233 3233 3222 3222 3222 3245 3284 3284 3284 3226 2875 2605 0 2417 2389 2375 2361 2340 2332 2316 2297 2292 2282 2271 2261 2254 2245 2238 2233 2228 2223 2216 2210 2204 2200 2193 2189 2184 2181 2179 2176 2173 2170 2167 2164 2161 2159 2156 2154 2151 2147 2144 2142 2139 2136 2133 2131 2128 2126 2124 2121 2119 2117 2114 2113 2110 2108 2105 2103 2101 2099 2096 2093 2091 2089 2088 2085 2083 2082 2080 2077 2076 2074 2072 2070 2068 2066 2064 2062 2060 2058 2056 2053 2051 2049 2047 2045 2042 2041 2038 2035 2034 2032 2029 2027 2026 2024 2023 2021 2018 2017 2016 2014 2013 2011 2010 2009 2008 2006 2005 2003 2002 2001 1999 1998 1996 1995 1994 1992 1991 1990 1989 1988 1988 1988 1987 1987 1987 1987 1987 1987 1987 1987 1987 1987 1986 1986 1986 1986 1986 1985 1985 1985 1985 1985 1984 1984 1984 1985 1986 1986 1986 1987 1987 1987 1988 1988 1988 1989 1989 1989 1988 1988 1988 1989 1989 1989 1988 1988 1988 1988 1988 1989 1989 1990 1990 1990 1990 1990 1990 1990 1991 1991 1991 1991 1992 1992 1992 1993 1994 1995 1995 1996 1996 1997 1998 1998 1999 2000 2000 2000 2000 2001 2001 2002 2002 2002 2003 2003 2003 2004 2004 2004 2005 2006 2007 2008 2009 2010 2011 2012 2013 2014 2015 2016 2016 2017 2018 2019 2020 2021 2023 2024 2027 2028 2031 2033 2036 2041 2043 2047 2052 2054 2054 2055 2059 2065 2072 2072 2072 2064 2035 0 0 0 0 0 0 0 0 0 0 0 0 0 0 0 0 0 0 0 0 0 0 0 0 0 0 0 0 0 0 0 0 0 0 0 0 0 0 0 0 0 0 0 0 0 0 0 0 0 0 0 0 0 0 0 0 0 0 0 0 0 0 0 0 0 0 0 0 0 0 0 0 0 0 0 0 0 0 0 0 0 0 0 0
0 0 0 0 0 0 0 0 0 0 0 0 0 0 0 0 0 0 0 0 0 0 0 0 0 0 0 0 0 2514 2637 2703 2719 2719 2703 2687 2687 2687 2785 2876 2954 2961 2965 2979 3012 3019 3019 3019 2999 2991 2988 2966 2948 2925 2860 2860 2860 2894 2940 3011 3070 3137 3203 3213 3224 3260 3302 3351 3356 3361 3378 3416 3457 3463 3471 3483 3524 3528 3572 3576 3600 3600 3607 3635 3643 3655 3673 3678 3681 3689 3698 3715 3725 3730 3736 3742 3750 3755 3768 3772 3775 3778 3784 3787 3788 3790 3792 3793 3796 3796 3797 3798 3799 3801 3801 3801 3793 3759 3708 3601 3394 2597 0 0 0 0 0 0 0 0 0 0 0 0 0 0 2350 2341 2341 2341 2346 2346 2346 2328 2312 0 0 0 0 0 0 0 0 0 0 0 0 0 0 0 0 0 0 0 0 0 0 0 0 0 0 0 0 0 0 0 0 0 0 0 0 0 0 0 0 0 0 0 0 0 0 0 0 0 0 0 0 0 0 0 0 0 0 0 0 0 0 0 0 0 0 0 0 0 0 0 0 0 0 0 0 0 0 0 0 0 0 0 0 0 0 2871 3392 3609 3609 3609 3603 3567 3550 3550 3550 3550 3552 3564 3574 3611 3636 3640 3640 3640 3573 3499 3475 3475 3475 3475 3475 3462 3424 3423 3422 3413 3409 3391 3353 3350 3350 3341 3341 3341 3324 3317 3301 3301 3293 3264 3244 3244 3241 3235 3193 3148 3125 3117 3117 3117 3140 3141 3157 3158 3187 3208 3229 3234 3234 3234 3224 3224 3224 3252 3306 3306 3306 3224 2860 2607 0 2422 2397 2374 2355 2338 2331 2316 2297 2292 2282 2271 2261 2252 2245 2237 2231 2226 2221 2215 2209 2203 2198 2191 2188 2184 2181 2179 2177 2173 2170 2167 2164 2161 2159 2157 2154 2151 2147 2144 2142 2139 2136 2133 2131 2128 2126 2124 2121 2118 2117 2114 2113 2111 2109 2105 2103 2101 2099 2096 2094 2091 2089 2087 2085 2083 2082 2079 2077 2075 2074 2072 2070 2068 2066 2064 2062 2060 2058 2056 2053 2051 2049 2047 2044 2041 2040 2038 2035 2034 2031 2029 2026 2024 2023 2022 2021 2018 2017 2015 2014 2013 2011 2010 2009 2008 2006 2005 2003 2002 2001 1999 1998 1997 1995 1994 1993 1991 1990 1990 1989 1988 1988 1987 1987 1987 1987 1986 1986 1986 1986 1987 1987 1987 1986 1986 1986 1986 1986 1985 1985 1985 1985 1985 1985 1985 1985 1986 1986 1986 1987 1987 1988 1988 1988 1989 1989 1989 1989 1989 1989 1989 1989 1989 1989 1989 1989 1989 1989 1989 1990 1990 1990 1990 1990 1990 1990 1990 1990 1990 1990 1991 1991 1991 1992 1992 1993 1994 1995 1995 1996 1996 1997 1997 1998 1998 1998 1999 1999 2000 2000 2001 2001 2002 2002 2002 2003 2003 2003 2003 2003 2004 2005 2006 2008 2009 2010 2011 2012 2013 2014 2014 2015 2016 2017 2018 2019 2020 2021 2023 2024 2026 2027 2030 2033 2036 2040 2043 2046 2052 2052 2053 2055 2059 2065 2069 2069 2069 2066 2058 0 0 0 0 0 0 0 0 0 0 0 0 0 0 0 0 0 0 0 0 0 0 0 0 0 0 0 0 0 0 0 0 0 0 0 0 0 0 0 0 0 0 0 0 0 0 0 0 0 0 0 0 0 0 0 0 0 0 0 0 0 0 0 0 0 0 0 0 0 0 0 0 0 0 0 0 0 0 0 0 0 0 0 0
0 0 0 0 0 0 0 0 0 0 0 0 0 0 0 0 0 0 0 0 0 0 0 0 0 0 0 0 0 0 0 0 0 0 0 0 0 2517 2644 2806 2894 2936 2955 2963 2963 2963 2954 2918 2918 2918 2918 2869 2817 2761 2761 2761 2816 2873 2939 3007 3050 3099 3106 3120 3127 3143 3172 3201 3204 3205 3204 3201 3193 3193 3193 3218 3251 3289 3350 3428 3457 3487 3495 3496 3536 3548 3561 3590 3655 3688 3688 3707 3724 3730 3736 3742 3750 3755 3765 3772 3776 3780 3784 3786 3788 3789 3791 3791 3792 3793 3793 3796 3799 3801 3801 3801 3800 3776 3713 3601 3466 2683 0 0 0 0 0 0 0 0 0 0 0 0 0 0 0 0 0 2341 2342 2342 2342 2328 2315 2312 0 0 0 0 0 0 0 0 0 0 0 0 0 0 0 0 0 0 0 0 0 0 0 0 0 0 0 0 0 0 0 0 0 0 0 0 0 0 0 0 0 0 0 0 0 0 0 0 0 0 0 0 0 0 0 0 0 0 0 0 0 0 0 0 0 0 0 0 0 0 0 0 0 0 0 0 0 0 0 0 0 0 0 0 0 2849 3277 3509 3564 3564 3564 3514 3514 3514 3535 3535 3535 3505 3472 3456 3401 3380 3380 3380 3394 3402 3419 3426 3475 3475 3475 3462 3424 3423 3423 3424 3438 3448 3448 3448 3442 3442 3434 3419 3393 3377 3376 3363 3337 3294 3265 3255 3249 3237 3212 3179 3151 3137 3137 3137 3147 3152 3170 3183 3189 3209 3233 3237 3237 3237 3224 3224 3224 3252 3306 3306 3306 3210 2857 2607 0 2424 2398 2370 2352 2338 2331 2318 2297 2292 2282 2271 2261 2252 2244 2237 2229 2223 2217 2211 2206 2201 2196 2191 2188 2185 2181 2179 2177 2173 2170 2167 2163 2161 2159 2157 2154 2151 2147 2144 2141 2138 2136 2133 2130 2128 2126 2124 2122 2119 2117 2114 2113 2111 2109 2106 2103 2101 2099 2096 2094 2091 2089 2087 2085 2083 2082 2079 2077 2075 2074 2072 2070 2068 2065 2064 2062 2060 2058 2056 2054 2051 2048 2046 2044 2041 2040 2038 2035 2034 2031 2029 2026 2024 2023 2021 2019 2018 2016 2015 2014 2013 2011 2010 2008 2007 2006 2004 2003 2002 2000 1999 1997 1997 1995 1994 1993 1991 1990 1990 1989 1988 1988 1988 1987 1987 1987 1986 1986 1986 1986 1987 1987 1987 1987 1986 1986 1986 1986 1986 1986 1986 1986 1986 1986 1986 1986 1986 1987 1987 1987 1988 1988 1988 1989 1989 1989 1989 1989 1989 1989 1989 1989 1989 1989 1989 1989 1989 1989 1989 1989 1990 1990 1990 1990 1990 1990 1990 1990 1990 1990 1990 1991 1991 1992 1992 1992 1993 1994 1995 1996 1996 1997 1997 1997 1997 1997 1997 1998 1999 1999 2000 2001 2001 2001 2002 2002 2002 2002 2002 2002 2004 2004 2006 2007 2008 2009 2010 2011 2012 2014 2014 2015 2015 2017 2018 2019 2019 2020 2022 2024 2024 2026 2028 2032 2035 2038 2041 2044 2048 2052 2053 2054 2058 2064 2066 2066 2066 2066 2058 0 0 0 0 0 0 0 0 0 0 0 0 0 0 0 0 0 0 0 0 0 0 0 0 0 0 0 0 0 0 0 0 0 0 0 0 0 0 0 0 0 0 0 0 0 0 0 0 0 0 0 0 0 0 0 0 0 0 0 0 0 0 0 0 0 0 0 0 0 0 0 0 0 0 0 0 0 0 0 0 0 0 0 0
0 0 0 0 0 0 0 0 0 0 0 0 0 0 0 0 0 0 0 0 0 0 0 0 0 0 0 0 0 0 0 0 0 0 0 0 0 0 0 0 2533 2619 2722 2824 2877 2878 2878 2878 2657 2654 2614 2614 2614 2614 2620 2683 2753 2841 2905 2933 2973 3021 3021 3021 3021 3021 3048 3066 3089 3095 3095 3095 3078 3066 3048 3034 3034 3034 3058 3157 3166 3166 3166 3139 3125 3125 3125 3187 3341 3543 3573 3658 3721 3729 3737 3742 3750 3755 3765 3773 3779 3782 3783 3786 3788 3789 3789 3789 3790 3790 3791 3796 3799 3801 3805 3805 3805 3785 3715 3629 3559 2872 0 0 0 0 0 0 0 0 0 0 0 0 0 0 0 0 2324 2324 2324 2321 2287 2284 2284 2284 2288 0 0 0 0 0 0 0 0 0 0 0 0 0 0 0 0 0 0 0 0 0 0 0 0 0 0 0 0 0 0 0 0 0 0 0 0 0 0 0 0 0 0 0 0 0 0 0 0 0 0 0 0 0 0 0 0 0 0 0 0 0 0 0 0 0 0 0 0 0 0 0 0 0 0 0 0 0 0 0 0 0 0 0 0 2650 2984 3313 3405 3405 3405 3405 3405 3447 3517 3517 3517 3505 3472 3456 3381 3371 3371 3371 3392 3394 3394 3394 3394 3499 3544 3544 3544 3538 3538 3538 3538 3538 3519 3494 3472 3467 3462 3435 3421 3419 3419 3412 3390 3329 3271 3269 3258 3247 3247 3207 3171 3151 3150 3150 3150 3152 3174 3185 3195 3232 3261 3261 3261 3243 3224 3224 3224 3252 3306 3306 3306 3151 2831 2607 0 2424 2398 2366 2351 2338 2331 2318 2295 2288 2276 2267 2259 2251 2242 2235 2227 2220 2215 2209 2206 2200 2195 2191 2188 2185 2181 2179 2177 2174 2170 2167 2163 2160 2158 2157 2154 2150 2146 2143 2140 2138 2135 2133 2130 2128 2126 2124 2122 2119 2116 2114 2113 2111 2109 2106 2105 2101 2099 2097 2095 2092 2089 2087 2085 2083 2081 2079 2077 2075 2074 2072 2070 2068 2065 2063 2061 2060 2058 2056 2054 2051 2048 2046 2044 2041 2040 2038 2036 2034 2031 2029 2026 2024 2023 2021 2019 2018 2016 2015 2014 2013 2011 2010 2008 2007 2005 2004 2002 2001 1999 1999 1997 1997 1995 1994 1993 1992 1991 1990 1989 1988 1988 1988 1987 1987 1987 1986 1986 1986 1986 1987 1987 1987 1987 1987 1987 1987 1987 1987 1987 1986 1986 1986 1986 1986 1987 1987 1987 1988 1988 1988 1988 1989 1989 1989 1989 1989 1989 1989 1989 1989 1989 1989 1989 1989 1989 1989 1989 1989 1989 1990 1990 1990 1990 1990 1989 1989 1989 1989 1990 1990 1990 1991 1991 1992 1992 1992 1993 1995 1996 1996 1996 1996 1996 1996 1996 1997 1997 1998 1999 1999 2000 2000 2000 2000 2001 2001 2002 2002 2002 2003 2004 2005 2006 2007 2009 2009 2011 2012 2013 2014 2014 2015 2016 2017 2018 2019 2020 2021 2023 2023 2026 2028 2030 2034 2038 2041 2043 2046 2051 2052 2053 2057 2060 2061 2070 2071 2071 2071 0 0 0 0 0 0 0 0 0 0 0 0 0 0 0 0 0 0 0 0 0 0 0 0 0 0 0 0 0 0 0 0 0 0 0 0 0 0 0 0 0 0 0 0 0 0 0 0 0 0 0 0 0 0 0 0 0 0 0 0 0 0 0 0 0 0 0 0 0 0 0 0 0 0 0 0 0 0 0 0 0 0 0 0
0 0 0 0 0 0 0 0 0 0 0 0 0 0 0 0 0 0 0 0 0 0 0 0 0 0 0 0 0 0 0 0 0 0 0 0 0 0 0 0 0 0 0 0 0 0 0 0 0 0 0 0 0 0 0 0 2589 2729 2798 2832 2854 2905 2915 2917 2936 2936 2936 2960 2972 3009 3009 3009 2961 2896 2872 2844 2824 2824 2824 2867 2901 2907 2925 2956 2956 2957 2961 2961 3028 3131 3549 3621 3704 3729 3745 3749 3755 3758 3765 3773 3779 3782 3783 3784 3787 3788 3788 3788 3788 3788 3791 3796 3799 3803 3808 3808 3808 3794 3730 3658 3608 3238 0 0 0 0 0 0 0 0 0 0 0 0 0 0 0 0 0 2308 2308 2308 2287 2274 2274 2274 2288 2296 0 0 0 0 0 0 0 0 0 0 0 0 0 0 0 0 0 0 0 0 0 0 0 0 0 0 0 0 0 0 0 0 0 0 0 0 0 0 0 0 0 0 0 0 0 0 0 0 0 0 0 0 0 0 0 0 0 0 0 0 0 0 0 0 0 0 0 0 0 0 0 0 0 0 0 0 0 0 0 0 0 0 0 2599 2710 2978 3254 3360 3385 3405 3405 3447 3517 3517 3517 3505 3472 3432 3370 3370 3370 3370 3370 3370 3370 3370 3370 3499 3552 3552 3552 3540 3540 3540 3538 3538 3538 3505 3505 3503 3490 3489 3436 3436 3431 3419 3418 3374 3312 3277 3275 3273 3271 3261 3215 3186 3178 3178 3178 3202 3210 3213 3229 3262 3288 3288 3288 3253 3224 3224 3224 3232 3283 3283 3283 3137 2822 2596 0 2424 2398 2362 2350 2338 2331 2314 2295 2280 2268 2259 2257 2251 2242 2232 2224 2219 2214 2209 2205 2200 2195 2191 2188 2185 2183 2180 2177 2174 2170 2167 2163 2160 2158 2155 2153 2150 2146 2142 2140 2137 2134 2132 2130 2128 2126 2124 2122 2119 2116 2114 2113 2112 2110 2107 2105 2102 2099 2097 2095 2092 2089 2087 2085 2083 2082 2079 2077 2075 2074 2072 2070 2068 2065 2063 2061 2060 2058 2056 2054 2051 2048 2047 2044 2042 2040 2038 2036 2034 2032 2029 2027 2025 2023 2021 2019 2017 2016 2015 2014 2013 2011 2010 2008 2006 2005 2004 2002 2000 1999 1999 1997 1997 1995 1994 1993 1992 1991 1990 1989 1989 1988 1988 1988 1987 1987 1986 1986 1987 1987 1987 1988 1988 1988 1988 1988 1988 1988 1988 1987 1987 1987 1987 1987 1987 1987 1987 1988 1988 1988 1988 1989 1989 1989 1990 1990 1990 1990 1990 1990 1989 1989 1989 1989 1989 1989 1989 1989 1989 1989 1989 1989 1989 1989 1989 1989 1989 1989 1989 1989 1989 1990 1991 1991 1991 1992 1992 1993 1994 1995 1995 1995 1996 1996 1996 1996 1997 1997 1998 1998 1999 1999 1999 1999 1999 2000 2001 2001 2002 2002 2003 2004 2004 2005 2007 2008 2009 2009 2012 2013 2014 2014 2014 2015 2016 2017 2018 2019 2021 2022 2023 2025 2028 2030 2034 2037 2041 2042 2042 2047 2049 2051 2054 2057 2061 2069 2072 2072 2072 2042 0 0 0 0 0 0 0 0 0 0 0 0 0 0 0 0 0 0 0 0 0 0 0 0 0 0 0 0 0 0 0 0 0 0 0 0 0 0 0 0 0 0 0 0 0 0 0 0 0 0 0 0 0 0 0 0 0 0 0 0 0 0 0 0 0 0 0 0 0 0 0 0 0 0 0 0 0 0 0 0 0 0 0
0 0 0 0 0 0 0 0 0 0 0 0 0 0 0 0 0 0 0 0 0 0 0 0 0 0 0 0 0 0 0 0 0 0 0 0 0 0 0 0 0 0 0 0 0 0 0 0 0 0 0 0 0 0 0 0 0 0 2574 2690 2690 2703 2724 2728 2728 2724 2718 2718 2718 2729 2729 2729 2684 2671 2669 2669 2669 2681 2690 2697 2706 2726 2746 2786 2805 2810 2820 2878 2976 3111 3386 3603 3693 3731 3745 3749 3758 3762 3765 3773 3779 3782 3782 3782 3785 3787 3787 3787 3787 3787 3791 3798 3801 3804 3808 3808 3808 3794 3760 3692 3608 3269 0 0 0 0 0 0 0 0 0 0 0 0 0 0 0 0 0 0 0 2305 2273 2269 2269 2273 2288 2293 2293 0 0 0 0 0 0 0 0 0 0 0 0 0 0 0 0 0 0 0 0 0 0 0 0 0 0 0 0 0 0 0 0 0 0 0 0 0 0 0 0 0 0 0 0 0 0 0 0 0 0 0 0 0 0 0 0 0 0 0 0 0 0 0 0 0 0 0 0 0 0 0 0 0 0 0 0 0 0 0 0 0 0 2519 2690 2917 3254 3360 3385 3405 3405 3447 3517 3553 3553 3553 3423 3387 3370 3370 3370 3380 3392 3392 3392 3392 3392 3499 3552 3552 3552 3540 3540 3540 3538 3538 3538 3531 3526 3523 3523 3489 3436 3436 3436 3436 3436 3409 3360 3332 3315 3300 3299 3287 3271 3232 3224 3224 3224 3257 3272 3275 3276 3287 3307 3307 3307 3259 3225 3225 3225 3226 3276 3276 3276 3134 2808 2594 0 2419 2398 2362 2348 2338 2331 2314 2294 2274 2257 2257 2254 2249 2238 2228 2222 2218 2214 2209 2205 2200 2195 2192 2189 2185 2183 2180 2177 2174 2170 2166 2162 2159 2158 2155 2153 2150 2145 2142 2139 2137 2134 2132 2129 2127 2126 2124 2121 2119 2116 2114 2113 2112 2110 2108 2105 2102 2100 2097 2095 2092 2089 2087 2085 2084 2082 2079 2077 2075 2074 2072 2070 2068 2065 2063 2061 2060 2058 2056 2054 2051 2049 2047 2045 2042 2041 2039 2037 2035 2033 2030 2027 2025 2023 2021 2019 2017 2016 2015 2014 2012 2011 2010 2008 2006 2004 2003 2002 2000 1999 1999 1998 1997 1997 1995 1994 1992 1992 1991 1990 1989 1988 1988 1988 1987 1987 1987 1987 1987 1987 1987 1988 1988 1988 1988 1988 1988 1988 1988 1988 1988 1988 1988 1988 1988 1988 1988 1988 1988 1989 1989 1989 1990 1990 1990 1990 1990 1990 1990 1990 1990 1990 1990 1990 1990 1989 1989 1989 1989 1989 1989 1988 1988 1989 1989 1988 1988 1988 1988 1989 1989 1989 1990 1990 1991 1991 1991 1992 1993 1994 1994 1994 1995 1995 1995 1996 1996 1997 1998 1998 1999 1999 1999 1999 1999 1999 2000 2001 2001 2002 2002 2002 2003 2004 2006 2007 2008 2008 2010 2012 2013 2013 2014 2014 2015 2016 2017 2018 2019 2020 2022 2024 2027 2030 2033 2036 2040 2042 2042 2047 2049 2049 2050 2052 2058 2065 2070 2076 2076 2076 0 0 0 0 0 0 0 0 0 0 0 0 0 0 0 0 0 0 0 0 0 0 0 0 0 0 0 0 0 0 0 0 0 0 0 0 0 0 0 0 0 0 0 0 0 0 0 0 0 0 0 0 0 0 0 0 0 0 0 0 0 0 0 0 0 0 0 0 0 0 0 0 0 0 0 0 0 0 0 0 0 0 0
0 0 0 0 0 0 0 0 0 0 0 0 0 0 0 0 0 0 0 0 0 0 0 0 0 0 0 0 0 0 0 0 0 0 0 0 0 0 0 0 0 0 0 0 0 0 0 0 0 0 0 0 0 0 0 0 0 0 0 2565 2587 2588 2629 2655 2682 2682 2682 2672 2664 2663 2663 2663 2663 2663 2661 2661 2664 2680 2685 2696 2697 2707 2723 2754 2779 2793 2808 2824 2940 3111 3379 3566 3686 3728 3745 3749 3758 3765 3768 3773 3776 3779 3780 3781 3782 3783 3783 3784 3784 3785 3791 3798 3801 3804 3808 3808 3808 3794 3774 3700 3608 3291 2567 0 0 0 0 0 0 0 0 0 0 0 0 0 0 0 0 0 0 2270 2270 2255 2255 2270 2281 2283 2283 2283 0 0 0 0 0 0 0 0 0 0 0 0 0 0 0 0 0 0 0 0 0 0 0 0 0 0 0 0 0 0 0 0 0 0 0 0 0 0 0 0 0 0 0 0 0 0 0 0 0 0 0 0 0 0 0 0 0 0 0 0 0 0 0 0 0 0 0 0 0 0 0 0 0 0 0 0 0 0 0 0 0 0 2654 2889 3254 3467 3546 3591 3601 3601 3601 3586 3576 3556 3423 3387 3387 3387 3390 3405 3405 3405 3394 3361 3361 3361 3529 3540 3540 3540 3540 3537 3537 3537 3538 3538 3538 3537 3537 3493 3443 3443 3443 3443 3443 3417 3375 3346 3346 3345 3330 3326 3321 3284 3266 3265 3265 3265 3290 3293 3303 3305 3314 3314 3314 3267 3225 3225 3225 3226 3276 3276 3276 3134 2782 2569 0 2419 2398 2362 2345 2334 2322 2314 2294 2274 2257 2252 2250 2241 2232 2228 2222 2218 2214 2210 2206 2201 2197 2192 2189 2185 2183 2180 2177 2174 2169 2166 2162 2159 2157 2155 2152 2149 2145 2142 2139 2136 2134 2132 2129 2127 2125 2123 2121 2119 2116 2114 2113 2112 2110 2108 2105 2102 2100 2097 2095 2092 2090 2087 2085 2084 2082 2080 2077 2075 2074 2072 2070 2068 2065 2064 2062 2060 2058 2056 2054 2051 2049 2047 2045 2043 2041 2039 2037 2035 2033 2031 2028 2026 2023 2021 2019 2017 2016 2015 2014 2012 2011 2010 2008 2006 2004 2003 2002 2001 1999 1999 1998 1998 1997 1996 1994 1993 1992 1991 1990 1989 1989 1988 1988 1988 1987 1987 1987 1987 1988 1988 1988 1988 1988 1989 1989 1989 1990 1990 1989 1989 1989 1989 1989 1989 1989 1989 1989 1989 1989 1990 1990 1990 1990 1990 1990 1990 1990 1990 1990 1990 1990 1990 1990 1990 1989 1989 1989 1989 1989 1988 1988 1988 1988 1988 1987 1987 1987 1987 1987 1988 1988 1988 1989 1990 1990 1990 1991 1992 1993 1993 1993 1994 1994 1995 1996 1996 1997 1998 1998 1998 1998 1998 1998 1999 1999 2000 2000 2000 2001 2002 2002 2003 2004 2005 2007 2008 2008 2009 2010 2012 2013 2013 2013 2014 2015 2016 2017 2018 2020 2021 2023 2027 2030 2032 2036 2038 2041 2042 2047 2049 2049 2049 2050 2054 2061 2068 2077 2077 2077 2046 0 0 0 0 0 0 0 0 0 0 0 0 0 0 0 0 0 0 0 0 0 0 0 0 0 0 0 0 0 0 0 0 0 0 0 0 0 0 0 0 0 0 0 0 0 0 0 0 0 0 0 0 0 0 0 0 0 0 0 0 0 0 0 0 0 0 0 0 0 0 0 0 0 0 0 0 0 0 0 0 0 0
0 0 0 0 0 0 0 0 0 0 0 0 0 0 0 0 0 0 0 0 0 0 0 0 0 0 0 0 0 0 0 0 0 0 0 0 0 0 0 0 0 0 0 0 0 0 0 0 0 0 0 0 0 0 0 0 0 0 0 2565 2587 2588 2629 2655 2671 2672 2672 2672 2664 2663 2663 2663 2663 2663 2661 2661 2664 2669 2681 2687 2687 2692 2693 2693 2741 2787 2798 2823 2939 3094 3349 3564 3686 3727 3744 3746 3758 3768 3772 3773 3774 3775 3775 3775 3779 3779 3780 3782 3782 3784 3791 3798 3801 3801 3801 3800 3796 3794 3774 3707 3594 3374 2775 0 0 0 0 0 0 0 0 0 0 0 0 0 0 0 0 0 0 2258 2258 2254 2258 2248 2240 2230 2230 2230 0 0 0 0 0 0 0 0 0 0 0 0 0 0 0 0 0 0 0 0 0 0 0 0 0 0 0 0 0 0 0 0 0 0 0 0 0 0 0 0 0 0 0 0 0 0 0 0 0 0 0 0 0 0 0 0 0 0 0 0 0 0 0 0 0 0 0 0 0 0 0 0 0 0 0 0 0 0 0 0 0 0 0 2858 3254 3494 3609 3646 3646 3646 3616 3616 3586 3556 3392 3384 3384 3384 3527 3527 3527 3473 3405 3361 3361 3361 3447 3537 3537 3537 3502 3502 3502 3503 3513 3523 3537 3537 3537 3493 3443 3443 3443 3443 3443 3421 3378 3378 3378 3380 3380 3380 3350 3340 3311 3277 3277 3277 3304 3315 3316 3324 3324 3324 3319 3268 3225 3225 3225 3226 3276 3276 3276 3132 2780 2546 0 2416 2397 2363 2345 2334 2314 2306 2289 2274 2257 2252 2248 2240 2232 2228 2222 2218 2214 2211 2206 2201 2197 2193 2189 2186 2182 2179 2177 2173 2169 2165 2162 2159 2155 2153 2151 2148 2145 2142 2139 2136 2134 2131 2129 2127 2125 2123 2121 2119 2116 2114 2113 2111 2110 2108 2105 2103 2100 2098 2095 2092 2090 2088 2085 2084 2082 2080 2078 2075 2074 2072 2071 2069 2066 2064 2062 2061 2059 2057 2054 2052 2050 2047 2045 2044 2041 2039 2038 2036 2034 2032 2029 2026 2024 2022 2020 2018 2016 2015 2014 2012 2011 2010 2008 2006 2004 2003 2002 2001 1999 1999 1998 1998 1997 1996 1994 1993 1992 1991 1990 1989 1989 1988 1988 1988 1988 1988 1988 1988 1988 1988 1989 1989 1989 1990 1990 1990 1990 1990 1990 1990 1990 1990 1990 1989 1989 1990 1990 1990 1990 1990 1990 1990 1990 1990 1990 1990 1990 1990 1990 1990 1990 1990 1990 1989 1989 1989 1989 1989 1988 1988 1988 1987 1987 1987 1987 1987 1987 1987 1987 1987 1988 1988 1989 1989 1989 1990 1990 1991 1991 1992 1993 1993 1993 1994 1995 1995 1995 1997 1997 1997 1997 1997 1998 1998 1998 1999 1999 2000 2000 2001 2002 2002 2003 2004 2006 2006 2007 2007 2009 2010 2011 2012 2012 2013 2014 2015 2016 2018 2019 2020 2022 2027 2030 2032 2035 2037 2039 2042 2046 2048 2048 2049 2049 2053 2059 2064 2073 2073 2073 2054 0 0 0 0 0 0 0 0 0 0 0 0 0 0 0 0 0 0 0 0 0 0 0 0 0 0 0 0 0 0 0 0 0 0 0 0 0 0 0 0 0 0 0 0 0 0 0 0 0 0 0 0 0 0 0 0 0 0 0 0 0 0 0 0 0 0 0 0 0 0 0 0 0 0 0 0 0 0 0 0 0 0
0 0 0 0 0 0 0 0 0 0 0 0 0 0 0 0 0 0 0 0 0 0 0 0 0 0 0 0 0 0 0 0 0 0 0 0 0 0 0 0 0 0 0 0 0 0 0 0 0 0 0 0 0 0 0 0 0 0 0 2565 2587 2588 2629 2655 2671 2672 2672 2672 2664 2663 2663 2663 2663 2666 2667 2667 2669 2680 2685 2692 2692 2692 2686 2686 2686 2727 2797 2804 2917 3090 3286 3550 3674 3721 3736 3738 3756 3768 3768 3771 3772 3772 3772 3772 3770 3770 3770 3773 3774 3779 3787 3793 3793 3793 3783 3783 3781 3781 3774 3707 3594 3395 2914 0 0 0 0 0 0 0 0 0 0 0 0 0 0 0 0 0 0 0 2258 2254 2240 2218 2205 2200 2200 0 0 0 0 0 0 0 0 0 0 0 0 0 0 0 0 0 0 0 0 0 0 0 0 0 0 0 0 0 0 0 0 0 0 0 0 0 0 0 0 0 0 0 0 0 0 0 0 0 0 0 0 0 0 0 0 0 0 0 0 0 0 0 0 0 0 0 0 0 0 0 0 0 0 0 0 0 0 0 0 0 0 0 0 2845 3254 3494 3609 3650 3650 3650 3646 3633 3586 3507 3330 3330 3330 3569 3569 3569 3551 3506 3455 3385 3385 3385 3403 3515 3515 3515 3502 3489 3488 3484 3488 3488 3537 3537 3537 3499 3453 3453 3453 3453 3453 3453 3407 3407 3407 3406 3406 3397 3379 3368 3333 3308 3308 3308 3321 3340 3343 3348 3348 3348 3320 3269 3231 3231 3231 3246 3278 3278 3278 3130 2776 2536 0 2416 2398 2371 2345 2334 2314 2300 2289 2274 2257 2252 2248 2239 2232 2227 2223 2219 2215 2211 2207 2202 2197 2193 2189 2186 2182 2179 2177 2173 2169 2165 2162 2159 2155 2153 2151 2148 2145 2142 2139 2136 2134 2131 2129 2127 2126 2123 2121 2119 2116 2114 2112 2111 2110 2108 2105 2103 2100 2098 2095 2093 2090 2088 2085 2084 2083 2081 2078 2076 2074 2072 2071 2069 2068 2065 2063 2061 2060 2057 2055 2052 2050 2047 2046 2044 2041 2039 2038 2036 2034 2032 2030 2028 2025 2022 2020 2018 2018 2016 2014 2013 2012 2010 2008 2006 2004 2003 2002 2001 2000 1999 1999 1998 1997 1996 1995 1994 1992 1992 1990 1990 1989 1988 1988 1988 1988 1988 1988 1988 1988 1989 1990 1990 1990 1990 1991 1991 1991 1991 1991 1991 1991 1990 1990 1990 1990 1990 1990 1990 1990 1990 1990 1990 1990 1990 1990 1990 1990 1990 1990 1990 1990 1990 1989 1989 1989 1989 1989 1988 1988 1988 1988 1987 1986 1986 1986 1986 1986 1985 1986 1986 1986 1987 1988 1988 1989 1989 1989 1990 1990 1991 1991 1992 1992 1993 1993 1994 1995 1996 1996 1996 1996 1996 1996 1997 1997 1997 1998 1999 1999 2001 2002 2002 2003 2003 2004 2005 2006 2007 2008 2008 2010 2010 2012 2012 2013 2015 2015 2017 2019 2019 2022 2025 2029 2031 2032 2035 2039 2042 2046 2048 2048 2049 2050 2053 2059 2064 2070 2070 2070 2062 0 0 0 0 0 0 0 0 0 0 0 0 0 0 0 0 0 0 0 0 0 0 0 0 0 0 0 0 0 0 0 0 0 0 0 0 0 0 0 0 0 0 0 0 0 0 0 0 0 0 0 0 0 0 0 0 0 0 0 0 0 0 0 0 0 0 0 0 0 0 0 0 0 0 0 0 0 0 0 0 0 0
0 0 0 0 0 0 0 0 0 0 0 0 0 0 0 0 0 0 0 0 0 0 0 0 0 0 0 0 0 0 0 0 0 0 0 0 0 0 0 0 0 0 0 0 0 2514 2529 2537 2539 2539 2539 2513 2508 0 0 0 0 0 2516 2586 2663 2663 2666 2671 2671 2684 2684 2692 2692 2685 2683 2685 2685 2754 2754 2754 2709 2701 2696 2692 2692 2692 2686 2686 2686 2704 2748 2783 2895 3079 3229 3525 3663 3708 3717 3736 3738 3768 3768 3768 3760 3759 3759 3759 3761 3761 3761 3763 3763 3763 3767 3773 3773 3773 3767 3762 3762 3760 3754 3707 3592 3395 2916 0 0 0 0 0 0 0 0 2393 2398 2405 2405 0 0 0 0 0 0 0 0 0 0 0 0 0 0 0 0 0 0 0 0 0 0 0 0 0 0 0 0 0 0 0 0 0 0 0 0 0 0 0 0 0 0 0 0 0 0 0 0 0 0 0 0 0 0 0 0 0 0 0 0 0 0 0 0 0 0 0 0 0 0 0 0 0 0 0 0 0 0 0 0 0 0 0 0 0 0 0 0 0 0 0 0 0 0 0 0 0 0 2757 3208 3494 3609 3650 3658 3658 3658 3631 3583 3449 3391 3391 3391 3574 3574 3574 3572 3541 3513 3385 3385 3385 3397 3510 3510 3510 3502 3489 3484 3484 3478 3478 3478 3502 3502 3502 3499 3499 3498 3498 3498 3478 3440 3431 3425 3421 3421 3397 3379 3368 3339 3334 3334 3334 3355 3371 3386 3386 3386 3366 3321 3270 3238 3238 3238 3250 3280 3280 3280 3122 2770 2536 0 2415 2400 2374 2351 2337 2314 2300 2289 2275 2260 2252 2248 2239 2232 2227 2223 2220 2215 2211 2207 2202 2198 2194 2189 2186 2182 2179 2177 2173 2169 2165 2162 2159 2155 2153 2151 2148 2145 2142 2139 2136 2134 2131 2129 2127 2126 2124 2121 2119 2116 2114 2112 2111 2109 2108 2105 2103 2100 2098 2096 2093 2091 2088 2086 2085 2083 2081 2078 2076 2075 2073 2071 2070 2068 2065 2063 2062 2060 2058 2055 2052 2050 2047 2046 2044 2041 2039 2038 2036 2035 2033 2031 2028 2026 2024 2022 2020 2019 2018 2016 2014 2014 2011 2009 2007 2006 2004 2003 2001 2000 2000 1999 1998 1997 1996 1995 1994 1993 1992 1991 1990 1989 1989 1989 1989 1989 1988 1988 1988 1989 1990 1990 1991 1992 1992 1992 1992 1992 1992 1992 1992 1992 1991 1991 1991 1991 1991 1991 1991 1991 1990 1990 1990 1990 1990 1990 1990 1990 1990 1989 1989 1989 1989 1989 1989 1989 1989 1989 1988 1988 1988 1987 1986 1985 1985 1985 1984 1984 1984 1985 1985 1985 1985 1986 1987 1987 1988 1988 1989 1989 1990 1990 1991 1991 1992 1993 1993 1993 1995 1995 1995 1995 1995 1995 1995 1996 1996 1998 1998 1998 1999 2001 2001 2002 2002 2003 2004 2005 2006 2006 2007 2008 2009 2011 2011 2013 2014 2015 2017 2018 2019 2022 2024 2027 2029 2031 2032 2038 2042 2046 2048 2048 2049 2050 2053 2059 2062 2068 2068 2068 2062 2055 0 0 0 0 0 0 0 0 0 0 0 0 0 0 0 0 0 0 0 0 0 0 0 0 0 0 0 0 0 0 0 0 0 0 0 0 0 0 0 0 0 0 0 0 0 0 0 0 0 0 0 0 0 0 0 0 0 0 0 0 0 0 0 0 0 0 0 0 0 0 0 0 0 0 0 0 0 0 0 0 0
0 0 0 0 0 0 0 0 0 0 0 0 0 0 0 0 0 0 0 0 0 0 0 0 0 0 0 0 0 0 0 0 0 0 0 0 0 0 0 0 0 0 0 0 2505 2540 2572 2589 2603 2603 2603 2593 2590 2579 2570 2561 2517 2517 2517 2666 2712 2737 2743 2754 2757 2763 2765 2771 2794 2848 2857 2874 2876 2876 2857 2808 2770 2749 2747 2731 2720 2689 2666 2666 2666 2682 2719 2776 2862 3039 3202 3515 3645 3695 3712 3728 3731 3751 3751 3751 3751 3751 3750 3751 3751 3751 3751 3751 3751 3751 3753 3760 3760 3760 3746 3729 3716 3714 3706 3653 3592 3395 2943 0 0 0 0 0 0 0 2357 2389 2398 2398 2398 2378 2343 2308 0 0 2253 0 0 0 0 0 0 0 0 0 0 0 0 0 0 0 0 0 0 0 0 0 0 0 0 0 0 0 0 0 0 0 0 0 0 0 0 0 0 0 0 0 0 0 0 0 0 0 0 0 0 0 0 0 0 0 0 0 0 0 0 0 0 0 0 0 0 0 0 0 0 0 0 0 0 0 0 0 0 0 0 0 0 0 0 0 0 0 0 0 0 0 0 2657 3096 3419 3592 3641 3648 3648 3648 3631 3563 3359 3359 3359 3410 3574 3598 3598 3598 3587 3513 3385 3385 3385 3395 3502 3502 3502 3491 3484 3484 3483 3474 3474 3474 3478 3488 3488 3499 3499 3498 3498 3498 3478 3440 3431 3425 3421 3421 3397 3379 3368 3339 3339 3339 3345 3367 3429 3429 3429 3425 3377 3321 3269 3240 3240 3240 3253 3282 3282 3282 3099 2754 2534 0 2415 2400 2374 2352 2338 2316 2300 2291 2276 2262 2256 2250 2240 2232 2226 2223 2221 2217 2211 2207 2202 2198 2194 2190 2186 2183 2180 2177 2173 2169 2166 2163 2160 2157 2154 2151 2148 2145 2142 2139 2136 2134 2132 2129 2128 2126 2124 2121 2119 2116 2114 2112 2111 2109 2108 2105 2103 2100 2099 2096 2094 2091 2089 2087 2085 2083 2082 2079 2077 2075 2073 2071 2070 2068 2066 2064 2062 2060 2058 2056 2052 2051 2049 2047 2044 2041 2039 2038 2037 2035 2034 2032 2030 2027 2025 2023 2021 2020 2019 2018 2015 2014 2012 2010 2008 2007 2005 2004 2002 2001 2000 1999 1998 1997 1996 1995 1994 1993 1992 1992 1991 1990 1990 1989 1989 1989 1989 1989 1989 1990 1991 1991 1992 1993 1993 1993 1993 1993 1993 1993 1993 1993 1993 1992 1991 1991 1991 1991 1991 1991 1990 1990 1990 1991 1991 1991 1990 1990 1990 1989 1989 1989 1989 1989 1989 1989 1989 1989 1988 1988 1987 1986 1986 1985 1985 1984 1984 1984 1984 1984 1984 1984 1985 1985 1986 1986 1987 1987 1988 1988 1989 1989 1990 1990 1991 1991 1991 1991 1993 1994 1994 1994 1994 1994 1994 1995 1996 1997 1997 1998 1999 1999 1999 2000 2000 2002 2003 2004 2006 2006 2007 2008 2009 2010 2011 2013 2013 2015 2017 2018 2019 2021 2023 2025 2027 2030 2032 2037 2041 2045 2047 2047 2048 2050 2054 2061 2061 2065 2065 2065 2062 2055 0 0 0 0 0 0 0 0 0 0 0 0 0 0 0 0 0 0 0 0 0 0 0 0 0 0 0 0 0 0 0 0 0 0 0 0 0 0 0 0 0 0 0 0 0 0 0 0 0 0 0 0 0 0 0 0 0 0 0 0 0 0 0 0 0 0 0 0 0 0 0 0 0 0 0 0 0 0 0 0 0
0 0 0 0 0 0 0 0 0 0 0 0 0 0 0 0 0 0 0 0 0 0 0 0 0 0 0 0 0 0 0 0 0 0 0 0 0 0 0 0 0 0 0 0 2542 2577 2599 2615 2618 2641 2642 2642 2641 2632 2621 2608 2608 2608 2637 2675 2727 2812 2812 2812 2814 2806 2794 2806 2814 2856 2857 2874 2876 2876 2857 2808 2770 2749 2747 2731 2720 2689 2666 2666 2666 2675 2719 2760 2831 3029 3166 3478 3596 3681 3701 3715 3718 3732 3743 3745 3745 3745 3743 3743 3733 3733 3733 3736 3736 3736 3713 3706 3693 3674 3652 3628 3608 3608 3605 3602 3592 3395 2979 0 0 0 0 0 0 0 2356 2389 2398 2398 2398 2378 2343 2330 0 0 2285 2285 0 0 0 0 0 0 0 0 0 0 0 0 0 0 0 0 0 0 0 0 0 0 0 0 0 0 0 0 0 0 0 0 0 0 0 0 0 0 0 0 0 0 0 0 0 0 0 0 0 0 0 0 0 0 0 0 0 0 0 0 0 0 0 0 0 0 0 0 0 0 0 0 0 0 0 0 0 0 0 0 0 0 0 0 0 0 0 0 0 0 0 2512 2926 3294 3539 3597 3610 3631 3631 3631 3520 3311 3311 3311 3410 3574 3598 3598 3598 3587 3513 3381 3381 3381 3391 3491 3491 3491 3491 3484 3484 3483 3465 3465 3465 3473 3488 3488 3491 3499 3498 3498 3498 3478 3440 3425 3421 3416 3413 3391 3375 3348 3339 3339 3339 3353 3438 3495 3495 3495 3426 3377 3321 3268 3240 3240 3240 3259 3282 3282 3282 3080 2746 2534 0 2415 2398 2376 2354 2340 2326 2307 2295 2276 2266 2259 2250 2240 2232 2226 2223 2221 2217 2211 2206 2202 2199 2194 2190 2187 2183 2181 2178 2175 2171 2168 2164 2161 2158 2155 2152 2148 2145 2142 2140 2137 2135 2132 2130 2128 2126 2124 2122 2120 2117 2114 2112 2111 2109 2108 2105 2103 2100 2099 2097 2095 2092 2089 2087 2086 2085 2082 2080 2077 2075 2074 2071 2070 2068 2066 2064 2063 2060 2058 2056 2053 2051 2050 2047 2045 2042 2040 2039 2037 2035 2035 2032 2030 2028 2026 2025 2023 2021 2020 2019 2017 2015 2013 2012 2009 2007 2005 2004 2003 2002 2000 1999 1998 1997 1996 1995 1994 1993 1992 1992 1991 1991 1990 1990 1990 1990 1990 1990 1990 1991 1992 1992 1993 1993 1994 1994 1994 1994 1994 1994 1994 1994 1993 1993 1992 1992 1992 1992 1992 1992 1991 1991 1991 1991 1991 1991 1990 1990 1989 1989 1989 1989 1988 1989 1989 1989 1989 1989 1988 1987 1986 1986 1985 1985 1984 1984 1983 1983 1983 1983 1983 1983 1983 1984 1984 1985 1985 1986 1986 1987 1987 1988 1988 1989 1990 1990 1990 1990 1991 1993 1993 1993 1994 1994 1994 1995 1995 1996 1997 1997 1997 1998 1999 2000 2000 2002 2002 2004 2005 2005 2006 2008 2009 2010 2011 2012 2013 2015 2017 2018 2019 2021 2023 2025 2026 2029 2030 2032 2035 2040 2045 2047 2048 2049 2056 2061 2061 2062 2062 2062 2058 2055 0 0 0 0 0 0 0 0 0 0 0 0 0 0 0 0 0 0 0 0 0 0 0 0 0 0 0 0 0 0 0 0 0 0 0 0 0 0 0 0 0 0 0 0 0 0 0 0 0 0 0 0 0 0 0 0 0 0 0 0 0 0 0 0 0 0 0 0 0 0 0 0 0 0 0 0 0 0 0 0 0
