2901 2901 2904 2914 2944 2962 2978 3009 3031 3049 3063 3085 3099 3112 3135 3162 3183 3198 3209 3216 3230 3249 3276 3291 3298 3300 3306 3307 3307 3307 3313 3313 3313 3317 3321 3326 3326 3327 3327 3333 3337 3344 3350 3356 3357 3357 3359 3360 3360 3361 3362 3364 3365 3367 3370 3372 3373 3376 3381 3385 3392 3397 3403 3408 3413 3419 3422 3423 3427 3434 3443 3446 3448 3453 3460 3468 3474 3481 3487 3492 3499 3503 3504 3506 3512 3517 3519 3521 3523 3523 3526 3527 3529 3529 3529 3529 3528 3528 3525 3524 3521 3520 3519 3481 3481 3481 3517 3541 3589 3602 3613 3618 3622 3626 3629 3630 3630 3632 3632 3632 3632 3632 3631 3631 3628 3623 3619 3615 3615 3614 3613 3609 3609 3609 3613 3616 3617 3619 3620 3626 3631 3631 3631 3628 3608 3591 3585 3583 3577 3563 3553 3541 3516 3494 3465 3412 3262 2891 2582 0 0 0 2092 2081 2067 2050 2038 2025 2015 2010 2001 1999 1998 1997 1995 1993 1990 1989 1989 1989 1991 1991 1992 1993 1993 1995 1996 1999 2001 2001 2002 2004 2006 2009 2014 2020 2029 2033 2037 2041 2047 2050 2050 2051 2055 2057 2057 2058 2061 2066 2066 2066 2066 2066 2071 2071 2071 2068 2053 0 0 0 0 0 1791 1778 1777 1776 1776 1774 1774 1774 1774 1774 1776 1781 1783 1787 1787 1788 1790 1792 1795 1798 1799 1799 1799 1800 1802 1803 1804 1806 1806 1808 1809 1810 1811 1811 1811 1811 1811 1810 1810 1809 1809 1809 1809 1808 1806 1806 1806 1806 1808 1810 1814 1816 1816 1818 1827 1835 1839 1844 1851 1856 1858 1860 1862 1864 1867 1869 1871 1871 1871 1874 1875 1877 1879 1880 1880 1880 1882 1883 1885 1893 1901 1905 1909 1910 1911 1911 1911 1911 1911 1910 1908 1904 1901 1899 1898 1896 1894 1893 1891 1889 1887 1885 1881 1875 1867 1855 1842 1834 1824 1814 1808 1803 1798 1796 1794 1790 1788 1787 1786 1783 1779 1774 1768 1764 1761 1758 1757 1754 1752 1750 1747 1745 1744 1742 1741 1740 1739 1737 1734 1731 1728 1727 1724 1722 1720 1719 1718 1716 1715 1712 1711 1710 1707 1704 1702 1700 1699 1697 1695 1694 1693 1692 1692 1691 1691 1691 1691 1692 1692 1692 1693 1693 1694 1695 1695 1696 1698 1701 1703 1705 1707 1710 1713 1714 1716 1719 1721 1723 1726 1729 1730 1732 1737 1745 1753 1758 1760 1761 1776 1795 1807 1819 1837 1846 1852 1862 1869 1876 1880 1884 1884 1884 1879 1873 1871 1866 1866 1861 1853 1853 1853 1853 1853 1854 1854 1855 1857 1859 1861 1861 1863 1866 1867 1867 1868 1869 1870 1872 1873 1876 1877 1878 1879 1879 1879 1881 1882 1884 1887 1888 1892 1894 1895 1904 1907 1911 1918 1919 1920 1921 1922 1923 1923 1926 1930 1932 1933 1936 1943 1946 1949 1957 1958 1959 1960 1961 1963 1965 1968 1968 1968 1975 1975 1978 1978 1981 1990 1990 1990 1995 1985 0 0 0 0 0 0 0 0 0 0 0 0 0 0 0 0 0 0 0 0 0 0 0 0 0 0 0 0 0 0 0 0 0 0 0 0 0 0 0 0 0 0 0 0 0 0 0 0 0 0 0 0 0 0 0 0 0 0 0 0 0 0 0 0 0 0 0 0 0 0 0 0 0 0 0 0 0 0 0 0 0 0 0 0 0 0 0 0 0 0 0 0 0 0 0 0 0 0 0 0 0 0 0 0 0 0 0 0 0 0 0 0 0 0 0 0 0 0 0 0 0 0 0 0 0
2866 2866 2888 2914 2944 2962 2978 3009 3033 3050 3067 3085 3109 3120 3135 3159 3181 3199 3209 3216 3230 3249 3276 3291 3298 3299 3303 3306 3313 3313 3316 3316 3317 3320 3325 3326 3327 3327 3329 3337 3337 3344 3350 3356 3360 3363 3367 3368 3369 3370 3370 3370 3370 3370 3370 3374 3378 3380 3382 3385 3392 3397 3403 3408 3415 3419 3422 3423 3427 3431 3436 3442 3448 3453 3460 3468 3472 3477 3485 3492 3497 3499 3503 3506 3512 3517 3519 3521 3523 3523 3524 3526 3527 3529 3529 3529 3528 3526 3525 3524 3524 3520 3518 3481 3481 3481 3516 3529 3589 3602 3609 3617 3621 3623 3626 3627 3628 3629 3629 3629 3629 3629 3629 3628 3627 3623 3619 3615 3614 3612 3610 3610 3610 3610 3618 3621 3621 3624 3624 3626 3631 3631 3631 3628 3608 3591 3578 3577 3574 3563 3549 3534 3516 3494 3465 3391 3238 2884 2530 0 0 2116 2092 2081 2063 2042 2025 2012 2003 1998 1997 1994 1992 1990 1989 1989 1986 1985 1985 1985 1987 1989 1989 1989 1990 1991 1993 1995 1995 1996 1998 1999 2002 2006 2010 2013 2016 2018 2021 2028 2040 2048 2048 2049 2055 2055 2056 2057 2059 2062 2062 2062 2062 2062 2061 2061 2061 0 0 0 0 0 1793 1780 1768 1768 1768 1768 1768 1769 1769 1770 1770 1771 1771 1774 1778 1781 1782 1784 1785 1789 1792 1795 1795 1797 1797 1798 1799 1801 1802 1803 1804 1806 1807 1808 1810 1810 1810 1810 1810 1810 1810 1809 1809 1809 1809 1807 1804 1804 1804 1805 1807 1809 1813 1814 1816 1818 1827 1835 1838 1841 1846 1850 1853 1857 1861 1862 1864 1865 1866 1867 1869 1870 1873 1874 1876 1878 1878 1878 1879 1879 1883 1885 1894 1899 1901 1905 1906 1908 1909 1909 1909 1908 1906 1903 1900 1898 1897 1896 1894 1893 1891 1889 1888 1885 1881 1875 1864 1851 1840 1830 1821 1813 1808 1805 1798 1797 1794 1791 1788 1787 1787 1784 1780 1775 1769 1765 1761 1759 1758 1754 1752 1751 1748 1746 1744 1743 1742 1741 1739 1737 1734 1732 1730 1728 1725 1724 1722 1721 1719 1718 1717 1715 1714 1712 1710 1708 1705 1703 1702 1699 1697 1695 1694 1693 1693 1693 1693 1692 1692 1692 1692 1693 1693 1694 1694 1695 1696 1698 1700 1702 1705 1707 1708 1711 1713 1716 1718 1721 1724 1727 1730 1731 1731 1735 1741 1746 1753 1758 1765 1776 1792 1808 1823 1838 1852 1861 1870 1876 1878 1884 1894 1896 1896 1896 1893 1886 1878 1871 1869 1864 1857 1857 1857 1858 1858 1858 1858 1860 1861 1862 1863 1865 1867 1868 1870 1871 1872 1873 1875 1876 1878 1880 1882 1883 1884 1884 1884 1884 1887 1889 1894 1895 1897 1897 1900 1908 1909 1915 1921 1922 1923 1924 1926 1926 1926 1930 1935 1935 1936 1940 1943 1947 1956 1964 1966 1968 1969 1971 1971 1971 1971 1971 1971 1975 1978 1978 1978 1988 1990 1990 0 0 0 0 0 0 0 0 0 0 0 0 0 0 0 0 0 0 0 0 0 0 0 0 0 0 0 0 0 0 0 0 0 0 0 0 0 0 0 0 0 0 0 0 0 0 0 0 0 0 0 0 0 0 0 0 0 0 0 0 0 0 0 0 0 0 0 0 0 0 0 0 0 0 0 0 0 0 0 0 0 0 0 0 0 0 0 0 0 0 0 0 0 0 0 0 0 0 0 0 0 0 0 0 0 0 0 0 0 0 0 0 0 0 0 0 0 0 0 0 0 0 0 0 0 0 0 0
2850 2850 2883 2914 2953 2962 2998 3023 3034 3051 3067 3085 3109 3120 3135 3159 3181 3198 3206 3215 3230 3249 3276 3288 3298 3299 3299 3306 3316 3317 3318 3318 3322 3322 3325 3327 3331 3332 3337 3343 3348 3350 3350 3357 3362 3363 3367 3369 3370 3373 3373 3373 3372 3372 3372 3375 3380 3383 3383 3385 3392 3397 3404 3410 3415 3419 3420 3422 3425 3429 3432 3438 3447 3453 3460 3468 3472 3476 3480 3485 3491 3499 3503 3505 3508 3512 3513 3516 3520 3523 3523 3525 3527 3529 3529 3529 3528 3524 3524 3521 3521 3520 3516 3481 3481 3481 3516 3529 3589 3602 3609 3617 3620 3620 3620 3624 3626 3626 3626 3626 3627 3627 3626 3626 3625 3623 3618 3614 3613 3611 3609 3609 3609 3611 3622 3622 3622 3628 3628 3628 3631 3633 3633 3633 3610 3591 3574 3563 3558 3557 3544 3519 3505 3494 3465 3381 3237 2853 2520 0 0 2109 2089 2077 2051 2031 2013 1998 1997 1995 1992 1991 1989 1987 1983 1981 1979 1979 1979 1982 1984 1986 1986 1986 1986 1987 1990 1991 1992 1992 1993 1996 1999 2004 2007 2010 2011 2012 2015 2018 2027 2034 2039 2046 2049 2051 2053 2053 2053 2051 2051 2051 2050 2050 0 0 0 0 0 0 0 1793 1776 1770 1765 1763 1763 1763 1763 1763 1765 1765 1767 1767 1768 1770 1774 1775 1777 1777 1780 1784 1789 1792 1793 1794 1794 1795 1796 1797 1800 1801 1803 1803 1805 1807 1807 1808 1808 1809 1809 1809 1808 1809 1809 1808 1808 1804 1804 1804 1804 1804 1807 1808 1811 1811 1814 1818 1824 1834 1836 1839 1843 1846 1849 1853 1858 1859 1860 1861 1862 1864 1865 1867 1869 1872 1873 1875 1876 1876 1876 1876 1878 1880 1883 1890 1895 1896 1904 1905 1907 1907 1907 1907 1905 1902 1899 1898 1897 1895 1894 1892 1891 1890 1888 1885 1881 1875 1860 1847 1836 1828 1821 1813 1808 1805 1798 1797 1795 1793 1792 1788 1786 1784 1781 1776 1770 1765 1761 1759 1758 1756 1753 1751 1750 1747 1745 1744 1742 1742 1741 1739 1735 1733 1731 1729 1727 1726 1725 1724 1722 1721 1720 1719 1716 1714 1712 1711 1709 1706 1704 1702 1698 1696 1695 1694 1694 1694 1694 1694 1694 1694 1694 1694 1694 1694 1695 1696 1698 1699 1701 1704 1707 1709 1710 1712 1713 1716 1720 1724 1728 1731 1734 1735 1735 1740 1744 1750 1761 1768 1776 1788 1806 1826 1842 1854 1870 1887 1889 1892 1893 1901 1905 1907 1907 1907 1905 1898 1889 1876 1873 1867 1866 1864 1864 1864 1864 1863 1863 1863 1865 1866 1867 1868 1869 1871 1873 1874 1876 1876 1877 1880 1881 1884 1886 1887 1888 1888 1888 1891 1895 1896 1898 1900 1901 1901 1909 1911 1913 1917 1921 1924 1925 1928 1929 1933 1938 1938 1939 1941 1944 1944 1947 1952 1958 1967 1967 1968 1969 1972 1972 1975 1982 1982 1982 1981 1977 1977 1977 1984 1984 1984 0 0 0 0 0 0 0 0 0 0 0 0 0 0 0 0 0 0 0 0 0 0 0 0 0 0 0 0 0 0 0 0 0 0 0 0 0 0 0 0 0 0 0 0 0 0 0 0 0 0 0 0 0 0 0 0 0 0 0 0 0 0 0 0 0 0 0 0 0 0 0 0 0 0 0 0 0 0 0 0 0 0 0 0 0 0 0 0 0 0 0 0 0 0 0 0 0 0 0 0 0 0 0 0 0 0 0 0 0 0 0 0 0 0 0 0 0 0 0 0 0 0 0 0 0 0 0 0
2850 2850 2883 2923 2962 2965 2998 3024 3034 3050 3063 3084 3109 3120 3132 3157 3180 3194 3205 3215 3230 3249 3276 3284 3284 3286 3294 3295 3316 3317 3317 3318 3321 3321 3325 3334 3337 3337 3345 3357 3359 3360 3360 3361 3362 3363 3367 3370 3371 3374 3374 3374 3374 3374 3374 3375 3380 3384 3385 3389 3395 3399 3404 3410 3415 3418 3420 3422 3425 3428 3432 3437 3447 3455 3463 3467 3469 3476 3477 3481 3488 3496 3502 3502 3503 3505 3505 3510 3516 3521 3523 3523 3525 3527 3527 3527 3525 3523 3520 3520 3520 3517 3514 3485 3485 3485 3516 3529 3593 3604 3609 3616 3618 3618 3618 3622 3624 3625 3625 3625 3625 3625 3624 3624 3622 3620 3617 3614 3612 3608 3608 3608 3608 3611 3622 3625 3625 3628 3628 3628 3631 3633 3633 3633 3614 3591 3574 3557 3556 3553 3543 3519 3496 3475 3441 3370 3234 2839 2514 0 0 2109 2085 2064 2043 2021 2002 1994 1994 1994 1990 1989 1986 1981 1977 1974 1974 1974 1976 1978 1980 1983 1984 1984 1984 1986 1986 1987 1989 1989 1990 1992 1995 2001 2005 2007 2009 2010 2012 2016 2019 2021 2027 2032 2040 2046 2046 2046 2046 2042 2041 2040 0 0 0 0 0 0 0 1793 1789 1764 1762 1761 1759 1759 1760 1760 1760 1760 1761 1762 1762 1763 1765 1768 1769 1774 1776 1777 1778 1780 1784 1789 1791 1791 1791 1791 1793 1796 1797 1798 1800 1802 1802 1804 1805 1805 1807 1808 1808 1808 1808 1807 1807 1806 1806 1804 1803 1803 1803 1803 1806 1808 1811 1812 1812 1818 1825 1834 1836 1839 1843 1845 1849 1852 1854 1855 1856 1857 1859 1862 1863 1865 1867 1869 1871 1873 1873 1874 1874 1874 1875 1878 1879 1884 1889 1894 1899 1903 1906 1906 1906 1905 1904 1901 1898 1897 1897 1895 1893 1892 1891 1890 1888 1885 1881 1875 1860 1845 1836 1828 1820 1813 1808 1805 1800 1798 1796 1794 1792 1789 1786 1784 1781 1777 1770 1766 1762 1759 1758 1756 1754 1751 1750 1748 1746 1745 1743 1743 1742 1739 1737 1735 1731 1730 1728 1727 1726 1726 1724 1724 1723 1721 1719 1719 1716 1714 1712 1710 1707 1704 1700 1697 1697 1697 1696 1696 1695 1695 1695 1695 1695 1695 1695 1695 1697 1698 1699 1701 1703 1706 1709 1711 1712 1713 1716 1720 1724 1727 1731 1736 1738 1739 1739 1744 1747 1756 1767 1778 1792 1806 1825 1840 1854 1871 1896 1905 1913 1914 1915 1916 1917 1917 1917 1915 1909 1902 1893 1887 1877 1871 1870 1867 1867 1867 1867 1867 1868 1868 1869 1870 1871 1871 1874 1874 1877 1878 1879 1881 1881 1883 1885 1887 1890 1890 1890 1891 1891 1895 1899 1900 1902 1904 1905 1905 1913 1914 1916 1919 1921 1928 1930 1933 1938 1941 1941 1941 1941 1947 1947 1950 1953 1953 1958 1968 1969 1970 1972 1972 1977 1981 1982 1982 1982 1981 1976 0 0 0 0 0 0 0 0 0 0 0 0 0 0 0 0 0 0 0 0 0 0 0 0 0 0 0 0 0 0 0 0 0 0 0 0 0 0 0 0 0 0 0 0 0 0 0 0 0 0 0 0 0 0 0 0 0 0 0 0 0 0 0 0 0 0 0 0 0 0 0 0 0 0 0 0 0 0 0 0 0 0 0 0 0 0 0 0 0 0 0 0 0 0 0 0 0 0 0 0 0 0 0 0 0 0 0 0 0 0 0 0 0 0 0 0 0 0 0 0 0 0 0 0 0 0 0 0 0 0 0 0 0
2850 2850 2883 2927 2962 2965 2998 3024 3033 3049 3051 3061 3064 3084 3117 3156 3176 3190 3197 3207 3222 3248 3274 3277 3280 3280 3280 3289 3300 3312 3312 3317 3321 3321 3337 3339 3340 3343 3351 3357 3361 3361 3361 3362 3363 3363 3368 3370 3372 3374 3375 3375 3376 3375 3376 3376 3381 3385 3386 3390 3395 3399 3404 3410 3416 3418 3420 3422 3425 3428 3432 3437 3447 3455 3463 3467 3469 3473 3473 3477 3484 3493 3499 3500 3500 3500 3500 3504 3510 3516 3518 3520 3521 3522 3522 3522 3521 3520 3515 3515 3515 3513 3513 3496 3495 3495 3495 3539 3597 3608 3610 3614 3614 3615 3616 3620 3621 3624 3624 3624 3624 3623 3623 3623 3622 3620 3617 3614 3612 3608 3605 3605 3605 3613 3623 3630 3631 3631 3631 3631 3631 3633 3633 3633 3614 3591 3571 3557 3553 3551 3540 3515 3492 3467 3434 3362 3214 2812 0 0 0 2108 2069 2038 2028 2013 1997 1993 1993 1992 1990 1985 1981 1977 1974 1971 1971 1971 1973 1975 1978 1979 1980 1981 1982 1983 1984 1986 1987 1987 1988 1988 1989 1992 1998 2002 2003 2007 2010 2014 2019 2020 2021 2021 2021 2021 2021 2015 2007 0 0 0 0 0 0 0 0 0 1769 1764 1762 1756 1755 1755 1755 1756 1757 1757 1758 1758 1758 1759 1759 1761 1763 1765 1768 1771 1773 1775 1777 1780 1782 1786 1786 1788 1788 1789 1790 1793 1795 1797 1799 1800 1800 1802 1803 1805 1806 1807 1807 1807 1806 1806 1806 1806 1806 1804 1801 1801 1801 1802 1803 1805 1806 1807 1812 1818 1825 1830 1832 1834 1835 1838 1842 1847 1850 1851 1853 1855 1858 1858 1860 1862 1864 1866 1868 1870 1871 1871 1872 1872 1873 1875 1878 1882 1884 1890 1896 1901 1903 1903 1903 1903 1902 1900 1897 1896 1895 1894 1893 1891 1890 1889 1888 1885 1881 1875 1860 1844 1836 1827 1819 1813 1810 1805 1801 1800 1797 1796 1794 1789 1786 1784 1782 1777 1771 1766 1762 1759 1758 1756 1754 1753 1751 1749 1747 1747 1746 1745 1744 1740 1737 1735 1733 1732 1730 1729 1729 1728 1727 1726 1724 1724 1722 1721 1719 1716 1715 1713 1710 1706 1704 1701 1700 1700 1699 1697 1697 1696 1696 1696 1696 1696 1696 1697 1697 1699 1701 1703 1706 1708 1710 1713 1715 1716 1718 1723 1728 1730 1733 1737 1739 1741 1747 1754 1762 1768 1776 1793 1813 1833 1842 1851 1865 1906 1915 1916 1918 1921 1922 1922 1922 1922 1921 1920 1914 1906 1899 1889 1879 1873 1872 1871 1871 1871 1871 1871 1872 1872 1873 1873 1875 1876 1877 1878 1880 1882 1884 1885 1886 1887 1888 1890 1893 1893 1893 1894 1894 1896 1900 1904 1910 1910 1911 1912 1917 1920 1922 1922 1924 1928 1930 1933 1939 1943 1944 1947 1951 1956 1957 1961 1966 1968 1969 1970 1975 1975 1977 1977 1977 1981 1982 1982 0 0 0 0 0 0 0 0 0 0 0 0 0 0 0 0 0 0 0 0 0 0 0 0 0 0 0 0 0 0 0 0 0 0 0 0 0 0 0 0 0 0 0 0 0 0 0 0 0 0 0 0 0 0 0 0 0 0 0 0 0 0 0 0 0 0 0 0 0 0 0 0 0 0 0 0 0 0 0 0 0 0 0 0 0 0 0 0 0 0 0 0 0 0 0 0 0 0 0 0 0 0 0 0 0 0 0 0 0 0 0 0 0 0 0 0 0 0 0 0 0 0 0 0 0 0 0 0 0 0 0 0 0 0 0 0
2859 2859 2885 2928 2962 2965 2993 3024 3027 3031 3038 3044 3047 3084 3115 3145 3166 3168 3172 3173 3197 3229 3246 3258 3264 3267 3276 3285 3296 3298 3300 3300 3305 3321 3339 3343 3343 3348 3352 3360 3362 3364 3364 3364 3364 3364 3368 3370 3372 3375 3376 3376 3376 3376 3377 3377 3382 3385 3387 3390 3395 3399 3406 3411 3416 3418 3420 3423 3425 3429 3432 3438 3447 3455 3463 3467 3468 3469 3469 3472 3480 3489 3495 3498 3499 3499 3500 3501 3505 3509 3512 3513 3514 3515 3515 3515 3515 3515 3515 3515 3515 3511 3509 3497 3497 3497 3499 3542 3597 3608 3611 3614 3614 3615 3616 3620 3621 3622 3623 3623 3623 3623 3623 3622 3622 3620 3617 3617 3611 3608 3605 3605 3605 3613 3623 3632 3633 3634 3634 3634 3635 3634 3633 3632 3614 3591 3571 3558 3551 3546 3537 3511 3490 3467 3431 3358 3188 2799 0 0 0 2101 2056 2032 2019 2007 1994 1989 1988 1988 1986 1981 1976 1974 1972 1969 1969 1969 1970 1974 1976 1977 1977 1978 1979 1980 1981 1983 1984 1984 1984 1985 1988 1991 1995 1996 1996 1996 2000 2005 2013 2013 2013 2006 2004 1998 1992 1984 0 0 0 0 0 0 0 0 1761 1754 1750 1748 1745 1745 1745 1745 1748 1751 1752 1752 1752 1752 1752 1754 1754 1756 1761 1762 1765 1766 1767 1768 1768 1770 1778 1781 1782 1782 1783 1784 1786 1790 1793 1795 1797 1797 1799 1799 1801 1803 1805 1805 1805 1805 1806 1805 1806 1806 1805 1803 1798 1798 1798 1800 1800 1802 1803 1803 1812 1818 1823 1828 1832 1832 1834 1836 1838 1843 1845 1848 1850 1852 1854 1856 1857 1859 1861 1863 1864 1865 1867 1867 1867 1870 1871 1872 1874 1877 1879 1885 1891 1898 1900 1900 1900 1900 1900 1898 1895 1895 1895 1893 1892 1891 1889 1887 1886 1885 1881 1875 1860 1844 1835 1826 1819 1814 1810 1805 1802 1801 1799 1798 1796 1790 1786 1785 1782 1777 1771 1767 1764 1762 1759 1757 1756 1754 1754 1753 1750 1748 1747 1746 1744 1740 1739 1736 1734 1733 1732 1731 1730 1730 1730 1729 1728 1727 1725 1724 1723 1721 1719 1717 1713 1710 1708 1707 1705 1703 1702 1700 1700 1699 1699 1698 1698 1699 1699 1699 1700 1702 1703 1705 1708 1710 1712 1716 1717 1720 1723 1727 1730 1731 1734 1737 1739 1747 1756 1766 1771 1777 1788 1811 1835 1843 1853 1860 1895 1911 1916 1916 1918 1921 1924 1924 1924 1924 1924 1923 1919 1913 1904 1893 1882 1879 1878 1876 1876 1876 1875 1875 1875 1875 1876 1877 1879 1880 1883 1883 1886 1890 1891 1892 1892 1892 1892 1894 1896 1897 1898 1898 1898 1899 1904 1912 1921 1922 1922 1924 1923 1923 1924 1924 1924 1928 1931 1934 1941 1952 1965 1965 1965 1965 1965 1967 1969 1969 1972 1970 1969 1970 1972 1970 1969 0 0 0 0 0 0 0 0 0 0 0 0 0 0 0 0 0 0 0 0 0 0 0 0 0 0 0 0 0 0 0 0 0 0 0 0 0 0 0 0 0 0 0 0 0 0 0 0 0 0 0 0 0 0 0 0 0 0 0 0 0 0 0 0 0 0 0 0 0 0 0 0 0 0 0 0 0 0 0 0 0 0 0 0 0 0 0 0 0 0 0 0 0 0 0 0 0 0 0 0 0 0 0 0 0 0 0 0 0 0 0 0 0 0 0 0 0 0 0 0 0 0 0 0 0 0 0 0 0 0 0 0 0 0 0 0 0 0 0
2876 2876 2897 2933 2962 2964 2978 2983 2993 2994 3036 3044 3047 3064 3089 3126 3145 3145 3153 3168 3196 3203 3218 3228 3241 3250 3264 3284 3296 3298 3300 3300 3305 3323 3341 3343 3343 3349 3355 3362 3365 3365 3369 3369 3369 3369 3369 3370 3372 3376 3377 3377 3377 3377 3377 3379 3382 3385 3388 3392 3395 3399 3406 3411 3416 3419 3420 3424 3426 3430 3436 3438 3442 3449 3457 3461 3463 3468 3469 3472 3480 3485 3491 3495 3496 3497 3497 3497 3499 3503 3505 3507 3507 3507 3507 3507 3512 3512 3512 3514 3514 3510 3509 3501 3501 3501 3506 3542 3597 3610 3614 3614 3615 3615 3616 3620 3621 3622 3622 3622 3622 3622 3622 3622 3621 3620 3617 3617 3611 3608 3605 3605 3605 3613 3623 3633 3634 3635 3636 3636 3636 3633 3627 3614 3599 3583 3571 3558 3551 3544 3531 3511 3488 3467 3431 3354 3176 2784 0 0 0 2085 2050 2025 2011 2000 1992 1986 1981 1979 1978 1975 1973 1970 1969 1967 1967 1967 1969 1972 1973 1973 1974 1975 1975 1976 1979 1980 1981 1981 1982 1984 1988 1991 1993 1993 1994 1994 1994 1995 1995 1995 1994 1981 0 0 0 0 0 0 0 0 0 0 1746 1743 1741 1740 1740 1739 1739 1739 1740 1742 1744 1746 1748 1748 1748 1747 1747 1747 1747 1751 1756 1758 1758 1758 1757 1757 1757 1764 1768 1773 1777 1778 1779 1780 1783 1785 1788 1792 1794 1794 1796 1797 1800 1801 1802 1803 1803 1804 1804 1804 1805 1805 1804 1803 1798 1798 1798 1799 1800 1801 1802 1803 1811 1817 1819 1824 1830 1832 1832 1835 1837 1840 1843 1845 1847 1848 1850 1852 1854 1855 1857 1859 1861 1863 1864 1864 1865 1867 1868 1870 1872 1873 1876 1879 1884 1890 1896 1897 1897 1897 1897 1896 1895 1894 1893 1892 1890 1888 1886 1886 1885 1884 1881 1874 1859 1845 1835 1826 1818 1814 1810 1806 1804 1802 1801 1800 1798 1793 1789 1786 1782 1777 1772 1769 1766 1764 1762 1760 1758 1757 1755 1754 1752 1751 1749 1747 1744 1741 1739 1736 1735 1735 1735 1733 1732 1732 1732 1732 1732 1731 1729 1728 1725 1724 1722 1720 1717 1715 1713 1711 1710 1707 1706 1704 1703 1702 1701 1701 1701 1701 1701 1701 1703 1705 1706 1708 1710 1713 1715 1718 1721 1723 1727 1729 1731 1733 1738 1742 1748 1757 1768 1774 1777 1785 1805 1825 1835 1850 1858 1873 1898 1911 1916 1917 1920 1923 1926 1926 1926 1925 1925 1923 1923 1918 1907 1896 1887 1887 1885 1883 1883 1881 1880 1879 1879 1879 1881 1883 1886 1888 1891 1893 1893 1896 1897 1898 1898 1899 1899 1899 1900 1901 1903 1905 1907 1907 1911 1915 1923 1928 1929 1931 1932 1933 1933 1935 1935 1942 1944 1953 1964 1967 1967 1967 1965 1965 1965 1967 1969 1969 1969 1969 1966 1966 0 0 0 0 0 0 0 0 0 0 0 0 0 0 0 0 0 0 0 0 0 0 0 0 0 0 0 0 0 0 0 0 0 0 0 0 0 0 0 0 0 0 0 0 0 0 0 0 0 0 0 0 0 0 0 0 0 0 0 0 0 0 0 0 0 0 0 0 0 0 0 0 0 0 0 0 0 0 0 0 0 0 0 0 0 0 0 0 0 0 0 0 0 0 0 0 0 0 0 0 0 0 0 0 0 0 0 0 0 0 0 0 0 0 0 0 0 0 0 0 0 0 0 0 0 0 0 0 0 0 0 0 0 0 0 0 0 0 0 0 0 0
2896 2896 2913 2943 2960 2963 2971 2973 2975 2981 3016 3039 3047 3064 3082 3108 3126 3141 3147 3168 3192 3199 3200 3205 3222 3237 3254 3281 3295 3298 3300 3300 3305 3323 3343 3344 3345 3350 3358 3364 3365 3365 3371 3371 3371 3374 3374 3374 3375 3376 3377 3377 3379 3379 3380 3383 3383 3386 3389 3392 3395 3399 3406 3412 3417 3419 3420 3424 3428 3432 3436 3438 3442 3447 3452 3458 3463 3468 3469 3472 3480 3485 3487 3490 3492 3493 3494 3495 3496 3499 3501 3503 3504 3504 3504 3504 3509 3510 3510 3512 3514 3510 3509 3497 3497 3497 3499 3544 3597 3610 3615 3616 3620 3621 3621 3621 3621 3621 3621 3621 3621 3621 3621 3621 3620 3620 3617 3616 3612 3608 3608 3608 3612 3622 3628 3634 3634 3637 3637 3637 3636 3632 3612 3591 3577 3567 3564 3560 3553 3544 3531 3511 3492 3456 3423 3329 3162 2779 0 0 0 2067 2033 2022 2004 1995 1986 1979 1972 1971 1970 1970 1965 1964 1964 1964 1964 1965 1967 1969 1970 1971 1972 1972 1972 1975 1978 1980 1980 1980 1981 1981 1986 1988 1989 1989 1989 1987 1985 1985 1984 1981 0 0 0 0 0 0 0 0 0 1743 1730 1730 1730 1735 1735 1735 1736 1736 1737 1737 1737 1740 1740 1743 1744 1744 1744 1743 1743 1743 1745 1751 1756 1756 1756 1754 1747 1742 1742 1742 1758 1766 1772 1776 1776 1776 1779 1781 1785 1788 1789 1790 1794 1795 1798 1799 1801 1801 1801 1802 1802 1803 1804 1804 1804 1802 1798 1798 1798 1799 1800 1801 1802 1803 1811 1816 1819 1823 1825 1829 1831 1833 1835 1838 1841 1843 1844 1846 1848 1850 1852 1853 1855 1856 1858 1860 1862 1862 1863 1864 1865 1867 1868 1870 1875 1877 1879 1883 1887 1893 1894 1894 1894 1894 1893 1893 1892 1891 1888 1886 1884 1884 1883 1880 1875 1871 1858 1845 1835 1826 1819 1814 1811 1806 1804 1803 1802 1800 1798 1794 1790 1788 1784 1779 1775 1771 1768 1766 1764 1761 1760 1759 1756 1755 1752 1752 1750 1748 1744 1741 1739 1739 1738 1737 1736 1735 1735 1734 1734 1734 1734 1733 1732 1730 1728 1727 1725 1722 1720 1719 1717 1715 1712 1710 1708 1706 1705 1705 1704 1704 1704 1704 1704 1704 1706 1711 1712 1712 1712 1714 1718 1721 1725 1727 1729 1732 1735 1740 1746 1753 1761 1771 1779 1779 1787 1799 1814 1827 1837 1852 1867 1888 1901 1911 1915 1917 1920 1923 1927 1927 1927 1925 1925 1925 1923 1918 1909 1900 1891 1889 1888 1887 1887 1884 1883 1883 1883 1883 1885 1887 1890 1893 1896 1900 1900 1900 1904 1904 1904 1904 1904 1904 1906 1906 1907 1907 1908 1910 1912 1918 1924 1931 1936 1942 1948 1948 1953 1955 1956 1963 1963 1964 1966 1967 1967 1967 1965 1965 1965 1967 1967 1967 1957 0 0 0 0 0 0 0 0 0 0 0 0 0 0 0 0 0 0 0 0 0 0 0 0 0 0 0 0 0 0 0 0 0 0 0 0 0 0 0 0 0 0 0 0 0 0 0 0 0 0 0 0 0 0 0 0 0 0 0 0 0 0 0 0 0 0 0 0 0 0 0 0 0 0 0 0 0 0 0 0 0 0 0 0 0 0 0 0 0 0 0 0 0 0 0 0 0 0 0 0 0 0 0 0 0 0 0 0 0 0 0 0 0 0 0 0 0 0 0 0 0 0 0 0 0 0 0 0 0 0 0 0 0 0 0 0 0 0 0 0 0 0 0 0 0
2896 2896 2915 2952 2958 2959 2969 2972 2974 2978 3010 3030 3046 3064 3082 3105 3124 3133 3145 3161 3186 3198 3200 3205 3222 3237 3254 3275 3293 3300 3311 3318 3323 3335 3345 3348 3348 3351 3359 3366 3366 3367 3371 3372 3373 3375 3375 3375 3377 3379 3380 3380 3381 3384 3384 3385 3385 3388 3390 3393 3397 3402 3408 3412 3417 3420 3420 3424 3428 3433 3436 3438 3440 3445 3451 3458 3463 3468 3472 3476 3481 3484 3486 3486 3488 3490 3492 3493 3493 3498 3500 3502 3503 3503 3503 3504 3504 3509 3509 3511 3511 3511 3509 3496 3496 3496 3497 3544 3596 3610 3615 3617 3620 3621 3621 3621 3621 3621 3621 3621 3620 3620 3619 3619 3619 3617 3616 3615 3612 3610 3610 3610 3619 3630 3632 3634 3634 3637 3637 3637 3635 3622 3602 3585 3569 3559 3558 3558 3553 3544 3531 3511 3492 3450 3392 3328 3139 2770 0 0 0 2054 2028 2011 1998 1984 1978 1970 1966 1966 1963 1961 1958 1958 1958 1958 1959 1959 1960 1964 1965 1965 1967 1968 1971 1974 1976 1979 1979 1979 1980 1980 1980 1981 1981 1981 1980 1976 1967 0 0 0 0 0 0 0 0 0 1733 1729 1729 1727 1727 1727 1727 1729 1730 1731 1731 1731 1733 1734 1734 1734 1734 1736 1740 1741 1741 1742 1742 1742 1743 1748 1752 1752 1752 1741 1740 1740 1740 1742 1747 1757 1761 1767 1771 1773 1774 1778 1781 1784 1786 1787 1791 1793 1795 1797 1799 1799 1800 1801 1801 1802 1803 1803 1803 1802 1798 1798 1798 1799 1806 1806 1806 1807 1811 1816 1819 1821 1825 1829 1829 1832 1835 1836 1838 1841 1843 1844 1846 1847 1850 1850 1851 1853 1855 1856 1859 1860 1860 1861 1863 1864 1866 1867 1869 1874 1876 1877 1879 1884 1890 1890 1891 1891 1891 1891 1891 1888 1886 1884 1882 1881 1881 1879 1875 1868 1858 1847 1837 1828 1819 1814 1811 1808 1806 1804 1802 1800 1798 1795 1792 1790 1786 1781 1776 1772 1769 1767 1765 1763 1761 1760 1757 1755 1754 1754 1750 1748 1744 1742 1741 1740 1739 1739 1738 1737 1737 1737 1736 1736 1736 1735 1734 1733 1731 1730 1728 1726 1724 1722 1720 1717 1715 1713 1711 1709 1709 1708 1708 1708 1708 1708 1708 1708 1710 1716 1716 1717 1717 1717 1721 1727 1731 1733 1735 1740 1744 1749 1755 1762 1771 1779 1784 1791 1798 1806 1814 1829 1843 1858 1877 1891 1906 1911 1915 1918 1921 1925 1927 1927 1927 1927 1925 1925 1924 1919 1911 1903 1898 1891 1890 1889 1888 1887 1886 1886 1886 1887 1890 1891 1894 1896 1901 1908 1908 1908 1908 1908 1908 1908 1910 1911 1911 1911 1909 1909 1909 1913 1918 1919 1933 1939 1943 1951 1951 1952 1953 1955 1956 1963 1963 1964 1966 1967 1967 1967 1965 0 0 0 0 0 0 0 0 0 0 0 0 0 0 0 0 0 0 0 0 0 0 0 0 0 0 0 0 0 0 0 0 0 0 0 0 0 0 0 0 0 0 0 0 0 0 0 0 0 0 0 0 0 0 0 0 0 0 0 0 0 0 0 0 0 0 0 0 0 0 0 0 0 0 0 0 0 0 0 0 0 0 0 0 0 0 0 0 0 0 0 0 0 0 0 0 0 0 0 0 0 0 0 0 0 0 0 0 0 0 0 0 0 0 0 0 0 0 0 0 0 0 0 0 0 0 0 0 0 0 0 0 0 0 0 0 0 0 0 0 0 0 0 0 0 0 0 0 0 0 0
2896 2896 2915 2952 2955 2958 2964 2969 2974 2978 2999 3019 3046 3064 3082 3105 3120 3126 3145 3163 3190 3198 3200 3205 3222 3237 3254 3275 3293 3302 3311 3320 3325 3337 3345 3348 3349 3360 3361 3366 3368 3371 3373 3375 3376 3376 3376 3377 3379 3380 3380 3381 3382 3384 3385 3385 3386 3389 3392 3395 3398 3404 3408 3412 3417 3420 3420 3424 3428 3433 3436 3438 3440 3445 3451 3458 3465 3470 3475 3478 3481 3483 3485 3486 3488 3490 3492 3493 3493 3495 3496 3498 3502 3502 3503 3504 3504 3507 3509 3510 3511 3511 3509 3469 3469 3469 3497 3540 3590 3609 3615 3620 3620 3621 3621 3621 3621 3621 3620 3619 3619 3617 3616 3616 3616 3615 3614 3614 3612 3610 3610 3610 3626 3632 3633 3634 3634 3634 3634 3633 3627 3616 3600 3579 3559 3558 3558 3553 3553 3553 3539 3511 3483 3448 3390 3320 3126 2667 0 0 0 2047 2026 2009 1994 1983 1972 1965 1961 1958 1957 1955 1952 1952 1952 1955 1957 1958 1958 1960 1960 1961 1962 1963 1964 1967 1973 1976 1978 1978 1978 1975 1974 1973 1971 1970 1966 1941 0 0 0 0 0 0 0 1733 1722 1719 1719 1719 1719 1720 1721 1721 1721 1726 1726 1728 1729 1731 1732 1732 1732 1732 1732 1733 1736 1738 1738 1738 1739 1739 1741 1741 1741 1730 1730 1730 1733 1735 1738 1742 1747 1749 1760 1760 1764 1768 1769 1772 1777 1779 1782 1785 1787 1789 1791 1794 1796 1797 1799 1799 1801 1802 1802 1802 1802 1800 1798 1798 1798 1800 1806 1806 1807 1808 1811 1816 1818 1820 1824 1827 1829 1831 1833 1836 1837 1839 1841 1843 1844 1845 1846 1849 1850 1851 1852 1854 1855 1856 1858 1859 1860 1862 1863 1865 1865 1869 1871 1872 1875 1879 1882 1885 1886 1888 1888 1888 1888 1887 1884 1881 1880 1880 1879 1877 1874 1864 1858 1849 1840 1830 1821 1816 1813 1810 1807 1804 1802 1801 1799 1796 1793 1790 1786 1783 1778 1774 1771 1769 1766 1765 1763 1761 1759 1758 1756 1755 1753 1748 1745 1744 1742 1741 1741 1740 1740 1739 1739 1739 1739 1739 1738 1737 1737 1735 1734 1732 1730 1728 1727 1724 1722 1719 1717 1715 1713 1712 1712 1712 1712 1712 1712 1711 1711 1711 1714 1717 1719 1722 1723 1723 1728 1732 1735 1739 1744 1749 1754 1755 1762 1776 1785 1789 1798 1803 1806 1811 1820 1830 1858 1878 1892 1902 1907 1911 1914 1918 1924 1926 1927 1928 1928 1928 1926 1925 1924 1919 1913 1905 1902 1894 1892 1892 1891 1890 1890 1890 1890 1891 1895 1902 1908 1910 1913 1913 1913 1913 1912 1912 1912 1912 1915 1915 1915 1914 1911 1911 1911 1914 1922 1937 1942 1943 1946 1951 1951 1952 1953 1955 1956 1963 1963 1963 0 0 0 0 0 0 0 0 0 0 0 0 0 0 0 0 0 0 0 0 0 0 0 0 0 0 0 0 0 0 0 0 0 0 0 0 0 0 0 0 0 0 0 0 0 0 0 0 0 0 0 0 0 0 0 0 0 0 0 0 0 0 0 0 0 0 0 0 0 0 0 0 0 0 0 0 0 0 0 0 0 0 0 0 0 0 0 0 0 0 0 0 0 0 0 0 0 0 0 0 0 0 0 0 0 0 0 0 0 0 0 0 0 0 0 0 0 0 0 0 0 0 0 0 0 0 0 0 0 0 0 0 0 0 0 0 0 0 0 0 0 0 0 0 0 0 0 0 0 0 0 0 0 0 0 0
2897 2897 2916 2952 2955 2958 2963 2969 2975 2981 2996 3009 3037 3064 3082 3103 3119 3126 3145 3163 3192 3199 3202 3217 3234 3248 3256 3276 3298 3309 3311 3320 3329 3341 3349 3351 3357 3360 3364 3366 3367 3367 3374 3376 3376 3377 3377 3379 3381 3381 3381 3383 3383 3386 3386 3387 3389 3390 3393 3397 3400 3405 3408 3412 3417 3420 3423 3427 3429 3433 3437 3439 3440 3445 3451 3459 3465 3470 3475 3478 3481 3483 3483 3484 3487 3490 3491 3491 3492 3492 3495 3498 3500 3501 3504 3504 3505 3507 3509 3510 3510 3510 3509 3434 3434 3434 3489 3540 3590 3609 3615 3619 3619 3619 3619 3619 3620 3620 3620 3619 3618 3617 3616 3615 3614 3614 3614 3613 3612 3611 3611 3611 3628 3632 3633 3633 3633 3633 3632 3627 3626 3606 3594 3573 3556 3556 3556 3553 3553 3553 3539 3511 3482 3433 3372 3309 3104 2618 0 0 0 2037 2014 2002 1993 1981 1967 1959 1955 1953 1952 1951 1948 1948 1948 1953 1956 1956 1957 1957 1957 1956 1953 1953 1953 1957 1960 1963 1966 1966 1966 1966 1966 1966 1957 1940 0 0 0 0 0 0 1743 1725 1713 1713 1713 1715 1716 1716 1716 1716 1716 1716 1719 1722 1724 1727 1728 1729 1730 1730 1730 1730 1732 1732 1734 1736 1736 1736 1736 1736 1735 1733 1731 1728 1728 1728 1731 1735 1738 1742 1746 1748 1750 1755 1762 1765 1768 1769 1772 1775 1779 1782 1784 1786 1789 1791 1792 1794 1796 1797 1798 1800 1800 1800 1799 1798 1796 1796 1798 1801 1805 1806 1807 1808 1811 1816 1818 1820 1823 1826 1828 1831 1831 1833 1835 1837 1838 1840 1842 1843 1844 1846 1847 1849 1851 1852 1853 1855 1856 1858 1858 1860 1861 1862 1864 1866 1867 1871 1872 1875 1877 1881 1884 1887 1887 1887 1887 1885 1883 1880 1879 1879 1878 1876 1868 1862 1858 1851 1846 1836 1825 1819 1815 1811 1808 1805 1802 1801 1800 1796 1793 1790 1787 1783 1778 1775 1773 1771 1769 1766 1766 1763 1761 1760 1759 1757 1755 1750 1747 1746 1744 1743 1741 1741 1741 1741 1741 1741 1741 1741 1740 1740 1739 1738 1737 1735 1733 1732 1729 1727 1724 1722 1718 1716 1716 1716 1716 1715 1715 1715 1715 1715 1716 1717 1717 1720 1726 1728 1729 1732 1734 1737 1740 1746 1752 1759 1763 1766 1780 1791 1796 1805 1813 1817 1820 1828 1838 1850 1874 1896 1900 1904 1907 1911 1913 1918 1924 1926 1927 1928 1928 1928 1928 1927 1924 1920 1914 1906 1902 1897 1895 1895 1895 1895 1895 1900 1901 1902 1905 1910 1915 1918 1919 1919 1919 1919 1914 1914 1914 1918 1919 1919 1919 1918 1914 1914 1914 1927 1945 1945 1945 1948 1948 1945 0 0 0 0 0 0 0 0 0 0 0 0 0 0 0 0 0 0 0 0 0 0 0 0 0 0 0 0 0 0 0 0 0 0 0 0 0 0 0 0 0 0 0 0 0 0 0 0 0 0 0 0 0 0 0 0 0 0 0 0 0 0 0 0 0 0 0 0 0 0 0 0 0 0 0 0 0 0 0 0 0 0 0 0 0 0 0 0 0 0 0 0 0 0 0 0 0 0 0 0 0 0 0 0 0 0 0 0 0 0 0 0 0 0 0 0 0 0 0 0 0 0 0 0 0 0 0 0 0 0 0 0 0 0 0 0 0 0 0 0 0 0 0 0 0 0 0 0 0 0 0 0 0 0 0 0 0 0 0 0 0 0 0 0
2897 2897 2916 2945 2948 2948 2960 2969 2974 2981 2996 3009 3034 3064 3082 3100 3117 3124 3138 3163 3192 3214 3224 3229 3245 3263 3270 3276 3298 3309 3311 3318 3329 3341 3349 3351 3357 3361 3365 3366 3367 3367 3374 3377 3377 3378 3378 3382 3382 3383 3384 3385 3387 3387 3387 3389 3390 3395 3398 3399 3402 3406 3408 3412 3417 3423 3426 3430 3434 3436 3439 3441 3447 3450 3457 3461 3465 3470 3475 3478 3481 3481 3481 3483 3484 3487 3488 3489 3491 3492 3495 3498 3500 3501 3508 3508 3510 3511 3511 3511 3511 3511 3511 3417 3417 3417 3487 3542 3587 3608 3614 3617 3617 3617 3617 3617 3617 3618 3618 3618 3617 3616 3616 3615 3614 3614 3613 3613 3612 3611 3611 3611 3628 3633 3633 3633 3633 3630 3621 3619 3609 3597 3586 3569 3553 3553 3553 3553 3553 3553 3539 3511 3470 3413 3371 3245 2902 0 0 0 0 2021 2002 1995 1986 1973 1959 1952 1952 1951 1949 1949 1945 1945 1945 1949 1951 1953 1953 1953 1953 1952 1952 1952 1952 1952 1955 1957 1960 1960 1960 1951 0 0 0 0 0 0 0 0 0 1722 1714 1710 1710 1710 1709 1709 1710 1710 1712 1712 1715 1716 1717 1722 1723 1724 1725 1726 1727 1728 1729 1730 1731 1732 1733 1734 1734 1734 1733 1731 1731 1730 1729 1728 1728 1728 1729 1733 1738 1742 1745 1745 1745 1746 1751 1759 1765 1767 1768 1771 1775 1780 1782 1783 1785 1787 1789 1791 1792 1792 1793 1797 1797 1797 1798 1797 1797 1797 1798 1802 1805 1805 1806 1808 1811 1816 1818 1820 1822 1825 1826 1828 1830 1832 1834 1835 1836 1837 1839 1840 1842 1844 1845 1847 1848 1850 1852 1853 1854 1855 1856 1857 1858 1860 1862 1864 1865 1867 1869 1870 1870 1872 1876 1880 1883 1883 1883 1881 1880 1879 1874 1871 1871 1869 1866 1862 1856 1851 1846 1838 1829 1824 1819 1813 1808 1805 1802 1801 1800 1797 1793 1791 1787 1783 1780 1776 1774 1772 1770 1768 1767 1765 1763 1763 1761 1759 1757 1753 1748 1747 1745 1744 1743 1742 1742 1742 1742 1742 1742 1742 1742 1742 1742 1741 1738 1737 1735 1734 1732 1730 1727 1724 1722 1721 1720 1720 1720 1720 1720 1720 1722 1722 1722 1722 1722 1725 1732 1736 1743 1745 1745 1746 1748 1755 1762 1768 1775 1786 1795 1800 1811 1820 1824 1831 1848 1863 1870 1876 1887 1898 1900 1904 1907 1909 1913 1918 1924 1926 1927 1928 1928 1928 1928 1927 1924 1920 1916 1910 1904 1903 1903 1903 1903 1905 1908 1910 1910 1912 1913 1917 1922 1926 1928 1928 1928 1928 1928 1927 1925 1925 1925 1926 1930 1930 1930 1929 1929 1929 1948 1948 1948 1942 0 0 0 0 0 0 0 0 0 0 0 0 0 0 0 0 0 0 0 0 0 0 0 0 0 0 0 0 0 0 0 0 0 0 0 0 0 0 0 0 0 0 0 0 0 0 0 0 0 0 0 0 0 0 0 0 0 0 0 0 0 0 0 0 0 0 0 0 0 0 0 0 0 0 0 0 0 0 0 0 0 0 0 0 0 0 0 0 0 0 0 0 0 0 0 0 0 0 0 0 0 0 0 0 0 0 0 0 0 0 0 0 0 0 0 0 0 0 0 0 0 0 0 0 0 0 0 0 0 0 0 0 0 0 0 0 0 0 0 0 0 0 0 0 0 0 0 0 0 0 0 0 0 0 0 0 0 0 0 0 0 0 0 0 0 0
2911 2911 2929 2943 2945 2948 2958 2972 2983 2984 2996 3009 3034 3064 3085 3103 3119 3124 3138 3163 3193 3224 3235 3242 3254 3266 3271 3285 3301 3310 3313 3320 3330 3344 3350 3352 3359 3361 3366 3366 3367 3367 3374 3378 3380 3381 3384 3386 3387 3387 3388 3388 3388 3390 3390 3391 3395 3400 3403 3404 3405 3406 3408 3412 3418 3423 3426 3430 3434 3436 3439 3442 3447 3451 3457 3461 3465 3468 3471 3475 3477 3478 3480 3481 3482 3486 3488 3489 3491 3492 3495 3498 3500 3502 3509 3512 3512 3512 3512 3512 3512 3512 3512 3412 3412 3412 3465 3540 3584 3607 3614 3616 3616 3616 3615 3615 3615 3616 3617 3617 3617 3616 3615 3614 3614 3614 3613 3613 3611 3611 3611 3611 3628 3633 3633 3633 3633 3630 3621 3613 3604 3590 3580 3554 3541 3541 3541 3541 3541 3538 3519 3495 3452 3400 3356 3243 2846 0 0 0 2034 2004 1995 1986 1980 1962 1953 1948 1948 1948 1948 1948 1944 1941 1941 1941 1944 1945 1946 1946 1948 1948 1949 1949 1950 1951 1951 1953 1953 1953 1940 1917 0 0 0 0 0 0 1716 1711 1710 1707 1707 1707 1707 1706 1705 1705 1705 1705 1709 1712 1714 1715 1715 1718 1719 1721 1723 1725 1725 1726 1728 1729 1729 1731 1731 1731 1731 1729 1728 1728 1728 1728 1728 1728 1728 1728 1729 1730 1737 1741 1743 1743 1743 1743 1743 1746 1755 1758 1763 1767 1771 1776 1779 1780 1783 1785 1786 1788 1788 1788 1791 1794 1794 1795 1795 1793 1793 1795 1797 1802 1804 1804 1806 1808 1810 1814 1817 1820 1821 1823 1825 1826 1828 1830 1831 1833 1834 1836 1838 1838 1840 1842 1843 1846 1846 1848 1849 1850 1851 1853 1853 1855 1856 1858 1859 1861 1862 1862 1865 1866 1867 1867 1867 1870 1874 1875 1877 1877 1876 1875 1871 1870 1869 1869 1864 1861 1856 1851 1846 1841 1835 1828 1822 1815 1810 1808 1804 1801 1800 1798 1794 1791 1788 1784 1782 1778 1775 1774 1772 1770 1768 1766 1765 1764 1763 1760 1757 1753 1751 1749 1748 1746 1745 1744 1744 1744 1744 1744 1744 1744 1744 1744 1743 1742 1739 1738 1736 1734 1733 1732 1731 1729 1726 1725 1725 1724 1724 1724 1724 1728 1729 1729 1729 1729 1730 1736 1739 1747 1754 1760 1765 1765 1766 1772 1779 1787 1795 1802 1810 1815 1824 1830 1840 1855 1868 1881 1885 1888 1895 1899 1901 1904 1905 1909 1912 1918 1922 1924 1925 1927 1927 1927 1927 1927 1924 1921 1916 1911 1911 1911 1913 1914 1914 1915 1916 1918 1920 1921 1922 1928 1932 1934 1935 1935 1935 1936 1937 1937 1937 1937 1937 1936 1936 1936 1933 1933 1933 1959 1959 1959 0 0 0 0 0 0 0 0 0 0 0 0 0 0 0 0 0 0 0 0 0 0 0 0 0 0 0 0 0 0 0 0 0 0 0 0 0 0 0 0 0 0 0 0 0 0 0 0 0 0 0 0 0 0 0 0 0 0 0 0 0 0 0 0 0 0 0 0 0 0 0 0 0 0 0 0 0 0 0 0 0 0 0 0 0 0 0 0 0 0 0 0 0 0 0 0 0 0 0 0 0 0 0 0 0 0 0 0 0 0 0 0 0 0 0 0 0 0 0 0 0 0 0 0 0 0 0 0 0 0 0 0 0 0 0 0 0 0 0 0 0 0 0 0 0 0 0 0 0 0 0 0 0 0 0 0 0 0 0 0 0 0 0 0 0 0 0 0
2911 2911 2937 2943 2945 2948 2960 2978 2986 3001 3008 3024 3034 3064 3085 3103 3119 3124 3138 3168 3199 3230 3254 3256 3259 3266 3274 3286 3302 3311 3320 3326 3331 3344 3350 3351 3357 3361 3366 3366 3367 3367 3368 3377 3380 3384 3388 3391 3391 3391 3390 3390 3390 3390 3391 3395 3401 3405 3406 3407 3407 3408 3409 3415 3419 3423 3426 3430 3434 3436 3439 3442 3447 3451 3457 3461 3464 3467 3469 3472 3475 3478 3480 3481 3482 3485 3488 3489 3491 3492 3495 3498 3500 3502 3510 3512 3512 3513 3514 3515 3520 3520 3520 3412 3412 3412 3460 3542 3582 3607 3614 3615 3615 3615 3613 3613 3613 3614 3617 3617 3617 3616 3615 3613 3613 3613 3613 3612 3611 3611 3611 3611 3626 3632 3632 3632 3627 3622 3619 3612 3602 3586 3570 3540 3527 3527 3527 3527 3527 3522 3500 3487 3421 3396 3353 3223 2815 0 0 0 2022 1998 1989 1979 1966 1955 1946 1946 1945 1944 1943 1942 1942 1940 1940 1940 1939 1940 1941 1941 1942 1945 1945 1945 1945 1945 1945 1945 1945 0 0 0 0 0 0 0 0 1704 1704 1704 1706 1706 1706 1705 1703 1702 1702 1703 1703 1705 1708 1710 1711 1713 1713 1716 1717 1720 1721 1722 1724 1725 1725 1727 1728 1728 1728 1728 1728 1727 1727 1727 1727 1728 1728 1728 1728 1728 1729 1730 1734 1739 1741 1741 1741 1741 1741 1741 1746 1754 1760 1765 1769 1773 1776 1778 1781 1783 1783 1784 1784 1784 1788 1790 1790 1790 1791 1791 1791 1793 1796 1801 1802 1802 1804 1807 1809 1811 1816 1818 1820 1822 1823 1824 1826 1827 1829 1830 1832 1833 1835 1836 1837 1840 1841 1843 1844 1845 1846 1847 1849 1851 1852 1853 1855 1855 1857 1858 1859 1860 1860 1862 1863 1864 1864 1866 1870 1871 1873 1873 1873 1871 1870 1869 1868 1865 1861 1858 1855 1851 1846 1842 1836 1831 1825 1818 1815 1813 1806 1804 1801 1798 1796 1793 1790 1787 1783 1780 1777 1775 1773 1771 1769 1768 1767 1766 1764 1761 1757 1755 1753 1752 1749 1748 1747 1746 1746 1746 1746 1746 1746 1746 1746 1746 1745 1742 1741 1739 1738 1737 1736 1735 1735 1732 1731 1730 1729 1729 1730 1731 1734 1734 1735 1735 1736 1736 1743 1745 1750 1760 1770 1780 1788 1791 1795 1799 1803 1808 1813 1817 1824 1833 1840 1854 1870 1879 1887 1893 1894 1895 1896 1899 1901 1903 1905 1907 1911 1915 1920 1924 1924 1926 1927 1927 1927 1925 1924 1921 1917 1915 1915 1915 1920 1921 1923 1925 1927 1933 1938 1940 1943 1948 1951 1951 1951 1951 1947 1947 1947 1947 1950 1950 1950 1949 1949 1949 1949 1952 1978 1987 1987 1987 0 0 0 0 0 0 0 0 0 0 0 0 0 0 0 0 0 0 0 0 0 0 0 0 0 0 0 0 0 0 0 0 0 0 0 0 0 0 0 0 0 0 0 0 0 0 0 0 0 0 0 0 0 0 0 0 0 0 0 0 0 0 0 0 0 0 0 0 0 0 0 0 0 0 0 0 0 0 0 0 0 0 0 0 0 0 0 0 0 0 0 0 0 0 0 0 0 0 0 0 0 0 0 0 0 0 0 0 0 0 0 0 0 0 0 0 0 0 0 0 0 0 0 0 0 0 0 0 0 0 0 0 0 0 0 0 0 0 0 0 0 0 0 0 0 0 0 0 0 0 0 0 0 0 0 0 0 0 0 0 0 0 0 0 0 0 0 0
2911 2911 2937 2943 2945 2948 2960 2978 2986 3014 3029 3049 3066 3069 3085 3103 3120 3127 3162 3188 3217 3241 3254 3256 3259 3266 3274 3292 3309 3323 3325 3330 3331 3344 3349 3350 3355 3361 3366 3367 3367 3367 3368 3377 3382 3385 3389 3391 3391 3392 3393 3393 3394 3394 3394 3396 3401 3406 3410 3410 3410 3410 3411 3415 3419 3423 3426 3429 3433 3435 3438 3442 3446 3451 3455 3455 3459 3464 3468 3472 3475 3478 3480 3481 3482 3483 3488 3491 3492 3493 3496 3499 3501 3503 3510 3512 3512 3513 3514 3517 3525 3525 3525 3412 3412 3412 3453 3548 3582 3603 3612 3613 3613 3612 3611 3611 3611 3613 3615 3615 3615 3615 3614 3613 3612 3612 3612 3612 3611 3611 3611 3611 3626 3632 3632 3632 3627 3619 3616 3611 3596 3579 3556 3528 3523 3518 3517 3516 3511 3494 3475 3435 3409 3389 3352 3129 2664 0 0 0 2017 1994 1983 1972 1962 1950 1938 1935 1934 1934 1934 1936 1936 1937 1937 1936 1936 1936 1936 1936 1936 1940 1940 1940 1939 1936 1935 0 0 0 0 0 1752 1722 1708 1698 1697 1697 1697 1700 1702 1702 1702 1702 1700 1700 1700 1701 1702 1705 1706 1708 1709 1710 1712 1714 1714 1717 1719 1720 1721 1723 1724 1724 1726 1728 1728 1728 1727 1727 1726 1727 1727 1728 1728 1728 1728 1728 1728 1730 1732 1735 1737 1738 1739 1739 1740 1741 1743 1752 1759 1764 1767 1770 1774 1775 1778 1779 1779 1780 1780 1780 1780 1785 1789 1789 1789 1783 1782 1782 1782 1789 1798 1801 1804 1807 1808 1809 1812 1816 1818 1819 1821 1823 1825 1825 1826 1828 1830 1831 1833 1834 1835 1836 1838 1840 1841 1841 1842 1844 1846 1847 1849 1851 1853 1854 1855 1855 1856 1856 1858 1859 1860 1861 1863 1864 1866 1868 1870 1870 1870 1868 1866 1865 1863 1861 1859 1856 1854 1850 1845 1842 1837 1832 1827 1822 1819 1816 1808 1805 1804 1800 1797 1795 1791 1788 1786 1782 1779 1777 1775 1773 1772 1771 1770 1767 1765 1763 1760 1757 1755 1754 1752 1750 1749 1749 1749 1749 1749 1748 1748 1747 1747 1747 1746 1744 1742 1742 1741 1739 1739 1738 1737 1737 1735 1735 1735 1735 1736 1739 1739 1739 1744 1750 1752 1754 1755 1765 1776 1782 1793 1800 1807 1810 1814 1817 1822 1826 1830 1836 1843 1857 1872 1882 1891 1894 1897 1897 1898 1898 1898 1899 1901 1903 1905 1908 1911 1913 1917 1921 1922 1924 1924 1924 1924 1924 1924 1921 1921 1921 1922 1927 1929 1932 1937 1942 1945 1950 1950 1953 1954 1960 1965 1969 1974 1974 1974 1973 1973 1972 1971 1971 1972 1973 1974 1981 2010 2019 2019 2019 2019 1987 0 0 0 0 0 0 0 0 0 0 0 0 0 0 0 0 0 0 0 0 0 0 0 0 0 0 0 0 0 0 0 0 0 0 0 0 0 0 0 0 0 0 0 0 0 0 0 0 0 0 0 0 0 0 0 0 0 0 0 0 0 0 0 0 0 0 0 0 0 0 0 0 0 0 0 0 0 0 0 0 0 0 0 0 0 0 0 0 0 0 0 0 0 0 0 0 0 0 0 0 0 0 0 0 0 0 0 0 0 0 0 0 0 0 0 0 0 0 0 0 0 0 0 0 0 0 0 0 0 0 0 0 0 0 0 0 0 0 0 0 0 0 0 0 0 0 0 0 0 0 0 0 0 0 0 0 0 0 0 0 0 0 0 0 0 0 0 0
2903 2903 2937 2946 2949 2950 2964 2981 2998 3015 3042 3066 3083 3100 3118 3126 3153 3158 3195 3221 3237 3241 3254 3256 3259 3266 3271 3292 3310 3323 3325 3330 3331 3341 3347 3348 3354 3365 3366 3367 3368 3368 3376 3377 3383 3387 3389 3391 3391 3392 3393 3393 3396 3396 3398 3399 3402 3407 3411 3412 3412 3412 3415 3415 3419 3422 3425 3428 3431 3435 3438 3440 3445 3449 3452 3455 3459 3463 3468 3472 3475 3478 3480 3481 3482 3485 3488 3491 3494 3495 3498 3500 3504 3505 3510 3511 3512 3513 3513 3517 3529 3529 3529 3420 3420 3420 3441 3550 3580 3595 3603 3606 3608 3610 3611 3611 3611 3612 3613 3614 3614 3614 3611 3611 3611 3611 3611 3611 3610 3609 3609 3609 3626 3627 3627 3627 3620 3613 3606 3597 3585 3569 3542 3527 3523 3517 3508 3488 3472 3443 3418 3402 3384 3365 3314 2922 0 0 0 0 2004 1988 1976 1964 1949 1943 1932 1929 1929 1929 1934 1935 1935 1935 1935 1935 1934 1933 1930 1930 1930 1933 1933 1933 1924 1909 0 0 0 0 0 0 1699 1688 1688 1688 1689 1692 1696 1696 1696 1696 1696 1696 1696 1696 1698 1699 1700 1701 1703 1706 1707 1708 1710 1712 1713 1715 1717 1718 1719 1721 1722 1722 1724 1726 1726 1726 1726 1726 1726 1726 1727 1728 1728 1728 1728 1728 1728 1730 1731 1732 1734 1738 1738 1739 1740 1741 1742 1749 1758 1762 1767 1769 1769 1771 1773 1773 1773 1774 1778 1779 1780 1780 1779 1777 1770 1768 1768 1769 1769 1773 1786 1796 1800 1804 1806 1806 1808 1812 1816 1818 1819 1821 1823 1824 1824 1826 1827 1828 1830 1831 1833 1834 1835 1837 1838 1839 1839 1840 1842 1846 1847 1848 1850 1851 1852 1853 1853 1854 1856 1857 1858 1859 1860 1862 1863 1865 1866 1867 1867 1867 1865 1863 1862 1860 1857 1856 1852 1849 1845 1842 1838 1833 1827 1825 1822 1818 1810 1808 1805 1802 1799 1797 1793 1790 1788 1784 1783 1781 1778 1776 1776 1774 1772 1770 1767 1764 1762 1759 1757 1755 1754 1753 1752 1752 1751 1751 1751 1751 1751 1750 1750 1750 1749 1746 1745 1745 1743 1742 1741 1741 1740 1739 1739 1739 1740 1740 1742 1742 1743 1747 1753 1760 1767 1773 1783 1789 1793 1801 1810 1821 1828 1833 1836 1841 1850 1861 1872 1873 1874 1879 1886 1892 1893 1896 1897 1898 1899 1899 1899 1901 1902 1903 1906 1908 1911 1912 1915 1919 1919 1922 1923 1924 1924 1924 1924 1925 1927 1931 1938 1945 1947 1947 1951 1953 1955 1962 1968 1972 1973 1973 1974 1977 1978 1983 1984 1987 1987 1989 1993 1993 1993 1993 1993 2010 2033 2033 2033 2032 2020 1984 0 0 0 0 0 0 0 0 0 0 0 0 0 0 0 0 0 0 0 0 0 0 0 0 0 0 0 0 0 0 0 0 0 0 0 0 0 0 0 0 0 0 0 0 0 0 0 0 0 0 0 0 0 0 0 0 0 0 0 0 0 0 0 0 0 0 0 0 0 0 0 0 0 0 0 0 0 0 0 0 0 0 0 0 0 0 0 0 0 0 0 0 0 0 0 0 0 0 0 0 0 0 0 0 0 0 0 0 0 0 0 0 0 0 0 0 0 0 0 0 0 0 0 0 0 0 0 0 0 0 0 0 0 0 0 0 0 0 0 0 0 0 0 0 0 0 0 0 0 0 0 0 0 0 0 0 0 0 0 0 0 0 0 0 0 0 0 0
2884 2884 2926 2950 2954 2957 2968 2992 3025 3045 3058 3070 3083 3100 3126 3151 3176 3183 3215 3231 3243 3246 3248 3252 3252 3254 3271 3292 3310 3323 3325 3328 3330 3335 3343 3346 3353 3365 3366 3371 3374 3375 3376 3379 3383 3387 3388 3388 3389 3390 3391 3392 3398 3398 3398 3399 3402 3409 3411 3412 3413 3413 3415 3415 3419 3421 3424 3427 3429 3434 3437 3440 3442 3445 3451 3453 3458 3462 3466 3471 3475 3478 3480 3481 3483 3485 3488 3491 3494 3496 3499 3502 3506 3508 3511 3511 3512 3513 3513 3517 3527 3527 3527 3420 3420 3420 3439 3550 3573 3588 3594 3600 3606 3609 3609 3610 3610 3610 3611 3611 3611 3611 3609 3609 3609 3610 3610 3610 3608 3608 3608 3609 3619 3619 3619 3615 3607 3601 3592 3582 3578 3566 3542 3527 3523 3517 3502 3488 3469 3432 3400 3372 3355 3332 3196 2562 0 0 0 0 1997 1985 1969 1956 1938 1930 1921 1921 1921 1927 1928 1929 1929 1932 1932 1932 1932 1930 1926 1923 1923 1920 1920 1901 0 0 0 0 0 0 1698 1689 1684 1684 1684 1685 1687 1691 1693 1693 1693 1692 1692 1692 1692 1694 1695 1696 1697 1699 1701 1703 1704 1706 1708 1709 1711 1713 1714 1716 1716 1718 1718 1720 1722 1724 1724 1724 1725 1725 1726 1726 1727 1729 1729 1729 1729 1729 1729 1729 1729 1730 1731 1736 1737 1738 1740 1741 1742 1744 1753 1762 1763 1765 1766 1767 1768 1768 1768 1770 1770 1770 1770 1770 1766 1766 1763 1763 1764 1766 1766 1769 1777 1789 1797 1800 1802 1805 1806 1808 1813 1816 1818 1820 1821 1823 1823 1824 1825 1826 1827 1828 1830 1831 1832 1834 1836 1837 1839 1840 1841 1844 1845 1847 1848 1848 1849 1850 1851 1852 1854 1855 1856 1857 1859 1861 1861 1861 1862 1863 1863 1863 1863 1862 1860 1858 1857 1855 1852 1848 1844 1842 1838 1833 1829 1827 1823 1819 1813 1810 1808 1805 1802 1799 1795 1791 1788 1786 1785 1783 1781 1779 1778 1776 1774 1771 1768 1766 1764 1761 1759 1756 1756 1755 1755 1755 1755 1755 1754 1754 1754 1754 1754 1753 1750 1749 1748 1747 1745 1743 1743 1742 1741 1741 1741 1743 1745 1745 1749 1751 1754 1758 1768 1775 1784 1796 1808 1814 1843 1855 1861 1864 1867 1870 1872 1876 1878 1880 1882 1885 1890 1890 1892 1894 1894 1896 1898 1899 1900 1900 1901 1903 1904 1905 1906 1908 1911 1912 1914 1918 1918 1920 1923 1924 1924 1926 1928 1932 1938 1940 1944 1950 1950 1955 1961 1966 1972 1979 1984 1986 1990 1990 1990 1991 1991 1992 1994 1997 1997 1999 2003 2003 2004 2007 2007 2011 2033 2039 2039 2039 2020 1979 0 0 0 0 0 0 0 0 0 0 0 0 0 0 0 0 0 0 0 0 0 0 0 0 0 0 0 0 0 0 0 0 0 0 0 0 0 0 0 0 0 0 0 0 0 0 0 0 0 0 0 0 0 0 0 0 0 0 0 0 0 0 0 0 0 0 0 0 0 0 0 0 0 0 0 0 0 0 0 0 0 0 0 0 0 0 0 0 0 0 0 0 0 0 0 0 0 0 0 0 0 0 0 0 0 0 0 0 0 0 0 0 0 0 0 0 0 0 0 0 0 0 0 0 0 0 0 0 0 0 0 0 0 0 0 0 0 0 0 0 0 0 0 0 0 0 0 0 0 0 0 0 0 0 0 0 0 0 0 0 0 0 0 0 0 0 0 0
2867 2867 2924 2954 2957 2957 2972 2992 3025 3045 3058 3070 3083 3100 3126 3151 3177 3184 3215 3231 3242 3243 3246 3246 3247 3251 3268 3289 3310 3311 3316 3317 3317 3326 3339 3345 3349 3359 3364 3371 3374 3376 3381 3384 3385 3386 3386 3386 3386 3387 3389 3394 3399 3400 3402 3402 3405 3410 3411 3412 3414 3414 3415 3415 3418 3421 3424 3427 3429 3434 3437 3440 3442 3445 3449 3453 3458 3462 3464 3467 3473 3478 3479 3481 3483 3485 3488 3491 3494 3496 3499 3503 3507 3512 3513 3513 3513 3513 3513 3518 3522 3522 3522 3420 3420 3420 3439 3552 3572 3586 3592 3598 3602 3607 3607 3607 3608 3608 3608 3608 3608 3606 3606 3606 3606 3606 3606 3606 3604 3604 3604 3609 3610 3610 3610 3605 3604 3597 3587 3578 3572 3565 3542 3527 3523 3517 3502 3488 3468 3432 3388 3354 3328 3299 3012 0 0 0 0 2012 1990 1980 1964 1941 1926 1912 1912 1912 1914 1917 1920 1922 1924 1924 1924 1923 1923 1923 1923 1921 1913 0 0 0 0 0 0 0 1694 1685 1678 1678 1678 1679 1683 1684 1686 1686 1688 1688 1688 1688 1689 1689 1691 1692 1693 1694 1696 1697 1700 1702 1703 1703 1705 1707 1709 1711 1711 1713 1714 1716 1716 1718 1720 1721 1723 1724 1724 1724 1725 1726 1726 1729 1729 1729 1729 1727 1727 1727 1727 1727 1729 1731 1733 1736 1739 1740 1742 1744 1750 1757 1760 1761 1763 1764 1766 1766 1766 1763 1759 1758 1752 1752 1752 1752 1756 1759 1760 1761 1762 1765 1771 1780 1787 1793 1799 1802 1805 1806 1809 1813 1815 1816 1818 1819 1820 1820 1822 1823 1825 1825 1826 1828 1829 1829 1832 1837 1838 1839 1840 1841 1842 1844 1845 1846 1847 1848 1850 1850 1852 1853 1853 1855 1857 1859 1859 1859 1859 1859 1859 1859 1859 1859 1859 1857 1854 1853 1849 1847 1844 1841 1839 1835 1830 1827 1824 1821 1817 1812 1810 1807 1804 1800 1796 1793 1791 1789 1787 1784 1783 1781 1780 1778 1775 1773 1769 1767 1766 1763 1761 1758 1758 1757 1757 1757 1757 1757 1757 1757 1757 1756 1756 1755 1753 1751 1751 1749 1747 1746 1746 1745 1745 1745 1745 1746 1747 1752 1755 1763 1771 1784 1794 1804 1806 1811 1842 1865 1871 1872 1873 1873 1873 1874 1874 1876 1878 1882 1888 1892 1893 1894 1894 1894 1896 1897 1898 1900 1900 1901 1903 1904 1905 1906 1906 1908 1911 1912 1914 1916 1918 1920 1923 1924 1925 1930 1937 1941 1943 1943 1946 1952 1960 1966 1970 1973 1977 1981 1985 1988 1992 1995 1997 1998 2000 2000 2006 2008 2011 2012 2016 2016 2016 2018 2018 2020 2033 2039 2039 2039 2017 1974 0 0 0 0 0 0 0 0 0 0 0 0 0 0 0 0 0 0 0 0 0 0 0 0 0 0 0 0 0 0 0 0 0 0 0 0 0 0 0 0 0 0 0 0 0 0 0 0 0 0 0 0 0 0 0 0 0 0 0 0 0 0 0 0 0 0 0 0 0 0 0 0 0 0 0 0 0 0 0 0 0 0 0 0 0 0 0 0 0 0 0 0 0 0 0 0 0 0 0 0 0 0 0 0 0 0 0 0 0 0 0 0 0 0 0 0 0 0 0 0 0 0 0 0 0 0 0 0 0 0 0 0 0 0 0 0 0 0 0 0 0 0 0 0 0 0 0 0 0 0 0 0 0 0 0 0 0 0 0 0 0 0 0 0 0 0 0 0
2867 2867 2924 2954 2957 2967 2978 2992 3025 3045 3058 3070 3081 3096 3126 3151 3177 3184 3215 3231 3236 3241 3241 3241 3243 3248 3261 3282 3292 3295 3297 3300 3300 3310 3321 3328 3337 3354 3366 3372 3373 3374 3381 3387 3387 3387 3387 3386 3386 3387 3389 3394 3401 3406 3406 3407 3408 3410 3411 3412 3414 3414 3414 3416 3418 3421 3424 3427 3429 3434 3437 3441 3442 3444 3449 3454 3458 3461 3464 3466 3470 3475 3478 3480 3483 3485 3488 3491 3494 3496 3500 3504 3509 3513 3514 3515 3516 3517 3518 3526 3526 3526 3517 3400 3400 3400 3439 3557 3568 3584 3592 3597 3600 3602 3604 3604 3604 3604 3604 3604 3604 3604 3604 3604 3605 3605 3605 3605 3601 3601 3601 3609 3609 3609 3606 3603 3601 3595 3584 3574 3570 3556 3542 3527 3523 3517 3501 3488 3468 3427 3387 3346 3296 3229 2878 0 0 0 0 2000 1985 1967 1958 1935 1914 1909 1909 1909 1909 1909 1915 1919 1923 1923 1923 1918 1911 1911 0 0 0 0 0 0 0 0 1691 1679 1675 1672 1672 1672 1673 1677 1680 1682 1683 1683 1685 1685 1685 1685 1685 1687 1689 1692 1693 1693 1694 1696 1698 1700 1701 1702 1703 1704 1707 1708 1708 1711 1712 1714 1715 1716 1718 1720 1721 1723 1723 1723 1724 1725 1726 1729 1730 1730 1730 1727 1727 1727 1727 1727 1729 1729 1731 1732 1739 1740 1743 1744 1749 1756 1757 1758 1760 1764 1764 1764 1758 1757 1756 1742 1742 1742 1745 1748 1750 1751 1751 1751 1754 1760 1766 1773 1776 1778 1781 1797 1803 1804 1807 1808 1810 1813 1814 1816 1817 1818 1818 1821 1822 1822 1823 1825 1826 1826 1829 1832 1835 1836 1836 1838 1838 1840 1843 1843 1845 1847 1848 1848 1850 1850 1851 1853 1854 1855 1856 1856 1856 1855 1855 1855 1855 1855 1855 1855 1853 1850 1848 1845 1843 1841 1839 1835 1833 1829 1825 1823 1819 1816 1812 1810 1807 1803 1799 1796 1794 1792 1789 1787 1784 1783 1782 1779 1775 1773 1770 1768 1767 1763 1761 1760 1760 1760 1759 1759 1759 1759 1759 1759 1758 1758 1758 1756 1755 1754 1753 1752 1751 1750 1750 1750 1748 1748 1748 1750 1752 1758 1771 1783 1795 1805 1813 1817 1835 1852 1865 1867 1871 1874 1874 1876 1879 1879 1880 1881 1882 1885 1890 1893 1894 1894 1894 1895 1896 1897 1898 1900 1902 1903 1904 1904 1906 1907 1907 1909 1912 1912 1915 1916 1918 1920 1923 1925 1931 1935 1938 1943 1945 1948 1954 1959 1965 1967 1970 1975 1979 1981 1988 1991 1994 1995 1997 2000 2003 2005 2009 2012 2016 2017 2019 2020 2020 2022 2022 2023 2036 2039 2039 2039 2009 1968 0 0 0 0 0 0 0 0 0 0 0 0 0 0 0 0 0 0 0 0 0 0 0 0 0 0 0 0 0 0 0 0 0 0 0 0 0 0 0 0 0 0 0 0 0 0 0 0 0 0 0 0 0 0 0 0 0 0 0 0 0 0 0 0 0 0 0 0 0 0 0 0 0 0 0 0 0 0 0 0 0 0 0 0 0 0 0 0 0 0 0 0 0 0 0 0 0 0 0 0 0 0 0 0 0 0 0 0 0 0 0 0 0 0 0 0 0 0 0 0 0 0 0 0 0 0 0 0 0 0 0 0 0 0 0 0 0 0 0 0 0 0 0 0 0 0 0 0 0 0 0 0 0 0 0 0 0 0 0 0 0 0 0 0 0 0 0 0
2867 2867 2924 2970 2973 2985 2985 2988 2998 3016 3039 3064 3072 3090 3114 3151 3177 3184 3199 3209 3221 3232 3234 3235 3237 3241 3257 3266 3279 3292 3296 3297 3300 3308 3310 3310 3322 3345 3367 3372 3373 3374 3381 3387 3387 3387 3387 3386 3386 3387 3389 3395 3401 3408 3409 3410 3411 3411 3411 3414 3414 3414 3415 3416 3418 3421 3424 3427 3430 3434 3438 3442 3442 3444 3449 3453 3458 3462 3464 3466 3470 3474 3476 3478 3482 3485 3488 3490 3494 3498 3500 3506 3511 3516 3520 3520 3521 3522 3522 3533 3533 3533 3517 3394 3394 3394 3456 3563 3568 3584 3591 3597 3598 3598 3600 3601 3601 3601 3601 3601 3602 3602 3603 3603 3603 3603 3602 3601 3600 3600 3600 3610 3610 3610 3604 3598 3598 3593 3583 3574 3568 3556 3542 3527 3516 3510 3500 3488 3468 3425 3386 3335 3270 3197 2832 0 0 0 2007 1991 1977 1963 1935 1925 1912 1907 1907 1907 1904 1904 1904 1908 1909 1909 1909 1897 1878 1853 0 0 0 0 0 0 1690 1677 1669 1668 1668 1668 1668 1669 1671 1674 1676 1677 1678 1679 1680 1680 1681 1681 1682 1685 1686 1689 1690 1691 1693 1694 1696 1698 1698 1699 1700 1703 1704 1705 1707 1708 1710 1712 1713 1716 1718 1718 1720 1721 1723 1723 1724 1724 1726 1728 1730 1730 1730 1727 1727 1727 1727 1727 1728 1728 1731 1732 1739 1740 1742 1744 1748 1753 1757 1757 1760 1761 1761 1761 1753 1750 1746 1737 1737 1737 1739 1742 1743 1743 1743 1744 1749 1754 1757 1762 1766 1769 1772 1785 1799 1803 1804 1804 1805 1808 1811 1814 1814 1815 1815 1817 1818 1818 1820 1819 1819 1820 1821 1822 1823 1829 1832 1834 1834 1836 1840 1842 1843 1844 1845 1846 1847 1848 1848 1850 1851 1852 1853 1853 1853 1853 1852 1852 1851 1851 1851 1851 1851 1849 1847 1845 1843 1841 1839 1837 1834 1829 1827 1824 1820 1817 1814 1811 1809 1804 1801 1799 1797 1795 1793 1789 1788 1786 1783 1781 1778 1774 1771 1770 1768 1764 1762 1762 1762 1762 1761 1762 1762 1761 1761 1761 1760 1760 1759 1757 1756 1755 1754 1754 1753 1753 1753 1753 1753 1754 1755 1755 1758 1770 1786 1803 1810 1817 1831 1851 1866 1868 1869 1870 1871 1875 1876 1878 1879 1880 1881 1883 1885 1888 1891 1893 1894 1896 1896 1898 1898 1899 1900 1901 1903 1904 1905 1906 1906 1907 1908 1909 1912 1914 1915 1916 1918 1919 1923 1925 1931 1935 1938 1943 1946 1949 1954 1959 1965 1968 1971 1975 1980 1984 1988 1991 1994 1997 2000 2003 2007 2010 2013 2015 2018 2020 2022 2024 2025 2027 2028 2030 2036 2038 2038 2038 2000 1966 0 0 0 0 0 0 0 0 0 0 0 0 0 0 0 0 0 0 0 0 0 0 0 0 0 0 0 0 0 0 0 0 0 0 0 0 0 0 0 0 0 0 0 0 0 0 0 0 0 0 0 0 0 0 0 0 0 0 0 0 0 0 0 0 0 0 0 0 0 0 0 0 0 0 0 0 0 0 0 0 0 0 0 0 0 0 0 0 0 0 0 0 0 0 0 0 0 0 0 0 0 0 0 0 0 0 0 0 0 0 0 0 0 0 0 0 0 0 0 0 0 0 0 0 0 0 0 0 0 0 0 0 0 0 0 0 0 0 0 0 0 0 0 0 0 0 0 0 0 0 0 0 0 0 0 0 0 0 0 0 0 0 0 0 0 0 0 0
2902 2902 2946 2970 2973 2985 2985 2985 2986 2993 3016 3045 3071 3082 3113 3151 3160 3184 3193 3198 3209 3213 3214 3215 3234 3241 3257 3266 3277 3286 3291 3297 3300 3303 3305 3309 3322 3345 3369 3370 3372 3375 3381 3387 3387 3387 3387 3387 3387 3387 3392 3395 3401 3410 3412 3412 3412 3412 3412 3414 3414 3415 3415 3417 3419 3422 3425 3427 3432 3434 3439 3442 3443 3446 3450 3453 3458 3462 3464 3466 3470 3474 3476 3478 3482 3486 3488 3491 3495 3498 3500 3508 3515 3520 3523 3524 3524 3524 3529 3540 3540 3540 3517 3394 3394 3394 3456 3566 3568 3579 3590 3596 3597 3597 3598 3598 3599 3599 3599 3599 3599 3599 3599 3599 3599 3598 3598 3598 3598 3599 3606 3609 3609 3609 3599 3598 3596 3588 3583 3570 3568 3556 3532 3506 3490 3488 3487 3485 3468 3418 3376 3334 3269 3089 2758 0 0 0 1993 1973 1968 1937 1923 1919 1907 1902 1897 1896 1895 1892 1885 1885 1882 1881 1875 1853 1833 1814 0 0 0 0 0 1684 1673 1669 1663 1662 1662 1662 1665 1667 1668 1668 1671 1671 1672 1674 1676 1677 1677 1678 1678 1682 1684 1686 1687 1687 1689 1690 1692 1695 1696 1697 1699 1699 1701 1703 1704 1706 1708 1709 1712 1714 1715 1717 1719 1720 1720 1721 1721 1722 1724 1725 1728 1728 1728 1727 1727 1727 1727 1727 1727 1728 1731 1732 1738 1739 1740 1741 1747 1750 1753 1757 1758 1758 1758 1756 1750 1745 1741 1736 1734 1734 1734 1737 1737 1739 1739 1739 1744 1749 1751 1753 1756 1765 1772 1778 1789 1799 1802 1802 1802 1804 1807 1810 1811 1813 1814 1815 1815 1815 1814 1810 1809 1809 1809 1809 1817 1819 1826 1832 1833 1833 1837 1840 1840 1842 1842 1844 1845 1845 1847 1847 1848 1849 1850 1851 1851 1851 1850 1850 1849 1849 1849 1848 1848 1847 1846 1844 1843 1842 1840 1839 1834 1831 1828 1824 1821 1818 1816 1813 1810 1806 1804 1801 1800 1798 1796 1793 1791 1789 1787 1783 1780 1776 1774 1773 1770 1767 1764 1764 1764 1763 1764 1764 1764 1764 1764 1764 1763 1763 1762 1760 1758 1757 1757 1756 1756 1756 1756 1758 1760 1760 1761 1761 1771 1786 1807 1817 1832 1855 1865 1873 1873 1873 1873 1873 1873 1876 1877 1878 1880 1880 1882 1885 1887 1891 1892 1893 1894 1896 1897 1898 1899 1901 1902 1903 1904 1905 1906 1907 1907 1908 1908 1909 1912 1914 1916 1918 1918 1919 1922 1926 1931 1935 1940 1943 1946 1949 1954 1959 1965 1968 1972 1975 1981 1985 1989 1992 1997 1999 2003 2005 2007 2010 2013 2015 2019 2020 2024 2026 2027 2030 2034 2038 2040 2040 2040 2038 2000 1964 0 0 0 0 0 0 0 0 0 0 0 0 0 0 0 0 0 0 0 0 0 0 0 0 0 0 0 0 0 0 0 0 0 0 0 0 0 0 0 0 0 0 0 0 0 0 0 0 0 0 0 0 0 0 0 0 0 0 0 0 0 0 0 0 0 0 0 0 0 0 0 0 0 0 0 0 0 0 0 0 0 0 0 0 0 0 0 0 0 0 0 0 0 0 0 0 0 0 0 0 0 0 0 0 0 0 0 0 0 0 0 0 0 0 0 0 0 0 0 0 0 0 0 0 0 0 0 0 0 0 0 0 0 0 0 0 0 0 0 0 0 0 0 0 0 0 0 0 0 0 0 0 0 0 0 0 0 0 0 0 0 0 0 0 0 0 0 0
2902 2902 2946 2970 2973 2981 2983 2985 2985 2993 3016 3045 3071 3082 3113 3151 3160 3184 3193 3198 3203 3208 3211 3214 3234 3241 3257 3266 3276 3285 3291 3297 3297 3302 3305 3309 3322 3345 3367 3370 3372 3375 3381 3388 3389 3390 3390 3390 3390 3390 3394 3397 3402 3410 3413 3413 3413 3413 3413 3414 3415 3415 3416 3417 3419 3422 3425 3429 3432 3434 3439 3442 3444 3446 3451 3454 3459 3463 3467 3470 3472 3474 3476 3478 3482 3486 3488 3492 3495 3499 3505 3510 3518 3524 3524 3524 3525 3525 3532 3541 3541 3541 3516 3389 3389 3389 3456 3562 3569 3579 3590 3593 3595 3596 3596 3597 3597 3598 3598 3598 3597 3597 3597 3598 3597 3597 3597 3597 3597 3602 3612 3612 3612 3591 3580 3579 3576 3575 3575 3569 3556 3541 3517 3482 3461 3454 3454 3449 3436 3402 3368 3328 3252 3066 2704 0 0 0 1986 1955 1933 1923 1916 1905 1891 1891 1891 1890 1890 1890 1879 1871 0 0 0 0 0 1743 1704 1677 1667 1667 1666 1666 1666 1663 1661 1661 1661 1662 1663 1665 1666 1666 1668 1669 1669 1671 1673 1673 1674 1675 1677 1679 1679 1684 1686 1686 1688 1688 1690 1692 1693 1696 1696 1697 1699 1700 1702 1704 1706 1708 1709 1712 1714 1715 1717 1717 1718 1718 1720 1720 1722 1723 1724 1724 1727 1727 1727 1727 1727 1727 1728 1729 1729 1731 1734 1739 1740 1741 1747 1749 1751 1754 1755 1755 1755 1755 1750 1745 1741 1734 1732 1732 1732 1735 1735 1737 1737 1738 1742 1749 1751 1753 1756 1763 1768 1771 1781 1794 1799 1802 1802 1802 1804 1807 1808 1809 1812 1812 1812 1811 1806 1800 1799 1799 1799 1803 1811 1813 1820 1830 1831 1832 1834 1837 1838 1839 1840 1841 1843 1843 1844 1846 1846 1846 1848 1848 1849 1849 1849 1849 1848 1848 1847 1847 1846 1845 1845 1844 1843 1842 1842 1839 1835 1832 1829 1826 1822 1820 1819 1816 1813 1809 1806 1803 1802 1800 1798 1796 1794 1791 1788 1784 1783 1779 1776 1776 1773 1770 1767 1766 1766 1766 1766 1766 1766 1766 1766 1766 1766 1766 1765 1762 1761 1760 1759 1759 1759 1759 1762 1764 1765 1767 1767 1773 1789 1809 1821 1839 1856 1863 1868 1873 1873 1874 1875 1875 1875 1877 1879 1880 1881 1881 1883 1886 1889 1892 1894 1895 1896 1897 1898 1900 1900 1902 1903 1904 1905 1906 1907 1908 1908 1908 1909 1911 1913 1915 1917 1918 1919 1919 1922 1926 1929 1935 1938 1942 1946 1949 1954 1958 1964 1968 1972 1977 1982 1987 1990 1992 1997 2000 2003 2007 2009 2011 2013 2016 2019 2023 2024 2027 2028 2031 2036 2039 2042 2042 2042 2038 2000 0 0 0 0 0 0 0 0 0 0 0 0 0 0 0 0 0 0 0 0 0 0 0 0 0 0 0 0 0 0 0 0 0 0 0 0 0 0 0 0 0 0 0 0 0 0 0 0 0 0 0 0 0 0 0 0 0 0 0 0 0 0 0 0 0 0 0 0 0 0 0 0 0 0 0 0 0 0 0 0 0 0 0 0 0 0 0 0 0 0 0 0 0 0 0 0 0 0 0 0 0 0 0 0 0 0 0 0 0 0 0 0 0 0 0 0 0 0 0 0 0 0 0 0 0 0 0 0 0 0 0 0 0 0 0 0 0 0 0 0 0 0 0 0 0 0 0 0 0 0 0 0 0 0 0 0 0 0 0 0 0 0 0 0 0 0 0 0 0
2902 2902 2946 2949 2970 2974 2981 2983 2984 2993 3016 3045 3071 3090 3114 3153 3160 3186 3192 3193 3202 3205 3209 3214 3234 3250 3261 3269 3277 3286 3292 3297 3299 3303 3305 3309 3325 3359 3367 3370 3372 3376 3382 3389 3390 3390 3393 3394 3394 3396 3398 3401 3405 3412 3418 3418 3418 3416 3415 3415 3415 3416 3417 3419 3422 3424 3427 3432 3433 3434 3440 3442 3444 3447 3451 3454 3459 3465 3469 3471 3473 3475 3476 3479 3483 3487 3489 3492 3499 3503 3511 3517 3521 3525 3525 3525 3525 3527 3532 3541 3541 3541 3516 3389 3389 3389 3457 3562 3569 3579 3589 3593 3593 3593 3593 3593 3593 3595 3596 3596 3596 3596 3596 3596 3596 3596 3596 3596 3596 3603 3603 3603 3601 3576 3562 3556 3556 3556 3556 3552 3540 3518 3487 3456 3434 3431 3426 3422 3409 3380 3348 3298 3233 2998 2669 0 0 0 1976 1940 1918 1910 1900 1880 1880 1880 1878 1878 1878 1869 1856 0 0 0 0 0 0 1674 1659 1653 1653 1653 1655 1658 1658 1658 1658 1658 1658 1660 1662 1662 1662 1663 1665 1666 1667 1669 1670 1670 1671 1671 1674 1676 1677 1683 1684 1684 1685 1685 1686 1688 1691 1692 1693 1695 1697 1698 1700 1702 1705 1707 1708 1710 1712 1713 1714 1715 1716 1716 1718 1719 1721 1721 1721 1722 1722 1725 1726 1726 1727 1727 1727 1728 1728 1732 1735 1738 1740 1741 1746 1748 1748 1752 1752 1752 1752 1752 1751 1745 1741 1734 1732 1732 1732 1732 1735 1736 1737 1737 1741 1748 1751 1753 1756 1762 1768 1771 1777 1780 1793 1795 1796 1796 1800 1802 1802 1802 1802 1802 1802 1802 1802 1791 1791 1791 1794 1801 1803 1809 1813 1824 1826 1828 1830 1832 1836 1837 1837 1840 1841 1842 1843 1843 1844 1845 1845 1846 1847 1847 1847 1847 1847 1847 1847 1847 1846 1844 1844 1843 1843 1842 1842 1839 1837 1834 1832 1830 1826 1822 1820 1818 1815 1812 1808 1806 1805 1802 1800 1798 1795 1793 1789 1788 1785 1782 1779 1778 1775 1772 1771 1769 1769 1768 1768 1768 1768 1768 1768 1769 1769 1769 1768 1766 1764 1762 1762 1762 1762 1764 1766 1771 1772 1772 1776 1786 1806 1821 1832 1852 1861 1865 1870 1874 1876 1876 1877 1877 1878 1880 1881 1882 1884 1885 1887 1888 1891 1894 1895 1897 1899 1899 1899 1900 1902 1903 1904 1906 1906 1906 1908 1908 1909 1909 1910 1911 1913 1915 1917 1918 1920 1920 1921 1925 1929 1934 1937 1941 1945 1948 1951 1956 1960 1966 1972 1977 1982 1987 1990 1992 1997 2000 2003 2007 2009 2011 2013 2017 2020 2024 2025 2027 2029 2032 2036 2039 2042 2044 2044 2044 2010 0 0 0 0 0 0 0 0 0 0 0 0 0 0 0 0 0 0 0 0 0 0 0 0 0 0 0 0 0 0 0 0 0 0 0 0 0 0 0 0 0 0 0 0 0 0 0 0 0 0 0 0 0 0 0 0 0 0 0 0 0 0 0 0 0 0 0 0 0 0 0 0 0 0 0 0 0 0 0 0 0 0 0 0 0 0 0 0 0 0 0 0 0 0 0 0 0 0 0 0 0 0 0 0 0 0 0 0 0 0 0 0 0 0 0 0 0 0 0 0 0 0 0 0 0 0 0 0 0 0 0 0 0 0 0 0 0 0 0 0 0 0 0 0 0 0 0 0 0 0 0 0 0 0 0 0 0 0 0 0 0 0 0 0 0 0 0 0 0
2887 2887 2917 2921 2950 2971 2981 2983 2984 2995 3019 3057 3071 3093 3121 3158 3165 3185 3193 3193 3198 3204 3208 3220 3242 3262 3271 3274 3279 3287 3292 3301 3302 3304 3308 3315 3336 3362 3370 3377 3383 3383 3384 3389 3390 3390 3393 3398 3400 3401 3402 3405 3413 3417 3418 3420 3420 3420 3418 3416 3416 3416 3418 3422 3426 3429 3433 3434 3437 3438 3441 3442 3445 3447 3452 3454 3459 3466 3469 3472 3474 3475 3476 3481 3484 3490 3491 3494 3501 3504 3513 3520 3525 3525 3525 3526 3526 3531 3532 3548 3548 3548 3516 3389 3389 3389 3457 3562 3578 3578 3589 3589 3589 3589 3589 3589 3589 3591 3593 3595 3595 3595 3596 3596 3596 3596 3596 3597 3597 3604 3604 3604 3591 3560 3544 3544 3543 3540 3540 3534 3520 3494 3462 3434 3419 3414 3410 3401 3378 3350 3317 3253 3138 2866 2576 0 0 0 1948 1916 1900 1892 1879 1865 1865 1865 1858 1858 1850 1836 0 0 0 0 0 1673 1662 1653 1648 1644 1644 1644 1646 1651 1652 1652 1652 1653 1655 1657 1660 1660 1660 1660 1661 1664 1664 1664 1666 1667 1668 1669 1669 1672 1674 1679 1679 1679 1679 1679 1684 1686 1689 1690 1691 1692 1694 1696 1699 1701 1704 1705 1707 1708 1709 1710 1711 1713 1714 1715 1716 1717 1718 1720 1720 1721 1721 1721 1724 1725 1725 1727 1727 1727 1729 1731 1734 1736 1738 1741 1745 1745 1747 1750 1752 1752 1752 1751 1750 1746 1741 1734 1732 1732 1732 1732 1735 1735 1735 1736 1741 1746 1749 1752 1756 1758 1761 1766 1769 1777 1780 1787 1794 1794 1795 1795 1799 1801 1801 1801 1798 1796 1793 1791 1790 1790 1790 1791 1795 1797 1798 1810 1821 1822 1823 1827 1831 1834 1836 1839 1840 1841 1842 1842 1843 1843 1844 1845 1845 1846 1846 1846 1846 1845 1845 1845 1844 1844 1843 1843 1842 1842 1842 1839 1838 1836 1835 1832 1830 1826 1823 1820 1818 1814 1811 1809 1806 1804 1801 1799 1798 1794 1792 1790 1787 1785 1782 1780 1777 1775 1773 1772 1772 1772 1771 1770 1770 1770 1770 1772 1772 1772 1771 1769 1767 1766 1766 1766 1767 1770 1774 1778 1779 1781 1785 1799 1817 1828 1844 1858 1863 1866 1871 1874 1876 1877 1878 1878 1880 1881 1883 1885 1887 1888 1890 1892 1893 1895 1897 1898 1899 1901 1902 1902 1903 1904 1905 1906 1907 1908 1909 1910 1910 1911 1912 1912 1914 1916 1918 1919 1920 1921 1921 1925 1928 1932 1935 1939 1943 1947 1950 1954 1959 1965 1971 1977 1982 1987 1990 1992 1995 2000 2003 2007 2009 2010 2013 2017 2020 2024 2025 2028 2030 2032 2036 2039 2042 2045 2045 2045 2019 0 0 0 0 0 0 0 0 0 0 0 0 0 0 0 0 0 0 0 0 0 0 0 0 0 0 0 0 0 0 0 0 0 0 0 0 0 0 0 0 0 0 0 0 0 0 0 0 0 0 0 0 0 0 0 0 0 0 0 0 0 0 0 0 0 0 0 0 0 0 0 0 0 0 0 0 0 0 0 0 0 0 0 0 0 0 0 0 0 0 0 0 0 0 0 0 0 0 0 0 0 0 0 0 0 0 0 0 0 0 0 0 0 0 0 0 0 0 0 0 0 0 0 0 0 0 0 0 0 0 0 0 0 0 0 0 0 0 0 0 0 0 0 0 0 0 0 0 0 0 0 0 0 0 0 0 0 0 0 0 0 0 0 0 0 0 0 0 0
2879 2879 2913 2917 2949 2967 2979 2981 2995 3014 3043 3071 3071 3093 3137 3165 3172 3184 3184 3193 3193 3195 3208 3220 3242 3262 3271 3276 3287 3287 3292 3301 3302 3304 3310 3321 3340 3368 3371 3379 3383 3383 3384 3389 3389 3390 3393 3399 3404 3405 3409 3411 3415 3417 3419 3422 3422 3422 3419 3419 3419 3419 3424 3429 3432 3434 3435 3437 3441 3441 3443 3444 3445 3448 3453 3456 3461 3466 3470 3472 3474 3475 3477 3481 3484 3490 3494 3496 3501 3505 3514 3522 3525 3525 3526 3526 3531 3538 3545 3553 3553 3553 3505 3360 3360 3360 3442 3567 3578 3578 3582 3583 3583 3583 3585 3586 3586 3588 3591 3594 3594 3594 3596 3596 3597 3597 3597 3598 3601 3609 3609 3609 3579 3543 3532 3532 3532 3532 3532 3523 3505 3477 3448 3417 3404 3400 3398 3384 3363 3325 3277 3205 3104 2866 0 0 0 0 1924 1899 1887 1885 1872 1860 1844 1842 1839 0 0 0 0 0 0 1672 1656 1649 1649 1648 1644 1643 1642 1642 1642 1646 1647 1648 1648 1648 1651 1653 1654 1657 1657 1659 1659 1661 1662 1662 1663 1664 1664 1664 1664 1664 1664 1664 1667 1673 1674 1676 1681 1683 1686 1690 1690 1691 1692 1694 1696 1699 1701 1703 1704 1705 1707 1708 1710 1711 1712 1713 1716 1716 1716 1716 1717 1719 1719 1719 1719 1721 1725 1725 1726 1726 1728 1731 1734 1736 1738 1740 1742 1744 1746 1749 1750 1750 1751 1751 1750 1746 1746 1745 1738 1732 1732 1732 1735 1735 1735 1736 1740 1746 1749 1752 1753 1754 1755 1765 1769 1772 1776 1785 1790 1793 1793 1794 1794 1794 1793 1792 1792 1791 1790 1789 1789 1788 1788 1788 1790 1793 1795 1799 1807 1810 1816 1822 1825 1829 1834 1836 1837 1839 1840 1841 1841 1842 1843 1844 1844 1844 1844 1844 1844 1844 1843 1843 1843 1843 1842 1842 1842 1841 1841 1839 1838 1836 1835 1834 1833 1829 1824 1821 1819 1816 1814 1812 1809 1805 1803 1803 1801 1797 1795 1794 1791 1788 1785 1782 1780 1778 1776 1775 1774 1774 1773 1773 1773 1774 1775 1775 1775 1775 1774 1772 1771 1770 1770 1770 1774 1778 1783 1783 1785 1787 1795 1807 1819 1832 1855 1862 1864 1868 1871 1874 1876 1878 1879 1881 1881 1884 1885 1887 1889 1890 1892 1894 1895 1897 1898 1900 1901 1902 1903 1904 1905 1906 1907 1907 1909 1909 1910 1910 1911 1912 1913 1914 1916 1917 1918 1920 1921 1922 1922 1925 1928 1931 1934 1936 1942 1944 1948 1953 1959 1964 1969 1973 1978 1984 1989 1990 1992 1997 2000 2004 2006 2009 2013 2017 2020 2024 2025 2028 2030 2032 2034 2034 2037 2043 2043 2043 2037 0 0 0 0 0 0 0 0 0 0 0 0 0 0 0 0 0 0 0 0 0 0 0 0 0 0 0 0 0 0 0 0 0 0 0 0 0 0 0 0 0 0 0 0 0 0 0 0 0 0 0 0 0 0 0 0 0 0 0 0 0 0 0 0 0 0 0 0 0 0 0 0 0 0 0 0 0 0 0 0 0 0 0 0 0 0 0 0 0 0 0 0 0 0 0 0 0 0 0 0 0 0 0 0 0 0 0 0 0 0 0 0 0 0 0 0 0 0 0 0 0 0 0 0 0 0 0 0 0 0 0 0 0 0 0 0 0 0 0 0 0 0 0 0 0 0 0 0 0 0 0 0 0 0 0 0 0 0 0 0 0 0 0 0 0 0 0 0 0
2878 2878 2911 2914 2942 2962 2979 2981 2995 3019 3043 3071 3071 3093 3137 3165 3172 3172 3172 3176 3176 3195 3208 3221 3242 3262 3271 3276 3287 3287 3292 3296 3303 3307 3312 3329 3346 3368 3371 3378 3383 3383 3383 3383 3384 3389 3393 3403 3406 3408 3410 3413 3417 3419 3423 3423 3423 3422 3419 3419 3419 3423 3430 3432 3433 3434 3435 3437 3441 3444 3444 3446 3448 3451 3458 3458 3461 3466 3470 3472 3474 3475 3477 3481 3485 3490 3494 3498 3502 3507 3516 3523 3527 3528 3528 3534 3542 3553 3560 3560 3560 3551 3496 3343 3343 3343 3442 3567 3578 3578 3578 3578 3579 3580 3582 3583 3584 3587 3591 3594 3594 3595 3595 3595 3597 3598 3600 3604 3612 3613 3613 3613 3567 3533 3526 3526 3521 3521 3521 3511 3498 3469 3433 3400 3383 3375 3375 3363 3334 3303 3256 3191 3060 2703 0 0 0 0 1903 1880 1871 1869 1865 1850 1833 1814 0 0 0 0 0 1671 1653 1649 1644 1643 1642 1642 1642 1639 1639 1639 1640 1643 1644 1645 1646 1646 1647 1648 1651 1652 1653 1653 1654 1656 1657 1657 1657 1655 1655 1655 1655 1657 1658 1658 1662 1665 1670 1673 1677 1680 1685 1688 1688 1688 1691 1692 1694 1696 1699 1701 1702 1703 1705 1706 1708 1709 1710 1711 1713 1713 1714 1715 1715 1715 1716 1717 1718 1720 1723 1724 1724 1725 1728 1731 1733 1736 1738 1740 1740 1744 1744 1746 1748 1748 1748 1748 1747 1746 1746 1745 1743 1738 1734 1734 1734 1735 1735 1736 1740 1745 1746 1747 1748 1750 1755 1765 1769 1772 1774 1782 1790 1790 1792 1792 1792 1791 1790 1789 1789 1789 1789 1789 1789 1788 1788 1788 1790 1793 1794 1795 1799 1802 1807 1815 1821 1826 1831 1835 1835 1836 1836 1837 1839 1840 1841 1841 1842 1842 1842 1842 1842 1842 1842 1842 1842 1842 1842 1840 1840 1840 1839 1839 1838 1837 1836 1835 1834 1830 1826 1824 1821 1818 1816 1814 1810 1810 1808 1806 1803 1800 1799 1797 1795 1791 1788 1786 1784 1782 1779 1778 1776 1776 1776 1776 1776 1778 1778 1778 1778 1778 1776 1773 1772 1772 1772 1774 1778 1781 1785 1786 1788 1797 1807 1819 1826 1840 1860 1867 1870 1872 1874 1875 1877 1879 1881 1882 1884 1885 1887 1888 1890 1892 1894 1896 1897 1898 1900 1901 1903 1903 1904 1905 1906 1907 1908 1909 1910 1910 1910 1911 1913 1913 1914 1915 1916 1918 1919 1921 1922 1924 1924 1925 1928 1930 1934 1936 1940 1943 1947 1952 1958 1963 1967 1971 1976 1981 1985 1987 1989 1993 1998 2002 2004 2008 2012 2015 2019 2023 2024 2028 2030 2031 2031 2031 2031 2037 2037 2037 2037 0 0 0 0 0 0 0 0 0 0 0 0 0 0 0 0 0 0 0 0 0 0 0 0 0 0 0 0 0 0 0 0 0 0 0 0 0 0 0 0 0 0 0 0 0 0 0 0 0 0 0 0 0 0 0 0 0 0 0 0 0 0 0 0 0 0 0 0 0 0 0 0 0 0 0 0 0 0 0 0 0 0 0 0 0 0 0 0 0 0 0 0 0 0 0 0 0 0 0 0 0 0 0 0 0 0 0 0 0 0 0 0 0 0 0 0 0 0 0 0 0 0 0 0 0 0 0 0 0 0 0 0 0 0 0 0 0 0 0 0 0 0 0 0 0 0 0 0 0 0 0 0 0 0 0 0 0 0 0 0 0 0 0 0 0 0 0 0 0
2878 2878 2906 2908 2935 2959 2967 2981 2995 3019 3048 3078 3096 3109 3137 3165 3166 3166 3167 3167 3171 3195 3208 3224 3239 3257 3266 3276 3287 3287 3292 3296 3303 3312 3320 3336 3353 3368 3373 3378 3381 3381 3381 3381 3381 3389 3393 3407 3407 3409 3411 3414 3419 3420 3424 3424 3424 3423 3421 3421 3421 3428 3432 3433 3433 3434 3435 3437 3441 3444 3444 3447 3452 3458 3462 3464 3466 3466 3470 3473 3475 3477 3479 3481 3485 3490 3494 3498 3502 3507 3516 3525 3529 3530 3534 3537 3548 3555 3563 3563 3563 3542 3469 3342 3342 3342 3446 3567 3574 3574 3573 3574 3574 3576 3580 3582 3583 3587 3590 3594 3594 3595 3596 3599 3600 3609 3617 3622 3625 3625 3622 3606 3559 3531 3516 3516 3515 3513 3503 3493 3479 3458 3429 3388 3361 3349 3342 3323 3309 3290 3255 3178 2864 0 0 0 0 0 0 1867 1855 1851 1848 0 0 0 0 0 0 1655 1646 1641 1639 1639 1638 1637 1637 1637 1636 1636 1636 1637 1639 1641 1641 1643 1643 1644 1645 1646 1647 1648 1648 1648 1648 1648 1648 1647 1646 1646 1646 1648 1651 1652 1652 1655 1657 1660 1662 1667 1671 1673 1676 1681 1685 1687 1687 1690 1692 1694 1696 1697 1699 1700 1703 1705 1706 1707 1708 1709 1710 1711 1711 1713 1713 1714 1715 1716 1717 1718 1722 1723 1724 1724 1726 1731 1732 1734 1736 1739 1740 1742 1743 1745 1746 1747 1747 1747 1746 1746 1745 1744 1743 1740 1736 1735 1735 1735 1735 1736 1736 1739 1741 1742 1745 1750 1755 1765 1770 1772 1774 1781 1784 1787 1791 1791 1791 1791 1790 1789 1789 1789 1789 1789 1789 1788 1788 1788 1789 1792 1794 1794 1795 1797 1807 1813 1818 1824 1829 1831 1831 1832 1833 1835 1837 1837 1839 1839 1840 1841 1841 1841 1841 1841 1841 1841 1841 1841 1840 1840 1839 1839 1839 1839 1838 1837 1837 1836 1834 1832 1830 1826 1825 1821 1818 1816 1813 1812 1811 1809 1807 1803 1802 1800 1799 1795 1791 1789 1787 1786 1783 1781 1780 1780 1779 1779 1780 1780 1781 1781 1781 1781 1779 1778 1776 1776 1776 1777 1780 1783 1786 1790 1801 1811 1821 1831 1849 1862 1871 1871 1873 1875 1876 1877 1877 1880 1881 1883 1885 1887 1887 1889 1891 1892 1894 1896 1897 1899 1900 1901 1903 1904 1905 1905 1906 1908 1909 1910 1911 1911 1912 1913 1913 1915 1915 1917 1917 1918 1920 1922 1923 1924 1925 1926 1928 1930 1933 1936 1939 1941 1944 1948 1955 1961 1964 1968 1973 1977 1979 1982 1986 1990 1995 2000 2004 2007 2011 2015 2017 2021 2023 2028 2029 2030 2030 2030 2031 2037 2037 2037 2037 0 0 0 0 0 0 0 0 0 0 0 0 0 0 0 0 0 0 0 0 0 0 0 0 0 0 0 0 0 0 0 0 0 0 0 0 0 0 0 0 0 0 0 0 0 0 0 0 0 0 0 0 0 0 0 0 0 0 0 0 0 0 0 0 0 0 0 0 0 0 0 0 0 0 0 0 0 0 0 0 0 0 0 0 0 0 0 0 0 0 0 0 0 0 0 0 0 0 0 0 0 0 0 0 0 0 0 0 0 0 0 0 0 0 0 0 0 0 0 0 0 0 0 0 0 0 0 0 0 0 0 0 0 0 0 0 0 0 0 0 0 0 0 0 0 0 0 0 0 0 0 0 0 0 0 0 0 0 0 0 0 0 0 0 0 0 0 0 0
2878 2878 2903 2906 2931 2936 2943 2960 2993 3019 3048 3083 3090 3103 3135 3162 3163 3163 3165 3165 3171 3195 3216 3221 3238 3241 3253 3261 3273 3287 3292 3293 3303 3316 3324 3336 3353 3368 3373 3378 3380 3380 3380 3381 3381 3389 3394 3407 3407 3409 3414 3418 3420 3421 3424 3425 3425 3425 3425 3425 3426 3431 3431 3432 3433 3433 3435 3437 3441 3444 3444 3448 3455 3463 3469 3469 3470 3470 3470 3474 3475 3478 3480 3482 3485 3490 3494 3498 3503 3511 3520 3530 3536 3537 3542 3545 3552 3557 3563 3563 3563 3540 3469 3333 3333 3333 3442 3561 3566 3566 3566 3567 3568 3573 3578 3581 3583 3587 3590 3593 3595 3595 3596 3604 3607 3621 3625 3625 3625 3622 3614 3592 3549 3526 3515 3508 3505 3498 3490 3481 3472 3454 3428 3385 3344 3327 3313 3303 3294 3265 3221 3059 2508 0 0 0 0 0 0 0 0 0 0 0 0 0 0 1652 1641 1635 1632 1632 1632 1632 1632 1632 1632 1632 1632 1632 1632 1634 1636 1637 1639 1641 1642 1643 1643 1645 1645 1645 1645 1644 1641 1641 1641 1640 1641 1642 1642 1642 1646 1646 1649 1653 1654 1655 1657 1661 1665 1667 1670 1675 1680 1681 1683 1686 1688 1691 1694 1696 1697 1698 1700 1702 1703 1704 1705 1706 1707 1708 1710 1710 1711 1713 1713 1714 1715 1717 1719 1721 1721 1723 1725 1726 1729 1731 1734 1736 1738 1740 1740 1741 1743 1744 1746 1746 1746 1745 1744 1744 1743 1740 1738 1737 1736 1736 1736 1736 1737 1739 1741 1742 1745 1750 1756 1765 1771 1772 1776 1781 1781 1785 1788 1790 1790 1790 1788 1788 1788 1788 1788 1788 1787 1787 1787 1788 1789 1792 1793 1794 1794 1797 1807 1812 1814 1821 1826 1827 1828 1828 1830 1833 1834 1835 1836 1837 1838 1838 1839 1839 1840 1840 1840 1840 1840 1840 1840 1840 1839 1839 1839 1839 1839 1838 1838 1837 1836 1833 1832 1829 1827 1824 1821 1817 1815 1814 1813 1811 1809 1806 1805 1804 1802 1799 1795 1793 1791 1789 1787 1785 1785 1785 1784 1785 1785 1784 1784 1785 1784 1784 1784 1782 1781 1780 1780 1780 1781 1786 1791 1800 1810 1821 1831 1843 1866 1871 1871 1873 1874 1875 1877 1877 1878 1880 1882 1884 1885 1887 1888 1889 1891 1892 1894 1896 1897 1899 1901 1902 1903 1904 1905 1906 1908 1909 1910 1911 1911 1912 1913 1914 1915 1916 1916 1918 1919 1920 1921 1922 1923 1924 1926 1927 1928 1930 1934 1936 1939 1941 1944 1947 1952 1956 1961 1964 1968 1973 1975 1977 1982 1986 1991 1998 2003 2006 2010 2014 2017 2020 2023 2026 2028 2029 2029 2029 2031 2037 2037 2037 2020 0 0 0 0 0 0 0 0 0 0 0 0 0 0 0 0 0 0 0 0 0 0 0 0 0 0 0 0 0 0 0 0 0 0 0 0 0 0 0 0 0 0 0 0 0 0 0 0 0 0 0 0 0 0 0 0 0 0 0 0 0 0 0 0 0 0 0 0 0 0 0 0 0 0 0 0 0 0 0 0 0 0 0 0 0 0 0 0 0 0 0 0 0 0 0 0 0 0 0 0 0 0 0 0 0 0 0 0 0 0 0 0 0 0 0 0 0 0 0 0 0 0 0 0 0 0 0 0 0 0 0 0 0 0 0 0 0 0 0 0 0 0 0 0 0 0 0 0 0 0 0 0 0 0 0 0 0 0 0 0 0 0 0 0 0 0 0 0 0
2878 2878 2898 2900 2908 2927 2933 2958 2987 3019 3048 3071 3083 3103 3130 3158 3158 3159 3164 3171 3190 3205 3216 3219 3234 3236 3243 3258 3270 3274 3279 3283 3302 3317 3324 3336 3353 3367 3371 3378 3380 3380 3381 3381 3381 3391 3395 3408 3409 3409 3414 3420 3421 3423 3424 3426 3426 3426 3426 3426 3427 3431 3431 3432 3433 3433 3435 3437 3441 3444 3444 3448 3457 3468 3474 3474 3474 3474 3474 3476 3477 3478 3481 3484 3487 3490 3494 3499 3503 3512 3521 3531 3538 3541 3545 3550 3556 3557 3564 3564 3564 3540 3463 3332 3332 3332 3439 3561 3565 3565 3565 3565 3565 3572 3578 3581 3582 3587 3590 3593 3596 3597 3602 3613 3617 3628 3628 3628 3625 3623 3613 3591 3535 3514 3509 3502 3493 3485 3475 3467 3460 3445 3418 3385 3340 3320 3305 3295 3278 3235 3099 2567 0 0 0 0 0 0 0 0 0 0 0 0 0 1649 1637 1634 1632 1631 1630 1630 1630 1630 1630 1630 1630 1629 1629 1629 1630 1633 1635 1635 1638 1640 1640 1641 1642 1643 1644 1644 1644 1641 1635 1632 1632 1632 1634 1634 1634 1635 1639 1642 1646 1650 1651 1652 1653 1656 1660 1661 1662 1671 1673 1674 1676 1682 1688 1690 1692 1693 1694 1696 1698 1700 1700 1702 1702 1703 1703 1704 1707 1708 1710 1712 1713 1714 1714 1716 1718 1718 1720 1722 1722 1724 1726 1729 1730 1733 1735 1736 1738 1739 1741 1741 1743 1743 1743 1743 1743 1743 1742 1741 1739 1738 1738 1738 1738 1738 1738 1738 1739 1742 1745 1751 1759 1765 1772 1772 1774 1778 1779 1785 1786 1788 1788 1788 1788 1788 1787 1787 1787 1787 1787 1787 1787 1788 1789 1792 1792 1793 1793 1797 1807 1808 1813 1821 1823 1825 1826 1827 1828 1830 1831 1833 1834 1835 1836 1837 1838 1838 1839 1839 1839 1840 1840 1840 1839 1839 1839 1839 1839 1839 1839 1839 1838 1838 1836 1836 1834 1831 1829 1825 1822 1819 1817 1816 1814 1812 1810 1808 1807 1805 1804 1803 1800 1796 1795 1793 1791 1790 1789 1789 1789 1788 1788 1788 1788 1787 1787 1787 1787 1787 1786 1786 1786 1786 1787 1791 1797 1806 1816 1829 1837 1854 1868 1871 1872 1874 1876 1876 1878 1879 1879 1880 1882 1884 1885 1887 1888 1890 1891 1892 1894 1896 1898 1900 1901 1903 1904 1905 1906 1907 1909 1910 1911 1912 1912 1913 1914 1915 1915 1916 1918 1920 1920 1921 1922 1922 1924 1925 1926 1927 1928 1930 1934 1936 1939 1941 1944 1947 1951 1954 1958 1961 1964 1967 1970 1973 1978 1984 1989 1994 1999 2004 2009 2012 2015 2018 2022 2024 2024 2026 2028 2029 2031 2040 2040 2040 2020 1992 0 0 0 0 0 0 0 0 0 0 0 0 0 0 0 0 0 0 0 0 0 0 0 0 0 0 0 0 0 0 0 0 0 0 0 0 0 0 0 0 0 0 0 0 0 0 0 0 0 0 0 0 0 0 0 0 0 0 0 0 0 0 0 0 0 0 0 0 0 0 0 0 0 0 0 0 0 0 0 0 0 0 0 0 0 0 0 0 0 0 0 0 0 0 0 0 0 0 0 0 0 0 0 0 0 0 0 0 0 0 0 0 0 0 0 0 0 0 0 0 0 0 0 0 0 0 0 0 0 0 0 0 0 0 0 0 0 0 0 0 0 0 0 0 0 0 0 0 0 0 0 0 0 0 0 0 0 0 0 0 0 0 0 0 0 0 0 0
2878 2878 2896 2899 2905 2923 2933 2958 2986 3008 3031 3047 3083 3103 3123 3146 3151 3155 3159 3171 3190 3205 3216 3216 3217 3218 3237 3251 3256 3264 3268 3283 3302 3319 3324 3331 3343 3356 3369 3378 3380 3387 3388 3388 3392 3400 3403 3408 3410 3410 3415 3422 3423 3423 3427 3427 3427 3427 3428 3428 3428 3431 3431 3431 3432 3432 3436 3437 3441 3444 3444 3451 3459 3468 3475 3476 3478 3478 3479 3479 3479 3480 3482 3484 3488 3492 3494 3499 3506 3512 3521 3531 3538 3543 3545 3550 3556 3557 3564 3564 3564 3536 3456 3326 3326 3326 3438 3561 3562 3563 3563 3564 3565 3571 3578 3581 3582 3587 3590 3593 3598 3602 3609 3619 3622 3631 3631 3631 3625 3623 3613 3586 3534 3508 3497 3489 3475 3462 3452 3440 3432 3422 3400 3367 3333 3309 3292 3270 3243 3168 3000 0 0 0 0 0 0 0 0 0 0 0 0 1644 1632 1628 1628 1627 1627 1627 1626 1625 1625 1625 1625 1627 1627 1627 1627 1629 1630 1632 1633 1634 1635 1637 1638 1639 1639 1639 1639 1639 1639 1634 1629 1628 1628 1628 1628 1629 1630 1632 1632 1635 1642 1646 1647 1648 1650 1653 1655 1657 1659 1661 1662 1667 1673 1679 1685 1688 1690 1691 1692 1693 1695 1697 1697 1697 1698 1698 1699 1702 1706 1706 1706 1706 1706 1707 1707 1709 1716 1716 1718 1720 1721 1722 1724 1726 1728 1729 1732 1734 1736 1737 1738 1740 1740 1742 1742 1742 1742 1742 1742 1741 1739 1739 1739 1739 1739 1739 1739 1739 1740 1747 1747 1752 1762 1765 1771 1772 1774 1777 1779 1782 1784 1785 1786 1787 1787 1787 1787 1786 1786 1786 1786 1786 1786 1786 1786 1787 1789 1792 1793 1797 1804 1807 1810 1814 1818 1821 1825 1826 1826 1827 1829 1831 1832 1834 1835 1836 1837 1837 1838 1838 1839 1839 1839 1839 1839 1839 1839 1839 1839 1839 1839 1839 1839 1838 1838 1836 1835 1833 1830 1827 1823 1820 1818 1817 1816 1814 1812 1810 1809 1808 1807 1805 1802 1801 1798 1797 1795 1794 1794 1793 1793 1793 1793 1793 1793 1792 1792 1792 1792 1792 1791 1791 1791 1791 1793 1798 1805 1814 1826 1837 1849 1862 1868 1871 1872 1874 1877 1879 1879 1880 1882 1883 1884 1886 1886 1888 1889 1890 1892 1892 1895 1896 1898 1900 1902 1903 1904 1906 1906 1908 1909 1911 1912 1913 1914 1914 1915 1916 1917 1918 1919 1920 1920 1922 1923 1924 1925 1925 1926 1928 1929 1932 1935 1938 1940 1942 1944 1947 1950 1953 1957 1960 1962 1966 1969 1971 1975 1981 1987 1990 1994 2000 2006 2009 2012 2016 2019 2021 2022 2023 2027 2029 2031 2040 2040 2040 2020 1995 0 0 0 0 0 0 0 0 0 0 0 0 0 0 0 0 0 0 0 0 0 0 0 0 0 0 0 0 0 0 0 0 0 0 0 0 0 0 0 0 0 0 0 0 0 0 0 0 0 0 0 0 0 0 0 0 0 0 0 0 0 0 0 0 0 0 0 0 0 0 0 0 0 0 0 0 0 0 0 0 0 0 0 0 0 0 0 0 0 0 0 0 0 0 0 0 0 0 0 0 0 0 0 0 0 0 0 0 0 0 0 0 0 0 0 0 0 0 0 0 0 0 0 0 0 0 0 0 0 0 0 0 0 0 0 0 0 0 0 0 0 0 0 0 0 0 0 0 0 0 0 0 0 0 0 0 0 0 0 0 0 0 0 0 0 0 0 0
2878 2878 2888 2890 2901 2920 2933 2958 2986 3008 3021 3047 3086 3109 3125 3135 3141 3147 3155 3171 3190 3205 3212 3216 3217 3218 3237 3251 3256 3264 3268 3278 3301 3317 3323 3324 3329 3348 3367 3373 3381 3387 3388 3388 3393 3401 3405 3408 3412 3414 3416 3422 3423 3423 3427 3427 3428 3429 3429 3429 3429 3430 3430 3430 3431 3434 3437 3439 3441 3445 3449 3453 3459 3468 3475 3479 3483 3483 3483 3483 3483 3483 3483 3487 3491 3495 3498 3501 3506 3513 3523 3532 3539 3543 3547 3550 3556 3558 3564 3564 3564 3525 3427 3307 3307 3307 3407 3558 3561 3561 3561 3563 3565 3571 3578 3582 3583 3588 3595 3600 3603 3607 3613 3623 3627 3631 3631 3631 3625 3623 3603 3577 3531 3491 3479 3471 3456 3441 3425 3410 3398 3387 3368 3340 3316 3289 3266 3236 3186 3110 2908 0 0 0 0 0 0 0 0 0 0 0 1629 1616 1616 1616 1620 1623 1623 1623 1622 1621 1621 1621 1623 1624 1624 1625 1627 1628 1630 1631 1632 1633 1634 1634 1634 1635 1636 1637 1637 1637 1632 1629 1629 1628 1627 1627 1627 1628 1628 1628 1629 1632 1636 1639 1643 1645 1646 1647 1649 1652 1653 1655 1659 1667 1671 1679 1683 1687 1688 1689 1690 1691 1693 1693 1694 1695 1695 1695 1698 1701 1704 1704 1704 1700 1700 1700 1704 1706 1711 1711 1714 1717 1718 1720 1722 1723 1725 1727 1729 1733 1734 1735 1737 1737 1739 1740 1740 1741 1741 1741 1741 1741 1740 1739 1739 1739 1740 1740 1741 1742 1743 1747 1752 1755 1762 1765 1770 1772 1774 1777 1779 1781 1782 1784 1785 1785 1785 1785 1786 1785 1785 1784 1783 1783 1783 1783 1783 1784 1786 1789 1793 1797 1802 1803 1805 1807 1810 1813 1820 1823 1823 1824 1825 1828 1830 1832 1833 1834 1835 1835 1837 1837 1838 1838 1838 1838 1838 1839 1839 1839 1839 1839 1839 1839 1839 1838 1838 1836 1835 1834 1831 1827 1825 1823 1821 1819 1818 1816 1813 1812 1811 1811 1809 1808 1806 1803 1802 1799 1799 1798 1797 1797 1797 1797 1797 1797 1796 1796 1796 1796 1796 1796 1796 1796 1796 1797 1801 1808 1815 1824 1838 1848 1864 1865 1869 1871 1872 1875 1877 1879 1880 1881 1882 1884 1885 1886 1886 1888 1889 1890 1892 1893 1895 1896 1898 1900 1902 1903 1904 1906 1907 1908 1909 1911 1912 1914 1915 1916 1916 1918 1918 1919 1920 1921 1921 1923 1924 1925 1926 1927 1928 1929 1931 1934 1937 1939 1940 1942 1944 1947 1950 1953 1955 1958 1962 1966 1968 1971 1975 1980 1982 1987 1991 1996 2000 2005 2008 2011 2016 2017 2020 2022 2027 2028 2031 2041 2041 2041 2032 2001 0 0 0 0 0 0 0 0 0 0 0 0 0 0 0 0 0 0 0 0 0 0 0 0 0 0 0 0 0 0 0 0 0 0 0 0 0 0 0 0 0 0 0 0 0 0 0 0 0 0 0 0 0 0 0 0 0 0 0 0 0 0 0 0 0 0 0 0 0 0 0 0 0 0 0 0 0 0 0 0 0 0 0 0 0 0 0 0 0 0 0 0 0 0 0 0 0 0 0 0 0 0 0 0 0 0 0 0 0 0 0 0 0 0 0 0 0 0 0 0 0 0 0 0 0 0 0 0 0 0 0 0 0 0 0 0 0 0 0 0 0 0 0 0 0 0 0 0 0 0 0 0 0 0 0 0 0 0 0 0 0 0 0 0 0 0 0 0
2862 2862 2882 2885 2900 2918 2950 2975 2986 3008 3021 3047 3086 3103 3121 3125 3130 3130 3148 3167 3180 3202 3212 3216 3217 3218 3237 3251 3256 3264 3268 3278 3301 3315 3317 3318 3321 3338 3361 3373 3381 3387 3388 3388 3393 3401 3405 3410 3410 3414 3417 3422 3423 3423 3427 3428 3428 3429 3429 3429 3429 3430 3430 3430 3433 3435 3437 3441 3443 3445 3450 3454 3461 3469 3475 3483 3488 3488 3488 3488 3488 3488 3489 3494 3498 3503 3504 3505 3510 3513 3524 3532 3540 3544 3547 3550 3555 3559 3559 3559 3556 3513 3417 3306 3306 3306 3402 3558 3561 3564 3564 3564 3566 3571 3578 3582 3587 3591 3598 3603 3607 3611 3616 3623 3627 3631 3631 3631 3627 3623 3603 3572 3512 3474 3460 3457 3439 3423 3405 3384 3371 3356 3335 3310 3285 3258 3226 3196 3136 3016 2755 0 0 0 0 0 0 0 0 0 1627 1620 1614 1613 1613 1613 1618 1620 1620 1620 1620 1619 1619 1619 1619 1620 1622 1623 1625 1628 1629 1629 1631 1631 1632 1633 1633 1633 1633 1633 1633 1633 1632 1629 1629 1627 1627 1627 1627 1628 1628 1628 1629 1630 1633 1635 1637 1639 1641 1642 1642 1646 1651 1653 1657 1663 1671 1678 1681 1684 1685 1687 1688 1689 1689 1690 1691 1691 1693 1695 1695 1695 1697 1697 1695 1697 1697 1697 1702 1706 1709 1711 1711 1714 1715 1717 1719 1721 1724 1726 1728 1729 1731 1733 1734 1736 1737 1738 1740 1740 1740 1740 1740 1740 1740 1739 1739 1739 1741 1742 1742 1745 1747 1748 1752 1756 1762 1765 1769 1772 1773 1775 1778 1781 1782 1783 1784 1784 1784 1785 1784 1784 1784 1782 1780 1780 1780 1781 1781 1782 1784 1786 1790 1794 1796 1799 1803 1807 1810 1811 1818 1820 1821 1821 1823 1825 1828 1830 1831 1831 1833 1835 1835 1836 1836 1836 1836 1837 1837 1837 1838 1838 1838 1839 1839 1839 1839 1838 1838 1836 1835 1834 1831 1828 1826 1825 1823 1820 1819 1817 1815 1814 1814 1814 1811 1810 1808 1807 1804 1802 1802 1802 1802 1802 1802 1802 1802 1801 1800 1800 1800 1800 1801 1801 1801 1801 1801 1805 1813 1819 1824 1837 1845 1861 1867 1868 1869 1871 1872 1875 1877 1879 1880 1881 1883 1884 1885 1886 1887 1888 1889 1890 1892 1893 1895 1896 1898 1900 1902 1903 1904 1906 1907 1908 1910 1911 1913 1914 1916 1917 1918 1918 1920 1920 1920 1922 1923 1924 1925 1926 1927 1928 1929 1931 1933 1935 1937 1940 1941 1943 1945 1948 1949 1952 1955 1955 1959 1962 1966 1970 1974 1978 1982 1984 1989 1993 1998 2000 2004 2009 2013 2015 2019 2022 2024 2025 2025 2039 2043 2043 2043 2011 1987 0 0 0 0 0 0 0 0 0 0 0 0 0 0 0 0 0 0 0 0 0 0 0 0 0 0 0 0 0 0 0 0 0 0 0 0 0 0 0 0 0 0 0 0 0 0 0 0 0 0 0 0 0 0 0 0 0 0 0 0 0 0 0 0 0 0 0 0 0 0 0 0 0 0 0 0 0 0 0 0 0 0 0 0 0 0 0 0 0 0 0 0 0 0 0 0 0 0 0 0 0 0 0 0 0 0 0 0 0 0 0 0 0 0 0 0 0 0 0 0 0 0 0 0 0 0 0 0 0 0 0 0 0 0 0 0 0 0 0 0 0 0 0 0 0 0 0 0 0 0 0 0 0 0 0 0 0 0 0 0 0 0 0 0 0 0 0
2844 2844 2865 2868 2895 2923 2953 2993 3010 3018 3021 3047 3083 3103 3119 3120 3125 3126 3136 3156 3178 3200 3212 3218 3224 3234 3244 3255 3258 3264 3268 3278 3301 3308 3309 3314 3321 3338 3361 3373 3380 3381 3382 3384 3393 3401 3405 3411 3412 3414 3418 3421 3421 3423 3427 3428 3428 3430 3433 3433 3433 3430 3430 3430 3433 3435 3438 3444 3445 3447 3450 3455 3461 3469 3476 3483 3488 3489 3490 3495 3496 3497 3498 3503 3507 3513 3513 3514 3517 3520 3527 3534 3542 3543 3546 3549 3555 3559 3559 3559 3541 3510 3415 3305 3305 3305 3402 3558 3560 3565 3565 3565 3567 3579 3585 3589 3592 3594 3599 3604 3608 3613 3617 3624 3627 3631 3631 3631 3627 3623 3603 3551 3494 3458 3443 3436 3421 3405 3387 3369 3350 3330 3304 3277 3254 3218 3190 3162 3093 2897 0 0 0 0 0 0 0 0 1620 1614 1606 1604 1604 1604 1604 1609 1614 1615 1615 1615 1615 1615 1616 1616 1616 1617 1619 1622 1624 1625 1626 1628 1628 1629 1630 1630 1631 1632 1632 1632 1632 1632 1632 1629 1628 1627 1627 1627 1627 1628 1628 1628 1628 1629 1631 1632 1634 1635 1637 1639 1642 1644 1648 1649 1651 1657 1666 1673 1678 1679 1681 1684 1684 1685 1685 1685 1686 1688 1690 1690 1693 1693 1693 1686 1682 1682 1682 1689 1699 1701 1704 1709 1711 1711 1712 1714 1716 1719 1722 1724 1725 1727 1729 1731 1733 1734 1736 1737 1737 1738 1738 1739 1739 1739 1739 1739 1739 1739 1740 1742 1743 1744 1745 1747 1752 1756 1762 1763 1766 1769 1771 1774 1777 1779 1780 1782 1782 1782 1782 1782 1782 1782 1782 1781 1779 1779 1779 1779 1780 1781 1782 1784 1787 1791 1791 1794 1803 1805 1808 1811 1815 1818 1820 1820 1821 1823 1826 1827 1829 1829 1831 1832 1832 1834 1835 1835 1835 1835 1836 1836 1836 1836 1837 1837 1837 1838 1838 1837 1837 1836 1835 1834 1833 1829 1828 1827 1824 1821 1820 1819 1818 1816 1816 1815 1814 1813 1810 1809 1807 1806 1806 1806 1806 1807 1807 1807 1806 1806 1806 1804 1804 1804 1805 1805 1805 1806 1810 1815 1822 1827 1834 1844 1859 1868 1869 1869 1870 1872 1873 1875 1878 1879 1881 1881 1883 1884 1885 1886 1887 1888 1889 1891 1892 1893 1895 1896 1898 1899 1901 1903 1904 1906 1907 1908 1910 1911 1913 1915 1916 1917 1919 1920 1920 1921 1922 1923 1924 1926 1926 1927 1929 1930 1930 1933 1934 1936 1939 1940 1942 1943 1945 1948 1950 1952 1954 1955 1957 1960 1963 1966 1972 1977 1981 1984 1987 1991 1995 1998 2004 2008 2012 2014 2016 2019 2021 2023 2023 2037 2048 2048 2048 2036 2007 0 0 0 0 0 0 0 0 0 0 0 0 0 0 0 0 0 0 0 0 0 0 0 0 0 0 0 0 0 0 0 0 0 0 0 0 0 0 0 0 0 0 0 0 0 0 0 0 0 0 0 0 0 0 0 0 0 0 0 0 0 0 0 0 0 0 0 0 0 0 0 0 0 0 0 0 0 0 0 0 0 0 0 0 0 0 0 0 0 0 0 0 0 0 0 0 0 0 0 0 0 0 0 0 0 0 0 0 0 0 0 0 0 0 0 0 0 0 0 0 0 0 0 0 0 0 0 0 0 0 0 0 0 0 0 0 0 0 0 0 0 0 0 0 0 0 0 0 0 0 0 0 0 0 0 0 0 0 0 0 0 0 0 0 0 0 0
2817 2817 2848 2852 2890 2923 2968 3013 3017 3024 3028 3044 3081 3101 3103 3108 3112 3116 3131 3156 3176 3196 3212 3219 3232 3235 3244 3255 3258 3264 3268 3276 3288 3308 3309 3314 3321 3338 3355 3363 3368 3372 3375 3378 3385 3390 3402 3412 3414 3417 3418 3420 3421 3423 3427 3428 3428 3431 3437 3437 3437 3431 3431 3431 3433 3436 3442 3451 3455 3456 3456 3457 3461 3469 3477 3483 3488 3489 3490 3495 3504 3507 3510 3511 3515 3517 3520 3521 3524 3526 3534 3540 3543 3543 3545 3549 3555 3557 3557 3557 3541 3508 3415 3304 3304 3304 3401 3556 3560 3566 3566 3566 3573 3584 3593 3597 3600 3601 3604 3607 3612 3616 3622 3624 3627 3631 3631 3631 3627 3614 3583 3526 3479 3451 3430 3416 3398 3382 3372 3358 3335 3302 3269 3237 3204 3170 3139 3053 2811 0 0 0 0 0 0 0 1619 1606 1602 1600 1598 1598 1598 1600 1602 1604 1608 1609 1610 1610 1611 1614 1614 1614 1614 1614 1616 1619 1621 1623 1625 1626 1627 1627 1628 1629 1629 1630 1631 1631 1631 1631 1630 1629 1628 1628 1628 1628 1628 1628 1628 1628 1628 1628 1629 1629 1630 1631 1633 1635 1639 1642 1643 1645 1647 1648 1658 1669 1674 1676 1679 1679 1681 1681 1683 1684 1684 1687 1687 1687 1687 1686 1682 1680 1678 1678 1678 1685 1692 1695 1698 1705 1709 1709 1709 1711 1714 1717 1721 1723 1723 1724 1726 1728 1731 1732 1734 1735 1735 1735 1736 1737 1738 1738 1738 1738 1738 1739 1739 1740 1743 1743 1744 1747 1751 1756 1758 1761 1765 1766 1769 1771 1774 1776 1779 1779 1779 1779 1779 1779 1780 1780 1780 1779 1778 1778 1777 1777 1777 1779 1779 1782 1784 1785 1791 1794 1800 1805 1807 1811 1814 1818 1818 1818 1820 1821 1823 1826 1826 1828 1828 1830 1831 1832 1833 1833 1833 1833 1834 1834 1834 1835 1835 1835 1836 1836 1837 1837 1837 1835 1835 1834 1833 1831 1829 1827 1825 1823 1821 1820 1820 1819 1819 1818 1817 1815 1813 1811 1811 1809 1809 1809 1810 1811 1811 1811 1811 1811 1811 1807 1807 1807 1808 1810 1810 1812 1818 1823 1829 1832 1843 1853 1866 1869 1869 1870 1871 1872 1874 1876 1878 1880 1881 1882 1883 1884 1885 1886 1887 1888 1889 1891 1892 1893 1895 1896 1897 1899 1901 1903 1904 1906 1907 1909 1910 1911 1913 1915 1916 1917 1919 1920 1921 1922 1923 1924 1925 1926 1927 1928 1929 1930 1932 1934 1936 1937 1939 1941 1943 1944 1946 1948 1950 1952 1954 1955 1957 1959 1962 1964 1969 1975 1979 1982 1987 1989 1992 1998 2003 2006 2010 2012 2013 2016 2016 2017 2020 2034 2050 2050 2050 2038 2007 0 0 0 0 0 0 0 0 0 0 0 0 0 0 0 0 0 0 0 0 0 0 0 0 0 0 0 0 0 0 0 0 0 0 0 0 0 0 0 0 0 0 0 0 0 0 0 0 0 0 0 0 0 0 0 0 0 0 0 0 0 0 0 0 0 0 0 0 0 0 0 0 0 0 0 0 0 0 0 0 0 0 0 0 0 0 0 0 0 0 0 0 0 0 0 0 0 0 0 0 0 0 0 0 0 0 0 0 0 0 0 0 0 0 0 0 0 0 0 0 0 0 0 0 0 0 0 0 0 0 0 0 0 0 0 0 0 0 0 0 0 0 0 0 0 0 0 0 0 0 0 0 0 0 0 0 0 0 0 0 0 0 0 0 0 0 0
