2897 2897 2898 2948 3000 3000 3000 2987 2952 2899 2899 2899 2929 3021 3071 3087 3087 3089 3089 3089 3167 3209 3221 3221 3222 3225 3234 3236 3238 3238 3242 3246 3249 3249 3259 3277 3287 3291 3291 3291 3288 3285 3285 3285 3290 3295 3306 3312 3319 3328 3339 3355 3368 3385 3392 3393 3393 3393 3393 3394 3397 3400 3408 3414 3422 3431 3437 3438 3440 3448 3455 3464 3468 3471 3471 3473 3474 3478 3478 3478 3478 3481 3483 3488 3488 3488 3486 3477 3461 3452 3452 3461 3545 3588 3620 3621 3626 3635 3639 3644 3648 3650 3654 3660 3664 3666 3670 3670 3672 3672 3672 3671 3669 3668 3667 3666 3664 3663 3662 3660 3660 3659 3659 3655 3650 3650 3648 3647 3644 3642 3637 3634 3632 3629 3628 3628 3626 3623 3617 3615 3613 3612 3612 3611 3609 3605 3602 3598 3595 3593 3590 3589 3589 3587 3587 3587 3588 3588 3588 3587 3585 3582 3573 3569 3569 3569 3570 3573 3586 3586 3586 3585 3543 3492 3387 2999 2670 0 0 2330 2319 2319 2308 2298 2298 2298 2301 2301 2301 2301 2298 2296 2296 2296 2298 2298 2299 2299 2299 2299 2299 2299 2299 2299 2298 2298 2298 2299 2300 2301 2302 2303 2304 2306 2309 2310 2312 2314 2317 2319 2322 2324 2327 2330 2333 2337 2339 2342 2345 2348 2351 2353 2355 2356 2356 2356 2354 2353 2353 2353 2353 2353 2351 2342 2330 2313 2298 2283 2268 2255 2241 2224 2212 2202 2177 2139 2097 2074 2061 2052 2039 2026 2017 2011 2007 2003 1999 1993 1988 1983 1976 1970 1968 1966 1965 1963 1962 1961 1959 1958 1958 1957 1956 1954 1952 1951 1948 1946 1945 1943 1939 1937 1933 1929 1927 1925 1923 1920 1918 1916 1914 1912 1911 1910 1908 1906 1905 1902 1900 1898 1895 1892 1889 1886 1884 1883 1882 1880 1876 1874 1874 1874 1874 1875 1876 1878 1880 1884 1886 1889 1892 1894 1896 1897 1898 1899 1899 1900 1900 1900 1900 1900 1900 1899 1899 1898 1898 1898 1897 1896 1895 1895 1893 1891 1890 1888 1886 1884 1882 1881 1880 1880 1879 1879 1878 1877 1877 1876 1876 1876 1876 1875 1874 1873 1873 1873 1873 1873 1875 1875 1876 1876 1878 1881 1886 1890 1896 1902 1908 1919 1928 1937 1943 1949 1954 1960 1965 1968 1969 1973 1975 1979 1981 1985 1988 1990 1992 1995 1998 2001 2003 2005 2006 2009 2011 2013 2014 2015 2017 2017 2019 2020 2021 2022 2024 2025 2026 2028 2030 2032 2035 2037 2040 2042 2046 2050 2053 2062 2070 2079 2090 2105 2147 2196 2221 2262 2306 2317 2317 2317 2301 2294 2285 2282 2276 2273 2270 2268 2266 2264 2263 2261 2260 2258 2257 2255 2254 2252 2250 2249 2247 2246 2244 2242 2240 2238 2236 2233 2231 2228 2225 2222 2219 2216 2214 2211 2210 2208 2207 2206 2206 2206 2206 2207 2208 2211 2212 2213 2213 2214 2214 2216 2216 2216 2216 2216 2210 2202 2202 2192 0 0 0 0 0 0 0 0 0 0 0 0 0 0 0 0 0 0 0 0 0 0 0 0 0 0 0 0 0 0 0 0 0 0 0 0 0 0 0 0 0 0 0 0 0 0 0 0 0 0 0 0 0 0 0 0 0 0 0 0 0 0 0 0 0 0 0 0 0 0 0 0 0 0 0 0 0 0 0 0 0 0 0 0 0 0 0 0 0 0 0 0 0 0 0 0 0 0 0 0 0 0 0 0 0 0 0 0 0 0 0 0 0 0 0 0 0 0 0 0 0 0 0 0 0 0 0 0 0 0
2923 2923 2931 2963 3000 3000 3000 2987 2952 2899 2899 2899 2929 3021 3071 3087 3087 3089 3089 3089 3167 3209 3221 3222 3229 3229 3237 3237 3238 3239 3242 3243 3247 3249 3260 3280 3288 3288 3288 3288 3286 3285 3285 3285 3290 3295 3306 3314 3323 3338 3349 3362 3376 3389 3393 3395 3396 3398 3398 3400 3402 3406 3412 3419 3427 3434 3439 3446 3450 3452 3457 3464 3468 3471 3471 3473 3475 3478 3480 3482 3482 3487 3488 3488 3488 3488 3486 3477 3466 3459 3459 3466 3546 3590 3622 3630 3630 3637 3639 3644 3648 3650 3656 3662 3665 3669 3672 3673 3673 3674 3674 3674 3671 3670 3669 3668 3667 3666 3666 3665 3665 3665 3660 3656 3653 3653 3653 3651 3648 3643 3639 3635 3633 3633 3632 3632 3631 3628 3620 3616 3614 3613 3612 3612 3609 3606 3602 3598 3595 3593 3591 3591 3591 3591 3591 3591 3591 3595 3595 3595 3592 3583 3577 3577 3577 3577 3580 3586 3586 3586 3586 3585 3542 3480 3335 2887 2585 0 2357 2330 2319 2312 2304 2298 2298 2298 2300 2300 2300 2298 2296 2295 2295 2295 2296 2296 2296 2296 2297 2297 2297 2297 2297 2297 2298 2298 2298 2299 2300 2301 2302 2304 2305 2307 2309 2310 2312 2314 2317 2319 2322 2324 2327 2330 2333 2337 2340 2343 2346 2350 2353 2355 2358 2358 2358 2358 2354 2354 2354 2355 2355 2355 2351 2342 2331 2316 2301 2286 2271 2255 2241 2224 2212 2203 2185 2148 2103 2078 2061 2052 2040 2028 2018 2009 2007 2003 1997 1990 1985 1981 1975 1969 1967 1965 1963 1962 1961 1960 1958 1957 1957 1956 1954 1953 1951 1949 1946 1946 1943 1941 1937 1934 1930 1928 1925 1923 1921 1919 1916 1915 1914 1912 1910 1909 1907 1906 1904 1901 1900 1897 1894 1890 1887 1885 1884 1881 1879 1878 1874 1872 1872 1872 1873 1874 1875 1877 1879 1882 1884 1887 1891 1893 1895 1896 1897 1898 1899 1899 1899 1899 1899 1899 1898 1898 1898 1898 1897 1896 1896 1895 1894 1893 1891 1890 1888 1886 1885 1883 1882 1881 1880 1879 1879 1878 1877 1877 1876 1875 1875 1875 1874 1874 1873 1872 1872 1872 1872 1872 1873 1874 1875 1876 1876 1877 1881 1886 1892 1897 1902 1914 1926 1935 1940 1944 1950 1957 1962 1967 1968 1971 1975 1979 1981 1983 1987 1989 1992 1994 1997 2000 2002 2004 2007 2009 2011 2014 2015 2016 2018 2018 2019 2021 2024 2024 2026 2026 2029 2029 2031 2035 2036 2038 2040 2042 2046 2050 2053 2058 2062 2072 2083 2096 2114 2164 2216 2238 2284 2309 2309 2309 2300 2294 2285 2282 2279 2274 2272 2270 2268 2265 2264 2262 2261 2259 2258 2257 2255 2253 2251 2250 2248 2247 2246 2244 2242 2240 2237 2235 2232 2230 2226 2222 2220 2216 2214 2212 2210 2208 2207 2206 2206 2206 2207 2208 2209 2211 2212 2213 2214 2214 2214 2216 2216 2216 2216 2212 2204 2202 2196 2192 0 0 0 0 0 0 0 0 0 0 0 0 0 0 0 0 0 0 0 0 0 0 0 0 0 0 0 0 0 0 0 0 0 0 0 0 0 0 0 0 0 0 0 0 0 0 0 0 0 0 0 0 0 0 0 0 0 0 0 0 0 0 0 0 0 0 0 0 0 0 0 0 0 0 0 0 0 0 0 0 0 0 0 0 0 0 0 0 0 0 0 0 0 0 0 0 0 0 0 0 0 0 0 0 0 0 0 0 0 0 0 0 0 0 0 0 0 0 0 0 0 0 0 0 0 0 0 0 0 0
2923 2923 2967 2994 2998 2998 2998 2992 2979 2931 2931 2931 3009 3066 3071 3112 3116 3125 3133 3169 3199 3209 3221 3230 3232 3237 3237 3235 3237 3239 3241 3246 3251 3254 3266 3280 3288 3288 3288 3288 3287 3286 3287 3287 3293 3295 3306 3318 3328 3339 3354 3365 3376 3391 3398 3401 3404 3404 3406 3409 3409 3412 3417 3421 3430 3435 3444 3453 3455 3455 3457 3464 3465 3468 3468 3473 3477 3479 3482 3482 3486 3489 3489 3489 3488 3488 3486 3478 3468 3459 3459 3468 3552 3599 3623 3632 3640 3642 3642 3644 3648 3653 3656 3662 3665 3669 3672 3673 3673 3674 3674 3674 3671 3670 3670 3670 3670 3670 3670 3671 3671 3671 3665 3657 3657 3656 3656 3654 3652 3647 3642 3640 3637 3636 3635 3635 3633 3631 3626 3620 3616 3615 3613 3612 3610 3606 3602 3598 3595 3593 3593 3593 3593 3595 3596 3597 3598 3600 3600 3600 3600 3587 3584 3584 3584 3591 3591 3591 3594 3594 3594 3585 3539 3435 3112 2704 2529 0 2351 2330 2319 2312 2304 2298 2298 2298 2298 2298 2298 2296 2294 2294 2294 2294 2294 2294 2294 2295 2295 2295 2296 2296 2296 2296 2297 2297 2298 2299 2300 2302 2302 2304 2305 2307 2309 2310 2312 2314 2317 2319 2322 2324 2327 2330 2334 2337 2340 2344 2347 2351 2354 2357 2359 2360 2360 2360 2357 2356 2356 2356 2356 2356 2354 2340 2332 2321 2303 2287 2271 2255 2241 2222 2211 2203 2188 2153 2108 2079 2061 2052 2040 2028 2017 2009 2005 1999 1994 1986 1983 1979 1974 1969 1967 1963 1962 1962 1961 1958 1957 1956 1956 1954 1953 1952 1949 1946 1945 1943 1941 1939 1937 1932 1928 1925 1924 1922 1920 1917 1915 1914 1912 1911 1910 1908 1907 1905 1903 1901 1898 1894 1891 1888 1887 1884 1881 1879 1877 1875 1871 1871 1871 1871 1871 1873 1874 1876 1878 1880 1882 1886 1890 1891 1893 1895 1895 1896 1898 1898 1898 1898 1898 1897 1897 1896 1896 1896 1896 1896 1895 1894 1892 1892 1889 1888 1886 1884 1883 1882 1881 1879 1878 1878 1877 1877 1876 1875 1875 1874 1874 1874 1873 1873 1873 1872 1871 1871 1871 1871 1872 1873 1874 1875 1875 1876 1878 1884 1892 1897 1900 1910 1922 1932 1938 1942 1947 1955 1962 1967 1967 1969 1972 1976 1980 1982 1985 1988 1991 1994 1997 1999 2001 2004 2007 2009 2012 2014 2016 2017 2018 2019 2021 2022 2025 2027 2028 2028 2030 2031 2033 2035 2037 2040 2041 2042 2046 2050 2053 2058 2062 2068 2072 2088 2102 2130 2193 2235 2255 2293 2299 2299 2299 2292 2287 2282 2280 2276 2273 2270 2269 2266 2265 2263 2262 2260 2258 2258 2255 2254 2252 2251 2250 2248 2247 2246 2244 2241 2238 2235 2233 2230 2227 2224 2221 2219 2216 2214 2211 2210 2208 2207 2207 2207 2208 2209 2212 2212 2214 2214 2214 2215 2215 2216 2216 2216 2216 2211 2204 2198 2193 2192 0 0 0 0 0 0 0 0 0 0 0 0 0 0 0 0 0 0 0 0 0 0 0 0 0 0 0 0 0 0 0 0 0 0 0 0 0 0 0 0 0 0 0 0 0 0 0 0 0 0 0 0 0 0 0 0 0 0 0 0 0 0 0 0 0 0 0 0 0 0 0 0 0 0 0 0 0 0 0 0 0 0 0 0 0 0 0 0 0 0 0 0 0 0 0 0 0 0 0 0 0 0 0 0 0 0 0 0 0 0 0 0 0 0 0 0 0 0 0 0 0 0 0 0 0 0 0 0 0 0
2926 2926 2967 2998 2999 2999 2998 2998 2997 2997 3002 3045 3101 3131 3136 3136 3137 3144 3170 3212 3220 3226 3231 3231 3237 3237 3237 3234 3237 3239 3241 3251 3269 3276 3280 3290 3290 3290 3288 3288 3288 3290 3293 3295 3298 3308 3315 3326 3335 3343 3356 3370 3383 3391 3399 3404 3411 3412 3412 3414 3415 3419 3423 3427 3434 3442 3453 3458 3458 3462 3463 3464 3465 3468 3468 3473 3479 3482 3482 3483 3486 3489 3493 3495 3499 3499 3495 3495 3468 3459 3459 3468 3552 3603 3623 3637 3644 3646 3648 3649 3650 3653 3656 3662 3665 3669 3672 3673 3675 3675 3675 3675 3672 3670 3670 3670 3670 3670 3670 3672 3672 3672 3671 3667 3662 3662 3659 3657 3654 3649 3645 3644 3642 3640 3639 3637 3636 3634 3630 3623 3617 3615 3614 3612 3611 3608 3606 3600 3595 3593 3593 3593 3595 3599 3601 3602 3606 3607 3607 3607 3601 3587 3587 3587 3592 3592 3594 3599 3597 3594 3594 3582 3496 3325 2917 2611 0 0 2348 2330 2318 2311 2304 2298 2298 2297 2297 2297 2296 2294 2294 2293 2293 2293 2293 2293 2293 2293 2293 2294 2294 2295 2296 2296 2297 2297 2298 2299 2300 2302 2302 2304 2305 2307 2309 2310 2312 2315 2318 2320 2322 2324 2327 2330 2334 2337 2341 2345 2349 2352 2354 2357 2361 2362 2362 2362 2360 2360 2360 2359 2359 2359 2354 2340 2333 2321 2303 2287 2271 2255 2238 2222 2211 2203 2195 2164 2108 2079 2061 2051 2040 2028 2017 2009 2004 1999 1992 1985 1982 1978 1972 1969 1967 1963 1962 1961 1960 1958 1957 1955 1955 1953 1952 1950 1947 1945 1942 1941 1938 1937 1934 1930 1926 1923 1921 1919 1918 1916 1914 1912 1911 1911 1909 1908 1906 1904 1903 1900 1896 1893 1890 1887 1885 1883 1881 1876 1874 1872 1869 1869 1869 1869 1870 1871 1873 1875 1877 1880 1882 1885 1887 1890 1892 1894 1894 1896 1896 1896 1896 1896 1896 1896 1896 1896 1896 1895 1895 1894 1893 1892 1890 1889 1887 1886 1884 1883 1882 1881 1880 1878 1878 1876 1876 1875 1875 1874 1874 1873 1873 1873 1872 1871 1871 1871 1871 1871 1871 1871 1871 1872 1873 1873 1875 1875 1876 1882 1890 1896 1898 1906 1916 1927 1936 1940 1945 1952 1959 1963 1967 1968 1971 1975 1979 1982 1985 1988 1990 1993 1995 1998 2001 2004 2007 2010 2012 2014 2016 2018 2019 2020 2023 2025 2026 2028 2029 2030 2030 2032 2034 2035 2038 2040 2042 2044 2047 2051 2055 2058 2062 2068 2070 2075 2090 2109 2161 2205 2232 2259 2294 2294 2294 2292 2287 2280 2280 2278 2273 2270 2269 2267 2266 2264 2263 2261 2259 2258 2257 2255 2254 2254 2252 2250 2249 2247 2245 2243 2239 2237 2234 2231 2228 2225 2222 2220 2217 2215 2214 2212 2209 2209 2209 2209 2210 2212 2214 2215 2216 2216 2216 2217 2217 2217 2217 2217 2217 2211 2204 2198 2193 2192 0 0 0 0 0 0 0 0 0 0 0 0 0 0 0 0 0 0 0 0 0 0 0 0 0 0 0 0 0 0 0 0 0 0 0 0 0 0 0 0 0 0 0 0 0 0 0 0 0 0 0 0 0 0 0 0 0 0 0 0 0 0 0 0 0 0 0 0 0 0 0 0 0 0 0 0 0 0 0 0 0 0 0 0 0 0 0 0 0 0 0 0 0 0 0 0 0 0 0 0 0 0 0 0 0 0 0 0 0 0 0 0 0 0 0 0 0 0 0 0 0 0 0 0 0 0 0 0 0 0
2926 2926 2967 2998 2998 2998 2994 2994 2994 3021 3053 3110 3143 3164 3164 3164 3164 3164 3200 3212 3220 3230 3233 3233 3233 3233 3232 3232 3233 3236 3241 3259 3279 3289 3296 3301 3301 3301 3296 3296 3296 3299 3303 3307 3311 3317 3323 3329 3342 3352 3367 3379 3390 3396 3403 3411 3415 3421 3424 3424 3425 3425 3432 3437 3441 3451 3463 3466 3466 3466 3466 3466 3466 3468 3468 3474 3483 3488 3489 3489 3492 3492 3502 3505 3508 3508 3508 3508 3468 3459 3459 3468 3557 3605 3629 3641 3647 3648 3648 3649 3650 3653 3655 3659 3662 3665 3669 3673 3675 3676 3676 3676 3673 3671 3671 3671 3671 3671 3671 3672 3672 3672 3671 3670 3667 3664 3662 3658 3655 3650 3648 3647 3645 3644 3643 3640 3640 3639 3634 3624 3618 3616 3614 3612 3612 3611 3609 3604 3601 3596 3596 3596 3598 3601 3604 3608 3612 3612 3612 3611 3602 3587 3587 3587 3595 3595 3595 3594 3591 3568 3545 3523 3475 3265 2883 2593 0 2379 2348 2330 2318 2310 2304 2303 2299 2298 2298 2297 2294 2292 2291 2291 2291 2292 2292 2293 2293 2293 2293 2293 2294 2295 2295 2296 2297 2297 2298 2299 2300 2302 2302 2304 2305 2307 2309 2311 2313 2316 2318 2320 2323 2325 2328 2332 2334 2337 2342 2346 2349 2353 2355 2360 2363 2364 2364 2364 2363 2363 2362 2362 2362 2360 2354 2340 2333 2321 2303 2287 2269 2251 2238 2222 2211 2203 2200 2185 2121 2079 2062 2051 2040 2026 2016 2009 2004 1999 1992 1985 1982 1977 1972 1968 1967 1963 1962 1960 1959 1957 1956 1954 1953 1952 1950 1948 1947 1943 1940 1937 1936 1933 1931 1927 1923 1921 1919 1917 1916 1914 1912 1911 1910 1909 1909 1907 1906 1904 1902 1899 1895 1891 1887 1885 1882 1880 1878 1875 1873 1869 1867 1867 1867 1868 1869 1871 1873 1875 1877 1879 1881 1884 1886 1888 1890 1891 1893 1894 1894 1895 1895 1895 1895 1895 1895 1895 1894 1894 1893 1892 1891 1890 1889 1887 1886 1884 1883 1881 1880 1879 1878 1876 1875 1874 1874 1874 1873 1873 1872 1872 1871 1871 1871 1870 1870 1869 1869 1869 1869 1870 1870 1870 1871 1873 1873 1874 1875 1878 1884 1893 1898 1905 1915 1923 1930 1936 1941 1948 1955 1960 1962 1967 1970 1975 1978 1982 1985 1988 1989 1992 1994 1998 2000 2004 2006 2010 2012 2014 2016 2018 2020 2021 2024 2026 2027 2029 2030 2030 2032 2034 2035 2037 2040 2043 2045 2046 2049 2053 2057 2060 2064 2068 2070 2073 2076 2088 2119 2184 2221 2251 2273 2288 2288 2288 2287 2280 2280 2278 2276 2273 2270 2269 2267 2265 2264 2262 2261 2259 2258 2258 2257 2256 2254 2251 2250 2248 2246 2244 2241 2239 2235 2233 2229 2226 2224 2222 2219 2217 2216 2214 2211 2210 2210 2210 2212 2213 2214 2216 2217 2218 2218 2218 2218 2218 2218 2218 2217 2211 2204 2199 2198 2193 2186 2106 0 0 0 0 0 0 0 0 0 0 0 0 0 0 0 0 0 0 0 0 0 0 0 0 0 0 0 0 0 0 0 0 0 0 0 0 0 0 0 0 0 0 0 0 0 0 0 0 0 0 0 0 0 0 0 0 0 0 0 0 0 0 0 0 0 0 0 0 0 0 0 0 0 0 0 0 0 0 0 0 0 0 0 0 0 0 0 0 0 0 0 0 0 0 0 0 0 0 0 0 0 0 0 0 0 0 0 0 0 0 0 0 0 0 0 0 0 0 0 0 0 0 0 0 0 0 0 0
2927 2927 2974 2982 2994 2994 2994 2994 3007 3025 3070 3123 3181 3181 3181 3187 3189 3189 3200 3212 3220 3230 3231 3231 3231 3231 3231 3232 3233 3236 3246 3259 3279 3295 3301 3305 3305 3305 3299 3299 3299 3302 3312 3318 3324 3324 3325 3331 3343 3361 3375 3387 3397 3406 3411 3416 3422 3428 3431 3431 3432 3434 3437 3444 3449 3455 3468 3475 3475 3475 3475 3475 3475 3475 3480 3481 3485 3489 3491 3492 3496 3503 3507 3510 3515 3515 3515 3509 3468 3462 3462 3468 3555 3613 3634 3643 3647 3648 3649 3649 3650 3651 3653 3655 3657 3662 3666 3672 3675 3677 3677 3677 3674 3671 3671 3671 3671 3672 3672 3672 3672 3672 3672 3670 3668 3667 3664 3661 3657 3655 3651 3651 3649 3648 3648 3647 3645 3641 3635 3627 3618 3617 3615 3614 3612 3612 3610 3607 3604 3601 3601 3601 3603 3604 3608 3611 3615 3615 3615 3613 3602 3589 3589 3589 3600 3600 3600 3582 3568 3544 3515 3488 3449 3176 2798 2558 0 2354 2337 2315 2311 2307 2307 2304 2302 2298 2298 2296 2293 2292 2291 2291 2291 2292 2292 2292 2292 2292 2292 2292 2292 2293 2295 2296 2297 2297 2298 2299 2300 2301 2302 2303 2305 2307 2309 2312 2314 2317 2320 2322 2325 2327 2330 2332 2335 2338 2343 2348 2352 2355 2358 2362 2364 2366 2366 2366 2366 2366 2366 2366 2366 2366 2358 2346 2333 2318 2298 2281 2266 2249 2238 2225 2220 2211 2200 2188 2144 2090 2063 2051 2040 2026 2016 2010 2004 1999 1991 1984 1981 1976 1970 1969 1967 1965 1962 1960 1959 1957 1955 1954 1952 1951 1949 1947 1945 1942 1939 1935 1933 1931 1929 1926 1922 1919 1917 1916 1915 1913 1912 1911 1909 1907 1907 1907 1906 1904 1902 1898 1894 1890 1886 1884 1881 1879 1876 1873 1870 1868 1867 1867 1867 1867 1868 1869 1872 1874 1877 1878 1881 1883 1885 1887 1888 1889 1891 1892 1893 1893 1893 1893 1893 1893 1893 1893 1893 1893 1892 1891 1890 1888 1887 1885 1884 1883 1881 1879 1879 1878 1877 1875 1873 1873 1872 1872 1871 1871 1871 1870 1870 1869 1868 1868 1868 1868 1868 1868 1868 1868 1869 1869 1871 1871 1873 1873 1874 1878 1882 1890 1896 1904 1914 1918 1925 1931 1936 1942 1952 1956 1960 1966 1970 1974 1978 1982 1985 1987 1989 1992 1994 1996 2000 2004 2006 2010 2012 2014 2016 2019 2020 2022 2024 2027 2029 2030 2031 2032 2034 2035 2038 2039 2042 2044 2046 2049 2051 2054 2057 2060 2067 2070 2072 2073 2076 2082 2095 0 0 2244 2263 2281 2283 2283 2283 2281 2280 2280 2277 2275 2273 2270 2268 2267 2264 2263 2262 2261 2261 2260 2259 2259 2257 2253 2251 2249 2248 2245 2243 2240 2238 2234 2230 2228 2225 2223 2221 2219 2218 2215 2211 2211 2211 2211 2212 2214 2214 2216 2217 2219 2219 2219 2219 2219 2219 2219 2217 2215 2212 2212 2209 2207 2204 2143 0 0 0 0 0 0 0 0 0 0 0 0 0 0 0 0 0 0 0 0 0 0 0 0 0 0 0 0 0 0 0 0 0 0 0 0 0 0 0 0 0 0 0 0 0 0 0 0 0 0 0 0 0 0 0 0 0 0 0 0 0 0 0 0 0 0 0 0 0 0 0 0 0 0 0 0 0 0 0 0 0 0 0 0 0 0 0 0 0 0 0 0 0 0 0 0 0 0 0 0 0 0 0 0 0 0 0 0 0 0 0 0 0 0 0 0 0 0 0 0 0 0 0 0 0 0 0 0
2942 2942 2967 2982 2990 2992 2994 2994 3010 3048 3098 3143 3196 3201 3201 3202 3201 3201 3209 3210 3210 3230 3230 3230 3228 3228 3228 3232 3233 3238 3247 3259 3279 3295 3301 3305 3305 3305 3301 3301 3301 3304 3312 3324 3333 3333 3335 3336 3345 3367 3382 3394 3406 3416 3421 3427 3434 3435 3436 3437 3438 3441 3446 3450 3452 3459 3469 3476 3480 3482 3484 3484 3484 3487 3487 3488 3491 3492 3493 3494 3499 3508 3515 3520 3524 3524 3524 3509 3467 3462 3462 3467 3555 3623 3637 3644 3648 3648 3649 3649 3649 3651 3653 3655 3657 3662 3666 3670 3675 3677 3677 3677 3677 3673 3673 3673 3674 3674 3674 3673 3673 3673 3672 3670 3670 3667 3665 3663 3661 3659 3659 3657 3657 3656 3654 3654 3651 3642 3638 3628 3620 3618 3617 3616 3615 3614 3612 3611 3608 3606 3606 3606 3606 3609 3611 3611 3615 3615 3615 3614 3602 3591 3591 3591 3600 3600 3600 3578 3556 3529 3487 3423 3276 2974 2637 0 0 2339 2322 2315 2311 2310 2307 2307 2303 2298 2297 2295 2293 2292 2291 2291 2291 2291 2291 2292 2292 2292 2292 2292 2292 2293 2295 2296 2296 2297 2297 2299 2300 2301 2302 2303 2305 2307 2310 2312 2315 2318 2320 2323 2325 2328 2331 2334 2337 2340 2343 2349 2353 2356 2359 2362 2365 2366 2367 2367 2368 2368 2369 2369 2369 2366 2358 2346 2333 2311 2292 2277 2260 2247 2236 2226 2220 2211 2200 2188 2154 2104 2076 2064 2045 2026 2016 2012 2009 2003 1990 1984 1981 1976 1970 1968 1967 1965 1962 1960 1958 1957 1955 1953 1951 1950 1948 1946 1943 1940 1937 1934 1932 1930 1927 1923 1920 1918 1916 1915 1913 1912 1910 1909 1908 1907 1905 1904 1904 1903 1900 1896 1893 1890 1886 1882 1880 1878 1875 1871 1870 1868 1866 1866 1866 1867 1868 1869 1871 1873 1875 1877 1880 1882 1885 1886 1888 1888 1890 1891 1891 1892 1892 1892 1892 1892 1891 1891 1891 1891 1890 1890 1888 1886 1885 1884 1883 1881 1881 1879 1878 1877 1875 1874 1872 1871 1870 1870 1870 1870 1869 1869 1868 1867 1867 1866 1866 1866 1866 1866 1866 1867 1868 1868 1869 1869 1870 1872 1873 1877 1881 1888 1895 1903 1910 1915 1921 1928 1933 1939 1946 1954 1958 1963 1968 1973 1977 1982 1984 1987 1989 1991 1994 1996 2000 2004 2006 2010 2012 2014 2016 2019 2020 2022 2024 2027 2029 2030 2031 2033 2035 2037 2039 2040 2042 2044 2046 2049 2051 2056 2059 2063 2069 2072 2073 2073 2076 2081 2089 2104 2144 2216 2259 2272 2278 2284 2284 2284 2281 2281 2280 2277 2275 2271 2270 2268 2266 2265 2263 2263 2263 2263 2262 2261 2259 2256 2253 2251 2249 2246 2245 2241 2239 2235 2231 2229 2226 2225 2223 2221 2218 2215 2213 2212 2212 2212 2213 2214 2215 2216 2218 2219 2221 2221 2221 2221 2221 2221 2221 2220 2218 2218 2218 2217 2217 2181 0 0 0 0 0 0 0 0 0 0 0 0 0 0 0 0 0 0 0 0 0 0 0 0 0 0 0 0 0 0 0 0 0 0 0 0 0 0 0 0 0 0 0 0 0 0 0 0 0 0 0 0 0 0 0 0 0 0 0 0 0 0 0 0 0 0 0 0 0 0 0 0 0 0 0 0 0 0 0 0 0 0 0 0 0 0 0 0 0 0 0 0 0 0 0 0 0 0 0 0 0 0 0 0 0 0 0 0 0 0 0 0 0 0 0 0 0 0 0 0 0 0 0 0 0 0 0 0
2947 2947 2967 2982 2988 2994 3011 3034 3056 3085 3138 3177 3205 3211 3214 3214 3214 3213 3209 3209 3209 3216 3219 3224 3227 3228 3228 3233 3235 3241 3248 3260 3279 3295 3301 3303 3303 3303 3302 3302 3302 3308 3314 3325 3339 3343 3343 3345 3349 3368 3388 3403 3414 3424 3425 3432 3438 3440 3440 3441 3442 3442 3448 3455 3459 3464 3473 3480 3483 3486 3489 3490 3494 3497 3497 3498 3498 3498 3498 3499 3503 3512 3517 3525 3531 3531 3531 3509 3463 3462 3462 3463 3570 3623 3638 3646 3649 3649 3649 3649 3649 3651 3653 3655 3657 3662 3666 3670 3675 3677 3679 3679 3679 3678 3678 3678 3677 3677 3675 3675 3674 3673 3672 3671 3670 3669 3668 3665 3665 3665 3665 3665 3665 3664 3661 3658 3654 3647 3638 3630 3627 3620 3620 3618 3616 3616 3616 3612 3610 3608 3608 3608 3608 3610 3613 3614 3615 3615 3615 3614 3601 3591 3591 3591 3600 3600 3600 3578 3548 3511 3451 3256 2944 2679 0 0 2333 2322 2321 2315 2311 2311 2307 2307 2303 2298 2297 2294 2293 2292 2291 2291 2291 2291 2291 2291 2291 2291 2291 2291 2291 2293 2295 2296 2296 2297 2297 2298 2299 2301 2302 2303 2305 2307 2310 2312 2315 2318 2321 2323 2326 2329 2332 2335 2337 2341 2345 2350 2354 2357 2359 2362 2365 2367 2367 2368 2369 2370 2370 2370 2369 2366 2358 2346 2333 2308 2284 2271 2257 2246 2236 2226 2220 2211 2197 2188 2178 2132 2097 2080 2053 2033 2021 2015 2011 2004 1992 1982 1980 1975 1970 1968 1967 1965 1962 1960 1958 1956 1954 1952 1951 1948 1947 1944 1942 1939 1937 1934 1932 1929 1924 1920 1919 1917 1915 1913 1912 1911 1910 1908 1907 1905 1904 1903 1902 1900 1898 1895 1891 1888 1885 1882 1880 1876 1874 1871 1869 1868 1866 1866 1866 1867 1867 1869 1871 1873 1874 1877 1879 1882 1884 1886 1886 1888 1888 1889 1890 1891 1891 1891 1891 1891 1890 1890 1889 1889 1888 1888 1887 1885 1884 1883 1881 1879 1878 1878 1877 1876 1875 1872 1871 1870 1869 1868 1868 1868 1868 1867 1866 1866 1866 1866 1866 1866 1866 1866 1866 1866 1867 1867 1868 1868 1869 1870 1873 1877 1881 1886 1892 1900 1906 1912 1920 1927 1933 1939 1945 1952 1957 1961 1966 1971 1976 1980 1984 1986 1988 1989 1992 1996 1999 2003 2006 2009 2011 2014 2016 2019 2021 2022 2024 2027 2029 2030 2032 2033 2035 2037 2040 2042 2043 2045 2046 2049 2053 2057 2061 2065 2069 2072 2073 2073 2076 2078 2079 2083 2112 2178 2233 2252 2278 2284 2284 2284 2284 2281 2280 2278 2276 2272 2270 2269 2268 2267 2266 2265 2265 2264 2264 2263 2261 2258 2255 2254 2251 2249 2245 2243 2241 2236 2233 2231 2228 2226 2224 2222 2220 2217 2215 2215 2213 2213 2213 2215 2216 2217 2219 2220 2221 2222 2222 2223 2223 2223 2223 2223 2223 2224 2224 2224 2222 2188 0 0 0 0 0 0 0 0 0 0 0 0 0 0 0 0 0 0 0 0 0 0 0 0 0 0 0 0 0 0 0 0 0 0 0 0 0 0 0 0 0 0 0 0 0 0 0 0 0 0 0 0 0 0 0 0 0 0 0 0 0 0 0 0 0 0 0 0 0 0 0 0 0 0 0 0 0 0 0 0 0 0 0 0 0 0 0 0 0 0 0 0 0 0 0 0 0 0 0 0 0 0 0 0 0 0 0 0 0 0 0 0 0 0 0 0 0 0 0 0 0 0 0 0 0 0 0 0
2950 2950 2974 2985 2988 3012 3049 3080 3099 3137 3170 3181 3205 3211 3216 3216 3216 3213 3209 3209 3209 3216 3219 3224 3227 3228 3228 3234 3242 3245 3248 3261 3276 3283 3290 3295 3300 3300 3304 3305 3305 3308 3315 3325 3339 3350 3353 3355 3359 3369 3389 3406 3420 3425 3430 3435 3438 3440 3441 3442 3443 3446 3448 3460 3466 3471 3475 3480 3483 3487 3490 3495 3496 3499 3503 3503 3503 3505 3505 3505 3507 3512 3519 3525 3531 3531 3531 3481 3463 3458 3458 3463 3570 3624 3639 3650 3651 3651 3651 3651 3651 3654 3656 3659 3662 3663 3666 3670 3676 3678 3682 3683 3683 3683 3683 3683 3682 3680 3675 3675 3675 3675 3675 3672 3672 3672 3669 3667 3667 3667 3670 3670 3670 3670 3665 3662 3659 3655 3645 3634 3632 3624 3621 3621 3619 3619 3619 3617 3616 3613 3612 3612 3612 3613 3614 3614 3616 3616 3616 3614 3601 3591 3591 3591 3609 3609 3609 3577 3533 3453 3255 2907 2673 0 0 0 2328 2322 2321 2315 2312 2311 2311 2308 2304 2298 2295 2294 2293 2292 2291 2291 2291 2290 2291 2291 2290 2291 2291 2291 2291 2293 2295 2295 2296 2296 2297 2297 2299 2300 2301 2303 2305 2307 2310 2312 2315 2319 2321 2324 2327 2329 2333 2335 2338 2342 2345 2350 2354 2357 2360 2364 2366 2368 2369 2370 2371 2371 2371 2371 2370 2364 2356 2344 2330 2305 2284 2269 2255 2245 2236 2226 2216 2207 2194 2188 2178 2162 2113 2084 2065 2041 2028 2020 2014 2006 1993 1982 1978 1974 1971 1968 1967 1964 1962 1959 1957 1956 1953 1951 1950 1948 1946 1943 1940 1938 1935 1932 1930 1927 1923 1920 1918 1916 1915 1912 1911 1910 1908 1907 1905 1905 1903 1901 1899 1897 1895 1892 1890 1886 1883 1881 1878 1875 1872 1870 1869 1868 1865 1865 1865 1865 1867 1868 1870 1872 1873 1876 1878 1880 1883 1884 1886 1887 1888 1888 1889 1889 1890 1890 1890 1889 1889 1889 1888 1887 1887 1886 1885 1884 1882 1881 1880 1879 1878 1877 1876 1875 1873 1872 1871 1869 1868 1867 1866 1866 1865 1865 1865 1865 1864 1864 1864 1864 1864 1864 1864 1865 1865 1866 1867 1867 1868 1869 1872 1877 1880 1884 1889 1897 1903 1910 1918 1926 1932 1938 1945 1950 1954 1958 1963 1969 1974 1978 1983 1985 1986 1989 1991 1995 1999 2002 2005 2008 2011 2014 2016 2019 2021 2022 2024 2027 2029 2030 2032 2033 2036 2038 2040 2042 2044 2046 2047 2049 2053 2057 2061 2065 2069 2072 2073 2073 2076 2078 2079 2083 2102 2161 2220 2240 2278 2291 2291 2291 2287 2282 2280 2279 2277 2274 2273 2272 2271 2270 2269 2268 2267 2266 2266 2265 2263 2260 2258 2256 2254 2250 2247 2244 2241 2237 2234 2231 2230 2228 2225 2223 2221 2219 2218 2217 2216 2216 2216 2217 2217 2218 2219 2221 2223 2223 2223 2223 2223 2223 2223 2223 2223 2224 2227 2227 2227 2199 0 0 0 0 0 0 0 0 0 0 0 0 0 0 0 0 0 0 0 0 0 0 0 0 0 0 0 0 0 0 0 0 0 0 0 0 0 0 0 0 0 0 0 0 0 0 0 0 0 0 0 0 0 0 0 0 0 0 0 0 0 0 0 0 0 0 0 0 0 0 0 0 0 0 0 0 0 0 0 0 0 0 0 0 0 0 0 0 0 0 0 0 0 0 0 0 0 0 0 0 0 0 0 0 0 0 0 0 0 0 0 0 0 0 0 0 0 0 0 0 0 0 0 0 0 0 0 0
2955 2955 2974 2988 3001 3028 3072 3104 3137 3173 3181 3191 3205 3211 3218 3218 3218 3213 3210 3210 3210 3216 3219 3228 3228 3229 3232 3236 3245 3251 3260 3266 3276 3283 3284 3295 3300 3305 3307 3310 3313 3316 3317 3325 3340 3351 3362 3370 3374 3380 3392 3407 3421 3427 3431 3437 3438 3441 3442 3443 3444 3448 3455 3464 3471 3473 3479 3482 3484 3487 3490 3495 3497 3499 3503 3505 3507 3510 3510 3511 3511 3514 3519 3525 3525 3525 3521 3470 3468 3463 3463 3463 3570 3631 3646 3658 3658 3658 3655 3655 3655 3656 3658 3662 3666 3667 3669 3672 3679 3681 3684 3684 3684 3685 3685 3685 3685 3680 3676 3676 3676 3676 3676 3676 3676 3675 3673 3670 3670 3670 3670 3670 3670 3670 3666 3664 3663 3663 3656 3642 3639 3630 3624 3623 3623 3623 3623 3623 3622 3621 3619 3617 3615 3615 3615 3615 3617 3617 3617 3611 3599 3591 3591 3591 3601 3601 3601 3577 3523 3261 2961 2677 0 0 0 2329 2328 2322 2321 2319 2315 2311 2311 2308 2304 2298 2295 2294 2293 2292 2291 2290 2290 2290 2290 2290 2290 2290 2290 2290 2290 2292 2294 2294 2296 2296 2296 2297 2298 2299 2301 2302 2304 2307 2309 2312 2315 2319 2321 2325 2328 2330 2334 2337 2339 2343 2347 2352 2358 2361 2364 2368 2369 2370 2373 2373 2373 2371 2371 2371 2371 2363 2353 2343 2329 2302 2283 2269 2253 2242 2234 2222 2210 2202 2194 2188 2179 2162 2131 2094 2076 2056 2039 2027 2014 2006 1993 1982 1978 1974 1971 1969 1966 1964 1961 1959 1957 1955 1952 1949 1949 1947 1945 1941 1938 1936 1933 1931 1928 1924 1921 1919 1916 1915 1912 1911 1910 1909 1907 1905 1904 1902 1902 1899 1898 1895 1893 1890 1887 1885 1882 1879 1876 1873 1871 1868 1867 1866 1864 1864 1864 1864 1865 1867 1868 1870 1873 1875 1877 1879 1881 1883 1884 1885 1887 1887 1888 1889 1889 1889 1889 1888 1888 1887 1886 1886 1886 1885 1883 1882 1881 1879 1877 1876 1875 1874 1874 1874 1873 1872 1871 1869 1868 1867 1865 1865 1864 1864 1864 1863 1863 1863 1863 1863 1863 1863 1863 1863 1864 1864 1865 1866 1867 1869 1870 1874 1878 1882 1887 1895 1902 1908 1915 1924 1930 1936 1943 1948 1953 1955 1960 1967 1972 1977 1981 1983 1985 1987 1991 1993 1997 2000 2003 2008 2011 2014 2016 2019 2020 2022 2024 2026 2029 2030 2031 2033 2036 2038 2040 2042 2044 2046 2047 2049 2052 2057 2061 2065 2067 2068 2071 2075 2076 2078 2079 2083 2102 2146 2209 2234 2277 2291 2291 2291 2287 2285 2282 2280 2279 2278 2277 2277 2276 2274 2271 2269 2269 2268 2268 2267 2265 2262 2260 2258 2255 2251 2247 2244 2241 2237 2234 2232 2230 2228 2226 2224 2222 2221 2220 2219 2218 2218 2218 2218 2219 2219 2219 2222 2223 2223 2223 2223 2223 2223 2223 2223 2223 2224 2227 2227 2227 2212 0 0 0 0 0 0 0 0 0 0 0 0 0 0 0 0 0 0 0 0 0 0 0 0 0 0 0 0 0 0 0 0 0 0 0 0 0 0 0 0 0 0 0 0 0 0 0 0 0 0 0 0 0 0 0 0 0 0 0 0 0 0 0 0 0 0 0 0 0 0 0 0 0 0 0 0 0 0 0 0 0 0 0 0 0 0 0 0 0 0 0 0 0 0 0 0 0 0 0 0 0 0 0 0 0 0 0 0 0 0 0 0 0 0 0 0 0 0 0 0 0 0 0 0 0 0 0 0
2955 2955 2978 2988 3003 3028 3072 3104 3137 3173 3188 3189 3193 3193 3218 3218 3218 3217 3212 3212 3212 3217 3228 3230 3232 3234 3234 3236 3246 3257 3268 3274 3276 3283 3284 3295 3300 3308 3316 3321 3325 3327 3328 3328 3340 3351 3362 3370 3385 3391 3398 3410 3421 3427 3431 3437 3438 3441 3442 3443 3444 3449 3459 3468 3476 3479 3480 3484 3485 3487 3490 3496 3497 3499 3503 3505 3507 3510 3511 3513 3513 3514 3519 3525 3525 3525 3518 3475 3460 3460 3472 3472 3585 3643 3651 3658 3658 3658 3658 3657 3657 3657 3660 3665 3668 3670 3673 3673 3679 3681 3684 3684 3684 3685 3685 3685 3685 3680 3676 3676 3676 3676 3676 3676 3676 3676 3673 3671 3670 3670 3670 3670 3670 3670 3667 3667 3666 3665 3661 3659 3647 3637 3632 3629 3627 3626 3626 3626 3626 3625 3625 3623 3619 3618 3618 3618 3618 3618 3617 3611 3599 3592 3592 3592 3601 3601 3601 3540 3360 3045 2713 0 0 0 2329 2329 2328 2328 2327 2319 2315 2311 2311 2308 2304 2297 2295 2294 2293 2292 2291 2290 2290 2290 2289 2289 2289 2289 2289 2290 2290 2291 2292 2294 2294 2295 2296 2297 2297 2299 2299 2302 2303 2307 2309 2312 2315 2319 2322 2326 2328 2332 2336 2341 2347 2352 2356 2359 2363 2365 2369 2370 2372 2375 2375 2375 2375 2372 2371 2371 2370 2362 2349 2340 2329 2302 2283 2267 2253 2240 2229 2214 2203 2196 2192 2185 2179 2163 2137 2102 2078 2059 2043 2027 2015 2005 1996 1983 1978 1974 1972 1968 1965 1964 1961 1959 1956 1953 1951 1948 1947 1945 1942 1939 1937 1934 1932 1929 1925 1922 1919 1917 1914 1913 1911 1909 1907 1907 1906 1905 1903 1902 1899 1897 1895 1893 1892 1890 1886 1884 1881 1878 1875 1873 1869 1867 1865 1865 1863 1863 1863 1863 1863 1864 1866 1869 1870 1873 1877 1879 1881 1881 1883 1885 1886 1887 1888 1888 1889 1889 1889 1888 1886 1886 1886 1885 1885 1883 1881 1879 1879 1878 1877 1875 1873 1873 1872 1872 1871 1871 1870 1869 1867 1865 1864 1863 1863 1863 1863 1862 1861 1861 1861 1861 1861 1861 1861 1862 1862 1863 1863 1865 1866 1868 1869 1872 1876 1879 1883 1892 1899 1903 1909 1920 1926 1934 1940 1947 1952 1954 1958 1965 1970 1975 1978 1981 1984 1986 1989 1992 1997 1999 2002 2007 2010 2013 2016 2018 2020 2021 2023 2026 2028 2029 2031 2033 2036 2038 2040 2042 2044 2046 2047 2048 2052 2056 2059 2062 2063 2066 2071 2075 2076 2080 2084 2085 2102 2143 2202 2230 2277 2292 2292 2292 2287 2286 2285 2283 2282 2281 2281 2280 2279 2277 2274 2272 2271 2270 2270 2268 2265 2263 2260 2258 2255 2252 2247 2244 2241 2237 2234 2232 2230 2228 2226 2225 2222 2222 2222 2220 2220 2220 2220 2220 2220 2220 2221 2222 2223 2224 2224 2224 2224 2224 2224 2224 2224 2227 2230 2230 2230 2214 0 0 0 0 0 0 0 0 0 0 0 0 0 0 0 0 0 0 0 0 0 0 0 0 0 0 0 0 0 0 0 0 0 0 0 0 0 0 0 0 0 0 0 0 0 0 0 0 0 0 0 0 0 0 0 0 0 0 0 0 0 0 0 0 0 0 0 0 0 0 0 0 0 0 0 0 0 0 0 0 0 0 0 0 0 0 0 0 0 0 0 0 0 0 0 0 0 0 0 0 0 0 0 0 0 0 0 0 0 0 0 0 0 0 0 0 0 0 0 0 0 0 0 0 0 0 0 0
2968 2968 2979 2996 3007 3029 3072 3104 3137 3173 3188 3189 3193 3193 3218 3218 3218 3217 3216 3216 3216 3218 3230 3234 3236 3237 3238 3239 3249 3264 3270 3274 3279 3283 3284 3295 3307 3312 3316 3322 3325 3327 3331 3333 3340 3351 3362 3370 3385 3391 3398 3410 3421 3425 3431 3437 3437 3439 3441 3442 3444 3451 3459 3468 3476 3482 3485 3486 3488 3489 3491 3496 3497 3499 3500 3505 3507 3510 3512 3515 3515 3515 3519 3519 3519 3517 3504 3476 3466 3466 3476 3539 3626 3644 3653 3658 3662 3662 3662 3660 3660 3660 3662 3666 3670 3672 3674 3676 3679 3681 3684 3684 3684 3685 3685 3685 3685 3676 3676 3676 3676 3676 3676 3676 3676 3676 3673 3672 3671 3671 3671 3671 3671 3671 3668 3667 3667 3667 3661 3660 3652 3646 3640 3636 3632 3628 3627 3627 3626 3626 3626 3623 3619 3619 3619 3622 3624 3624 3624 3611 3599 3596 3596 3596 3601 3601 3601 3432 3167 2799 2534 0 0 2338 2331 2330 2328 2328 2327 2319 2312 2308 2305 2304 2300 2297 2295 2294 2293 2292 2290 2289 2289 2289 2289 2288 2288 2288 2289 2290 2290 2291 2291 2291 2293 2295 2296 2297 2298 2299 2299 2299 2302 2307 2309 2312 2314 2319 2322 2326 2329 2333 2340 2350 2355 2359 2361 2363 2366 2368 2370 2373 2376 2377 2377 2377 2376 2375 2375 2372 2367 2358 2343 2335 2323 2302 2282 2267 2249 2234 2221 2209 2201 2194 2189 2184 2180 2165 2141 2114 2086 2068 2046 2029 2015 2006 1997 1986 1979 1975 1973 1968 1965 1963 1961 1958 1956 1953 1950 1947 1944 1943 1941 1938 1935 1932 1930 1928 1923 1921 1918 1916 1913 1911 1909 1908 1906 1906 1905 1903 1901 1900 1898 1896 1893 1892 1891 1888 1885 1882 1879 1876 1874 1871 1868 1866 1864 1863 1862 1862 1862 1862 1862 1862 1864 1866 1868 1872 1875 1877 1879 1880 1882 1884 1886 1886 1887 1887 1888 1888 1888 1888 1886 1885 1885 1884 1882 1881 1880 1879 1878 1877 1877 1875 1872 1870 1870 1870 1870 1870 1868 1867 1866 1863 1862 1862 1862 1861 1861 1860 1860 1859 1859 1859 1859 1860 1860 1860 1860 1861 1862 1864 1864 1866 1868 1872 1876 1878 1880 1886 1895 1899 1904 1914 1922 1929 1936 1945 1951 1954 1957 1963 1968 1973 1975 1979 1981 1985 1987 1992 1995 1999 2001 2005 2008 2011 2014 2016 2018 2021 2023 2025 2028 2029 2031 2033 2036 2038 2038 2040 2042 2045 2046 2048 2050 2053 2057 2059 2062 2066 2070 2073 2076 2080 2085 2087 2102 2142 2197 2230 2274 2292 2292 2292 2288 2288 2288 2286 2286 2285 2285 2284 2282 2278 2275 2275 2274 2273 2271 2269 2265 2263 2261 2258 2255 2252 2247 2244 2241 2238 2235 2233 2230 2228 2227 2225 2224 2224 2223 2222 2222 2222 2221 2221 2221 2221 2222 2224 2225 2225 2225 2224 2224 2224 2224 2224 2224 2224 2224 2222 2219 2215 2210 0 0 0 0 0 0 0 0 0 0 0 0 0 0 0 0 0 0 0 0 0 0 0 0 0 0 0 0 0 0 0 0 0 0 0 0 0 0 0 0 0 0 0 0 0 0 0 0 0 0 0 0 0 0 0 0 0 0 0 0 0 0 0 0 0 0 0 0 0 0 0 0 0 0 0 0 0 0 0 0 0 0 0 0 0 0 0 0 0 0 0 0 0 0 0 0 0 0 0 0 0 0 0 0 0 0 0 0 0 0 0 0 0 0 0 0 0 0 0 0 0 0 0 0 0 0 0
3004 3004 3004 3012 3014 3029 3072 3104 3112 3169 3188 3189 3193 3193 3215 3217 3217 3216 3216 3217 3217 3219 3230 3234 3237 3237 3238 3243 3252 3266 3270 3274 3281 3287 3290 3303 3311 3316 3319 3322 3326 3330 3333 3335 3340 3350 3358 3370 3385 3391 3398 3410 3415 3424 3431 3434 3434 3434 3437 3438 3444 3452 3459 3468 3476 3482 3485 3486 3489 3490 3491 3495 3497 3498 3500 3504 3505 3508 3512 3515 3517 3520 3521 3521 3521 3510 3499 3476 3470 3470 3476 3569 3627 3647 3654 3658 3660 3660 3660 3662 3662 3662 3664 3668 3672 3675 3676 3677 3679 3681 3683 3683 3683 3683 3683 3683 3680 3673 3671 3671 3671 3672 3672 3673 3672 3672 3672 3672 3671 3671 3671 3671 3671 3671 3671 3671 3668 3667 3662 3660 3652 3647 3642 3638 3634 3629 3627 3627 3626 3626 3626 3623 3619 3619 3619 3626 3626 3626 3626 3612 3606 3603 3603 3603 3597 3587 3575 3357 2976 2650 0 0 2346 2333 2331 2330 2328 2328 2327 2319 2308 2306 2302 2300 2298 2297 2295 2293 2291 2289 2289 2289 2289 2289 2287 2286 2286 2286 2288 2290 2290 2290 2290 2290 2292 2294 2296 2297 2298 2298 2298 2299 2302 2306 2309 2311 2314 2319 2322 2326 2332 2341 2349 2354 2359 2362 2364 2366 2368 2371 2375 2378 2379 2379 2379 2378 2376 2375 2375 2374 2367 2358 2341 2329 2315 2297 2280 2264 2243 2224 2220 2209 2201 2194 2188 2183 2180 2165 2145 2133 2102 2080 2055 2034 2018 2006 1997 1991 1984 1978 1973 1969 1965 1962 1961 1957 1955 1952 1948 1945 1942 1941 1939 1936 1934 1931 1929 1925 1922 1919 1918 1915 1912 1910 1908 1906 1905 1904 1902 1902 1901 1899 1897 1894 1892 1891 1889 1887 1884 1880 1877 1874 1871 1869 1867 1864 1863 1861 1861 1860 1860 1860 1860 1860 1861 1863 1865 1868 1872 1874 1876 1878 1881 1883 1885 1885 1885 1886 1888 1888 1888 1887 1885 1884 1884 1883 1881 1879 1877 1877 1877 1877 1877 1874 1872 1870 1869 1868 1868 1867 1867 1864 1862 1860 1860 1859 1859 1858 1858 1858 1858 1858 1858 1858 1858 1858 1859 1859 1860 1860 1861 1862 1864 1866 1867 1871 1875 1877 1877 1883 1891 1896 1900 1909 1917 1926 1935 1943 1949 1952 1957 1962 1966 1969 1972 1977 1980 1984 1986 1990 1994 1997 2001 2004 2007 2010 2013 2014 2017 2019 2021 2023 2024 2025 2029 2030 2033 2035 2038 2038 2041 2042 2045 2048 2050 2052 2055 2057 2061 2065 2068 2072 2076 2080 2085 2087 2102 2142 2197 2230 2274 2292 2293 2293 2293 2292 2292 2290 2290 2289 2289 2287 2283 2280 2278 2277 2276 2274 2273 2270 2265 2264 2261 2258 2255 2252 2247 2242 2240 2238 2235 2233 2230 2228 2227 2226 2225 2225 2224 2224 2224 2224 2223 2223 2223 2223 2223 2224 2226 2226 2226 2226 2224 2224 2224 2224 2225 2225 2224 2221 2218 2216 2215 2198 0 0 0 0 0 0 0 0 0 0 0 0 0 0 0 0 0 0 0 0 0 0 0 0 0 0 0 0 0 0 0 0 0 0 0 0 0 0 0 0 0 0 0 0 0 0 0 0 0 0 0 0 0 0 0 0 0 0 0 0 0 0 0 0 0 0 0 0 0 0 0 0 0 0 0 0 0 0 0 0 0 0 0 0 0 0 0 0 0 0 0 0 0 0 0 0 0 0 0 0 0 0 0 0 0 0 0 0 0 0 0 0 0 0 0 0 0 0 0 0 0 0 0 0 0 0
3039 3042 3039 3039 3039 3042 3072 3104 3112 3169 3189 3189 3193 3193 3206 3208 3210 3211 3215 3216 3217 3219 3230 3234 3237 3238 3238 3245 3252 3266 3270 3274 3283 3287 3293 3303 3314 3323 3325 3328 3329 3333 3335 3340 3344 3350 3358 3365 3373 3389 3393 3397 3406 3416 3423 3424 3427 3431 3433 3438 3444 3452 3459 3464 3471 3482 3485 3486 3489 3490 3490 3495 3497 3498 3500 3504 3505 3508 3512 3515 3517 3521 3522 3522 3522 3510 3499 3476 3470 3470 3476 3569 3627 3649 3655 3656 3660 3660 3660 3661 3662 3662 3665 3668 3672 3675 3676 3677 3677 3679 3681 3682 3682 3682 3682 3682 3677 3673 3668 3668 3668 3668 3668 3669 3669 3670 3671 3671 3671 3670 3670 3670 3670 3671 3671 3671 3668 3667 3662 3659 3652 3647 3642 3638 3634 3629 3629 3628 3627 3627 3627 3624 3622 3622 3622 3628 3628 3628 3628 3612 3606 3603 3603 3603 3597 3587 3545 3186 2826 2539 0 2361 2342 2333 2331 2328 2328 2327 2319 2311 2308 2306 2301 2298 2296 2295 2293 2291 2290 2287 2287 2287 2286 2285 2281 2279 2279 2279 2282 2285 2286 2286 2286 2288 2290 2294 2296 2297 2298 2298 2298 2298 2300 2303 2308 2311 2314 2318 2322 2326 2336 2344 2349 2355 2361 2365 2370 2371 2374 2378 2380 2380 2380 2380 2380 2380 2380 2379 2378 2374 2367 2358 2341 2329 2313 2294 2279 2262 2235 2224 2220 2209 2201 2194 2188 2182 2180 2174 2153 2142 2126 2094 2063 2043 2027 2006 1998 1995 1988 1978 1973 1968 1964 1962 1959 1957 1955 1951 1948 1944 1942 1940 1938 1934 1932 1929 1927 1924 1920 1918 1916 1912 1911 1909 1907 1904 1904 1902 1901 1900 1899 1898 1895 1892 1891 1889 1888 1885 1880 1877 1874 1871 1869 1868 1866 1863 1862 1861 1859 1858 1858 1857 1857 1857 1858 1860 1863 1865 1868 1871 1873 1877 1880 1882 1884 1885 1885 1885 1887 1887 1887 1885 1883 1883 1882 1880 1877 1875 1875 1875 1875 1875 1875 1874 1871 1868 1865 1865 1865 1865 1865 1862 1858 1858 1857 1857 1857 1856 1856 1856 1856 1856 1856 1856 1857 1857 1857 1858 1858 1859 1860 1862 1863 1865 1867 1870 1875 1876 1877 1882 1888 1895 1898 1905 1913 1923 1931 1940 1946 1949 1955 1960 1963 1967 1970 1975 1978 1982 1985 1988 1991 1996 1999 2001 2005 2008 2010 2012 2015 2017 2019 2021 2022 2022 2023 2027 2029 2032 2034 2036 2038 2039 2042 2044 2048 2050 2052 2054 2056 2060 2068 2072 2076 2078 2083 2088 2103 2142 2197 2231 2274 2295 2297 2298 2298 2297 2296 2295 2294 2293 2291 2290 2286 2282 2280 2280 2279 2278 2274 2270 2266 2264 2261 2258 2255 2251 2246 2242 2240 2238 2236 2233 2232 2230 2229 2227 2227 2225 2225 2225 2225 2225 2225 2225 2225 2225 2225 2226 2226 2226 2226 2226 2226 2226 2225 2225 2226 2226 2224 2221 2219 2218 2216 2202 0 0 0 0 0 0 0 0 0 0 0 0 0 0 0 0 0 0 0 0 0 0 0 0 0 0 0 0 0 0 0 0 0 0 0 0 0 0 0 0 0 0 0 0 0 0 0 0 0 0 0 0 0 0 0 0 0 0 0 0 0 0 0 0 0 0 0 0 0 0 0 0 0 0 0 0 0 0 0 0 0 0 0 0 0 0 0 0 0 0 0 0 0 0 0 0 0 0 0 0 0 0 0 0 0 0 0 0 0 0 0 0 0 0 0 0 0 0 0 0 0 0 0 0 0 0
3074 3074 3068 3068 3068 3068 3077 3112 3116 3169 3189 3189 3193 3193 3197 3197 3207 3210 3212 3215 3219 3221 3230 3235 3236 3239 3241 3245 3252 3266 3270 3275 3283 3290 3296 3305 3319 3329 3332 3337 3338 3341 3342 3344 3346 3350 3358 3364 3371 3378 3385 3396 3405 3413 3421 3423 3427 3431 3433 3438 3444 3451 3457 3459 3467 3475 3482 3486 3489 3490 3490 3495 3497 3498 3500 3503 3505 3508 3512 3515 3521 3524 3524 3524 3522 3510 3497 3470 3468 3468 3470 3569 3627 3650 3654 3655 3658 3658 3659 3659 3660 3662 3665 3669 3672 3675 3676 3677 3677 3677 3679 3680 3681 3681 3681 3679 3676 3670 3667 3667 3666 3666 3666 3668 3668 3669 3671 3671 3671 3670 3670 3670 3670 3671 3671 3671 3668 3662 3662 3655 3652 3648 3644 3639 3635 3630 3630 3630 3630 3630 3630 3624 3623 3623 3623 3631 3631 3631 3630 3614 3607 3604 3604 3604 3597 3587 3504 3082 2705 0 0 2358 2342 2333 2328 2327 2324 2322 2314 2310 2308 2305 2301 2297 2295 2292 2292 2289 2286 2285 2283 2280 2275 2274 2274 2274 2275 2276 2279 2282 2283 2283 2284 2285 2288 2291 2293 2294 2297 2297 2297 2297 2297 2301 2305 2310 2314 2318 2322 2326 2336 2344 2349 2355 2362 2366 2371 2377 2381 2383 2383 2383 2385 2385 2386 2391 2391 2391 2389 2382 2372 2360 2341 2329 2313 2290 2276 2257 2235 2224 2219 2212 2201 2195 2186 2180 2177 2174 2154 2147 2135 2106 2078 2057 2037 2015 2003 1997 1989 1978 1971 1968 1964 1962 1959 1957 1954 1949 1945 1943 1941 1939 1937 1934 1930 1927 1924 1922 1919 1915 1912 1910 1908 1907 1904 1902 1901 1900 1899 1899 1898 1898 1894 1891 1890 1889 1887 1883 1878 1876 1872 1869 1867 1866 1863 1862 1860 1859 1857 1856 1856 1856 1856 1856 1858 1859 1861 1863 1866 1870 1872 1875 1879 1882 1882 1882 1882 1883 1886 1886 1886 1884 1881 1880 1879 1877 1874 1873 1873 1873 1873 1873 1873 1873 1870 1864 1861 1861 1861 1860 1860 1855 1855 1855 1854 1854 1854 1853 1853 1853 1854 1854 1854 1854 1855 1856 1857 1857 1858 1859 1860 1860 1862 1864 1866 1868 1872 1875 1877 1879 1885 1892 1898 1901 1910 1920 1929 1937 1942 1947 1953 1957 1961 1965 1969 1972 1976 1980 1983 1986 1991 1994 1997 2001 2004 2006 2008 2011 2013 2015 2018 2020 2020 2021 2023 2025 2027 2030 2032 2033 2036 2036 2039 2042 2045 2048 2050 2052 2054 2058 2062 2067 2073 2077 2079 2088 2103 2161 2204 2238 2278 2300 2300 2301 2301 2300 2299 2299 2297 2296 2293 2291 2289 2284 2282 2281 2280 2278 2274 2270 2267 2264 2261 2258 2254 2250 2245 2242 2240 2238 2236 2234 2232 2230 2229 2229 2228 2227 2226 2226 2226 2226 2226 2226 2226 2227 2227 2227 2227 2227 2227 2227 2227 2226 2226 2226 2226 2226 2225 2222 2222 2221 2218 2202 0 0 0 0 0 0 0 0 0 0 0 0 0 0 0 0 0 0 0 0 0 0 0 0 0 0 0 0 0 0 0 0 0 0 0 0 0 0 0 0 0 0 0 0 0 0 0 0 0 0 0 0 0 0 0 0 0 0 0 0 0 0 0 0 0 0 0 0 0 0 0 0 0 0 0 0 0 0 0 0 0 0 0 0 0 0 0 0 0 0 0 0 0 0 0 0 0 0 0 0 0 0 0 0 0 0 0 0 0 0 0 0 0 0 0 0 0 0 0 0 0 0 0 0 0 0
3085 3085 3100 3103 3106 3118 3128 3154 3158 3170 3188 3189 3189 3189 3194 3197 3202 3209 3212 3215 3219 3223 3230 3232 3235 3240 3240 3245 3256 3260 3268 3277 3287 3299 3303 3311 3320 3329 3332 3337 3338 3341 3342 3344 3346 3350 3358 3364 3371 3378 3385 3396 3405 3413 3421 3423 3427 3430 3433 3438 3442 3449 3453 3457 3460 3465 3473 3482 3486 3489 3490 3493 3497 3498 3501 3504 3505 3508 3512 3516 3523 3528 3528 3528 3528 3519 3489 3465 3457 3457 3465 3564 3626 3650 3654 3655 3655 3657 3657 3659 3661 3662 3665 3669 3673 3675 3676 3676 3676 3677 3677 3677 3677 3677 3676 3676 3674 3670 3666 3666 3666 3665 3665 3665 3666 3669 3670 3670 3670 3669 3667 3667 3667 3668 3668 3668 3662 3662 3658 3655 3651 3648 3644 3639 3635 3634 3634 3634 3638 3638 3638 3628 3628 3628 3628 3637 3637 3637 3632 3618 3610 3607 3607 3607 3597 3591 3445 2889 2581 0 2372 2354 2342 2333 2330 2323 2321 2317 2312 2310 2308 2304 2301 2297 2293 2291 2289 2285 2284 2281 2277 2274 2271 2270 2270 2270 2270 2271 2275 2275 2276 2276 2276 2276 2276 2276 2277 2285 2287 2289 2289 2291 2295 2300 2305 2309 2313 2318 2322 2326 2336 2344 2349 2355 2363 2369 2371 2379 2382 2384 2386 2386 2387 2391 2393 2399 2399 2399 2395 2390 2381 2364 2341 2327 2311 2287 2273 2257 2235 2225 2219 2212 2201 2195 2186 2177 2176 2174 2156 2147 2138 2123 2097 2072 2043 2020 2008 1997 1989 1977 1971 1968 1964 1961 1959 1956 1953 1948 1944 1943 1941 1939 1936 1933 1928 1922 1921 1920 1916 1912 1908 1905 1905 1903 1899 1899 1899 1899 1899 1898 1898 1897 1893 1890 1887 1885 1883 1879 1876 1873 1871 1868 1867 1862 1860 1859 1859 1858 1857 1855 1854 1854 1854 1855 1858 1859 1860 1861 1865 1867 1870 1872 1874 1878 1879 1880 1880 1882 1883 1883 1883 1881 1879 1878 1876 1874 1873 1872 1871 1871 1870 1870 1869 1869 1866 1860 1855 1855 1855 1855 1855 1851 1851 1851 1852 1852 1852 1851 1851 1851 1851 1853 1853 1853 1854 1854 1855 1856 1857 1858 1859 1860 1862 1863 1865 1867 1869 1873 1876 1879 1883 1888 1896 1901 1908 1916 1925 1931 1938 1944 1950 1955 1960 1962 1966 1970 1973 1977 1981 1986 1989 1993 1996 1998 2002 2005 2007 2009 2011 2013 2015 2016 2018 2019 2020 2021 2022 2025 2027 2029 2032 2034 2035 2039 2041 2045 2047 2049 2052 2054 2056 2061 2068 2074 2079 2088 2120 2182 2219 2252 2285 2303 2303 2303 2303 2303 2303 2302 2300 2298 2296 2292 2289 2285 2283 2282 2280 2278 2274 2270 2267 2264 2261 2257 2253 2248 2244 2242 2240 2238 2236 2235 2233 2231 2230 2230 2229 2228 2227 2227 2227 2227 2227 2227 2227 2228 2228 2228 2228 2228 2228 2227 2227 2226 2226 2226 2226 2226 2225 2223 2223 2223 2223 2209 0 0 0 0 0 0 0 0 0 0 0 0 0 0 0 0 0 0 0 0 0 0 0 0 0 0 0 0 0 0 0 0 0 0 0 0 0 0 0 0 0 0 0 0 0 0 0 0 0 0 0 0 0 0 0 0 0 0 0 0 0 0 0 0 0 0 0 0 0 0 0 0 0 0 0 0 0 0 0 0 0 0 0 0 0 0 0 0 0 0 0 0 0 0 0 0 0 0 0 0 0 0 0 0 0 0 0 0 0 0 0 0 0 0 0 0 0 0 0 0 0 0 0 0 0 0
3085 3085 3121 3129 3146 3158 3168 3178 3180 3182 3182 3184 3188 3188 3194 3197 3202 3209 3212 3215 3220 3223 3230 3232 3235 3240 3241 3246 3256 3260 3268 3278 3294 3305 3311 3314 3320 3329 3334 3337 3339 3341 3344 3344 3346 3350 3358 3365 3371 3378 3385 3396 3405 3413 3421 3424 3430 3431 3433 3438 3442 3448 3452 3457 3460 3465 3472 3478 3483 3487 3490 3493 3495 3498 3501 3504 3507 3510 3512 3517 3523 3528 3528 3528 3528 3519 3489 3445 3445 3445 3461 3560 3626 3650 3651 3654 3654 3657 3657 3659 3661 3662 3665 3669 3673 3675 3676 3676 3676 3677 3677 3677 3676 3675 3672 3672 3671 3669 3666 3665 3664 3663 3663 3664 3665 3667 3669 3669 3669 3669 3667 3665 3664 3663 3661 3661 3660 3659 3656 3653 3651 3648 3644 3641 3638 3638 3638 3638 3641 3641 3641 3635 3632 3632 3632 3637 3637 3637 3635 3623 3612 3607 3607 3607 3601 3601 3346 2872 2580 0 2371 2352 2341 2335 2330 2323 2317 2312 2311 2309 2308 2304 2301 2297 2290 2287 2283 2283 2281 2278 2275 2270 2267 2263 2261 2261 2261 2263 2263 2263 2262 2259 2259 2259 2261 2262 2262 2267 2273 2274 2276 2284 2293 2297 2303 2306 2312 2316 2321 2325 2330 2338 2346 2355 2363 2370 2374 2379 2383 2385 2387 2389 2392 2396 2398 2402 2403 2403 2403 2398 2381 2364 2341 2327 2311 2285 2270 2256 2238 2225 2219 2212 2201 2195 2183 2176 2173 2171 2156 2147 2138 2123 2111 2078 2047 2027 2011 1997 1989 1976 1970 1967 1964 1961 1958 1956 1952 1947 1944 1941 1939 1937 1934 1931 1927 1920 1919 1918 1914 1909 1905 1903 1901 1897 1896 1896 1896 1897 1897 1897 1897 1894 1890 1886 1883 1883 1879 1876 1873 1870 1869 1868 1867 1859 1856 1856 1856 1856 1855 1855 1854 1854 1854 1855 1857 1858 1859 1860 1862 1864 1865 1866 1867 1869 1875 1877 1879 1880 1880 1880 1880 1878 1877 1875 1872 1872 1871 1871 1871 1869 1867 1862 1861 1859 1857 1853 1846 1846 1846 1846 1846 1845 1845 1845 1845 1846 1848 1848 1848 1849 1849 1850 1851 1852 1852 1852 1853 1854 1856 1856 1858 1859 1860 1862 1864 1866 1868 1870 1873 1876 1881 1886 1892 1901 1908 1912 1919 1926 1934 1941 1949 1953 1958 1962 1964 1968 1970 1975 1980 1984 1988 1991 1992 1995 1997 2000 2003 2006 2007 2007 2009 2011 2013 2016 2017 2017 2018 2019 2022 2026 2027 2030 2032 2036 2040 2043 2045 2046 2048 2049 2053 2057 2064 2070 2075 2089 2139 2199 2233 2284 2307 2307 2307 2305 2305 2305 2305 2304 2302 2300 2298 2294 2290 2287 2283 2282 2280 2277 2274 2270 2267 2264 2259 2254 2250 2246 2244 2242 2240 2238 2236 2235 2233 2231 2230 2230 2229 2229 2229 2228 2228 2228 2228 2228 2228 2228 2228 2228 2228 2228 2228 2228 2227 2226 2226 2226 2226 2226 2226 2224 2224 2223 2223 2209 0 0 0 0 0 0 0 0 0 0 0 0 0 0 0 0 0 0 0 0 0 0 0 0 0 0 0 0 0 0 0 0 0 0 0 0 0 0 0 0 0 0 0 0 0 0 0 0 0 0 0 0 0 0 0 0 0 0 0 0 0 0 0 0 0 0 0 0 0 0 0 0 0 0 0 0 0 0 0 0 0 0 0 0 0 0 0 0 0 0 0 0 0 0 0 0 0 0 0 0 0 0 0 0 0 0 0 0 0 0 0 0 0 0 0 0 0 0 0 0 0 0 0 0 0 0
3085 3085 3121 3146 3148 3162 3168 3187 3187 3187 3187 3187 3187 3188 3194 3197 3202 3209 3213 3219 3226 3227 3232 3233 3236 3242 3244 3249 3258 3260 3268 3281 3295 3305 3311 3314 3320 3329 3334 3336 3338 3338 3338 3342 3342 3347 3358 3365 3373 3382 3385 3396 3405 3413 3421 3424 3430 3431 3431 3436 3441 3448 3452 3457 3460 3465 3472 3478 3482 3487 3490 3493 3495 3498 3501 3505 3508 3513 3516 3517 3523 3528 3528 3528 3528 3519 3489 3445 3445 3445 3448 3555 3621 3647 3648 3651 3654 3657 3657 3659 3662 3663 3665 3669 3673 3675 3675 3676 3676 3676 3676 3676 3676 3674 3672 3669 3668 3666 3665 3664 3663 3663 3663 3663 3663 3665 3666 3666 3667 3667 3666 3664 3659 3658 3657 3657 3656 3656 3653 3652 3651 3648 3645 3643 3641 3640 3640 3640 3644 3644 3644 3640 3635 3635 3635 3638 3638 3638 3636 3627 3614 3612 3612 3602 3597 3596 3307 2850 2560 0 2363 2350 2341 2335 2330 2318 2311 2308 2308 2307 2306 2303 2298 2291 2287 2282 2279 2276 2274 2269 2265 2265 2263 2258 2256 2256 2256 2258 2258 2258 2250 2247 2246 2246 2246 2249 2254 2256 2260 2263 2264 2268 2274 2290 2297 2299 2304 2313 2318 2323 2329 2333 2338 2347 2361 2369 2384 2386 2386 2392 2394 2396 2398 2400 2402 2403 2405 2405 2405 2398 2381 2364 2341 2326 2310 2280 2267 2256 2242 2225 2215 2210 2194 2183 2172 2166 2164 2163 2154 2146 2138 2123 2113 2087 2057 2033 2011 1997 1990 1976 1968 1965 1964 1960 1956 1953 1950 1946 1942 1938 1936 1934 1927 1922 1920 1919 1917 1917 1913 1908 1903 1900 1898 1895 1895 1895 1895 1895 1895 1895 1893 1889 1886 1882 1881 1880 1878 1876 1873 1870 1866 1864 1864 1857 1853 1853 1853 1854 1854 1854 1852 1850 1850 1850 1853 1855 1855 1856 1856 1856 1857 1857 1857 1862 1868 1868 1872 1874 1874 1874 1872 1870 1870 1869 1869 1869 1869 1869 1865 1858 1856 1850 1844 1837 1835 1833 1827 1819 1813 1813 1813 1818 1827 1832 1840 1842 1842 1844 1845 1845 1845 1847 1849 1849 1850 1851 1852 1853 1853 1855 1857 1857 1859 1861 1863 1864 1866 1870 1870 1873 1878 1884 1890 1900 1907 1911 1917 1924 1932 1940 1947 1953 1956 1959 1962 1965 1968 1973 1977 1982 1986 1988 1989 1991 1995 1997 2001 2003 2003 2006 2008 2010 2012 2012 2014 2015 2015 2017 2020 2023 2024 2027 2029 2034 2036 2038 2040 2041 2042 2045 2050 2056 2061 2064 2075 0 0 0 2253 2297 2307 2307 2309 2309 2309 2309 2309 2307 2305 2304 2301 2297 2293 2290 2286 2282 2280 2277 2273 2269 2264 2259 2256 2252 2248 2246 2244 2242 2240 2238 2236 2235 2233 2231 2231 2230 2230 2230 2230 2230 2229 2229 2229 2229 2229 2229 2229 2229 2228 2228 2228 2228 2227 2226 2226 2226 2226 2226 2225 2224 2224 2223 2223 2209 0 0 0 0 0 0 0 0 0 0 0 0 0 0 0 0 0 0 0 0 0 0 0 0 0 0 0 0 0 0 0 0 0 0 0 0 0 0 0 0 0 0 0 0 0 0 0 0 0 0 0 0 0 0 0 0 0 0 0 0 0 0 0 0 0 0 0 0 0 0 0 0 0 0 0 0 0 0 0 0 0 0 0 0 0 0 0 0 0 0 0 0 0 0 0 0 0 0 0 0 0 0 0 0 0 0 0 0 0 0 0 0 0 0 0 0 0 0 0 0 0 0 0 0 0 0
3085 3085 3121 3146 3148 3162 3168 3190 3190 3190 3188 3188 3188 3189 3198 3201 3202 3209 3214 3219 3228 3236 3238 3239 3241 3244 3244 3254 3261 3265 3273 3283 3295 3305 3311 3314 3320 3329 3332 3335 3335 3335 3336 3336 3336 3346 3358 3367 3375 3382 3385 3396 3405 3413 3421 3424 3427 3429 3430 3430 3439 3447 3451 3459 3464 3468 3472 3477 3482 3487 3490 3494 3495 3498 3501 3505 3509 3514 3516 3517 3523 3526 3526 3526 3525 3515 3476 3445 3445 3445 3462 3555 3621 3642 3645 3651 3654 3658 3660 3662 3662 3663 3665 3669 3673 3675 3675 3676 3676 3676 3676 3675 3675 3673 3671 3667 3663 3663 3662 3662 3662 3661 3661 3662 3662 3662 3662 3662 3661 3661 3660 3656 3656 3656 3655 3655 3655 3654 3653 3651 3650 3648 3645 3643 3642 3642 3642 3644 3648 3648 3648 3645 3640 3639 3639 3639 3639 3639 3636 3631 3622 3614 3614 3602 3599 3596 3253 2821 2544 0 2353 2343 2339 2335 2326 2317 2310 2305 2304 2304 2304 2296 2291 2287 2283 2278 2270 2263 2260 2260 2256 2256 2255 2252 2246 2239 2239 2239 2237 2237 2232 2232 2232 2234 2235 2238 2242 2244 2245 2247 2248 2255 2262 2269 2284 2289 2296 2298 2313 2320 2328 2332 2336 2343 2355 2369 2384 2386 2386 2393 2396 2401 2401 2402 2402 2403 2406 2406 2406 2399 2380 2361 2330 2315 2300 2275 2267 2256 2242 2223 2214 2201 2183 2173 2165 2160 2159 2155 2150 2143 2135 2125 2114 2097 2067 2045 2019 1999 1990 1976 1968 1963 1959 1956 1954 1950 1947 1942 1939 1934 1932 1927 1924 1920 1918 1918 1916 1916 1913 1907 1902 1899 1897 1895 1893 1893 1893 1893 1893 1892 1887 1885 1880 1877 1877 1877 1876 1874 1870 1868 1862 1861 1857 1850 1848 1848 1848 1849 1849 1849 1848 1844 1839 1839 1839 1840 1841 1842 1844 1844 1845 1845 1848 1850 1852 1856 1859 1859 1859 1859 1856 1853 1850 1850 1850 1848 1848 1848 0 0 0 0 0 0 0 0 0 1760 1760 1760 1768 1777 1787 1802 1815 1823 1826 1828 1835 1838 1840 1844 1845 1848 1848 1851 1852 1852 1852 1853 1855 1857 1857 1859 1861 1863 1865 1868 1870 1871 1876 1880 1887 1898 1905 1910 1917 1922 1930 1937 1945 1950 1953 1955 1959 1961 1964 1969 1975 1979 1983 1985 1987 1988 1992 1995 1999 1999 2001 2003 2006 2007 2008 2009 2010 2011 2012 2015 2017 2021 2023 2025 2028 2032 2033 2034 2035 2037 2037 2040 2043 2047 2051 2064 2075 0 0 0 2285 2314 2314 2314 2311 2311 2311 2311 2311 2310 2308 2306 2303 2300 2297 2293 2288 2284 2282 2277 2272 2268 2263 2258 2256 2251 2248 2246 2244 2242 2240 2238 2236 2235 2233 2232 2231 2231 2231 2231 2231 2231 2230 2230 2230 2230 2230 2230 2230 2229 2229 2228 2228 2228 2227 2226 2226 2226 2226 2225 2224 2223 2223 2221 2215 2207 0 0 0 0 0 0 0 0 0 0 0 0 0 0 0 0 0 0 0 0 0 0 0 0 0 0 0 0 0 0 0 0 0 0 0 0 0 0 0 0 0 0 0 0 0 0 0 0 0 0 0 0 0 0 0 0 0 0 0 0 0 0 0 0 0 0 0 0 0 0 0 0 0 0 0 0 0 0 0 0 0 0 0 0 0 0 0 0 0 0 0 0 0 0 0 0 0 0 0 0 0 0 0 0 0 0 0 0 0 0 0 0 0 0 0 0 0 0 0 0 0 0 0 0 0 0
3067 3067 3085 3117 3137 3148 3162 3179 3187 3187 3188 3194 3194 3194 3200 3204 3204 3210 3221 3224 3229 3236 3242 3245 3245 3249 3252 3256 3261 3266 3274 3283 3295 3303 3303 3306 3319 3328 3332 3334 3334 3334 3336 3336 3336 3346 3358 3367 3375 3382 3385 3396 3404 3410 3421 3424 3424 3424 3426 3426 3430 3440 3451 3461 3470 3471 3476 3477 3482 3486 3491 3495 3497 3498 3502 3505 3509 3514 3516 3517 3518 3519 3519 3519 3519 3509 3466 3460 3460 3460 3462 3555 3621 3641 3645 3651 3657 3659 3660 3662 3663 3665 3666 3669 3673 3675 3675 3675 3676 3676 3676 3675 3675 3674 3671 3667 3662 3658 3657 3657 3657 3657 3659 3659 3659 3659 3659 3659 3657 3656 3655 3651 3651 3651 3655 3655 3655 3653 3651 3649 3648 3647 3645 3643 3643 3643 3645 3649 3649 3649 3649 3646 3641 3641 3641 3641 3641 3641 3641 3635 3629 3618 3618 3603 3602 3578 3247 2796 2498 0 2340 2336 2334 2330 2322 2316 2307 2300 2298 2298 2293 2288 2284 2282 2279 2274 2266 2259 2255 2251 2250 2248 2247 2237 2227 2227 2227 2228 2230 2230 2230 2230 2231 2232 2232 2233 2234 2236 2238 2241 2242 2249 2258 2261 2262 2265 2276 2290 2293 2307 2319 2331 2335 2341 2352 2369 2384 2386 2386 2393 2403 2403 2403 2404 2404 2404 2406 2406 2406 2398 2374 2353 2320 2306 2292 2275 2267 2256 2242 2221 2207 2193 2175 2167 2161 2159 2159 2155 2150 2136 2127 2125 2115 2099 2085 2059 2030 2006 1993 1979 1968 1961 1958 1954 1950 1948 1942 1938 1934 1933 1929 1925 1920 1917 1915 1914 1914 1913 1912 1906 1902 1898 1896 1894 1891 1891 1891 1889 1889 1889 1883 1876 1874 1873 1872 1872 1872 1867 1863 1862 1859 1851 1847 1842 1839 1837 1837 1837 1837 1836 1826 1825 1824 1823 1819 1814 1811 1811 0 0 0 0 0 0 0 0 0 0 0 0 0 0 0 0 0 0 0 0 0 0 0 1729 1725 1725 1725 1725 1725 1725 1725 1725 1727 1732 1739 1750 1765 1777 1791 1804 1812 1821 1830 1838 1841 1844 1848 1850 1851 1851 1851 1852 1853 1855 1857 1858 1859 1861 1863 1866 1869 1871 1873 1876 1884 1893 1900 1907 1915 1921 1927 1935 1940 1946 1949 1952 1956 1957 1962 1967 1971 1976 1979 1981 1984 1985 1989 1992 1995 1997 1997 2000 2003 2004 2004 2005 2006 2008 2010 2013 2016 2018 2021 2023 2026 2029 2029 2030 2031 2031 2031 2031 2032 2039 2051 2064 2090 0 0 0 2307 2314 2314 2314 2314 2313 2313 2312 2312 2311 2309 2307 2304 2301 2298 2296 2291 2286 2282 2277 2272 2266 2261 2258 2255 2251 2248 2246 2244 2242 2240 2238 2236 2235 2233 2232 2232 2231 2231 2231 2231 2231 2232 2232 2232 2232 2230 2230 2230 2229 2229 2228 2228 2227 2227 2226 2226 2226 2226 2223 2223 2221 2221 2221 2215 2207 2159 0 0 0 0 0 0 0 0 0 0 0 0 0 0 0 0 0 0 0 0 0 0 0 0 0 0 0 0 0 0 0 0 0 0 0 0 0 0 0 0 0 0 0 0 0 0 0 0 0 0 0 0 0 0 0 0 0 0 0 0 0 0 0 0 0 0 0 0 0 0 0 0 0 0 0 0 0 0 0 0 0 0 0 0 0 0 0 0 0 0 0 0 0 0 0 0 0 0 0 0 0 0 0 0 0 0 0 0 0 0 0 0 0 0 0 0 0 0 0 0 0 0 0 0 0
3034 3034 3063 3083 3110 3137 3160 3166 3187 3192 3194 3196 3198 3202 3208 3211 3213 3217 3229 3234 3236 3239 3242 3245 3246 3249 3252 3258 3261 3266 3274 3283 3289 3294 3298 3299 3311 3317 3321 3327 3327 3330 3330 3331 3336 3346 3358 3367 3375 3382 3385 3391 3397 3404 3408 3416 3416 3420 3420 3422 3429 3438 3451 3461 3470 3471 3476 3478 3482 3486 3492 3497 3499 3502 3505 3506 3509 3513 3513 3514 3516 3517 3518 3518 3518 3507 3466 3460 3460 3460 3462 3561 3621 3641 3645 3651 3657 3659 3660 3662 3663 3665 3666 3669 3672 3673 3674 3674 3675 3675 3675 3675 3675 3674 3671 3667 3662 3654 3653 3653 3653 3657 3657 3658 3658 3658 3658 3658 3657 3654 3653 3651 3651 3651 3652 3652 3652 3649 3645 3644 3644 3644 3644 3644 3645 3645 3648 3651 3651 3651 3649 3646 3641 3641 3641 3641 3641 3641 3641 3639 3634 3622 3622 3604 3602 3541 3191 2711 2485 0 2340 2336 2331 2324 2317 2311 2302 2300 2293 2288 2284 2282 2282 2281 2279 2270 2264 2256 2251 2245 2239 2232 2232 2227 2223 2223 2223 2225 2226 2226 2227 2227 2228 2228 2228 2228 2228 2228 2228 2231 2234 2235 2236 2237 2241 2250 2260 2268 2282 2292 2301 2313 2331 2338 2344 2353 2374 2380 2384 2393 2403 2407 2407 2407 2408 2408 2407 2406 2406 2398 2373 2351 2320 2306 2292 2275 2267 2258 2244 2219 2202 2186 2173 2166 2161 2159 2156 2155 2148 2135 2126 2123 2116 2102 2092 2069 2037 2008 1997 1982 1969 1961 1957 1953 1949 1943 1940 1937 1933 1932 1928 1925 1920 1915 1911 1909 1909 1909 1907 1901 1896 1895 1894 1892 1889 1888 1888 1887 1885 1881 1874 1869 1866 1866 1865 1865 1859 1847 1847 1845 1844 1838 1829 1823 1820 1816 1811 1808 1807 1807 1804 1798 1792 1789 1781 1774 1760 1750 0 0 0 0 0 0 0 0 0 0 0 0 0 0 0 0 0 0 0 0 0 0 1711 1705 1698 1694 1694 1694 1699 1699 1704 1705 1710 1714 1718 1725 1732 1735 1745 1757 1773 1795 1814 1829 1836 1840 1844 1849 1850 1851 1851 1851 1853 1854 1855 1856 1858 1860 1861 1865 1869 1870 1870 1872 1880 1889 1895 1903 1911 1920 1925 1931 1938 1943 1947 1949 1951 1955 1959 1963 1968 1972 1975 1978 1979 1982 1985 1990 1991 1992 1995 1996 1999 1999 2000 2001 2002 2004 2006 2008 2012 2015 2017 2020 2023 2025 2027 2027 2027 2027 2027 2029 2032 2039 2051 2070 2148 0 0 0 2316 2316 2316 2316 2315 2315 2315 2314 2312 2311 2309 2307 2306 2301 2298 2296 2291 2286 2282 2277 2272 2264 2260 2258 2255 2250 2247 2246 2243 2242 2240 2238 2236 2235 2233 2233 2232 2232 2232 2232 2232 2232 2233 2233 2233 2232 2230 2230 2230 2229 2229 2228 2227 2226 2226 2226 2225 2224 2224 2223 2223 2221 2221 2221 2215 2207 2178 0 0 0 0 0 0 0 0 0 0 0 0 0 0 0 0 0 0 0 0 0 0 0 0 0 0 0 0 0 0 0 0 0 0 0 0 0 0 0 0 0 0 0 0 0 0 0 0 0 0 0 0 0 0 0 0 0 0 0 0 0 0 0 0 0 0 0 0 0 0 0 0 0 0 0 0 0 0 0 0 0 0 0 0 0 0 0 0 0 0 0 0 0 0 0 0 0 0 0 0 0 0 0 0 0 0 0 0 0 0 0 0 0 0 0 0 0 0 0 0 0 0 0 0 0
3017 3017 3042 3075 3097 3136 3160 3166 3175 3192 3194 3196 3198 3202 3208 3211 3213 3217 3236 3240 3241 3241 3243 3246 3249 3249 3253 3260 3263 3266 3274 3277 3285 3289 3297 3298 3302 3306 3307 3312 3318 3318 3324 3330 3338 3346 3350 3360 3374 3382 3385 3389 3393 3399 3403 3408 3411 3413 3413 3420 3428 3433 3450 3461 3470 3471 3476 3478 3482 3487 3492 3501 3505 3506 3508 3509 3511 3514 3514 3514 3514 3514 3514 3514 3511 3504 3473 3473 3473 3474 3486 3566 3626 3641 3647 3651 3657 3659 3660 3662 3663 3665 3666 3668 3669 3670 3671 3672 3673 3674 3674 3674 3674 3674 3671 3669 3662 3649 3649 3649 3650 3655 3657 3658 3658 3657 3656 3655 3653 3653 3652 3651 3650 3649 3648 3648 3645 3643 3640 3640 3640 3642 3644 3645 3645 3648 3650 3651 3651 3651 3649 3646 3641 3641 3641 3642 3642 3642 3641 3639 3638 3626 3626 3604 3604 3425 3002 2647 0 2365 2340 2334 2326 2318 2312 2307 2301 2298 2293 2283 2283 2281 2278 2277 2267 2263 2258 2248 2240 2231 2224 2224 2223 2223 2220 2218 2216 2215 2212 2211 2211 2211 2214 2214 2214 2210 2210 2210 2210 2210 2212 2213 2215 2218 2225 2234 2243 2253 2265 2278 2290 2297 2318 2336 2343 2343 2345 2363 2379 2392 2402 2407 2413 2417 2417 2417 2415 2412 2408 2398 2373 2350 2320 2306 2292 2273 2267 2258 2242 2219 2198 2183 2173 2165 2160 2159 2156 2153 2145 2135 2125 2120 2116 2106 2092 2075 2039 2018 2004 1993 1971 1961 1957 1952 1947 1943 1939 1935 1932 1930 1928 1924 1918 1914 1910 1904 1901 1896 1893 1883 1878 1877 1876 0 0 0 0 0 0 0 0 0 0 0 0 0 0 0 0 1812 1810 1804 1793 1789 1786 0 0 1773 1760 1754 1752 1745 1735 1717 1715 1714 1713 1707 1707 1707 1708 1708 1708 1708 1708 1708 1708 1708 1708 1705 1705 1705 1707 1707 1707 1698 1698 1697 1693 1690 1684 1679 1675 1675 1675 1677 1679 1683 1683 1684 1688 1693 1702 1711 1721 1723 1726 1733 1743 1763 1802 1821 1830 1833 1836 1843 1849 1849 1850 1851 1852 1853 1853 1854 1855 1858 1861 1863 1867 1869 1869 1870 1877 1886 1893 1899 1907 1916 1922 1928 1935 1939 1942 1944 1949 1953 1956 1960 1964 1969 1972 1973 1975 1978 1981 1983 1987 1988 1989 1990 1992 1994 1995 1996 1997 1999 2001 2004 2006 2009 2011 2014 2016 2020 2024 2024 2024 2024 2024 2028 2032 2039 0 0 0 2222 2271 2323 2323 2323 2318 2317 2316 2315 2315 2314 2313 2311 2310 2310 2308 2303 2299 2296 2291 2286 2282 2277 2270 2262 2259 2258 2254 2250 2246 2244 2242 2242 2240 2237 2236 2235 2233 2233 2232 2232 2232 2232 2232 2232 2233 2233 2233 2232 2230 2230 2229 2229 2229 2227 2227 2226 2225 2225 2225 2224 2223 2222 2222 2222 2222 2222 2222 2215 2200 2167 0 0 0 0 0 0 0 0 0 0 0 0 0 0 0 0 0 0 0 0 0 0 0 0 0 0 0 0 0 0 0 0 0 0 0 0 0 0 0 0 0 0 0 0 0 0 0 0 0 0 0 0 0 0 0 0 0 0 0 0 0 0 0 0 0 0 0 0 0 0 0 0 0 0 0 0 0 0 0 0 0 0 0 0 0 0 0 0 0 0 0 0 0 0 0 0 0 0 0 0 0 0 0 0 0 0 0 0 0 0 0 0 0 0 0 0 0 0 0 0 0 0 0 0
2990 2990 3024 3069 3092 3127 3155 3165 3169 3170 3173 3192 3194 3202 3208 3211 3213 3217 3236 3240 3243 3246 3246 3246 3246 3249 3257 3261 3263 3266 3269 3273 3280 3288 3292 3298 3301 3301 3305 3311 3313 3316 3318 3330 3338 3346 3350 3360 3374 3382 3386 3389 3390 3396 3399 3406 3410 3411 3412 3419 3428 3433 3450 3458 3464 3465 3476 3477 3482 3487 3492 3501 3507 3510 3511 3512 3512 3514 3514 3514 3514 3512 3511 3511 3506 3493 3481 3481 3481 3485 3495 3574 3631 3641 3647 3651 3657 3658 3660 3662 3662 3663 3665 3666 3667 3667 3667 3670 3673 3673 3674 3674 3673 3673 3671 3669 3661 3649 3649 3649 3650 3655 3658 3658 3658 3658 3656 3655 3651 3650 3649 3648 3648 3647 3645 3645 3642 3638 3638 3638 3639 3642 3646 3648 3649 3649 3650 3651 3651 3651 3649 3645 3643 3643 3643 3643 3643 3642 3641 3640 3638 3626 3617 3612 3578 3264 2831 0 0 2361 2340 2334 2324 2313 2308 2305 2300 2296 2288 2283 2281 2279 2270 2265 2259 2253 2246 2240 2230 2222 2219 2219 2219 2219 2219 2213 2207 2205 2203 2200 2200 2195 2193 2191 2191 2191 2191 2193 2198 2200 2200 2201 2203 2209 2216 2225 2233 2241 2251 2261 2275 2281 2293 2309 2330 2334 2343 2357 2373 2392 2402 2407 2415 2438 2442 2442 2442 2428 2414 2398 2370 2348 2320 2306 2292 2273 2267 2258 2239 2218 2195 2183 2170 2161 2157 2155 2153 2152 2145 2133 2122 2116 2115 2106 2093 2080 2040 2019 2005 1997 1984 1963 1957 1952 1946 1942 1938 1934 1930 1930 1926 1923 1917 1912 1908 1902 1898 1892 1876 1867 1858 1857 0 0 0 0 0 0 0 0 0 0 0 0 0 0 0 0 0 1753 1750 1745 1740 1732 1725 0 0 1716 1707 1702 1697 1694 1692 1690 1689 1680 1678 1675 1672 1672 1672 1675 1675 1676 1677 1678 1678 1678 1678 1678 1678 1677 1677 1674 1670 1670 1670 1670 1670 1670 1670 1670 1670 1670 1670 1673 1677 1679 1681 1681 1681 1682 1685 1699 1708 1711 1713 1719 1732 1744 1762 1797 1817 1823 1832 1841 1845 1848 1849 1850 1851 1852 1852 1853 1855 1856 1859 1862 1866 1869 1869 1869 1874 1881 1887 1897 1904 1910 1917 1923 1931 1936 1939 1942 1947 1950 1954 1958 1963 1967 1969 1971 1971 1975 1979 1980 1982 1983 1984 1985 1988 1989 1990 1991 1993 1994 1996 1998 2000 2003 2004 2006 2006 2008 2014 2019 2021 2022 2022 2028 2051 0 0 0 0 2243 2315 2320 2320 2320 2320 2319 2318 2318 2316 2314 2314 2313 2312 2311 2310 2304 2301 2295 2288 2284 2280 2277 2270 2262 2258 2256 2253 2250 2246 2244 2242 2242 2240 2237 2236 2235 2234 2233 2232 2232 2232 2232 2232 2232 2233 2233 2233 2232 2230 2228 2227 2227 2226 2226 2225 2225 2225 2225 2224 2224 2223 2222 2222 2222 2222 2222 2222 2215 2212 2196 0 0 0 0 0 0 0 0 0 0 0 0 0 0 0 0 0 0 0 0 0 0 0 0 0 0 0 0 0 0 0 0 0 0 0 0 0 0 0 0 0 0 0 0 0 0 0 0 0 0 0 0 0 0 0 0 0 0 0 0 0 0 0 0 0 0 0 0 0 0 0 0 0 0 0 0 0 0 0 0 0 0 0 0 0 0 0 0 0 0 0 0 0 0 0 0 0 0 0 0 0 0 0 0 0 0 0 0 0 0 0 0 0 0 0 0 0 0 0 0 0 0 0 0
2975 2975 3002 3037 3085 3124 3155 3160 3160 3164 3164 3165 3180 3186 3202 3206 3211 3214 3227 3243 3243 3245 3245 3245 3245 3249 3258 3263 3263 3266 3269 3273 3280 3287 3294 3298 3301 3301 3305 3309 3312 3316 3316 3330 3339 3346 3350 3360 3374 3382 3389 3389 3390 3396 3399 3406 3410 3411 3412 3419 3428 3433 3442 3448 3452 3464 3473 3477 3482 3486 3492 3501 3507 3510 3512 3512 3514 3514 3514 3514 3511 3511 3510 3507 3505 3486 3481 3481 3481 3488 3499 3575 3631 3641 3647 3652 3655 3657 3658 3660 3662 3662 3663 3665 3665 3666 3667 3670 3671 3671 3671 3672 3671 3671 3671 3669 3661 3649 3649 3649 3649 3655 3658 3659 3659 3659 3656 3654 3651 3650 3647 3646 3645 3644 3642 3642 3638 3638 3638 3638 3639 3642 3646 3648 3649 3649 3650 3650 3650 3649 3647 3645 3645 3645 3643 3644 3644 3644 3643 3643 3638 3637 3626 3612 3542 2989 2669 0 0 2358 2340 2334 2324 2312 2304 2299 2297 2296 2286 2280 2272 2270 2268 2262 2250 2242 2237 2231 2221 2214 2212 2211 2210 2209 2202 2199 2199 2198 2198 2191 2181 2178 2178 2176 2178 2178 2178 2184 2184 2184 2185 2185 2185 2190 2196 2206 2216 2224 2233 2246 2254 2261 2270 2278 2295 2327 2336 2354 2373 2388 2396 2399 2415 2438 2443 2443 2443 2440 2424 2398 2370 2348 2320 2306 2292 2271 2261 2256 2234 2211 2191 2178 2169 2159 2152 2149 2144 2138 2128 2119 2112 2109 2107 2106 2093 2080 2059 2028 2009 2007 1988 1973 1957 1952 1945 1940 1937 1934 1927 1916 1908 1902 1897 1892 1885 0 0 0 0 0 0 0 0 0 0 0 0 0 0 0 0 0 0 0 0 1739 1734 1723 1721 1720 1719 1719 1716 1710 1695 1690 1685 1671 1669 1668 1667 1666 1664 1662 1659 1659 1659 1659 1664 1668 1668 1668 1668 1665 1664 1664 1664 1666 1667 1669 1669 1669 1669 1668 1667 1666 1665 1664 1664 1664 1665 1668 1669 1669 1669 1670 1673 1677 1679 1679 1679 1679 1679 1684 1700 1700 1703 1705 1714 1730 1747 1758 1793 1819 1829 1839 1844 1846 1847 1848 1849 1849 1850 1851 1852 1854 1857 1862 1865 1868 1868 1869 1872 1876 1881 1890 1902 1907 1913 1918 1925 1932 1935 1940 1945 1947 1952 1957 1961 1964 1966 1967 1967 1969 1974 1977 1978 1978 1978 1980 1982 1983 1987 1988 1989 1989 1991 1992 1996 1997 1998 1999 2000 2003 2007 2010 2014 2015 2022 2028 0 0 0 0 0 2292 2315 2320 2320 2321 2321 2321 2321 2321 2320 2318 2316 2316 2316 2314 2311 2306 2301 2295 2288 2284 2278 2275 2269 2261 2257 2255 2253 2250 2246 2244 2242 2241 2240 2237 2236 2235 2234 2233 2232 2232 2232 2232 2232 2232 2232 2232 2232 2232 2230 2228 2227 2227 2226 2225 2224 2224 2224 2224 2224 2224 2223 2223 2223 2223 2224 2224 2224 2219 2217 2212 2185 0 0 0 0 0 0 0 0 0 0 0 0 0 0 0 0 0 0 0 0 0 0 0 0 0 0 0 0 0 0 0 0 0 0 0 0 0 0 0 0 0 0 0 0 0 0 0 0 0 0 0 0 0 0 0 0 0 0 0 0 0 0 0 0 0 0 0 0 0 0 0 0 0 0 0 0 0 0 0 0 0 0 0 0 0 0 0 0 0 0 0 0 0 0 0 0 0 0 0 0 0 0 0 0 0 0 0 0 0 0 0 0 0 0 0 0 0 0 0 0 0 0 0
2962 2962 2988 3026 3077 3124 3155 3160 3160 3164 3164 3165 3180 3186 3202 3206 3211 3214 3227 3243 3243 3246 3246 3246 3246 3249 3258 3264 3269 3269 3269 3273 3280 3287 3294 3301 3301 3302 3306 3309 3312 3316 3316 3330 3345 3348 3353 3375 3383 3387 3389 3390 3393 3396 3399 3406 3410 3411 3412 3415 3424 3428 3432 3447 3450 3459 3466 3475 3481 3487 3492 3499 3507 3510 3512 3512 3515 3515 3515 3514 3513 3511 3510 3507 3505 3481 3481 3481 3481 3485 3499 3583 3633 3643 3647 3651 3654 3656 3656 3657 3657 3658 3661 3663 3663 3665 3667 3670 3670 3670 3670 3670 3670 3669 3668 3666 3662 3651 3649 3649 3649 3655 3658 3659 3659 3659 3656 3654 3651 3650 3647 3644 3644 3642 3640 3639 3636 3636 3636 3638 3640 3642 3646 3648 3648 3648 3649 3647 3647 3647 3647 3645 3645 3645 3645 3645 3646 3645 3645 3643 3638 3637 3616 3614 3474 2910 2560 0 2373 2347 2336 2328 2320 2308 2298 2292 2290 2290 2284 2270 2266 2264 2263 2250 2240 2233 2228 2222 2216 2209 2206 2205 2203 2197 2195 2195 2195 2191 2181 2171 2171 2171 2172 2172 2172 2169 2169 2169 2172 2172 2172 2176 2176 2176 2176 2178 2185 2188 2196 2210 2231 2235 2241 2256 2271 2288 2335 2350 2372 2373 2377 2396 2415 2438 2444 2444 2444 2440 2424 2395 2367 2344 2318 2301 2286 2256 2247 2240 2220 2204 2187 2175 2167 2159 2151 2146 2142 2136 2125 2114 2106 2106 2105 2104 2094 2080 2068 2047 2021 2008 1989 1976 1963 1952 1941 1936 1931 1929 1921 1915 1906 1887 1866 0 0 0 0 0 1749 1746 1736 1732 1728 1725 1721 1718 1718 1718 1716 1714 1708 1708 1708 1709 1709 1709 1706 1692 1683 1681 1678 1671 1670 1667 1663 1662 1662 1660 1657 1655 1655 1654 1654 1653 1653 1653 1655 1658 1661 1661 1661 1661 1660 1660 1661 1661 1663 1664 1666 1667 1668 1668 1667 1666 1664 1663 1663 1663 1663 1664 1665 1667 1669 1669 1669 1669 1672 1675 1677 1677 1677 1677 1678 1680 1689 1693 1696 1702 1708 1716 1734 1750 1767 1812 1825 1837 1842 1845 1845 1846 1846 1847 1848 1849 1849 1851 1855 1860 1863 1866 1867 1867 1868 1871 1875 1884 1897 1903 1909 1914 1921 1927 1934 1938 1939 1943 1948 1953 1956 1958 1961 1962 1963 1964 1967 1971 1973 1976 1977 1977 1977 1978 1979 1983 1983 1984 1984 1987 1989 1992 1994 1994 1997 2000 2005 2008 2010 2012 2022 2033 0 0 0 2207 2277 2292 2315 2319 2319 2319 2319 2321 2324 2324 2324 2324 2323 2321 2319 2314 2311 2307 2301 2293 2288 2284 2278 2273 2268 2261 2257 2255 2253 2251 2246 2244 2242 2240 2238 2236 2235 2235 2234 2233 2232 2231 2231 2231 2232 2232 2232 2232 2232 2230 2230 2228 2227 2226 2226 2225 2223 2223 2223 2224 2224 2224 2223 2223 2223 2223 2224 2224 2224 2224 2218 2217 2203 0 0 0 0 0 0 0 0 0 0 0 0 0 0 0 0 0 0 0 0 0 0 0 0 0 0 0 0 0 0 0 0 0 0 0 0 0 0 0 0 0 0 0 0 0 0 0 0 0 0 0 0 0 0 0 0 0 0 0 0 0 0 0 0 0 0 0 0 0 0 0 0 0 0 0 0 0 0 0 0 0 0 0 0 0 0 0 0 0 0 0 0 0 0 0 0 0 0 0 0 0 0 0 0 0 0 0 0 0 0 0 0 0 0 0 0 0 0 0 0 0 0 0
2962 2962 2988 3026 3072 3120 3153 3160 3160 3164 3164 3165 3180 3186 3202 3206 3211 3214 3227 3243 3244 3246 3246 3246 3246 3250 3258 3264 3268 3269 3270 3273 3281 3287 3292 3303 3304 3307 3309 3312 3317 3318 3320 3333 3350 3357 3361 3379 3388 3389 3391 3393 3393 3396 3404 3411 3412 3413 3414 3414 3418 3426 3432 3438 3444 3451 3461 3473 3481 3487 3492 3499 3508 3511 3512 3514 3515 3516 3516 3516 3513 3511 3510 3507 3505 3480 3463 3463 3463 3488 3501 3584 3633 3643 3647 3650 3653 3656 3656 3656 3656 3658 3661 3663 3663 3665 3667 3669 3669 3669 3669 3669 3669 3667 3666 3666 3662 3653 3649 3649 3649 3655 3658 3659 3659 3659 3656 3654 3651 3650 3647 3644 3642 3639 3638 3634 3634 3634 3636 3638 3640 3642 3643 3643 3643 3644 3644 3644 3647 3647 3647 3647 3647 3647 3647 3647 3646 3645 3645 3643 3629 3629 3620 3613 3389 2880 2546 0 2347 2336 2330 2320 2309 2303 2289 2285 2285 2279 2265 2262 2262 2259 2248 2240 2232 2224 2222 2218 2216 2208 2203 2197 2193 2191 2185 2184 2179 2175 2168 2166 2166 2166 2166 2166 2162 2162 2161 2162 2162 2163 2162 2163 2163 2162 2162 2162 2162 2167 2176 2183 2194 2202 2213 2222 2238 2254 2275 2348 2362 2363 2374 2390 2412 2432 2442 2442 2442 2440 2424 2392 2364 2318 2298 2281 2265 2239 2230 2220 2196 2191 2180 2170 2162 2158 2151 2146 2141 2135 2125 2112 2101 2100 2099 2097 2093 2081 2068 2054 2040 2013 1993 1977 1963 1952 1939 1931 1930 1926 1919 1906 1870 1845 0 0 0 0 1738 1732 1725 1697 1697 1697 1692 1692 1692 1687 1681 1681 1681 1681 1681 1674 1669 1662 1661 1660 1659 1659 1658 1658 1658 1657 1657 1657 1656 1655 1654 1651 1650 1650 1650 1650 1651 1651 1652 1653 1654 1656 1657 1658 1658 1659 1659 1659 1659 1660 1660 1661 1661 1661 1661 1663 1663 1663 1662 1662 1662 1663 1663 1664 1665 1667 1668 1668 1669 1669 1671 1674 1675 1676 1676 1677 1678 1680 1686 1692 1696 1700 1706 1713 1729 1750 1767 1808 1822 1834 1839 1843 1843 1843 1843 1844 1847 1847 1848 1849 1853 1858 1859 1861 1863 1865 1866 1870 1875 1883 1892 1898 1904 1910 1915 1921 1929 1934 1936 1938 1944 1948 1949 1951 1953 1955 1957 1961 1964 1965 1967 1968 1970 1972 1973 1973 1973 1975 1976 1977 1977 1979 1983 1986 1987 1987 1993 1998 2003 2005 2006 2011 2023 2060 0 0 2228 2229 2277 2292 2305 2311 2314 2316 2321 2322 2325 2328 2328 2328 2325 2322 2319 2314 2311 2307 2301 2293 2287 2284 2278 2269 2264 2261 2256 2254 2254 2251 2245 2242 2239 2238 2236 2234 2232 2232 2232 2232 2232 2231 2231 2231 2231 2231 2232 2232 2231 2231 2231 2228 2227 2227 2226 2226 2223 2223 2223 2224 2224 2224 2223 2223 2223 2223 2223 2224 2224 2224 2222 2219 2214 2176 0 0 0 0 0 0 0 0 0 0 0 0 0 0 0 0 0 0 0 0 0 0 0 0 0 0 0 0 0 0 0 0 0 0 0 0 0 0 0 0 0 0 0 0 0 0 0 0 0 0 0 0 0 0 0 0 0 0 0 0 0 0 0 0 0 0 0 0 0 0 0 0 0 0 0 0 0 0 0 0 0 0 0 0 0 0 0 0 0 0 0 0 0 0 0 0 0 0 0 0 0 0 0 0 0 0 0 0 0 0 0 0 0 0 0 0 0 0 0 0 0 0
2962 2962 2988 3026 3072 3120 3153 3168 3174 3174 3178 3182 3187 3215 3216 3217 3219 3229 3236 3243 3244 3245 3246 3246 3248 3251 3257 3264 3269 3270 3270 3277 3284 3287 3291 3301 3304 3307 3313 3317 3318 3323 3331 3342 3354 3367 3373 3379 3393 3393 3393 3396 3396 3399 3407 3414 3414 3414 3414 3414 3418 3426 3432 3438 3444 3451 3461 3473 3481 3490 3496 3499 3508 3511 3512 3514 3515 3516 3516 3516 3515 3514 3513 3512 3507 3479 3462 3462 3462 3491 3501 3590 3637 3644 3648 3649 3652 3655 3656 3656 3656 3658 3661 3662 3663 3665 3667 3668 3669 3669 3669 3668 3668 3667 3666 3666 3663 3655 3648 3648 3648 3652 3656 3658 3658 3658 3656 3654 3651 3650 3647 3644 3640 3636 3636 3633 3633 3633 3635 3638 3638 3638 3637 3636 3636 3636 3636 3641 3644 3646 3646 3646 3647 3649 3649 3649 3647 3646 3645 3639 3639 3626 3625 3611 3389 2880 2546 0 2347 2331 2324 2307 2300 2289 2286 2281 2281 2276 2263 2259 2253 2242 2238 2231 2223 2223 2220 2215 2211 2201 2195 2192 2189 2186 2179 2172 2168 2167 2164 2159 2158 2158 2157 2154 2153 2152 2151 2148 2143 2143 2137 2136 2133 2131 2131 2131 2134 2138 2147 2162 2173 2181 2191 2193 2202 2227 2240 2280 2345 2355 2358 2378 2408 2420 2442 2442 2442 2417 2401 2380 2353 2297 2273 2256 2239 2220 2207 2199 2169 2168 2165 2165 2159 2153 2149 2143 2139 2132 2121 2105 2092 2092 2092 2090 2089 2076 2068 2054 2043 2024 1997 1978 1963 1952 1932 1923 1916 1912 1864 1850 1831 1801 0 0 0 1704 1693 1682 1672 1664 1664 1664 1663 1663 1663 1657 1656 1656 1656 1656 1656 1654 1654 1654 1653 1653 1652 1651 1651 1651 1648 1648 1648 1648 1648 1648 1650 1650 1650 1650 1650 1650 1650 1651 1652 1653 1653 1655 1657 1658 1658 1659 1659 1660 1660 1660 1660 1660 1661 1661 1661 1661 1661 1661 1661 1661 1662 1663 1663 1664 1664 1667 1669 1669 1669 1669 1669 1671 1674 1675 1675 1676 1676 1680 1685 1689 1696 1700 1706 1713 1726 1750 1767 1805 1821 1832 1836 1837 1839 1840 1840 1841 1844 1846 1846 1847 1850 1852 1856 1856 1858 1861 1865 1869 1874 1880 1887 1891 1897 1901 1906 1914 1925 1930 1933 1938 1940 1943 1946 1947 1947 1950 1954 1958 1960 1960 1960 1961 1961 1966 1966 1967 1968 1968 1968 1968 1969 1971 1975 1980 1983 1984 1988 1994 1996 1998 1998 2011 2039 2084 2115 0 2229 2237 2279 2290 2293 2304 2305 2315 2321 2322 2325 2328 2328 2328 2325 2322 2319 2314 2311 2306 2301 2293 2287 2284 2277 2268 2263 2256 2254 2253 2252 2251 2244 2240 2238 2236 2233 2232 2232 2231 2231 2231 2231 2230 2230 2230 2230 2230 2230 2230 2231 2231 2231 2228 2227 2227 2226 2226 2223 2223 2223 2223 2223 2223 2223 2223 2223 2222 2222 2222 2226 2228 2228 2228 2214 2176 0 0 0 0 0 0 0 0 0 0 0 0 0 0 0 0 0 0 0 0 0 0 0 0 0 0 0 0 0 0 0 0 0 0 0 0 0 0 0 0 0 0 0 0 0 0 0 0 0 0 0 0 0 0 0 0 0 0 0 0 0 0 0 0 0 0 0 0 0 0 0 0 0 0 0 0 0 0 0 0 0 0 0 0 0 0 0 0 0 0 0 0 0 0 0 0 0 0 0 0 0 0 0 0 0 0 0 0 0 0 0 0 0 0 0 0 0 0 0 0 0 0
2978 2978 3010 3039 3072 3120 3149 3171 3189 3189 3192 3202 3205 3216 3217 3223 3223 3229 3236 3243 3244 3244 3246 3248 3249 3251 3257 3264 3269 3270 3272 3278 3285 3287 3291 3301 3304 3307 3315 3319 3324 3328 3338 3349 3361 3373 3381 3384 3391 3393 3395 3395 3399 3403 3408 3414 3414 3414 3415 3415 3418 3426 3432 3438 3444 3451 3461 3473 3483 3496 3499 3505 3509 3512 3515 3515 3517 3519 3519 3519 3516 3515 3515 3514 3508 3484 3478 3478 3484 3491 3508 3595 3637 3645 3648 3649 3650 3651 3654 3655 3656 3658 3661 3662 3663 3665 3667 3668 3669 3669 3669 3668 3668 3667 3667 3666 3663 3655 3649 3649 3649 3649 3652 3658 3658 3658 3656 3653 3651 3650 3647 3643 3638 3636 3636 3633 3632 3632 3632 3634 3635 3635 3635 3635 3636 3636 3636 3641 3642 3645 3648 3649 3649 3649 3649 3649 3647 3646 3644 3635 3635 3626 3625 3611 3389 2880 2546 0 2347 2331 2324 2307 2299 2289 2286 2281 2278 2268 2261 2257 2246 2235 2226 2224 2221 2219 2218 2215 2206 2201 2194 2192 2185 2176 2166 2165 2165 2162 2156 2149 2149 2145 2144 2143 2143 2143 2141 2127 2127 2127 2127 2127 2127 2123 2122 2122 2122 2123 2130 2141 2153 2162 2163 2165 2172 2192 2211 2233 0 0 0 0 0 2402 2423 2423 2423 0 0 0 0 0 0 0 0 0 0 0 0 2144 2144 2147 2147 2147 2137 2136 2129 2119 2104 2089 2076 2076 2076 2076 2076 2076 2067 2054 2043 2024 1997 1978 1963 1938 1903 1874 1867 1845 1840 1822 1798 1764 1736 1705 1685 1665 1648 1648 1648 1648 1648 1648 1644 1644 1644 1644 1643 1643 1643 1644 1645 1645 1647 1651 1651 1651 1651 1649 1649 1648 1648 1647 1647 1647 1647 1648 1650 1650 1650 1650 1650 1650 1650 1651 1652 1653 1653 1655 1657 1658 1658 1659 1659 1660 1660 1660 1660 1660 1661 1661 1661 1661 1661 1661 1661 1661 1662 1664 1665 1665 1665 1667 1669 1669 1669 1669 1669 1671 1672 1673 1674 1675 1676 1680 1684 1689 1692 1699 1705 1711 1726 1749 1769 1805 1816 1825 1830 1832 1834 1836 1837 1838 1839 1842 1843 1845 1847 1850 1851 1851 1851 1855 1859 1867 1872 1877 1883 1887 1892 1897 1899 1902 1917 1926 1931 1937 1938 1941 1941 1944 1945 1947 1951 1955 1955 1955 1954 1953 1953 1953 1957 1959 1959 1959 1959 1959 1959 1963 1968 1975 1977 1981 1984 1984 1986 1988 1991 2011 2046 2084 2115 0 2229 2241 2277 2285 2288 2288 2302 2310 2315 2321 2324 2328 2328 2328 2325 2321 2319 2311 2309 2305 2296 2290 2284 2280 2276 2267 2263 2253 2253 2251 2250 2250 2244 2240 2238 2236 2233 2231 2231 2230 2230 2230 2229 2227 2227 2227 2226 2226 2226 2229 2231 2231 2231 2228 2227 2227 2226 2226 2223 2222 2222 2222 2223 2223 2223 2223 2223 2222 2222 2222 2226 2228 2228 2228 2214 2176 0 0 0 0 0 0 0 0 0 0 0 0 0 0 0 0 0 0 0 0 0 0 0 0 0 0 0 0 0 0 0 0 0 0 0 0 0 0 0 0 0 0 0 0 0 0 0 0 0 0 0 0 0 0 0 0 0 0 0 0 0 0 0 0 0 0 0 0 0 0 0 0 0 0 0 0 0 0 0 0 0 0 0 0 0 0 0 0 0 0 0 0 0 0 0 0 0 0 0 0 0 0 0 0 0 0 0 0 0 0 0 0 0 0 0 0 0 0 0 0 0 0
3004 3004 3036 3085 3116 3116 3138 3168 3189 3199 3206 3208 3209 3220 3220 3226 3227 3229 3236 3242 3243 3245 3247 3248 3249 3251 3257 3264 3269 3270 3272 3278 3285 3289 3291 3300 3304 3307 3317 3320 3325 3332 3342 3349 3361 3373 3381 3384 3388 3391 3400 3404 3404 3408 3413 3417 3417 3417 3421 3421 3423 3432 3441 3445 3450 3456 3465 3475 3487 3501 3516 3516 3519 3519 3522 3523 3523 3523 3523 3523 3519 3519 3519 3519 3519 3486 3478 3478 3486 3488 3521 3599 3637 3645 3649 3649 3650 3651 3652 3654 3656 3659 3661 3663 3663 3665 3667 3668 3669 3669 3669 3669 3668 3668 3667 3666 3664 3656 3650 3649 3649 3649 3652 3657 3657 3657 3656 3653 3651 3650 3646 3639 3638 3636 3636 3633 3632 3632 3632 3634 3635 3635 3635 3635 3636 3636 3636 3641 3642 3645 3649 3649 3649 3649 3649 3649 3648 3646 3646 3635 3635 3626 3625 3611 3446 2935 2593 0 0 2331 2324 2307 2299 2289 2286 2281 2271 2264 2255 2247 2237 2224 2221 2218 2218 2215 2213 2210 2204 2199 2193 2183 2175 2165 2162 2161 2160 2155 2149 2148 2145 2143 2137 2135 2134 2132 2129 2122 2121 2121 2121 2120 2120 2117 2111 2110 2109 2104 2104 2104 2106 2110 2112 2125 2140 2161 2178 2184 0 0 0 0 0 0 0 0 0 0 0 0 0 0 0 0 0 0 0 0 0 0 0 0 0 0 0 0 2085 2073 2071 2060 2060 2060 2073 2073 2073 2070 2055 2053 2043 2024 1997 1976 1944 1905 1871 1848 1839 1829 1813 1785 1755 1729 1700 1682 1663 1655 1647 1645 1642 1641 1640 1640 1640 1641 1641 1641 1640 1639 1639 1639 1642 1645 1646 1648 1649 1649 1649 1649 1648 1648 1647 1647 1646 1646 1646 1647 1647 1649 1649 1650 1650 1650 1650 1651 1653 1653 1653 1655 1657 1658 1659 1659 1659 1660 1660 1660 1660 1661 1662 1662 1662 1662 1662 1662 1662 1662 1665 1665 1665 1666 1666 1667 1669 1669 1669 1669 1669 1671 1672 1673 1674 1675 1676 1679 1682 1687 1692 1699 1704 1711 1726 1749 1769 1792 1807 1816 1818 1822 1825 1831 1833 1834 1834 1835 1837 1840 1842 1842 1842 1844 1844 1848 1851 1861 1870 1870 1877 1880 1885 1886 1891 1893 1900 1916 1926 1932 1932 1933 1936 1941 1941 1944 1946 1946 1946 1945 1944 1941 1941 1941 1945 1950 1951 1951 1951 1951 1951 1954 1960 1967 1972 1975 1975 1976 1978 1979 1987 2011 2046 2084 2110 0 2217 2241 2265 2266 2267 2267 2283 2297 2305 2305 2306 2310 2311 2314 2314 2314 2310 2303 2299 2293 2289 2284 2279 2276 2261 2258 2254 2248 2248 2247 2247 2247 2243 2238 2236 2234 2233 2230 2230 2230 2229 2229 2229 2227 2225 2223 2223 2223 2225 2228 2228 2228 2225 2225 2225 2224 2224 2224 2223 2222 2222 2222 2222 2222 2223 2222 2222 2222 2220 2220 2220 2224 2224 2224 2214 2174 0 0 0 0 0 0 0 0 0 0 0 0 0 0 0 0 0 0 0 0 0 0 0 0 0 0 0 0 0 0 0 0 0 0 0 0 0 0 0 0 0 0 0 0 0 0 0 0 0 0 0 0 0 0 0 0 0 0 0 0 0 0 0 0 0 0 0 0 0 0 0 0 0 0 0 0 0 0 0 0 0 0 0 0 0 0 0 0 0 0 0 0 0 0 0 0 0 0 0 0 0 0 0 0 0 0 0 0 0 0 0 0 0 0 0 0 0 0 0 0 0 0
3014 3014 3037 3086 3120 3130 3138 3168 3189 3208 3208 3212 3213 3220 3220 3221 3221 3221 3233 3242 3243 3245 3247 3248 3249 3251 3257 3266 3273 3277 3277 3281 3285 3290 3291 3300 3304 3307 3317 3324 3330 3334 3342 3349 3363 3373 3381 3384 3388 3391 3400 3407 3411 3413 3416 3419 3422 3423 3424 3425 3435 3442 3450 3453 3454 3459 3465 3475 3487 3504 3516 3516 3519 3519 3522 3523 3523 3525 3525 3525 3525 3525 3524 3524 3524 3486 3478 3478 3486 3488 3529 3599 3637 3645 3649 3649 3650 3651 3652 3656 3656 3660 3661 3663 3664 3667 3669 3671 3671 3672 3673 3673 3673 3672 3671 3670 3667 3661 3655 3650 3650 3650 3652 3657 3658 3658 3658 3653 3651 3649 3644 3639 3638 3637 3637 3636 3636 3635 3635 3634 3635 3636 3641 3641 3641 3641 3641 3641 3642 3645 3649 3649 3649 3649 3649 3649 3648 3646 3646 3635 3626 3626 3625 3613 3601 3142 2713 0 0 2350 2323 2311 2299 2291 2283 2275 2270 2261 2248 2241 2230 2221 2219 2218 2217 2214 2209 2206 2203 2198 2188 2176 2167 2162 2159 2153 2148 2148 2147 2147 2143 2136 2129 2127 2127 2126 2119 2119 2119 2119 2119 2116 2106 2106 2105 2101 2101 2095 2093 2092 2092 2093 2093 2100 2109 2125 2134 2143 2155 0 0 0 0 0 0 0 0 0 0 0 0 0 0 0 0 0 0 0 0 0 0 0 0 0 0 0 0 2019 2017 2017 2017 2019 2040 2041 2041 2040 2033 2028 2024 2009 1972 1931 1903 1876 1856 1839 1824 1813 1781 1753 1722 1692 1671 1660 1651 1650 1647 1642 1641 1641 1640 1640 1640 1640 1640 1639 1639 1639 1639 1639 1642 1643 1644 1648 1649 1649 1649 1646 1646 1646 1646 1646 1646 1646 1646 1647 1647 1649 1650 1650 1651 1651 1652 1653 1653 1653 1653 1655 1658 1659 1660 1660 1660 1660 1660 1661 1661 1661 1663 1663 1663 1663 1663 1663 1663 1664 1665 1665 1666 1666 1666 1668 1669 1669 1669 1669 1670 1671 1672 1673 1674 1674 1676 1678 1681 1685 1690 1694 1697 1708 1726 1745 1769 1774 1790 1796 1797 1798 1798 1807 1816 1816 1816 1817 1823 1826 1827 1827 1828 1828 1828 1834 1839 1845 1856 1861 1861 1865 1869 1872 1876 1882 1887 1897 1910 1911 1915 1921 1922 1927 1927 1927 1927 1927 1927 1928 1928 1928 1929 1929 1929 1932 1940 1940 1940 1939 1939 1939 1952 1958 1964 1968 1968 1969 1970 1970 1986 2007 2046 2082 0 0 0 2241 2241 2241 2255 2255 2255 2280 2291 2291 2291 2287 2287 2284 2283 2283 2278 2278 2278 2278 2278 2274 2269 2246 2244 2244 2236 2236 2236 2240 2240 2240 2235 2230 2228 2228 2228 2228 2229 2229 2229 2228 2228 2225 2223 2219 2219 2219 2222 2224 2224 2224 2219 2219 2219 2220 2220 2220 2220 2220 2218 2218 2218 2219 2219 2221 2221 2221 2220 2215 2215 2215 2213 2213 2198 2146 0 0 0 0 0 0 0 0 0 0 0 0 0 0 0 0 0 0 0 0 0 0 0 0 0 0 0 0 0 0 0 0 0 0 0 0 0 0 0 0 0 0 0 0 0 0 0 0 0 0 0 0 0 0 0 0 0 0 0 0 0 0 0 0 0 0 0 0 0 0 0 0 0 0 0 0 0 0 0 0 0 0 0 0 0 0 0 0 0 0 0 0 0 0 0 0 0 0 0 0 0 0 0 0 0 0 0 0 0 0 0 0 0 0 0 0 0 0 0 0 0 0
3017 3017 3040 3086 3123 3131 3148 3166 3169 3208 3208 3212 3212 3220 3220 3221 3221 3221 3231 3240 3243 3245 3247 3248 3249 3253 3260 3267 3273 3277 3278 3283 3285 3290 3297 3300 3305 3311 3317 3324 3330 3336 3342 3353 3364 3375 3381 3381 3383 3391 3400 3407 3411 3414 3417 3420 3426 3429 3430 3437 3445 3452 3457 3458 3459 3459 3465 3475 3487 3504 3516 3516 3519 3519 3522 3523 3523 3525 3525 3525 3526 3526 3530 3530 3530 3486 3486 3481 3486 3490 3535 3599 3631 3643 3650 3651 3651 3652 3653 3656 3660 3666 3668 3669 3672 3672 3673 3675 3676 3677 3679 3679 3679 3679 3678 3676 3670 3665 3661 3654 3654 3654 3655 3658 3660 3660 3660 3656 3651 3649 3644 3640 3640 3640 3640 3640 3639 3639 3637 3637 3637 3640 3646 3646 3646 3646 3644 3644 3644 3647 3649 3649 3649 3649 3649 3649 3649 3649 3647 3644 3636 3636 3624 3614 3611 3335 2845 2567 0 2360 2323 2311 2300 2291 2283 2275 2269 2253 2242 2235 2228 2220 2219 2218 2217 2212 2207 2202 2198 2192 2181 2171 2166 2161 2153 2145 2145 2145 2143 2142 2132 2123 2122 2121 2121 2115 2115 2114 2114 2113 2104 2095 2094 2093 2093 2088 2086 2083 2078 2075 2074 2074 2074 2074 2075 2088 2099 2108 2110 2114 0 0 0 0 0 0 0 0 0 0 0 0 0 0 0 1923 1923 1923 1926 1940 1965 1967 1970 1972 1982 1983 0 0 0 0 0 0 2004 2005 2004 2000 1992 1991 1988 1979 1933 1905 1883 1853 1801 1787 1784 1774 1753 1720 1682 1666 1660 1656 1651 1647 1642 1642 1641 1640 1640 1639 1639 1639 1639 1638 1638 1639 1639 1639 1641 1643 1644 1644 1644 1644 1645 1645 1645 1645 1645 1645 1646 1646 1646 1647 1647 1649 1650 1652 1652 1652 1653 1655 1655 1655 1655 1655 1658 1659 1660 1660 1660 1661 1661 1661 1661 1662 1663 1663 1663 1663 1664 1664 1665 1666 1666 1666 1668 1668 1668 1669 1669 1670 1670 1670 1670 1671 1672 1673 1673 1674 1676 1677 1681 1682 1682 1684 1685 1692 1711 1722 1733 1742 1745 1745 1745 1745 1745 1751 1757 1788 1788 1790 1791 1800 1801 1801 1802 1805 1806 1807 1809 0 0 0 1832 1835 1839 1848 1853 1858 1858 0 0 0 0 0 0 0 1884 1889 1894 1902 1903 1905 1907 1907 1907 1908 1908 1911 1921 1926 1926 1926 1926 1926 1930 1942 1949 1953 1953 1956 1956 1960 1984 0 0 0 0 0 0 0 2229 2229 2229 2216 0 0 0 0 0 0 0 0 0 0 0 0 0 0 0 0 0 2228 2218 2218 2211 2210 2210 2210 2210 2210 2209 2205 2205 2205 2208 2216 2217 2217 2217 2207 2200 2200 2200 2202 2205 2210 2217 2218 2218 2218 2211 2211 2210 2210 2212 2212 2212 2212 2207 2207 2207 2211 2214 2216 2217 2217 2217 2210 2208 2205 2202 2199 2180 0 0 0 0 0 0 0 0 0 0 0 0 0 0 0 0 0 0 0 0 0 0 0 0 0 0 0 0 0 0 0 0 0 0 0 0 0 0 0 0 0 0 0 0 0 0 0 0 0 0 0 0 0 0 0 0 0 0 0 0 0 0 0 0 0 0 0 0 0 0 0 0 0 0 0 0 0 0 0 0 0 0 0 0 0 0 0 0 0 0 0 0 0 0 0 0 0 0 0 0 0 0 0 0 0 0 0 0 0 0 0 0 0 0 0 0 0 0 0 0 0 0 0
3022 3022 3040 3086 3123 3130 3133 3166 3169 3208 3208 3209 3212 3223 3223 3223 3226 3231 3231 3239 3243 3245 3249 3250 3250 3258 3262 3267 3273 3277 3278 3286 3296 3298 3302 3306 3310 3314 3317 3324 3330 3336 3342 3353 3364 3375 3381 3381 3381 3389 3399 3407 3411 3415 3418 3421 3427 3430 3435 3445 3453 3458 3460 3461 3461 3462 3465 3474 3487 3504 3511 3516 3516 3517 3517 3518 3522 3524 3525 3526 3526 3527 3533 3533 3533 3498 3494 3485 3485 3494 3539 3599 3625 3642 3650 3653 3656 3657 3658 3659 3665 3669 3674 3676 3676 3677 3677 3677 3678 3681 3685 3685 3685 3685 3684 3681 3673 3669 3661 3654 3654 3654 3658 3661 3661 3661 3660 3656 3653 3649 3644 3643 3643 3643 3643 3645 3645 3645 3644 3644 3644 3646 3651 3651 3651 3651 3648 3647 3647 3647 3647 3647 3647 3650 3650 3652 3652 3652 3651 3646 3642 3642 3637 3626 3614 3530 3015 2613 0 0 2326 2311 2300 2291 2276 2270 2260 2247 2240 2231 2223 2220 2218 2216 2216 2209 2204 2197 2190 2181 2173 2169 2166 2160 2147 2145 2142 2142 2142 2133 2126 2117 2116 2115 2113 2112 2112 2109 2101 2096 2090 2087 2082 2079 2078 2077 2069 2067 2061 2060 2053 2046 2046 2046 2053 2059 2065 2067 2070 2074 0 0 0 0 0 0 0 0 0 0 0 1913 1913 1913 1913 1913 1910 1910 1910 1912 1921 1928 1928 1928 1928 1928 0 0 0 0 0 0 0 0 0 0 1944 1944 1944 1908 1900 1883 1851 1785 1762 1762 1759 1750 1730 1706 1682 1666 1659 1655 1650 1647 1642 1642 1641 1639 1639 1639 1638 1638 1638 1639 1639 1640 1640 1641 1642 1643 1643 1644 1644 1644 1644 1645 1645 1645 1646 1646 1646 1646 1646 1647 1648 1650 1650 1652 1652 1653 1654 1656 1656 1656 1657 1657 1658 1660 1660 1660 1661 1661 1661 1661 1662 1662 1664 1664 1664 1665 1665 1665 1667 1668 1668 1668 1668 1669 1669 1669 1670 1670 1671 1671 1671 1671 1672 1673 1673 1673 1673 1675 1677 1677 1677 1678 1678 1685 1686 1689 1696 1702 1709 1710 1711 1711 1711 1711 1713 1726 1750 1761 1764 1767 1768 1768 1768 1767 1753 0 0 0 0 0 0 0 0 0 0 0 0 0 0 0 0 0 0 0 0 0 0 0 0 0 0 0 0 0 0 0 0 0 0 0 0 0 0 0 0 0 0 0 0 0 0 0 0 0 0 0 0 0 0 0 0 0 0 0 0 0 0 0 0 0 0 0 0 0 0 0 0 0 0 0 0 0 0 0 0 0 0 0 0 0 0 0 0 0 0 0 0 0 0 0 0 0 0 0 0 0 0 0 0 2186 2186 2186 2186 2186 2186 2186 2186 2189 2190 2194 2198 2198 2205 2205 2205 2204 2198 2188 2182 2170 0 0 0 0 0 0 0 0 0 0 0 0 0 0 0 0 0 0 0 0 0 0 0 0 0 0 0 0 0 0 0 0 0 0 0 0 0 0 0 0 0 0 0 0 0 0 0 0 0 0 0 0 0 0 0 0 0 0 0 0 0 0 0 0 0 0 0 0 0 0 0 0 0 0 0 0 0 0 0 0 0 0 0 0 0 0 0 0 0 0 0 0 0 0 0 0 0 0 0 0 0 0 0 0 0 0 0 0 0 0 0 0 0 0 0 0 0 0 0 0 0 0 0 0
3023 3023 3037 3085 3120 3122 3132 3156 3159 3202 3209 3212 3219 3227 3227 3227 3228 3231 3231 3239 3243 3245 3250 3251 3252 3258 3262 3267 3271 3275 3278 3286 3301 3306 3309 3310 3313 3314 3317 3328 3330 3334 3342 3356 3368 3373 3379 3380 3381 3388 3399 3406 3411 3416 3419 3421 3428 3435 3442 3448 3456 3458 3461 3461 3462 3463 3465 3474 3487 3500 3506 3509 3512 3512 3512 3512 3515 3521 3525 3526 3526 3529 3533 3533 3533 3504 3499 3490 3490 3499 3553 3599 3625 3642 3652 3656 3659 3662 3664 3668 3671 3673 3676 3678 3679 3679 3680 3681 3682 3686 3687 3687 3687 3687 3685 3684 3678 3670 3661 3661 3661 3661 3665 3665 3665 3662 3660 3656 3653 3650 3648 3648 3648 3648 3649 3649 3649 3648 3648 3648 3649 3653 3656 3656 3656 3652 3648 3647 3647 3646 3646 3646 3646 3646 3650 3652 3653 3653 3653 3650 3642 3642 3642 3626 3614 3554 3327 2782 0 0 2326 2308 2300 2290 2275 2263 2249 2234 2233 2223 2219 2218 2217 2216 2207 2203 2198 2188 2181 2173 2170 2166 2159 2153 2144 2139 2134 2130 2127 2124 2116 2112 2110 2109 2107 2107 2107 2096 2094 2091 2088 2076 2071 2071 2068 2060 2054 2053 2052 2038 2016 2016 2016 2029 2030 2032 2032 2032 2041 2041 2041 0 0 0 0 0 0 0 1924 1907 1896 1896 1896 1903 1903 1903 1898 1894 1894 1894 1897 1897 1897 1892 1889 1874 1854 1846 1845 1845 1846 1862 1864 1877 1892 1901 1901 1901 1896 1872 1868 1850 1795 1766 1760 1754 1746 1736 1721 1701 1676 1665 1658 1653 1648 1647 1642 1641 1640 1639 1638 1638 1638 1638 1638 1639 1639 1640 1641 1641 1642 1642 1643 1644 1644 1644 1644 1644 1645 1645 1646 1646 1647 1647 1647 1648 1651 1651 1652 1652 1653 1654 1655 1657 1658 1658 1658 1658 1659 1661 1662 1662 1662 1662 1662 1662 1663 1663 1664 1665 1665 1667 1667 1668 1669 1669 1669 1670 1670 1670 1670 1671 1671 1671 1671 1671 1671 1671 1672 1672 1672 1673 1673 1674 1675 1675 1675 1675 1675 1675 1676 1676 1681 1686 1690 1690 1690 1689 1688 1687 1687 1687 1695 1695 1699 1705 1721 1721 1721 1711 1709 1706 1705 1705 1705 1712 1712 0 0 0 0 0 0 0 0 0 0 0 0 0 0 0 0 0 0 0 0 0 0 0 0 0 0 0 0 0 0 0 0 0 0 0 0 0 0 0 0 0 0 0 0 0 0 0 0 0 0 0 0 0 0 0 0 0 0 0 0 0 0 0 0 0 0 0 0 0 0 0 0 0 0 0 0 0 0 0 0 0 0 0 0 0 0 0 0 0 0 0 0 0 0 0 0 0 0 0 0 0 0 0 0 0 0 0 0 0 0 0 0 0 0 0 0 0 0 0 0 0 0 0 0 0 0 0 0 0 0 0 0 0 0 0 0 0 0 0 0 0 0 0 0 0 0 0 0 0 0 0 0 0 0 0 0 0 0 0 0 0 0 0 0 0 0 0 0 0 0 0 0 0 0 0 0 0 0 0 0 0 0 0 0 0 0 0 0 0 0 0 0 0 0 0 0 0 0 0 0 0 0 0 0 0 0 0 0 0 0 0 0 0 0 0 0 0 0 0 0 0 0 0 0 0 0 0 0 0 0 0 0 0 0 0 0 0 0 0 0 0 0 0
3026 3026 3036 3063 3108 3122 3122 3150 3156 3198 3201 3205 3211 3211 3226 3241 3243 3243 3243 3245 3245 3246 3251 3254 3254 3258 3262 3266 3271 3272 3278 3286 3301 3310 3314 3314 3314 3314 3314 3329 3330 3334 3341 3356 3368 3372 3377 3378 3381 3388 3399 3406 3411 3416 3419 3425 3433 3440 3447 3452 3459 3460 3461 3463 3463 3464 3465 3474 3487 3500 3506 3509 3512 3512 3512 3512 3515 3519 3525 3527 3527 3529 3533 3533 3533 3504 3499 3490 3490 3499 3567 3599 3625 3642 3653 3657 3661 3664 3668 3673 3673 3675 3676 3680 3681 3683 3683 3683 3684 3689 3689 3689 3688 3688 3688 3686 3682 3673 3664 3664 3664 3668 3668 3668 3667 3662 3658 3655 3653 3653 3652 3652 3652 3652 3652 3652 3652 3652 3653 3653 3656 3658 3658 3658 3657 3652 3648 3647 3646 3646 3645 3645 3645 3645 3650 3654 3654 3654 3653 3650 3642 3642 3642 3635 3635 3632 3469 2992 2620 0 0 2308 2299 2288 2271 2260 2237 2233 2231 2221 2217 2211 2211 2206 2201 2197 2188 2178 2173 2170 2163 2160 2157 2149 2142 2137 2131 2129 2126 2117 2112 2108 2104 2102 2101 2100 2092 2089 2088 2081 2066 2065 2062 2059 2055 2050 2044 2039 2021 2010 2008 2008 2008 2017 2017 2017 2017 2017 2015 1996 1965 1955 1952 1948 1942 1931 1914 1903 1898 1891 1891 1891 1892 1892 1892 1887 1886 1879 1877 1872 1871 1870 1868 1863 1860 1845 1838 1838 1838 1844 1845 1851 1862 1869 1877 1877 1877 1874 1859 1852 1834 1795 1781 1764 1752 1740 1728 1714 1702 1685 1671 1663 1658 1653 1648 1643 1640 1638 1636 1635 1635 1635 1636 1637 1638 1639 1639 1640 1641 1641 1642 1642 1643 1644 1644 1644 1644 1645 1645 1645 1647 1647 1647 1647 1648 1650 1651 1652 1653 1654 1655 1655 1656 1659 1662 1662 1663 1663 1663 1664 1664 1664 1664 1664 1664 1664 1665 1666 1667 1668 1668 1669 1669 1672 1672 1672 1672 1673 1673 1673 1673 1673 1673 1671 1671 1671 1671 1672 1672 1672 1672 1672 1672 1674 1674 1674 1674 1674 1674 1675 1675 1676 1679 1684 1684 1684 1684 1683 1683 1683 1682 1682 1681 1681 1682 1683 1685 1690 1693 1693 1693 1691 1689 1689 1689 1691 1691 1691 1691 1691 1695 1697 1697 1697 1696 1696 1696 1696 1696 1696 1705 1705 1708 0 0 0 0 0 0 0 0 1718 1721 1721 1721 1720 1720 1716 1709 1709 1709 1709 1709 0 0 0 0 0 0 0 0 0 0 0 0 0 0 0 0 0 0 0 0 0 0 0 0 0 0 0 0 0 0 0 0 0 0 0 0 0 0 0 0 0 0 0 0 0 0 0 0 0 0 0 0 0 0 0 0 0 0 0 0 0 0 0 0 0 0 0 0 0 0 0 0 0 0 0 0 0 0 0 0 0 0 0 0 0 0 0 0 0 1713 1685 1685 0 0 0 0 0 0 0 0 0 0 0 0 0 0 0 0 0 0 0 0 0 0 0 0 0 0 0 0 0 0 0 0 0 0 0 0 0 0 0 0 0 0 0 0 0 0 0 0 0 0 0 0 0 0 0 0 0 0 0 0 0 0 0 0 0 0 0 0 0 0 0 0 0 0 0 0 0 0 0 0 0 0 0 0 0 0 0 0 0 0 0 0 0 0 0 0 0 0 0 0 0 0 0 0 0 0 0 0 0 0 0 0 0 0 0
