2953 2953 2953 2955 2981 3042 3127 3138 3144 3148 3148 3167 3168 3170 3176 3176 3179 3183 3187 3188 3192 3192 3206 3224 3232 3238 3238 3241 3245 3245 3250 3261 3266 3277 3293 3302 3311 3321 3322 3323 3325 3336 3336 3336 3334 3334 3334 3351 3366 3371 3376 3382 3386 3389 3390 3395 3411 3421 3427 3428 3430 3430 3433 3433 3440 3450 3459 3470 3472 3472 3472 3472 3472 3477 3482 3485 3489 3492 3497 3509 3517 3522 3529 3533 3533 3533 3533 3533 3540 3543 3550 3557 3562 3569 3573 3573 3573 3573 3575 3576 3579 3581 3581 3582 3582 3582 3585 3588 3593 3604 3606 3606 3606 3600 3598 3598 3598 3599 3602 3610 3610 3610 3599 3573 3504 3473 3473 3473 3504 3590 3642 3651 3651 3651 3651 3651 3652 3652 3652 3652 3652 3654 3654 3654 3652 3650 3644 3639 3634 3630 3628 3627 3618 3600 3577 3565 3553 3549 3549 3548 3549 3550 3552 3568 3571 3571 3571 3569 3568 3564 3542 3519 3486 3468 3464 3453 3408 3374 3339 3205 2615 0 0 0 0 0 0 0 0 0 0 0 0 0 0 0 0 0 0 0 0 0 0 0 0 0 0 0 0 0 0 0 0 0 0 0 0 0 0 0 0 0 0 0 0 0 0 0 0 0 0 0 0 0 0 0 0 0 0 0 0 0 0 0 0 0 0 0 0 0 0 0 0 0 0 0 0 0 0 0 0 0 0 0 0 0 0 0 0 0 0 0 0 0 0 0 0 0 0 0 0 0 0 0 0 0 0 0 0 0 0 0 0 0 0 0 0 0 0 0 0 0 0 0 0 0 0 0 0 0 0 0 0 0 0 0 0 0 0 0 0 0 0 0 0 0 0 0 0 0 0 0 0 0 0 0 0 0 0 0 0 0 0 0 0 0 0 0 0 0 0 0 0 0 0 0 0 0 0 0 0 0 0 0 0 0 0 0 0 0 0 0 0 0 0 0 0 0 0 0 0 0 0 0 0 0 0 0 0 0 0 0 0 0 0 0 0 0 0 0 0 0 0 0 0 0 0 0 0 0 0 0 0 0 0 0 0 0 0 0 0 0 0 0 0 0 0 0 0 0 0 0 0 0 0 0 0 0 0 0 0 0 0 0 0 0 0 0 0 0 0 0 0 0 0 0 0 0 0 0 0 0 0 2045 2062 2083 2110 2124 2133 2147 2165 2191 2219 2241 2269 2288 2304 2316 2317 2319 2321 2324 2324 2325 2325 2326 2328 2328 2328 2325 2324 2322 2321 2319 2318 2315 2312 2309 2307 2304 2300 2299 2293 2288 2283 2278 2274 2268 2265 2262 2260 2257 2254 2249 2242 2238 2235 2232 2228 2221 2214 2209 2206 2203 2199 2195 2192 2188 2185 2180 2176 2172 2171 2171 2171 2171 2171 2171 2171 2169 2169 2169 2171 2172 2172 2173 2173 2175 2180 2183 2184 2184 2184 2181 2180 2180 2179 2179 2178 2172 2170 0 0 0 0 0 0 0 0 0 0 0 0 0 0 0 0 0 0 0 0 0 0 0 0 0 0 0 0 0 0 0 0 0 0 0 0 0 0 0 0 0 0 0 0 0 0 0 0 0 0 0 0 0 0 0 0 0 0 0 0 0 0 0 0 0 0 0 0 0 0 0 0 0 0 0 0 0 0 0
2951 2951 2952 2969 3003 3078 3144 3144 3144 3144 3144 3151 3168 3170 3176 3176 3179 3183 3190 3192 3193 3193 3206 3224 3232 3238 3238 3241 3241 3241 3250 3262 3266 3279 3296 3307 3311 3321 3322 3323 3328 3335 3342 3342 3346 3348 3350 3363 3377 3380 3383 3388 3393 3397 3397 3401 3412 3421 3427 3430 3430 3430 3435 3443 3453 3459 3465 3472 3472 3472 3472 3472 3472 3477 3482 3485 3489 3493 3498 3509 3517 3522 3529 3536 3536 3537 3540 3542 3543 3552 3557 3561 3566 3570 3573 3573 3574 3574 3575 3576 3581 3582 3583 3583 3583 3583 3585 3588 3594 3599 3602 3602 3602 3600 3600 3600 3601 3602 3605 3610 3610 3610 3599 3576 3504 3501 3501 3501 3504 3590 3644 3651 3651 3651 3651 3651 3651 3652 3652 3652 3652 3654 3654 3654 3652 3649 3644 3638 3631 3625 3621 3621 3615 3600 3572 3558 3552 3549 3549 3549 3549 3550 3556 3578 3578 3578 3571 3567 3553 3537 3500 3483 3462 3443 3433 3426 3394 3347 3304 3144 2571 0 0 0 0 1631 1631 1631 1627 1626 1623 1620 1617 1616 1616 1616 1614 1614 1616 1617 1617 1617 1608 1608 1608 1608 1610 1610 1611 1611 1611 1610 1610 1610 1621 1623 1623 1625 1625 1623 1620 1620 1613 1610 1607 1607 1607 1612 1613 1616 1620 1620 1620 1620 1620 1621 1622 1626 0 0 0 0 0 0 0 0 0 0 0 0 0 0 0 0 0 0 0 0 0 0 0 0 0 0 0 0 0 0 0 0 0 0 0 0 0 0 0 0 0 0 0 0 0 0 0 0 0 0 1637 1637 1637 1637 1667 1667 1667 1649 1639 1633 1632 1632 1632 1632 1633 1633 1634 1637 0 0 0 0 0 0 0 0 0 0 0 0 0 0 0 0 0 0 0 0 0 0 0 0 0 0 0 0 0 0 0 0 0 0 0 0 0 0 0 0 0 0 0 0 0 0 0 0 0 0 0 0 0 0 0 0 0 0 0 0 0 0 0 0 0 0 0 0 0 0 0 0 0 0 0 0 0 0 0 0 0 0 0 0 0 0 0 0 0 0 0 0 0 0 0 0 0 0 0 0 0 0 0 0 0 0 0 0 0 0 0 0 0 0 0 0 0 0 0 0 0 0 0 0 0 0 0 0 0 0 0 0 0 0 0 0 0 0 0 0 0 0 0 0 0 0 0 0 0 0 0 0 0 0 0 0 0 2022 2043 2060 2078 2099 2112 2125 2149 2176 2202 2222 2251 2271 2287 2299 2310 2312 2313 2316 2317 2318 2320 2323 2326 2326 2326 2325 2324 2322 2321 2319 2318 2315 2311 2309 2305 2301 2299 2296 2293 2288 2283 2277 2272 2267 2261 2260 2258 2257 2253 2245 2238 2234 2231 2226 2223 2217 2211 2208 2204 2200 2195 2190 2186 2186 2183 2180 2176 2172 2169 2168 2168 2168 2167 2165 2165 2165 2165 2166 2168 2169 2169 2169 2170 2170 2172 2177 2179 2179 2179 2179 2179 2174 2174 2172 2171 2171 2162 0 0 0 0 0 0 0 0 0 0 0 0 0 0 0 0 0 0 0 0 0 0 0 0 0 0 0 0 0 0 0 0 0 0 0 0 0 0 0 0 0 0 0 0 0 0 0 0 0 0 0 0 0 0 0 0 0 0 0 0 0 0 0 0 0 0 0 0 0 0 0 0 0 0 0 0 0 0 0
2951 2951 2952 2969 3003 3078 3144 3144 3144 3144 3144 3151 3172 3172 3172 3176 3176 3177 3195 3195 3202 3202 3206 3224 3230 3232 3234 3234 3234 3235 3245 3263 3272 3286 3297 3307 3311 3320 3321 3323 3328 3340 3351 3351 3354 3356 3359 3370 3380 3385 3390 3400 3406 3407 3407 3410 3413 3418 3423 3430 3433 3441 3446 3453 3463 3467 3473 3476 3476 3476 3474 3474 3474 3477 3482 3485 3489 3493 3500 3509 3516 3520 3529 3536 3540 3542 3543 3544 3552 3560 3566 3569 3572 3572 3573 3573 3574 3575 3575 3577 3582 3584 3585 3585 3585 3586 3588 3589 3594 3599 3602 3602 3602 3602 3602 3602 3602 3603 3605 3610 3610 3610 3601 3579 3523 3504 3503 3503 3503 3590 3644 3652 3652 3652 3651 3651 3651 3651 3651 3652 3652 3654 3654 3654 3651 3648 3643 3637 3630 3624 3617 3615 3611 3590 3566 3554 3552 3549 3549 3549 3549 3550 3559 3564 3564 3564 3560 3548 3535 3513 3485 3458 3442 3418 3404 3375 3337 3305 3255 3110 0 0 0 0 1626 1621 1615 1608 1606 1605 1604 1603 1598 1596 1595 1595 1595 1600 1603 1605 1607 1607 1607 1603 1600 1600 1600 1600 1602 1602 1602 1602 1603 1605 1605 1605 1602 1602 1602 1604 1604 1604 1600 1598 1598 1597 1597 1598 1598 1599 1601 1602 1602 1602 1602 1601 1601 1601 1603 1604 1605 1605 1605 1606 1607 1608 1608 1611 1614 1616 1618 1618 1618 1619 1616 1615 1615 1615 1614 1609 1608 1605 1604 1603 1603 1603 1604 1604 1606 1608 1613 1613 1613 1613 1613 1611 1610 1609 1608 1608 1607 1607 1607 1607 1607 1607 1607 1607 1607 1607 1607 1615 1619 1619 1618 1619 1618 1618 1617 1613 1611 1610 1606 1606 1606 1606 1607 1611 1611 1611 1609 1606 1606 1606 1608 1613 1613 1613 1612 1611 1609 1604 1604 1604 1615 1620 1620 1620 1620 1618 1614 1609 1606 1606 1606 1606 1606 1611 1613 1613 1613 1612 1607 1601 1601 1601 1602 1607 1609 1614 1617 1618 1619 1629 0 0 0 0 0 0 0 0 0 0 0 0 0 0 0 0 0 0 0 0 0 0 1631 1631 1631 1632 1633 1636 1641 1644 0 0 0 0 0 0 0 0 0 0 0 0 0 0 0 0 0 0 0 0 0 1647 1617 1617 1616 1616 1616 1616 1616 1619 1619 1619 1619 0 0 0 0 1631 1631 1634 1640 0 0 0 0 0 0 0 0 0 0 0 0 0 0 0 0 0 0 0 0 0 0 0 0 0 0 0 0 0 0 0 0 0 0 0 0 0 0 0 2033 2053 2058 2067 2084 2103 2137 2167 2191 2204 2222 2257 2277 2292 2301 2303 2304 2305 2308 2315 2317 2319 2322 2324 2324 2324 2324 2323 2321 2319 2317 2314 2310 2308 2304 2300 2296 2294 2292 2287 2282 2277 2271 2266 2261 2258 2253 2250 2245 2239 2234 2230 2228 2223 2219 2215 2209 2205 2203 2199 2194 2189 2185 2183 2178 2173 2171 2170 2169 2167 2165 2162 2162 2161 2161 2162 2162 2164 2167 2168 2168 2168 2167 2167 2167 2170 2171 2171 2171 2174 2174 2174 2172 2171 2170 2170 2160 0 0 0 0 0 0 0 0 0 0 0 0 0 0 0 0 0 0 0 0 0 0 0 0 0 0 0 0 0 0 0 0 0 0 0 0 0 0 0 0 0 0 0 0 0 0 0 0 0 0 0 0 0 0 0 0 0 0 0 0 0 0 0 0 0 0 0 0 0 0 0 0 0 0 0 0 0 0 0
2951 2951 2952 2969 3003 3078 3144 3144 3144 3144 3144 3151 3170 3178 3178 3178 3184 3184 3195 3195 3202 3202 3204 3218 3220 3230 3230 3231 3233 3234 3245 3263 3277 3289 3297 3309 3311 3318 3321 3323 3328 3343 3353 3354 3357 3375 3378 3378 3386 3391 3398 3406 3407 3407 3409 3410 3414 3418 3423 3430 3434 3441 3449 3458 3467 3474 3480 3481 3481 3480 3480 3480 3480 3480 3483 3488 3494 3500 3504 3509 3516 3520 3529 3536 3540 3542 3544 3551 3557 3565 3570 3574 3575 3575 3575 3575 3575 3577 3578 3581 3584 3586 3587 3589 3590 3590 3593 3594 3594 3599 3602 3602 3604 3604 3603 3603 3604 3604 3605 3608 3608 3608 3608 3580 3532 3513 3512 3512 3512 3595 3644 3650 3651 3652 3652 3652 3651 3651 3651 3651 3652 3652 3651 3651 3650 3648 3641 3636 3630 3624 3617 3609 3600 3580 3560 3553 3553 3552 3552 3550 3550 3550 3561 3561 3561 3547 3538 3516 3501 3485 3466 3440 3417 3394 3368 3344 3311 3267 3183 2883 0 0 0 0 1615 1613 1607 1601 1599 1598 1598 1597 1597 1592 1592 1592 1594 1597 1598 1602 1602 1602 1602 1600 1600 1599 1599 1599 1600 1600 1601 1601 1602 1602 1602 1602 1600 1599 1599 1598 1598 1598 1597 1596 1596 1596 1596 1595 1595 1595 1596 1596 1596 1596 1594 1594 1594 1595 1595 1595 1595 1595 1595 1596 1597 1599 1601 1601 1604 1604 1604 1604 1602 1602 1600 1599 1599 1599 1599 1599 1599 1598 1597 1597 1597 1597 1597 1597 1597 1597 1597 1597 1598 1599 1598 1597 1597 1597 1597 1597 1597 1597 1597 1597 1599 1603 1604 1605 1606 1605 1604 1603 1603 1603 1603 1605 1605 1605 1605 1603 1600 1600 1600 1600 1601 1602 1602 1605 1605 1605 1601 1600 1598 1598 1598 1600 1601 1603 1603 1603 1601 1597 1597 1597 1599 1601 1603 1605 1605 1605 1603 1602 1601 1601 1599 1598 1598 1598 1598 1598 1598 1596 1596 1594 1593 1593 1594 1594 1598 1601 1602 1602 1603 1603 1603 1611 1612 1612 1612 1612 1612 1614 1619 1625 1626 1626 1627 1628 1631 1631 1631 1631 1621 1613 1607 1603 1603 1603 1604 1605 1605 1607 1609 1609 1610 1612 1617 1617 1617 1615 1615 1615 1621 1621 1622 1622 1622 1625 1625 1625 1620 1617 1616 1615 1613 1613 1610 1610 1605 1604 1604 1604 1600 1600 1599 1599 1599 1599 1599 1601 1603 1604 1604 1609 1609 1609 1609 1609 1609 1609 1609 1618 1618 1618 1620 1620 0 0 0 0 0 1623 1623 1622 1622 1622 1627 1630 0 0 0 0 0 0 0 0 0 0 0 0 0 0 0 0 0 2033 2044 2055 2067 2082 2109 2150 2180 2194 2208 2224 2264 2287 2296 2296 2296 2297 2298 2302 2310 2314 2319 2321 2323 2323 2323 2323 2321 2319 2316 2313 2310 2307 2303 2298 2295 2291 2288 2283 2280 2276 2270 2265 2260 2253 2248 2244 2239 2235 2232 2228 2225 2220 2213 2209 2202 2194 2191 2189 2184 2182 2178 2172 2169 2167 2164 2163 2163 2160 2157 2157 2156 2156 2157 2158 2162 2163 2165 2165 2165 2165 2164 2164 2164 2166 2167 2167 2168 2169 2167 2169 2169 2168 2167 2165 2152 2138 0 0 0 0 0 0 0 0 0 0 0 0 0 0 0 0 0 0 0 0 0 0 0 0 0 0 0 0 0 0 0 0 0 0 0 0 0 0 0 0 0 0 0 0 0 0 0 0 0 0 0 0 0 0 0 0 0 0 0 0 0 0 0 0 0 0 0 0 0 0 0 0 0 0 0 0 0 0
2919 2919 2921 2954 3000 3047 3111 3123 3138 3144 3154 3161 3167 3178 3178 3178 3187 3189 3195 3195 3203 3203 3204 3212 3219 3230 3230 3231 3232 3234 3245 3268 3282 3290 3297 3307 3316 3317 3321 3323 3328 3343 3351 3353 3357 3379 3380 3383 3394 3395 3401 3411 3411 3412 3413 3413 3414 3418 3423 3430 3434 3443 3453 3466 3473 3479 3481 3482 3482 3483 3484 3484 3484 3484 3484 3491 3497 3506 3507 3513 3516 3520 3525 3528 3530 3537 3544 3554 3561 3567 3570 3574 3575 3576 3576 3577 3578 3579 3581 3583 3586 3587 3589 3592 3596 3598 3600 3600 3601 3605 3607 3607 3608 3607 3607 3606 3604 3604 3604 3608 3608 3608 3608 3582 3541 3519 3514 3514 3514 3603 3640 3648 3650 3652 3652 3652 3651 3651 3650 3650 3650 3650 3648 3647 3646 3643 3640 3636 3631 3624 3617 3605 3591 3576 3560 3553 3553 3552 3552 3550 3550 3550 3564 3564 3564 3547 3508 3468 3465 3452 3436 3406 3376 3356 3337 3332 3296 3255 3156 2739 0 0 0 0 1610 1606 1600 1595 1595 1594 1594 1594 1593 1591 1591 1591 1591 1593 1596 1599 1602 1602 1602 1599 1598 1598 1598 1598 1599 1599 1599 1599 1599 1599 1599 1599 1598 1598 1598 1597 1597 1597 1593 1593 1593 1594 1594 1594 1593 1593 1593 1593 1590 1590 1590 1591 1592 1593 1594 1594 1594 1594 1594 1595 1595 1595 1598 1599 1599 1598 1597 1595 1595 1595 1595 1595 1594 1594 1594 1596 1596 1596 1595 1595 1595 1595 1595 1595 1595 1595 1595 1594 1594 1592 1592 1592 1594 1594 1595 1595 1595 1595 1594 1594 1595 1595 1597 1597 1597 1597 1597 1597 1597 1597 1597 1597 1597 1597 1594 1594 1594 1594 1594 1597 1597 1597 1597 1596 1596 1596 1596 1597 1598 1598 1598 1600 1600 1600 1600 1599 1599 1597 1597 1597 1597 1597 1597 1597 1597 1597 1598 1598 1598 1597 1595 1593 1593 1593 1593 1593 1592 1592 1591 1591 1592 1593 1593 1593 1595 1595 1595 1595 1595 1595 1595 1599 1599 1599 1599 1595 1595 1595 1598 1602 1603 1603 1603 1605 1608 1612 1612 1612 1610 1602 1596 1596 1596 1596 1596 1597 1598 1598 1601 1601 1601 1602 1602 1602 1602 1602 1603 1604 1608 1608 1608 1608 1608 1609 1609 1609 1605 1604 1604 1602 1601 1601 1601 1602 1602 1602 1600 1600 1599 1599 1598 1597 1597 1596 1596 1596 1597 1601 1601 1601 1601 1600 1600 1599 1598 1598 1598 1597 1597 1597 1596 1596 1596 1595 1593 1593 1593 1606 1607 1609 1609 1609 1610 1611 1611 1611 1611 1611 1609 1609 1609 1609 1613 1616 1620 1622 0 0 0 0 0 2023 2044 2050 2059 2073 2089 2126 2168 2184 2199 2208 2228 2266 2286 2286 2286 2288 2288 2289 2301 2308 2315 2318 2321 2323 2323 2323 2320 2317 2315 2313 2309 2305 2301 2298 2295 2291 2286 2282 2277 2273 2267 2263 2256 2250 2245 2240 2236 2232 2227 2221 2215 2208 2201 2197 2193 2190 2188 2181 2176 2173 2168 2164 2160 2158 2157 2156 2154 2151 2149 2149 2149 2149 2149 2150 2153 2158 2161 2162 2162 2162 2162 2162 2163 2164 2165 2165 2165 2165 2165 2166 2166 2166 2166 2161 2152 2149 0 0 0 0 0 0 0 0 0 0 0 0 0 0 0 0 0 0 0 0 0 0 0 0 0 0 0 0 0 0 0 0 0 0 0 0 0 0 0 0 0 0 0 0 0 0 0 0 0 0 0 0 0 0 0 0 0 0 0 0 0 0 0 0 0 0 0 0 0 0 0 0 0 0 0 0 0 0
2915 2915 2919 2954 3000 3047 3100 3133 3144 3155 3161 3170 3181 3183 3184 3184 3188 3198 3195 3201 3203 3203 3204 3212 3217 3231 3232 3232 3233 3246 3256 3268 3282 3290 3297 3306 3313 3314 3316 3317 3328 3335 3342 3353 3357 3379 3389 3394 3397 3408 3410 3413 3413 3416 3416 3416 3417 3420 3424 3430 3434 3443 3456 3466 3473 3479 3481 3483 3483 3483 3486 3486 3486 3487 3488 3491 3497 3506 3510 3515 3519 3521 3525 3528 3530 3537 3544 3554 3561 3567 3570 3574 3576 3576 3577 3579 3580 3582 3584 3586 3588 3589 3592 3595 3600 3602 3605 3605 3606 3610 3612 3613 3613 3613 3613 3610 3604 3604 3604 3608 3608 3608 3608 3596 3546 3535 3528 3528 3528 3603 3637 3647 3650 3654 3654 3654 3651 3651 3650 3650 3650 3649 3646 3643 3642 3639 3636 3635 3632 3624 3617 3605 3591 3576 3560 3555 3555 3554 3554 3554 3554 3554 3566 3566 3566 3543 3499 3467 3429 3420 3402 3380 3354 3332 3322 3312 3286 3244 3151 2632 0 0 0 1612 1608 1599 1595 1593 1593 1593 1593 1592 1592 1591 1591 1591 1591 1593 1595 1597 1598 1598 1598 1596 1596 1596 1596 1596 1596 1596 1595 1595 1595 1595 1595 1595 1595 1596 1595 1595 1595 1594 1593 1592 1592 1591 1591 1591 1591 1591 1590 1590 1587 1587 1587 1589 1589 1590 1590 1591 1592 1592 1593 1593 1594 1595 1596 1596 1596 1592 1591 1591 1591 1591 1591 1591 1591 1591 1592 1593 1594 1594 1593 1592 1592 1592 1592 1593 1594 1594 1594 1594 1594 1592 1592 1592 1592 1593 1594 1594 1594 1594 1594 1594 1594 1594 1594 1596 1596 1596 1595 1595 1595 1594 1594 1593 1593 1592 1591 1590 1590 1590 1591 1594 1594 1594 1594 1594 1594 1594 1596 1596 1597 1597 1597 1597 1597 1597 1596 1595 1594 1594 1594 1595 1595 1595 1595 1595 1593 1593 1593 1594 1594 1594 1593 1593 1592 1592 1592 1590 1590 1590 1590 1590 1590 1590 1590 1589 1589 1589 1590 1591 1591 1592 1594 1595 1597 1597 1597 1595 1595 1595 1596 1597 1597 1598 1599 1599 1599 1599 1599 1599 1597 1597 1594 1594 1594 1594 1594 1595 1595 1595 1597 1597 1597 1597 1597 1598 1598 1598 1599 1600 1601 1603 1603 1603 1602 1602 1599 1598 1598 1598 1598 1598 1598 1598 1598 1600 1600 1600 1599 1597 1596 1596 1595 1594 1594 1594 1595 1595 1597 1597 1597 1597 1597 1596 1595 1595 1595 1593 1593 1593 1592 1592 1592 1591 1591 1591 1591 1591 1593 1595 1598 1599 1600 1601 1603 1603 1603 1603 1602 1602 1602 1602 1602 1602 1602 1603 1603 1609 1617 0 0 0 0 2022 2044 2050 2057 2062 2074 2091 2119 2147 2183 2196 2203 2220 2252 2267 2267 2268 2273 2277 2292 2302 2312 2316 2316 2319 2319 2319 2317 2315 2314 2311 2308 2304 2300 2298 2295 2291 2285 2279 2274 2268 2264 2258 2254 2249 2245 2239 2235 2230 2221 2213 2206 2199 2193 2189 2186 2182 2176 2173 2169 2163 2159 2157 2154 2153 2153 2151 2150 2147 2143 2142 2142 2142 2142 2143 2147 2152 2153 2153 2154 2154 2156 2157 2160 2162 2163 2163 2163 2162 2162 2162 2164 2164 2164 2165 2161 2152 0 0 0 0 0 0 0 0 0 0 0 0 0 0 0 0 0 0 0 0 0 0 0 0 0 0 0 0 0 0 0 0 0 0 0 0 0 0 0 0 0 0 0 0 0 0 0 0 0 0 0 0 0 0 0 0 0 0 0 0 0 0 0 0 0 0 0 0 0 0 0 0 0 0 0 0 0 0
2910 2910 2919 2954 3000 3047 3100 3130 3148 3166 3172 3177 3182 3188 3188 3188 3196 3203 3198 3203 3204 3206 3210 3212 3217 3231 3232 3234 3234 3249 3256 3268 3282 3290 3297 3306 3307 3309 3316 3317 3317 3327 3336 3341 3353 3379 3389 3397 3406 3408 3412 3413 3415 3416 3416 3417 3421 3427 3428 3434 3437 3448 3456 3466 3473 3480 3482 3483 3485 3485 3486 3486 3487 3488 3490 3492 3500 3506 3512 3517 3524 3525 3525 3528 3530 3537 3546 3555 3561 3567 3570 3571 3573 3576 3578 3580 3583 3585 3588 3589 3590 3592 3594 3598 3602 3604 3605 3607 3610 3613 3614 3616 3618 3618 3618 3612 3605 3605 3605 3611 3617 3617 3617 3604 3546 3535 3529 3529 3529 3603 3637 3647 3651 3658 3658 3658 3656 3653 3652 3652 3650 3649 3646 3643 3642 3639 3636 3635 3635 3626 3617 3605 3591 3574 3561 3557 3557 3556 3555 3557 3557 3570 3574 3574 3574 3542 3495 3463 3428 3392 3371 3355 3329 3313 3299 3286 3248 3188 3056 2593 0 0 0 1605 1602 1595 1593 1593 1592 1592 1592 1592 1591 1590 1590 1590 1591 1592 1594 1595 1595 1594 1594 1594 1594 1592 1592 1592 1593 1594 1594 1594 1594 1593 1593 1592 1592 1592 1592 1592 1592 1591 1591 1590 1590 1590 1589 1589 1588 1587 1587 1587 1587 1587 1587 1587 1588 1588 1589 1590 1592 1592 1592 1592 1591 1590 1590 1590 1590 1589 1589 1589 1590 1590 1590 1590 1591 1591 1592 1592 1592 1590 1590 1590 1591 1591 1592 1592 1592 1592 1593 1593 1592 1591 1591 1591 1591 1592 1593 1593 1593 1593 1593 1593 1592 1592 1593 1593 1593 1593 1593 1593 1592 1591 1591 1591 1591 1591 1591 1590 1590 1590 1590 1591 1591 1591 1591 1591 1591 1592 1594 1594 1594 1593 1593 1593 1593 1592 1592 1592 1592 1592 1594 1595 1595 1595 1594 1593 1593 1593 1593 1594 1594 1594 1593 1592 1591 1591 1590 1590 1589 1589 1589 1589 1589 1589 1589 1588 1588 1588 1588 1591 1591 1591 1591 1595 1595 1595 1595 1594 1594 1594 1595 1595 1595 1594 1594 1594 1594 1594 1594 1594 1593 1592 1592 1592 1592 1592 1592 1592 1592 1592 1592 1592 1593 1593 1594 1594 1596 1596 1596 1598 1598 1598 1598 1598 1598 1597 1596 1596 1596 1596 1596 1596 1596 1596 1596 1597 1597 1597 1596 1596 1595 1593 1592 1592 1592 1592 1593 1593 1593 1593 1592 1592 1592 1592 1592 1592 1592 1591 1591 1590 1589 1589 1589 1589 1589 1589 1589 1590 1592 1593 1594 1595 1597 1598 1598 1598 1598 1596 1596 1596 1598 1598 1598 1598 1598 1598 1602 1604 1611 0 0 0 0 2021 2041 2048 2056 2061 2066 2076 2089 2107 2144 2176 2183 2194 2209 2230 2246 2253 2256 2266 2282 2294 2303 2312 2315 2317 2317 2317 2317 2315 2313 2310 2307 2303 2299 2298 2296 2291 2285 2279 2272 2266 2260 2255 2250 2245 2242 2237 2228 2219 2211 2205 2196 2191 2185 2182 2178 2176 2170 2166 2162 2158 2153 2151 2151 2150 2150 2147 2144 2142 2139 2135 2135 2135 2136 2137 2141 2145 2145 2145 2146 2148 2149 2149 2153 2157 2160 2160 2160 2160 2160 2161 2164 2164 2164 2165 2161 2152 0 0 0 0 0 0 0 0 0 0 0 0 0 0 0 0 0 0 0 0 0 0 0 0 0 0 0 0 0 0 0 0 0 0 0 0 0 0 0 0 0 0 0 0 0 0 0 0 0 0 0 0 0 0 0 0 0 0 0 0 0 0 0 0 0 0 0 0 0 0 0 0 0 0 0 0 0 0
2910 2910 2919 2976 3029 3070 3099 3128 3148 3165 3174 3182 3182 3189 3189 3189 3196 3201 3201 3202 3205 3206 3210 3212 3217 3231 3232 3235 3235 3249 3256 3260 3275 3287 3295 3302 3306 3307 3308 3308 3308 3314 3320 3326 3342 3368 3389 3397 3406 3410 3416 3418 3420 3426 3431 3431 3435 3435 3438 3442 3447 3454 3457 3467 3478 3481 3482 3485 3487 3488 3488 3490 3491 3492 3494 3496 3500 3506 3512 3517 3524 3525 3525 3528 3531 3539 3547 3555 3562 3565 3569 3571 3573 3576 3580 3581 3583 3586 3589 3592 3594 3595 3596 3599 3602 3604 3606 3609 3614 3618 3618 3618 3618 3618 3618 3612 3607 3607 3607 3615 3622 3622 3622 3608 3546 3535 3529 3529 3529 3597 3637 3647 3654 3662 3662 3662 3662 3658 3655 3653 3652 3649 3646 3643 3642 3639 3637 3635 3635 3630 3621 3612 3591 3574 3561 3561 3561 3563 3566 3569 3574 3576 3576 3574 3552 3542 3492 3360 3274 3232 3232 3222 3222 3222 3197 3176 3123 3072 2947 0 0 0 0 1605 1602 1595 1593 1592 1592 1592 1592 1591 1590 1590 1590 1590 1591 1591 1592 1592 1592 1592 1592 1592 1592 1592 1592 1592 1592 1592 1592 1592 1592 1592 1592 1589 1589 1589 1590 1590 1590 1590 1589 1589 1588 1587 1587 1587 1586 1586 1586 1586 1586 1585 1585 1586 1586 1587 1589 1590 1590 1591 1591 1590 1589 1588 1588 1588 1588 1588 1588 1588 1588 1588 1588 1589 1590 1590 1590 1590 1589 1589 1589 1589 1589 1590 1591 1591 1591 1591 1591 1591 1591 1591 1591 1591 1591 1591 1592 1592 1592 1591 1592 1591 1591 1591 1591 1591 1592 1592 1592 1592 1590 1590 1590 1590 1591 1591 1591 1589 1589 1589 1590 1591 1591 1591 1591 1591 1591 1591 1591 1592 1592 1592 1591 1591 1591 1591 1590 1589 1589 1589 1592 1592 1592 1591 1591 1591 1592 1592 1592 1592 1592 1592 1592 1592 1591 1591 1590 1589 1589 1589 1589 1589 1588 1588 1588 1587 1587 1587 1587 1587 1590 1591 1591 1591 1591 1591 1590 1590 1590 1592 1593 1593 1593 1592 1590 1590 1590 1590 1590 1590 1590 1590 1590 1590 1590 1592 1592 1592 1592 1590 1590 1590 1590 1591 1592 1592 1593 1593 1594 1595 1595 1595 1595 1595 1595 1595 1595 1594 1594 1594 1595 1595 1595 1594 1594 1594 1593 1593 1593 1592 1592 1592 1588 1587 1586 1586 1586 1586 1587 1587 1588 1588 1588 1588 1588 1588 1588 1588 1588 1585 1584 1584 1584 1586 1587 1589 1589 1589 1592 1593 1593 1593 1595 1595 1595 1594 1592 1592 1592 1593 1595 1595 1596 1596 1597 1597 1598 1601 1609 0 0 0 0 2015 2041 2048 2049 2052 2058 2068 2075 2095 2115 2127 2148 2177 2193 2212 2227 2239 2247 2256 2268 2278 2292 2306 2311 2316 2316 2316 2316 2315 2313 2310 2306 2300 2299 2296 2296 2291 2285 2277 2270 2263 2257 2253 2248 2242 2236 2223 2219 2213 2205 2197 2187 2180 2176 2175 2172 2168 2162 2157 2154 2152 2148 2146 2145 2144 2143 2141 2140 2137 2133 2133 2133 2133 2133 2134 2137 2138 2138 2138 2138 2144 2146 2147 2148 2150 2154 2159 2159 2159 2160 2161 2164 2164 2164 2165 2164 2158 0 0 0 0 0 0 0 0 0 0 0 0 0 0 0 0 0 0 0 0 0 0 0 0 0 0 0 0 0 0 0 0 0 0 0 0 0 0 0 0 0 0 0 0 0 0 0 0 0 0 0 0 0 0 0 0 0 0 0 0 0 0 0 0 0 0 0 0 0 0 0 0 0 0 0 0 0 0
2915 2915 2958 3019 3070 3077 3099 3126 3148 3166 3175 3182 3182 3189 3189 3189 3192 3201 3201 3203 3211 3214 3214 3215 3217 3235 3235 3239 3240 3249 3256 3260 3275 3287 3295 3302 3306 3307 3308 3308 3308 3314 3320 3326 3342 3353 3376 3394 3406 3410 3416 3418 3420 3426 3431 3437 3444 3446 3447 3450 3451 3455 3457 3467 3478 3481 3487 3488 3490 3491 3493 3492 3493 3493 3494 3496 3501 3506 3512 3517 3524 3525 3525 3529 3535 3545 3551 3559 3562 3565 3569 3571 3573 3577 3580 3584 3584 3587 3590 3592 3595 3596 3597 3600 3602 3605 3606 3610 3614 3618 3618 3619 3618 3618 3618 3612 3607 3607 3607 3615 3622 3622 3622 3613 3543 3529 3529 3529 3530 3597 3642 3654 3659 3664 3664 3664 3662 3660 3658 3656 3653 3651 3650 3646 3642 3639 3638 3638 3635 3632 3626 3612 3591 3572 3563 3563 3563 3574 3584 3586 3586 3586 3574 3550 3490 3417 3239 2904 2672 2543 2543 2543 2621 2777 2853 2882 2882 2882 0 0 0 0 0 1602 1602 1594 1592 1592 1592 1591 1591 1590 1589 1589 1589 1589 1589 1590 1590 1590 1590 1590 1590 1590 1590 1590 1590 1590 1590 1590 1590 1591 1591 1591 1590 1588 1588 1588 1588 1587 1587 1586 1586 1586 1586 1586 1585 1585 1585 1585 1585 1585 1585 1585 1585 1585 1586 1586 1587 1588 1589 1589 1589 1587 1587 1587 1587 1587 1587 1587 1587 1586 1586 1587 1587 1588 1588 1588 1588 1588 1588 1588 1588 1588 1588 1589 1590 1590 1591 1591 1591 1590 1590 1590 1590 1590 1590 1590 1590 1590 1590 1590 1590 1590 1590 1590 1590 1590 1590 1590 1590 1590 1589 1589 1589 1589 1590 1590 1589 1588 1588 1588 1589 1590 1590 1590 1589 1589 1589 1589 1589 1589 1589 1590 1590 1590 1589 1589 1588 1588 1588 1588 1590 1590 1590 1589 1589 1589 1590 1590 1590 1591 1591 1591 1591 1591 1591 1590 1589 1588 1588 1588 1588 1588 1588 1588 1588 1587 1586 1586 1586 1586 1588 1588 1589 1590 1590 1590 1589 1589 1589 1590 1590 1590 1590 1590 1588 1588 1587 1587 1588 1588 1587 1589 1589 1589 1589 1589 1589 1589 1589 1589 1589 1589 1589 1589 1591 1591 1591 1591 1592 1593 1593 1593 1593 1593 1592 1592 1592 1592 1592 1592 1592 1592 1591 1591 1591 1591 1591 1591 1590 1590 1589 1588 1587 1586 1585 1584 1584 1584 1584 1585 1585 1585 1583 1582 1582 1582 1582 1583 1583 1583 1582 1582 1582 1584 1586 1588 1589 1589 1592 1592 1592 1593 1594 1594 1594 1592 1590 1590 1590 1590 1590 1592 1592 1592 1592 1592 1592 1592 1605 0 0 0 0 2011 2034 2041 2049 2052 2057 2057 2068 2082 2094 2109 2124 2145 2172 2197 2214 2218 2222 2234 2242 2257 2271 2293 2306 2312 2312 2315 2315 2315 2313 2310 2303 2300 2297 2296 2296 2291 2284 2276 2264 2261 2257 2252 2246 2237 2221 2214 2210 2208 2200 2192 2180 2173 2171 2170 2166 2162 2158 2150 2148 2147 2144 2142 2138 2138 2138 2136 2134 2132 2130 2130 2129 2130 2130 2130 2130 2130 2131 2131 2133 2142 2145 2145 2145 2145 2145 2151 2157 2157 2159 2161 2163 2164 2164 2164 2160 2159 0 0 0 0 0 0 0 0 0 0 0 0 0 0 0 0 0 0 0 0 0 0 0 0 0 0 0 0 0 0 0 0 0 0 0 0 0 0 0 0 0 0 0 0 0 0 0 0 0 0 0 0 0 0 0 0 0 0 0 0 0 0 0 0 0 0 0 0 0 0 0 0 0 0 0 0 0 0
2915 2915 2966 3037 3075 3077 3085 3110 3148 3169 3175 3182 3183 3189 3189 3189 3192 3201 3201 3208 3211 3214 3214 3215 3217 3235 3235 3239 3240 3243 3256 3260 3275 3287 3295 3302 3306 3307 3308 3308 3308 3314 3320 3326 3342 3353 3376 3394 3411 3412 3416 3418 3420 3426 3431 3437 3444 3448 3452 3457 3457 3458 3461 3467 3478 3487 3495 3495 3495 3496 3496 3494 3496 3496 3496 3496 3501 3505 3509 3512 3515 3520 3524 3529 3537 3546 3553 3559 3562 3565 3569 3573 3576 3579 3583 3584 3586 3588 3592 3595 3595 3596 3598 3600 3602 3605 3606 3610 3615 3619 3619 3619 3616 3614 3613 3611 3607 3607 3607 3615 3622 3622 3622 3613 3543 3520 3520 3520 3530 3597 3643 3659 3664 3664 3664 3664 3664 3661 3659 3658 3655 3653 3652 3649 3647 3645 3641 3639 3635 3632 3626 3612 3589 3568 3568 3568 3568 3585 3592 3592 3592 3586 3568 3524 3431 3065 2658 0 0 0 0 0 0 0 0 0 0 0 0 0 0 0 1617 1604 1602 1594 1592 1592 1591 1591 1589 1589 1588 1588 1588 1588 1588 1588 1588 1589 1589 1589 1589 1589 1589 1589 1589 1589 1589 1589 1589 1589 1589 1589 1588 1587 1587 1586 1586 1586 1585 1585 1585 1584 1584 1584 1584 1584 1584 1584 1584 1584 1584 1584 1584 1584 1584 1586 1586 1586 1586 1586 1586 1586 1586 1585 1585 1585 1585 1585 1585 1585 1585 1585 1585 1585 1585 1585 1585 1585 1585 1586 1586 1587 1587 1587 1588 1589 1589 1590 1590 1590 1590 1589 1588 1588 1588 1588 1588 1588 1587 1587 1587 1588 1588 1588 1587 1587 1587 1588 1588 1588 1588 1588 1589 1589 1589 1589 1588 1588 1588 1588 1588 1588 1588 1588 1588 1588 1587 1587 1587 1588 1588 1588 1589 1588 1588 1588 1588 1588 1588 1588 1588 1588 1588 1588 1588 1588 1589 1589 1590 1590 1590 1590 1590 1588 1588 1588 1588 1587 1587 1587 1587 1587 1587 1587 1587 1586 1585 1585 1585 1585 1586 1587 1588 1588 1589 1589 1589 1589 1589 1589 1589 1589 1589 1588 1587 1586 1586 1586 1586 1587 1587 1587 1587 1587 1587 1589 1589 1589 1588 1588 1588 1588 1588 1588 1589 1589 1589 1589 1590 1592 1592 1592 1591 1591 1591 1591 1590 1590 1590 1590 1590 1590 1589 1589 1588 1588 1588 1588 1588 1588 1587 1586 1585 1585 1585 1583 1583 1583 1583 1584 1584 1584 1583 1580 1580 1580 1580 1582 1582 1582 1581 1581 1581 1582 1584 1586 1589 1589 1589 1589 1589 1589 1590 1590 1590 1590 1589 1589 1589 1589 1589 1589 1589 1589 1588 1588 1589 1590 1603 0 0 0 0 1995 2030 2041 2049 2052 2057 2057 2065 2071 2080 2089 2101 2112 2132 2160 2189 2203 2210 2217 2227 2240 2252 2263 2285 2298 2303 2312 2313 2313 2313 2307 2301 2297 2296 2295 2293 2290 2283 2268 2262 2259 2255 2252 2242 2225 2211 2204 2201 2200 2194 2186 2176 2170 2165 2160 2155 2152 2146 2140 2136 2134 2132 2129 2126 2126 2126 2128 2128 2128 2128 2128 2127 2126 2125 2125 2124 2124 2124 2126 2131 2138 2141 2141 2141 2144 2144 2147 2153 2156 2157 2161 2163 2163 2163 2163 2159 2157 0 0 0 0 0 0 0 0 0 0 0 0 0 0 0 0 0 0 0 0 0 0 0 0 0 0 0 0 0 0 0 0 0 0 0 0 0 0 0 0 0 0 0 0 0 0 0 0 0 0 0 0 0 0 0 0 0 0 0 0 0 0 0 0 0 0 0 0 0 0 0 0 0 0 0 0 0 0
2933 2933 2991 3041 3076 3078 3085 3110 3144 3169 3175 3176 3184 3189 3191 3192 3193 3207 3208 3209 3211 3213 3213 3215 3220 3235 3237 3239 3240 3243 3256 3264 3281 3292 3297 3313 3322 3322 3322 3322 3322 3328 3332 3339 3347 3353 3376 3394 3411 3411 3412 3415 3419 3426 3432 3437 3444 3448 3452 3457 3458 3462 3468 3476 3485 3495 3499 3499 3499 3496 3496 3496 3496 3496 3497 3498 3501 3505 3508 3509 3511 3515 3521 3529 3538 3548 3554 3559 3562 3566 3570 3575 3578 3581 3584 3586 3589 3591 3594 3597 3597 3599 3600 3601 3604 3606 3606 3610 3615 3619 3619 3619 3616 3608 3607 3606 3606 3607 3608 3614 3621 3621 3621 3618 3543 3520 3520 3520 3530 3597 3643 3663 3666 3666 3666 3666 3664 3662 3660 3658 3656 3654 3653 3652 3652 3651 3644 3639 3635 3632 3626 3615 3589 3572 3572 3572 3578 3587 3592 3592 3592 3566 3534 3442 2981 2548 0 0 0 0 0 0 0 0 0 0 0 0 0 0 0 0 1616 1604 1602 1594 1591 1591 1590 1590 1589 1587 1587 1586 1586 1586 1586 1586 1586 1586 1587 1587 1587 1587 1587 1588 1588 1587 1587 1587 1587 1587 1586 1586 1586 1586 1585 1584 1584 1584 1584 1583 1583 1583 1583 1581 1581 1581 1581 1582 1583 1583 1583 1583 1584 1584 1584 1585 1585 1585 1585 1585 1585 1585 1585 1585 1585 1585 1585 1584 1584 1584 1584 1584 1584 1584 1584 1584 1584 1584 1584 1585 1585 1585 1586 1586 1587 1587 1587 1588 1588 1588 1588 1588 1586 1585 1585 1585 1584 1585 1585 1585 1585 1585 1585 1585 1585 1586 1586 1586 1586 1587 1587 1587 1587 1587 1587 1587 1587 1587 1587 1587 1588 1588 1588 1587 1587 1586 1586 1586 1586 1586 1587 1587 1587 1587 1587 1587 1586 1587 1587 1587 1587 1587 1587 1587 1587 1587 1587 1587 1588 1588 1588 1588 1588 1587 1587 1586 1586 1586 1586 1586 1585 1585 1585 1585 1585 1585 1585 1585 1585 1585 1585 1586 1586 1587 1587 1587 1587 1587 1587 1587 1587 1587 1587 1587 1587 1586 1586 1586 1586 1586 1586 1585 1585 1585 1586 1586 1586 1586 1586 1586 1586 1586 1586 1586 1586 1587 1587 1588 1590 1590 1590 1589 1589 1589 1589 1589 1589 1588 1588 1588 1588 1588 1587 1587 1587 1587 1587 1587 1587 1586 1586 1585 1585 1584 1584 1582 1582 1582 1582 1582 1582 1582 1582 1580 1579 1579 1579 1581 1581 1581 1581 1580 1580 1580 1582 1584 1584 1584 1585 1585 1585 1585 1585 1585 1586 1586 1586 1587 1587 1587 1587 1587 1587 1587 1588 1588 1589 1589 1600 0 0 0 0 0 2024 2041 2051 2057 2057 2058 2065 2071 2080 2089 2098 2102 2110 2131 2153 2167 2177 2186 2200 2223 2239 2252 2265 2278 2294 2306 2306 2306 2305 2301 2296 2296 2295 2294 2292 2283 2272 2265 2261 2256 2254 2245 2232 2219 2205 2195 2193 2190 2187 2179 2169 2160 2157 2153 2144 2141 2137 2133 2133 2131 2128 2122 2119 2119 2119 2118 2118 2118 2118 2118 2119 2119 2119 2119 2119 2119 2120 2124 2128 2132 2137 2139 2139 2139 2139 2142 2146 2150 2153 2153 2155 2161 2165 2165 2165 2156 0 0 0 0 0 0 0 0 0 0 0 0 0 0 0 0 0 0 0 0 0 0 0 0 0 0 0 0 0 0 0 0 0 0 0 0 0 0 0 0 0 0 0 0 0 0 0 0 0 0 0 0 0 0 0 0 0 0 0 0 0 0 0 0 0 0 0 0 0 0 0 0 0 0 0 0 0 0
2942 2942 3009 3065 3078 3083 3085 3110 3144 3175 3175 3176 3184 3189 3192 3195 3199 3205 3208 3209 3210 3211 3213 3215 3221 3235 3240 3241 3243 3245 3259 3273 3284 3297 3311 3320 3331 3331 3331 3331 3331 3337 3344 3359 3374 3390 3396 3403 3410 3410 3411 3415 3419 3426 3432 3437 3444 3448 3452 3457 3458 3466 3478 3487 3495 3498 3501 3501 3501 3499 3498 3497 3497 3497 3497 3498 3501 3505 3508 3509 3511 3515 3521 3529 3538 3548 3555 3560 3563 3568 3573 3577 3582 3583 3586 3588 3592 3595 3598 3598 3600 3602 3603 3606 3606 3606 3607 3610 3614 3621 3621 3621 3616 3608 3607 3606 3606 3607 3608 3614 3621 3621 3621 3621 3571 3520 3520 3520 3533 3588 3643 3663 3667 3667 3667 3666 3666 3664 3662 3659 3656 3654 3653 3652 3652 3651 3644 3639 3634 3631 3626 3612 3589 3584 3584 3584 3587 3589 3592 3592 3592 3546 3491 3149 2577 0 0 0 0 0 0 0 0 0 0 0 0 0 0 0 1620 1612 1604 1595 1594 1590 1588 1588 1587 1586 1585 1585 1585 1585 1585 1585 1585 1585 1585 1585 1585 1585 1586 1586 1586 1586 1586 1585 1585 1584 1583 1583 1583 1584 1584 1584 1582 1582 1582 1582 1582 1582 1582 1582 1581 1580 1579 1579 1579 1579 1580 1581 1581 1582 1583 1583 1583 1584 1584 1585 1585 1585 1585 1585 1584 1584 1584 1584 1584 1584 1583 1583 1583 1583 1583 1582 1582 1582 1582 1582 1583 1583 1583 1584 1584 1584 1585 1585 1585 1585 1586 1586 1586 1586 1586 1585 1583 1583 1582 1582 1581 1581 1582 1583 1583 1583 1583 1583 1583 1584 1585 1585 1586 1587 1587 1587 1587 1586 1585 1585 1585 1586 1586 1586 1586 1586 1585 1584 1584 1584 1584 1584 1584 1585 1585 1585 1585 1586 1586 1586 1586 1586 1586 1586 1586 1586 1586 1586 1586 1587 1587 1587 1586 1585 1585 1585 1585 1585 1585 1585 1584 1583 1583 1583 1583 1583 1583 1583 1584 1584 1584 1584 1584 1585 1585 1585 1585 1586 1586 1586 1585 1585 1585 1585 1585 1586 1586 1585 1585 1585 1584 1584 1584 1584 1584 1584 1584 1584 1584 1584 1584 1584 1584 1584 1584 1584 1585 1585 1586 1586 1588 1588 1588 1588 1588 1587 1587 1587 1587 1586 1586 1586 1586 1586 1586 1586 1586 1586 1586 1586 1585 1585 1585 1584 1583 1583 1582 1582 1581 1580 1580 1580 1581 1581 1581 1579 1579 1578 1578 1578 1578 1578 1578 1578 1578 1579 1580 1582 1582 1583 1583 1583 1583 1583 1583 1583 1583 1583 1584 1584 1584 1584 1585 1586 1586 1587 1588 1588 1588 1589 1599 1615 0 0 0 0 2021 2042 2051 2058 2060 2061 2065 2071 2080 2087 2095 2101 2108 2116 2131 2138 2144 2151 2159 2183 2214 2239 2256 2270 2280 2295 2302 2302 2302 2298 2295 2294 2293 2293 2288 2276 2271 2265 2259 2253 2243 2230 2221 2211 2199 2188 2183 2179 2176 2172 2163 2159 2149 2146 2141 2140 2136 2132 2129 2127 2124 2122 2116 2116 2116 2115 2112 2110 2110 2110 2110 2110 2110 2110 2110 2110 2114 2118 2122 2126 2128 2130 2130 2131 2132 2135 2141 2142 2142 2143 2150 2152 2157 2157 2155 2155 2127 0 0 0 0 0 0 0 0 0 0 0 0 0 0 0 0 0 0 0 0 0 0 0 0 0 0 0 0 0 0 0 0 0 0 0 0 0 0 0 0 0 0 0 0 0 0 0 0 0 0 0 0 0 0 0 0 0 0 0 0 0 0 0 0 0 0 0 0 0 0 0 0 0 0 0 0 0
2959 2959 3009 3069 3102 3107 3108 3116 3144 3176 3182 3184 3189 3189 3195 3196 3199 3205 3206 3207 3210 3210 3213 3216 3222 3236 3240 3243 3245 3256 3269 3273 3287 3299 3311 3320 3332 3332 3333 3334 3334 3339 3345 3360 3384 3400 3410 3410 3411 3411 3411 3415 3419 3432 3437 3438 3444 3448 3453 3457 3459 3470 3481 3494 3501 3503 3504 3505 3505 3505 3503 3499 3499 3499 3499 3499 3501 3505 3508 3509 3511 3515 3521 3529 3538 3549 3555 3560 3564 3570 3574 3579 3582 3584 3586 3589 3592 3595 3598 3600 3601 3604 3604 3607 3607 3608 3609 3611 3613 3619 3624 3624 3624 3608 3607 3607 3607 3610 3611 3613 3619 3621 3621 3621 3571 3526 3526 3526 3546 3579 3644 3665 3672 3672 3672 3672 3670 3665 3662 3659 3657 3655 3653 3652 3652 3651 3644 3639 3634 3630 3624 3612 3595 3592 3589 3587 3588 3589 3589 3588 3588 3541 3443 2782 0 0 0 0 0 1624 1620 1615 1610 1610 1610 1612 1622 1622 1622 1621 1607 1595 1595 1595 1590 1586 1586 1585 1585 1584 1583 1583 1583 1583 1583 1583 1583 1583 1583 1583 1583 1583 1583 1583 1583 1583 1583 1583 1582 1582 1581 1582 1582 1581 1581 1581 1581 1580 1580 1580 1580 1580 1580 1580 1579 1579 1578 1578 1577 1577 1577 1577 1580 1581 1581 1581 1581 1581 1581 1582 1582 1582 1582 1582 1582 1582 1582 1582 1582 1582 1582 1582 1581 1581 1581 1581 1581 1581 1581 1581 1581 1581 1581 1581 1581 1582 1583 1584 1584 1584 1584 1584 1584 1584 1584 1582 1582 1582 1581 1580 1580 1580 1580 1581 1581 1581 1581 1581 1581 1581 1583 1584 1585 1585 1585 1585 1585 1585 1585 1584 1584 1584 1584 1584 1583 1583 1583 1583 1582 1582 1582 1582 1583 1583 1583 1583 1584 1584 1584 1585 1585 1585 1585 1585 1585 1584 1584 1584 1585 1586 1586 1586 1585 1585 1584 1584 1584 1584 1583 1583 1583 1582 1582 1582 1582 1582 1582 1582 1582 1582 1583 1583 1583 1583 1584 1584 1584 1584 1584 1584 1583 1583 1583 1583 1583 1583 1583 1584 1584 1583 1583 1583 1583 1583 1583 1583 1582 1581 1581 1581 1582 1582 1582 1582 1582 1582 1582 1583 1583 1584 1585 1585 1586 1586 1586 1585 1584 1584 1584 1584 1584 1584 1584 1584 1584 1584 1584 1584 1584 1584 1584 1583 1583 1582 1582 1581 1580 1580 1580 1579 1579 1579 1578 1578 1578 1578 1577 1577 1577 1577 1576 1576 1576 1576 1576 1577 1578 1580 1581 1581 1582 1582 1582 1581 1581 1581 1581 1581 1582 1582 1582 1582 1584 1585 1585 1585 1586 1588 1589 1589 1595 1611 0 0 0 0 2019 2042 2051 2058 2062 2065 2070 2075 2080 2087 2094 2101 2106 2110 2112 2123 2136 2145 2151 2167 2183 2209 2234 2262 2274 2289 2302 2302 2302 2298 2291 2289 2288 2288 2280 2276 2271 2264 2257 2248 2233 2224 2218 2206 2192 2184 2177 2171 2171 2167 2159 2154 2145 2142 2141 2136 2134 2131 2128 2124 2124 2120 2115 2113 2113 2110 2107 2107 2107 2107 2107 2105 2104 2104 2104 2105 2107 2107 2116 2121 2125 2125 2126 2127 2128 2132 2136 2136 2137 2139 2142 2145 2151 2154 2154 2154 2127 0 0 0 0 0 0 0 0 0 0 0 0 0 0 0 0 0 0 0 0 0 0 0 0 0 0 0 0 0 0 0 0 0 0 0 0 0 0 0 0 0 0 0 0 0 0 0 0 0 0 0 0 0 0 0 0 0 0 0 0 0 0 0 0 0 0 0 0 0 0 0 0 0 0 0 0 0
2976 2976 3024 3076 3111 3121 3131 3140 3150 3176 3182 3187 3190 3190 3194 3196 3199 3204 3204 3207 3210 3210 3213 3216 3224 3237 3241 3244 3250 3265 3269 3273 3287 3301 3314 3322 3333 3334 3336 3338 3341 3346 3355 3365 3387 3407 3412 3412 3412 3412 3412 3418 3429 3442 3443 3444 3444 3448 3453 3457 3462 3470 3482 3495 3506 3506 3507 3509 3510 3510 3510 3505 3505 3505 3505 3505 3506 3509 3513 3515 3517 3520 3524 3531 3538 3548 3556 3562 3566 3570 3574 3579 3583 3585 3587 3589 3593 3596 3599 3601 3603 3604 3605 3607 3608 3609 3612 3612 3612 3613 3620 3623 3623 3623 3613 3612 3612 3612 3613 3614 3620 3621 3621 3621 3571 3560 3548 3548 3548 3579 3645 3665 3674 3674 3674 3672 3671 3669 3666 3660 3660 3656 3651 3649 3648 3645 3640 3636 3634 3630 3622 3612 3600 3592 3592 3587 3588 3592 3588 3587 3582 3536 3213 2647 0 0 0 0 1616 1614 1595 1591 1590 1590 1590 1594 1597 1598 1598 1597 1595 1590 1590 1588 1583 1583 1583 1583 1583 1582 1582 1582 1582 1581 1581 1581 1581 1582 1582 1582 1582 1582 1582 1582 1582 1582 1582 1581 1581 1580 1580 1579 1579 1579 1579 1579 1578 1578 1578 1578 1578 1578 1578 1578 1578 1578 1577 1577 1576 1576 1576 1576 1576 1579 1580 1580 1579 1578 1578 1578 1579 1580 1580 1580 1580 1580 1580 1580 1580 1579 1580 1580 1580 1579 1579 1579 1579 1579 1579 1579 1579 1579 1580 1580 1580 1581 1581 1582 1582 1582 1583 1583 1583 1583 1583 1582 1581 1580 1580 1579 1579 1579 1579 1579 1579 1580 1580 1581 1581 1581 1581 1582 1582 1583 1584 1584 1584 1583 1583 1583 1583 1583 1582 1582 1582 1582 1582 1581 1581 1581 1581 1581 1581 1582 1582 1582 1582 1583 1583 1583 1585 1585 1585 1584 1584 1584 1584 1584 1584 1585 1585 1585 1584 1584 1582 1582 1582 1581 1581 1580 1580 1580 1580 1580 1580 1580 1580 1580 1580 1581 1581 1581 1582 1582 1582 1582 1583 1583 1583 1583 1582 1582 1582 1582 1582 1582 1582 1582 1582 1582 1582 1582 1582 1582 1582 1582 1581 1580 1580 1580 1580 1580 1581 1581 1581 1581 1581 1582 1582 1582 1583 1583 1583 1583 1583 1583 1583 1583 1583 1583 1583 1583 1582 1582 1582 1582 1582 1582 1582 1582 1582 1581 1581 1580 1580 1579 1579 1578 1578 1577 1577 1577 1576 1576 1576 1576 1576 1576 1576 1576 1576 1575 1575 1575 1575 1576 1577 1578 1580 1580 1580 1580 1579 1579 1579 1579 1580 1581 1581 1581 1581 1581 1582 1584 1585 1585 1585 1588 1589 1589 1591 1607 0 0 0 0 2014 2042 2051 2058 2062 2065 2070 2075 2080 2087 2094 2101 2106 2109 2110 2118 2130 2139 2148 2156 2176 2193 2215 2244 2270 2285 2300 2300 2300 2298 2291 2287 2286 2283 2280 2275 2269 2263 2256 2237 2226 2218 2208 2198 2190 2181 2170 2160 2155 2152 2144 2143 2143 2142 2135 2126 2122 2120 2116 2110 2110 2108 2106 2105 2102 2102 2102 2103 2103 2103 2101 2101 2101 2101 2101 2102 2103 2103 2104 2114 2119 2122 2123 2123 2124 2127 2132 2132 2132 2133 2133 2136 2143 2143 2143 2142 2120 0 0 0 0 0 0 0 0 0 0 0 0 0 0 0 0 0 0 0 0 0 0 0 0 0 0 0 0 0 0 0 0 0 0 0 0 0 0 0 0 0 0 0 0 0 0 0 0 0 0 0 0 0 0 0 0 0 0 0 0 0 0 0 0 0 0 0 0 0 0 0 0 0 0 0 0 0
2992 2992 3035 3087 3131 3143 3150 3167 3175 3182 3185 3187 3190 3190 3195 3196 3196 3201 3204 3207 3210 3210 3213 3219 3225 3237 3241 3244 3253 3265 3269 3273 3287 3305 3316 3324 3338 3338 3348 3357 3360 3365 3368 3383 3407 3407 3412 3415 3415 3416 3418 3426 3439 3446 3447 3447 3450 3454 3454 3457 3462 3471 3485 3502 3513 3513 3514 3515 3514 3513 3513 3510 3510 3510 3510 3510 3513 3515 3520 3523 3525 3527 3529 3531 3538 3548 3556 3562 3568 3573 3575 3579 3584 3588 3590 3592 3594 3597 3599 3601 3604 3605 3607 3608 3610 3612 3612 3612 3612 3612 3620 3629 3629 3629 3623 3620 3616 3614 3614 3614 3621 3621 3621 3614 3568 3560 3554 3554 3554 3579 3645 3669 3675 3675 3675 3674 3673 3671 3669 3664 3663 3656 3651 3649 3647 3645 3640 3636 3634 3630 3622 3612 3602 3594 3592 3587 3588 3592 3588 3587 3582 3519 3159 2543 0 0 0 1621 1616 1602 1591 1588 1588 1588 1588 1588 1595 1597 1597 1595 1594 1586 1585 1581 1581 1581 1581 1581 1581 1581 1580 1580 1580 1580 1580 1580 1580 1580 1580 1580 1580 1580 1580 1581 1581 1580 1580 1580 1579 1579 1579 1579 1578 1578 1578 1577 1576 1576 1576 1576 1576 1576 1577 1577 1577 1577 1577 1576 1576 1575 1575 1575 1575 1576 1576 1576 1576 1577 1577 1578 1577 1577 1577 1577 1577 1578 1578 1579 1579 1579 1579 1579 1579 1579 1579 1579 1578 1578 1578 1578 1578 1578 1578 1579 1580 1580 1580 1580 1581 1581 1581 1581 1581 1581 1581 1580 1580 1579 1579 1578 1577 1577 1577 1577 1578 1578 1578 1580 1580 1580 1580 1581 1581 1581 1582 1582 1582 1582 1581 1581 1581 1581 1581 1581 1581 1581 1581 1580 1580 1580 1580 1580 1580 1580 1580 1580 1581 1581 1581 1581 1581 1582 1582 1583 1584 1584 1584 1584 1583 1583 1583 1582 1582 1582 1580 1580 1580 1579 1579 1578 1578 1577 1577 1577 1578 1578 1579 1579 1579 1579 1580 1581 1581 1581 1581 1581 1582 1581 1581 1581 1581 1581 1581 1581 1581 1580 1581 1581 1581 1581 1581 1581 1581 1581 1581 1581 1580 1577 1577 1577 1577 1578 1579 1579 1579 1580 1580 1580 1580 1580 1580 1581 1581 1581 1581 1581 1581 1581 1581 1581 1581 1581 1581 1581 1581 1581 1581 1581 1580 1580 1580 1579 1579 1579 1579 1578 1577 1577 1576 1575 1575 1574 1574 1574 1574 1574 1574 1574 1574 1574 1573 1573 1573 1573 1573 1574 1576 1577 1578 1578 1578 1578 1578 1578 1578 1579 1579 1579 1580 1580 1580 1581 1581 1582 1584 1585 1585 1588 1589 1589 1591 1607 0 0 0 0 2011 2037 2049 2057 2062 2065 2070 2075 2080 2084 2090 2097 2102 2105 2108 2114 2124 2134 2142 2150 2163 2185 2199 2228 2265 2284 2299 2299 2299 2298 2291 2287 2284 2279 2278 2273 2269 2261 2242 2229 2219 2210 2198 2194 2189 2177 2170 2152 2143 2138 2134 2134 2133 2132 2129 2124 2118 2117 2112 2106 2106 2106 2104 2099 2098 2098 2098 2100 2100 2100 2091 2091 2091 2093 2096 2097 2097 2098 2099 2102 2111 2118 2119 2119 2121 2124 2127 2127 2127 2125 2123 2123 2123 2124 2120 2120 2120 0 0 0 0 0 0 0 0 0 0 0 0 0 0 0 0 0 0 0 0 0 0 0 0 0 0 0 0 0 0 0 0 0 0 0 0 0 0 0 0 0 0 0 0 0 0 0 0 0 0 0 0 0 0 0 0 0 0 0 0 0 0 0 0 0 0 0 0 0 0 0 0 0 0 0 0 0
3029 3029 3065 3122 3151 3160 3164 3170 3188 3188 3188 3188 3188 3190 3194 3196 3199 3201 3205 3207 3210 3210 3214 3220 3229 3238 3241 3246 3253 3262 3265 3268 3287 3305 3316 3329 3338 3350 3361 3371 3374 3378 3385 3397 3407 3407 3412 3415 3416 3418 3418 3429 3439 3446 3450 3452 3453 3457 3459 3460 3469 3479 3491 3507 3513 3516 3516 3517 3516 3516 3515 3512 3511 3511 3511 3511 3513 3520 3526 3528 3531 3533 3533 3534 3538 3547 3556 3562 3568 3577 3582 3585 3588 3591 3592 3594 3595 3597 3599 3602 3604 3605 3607 3609 3611 3612 3612 3612 3612 3612 3620 3629 3629 3629 3627 3624 3619 3618 3618 3618 3625 3625 3625 3614 3560 3559 3554 3554 3554 3581 3656 3678 3678 3678 3675 3674 3674 3671 3669 3664 3663 3657 3651 3647 3646 3645 3640 3636 3634 3631 3622 3612 3604 3595 3592 3592 3592 3593 3592 3590 3582 3513 3159 2543 0 0 0 1616 1614 1602 1591 1588 1588 1587 1587 1587 1590 1592 1592 1592 1588 1583 1581 1580 1580 1580 1580 1580 1580 1580 1579 1579 1579 1579 1578 1578 1578 1578 1578 1578 1578 1579 1579 1579 1579 1579 1578 1578 1578 1578 1577 1577 1577 1577 1576 1576 1575 1575 1575 1575 1575 1575 1575 1575 1576 1576 1576 1575 1575 1575 1575 1575 1575 1575 1575 1575 1575 1575 1576 1576 1576 1576 1576 1576 1576 1576 1577 1577 1577 1578 1577 1577 1578 1578 1577 1577 1577 1577 1577 1577 1577 1577 1577 1577 1578 1578 1578 1579 1579 1579 1579 1579 1578 1578 1578 1578 1578 1578 1575 1575 1575 1575 1575 1575 1575 1575 1577 1578 1578 1580 1580 1580 1581 1581 1581 1580 1580 1580 1580 1580 1580 1580 1580 1580 1580 1580 1579 1579 1579 1579 1579 1579 1579 1579 1579 1579 1579 1579 1578 1578 1578 1578 1581 1582 1582 1582 1583 1583 1582 1582 1581 1581 1580 1580 1579 1579 1578 1577 1577 1577 1577 1576 1576 1576 1576 1577 1577 1577 1578 1579 1579 1579 1579 1580 1581 1581 1581 1581 1580 1580 1580 1580 1580 1580 1580 1579 1580 1580 1580 1580 1580 1580 1579 1578 1578 1578 1577 1576 1576 1576 1576 1576 1576 1576 1577 1579 1579 1579 1579 1579 1579 1579 1579 1579 1579 1579 1579 1580 1580 1580 1580 1580 1580 1580 1579 1579 1579 1579 1579 1579 1579 1579 1578 1578 1578 1576 1575 1575 1574 1574 1574 1574 1573 1573 1573 1572 1571 1570 1570 1570 1569 1569 1569 1570 1572 1572 1574 1575 1575 1575 1576 1577 1577 1577 1577 1578 1578 1578 1578 1579 1579 1579 1580 1580 1581 1583 1584 1585 1588 1588 1589 1596 0 0 0 0 2008 2037 2045 2053 2059 2065 2070 2075 2078 2082 2090 2093 2099 2103 2106 2112 2118 2124 2131 2138 2149 2163 2189 2216 2258 2281 2299 2299 2299 2298 2293 2287 2284 2278 2273 2266 2260 2245 2231 2221 2212 2197 2190 2182 2176 2168 2160 2151 2142 2135 2128 2124 2120 2113 2112 2110 2110 2108 2104 2101 2099 2098 2093 2092 2092 2092 2095 2095 2095 2094 2089 2086 2086 2086 2086 2087 2091 2094 2096 2097 2103 2113 2113 2114 2116 2119 2124 2124 2124 2116 2115 2115 2115 2120 2120 2120 2120 0 0 0 0 0 0 0 0 0 0 0 0 0 0 0 0 0 0 0 0 0 0 0 0 0 0 0 0 0 0 0 0 0 0 0 0 0 0 0 0 0 0 0 0 0 0 0 0 0 0 0 0 0 0 0 0 0 0 0 0 0 0 0 0 0 0 0 0 0 0 0 0 0 0 0 0 0
3069 3069 3115 3125 3157 3160 3164 3176 3188 3188 3188 3188 3188 3190 3194 3196 3199 3201 3206 3210 3210 3211 3221 3223 3229 3238 3242 3244 3250 3253 3255 3268 3287 3310 3327 3344 3356 3364 3371 3376 3380 3382 3388 3397 3407 3407 3412 3419 3420 3423 3423 3430 3439 3446 3450 3453 3455 3459 3460 3463 3471 3483 3496 3507 3513 3516 3516 3517 3516 3516 3516 3514 3514 3512 3512 3512 3514 3521 3529 3531 3534 3534 3535 3535 3537 3544 3553 3560 3568 3577 3582 3586 3591 3594 3595 3597 3599 3602 3603 3604 3604 3606 3608 3610 3611 3612 3612 3613 3613 3616 3625 3629 3629 3629 3628 3627 3624 3621 3621 3621 3625 3625 3625 3607 3558 3555 3554 3554 3554 3588 3666 3678 3678 3678 3675 3674 3674 3671 3669 3664 3663 3657 3652 3647 3646 3645 3642 3640 3638 3630 3623 3612 3604 3595 3595 3593 3593 3595 3593 3590 3561 3492 3159 2543 0 0 0 1628 1614 1602 1591 1588 1588 1587 1587 1587 1590 1590 1590 1588 1583 1583 1580 1579 1579 1579 1578 1578 1578 1578 1578 1578 1577 1577 1577 1577 1577 1577 1577 1577 1577 1577 1577 1577 1577 1577 1577 1577 1576 1576 1576 1576 1575 1575 1574 1574 1574 1574 1573 1573 1573 1573 1573 1573 1575 1575 1575 1574 1573 1573 1573 1575 1575 1575 1575 1575 1574 1574 1574 1575 1575 1575 1575 1575 1576 1576 1576 1577 1576 1576 1576 1576 1576 1576 1576 1576 1576 1576 1576 1575 1575 1576 1576 1576 1576 1576 1576 1576 1577 1577 1577 1577 1577 1577 1577 1577 1576 1576 1575 1574 1574 1574 1574 1574 1575 1575 1577 1578 1578 1579 1580 1580 1580 1580 1580 1579 1579 1579 1579 1579 1579 1579 1579 1578 1578 1578 1578 1578 1578 1578 1578 1577 1577 1577 1577 1577 1577 1577 1577 1577 1575 1575 1575 1582 1582 1582 1582 1582 1581 1581 1580 1579 1578 1578 1578 1577 1577 1576 1576 1574 1573 1573 1573 1574 1575 1575 1576 1577 1577 1578 1578 1578 1579 1579 1579 1579 1580 1580 1580 1580 1579 1579 1579 1579 1579 1579 1579 1580 1579 1579 1579 1579 1578 1576 1574 1574 1574 1574 1574 1573 1573 1572 1572 1572 1575 1578 1578 1579 1579 1578 1578 1577 1577 1577 1577 1577 1578 1578 1579 1579 1579 1579 1579 1578 1578 1578 1578 1578 1578 1577 1577 1577 1576 1576 1576 1574 1574 1573 1572 1572 1572 1571 1571 1571 1571 1570 1570 1569 1569 1569 1569 1568 1567 1567 1567 1568 1572 1573 1573 1574 1574 1576 1576 1576 1576 1576 1576 1577 1577 1577 1578 1578 1578 1579 1581 1581 1584 1585 1586 1586 1587 1588 0 0 0 0 0 2037 2045 2051 2056 2062 2066 2073 2078 2082 2087 2090 2095 2099 2104 2111 2115 2118 2120 2127 2136 2149 2173 2200 2228 2273 2294 2298 2298 2298 2293 2288 2283 2278 2269 2260 2248 2236 2223 2213 2203 2194 2184 2176 2166 2160 2155 2147 2137 2131 2125 2118 2110 2102 2100 2100 2100 2097 2096 2091 2089 2086 2080 2080 2080 2080 2084 2087 2087 2087 2084 2084 2084 2084 2085 2086 2088 2092 2094 2094 2098 2103 2106 2108 2112 2112 2117 2117 2117 2111 2111 2111 2114 2115 2115 2115 2093 0 0 0 0 0 0 0 0 0 0 0 0 0 0 0 0 0 0 0 0 0 0 0 0 0 0 0 0 0 0 0 0 0 0 0 0 0 0 0 0 0 0 0 0 0 0 0 0 0 0 0 0 0 0 0 0 0 0 0 0 0 0 0 0 0 0 0 0 0 0 0 0 0 0 0 0 0
3122 3122 3129 3132 3157 3160 3164 3185 3188 3188 3190 3190 3190 3193 3194 3196 3201 3205 3207 3210 3215 3221 3223 3225 3225 3230 3233 3244 3250 3253 3254 3268 3292 3316 3334 3351 3364 3370 3375 3377 3381 3383 3388 3397 3407 3410 3411 3419 3420 3423 3424 3432 3439 3446 3450 3453 3455 3459 3461 3466 3473 3486 3496 3507 3513 3516 3516 3516 3516 3516 3517 3517 3517 3516 3516 3516 3521 3523 3530 3534 3534 3535 3536 3536 3537 3541 3546 3555 3566 3577 3582 3587 3591 3594 3596 3600 3602 3606 3606 3606 3607 3607 3608 3611 3612 3612 3613 3613 3613 3618 3627 3628 3628 3628 3628 3627 3627 3626 3626 3626 3626 3626 3625 3606 3559 3556 3554 3554 3554 3594 3666 3678 3678 3678 3675 3674 3672 3667 3666 3663 3661 3657 3652 3647 3646 3645 3643 3643 3638 3630 3623 3612 3604 3600 3600 3593 3593 3593 3590 3571 3539 3488 3203 2570 0 0 0 1637 1614 1602 1594 1592 1592 1588 1588 1588 1590 1590 1590 1585 1583 1581 1580 1579 1578 1578 1577 1576 1576 1576 1576 1576 1576 1576 1576 1575 1575 1575 1575 1575 1575 1575 1575 1576 1575 1575 1575 1575 1575 1575 1574 1574 1574 1574 1574 1574 1573 1573 1572 1572 1572 1572 1572 1572 1573 1573 1573 1572 1572 1572 1572 1573 1573 1574 1574 1574 1574 1573 1573 1573 1573 1573 1573 1575 1575 1575 1574 1574 1574 1574 1574 1574 1574 1574 1574 1574 1574 1574 1574 1574 1574 1575 1574 1575 1575 1575 1575 1576 1576 1576 1576 1576 1576 1576 1576 1575 1575 1575 1574 1574 1574 1574 1574 1574 1575 1575 1577 1578 1578 1579 1579 1579 1579 1579 1579 1578 1578 1578 1578 1578 1578 1578 1578 1578 1577 1577 1577 1577 1577 1576 1576 1576 1576 1575 1575 1575 1575 1576 1576 1576 1574 1574 1574 1577 1581 1581 1581 1580 1580 1578 1577 1577 1577 1577 1577 1577 1576 1576 1575 1573 1571 1571 1571 1573 1574 1575 1575 1576 1576 1577 1577 1577 1577 1578 1578 1578 1578 1579 1579 1579 1579 1578 1578 1578 1578 1578 1578 1578 1576 1576 1575 1573 1573 1572 1571 1571 1571 1571 1571 1572 1572 1572 1572 1572 1573 1574 1574 1574 1574 1574 1575 1575 1576 1576 1576 1576 1577 1577 1577 1577 1577 1577 1577 1577 1577 1576 1576 1576 1576 1575 1575 1575 1575 1575 1574 1573 1572 1571 1571 1570 1570 1570 1569 1568 1568 1568 1568 1567 1567 1566 1565 1565 1565 1565 1565 1567 1569 1572 1573 1573 1573 1573 1574 1574 1574 1574 1575 1575 1576 1576 1576 1577 1577 1578 1578 1580 1582 1583 1583 1584 1584 1586 0 0 0 0 0 2036 2045 2051 2053 2060 2066 2072 2077 2079 2081 2085 2090 2098 2104 2110 2112 2115 2119 2124 2133 2145 2164 2177 2209 2264 2290 2293 2293 2293 2293 2290 2282 2277 2269 2255 2243 2230 2216 2206 2196 2189 2181 2174 2159 2149 2145 2141 2135 2128 2119 2111 2102 2093 2091 2089 2088 2086 2084 2079 2072 2070 2069 2069 2069 2070 2071 2071 2072 2076 2078 2079 2082 2082 2082 2085 2085 2091 2092 2092 2093 2096 2100 2102 2104 2105 2107 2107 2108 2107 2107 2108 2110 2111 2111 2111 0 0 0 0 0 0 0 0 0 0 0 0 0 0 0 0 0 0 0 0 0 0 0 0 0 0 0 0 0 0 0 0 0 0 0 0 0 0 0 0 0 0 0 0 0 0 0 0 0 0 0 0 0 0 0 0 0 0 0 0 0 0 0 0 0 0 0 0 0 0 0 0 0 0 0 0 0 0
3122 3122 3129 3132 3136 3157 3170 3181 3188 3189 3189 3190 3193 3196 3197 3200 3211 3219 3221 3222 3222 3222 3223 3225 3225 3226 3230 3243 3252 3253 3254 3270 3293 3317 3334 3351 3368 3376 3376 3379 3383 3384 3388 3395 3404 3410 3411 3416 3419 3423 3426 3432 3439 3446 3450 3453 3455 3459 3465 3470 3476 3486 3496 3503 3508 3514 3514 3514 3514 3514 3517 3523 3523 3523 3521 3521 3521 3524 3531 3535 3536 3536 3536 3536 3537 3541 3546 3553 3563 3571 3580 3587 3592 3595 3596 3601 3605 3607 3607 3607 3607 3608 3609 3612 3613 3613 3613 3614 3614 3620 3627 3628 3628 3628 3628 3627 3627 3627 3627 3627 3626 3626 3625 3608 3568 3556 3552 3552 3552 3594 3666 3671 3672 3673 3672 3671 3671 3666 3664 3659 3657 3655 3652 3648 3646 3645 3644 3643 3638 3630 3623 3612 3598 3598 3598 3602 3602 3602 3590 3571 3537 3479 3283 2649 0 0 0 1639 1618 1607 1603 1598 1596 1595 1591 1591 1591 1591 1591 1585 1581 1580 1580 1578 1577 1576 1576 1576 1576 1575 1574 1574 1574 1574 1573 1573 1573 1573 1574 1574 1574 1574 1574 1574 1575 1574 1574 1574 1573 1573 1573 1573 1573 1573 1572 1572 1572 1571 1571 1571 1571 1571 1571 1571 1569 1569 1569 1568 1568 1568 1568 1570 1571 1571 1571 1571 1570 1570 1569 1569 1569 1569 1569 1572 1573 1573 1573 1572 1572 1572 1573 1573 1573 1573 1573 1573 1573 1573 1573 1573 1573 1573 1573 1573 1573 1573 1574 1574 1575 1575 1575 1575 1575 1575 1575 1575 1575 1575 1574 1574 1574 1574 1574 1575 1575 1577 1578 1579 1579 1579 1579 1579 1579 1579 1579 1577 1577 1577 1577 1577 1577 1577 1576 1576 1576 1576 1575 1575 1575 1575 1575 1575 1574 1574 1574 1574 1574 1574 1574 1574 1573 1573 1573 1577 1580 1580 1580 1579 1576 1575 1574 1574 1574 1576 1576 1576 1576 1574 1573 1571 1570 1570 1570 1571 1572 1572 1574 1574 1575 1576 1576 1577 1577 1577 1577 1577 1577 1577 1577 1577 1577 1577 1577 1577 1577 1577 1577 1576 1574 1573 1573 1573 1573 1571 1570 1570 1570 1570 1571 1571 1571 1571 1571 1571 1572 1572 1572 1573 1573 1573 1573 1573 1574 1575 1575 1575 1575 1576 1576 1576 1576 1576 1576 1575 1575 1575 1575 1575 1575 1574 1574 1574 1573 1573 1573 1572 1572 1569 1569 1568 1568 1567 1566 1566 1566 1566 1566 1565 1565 1563 1563 1563 1563 1563 1563 1564 1565 1566 1570 1572 1572 1572 1572 1572 1573 1573 1573 1574 1574 1574 1575 1575 1576 1576 1577 1578 1579 1581 1581 1582 1582 1583 1600 0 0 0 0 2036 2044 2050 2053 2058 2065 2072 2074 2076 2076 2080 2087 2094 2101 2105 2108 2110 2114 2122 2132 2144 2159 2172 2199 2245 2268 2281 2284 2290 2290 2290 2282 2273 2262 2251 2238 2222 2206 2186 2178 2175 2174 2166 2140 2135 2133 2132 2130 2121 2104 2093 2083 2082 2079 2076 2069 2067 2064 2061 2060 2060 2060 2060 2061 2062 2062 2063 2063 2063 2066 2070 2074 2075 2075 2075 2075 2075 2083 2088 2090 2093 2095 2095 2096 2096 2100 2101 2107 2105 2105 2108 2108 2105 2103 2099 0 0 0 0 0 0 0 0 0 0 0 0 0 0 0 0 0 0 0 0 0 0 0 0 0 0 0 0 0 0 0 0 0 0 0 0 0 0 0 0 0 0 0 0 0 0 0 0 0 0 0 0 0 0 0 0 0 0 0 0 0 0 0 0 0 0 0 0 0 0 0 0 0 0 0 0 0 0
3122 3122 3122 3125 3129 3154 3170 3181 3188 3189 3189 3190 3193 3196 3202 3202 3211 3221 3225 3225 3225 3225 3221 3215 3215 3215 3219 3246 3251 3252 3253 3270 3298 3319 3337 3351 3368 3376 3376 3380 3387 3388 3388 3395 3403 3410 3410 3415 3419 3423 3428 3433 3440 3446 3450 3453 3455 3459 3468 3475 3479 3486 3494 3501 3507 3512 3512 3512 3514 3514 3517 3525 3529 3529 3529 3525 3525 3525 3532 3536 3536 3536 3536 3537 3537 3541 3546 3553 3560 3569 3580 3587 3592 3595 3599 3603 3606 3607 3607 3607 3608 3609 3611 3614 3615 3617 3619 3619 3620 3624 3628 3628 3628 3628 3627 3627 3626 3626 3627 3627 3626 3626 3621 3608 3569 3558 3555 3555 3555 3594 3661 3662 3663 3664 3667 3667 3667 3664 3663 3657 3655 3654 3652 3648 3648 3646 3646 3645 3639 3630 3623 3612 3600 3600 3600 3602 3602 3602 3590 3571 3537 3479 3330 2812 0 0 0 1655 1627 1613 1604 1602 1596 1596 1596 1597 1597 1597 1591 1583 1580 1580 1579 1576 1575 1575 1575 1574 1574 1574 1573 1573 1573 1573 1572 1572 1572 1572 1572 1572 1572 1572 1573 1573 1573 1573 1573 1573 1572 1572 1572 1571 1571 1570 1570 1570 1570 1570 1570 1570 1570 1570 1569 1569 1569 1569 1567 1565 1565 1565 1565 1565 1567 1568 1568 1568 1567 1567 1565 1565 1565 1565 1566 1568 1570 1570 1570 1570 1570 1570 1572 1572 1572 1572 1571 1571 1571 1571 1571 1572 1572 1572 1572 1572 1573 1573 1573 1573 1573 1573 1573 1574 1574 1575 1575 1574 1574 1574 1574 1574 1574 1574 1575 1576 1576 1578 1579 1579 1579 1579 1579 1579 1579 1579 1579 1577 1577 1576 1576 1576 1576 1575 1575 1575 1575 1575 1574 1574 1574 1573 1573 1573 1573 1573 1573 1573 1573 1573 1573 1573 1572 1572 1572 1573 1575 1575 1575 1575 1574 1572 1572 1572 1572 1574 1574 1574 1574 1572 1571 1569 1569 1569 1569 1570 1571 1572 1572 1573 1574 1574 1574 1575 1575 1575 1576 1576 1576 1576 1576 1576 1575 1575 1575 1575 1576 1576 1576 1575 1573 1572 1571 1571 1571 1571 1570 1570 1569 1569 1569 1569 1569 1570 1570 1570 1570 1570 1570 1571 1571 1571 1571 1571 1572 1572 1573 1573 1574 1574 1574 1574 1574 1575 1574 1574 1574 1574 1574 1573 1573 1572 1572 1572 1572 1572 1571 1571 1571 1568 1567 1567 1566 1565 1564 1563 1563 1563 1562 1562 1562 1562 1561 1561 1561 1561 1561 1562 1562 1562 1565 1569 1570 1570 1571 1571 1571 1572 1572 1573 1573 1573 1574 1574 1575 1575 1576 1577 1579 1579 1580 1580 1581 1582 1594 0 0 0 0 2036 2044 2048 2053 2057 2065 2071 2072 2072 2074 2080 2084 2091 2097 2101 2104 2105 2109 2114 2123 2137 2153 2164 2190 2232 2254 2259 2273 2286 2286 2286 2282 2271 2259 2247 2231 2210 2185 2176 2169 2166 2158 2138 2123 2118 2115 2107 2096 2081 2076 2059 2056 2056 2056 2056 2055 2051 2041 2041 2041 2044 2044 2051 2054 2057 2057 2058 2058 2058 2059 2064 2066 2067 2067 2067 2069 2069 2070 2076 2080 2083 2087 2090 2091 2092 2095 2097 2100 2101 2102 2102 2102 2101 2093 2091 0 0 0 0 0 0 0 0 0 0 0 0 0 0 0 0 0 0 0 0 0 0 0 0 0 0 0 0 0 0 0 0 0 0 0 0 0 0 0 0 0 0 0 0 0 0 0 0 0 0 0 0 0 0 0 0 0 0 0 0 0 0 0 0 0 0 0 0 0 0 0 0 0 0 0 0 0 0
3087 3087 3104 3121 3125 3153 3160 3183 3186 3189 3189 3189 3195 3197 3205 3205 3212 3221 3225 3227 3227 3227 3221 3215 3215 3215 3219 3243 3251 3254 3267 3278 3307 3326 3339 3351 3364 3370 3376 3380 3387 3387 3388 3392 3403 3410 3410 3414 3419 3423 3428 3437 3446 3450 3450 3453 3457 3460 3469 3475 3479 3486 3494 3499 3506 3512 3512 3512 3514 3514 3517 3525 3529 3530 3530 3530 3530 3532 3534 3537 3537 3537 3537 3537 3537 3541 3548 3553 3560 3569 3580 3589 3594 3597 3602 3605 3606 3607 3608 3609 3610 3613 3614 3615 3615 3617 3621 3625 3626 3626 3628 3628 3628 3628 3626 3626 3625 3626 3626 3626 3625 3625 3619 3608 3580 3558 3555 3555 3555 3592 3658 3662 3663 3663 3663 3663 3663 3662 3658 3657 3654 3654 3652 3651 3648 3647 3647 3645 3639 3630 3623 3612 3601 3601 3601 3614 3614 3614 3614 3583 3537 3479 3387 3058 0 0 0 0 1637 1617 1605 1604 1604 1600 1600 1598 1598 1598 1592 1583 1579 1579 1578 1576 1575 1575 1574 1573 1573 1572 1572 1571 1571 1571 1571 1570 1570 1570 1570 1571 1571 1571 1571 1572 1572 1572 1572 1571 1571 1571 1571 1570 1570 1569 1569 1569 1569 1569 1569 1569 1569 1568 1568 1568 1568 1567 1566 1565 1564 1564 1563 1563 1564 1565 1566 1566 1566 1566 1564 1562 1562 1562 1562 1563 1566 1566 1567 1567 1568 1570 1570 1570 1570 1570 1570 1570 1570 1570 1571 1571 1571 1571 1571 1571 1571 1571 1571 1572 1572 1572 1573 1573 1573 1573 1573 1573 1573 1573 1573 1573 1574 1575 1576 1576 1578 1579 1579 1579 1579 1579 1578 1578 1578 1578 1576 1576 1575 1574 1574 1574 1574 1573 1573 1573 1573 1573 1573 1573 1573 1573 1572 1572 1572 1572 1572 1572 1572 1573 1573 1573 1569 1568 1568 1568 1569 1570 1570 1570 1570 1570 1570 1569 1569 1569 1569 1569 1569 1569 1569 1568 1568 1568 1569 1569 1570 1570 1571 1571 1573 1573 1574 1574 1574 1574 1575 1575 1575 1575 1575 1575 1575 1575 1574 1574 1573 1573 1573 1573 1572 1570 1570 1570 1570 1570 1570 1569 1568 1567 1567 1567 1567 1568 1568 1568 1568 1568 1568 1568 1568 1568 1568 1568 1570 1571 1572 1572 1573 1573 1573 1573 1573 1573 1573 1573 1573 1573 1572 1572 1571 1571 1571 1571 1571 1571 1571 1571 1570 1568 1565 1564 1563 1563 1562 1562 1561 1561 1561 1561 1560 1560 1560 1560 1560 1560 1560 1560 1561 1561 1564 1567 1568 1569 1569 1569 1570 1570 1571 1572 1572 1572 1573 1573 1573 1574 1575 1576 1578 1578 1579 1579 1580 1582 1589 0 0 0 0 2024 2044 2048 2053 2057 2062 2065 2068 2071 2074 2078 2083 2089 2092 2096 2098 2102 2104 2107 2112 2126 2143 2154 2166 2207 2219 2241 2267 2283 2283 2283 2282 2268 2255 2243 2219 2197 2179 2169 2160 2143 2133 2120 2113 2103 2085 2078 2072 0 0 0 0 0 0 0 0 0 0 0 2034 2042 2043 2043 2048 2056 2056 2056 2057 2057 2058 2059 2059 2059 2060 2060 2063 2063 2063 2065 2070 2077 2085 2087 2091 2092 2094 2095 2097 2097 2097 2094 2093 2092 2089 2087 0 0 0 0 0 0 0 0 0 0 0 0 0 0 0 0 0 0 0 0 0 0 0 0 0 0 0 0 0 0 0 0 0 0 0 0 0 0 0 0 0 0 0 0 0 0 0 0 0 0 0 0 0 0 0 0 0 0 0 0 0 0 0 0 0 0 0 0 0 0 0 0 0 0 0 0 0 0
3063 3063 3101 3121 3127 3153 3163 3183 3183 3189 3189 3189 3198 3205 3206 3206 3214 3220 3224 3227 3227 3227 3221 3215 3214 3214 3214 3243 3255 3269 3280 3295 3318 3337 3339 3351 3352 3362 3375 3380 3387 3387 3388 3392 3397 3402 3404 3414 3424 3433 3440 3448 3452 3454 3454 3454 3457 3462 3471 3479 3483 3486 3494 3497 3504 3510 3514 3514 3515 3516 3518 3523 3527 3530 3530 3530 3531 3532 3536 3539 3539 3539 3537 3537 3537 3541 3548 3553 3560 3569 3582 3592 3598 3603 3607 3607 3609 3609 3610 3613 3614 3615 3616 3617 3617 3617 3621 3625 3626 3626 3628 3628 3628 3628 3625 3625 3625 3624 3624 3624 3624 3623 3618 3608 3589 3564 3555 3555 3555 3592 3658 3662 3663 3663 3663 3662 3662 3662 3657 3655 3654 3654 3654 3653 3651 3650 3648 3648 3644 3636 3625 3613 3602 3602 3602 3614 3614 3614 3614 3583 3551 3506 3458 3345 2636 0 0 0 0 1626 1614 1607 1604 1602 1602 1601 1601 1600 1594 1583 1579 1578 1578 1576 1575 1574 1573 1572 1571 1571 1570 1570 1569 1569 1569 1570 1570 1570 1570 1570 1570 1570 1570 1570 1570 1570 1571 1571 1570 1569 1569 1569 1568 1568 1568 1568 1568 1568 1568 1568 1568 1568 1568 1567 1567 1566 1566 1565 1564 1564 1563 1563 1564 1565 1566 1566 1566 1566 1564 1562 1562 1562 1562 1563 1564 1566 1567 1567 1568 1569 1569 1569 1569 1569 1569 1569 1569 1569 1569 1570 1570 1570 1570 1570 1570 1570 1571 1571 1571 1571 1571 1571 1571 1572 1573 1573 1573 1573 1573 1573 1574 1575 1576 1577 1578 1579 1579 1579 1577 1576 1576 1576 1576 1576 1575 1574 1574 1573 1573 1573 1573 1573 1572 1572 1572 1572 1572 1572 1572 1572 1572 1572 1571 1571 1571 1571 1571 1571 1571 1571 1568 1566 1566 1566 1567 1567 1567 1567 1567 1567 1567 1567 1567 1566 1566 1566 1566 1567 1567 1567 1567 1567 1567 1568 1569 1569 1570 1571 1571 1571 1572 1572 1573 1573 1573 1573 1573 1573 1573 1573 1573 1573 1573 1572 1571 1571 1571 1571 1570 1569 1568 1568 1568 1568 1568 1567 1567 1566 1565 1565 1565 1566 1566 1566 1566 1566 1566 1566 1566 1567 1568 1568 1568 1570 1570 1571 1571 1571 1572 1572 1572 1572 1572 1572 1572 1572 1571 1571 1570 1570 1570 1570 1570 1569 1569 1568 1566 1564 1562 1562 1561 1561 1561 1560 1560 1560 1560 1559 1559 1559 1559 1559 1560 1560 1560 1560 1560 1560 1564 1566 1567 1567 1567 1569 1569 1570 1570 1570 1571 1571 1572 1572 1572 1573 1573 1575 1577 1577 1577 1577 1577 1577 1584 0 0 0 0 2006 2034 2045 2050 2054 2057 2062 2065 2069 2072 2076 2080 2084 2088 2091 2094 2099 2103 2107 2112 2120 2136 2145 2151 2190 2216 2241 2265 2278 2278 2278 2278 2262 2251 2229 2205 2181 2170 2157 2136 2121 2113 0 0 0 0 0 0 0 0 0 0 0 0 0 0 0 0 0 0 0 0 2032 2032 2039 2045 2050 2051 2053 2053 2053 2053 2055 2055 2056 2057 2058 2058 2062 2069 2075 2082 2086 2089 2091 2093 2094 2094 2094 2094 2087 2086 2074 2071 0 0 0 0 0 0 0 0 0 0 0 0 0 0 0 0 0 0 0 0 0 0 0 0 0 0 0 0 0 0 0 0 0 0 0 0 0 0 0 0 0 0 0 0 0 0 0 0 0 0 0 0 0 0 0 0 0 0 0 0 0 0 0 0 0 0 0 0 0 0 0 0 0 0 0 0 0 0 0
3059 3059 3101 3127 3145 3154 3163 3181 3183 3183 3187 3187 3198 3205 3215 3219 3220 3221 3224 3226 3234 3234 3234 3223 3223 3223 3223 3243 3258 3280 3282 3307 3328 3338 3339 3349 3352 3362 3371 3378 3387 3387 3389 3394 3397 3402 3404 3414 3427 3439 3446 3452 3456 3456 3460 3460 3462 3465 3474 3481 3487 3490 3494 3497 3503 3510 3515 3515 3515 3517 3519 3522 3525 3528 3530 3532 3532 3534 3537 3540 3540 3540 3536 3536 3536 3541 3548 3553 3564 3573 3583 3592 3601 3609 3613 3613 3613 3613 3614 3618 3620 3620 3620 3619 3619 3619 3622 3625 3626 3626 3628 3628 3628 3628 3625 3623 3622 3622 3622 3622 3622 3617 3616 3608 3589 3566 3546 3546 3546 3588 3660 3663 3663 3664 3663 3663 3662 3661 3657 3655 3655 3655 3655 3655 3655 3654 3652 3650 3649 3641 3632 3622 3604 3604 3604 3614 3614 3614 3614 3583 3551 3529 3479 3387 3207 0 0 0 0 0 1622 1614 1609 1605 1603 1602 1601 1600 1594 1585 1579 1577 1576 1574 1573 1573 1572 1572 1571 1570 1569 1569 1568 1568 1568 1568 1568 1568 1569 1569 1569 1569 1569 1569 1569 1569 1569 1569 1569 1569 1568 1567 1567 1567 1567 1567 1566 1567 1567 1567 1567 1567 1567 1567 1566 1566 1566 1565 1564 1564 1563 1563 1564 1565 1566 1566 1566 1566 1564 1562 1562 1562 1562 1563 1564 1565 1566 1566 1567 1568 1568 1568 1568 1568 1568 1568 1568 1568 1568 1568 1568 1568 1568 1569 1569 1569 1569 1569 1569 1569 1570 1571 1571 1571 1573 1573 1573 1573 1573 1573 1573 1574 1576 1577 1578 1579 1579 1579 1576 1575 1574 1574 1574 1573 1573 1573 1573 1572 1571 1571 1571 1571 1571 1571 1571 1570 1570 1570 1570 1570 1570 1570 1570 1570 1570 1570 1569 1569 1569 1569 1568 1565 1565 1565 1566 1566 1566 1565 1565 1565 1566 1566 1566 1566 1566 1565 1565 1565 1564 1564 1565 1565 1566 1566 1567 1568 1569 1570 1570 1570 1570 1571 1571 1571 1572 1572 1572 1572 1572 1572 1572 1572 1571 1571 1571 1571 1571 1569 1568 1568 1566 1566 1565 1565 1565 1565 1565 1565 1565 1564 1564 1564 1564 1564 1564 1565 1565 1565 1565 1566 1566 1566 1567 1569 1569 1569 1570 1570 1570 1571 1571 1571 1571 1571 1570 1570 1570 1570 1569 1569 1568 1568 1568 1568 1567 1567 1564 1561 1560 1559 1559 1559 1560 1560 1560 1560 1559 1559 1559 1559 1559 1559 1559 1559 1560 1560 1560 1560 1562 1565 1565 1565 1566 1567 1567 1569 1569 1569 1570 1570 1571 1571 1571 1572 1573 1573 1575 1575 1575 1576 1576 1577 1584 0 0 0 0 1996 2027 2039 2046 2051 2055 2058 2063 2066 2068 2070 2076 2080 2083 2087 2091 2097 2102 2107 2109 2119 2130 2138 2141 2185 2215 2236 2259 2262 2263 2263 2262 2256 2233 2203 2167 2140 2140 0 0 0 0 0 0 0 0 0 0 0 0 0 0 0 0 0 0 0 0 0 0 0 0 0 2025 2030 2031 2036 2039 2046 2046 2050 2050 2052 2052 2053 2053 2053 2057 2058 2064 2068 2074 2084 2088 2090 2090 2092 2093 2093 2090 2082 2079 2056 0 0 0 0 0 0 0 0 0 0 0 0 0 0 0 0 0 0 0 0 0 0 0 0 0 0 0 0 0 0 0 0 0 0 0 0 0 0 0 0 0 0 0 0 0 0 0 0 0 0 0 0 0 0 0 0 0 0 0 0 0 0 0 0 0 0 0 0 0 0 0 0 0 0 0 0 0 0 0 0
3059 3059 3101 3127 3145 3163 3181 3181 3183 3183 3187 3187 3198 3205 3222 3228 3228 3228 3228 3228 3238 3238 3240 3240 3238 3238 3242 3254 3261 3280 3298 3318 3333 3340 3341 3349 3352 3362 3371 3378 3387 3389 3393 3394 3397 3402 3404 3415 3430 3440 3448 3452 3456 3456 3460 3460 3462 3467 3474 3482 3490 3495 3496 3497 3503 3508 3514 3515 3516 3517 3519 3522 3525 3527 3530 3532 3533 3537 3539 3542 3542 3542 3536 3524 3524 3524 3529 3553 3564 3573 3583 3592 3601 3609 3613 3615 3616 3616 3617 3619 3620 3620 3620 3619 3619 3619 3622 3625 3625 3625 3626 3626 3626 3626 3625 3620 3618 3618 3618 3618 3618 3616 3611 3605 3589 3564 3554 3554 3554 3587 3661 3667 3667 3667 3664 3663 3662 3661 3657 3657 3657 3657 3657 3657 3655 3654 3652 3650 3650 3646 3640 3633 3615 3615 3614 3600 3600 3589 3574 3566 3551 3538 3503 3434 3303 3121 0 0 0 0 0 1622 1611 1606 1605 1604 1602 1600 1595 1585 1579 1577 1575 1573 1572 1572 1571 1570 1569 1568 1568 1567 1567 1567 1567 1567 1567 1567 1567 1567 1567 1567 1567 1567 1567 1568 1568 1568 1568 1567 1566 1566 1565 1565 1565 1565 1566 1566 1566 1566 1566 1566 1566 1566 1566 1566 1566 1565 1566 1566 1567 1567 1567 1567 1568 1567 1566 1566 1566 1564 1564 1564 1566 1566 1566 1566 1566 1566 1567 1567 1567 1566 1566 1566 1566 1567 1567 1567 1567 1567 1567 1567 1567 1568 1568 1568 1568 1568 1568 1569 1569 1569 1570 1571 1571 1572 1572 1572 1572 1572 1573 1574 1576 1577 1577 1578 1578 1578 1576 1574 1573 1572 1572 1572 1572 1572 1572 1570 1570 1569 1569 1569 1569 1569 1569 1569 1569 1569 1569 1569 1569 1569 1569 1569 1569 1569 1568 1568 1568 1568 1567 1565 1565 1565 1566 1566 1566 1565 1564 1563 1563 1564 1564 1564 1564 1564 1563 1563 1563 1562 1562 1563 1563 1565 1566 1567 1568 1569 1569 1569 1570 1570 1570 1570 1570 1570 1570 1570 1570 1570 1569 1569 1569 1569 1568 1568 1568 1568 1568 1567 1565 1563 1563 1563 1563 1564 1564 1564 1564 1564 1563 1561 1561 1561 1562 1563 1563 1563 1564 1565 1565 1565 1565 1566 1568 1568 1568 1569 1569 1569 1569 1569 1569 1569 1569 1569 1568 1568 1568 1567 1567 1566 1566 1566 1566 1564 1562 1561 1560 1558 1558 1558 1558 1559 1559 1559 1559 1559 1559 1559 1559 1559 1559 1559 1559 1559 1560 1560 1561 1562 1564 1565 1565 1566 1567 1568 1568 1568 1568 1568 1569 1569 1570 1570 1571 1572 1573 1573 1574 1574 1575 1576 1584 0 0 0 0 1983 2023 2032 2039 2047 2053 2056 2058 2061 2062 2065 2071 2075 2079 2084 2089 2096 2102 2105 2109 2117 2126 2131 2134 2182 2215 2226 2241 2241 2242 2242 0 0 0 0 0 0 0 0 0 0 0 0 0 0 0 0 0 0 0 0 0 0 0 0 0 0 0 0 0 0 0 0 0 2018 2019 2021 2024 2026 2036 2038 2044 2047 2048 2048 2048 2050 2052 2054 2056 2063 2066 2070 2076 2083 2090 2090 2092 2092 2090 2078 2046 2043 0 0 0 0 0 0 0 0 0 0 0 0 0 0 0 0 0 0 0 0 0 0 0 0 0 0 0 0 0 0 0 0 0 0 0 0 0 0 0 0 0 0 0 0 0 0 0 0 0 0 0 0 0 0 0 0 0 0 0 0 0 0 0 0 0 0 0 0 0 0 0 0 0 0 0 0 0 0 0 0
3059 3059 3101 3127 3145 3175 3181 3181 3183 3183 3183 3188 3198 3214 3222 3232 3232 3232 3234 3234 3238 3240 3241 3241 3241 3241 3254 3254 3280 3286 3305 3324 3334 3341 3341 3349 3358 3367 3371 3378 3387 3396 3404 3405 3409 3416 3416 3419 3430 3440 3448 3452 3456 3456 3460 3460 3462 3467 3474 3482 3490 3495 3497 3500 3503 3508 3513 3514 3520 3522 3524 3525 3525 3527 3529 3532 3533 3537 3540 3543 3543 3543 3539 3524 3515 3515 3515 3526 3564 3573 3583 3590 3601 3609 3613 3615 3616 3617 3617 3619 3620 3621 3621 3621 3621 3621 3622 3625 3625 3625 3625 3625 3625 3625 3625 3620 3614 3614 3614 3615 3615 3615 3606 3595 3564 3559 3559 3564 3574 3584 3660 3674 3674 3674 3669 3667 3664 3661 3659 3659 3659 3659 3659 3658 3655 3654 3652 3650 3650 3646 3640 3634 3624 3622 3609 3586 3583 3565 3552 3551 3545 3545 3514 3463 3386 3254 3036 0 0 0 0 0 1629 1620 1607 1605 1605 1605 1598 1588 1582 1576 1575 1573 1571 1571 1569 1568 1568 1567 1567 1566 1566 1566 1566 1566 1566 1565 1565 1565 1565 1565 1565 1566 1566 1566 1566 1566 1565 1565 1564 1564 1564 1564 1564 1564 1565 1565 1565 1565 1565 1565 1565 1565 1565 1566 1566 1565 1566 1566 1567 1570 1571 1572 1572 1571 1570 1569 1567 1565 1565 1565 1566 1566 1566 1566 1566 1566 1566 1566 1566 1566 1566 1566 1566 1566 1566 1566 1566 1566 1566 1566 1566 1566 1567 1567 1566 1567 1567 1567 1567 1568 1569 1569 1570 1571 1571 1572 1572 1572 1573 1574 1574 1575 1577 1577 1577 1577 1576 1574 1573 1572 1572 1571 1571 1571 1569 1569 1568 1568 1568 1568 1568 1568 1568 1567 1568 1568 1568 1568 1568 1568 1568 1568 1567 1567 1567 1566 1566 1565 1565 1564 1564 1564 1565 1565 1565 1565 1563 1562 1562 1562 1562 1563 1563 1563 1562 1561 1561 1561 1561 1561 1562 1564 1565 1566 1567 1567 1567 1568 1568 1569 1569 1569 1569 1569 1569 1569 1568 1568 1568 1568 1567 1567 1566 1566 1566 1566 1564 1564 1564 1563 1562 1562 1562 1562 1562 1563 1562 1562 1562 1560 1559 1559 1559 1559 1560 1561 1562 1564 1564 1564 1564 1565 1566 1566 1567 1568 1568 1568 1568 1568 1568 1567 1568 1568 1567 1567 1567 1566 1566 1565 1565 1564 1563 1561 1560 1560 1559 1558 1558 1557 1557 1557 1558 1558 1558 1558 1558 1559 1559 1559 1559 1558 1558 1558 1560 1560 1560 1561 1561 1564 1565 1565 1566 1566 1566 1567 1567 1567 1567 1567 1568 1569 1569 1569 1571 1571 1571 1572 1573 1574 1584 0 0 0 0 1982 2019 2030 2036 2042 2049 2053 2056 2058 2060 2064 2068 2072 2076 2081 2088 2094 2099 2103 2103 2109 2116 2118 2119 2171 2213 2213 2213 0 0 0 0 0 0 0 0 0 0 0 0 0 0 0 0 0 0 0 0 0 0 1582 1577 1573 1566 1566 0 0 0 0 0 0 0 0 0 0 0 2007 2015 2015 2021 2031 2032 2035 2038 2042 2044 2048 2049 2050 2050 2055 2062 2065 2068 2073 2080 2086 2088 2088 2088 2078 2038 2033 0 0 0 0 0 0 0 0 0 0 0 0 0 0 0 0 0 0 0 0 0 0 0 0 0 0 0 0 0 0 0 0 0 0 0 0 0 0 0 0 0 0 0 0 0 0 0 0 0 0 0 0 0 0 0 0 0 0 0 0 0 0 0 0 0 0 0 0 0 0 0 0 0 0 0 0 0 0 0 0
3073 3073 3103 3121 3145 3175 3181 3181 3183 3183 3183 3188 3203 3218 3222 3232 3232 3232 3234 3234 3238 3243 3246 3253 3256 3257 3257 3259 3278 3286 3312 3326 3337 3342 3343 3353 3364 3372 3376 3380 3387 3396 3404 3405 3409 3416 3416 3419 3430 3440 3448 3449 3452 3453 3455 3458 3462 3467 3473 3482 3490 3495 3497 3500 3503 3506 3510 3514 3520 3525 3525 3525 3526 3527 3527 3529 3533 3537 3540 3543 3543 3543 3539 3524 3515 3515 3515 3526 3538 3570 3584 3586 3587 3599 3610 3615 3616 3617 3617 3619 3619 3621 3622 3622 3622 3623 3623 3625 3625 3625 3625 3625 3625 3625 3624 3620 3613 3609 3609 3609 3609 3609 3606 3595 3564 3559 3559 3564 3570 3574 3660 3676 3676 3676 3674 3670 3669 3665 3663 3663 3662 3661 3660 3658 3655 3654 3652 3650 3650 3646 3640 3634 3624 3622 3609 3587 3583 3565 3552 3552 3551 3551 3534 3479 3406 3337 3220 3045 2509 0 0 0 1668 1655 1639 1627 1620 1614 1598 1588 1582 1576 1574 1572 1570 1570 1568 1566 1565 1565 1565 1565 1564 1564 1564 1564 1564 1563 1563 1563 1564 1564 1564 1564 1564 1564 1564 1564 1564 1563 1563 1563 1563 1563 1563 1563 1563 1563 1563 1563 1563 1563 1563 1564 1565 1565 1565 1565 1566 1566 1567 1570 1573 1574 1574 1574 1572 1570 1569 1566 1566 1566 1565 1565 1565 1565 1565 1564 1564 1564 1564 1564 1564 1564 1565 1565 1565 1565 1565 1565 1565 1565 1565 1565 1565 1566 1566 1566 1566 1566 1566 1566 1568 1569 1569 1571 1571 1571 1571 1571 1571 1571 1573 1574 1575 1576 1576 1576 1576 1574 1572 1571 1570 1570 1570 1569 1568 1567 1567 1566 1566 1566 1566 1566 1566 1566 1566 1566 1566 1566 1566 1566 1566 1566 1566 1566 1566 1565 1564 1564 1564 1564 1564 1564 1565 1565 1565 1564 1563 1562 1560 1560 1560 1561 1561 1561 1561 1561 1561 1560 1560 1560 1561 1562 1564 1565 1565 1565 1566 1566 1566 1567 1567 1567 1567 1567 1567 1567 1567 1567 1567 1566 1565 1564 1564 1564 1564 1562 1562 1562 1562 1562 1562 1561 1561 1561 1561 1561 1561 1561 1560 1559 1558 1558 1558 1558 1558 1559 1561 1562 1562 1562 1562 1564 1565 1565 1565 1565 1565 1565 1566 1566 1566 1566 1566 1566 1566 1566 1566 1565 1564 1564 1563 1563 1561 1559 1559 1559 1558 1558 1557 1557 1556 1556 1556 1557 1557 1558 1558 1559 1559 1559 1558 1558 1558 1558 1558 1558 1559 1559 1561 1562 1563 1563 1564 1564 1564 1564 1565 1565 1566 1566 1567 1567 1567 1567 1567 1567 1569 1569 1569 1573 1584 0 0 0 0 1981 2017 2029 2034 2038 2044 2048 2051 2055 2058 2063 2067 2071 2074 2079 2085 2089 2094 2097 2097 2099 2104 2105 2107 2155 2187 2187 0 0 0 0 0 0 0 0 0 0 0 0 0 0 0 0 0 0 0 0 0 1556 1556 1558 1558 1558 1552 1551 1551 1551 1562 1576 1606 0 0 0 0 0 0 1989 2006 2014 2017 2021 2024 2027 2030 2032 2040 2044 2044 2046 2046 2050 2055 2060 2060 2062 2068 2084 2088 2088 2088 2078 2038 2032 0 0 0 0 0 0 0 0 0 0 0 0 0 0 0 0 0 0 0 0 0 0 0 0 0 0 0 0 0 0 0 0 0 0 0 0 0 0 0 0 0 0 0 0 0 0 0 0 0 0 0 0 0 0 0 0 0 0 0 0 0 0 0 0 0 0 0 0 0 0 0 0 0 0 0 0 0 0 0 0
3077 3077 3108 3121 3145 3175 3181 3182 3183 3183 3187 3195 3198 3214 3216 3225 3230 3230 3234 3234 3238 3248 3254 3259 3262 3262 3267 3269 3278 3302 3314 3327 3338 3345 3350 3357 3365 3373 3377 3380 3387 3396 3404 3405 3409 3416 3416 3419 3427 3437 3445 3447 3448 3448 3451 3453 3456 3459 3468 3475 3485 3494 3497 3500 3503 3505 3507 3513 3520 3525 3526 3526 3527 3527 3527 3529 3533 3540 3542 3543 3543 3543 3542 3533 3516 3516 3516 3526 3538 3570 3582 3585 3586 3595 3606 3614 3615 3616 3617 3617 3618 3620 3621 3622 3622 3623 3624 3625 3626 3626 3626 3626 3626 3624 3622 3619 3611 3609 3609 3609 3609 3609 3605 3595 3561 3559 3559 3561 3561 3575 3651 3676 3677 3677 3677 3673 3672 3669 3668 3666 3665 3664 3662 3658 3655 3654 3652 3650 3648 3643 3639 3634 3624 3622 3609 3593 3583 3565 3565 3565 3560 3560 3560 3503 3425 3356 3320 3204 3098 2608 0 0 1728 1675 1658 1642 1626 1615 1602 1588 1582 1575 1572 1571 1569 1569 1567 1565 1565 1564 1564 1563 1563 1563 1562 1562 1562 1562 1562 1562 1562 1563 1563 1563 1562 1562 1562 1562 1562 1562 1562 1562 1561 1561 1561 1561 1561 1561 1561 1561 1562 1562 1562 1562 1563 1564 1565 1565 1565 1565 1567 1570 1573 1574 1574 1574 1572 1570 1569 1566 1565 1565 1565 1565 1564 1563 1563 1563 1563 1563 1563 1563 1563 1563 1563 1564 1564 1564 1564 1564 1564 1563 1563 1563 1563 1564 1564 1564 1564 1565 1565 1565 1567 1569 1569 1571 1571 1571 1570 1570 1570 1570 1571 1574 1575 1575 1576 1576 1575 1574 1572 1570 1569 1568 1567 1567 1566 1565 1565 1565 1564 1564 1564 1564 1564 1564 1564 1564 1565 1565 1565 1565 1565 1565 1565 1565 1565 1564 1564 1564 1564 1563 1563 1564 1564 1564 1564 1564 1562 1560 1559 1559 1559 1560 1561 1561 1561 1561 1560 1559 1559 1559 1559 1561 1562 1563 1563 1564 1564 1565 1565 1565 1565 1566 1566 1566 1566 1566 1566 1566 1566 1565 1564 1562 1562 1562 1560 1559 1559 1559 1559 1559 1559 1559 1559 1559 1560 1560 1560 1560 1559 1558 1557 1555 1555 1555 1556 1557 1559 1560 1561 1561 1562 1562 1563 1563 1564 1564 1564 1565 1565 1565 1565 1565 1565 1564 1564 1564 1563 1562 1561 1561 1561 1561 1561 1559 1557 1557 1557 1557 1557 1556 1555 1553 1553 1553 1553 1556 1558 1559 1559 1559 1558 1557 1557 1557 1557 1558 1558 1559 1559 1560 1561 1561 1562 1563 1563 1564 1564 1564 1564 1565 1565 1565 1565 1566 1566 1566 1566 1567 1569 1573 1575 1589 0 0 0 1981 2017 2029 2033 2037 2040 2044 2047 2051 2057 2063 2066 2068 2071 2077 2081 2086 2089 2089 2090 2089 2089 2089 2092 2108 2108 2108 0 0 0 0 0 0 0 0 0 0 0 0 0 0 0 0 0 0 0 0 1528 1529 1535 1545 1545 1545 1543 1539 1539 1539 1549 1561 1571 1572 0 0 0 0 0 1932 1986 2001 2010 2020 2021 2025 2030 2031 2033 2040 2043 2044 2044 2046 2049 2052 2053 2054 2057 2072 2085 2085 2085 2078 2038 2008 0 0 0 0 0 0 0 0 0 0 0 0 0 0 0 0 0 0 0 0 0 0 0 0 0 0 0 0 0 0 0 0 0 0 0 0 0 0 0 0 0 0 0 0 0 0 0 0 0 0 0 0 0 0 0 0 0 0 0 0 0 0 0 0 0 0 0 0 0 0 0 0 0 0 0 0 0 0 0 0
3086 3086 3121 3122 3145 3176 3183 3193 3195 3200 3201 3202 3214 3215 3216 3221 3231 3231 3235 3237 3238 3248 3254 3262 3266 3271 3274 3278 3288 3303 3319 3329 3349 3355 3356 3359 3367 3373 3377 3380 3385 3393 3400 3402 3402 3403 3403 3410 3422 3437 3445 3447 3448 3448 3451 3453 3456 3459 3461 3470 3480 3489 3496 3499 3499 3501 3506 3513 3520 3525 3526 3526 3527 3527 3527 3529 3533 3540 3542 3543 3543 3543 3542 3541 3530 3527 3527 3527 3538 3570 3582 3585 3587 3594 3605 3613 3614 3614 3614 3615 3616 3617 3620 3621 3622 3623 3624 3625 3626 3626 3626 3626 3626 3624 3620 3617 3611 3609 3609 3609 3609 3609 3604 3596 3571 3541 3541 3541 3556 3575 3638 3667 3677 3678 3678 3678 3675 3673 3670 3667 3667 3665 3662 3658 3656 3654 3652 3650 3645 3638 3630 3624 3617 3617 3615 3595 3588 3583 3583 3583 3583 3583 3572 3528 3458 3396 3322 3242 3175 3095 2677 0 0 0 0 0 1645 1620 1604 1583 1574 1573 1571 1571 1568 1566 1566 1564 1563 1563 1562 1562 1562 1561 1561 1561 1561 1561 1561 1561 1561 1561 1561 1561 1561 1561 1560 1560 1559 1559 1559 1560 1560 1560 1560 1559 1559 1559 1560 1560 1561 1561 1561 1562 1562 1564 1564 1564 1564 1564 1567 1570 1573 1574 1574 1574 1572 1570 1569 1566 1564 1564 1563 1563 1563 1563 1561 1561 1561 1562 1562 1562 1562 1563 1563 1563 1563 1563 1563 1563 1563 1562 1562 1562 1562 1563 1563 1563 1563 1564 1564 1564 1564 1566 1569 1570 1570 1570 1569 1569 1569 1569 1570 1573 1573 1573 1573 1573 1572 1572 1571 1568 1567 1567 1566 1566 1565 1563 1563 1562 1562 1562 1562 1562 1563 1563 1563 1563 1564 1564 1564 1564 1564 1565 1565 1565 1564 1563 1563 1563 1563 1563 1563 1562 1562 1562 1561 1560 1560 1559 1558 1558 1558 1559 1559 1559 1559 1559 1559 1559 1559 1559 1559 1560 1561 1562 1562 1562 1562 1563 1563 1563 1564 1564 1565 1565 1565 1565 1565 1565 1564 1563 1562 1562 1561 1560 1558 1556 1556 1556 1555 1555 1556 1556 1557 1557 1557 1557 1557 1556 1556 1556 1555 1554 1554 1554 1554 1556 1557 1558 1559 1560 1560 1561 1561 1562 1562 1562 1563 1563 1563 1563 1563 1563 1563 1563 1563 1563 1562 1561 1561 1559 1558 1558 1557 1557 1554 1554 1554 1554 1553 1553 1553 1551 1548 1548 1548 1552 1554 1555 1557 1557 1557 1557 1557 1557 1557 1557 1558 1558 1559 1559 1559 1560 1561 1561 1562 1562 1562 1563 1563 1563 1563 1564 1564 1564 1564 1564 1565 1565 1566 1566 1572 1582 0 0 0 0 2010 2027 2031 2034 2037 2040 2044 2049 2054 2060 2064 2066 2067 2073 2078 2081 2081 2081 2076 2073 0 0 0 0 0 0 0 0 0 0 0 0 0 0 0 1550 1537 1526 1523 1523 1523 1523 1523 1523 1516 1515 1515 1515 1523 1537 1540 1540 1540 1539 1539 1539 1542 1546 1555 1556 1563 1573 0 0 0 0 0 0 2010 2017 2017 2022 2028 2028 2029 2030 2031 2038 2042 2043 2044 2045 2046 2051 2054 2064 2079 2085 2085 2085 2044 0 0 0 0 0 0 0 0 0 0 0 0 0 0 0 0 0 0 0 0 0 0 0 0 0 0 0 0 0 0 0 0 0 0 0 0 0 0 0 0 0 0 0 0 0 0 0 0 0 0 0 0 0 0 0 0 0 0 0 0 0 0 0 0 0 0 0 0 0 0 0 0 0 0 0 0 0 0 0 0 0
3106 3106 3144 3159 3163 3172 3176 3196 3220 3220 3220 3220 3217 3217 3220 3221 3231 3232 3235 3241 3244 3259 3268 3273 3295 3295 3296 3299 3301 3307 3319 3333 3356 3363 3365 3366 3369 3374 3377 3377 3381 3386 3393 3395 3396 3397 3400 3410 3422 3437 3445 3447 3448 3448 3451 3453 3456 3459 3461 3470 3475 3483 3491 3492 3492 3496 3506 3513 3519 3522 3527 3531 3540 3540 3540 3540 3540 3540 3542 3542 3542 3542 3541 3541 3530 3530 3530 3530 3546 3582 3584 3585 3588 3593 3602 3609 3609 3610 3612 3613 3616 3616 3619 3620 3621 3622 3624 3625 3626 3626 3626 3626 3626 3624 3619 3614 3611 3611 3611 3609 3609 3609 3604 3596 3586 3538 3538 3538 3556 3574 3638 3662 3675 3678 3678 3678 3677 3675 3671 3669 3668 3666 3664 3662 3658 3657 3654 3650 3642 3635 3628 3621 3615 3615 3615 3615 3615 3604 3600 3599 3597 3596 3572 3528 3483 3428 3365 3303 3226 3095 2735 0 0 0 0 0 0 1635 1606 1583 1573 1572 1570 1567 1565 1564 1563 1562 1561 1561 1560 1560 1560 1560 1560 1559 1559 1559 1559 1559 1560 1560 1560 1560 1560 1560 1559 1558 1557 1557 1558 1558 1558 1558 1558 1558 1558 1558 1558 1559 1559 1560 1560 1560 1561 1561 1561 1561 1561 1561 1563 1568 1570 1570 1570 1570 1568 1565 1563 1563 1562 1561 1561 1561 1561 1561 1559 1559 1559 1560 1561 1561 1561 1561 1562 1562 1562 1562 1562 1562 1562 1562 1561 1561 1561 1561 1561 1562 1562 1562 1563 1563 1564 1565 1568 1569 1569 1569 1569 1569 1569 1569 1569 1570 1570 1570 1569 1569 1569 1569 1569 1567 1567 1565 1565 1564 1564 1562 1561 1561 1561 1561 1561 1561 1561 1561 1561 1562 1562 1562 1563 1564 1564 1564 1564 1564 1564 1563 1562 1562 1562 1562 1562 1561 1560 1559 1558 1558 1557 1557 1556 1556 1556 1556 1558 1559 1559 1559 1558 1558 1558 1558 1559 1560 1560 1561 1561 1561 1561 1562 1562 1562 1562 1563 1563 1563 1563 1563 1563 1563 1562 1562 1561 1560 1560 1559 1555 1555 1554 1551 1551 1551 1551 1553 1554 1556 1556 1556 1555 1555 1554 1554 1553 1553 1552 1552 1552 1553 1555 1557 1557 1558 1558 1559 1559 1560 1560 1560 1560 1561 1561 1561 1561 1561 1561 1561 1561 1561 1560 1560 1559 1558 1557 1556 1555 1555 1553 1552 1551 1551 1551 1551 1551 1549 1548 1548 1548 1550 1551 1553 1555 1556 1556 1556 1556 1556 1556 1556 1557 1557 1558 1558 1558 1559 1559 1559 1560 1560 1560 1561 1561 1561 1561 1562 1562 1562 1562 1563 1563 1564 1564 1566 1571 1578 0 0 0 0 1990 2018 2025 2029 2034 2039 2043 2047 2052 2056 2059 2061 2063 2067 2070 2073 2073 2073 2064 2049 0 0 0 0 0 0 0 0 0 0 0 0 0 1524 1520 1511 1509 1507 1501 1501 1501 1509 1510 1510 1511 1511 1511 1515 1521 1527 1534 1536 1536 1538 1539 1539 1542 1546 1548 1552 1553 1558 0 0 0 0 0 0 1988 2005 2011 2019 2020 2021 2022 2022 2026 2034 2039 2039 2040 2042 2044 2046 2052 2061 2078 2085 2085 2085 2064 0 0 0 0 0 0 0 0 0 0 0 0 0 0 0 0 0 0 0 0 0 0 0 0 0 0 0 0 0 0 0 0 0 0 0 0 0 0 0 0 0 0 0 0 0 0 0 0 0 0 0 0 0 0 0 0 0 0 0 0 0 0 0 0 0 0 0 0 0 0 0 0 0 0 0 0 0 0 0 0 0
3115 3115 3153 3172 3172 3177 3177 3199 3222 3224 3224 3226 3226 3221 3221 3226 3229 3231 3236 3246 3263 3276 3293 3297 3301 3307 3310 3310 3310 3311 3317 3333 3356 3366 3366 3367 3371 3373 3375 3375 3377 3386 3389 3395 3396 3397 3400 3410 3422 3439 3449 3450 3451 3452 3454 3460 3461 3463 3464 3469 3470 3471 3472 3475 3478 3491 3506 3513 3519 3522 3527 3538 3541 3541 3541 3537 3537 3537 3539 3539 3540 3540 3540 3538 3530 3530 3530 3532 3558 3584 3587 3588 3588 3593 3600 3605 3607 3610 3612 3613 3616 3616 3619 3619 3619 3620 3620 3622 3623 3626 3626 3626 3626 3623 3616 3614 3614 3614 3615 3615 3615 3609 3604 3598 3586 3538 3538 3538 3556 3561 3638 3662 3675 3678 3678 3678 3677 3675 3672 3670 3670 3669 3667 3665 3662 3657 3654 3649 3642 3634 3627 3618 3615 3615 3615 3617 3617 3617 3610 3606 3597 3596 3572 3528 3483 3428 3372 3303 3226 3095 2735 0 0 0 0 0 0 0 1610 1583 1573 1567 1563 1563 1562 1562 1561 1560 1558 1558 1557 1557 1557 1557 1557 1557 1557 1557 1557 1557 1558 1558 1558 1558 1557 1557 1555 1554 1554 1554 1555 1555 1555 1556 1556 1556 1556 1556 1556 1557 1557 1557 1558 1558 1558 1559 1559 1559 1559 1559 1563 1567 1569 1569 1569 1567 1565 1563 1562 1558 1556 1556 1556 1557 1557 1557 1557 1557 1558 1559 1560 1560 1560 1560 1560 1560 1560 1560 1560 1560 1560 1560 1560 1560 1560 1560 1560 1560 1560 1560 1560 1560 1562 1563 1566 1568 1568 1568 1569 1568 1568 1568 1568 1568 1567 1566 1564 1564 1564 1564 1564 1565 1564 1564 1563 1562 1561 1560 1560 1560 1560 1560 1560 1560 1560 1560 1560 1561 1561 1561 1561 1562 1562 1562 1562 1562 1562 1562 1562 1562 1560 1560 1560 1559 1558 1557 1556 1556 1556 1556 1556 1555 1556 1556 1556 1558 1558 1558 1558 1557 1557 1557 1559 1559 1559 1559 1559 1560 1560 1560 1561 1561 1561 1561 1561 1561 1562 1562 1561 1561 1560 1559 1559 1558 1557 1556 1554 1553 1552 1547 1546 1546 1546 1550 1552 1553 1555 1555 1555 1553 1553 1552 1552 1552 1552 1552 1552 1553 1553 1556 1556 1556 1556 1557 1557 1557 1558 1559 1559 1559 1559 1559 1560 1560 1560 1560 1560 1560 1560 1559 1558 1556 1554 1554 1554 1553 1550 1549 1549 1549 1549 1549 1549 1549 1548 1548 1548 1549 1551 1552 1554 1556 1556 1556 1555 1555 1555 1555 1555 1555 1555 1556 1556 1557 1557 1558 1558 1558 1558 1558 1559 1559 1559 1560 1560 1560 1561 1561 1561 1562 1562 1565 1566 1569 0 0 0 0 1980 2007 2017 2023 2028 2033 2040 2047 2050 2053 2054 2055 2056 2058 2062 2062 2062 2061 2047 0 0 0 0 0 0 0 0 0 1516 1502 1502 1502 1499 1499 1499 1499 1499 1499 1499 1499 1499 1499 1505 1508 1508 1509 1511 1515 1521 1525 1529 1533 1536 1538 1538 1540 1542 1546 1548 1552 1553 1554 1561 0 0 0 0 0 1956 1978 1990 1997 2003 2008 2017 2017 2021 2028 2034 2037 2039 2040 2042 2043 2051 2060 2065 2084 2084 2084 2064 0 0 0 0 0 0 0 0 0 0 0 0 0 0 0 0 0 0 0 0 0 0 0 0 0 0 0 0 0 0 0 0 0 0 0 0 0 0 0 0 0 0 0 0 0 0 0 0 0 0 0 0 0 0 0 0 0 0 0 0 0 0 0 0 0 0 0 0 0 0 0 0 0 0 0 0 0 0 0 0 0
3133 3133 3153 3179 3179 3186 3192 3206 3228 3230 3231 3233 3235 3236 3236 3233 3236 3236 3237 3259 3276 3291 3305 3307 3307 3307 3310 3310 3312 3313 3319 3333 3356 3366 3369 3374 3375 3375 3377 3377 3377 3382 3389 3393 3396 3397 3405 3411 3424 3439 3449 3454 3459 3464 3468 3468 3468 3470 3469 3466 3466 3469 3469 3474 3478 3489 3504 3515 3519 3522 3527 3539 3546 3546 3546 3541 3539 3539 3539 3539 3539 3539 3538 3533 3533 3532 3532 3533 3566 3588 3588 3591 3592 3593 3600 3605 3607 3610 3612 3613 3616 3616 3619 3619 3619 3620 3620 3622 3622 3623 3623 3623 3623 3620 3616 3615 3615 3615 3619 3619 3619 3613 3604 3598 3586 3538 3538 3538 3538 3556 3637 3662 3675 3678 3678 3678 3677 3676 3675 3675 3674 3671 3668 3665 3662 3657 3654 3647 3641 3632 3626 3618 3618 3618 3620 3620 3620 3620 3617 3607 3591 3573 3553 3523 3483 3428 3372 3303 3226 3052 2735 0 0 0 0 0 0 0 1613 1584 1573 1564 1560 1559 1558 1558 1558 1557 1556 1556 1556 1555 1555 1554 1554 1555 1555 1555 1555 1555 1556 1556 1556 1556 1555 1554 1552 1552 1552 1552 1553 1553 1553 1553 1554 1554 1554 1554 1554 1554 1555 1556 1557 1557 1557 1557 1558 1558 1558 1559 1562 1562 1562 1562 1561 1561 1561 1561 1560 1557 1555 1555 1555 1555 1556 1556 1556 1556 1557 1559 1559 1559 1559 1559 1559 1559 1559 1559 1559 1559 1559 1559 1558 1558 1558 1559 1559 1559 1559 1559 1559 1559 1559 1559 1561 1561 1561 1563 1566 1568 1568 1568 1567 1564 1563 1563 1562 1560 1560 1560 1561 1562 1562 1562 1561 1560 1560 1559 1558 1558 1558 1558 1559 1559 1559 1559 1559 1559 1559 1559 1559 1559 1560 1560 1560 1561 1561 1561 1561 1560 1559 1559 1559 1557 1557 1556 1556 1555 1555 1555 1555 1555 1556 1556 1556 1557 1557 1557 1557 1557 1557 1557 1557 1557 1557 1557 1558 1558 1559 1559 1560 1560 1560 1560 1560 1560 1560 1560 1560 1560 1559 1557 1556 1556 1555 1554 1553 1553 1551 1547 1546 1546 1546 1549 1550 1552 1554 1554 1554 1553 1552 1552 1552 1551 1551 1551 1551 1552 1552 1553 1554 1554 1555 1555 1555 1556 1557 1557 1557 1557 1557 1558 1558 1558 1558 1558 1558 1558 1558 1557 1556 1554 1554 1554 1553 1551 1549 1548 1547 1547 1547 1549 1549 1549 1549 1549 1549 1549 1550 1552 1554 1554 1554 1554 1553 1553 1553 1553 1554 1554 1554 1554 1555 1555 1556 1556 1556 1556 1556 1556 1556 1557 1558 1558 1558 1559 1559 1559 1559 1559 1560 1564 1565 1565 0 0 0 0 1970 2000 2011 2018 2024 2031 2038 2044 2047 2049 2049 2050 2050 2051 2053 2053 2053 2044 0 0 0 0 0 0 0 1520 1514 1506 1496 1494 1494 1491 1489 1489 1489 1493 1494 1494 1494 1494 1494 1498 1500 1505 1507 1507 1511 1518 1521 1524 1529 1532 1535 1536 1538 1540 1542 1545 1548 1550 1551 1553 1560 0 0 0 0 0 0 1971 1986 1996 2003 2004 2008 2017 2020 2021 2027 2035 2037 2037 2039 2041 2045 2054 2061 2073 2073 2073 2064 0 0 0 0 0 0 0 0 0 0 0 0 0 0 0 0 0 0 0 0 0 0 0 0 0 0 0 0 0 0 0 0 0 0 0 0 0 0 0 0 0 0 0 0 0 0 0 0 0 0 0 0 0 0 0 0 0 0 0 0 0 0 0 0 0 0 0 0 0 0 0 0 0 0 0 0 0 0 0 0 0
3133 3133 3153 3179 3180 3186 3192 3211 3235 3236 3238 3238 3239 3238 3236 3233 3236 3236 3240 3264 3283 3291 3305 3307 3307 3307 3310 3310 3314 3314 3321 3330 3340 3362 3375 3385 3385 3385 3376 3376 3376 3382 3389 3393 3396 3404 3406 3413 3424 3439 3449 3454 3463 3466 3472 3472 3472 3473 3470 3469 3469 3465 3465 3465 3475 3487 3503 3515 3519 3526 3532 3541 3547 3547 3547 3542 3538 3538 3538 3538 3539 3539 3538 3533 3533 3533 3533 3542 3570 3588 3589 3591 3593 3593 3600 3605 3607 3609 3611 3613 3617 3620 3620 3620 3620 3620 3620 3621 3622 3622 3622 3621 3617 3615 3614 3614 3614 3616 3620 3620 3620 3615 3607 3598 3581 3542 3525 3525 3525 3553 3637 3669 3676 3679 3679 3679 3675 3675 3675 3675 3675 3671 3668 3665 3662 3656 3649 3643 3637 3632 3626 3616 3616 3616 3625 3625 3625 3620 3617 3607 3586 3560 3530 3502 3467 3416 3372 3254 3026 2645 0 0 0 0 0 0 0 1667 1618 1584 1567 1560 1558 1558 1558 1557 1555 1555 1554 1553 1553 1553 1553 1552 1552 1552 1552 1552 1552 1550 1550 1550 1550 1550 1550 1550 1550 1550 1551 1551 1551 1551 1551 1550 1550 1550 1550 1550 1552 1554 1555 1555 1556 1556 1557 1557 1557 1557 1557 1557 1557 1556 1556 1556 1556 1556 1556 1556 1556 1554 1553 1553 1553 1554 1555 1555 1555 1555 1555 1557 1558 1558 1558 1558 1558 1558 1559 1559 1559 1559 1559 1558 1557 1557 1557 1557 1557 1557 1557 1558 1558 1558 1558 1558 1558 1558 1560 1563 1565 1568 1568 1568 1564 1561 1560 1559 1559 1557 1557 1557 1557 1558 1559 1559 1559 1559 1558 1556 1555 1555 1555 1556 1558 1558 1558 1558 1558 1558 1558 1558 1558 1558 1558 1558 1558 1558 1558 1558 1558 1557 1556 1556 1554 1554 1554 1554 1554 1554 1554 1554 1554 1554 1554 1554 1554 1554 1554 1554 1554 1554 1554 1556 1556 1557 1556 1556 1557 1557 1557 1557 1558 1559 1559 1559 1559 1559 1559 1559 1558 1557 1557 1555 1555 1555 1555 1553 1552 1552 1550 1547 1546 1546 1546 1548 1550 1550 1552 1552 1552 1552 1552 1552 1551 1550 1550 1550 1550 1551 1551 1552 1553 1553 1553 1553 1554 1554 1555 1555 1556 1556 1556 1556 1556 1557 1557 1557 1557 1557 1556 1555 1554 1554 1553 1553 1552 1549 1547 1547 1547 1547 1547 1547 1549 1549 1549 1549 1549 1549 1550 1551 1552 1552 1552 1552 1552 1552 1552 1552 1552 1553 1553 1553 1553 1554 1554 1554 1554 1554 1555 1555 1555 1555 1555 1555 1557 1557 1557 1557 1557 1557 1557 1559 1560 1564 0 0 0 0 1966 1998 2011 2017 2023 2029 2033 2040 2043 2044 2044 2044 2044 2044 2043 2043 2036 2018 0 0 0 0 0 1521 1519 1512 1503 1495 1493 1490 1490 1489 1486 1486 1486 1488 1491 1492 1493 1494 1494 1498 1500 1504 1504 1507 1511 1518 1521 1524 1528 1531 1533 1535 1538 1540 1542 1545 1547 1549 1550 1552 1555 1563 0 0 0 0 0 0 1977 1991 1995 1999 2005 2011 2018 2019 2023 2025 2037 2037 2037 2039 2042 2051 2053 2055 2055 2055 2055 0 0 0 0 0 0 0 0 0 0 0 0 0 0 0 0 0 0 0 0 0 0 0 0 0 0 0 0 0 0 0 0 0 0 0 0 0 0 0 0 0 0 0 0 0 0 0 0 0 0 0 0 0 0 0 0 0 0 0 0 0 0 0 0 0 0 0 0 0 0 0 0 0 0 0 0 0 0 0 0 0
3133 3133 3151 3172 3178 3179 3190 3211 3235 3236 3238 3238 3239 3238 3236 3233 3236 3236 3244 3264 3283 3291 3299 3299 3299 3299 3299 3304 3315 3318 3321 3327 3333 3350 3375 3385 3385 3385 3377 3377 3377 3377 3383 3393 3396 3404 3406 3413 3424 3435 3447 3454 3463 3466 3472 3473 3473 3473 3473 3473 3470 3462 3462 3462 3467 3486 3503 3515 3519 3526 3536 3541 3547 3547 3547 3546 3542 3539 3539 3539 3539 3539 3539 3533 3533 3533 3535 3554 3575 3588 3594 3594 3596 3596 3599 3603 3607 3609 3611 3613 3617 3620 3620 3620 3620 3620 3620 3621 3621 3621 3620 3617 3614 3612 3612 3612 3614 3616 3620 3620 3620 3615 3608 3598 3581 3554 3525 3525 3525 3557 3637 3669 3677 3679 3679 3679 3675 3675 3675 3675 3675 3671 3668 3660 3653 3648 3642 3636 3632 3626 3619 3614 3614 3614 3623 3623 3623 3620 3617 3607 3586 3546 3510 3485 3449 3412 3310 3063 2676 0 0 0 0 0 1767 1739 1715 1667 1619 1584 1566 1559 1558 1557 1557 1555 1553 1553 1552 1552 1552 1551 1550 1550 1550 1550 1550 1549 1548 1548 1546 1546 1545 1545 1545 1545 1547 1549 1551 1551 1551 1551 1549 1548 1548 1548 1548 1549 1550 1551 1552 1553 1553 1553 1554 1555 1556 1556 1556 1556 1555 1555 1555 1555 1554 1554 1554 1554 1554 1552 1552 1552 1552 1553 1553 1553 1553 1553 1554 1554 1556 1557 1557 1557 1557 1557 1558 1558 1558 1557 1557 1556 1556 1555 1555 1556 1555 1556 1556 1556 1556 1556 1556 1556 1556 1556 1556 1561 1561 1561 1561 1558 1556 1556 1556 1557 1557 1557 1556 1556 1556 1556 1557 1557 1557 1557 1555 1554 1553 1553 1553 1555 1556 1557 1557 1558 1558 1558 1558 1558 1557 1556 1556 1556 1556 1555 1555 1555 1554 1554 1554 1554 1553 1553 1553 1553 1553 1553 1552 1552 1552 1550 1550 1550 1550 1552 1552 1552 1552 1552 1552 1553 1554 1554 1554 1554 1555 1555 1555 1556 1556 1557 1558 1558 1558 1558 1557 1557 1557 1555 1554 1553 1552 1552 1552 1552 1551 1551 1548 1547 1546 1546 1546 1547 1549 1549 1549 1549 1549 1549 1550 1550 1550 1550 1548 1548 1548 1549 1550 1551 1551 1551 1552 1552 1553 1553 1553 1554 1554 1554 1554 1554 1554 1555 1555 1555 1555 1555 1554 1554 1553 1552 1552 1552 1551 1549 1547 1546 1545 1546 1547 1547 1549 1549 1549 1548 1548 1548 1548 1549 1550 1550 1551 1551 1551 1551 1552 1552 1552 1552 1552 1552 1552 1552 1552 1552 1552 1553 1553 1553 1553 1554 1554 1554 1555 1555 1555 1555 1555 1556 1556 1556 1558 1560 0 0 0 0 1959 1994 2010 2017 2022 2026 2030 2032 2034 2036 2037 2037 2037 2035 2031 2021 2007 0 0 0 0 0 1516 1512 1508 1508 1499 1490 1489 1489 1488 1485 1484 1484 1484 1487 1490 1492 1492 1493 1494 1496 1499 1501 1504 1506 1511 1518 1521 1522 1523 1525 1529 1534 1537 1538 1541 1544 1544 1544 1545 1545 1547 1555 0 0 0 0 0 0 0 1979 1980 1988 1995 2004 2009 2013 2019 2022 2026 2030 2032 2036 2040 2045 2046 2050 2050 2050 2046 0 0 0 0 0 0 0 0 0 0 0 0 0 0 0 0 0 0 0 0 0 0 0 0 0 0 0 0 0 0 0 0 0 0 0 0 0 0 0 0 0 0 0 0 0 0 0 0 0 0 0 0 0 0 0 0 0 0 0 0 0 0 0 0 0 0 0 0 0 0 0 0 0 0 0 0 0 0 0 0 0
