3236 3236 3236 3236 3235 3235 3235 3242 3247 3263 3271 3276 3285 3294 3307 3317 3326 3330 3339 3346 3360 3374 3382 3389 3395 3397 3400 3411 3420 3423 3424 3425 3440 3447 3463 3479 3498 3519 3533 3539 3539 3539 3539 3539 3545 3557 3570 3576 3578 3579 3581 3584 3592 3600 3605 3608 3612 3618 3619 3620 3622 3625 3629 3634 3639 3640 3642 3643 3645 3649 3652 3657 3661 3666 3670 3675 3678 3682 3686 3692 3699 3707 3715 3715 3716 3716 3716 3721 3733 3747 3761 3767 3772 3775 3778 3779 3786 3799 3803 3803 3803 3800 3794 3770 3761 3682 3553 2994 0 0 0 0 0 0 0 0 0 0 0 0 0 0 0 0 0 0 0 0 0 0 0 0 0 0 0 0 0 0 0 0 0 0 0 0 0 0 0 0 0 0 0 0 0 0 0 0 0 0 0 0 0 0 0 0 0 0 0 0 0 0 0 0 0 0 0 0 0 0 0 0 0 0 0 0 0 0 0 0 0 0 0 0 0 0 0 0 0 0 0 0 0 0 0 0 0 0 0 0 0 0 0 0 0 0 0 0 3178 3617 3833 3935 3937 3946 3946 3960 3960 3960 3946 3934 3929 3929 3929 3932 3932 3932 3912 3892 3874 3868 3865 3865 3864 3857 3857 3857 3862 3874 3874 3874 3869 3861 3861 3860 3860 3859 3849 3849 3847 3841 3839 3839 3839 3842 3842 3842 3842 3842 3850 3850 3852 3852 3855 3856 3858 3864 3865 3866 3875 3875 3875 3872 3867 3866 3857 3857 3857 3857 3856 3808 3775 3775 3775 3787 3827 3840 3869 3876 3869 3840 3795 3595 3518 3506 3463 3350 3064 2846 2730 2657 2621 2584 2537 2486 2443 2416 2405 2388 2367 2348 2334 2321 2311 2304 2299 2293 2287 2281 2275 2270 2266 2261 2255 2248 2242 2237 2232 2224 2216 2209 2203 2197 2193 2189 2186 2182 2178 2176 2172 2168 2164 2159 2156 2153 2150 2146 2141 2137 2133 2130 2125 2122 2118 2115 2110 2106 2103 2101 2098 2096 2094 2091 2088 2084 2081 2078 2075 2072 2068 2065 2061 2058 2054 2052 2049 2046 2043 2040 2038 2036 2034 2031 2029 2026 2023 2020 2017 2014 2009 2003 1996 1988 1978 1959 1935 1915 1903 1900 1897 1894 1890 1885 1880 1875 1871 1866 1861 1853 1842 1838 1835 1826 1818 1814 1813 1812 1811 1808 1804 1802 1802 1802 1804 1805 1805 1807 1808 1808 1808 1807 1807 1805 1803 1801 1798 1795 1793 1790 1787 1784 1781 1780 1776 1775 1774 1772 1765 1764 1760 1743 1729 1725 1724 1717 1715 1714 1712 1712 1712 1711 1711 1711 1710 1709 1709 1709 1710 1712 1712 1712 1712 1711 1710 1710 1708 1707 1706 1704 1702 1699 1695 1693 1691 1688 1686 1683 1681 1677 1675 1672 1664 1655 1642 1637 1633 1626 1617 1614 1612 1611 1610 1609 1609 1609 1610 1610 1610 1609 1609 1609 1619 1621 1621 1621 1619 1619 1618 1618 1616 1616 1615 1614 1612 1610 1608 1607 1605 1603 1601 1598 1597 1595 1593 1591 1588 1584 1580 1577 1573 1568 1564 1561 1559 1558 1557 1557 1555 1554 1552 1549 1549 1549 1547 1547 1541 1532 1531 1531 1531 1531 1535 1536 1536 1536 1536 1536 1535 1534 1533 1532 1531 1529 1527 1526 1525 1525 1524 1524 1524 1525 1525 1528 1535 1546 1551 1558 1562 1567 1578 1578 1578 1538 1508 0 0 0 0 0 0 0 0 0 0 0 0 0 0 0 0 0 0 0 0 0 0 0 0 0 0 0 0 0 0 0 0 0 0 0 0 0 0 0
3236 3236 3236 3236 3235 3235 3235 3255 3266 3271 3272 3276 3284 3294 3307 3317 3326 3331 3340 3346 3362 3375 3390 3400 3404 3405 3410 3419 3427 3429 3429 3430 3440 3447 3459 3473 3492 3519 3533 3535 3535 3537 3537 3537 3545 3559 3570 3577 3579 3579 3581 3584 3591 3599 3605 3607 3612 3616 3619 3620 3622 3625 3629 3634 3639 3640 3642 3643 3646 3650 3653 3658 3661 3666 3670 3675 3678 3683 3690 3696 3702 3712 3718 3718 3718 3718 3718 3721 3733 3747 3761 3767 3771 3773 3775 3778 3786 3800 3807 3811 3811 3811 3809 3788 3761 3687 3559 3127 0 0 0 0 0 0 0 0 0 0 0 0 0 0 0 0 0 0 0 0 0 0 0 0 0 0 0 0 0 0 0 0 0 0 0 0 0 0 0 0 0 0 0 0 0 0 0 0 0 0 0 0 0 0 0 0 0 0 0 0 0 0 0 0 0 0 0 0 0 0 0 0 0 0 0 0 0 0 0 0 0 0 0 0 0 0 0 0 0 0 0 0 0 0 0 0 0 0 0 0 0 0 0 0 0 0 0 0 0 3608 3817 3932 3937 3946 3946 3960 3960 3960 3946 3934 3925 3925 3925 3932 3932 3932 3904 3883 3873 3868 3865 3864 3861 3854 3851 3851 3851 3860 3875 3875 3875 3869 3856 3851 3848 3840 3840 3840 3840 3840 3851 3850 3844 3844 3844 3843 3843 3843 3850 3852 3853 3854 3854 3854 3853 3853 3853 3866 3867 3867 3867 3867 3867 3857 3854 3854 3854 3854 3850 3808 3773 3773 3773 3787 3827 3843 3843 3879 3843 3839 3793 3576 3484 3482 3463 3350 3064 2846 2730 2657 2621 2584 2537 2483 2443 2417 2406 2388 2367 2348 2334 2321 2311 2304 2299 2293 2287 2281 2275 2270 2266 2261 2255 2246 2241 2237 2232 2224 2216 2209 2203 2197 2193 2189 2186 2182 2178 2176 2172 2168 2164 2159 2156 2153 2150 2146 2141 2137 2133 2130 2126 2122 2118 2114 2110 2106 2102 2100 2098 2096 2094 2091 2088 2084 2081 2078 2075 2072 2068 2065 2061 2058 2054 2052 2050 2047 2044 2042 2039 2036 2034 2031 2028 2026 2023 2020 2017 2014 2009 2003 1998 1992 1983 1968 1941 1917 1904 1903 1899 1897 1893 1888 1882 1877 1872 1871 1865 1855 1842 1838 1835 1827 1818 1814 1813 1813 1812 1812 1807 1802 1802 1802 1804 1805 1806 1810 1810 1810 1810 1810 1809 1807 1804 1802 1799 1797 1794 1791 1789 1786 1783 1781 1779 1775 1774 1772 1770 1766 1762 1743 1729 1725 1724 1717 1715 1714 1714 1714 1714 1714 1714 1712 1710 1710 1710 1710 1711 1713 1713 1713 1713 1712 1711 1710 1709 1708 1707 1705 1703 1701 1697 1695 1693 1690 1687 1685 1681 1679 1677 1673 1665 1655 1642 1637 1635 1632 1625 1619 1618 1614 1611 1609 1609 1609 1613 1613 1613 1611 1611 1611 1620 1623 1623 1623 1622 1622 1621 1620 1618 1617 1616 1615 1613 1611 1609 1607 1605 1604 1602 1600 1598 1597 1594 1592 1589 1586 1586 1585 1581 1569 1566 1561 1559 1558 1558 1557 1556 1554 1552 1552 1551 1551 1551 1549 1548 1545 1542 1541 1539 1539 1538 1537 1537 1537 1537 1536 1536 1536 1534 1533 1532 1530 1528 1527 1526 1526 1525 1525 1525 1525 1525 1527 1534 1546 1551 1556 1561 1563 1563 1563 1561 1534 0 0 0 0 0 0 0 0 0 0 0 0 0 0 0 0 0 0 0 0 0 0 0 0 0 0 0 0 0 0 0 0 0 0 0 0 0 0 0 0
3235 3235 3235 3235 3236 3236 3236 3255 3266 3266 3271 3272 3276 3293 3307 3317 3327 3332 3340 3347 3363 3384 3408 3419 3420 3423 3427 3434 3436 3436 3436 3437 3444 3451 3459 3465 3483 3510 3533 3533 3533 3531 3531 3531 3544 3561 3570 3577 3578 3579 3581 3585 3590 3599 3604 3607 3611 3613 3615 3617 3622 3625 3629 3634 3639 3640 3643 3643 3647 3650 3654 3658 3662 3666 3670 3675 3678 3684 3691 3697 3706 3713 3719 3719 3719 3719 3719 3724 3735 3748 3761 3767 3771 3773 3775 3779 3787 3800 3807 3812 3818 3818 3818 3804 3781 3713 3610 3236 2607 0 0 0 0 0 0 0 0 0 0 0 0 0 0 0 0 0 0 0 0 0 0 0 0 0 0 0 0 0 0 0 0 0 0 0 0 0 0 0 0 0 0 0 0 0 0 0 0 0 0 0 0 0 0 0 0 0 0 0 0 0 0 0 0 0 0 0 0 0 0 0 0 0 0 0 0 0 0 0 0 0 0 0 0 0 0 0 0 0 0 0 0 0 0 0 0 0 0 0 0 0 0 0 0 0 0 0 0 3490 3811 3885 3932 3937 3937 3949 3949 3949 3946 3934 3925 3925 3925 3931 3931 3931 3904 3883 3873 3867 3863 3862 3861 3852 3845 3843 3843 3843 3845 3869 3869 3869 3852 3849 3837 3837 3837 3840 3840 3852 3852 3852 3850 3850 3846 3846 3846 3847 3853 3854 3854 3854 3853 3853 3853 3853 3853 3853 3865 3865 3865 3865 3865 3857 3851 3851 3851 3851 3845 3808 3773 3773 3773 3787 3827 3855 3869 3879 3869 3855 3790 3573 3466 3462 3446 3393 3071 2846 2728 2645 2611 2577 2537 2482 2443 2417 2406 2385 2369 2348 2334 2322 2311 2304 2299 2293 2287 2281 2275 2270 2266 2260 2252 2243 2237 2234 2230 2224 2216 2209 2203 2199 2194 2190 2187 2183 2179 2176 2172 2168 2164 2160 2156 2153 2150 2147 2141 2137 2133 2130 2126 2122 2119 2114 2109 2106 2102 2100 2098 2095 2093 2091 2087 2084 2081 2078 2075 2072 2068 2065 2061 2058 2055 2052 2050 2047 2044 2042 2039 2036 2034 2031 2028 2025 2023 2020 2017 2014 2010 2005 2002 1998 1991 1979 1958 1924 1909 1903 1900 1898 1894 1889 1883 1878 1874 1871 1869 1862 1847 1839 1838 1827 1818 1814 1814 1814 1813 1813 1810 1807 1807 1807 1807 1808 1810 1813 1814 1814 1814 1812 1810 1809 1807 1804 1802 1799 1796 1793 1790 1787 1785 1782 1780 1777 1776 1772 1770 1766 1762 1746 1729 1725 1724 1717 1717 1717 1717 1718 1718 1718 1717 1716 1713 1712 1712 1712 1714 1714 1714 1714 1713 1713 1712 1711 1710 1709 1708 1706 1703 1702 1699 1697 1694 1692 1689 1685 1683 1682 1677 1673 1666 1656 1652 1652 1646 1639 1638 1638 1634 1627 1621 1619 1619 1619 1618 1617 1616 1614 1614 1614 1621 1624 1624 1624 1623 1623 1622 1621 1620 1619 1617 1616 1614 1613 1610 1608 1607 1604 1602 1601 1599 1598 1596 1594 1592 1589 1587 1587 1583 1572 1569 1566 1564 1564 1564 1563 1560 1555 1554 1554 1554 1553 1553 1553 1550 1547 1545 1544 1540 1539 1539 1539 1539 1538 1537 1537 1537 1536 1534 1534 1532 1531 1529 1528 1527 1527 1527 1527 1527 1527 1528 1528 1531 1541 1548 1556 1561 1563 1563 1563 1556 0 0 0 0 0 0 0 0 0 0 0 0 0 0 0 0 0 0 0 0 0 0 0 0 0 0 0 0 0 0 0 0 0 0 0 0 0 0 0 0 0
3235 3235 3235 3235 3241 3241 3241 3255 3265 3266 3269 3272 3276 3290 3304 3317 3327 3335 3346 3353 3372 3397 3418 3429 3437 3443 3444 3446 3447 3447 3449 3452 3452 3454 3459 3463 3479 3496 3517 3526 3528 3528 3529 3530 3544 3561 3570 3576 3577 3579 3580 3585 3590 3597 3604 3605 3606 3609 3611 3614 3619 3623 3629 3631 3634 3640 3644 3647 3649 3653 3656 3659 3663 3666 3670 3675 3679 3684 3692 3701 3707 3714 3721 3721 3721 3723 3723 3726 3737 3750 3761 3768 3771 3773 3775 3779 3787 3799 3807 3812 3819 3824 3824 3824 3792 3744 3634 3327 2663 0 0 0 0 0 0 0 0 0 0 0 0 0 0 0 0 0 0 0 0 0 0 0 0 0 0 0 0 0 0 0 0 0 0 0 0 0 0 0 0 0 0 0 0 0 0 0 0 0 0 0 0 0 0 0 0 0 0 0 0 0 0 0 0 0 0 0 0 0 0 0 0 0 0 0 0 0 0 0 0 0 0 0 0 0 0 0 0 0 0 0 0 0 0 0 0 0 0 0 0 0 0 0 0 0 0 0 0 0 3676 3785 3893 3937 3937 3949 3951 3951 3951 3936 3936 3936 3944 3944 3944 3931 3902 3881 3873 3867 3862 3861 3854 3850 3845 3843 3843 3843 3844 3860 3860 3860 3851 3839 3837 3837 3837 3848 3852 3852 3857 3857 3852 3846 3846 3846 3846 3849 3866 3866 3866 3854 3852 3849 3849 3852 3853 3853 3853 3855 3855 3851 3855 3855 3851 3851 3855 3851 3845 3814 3791 3759 3759 3759 3811 3855 3866 3876 3866 3855 3788 3548 3462 3457 3446 3393 3071 2841 2720 2641 2606 2568 2524 2461 2431 2417 2406 2385 2369 2350 2340 2325 2315 2310 2302 2293 2287 2280 2275 2266 2261 2256 2249 2241 2235 2231 2229 2223 2216 2209 2203 2199 2194 2191 2187 2184 2179 2176 2172 2168 2164 2160 2156 2153 2150 2147 2143 2138 2134 2130 2126 2122 2119 2114 2109 2106 2102 2100 2098 2095 2093 2090 2087 2084 2081 2078 2075 2072 2069 2066 2062 2058 2055 2052 2050 2047 2045 2042 2039 2036 2034 2031 2028 2025 2023 2020 2017 2014 2010 2006 2003 1999 1992 1980 1964 1943 1914 1903 1900 1898 1894 1890 1885 1882 1878 1874 1869 1863 1851 1843 1841 1831 1825 1822 1817 1817 1817 1814 1812 1809 1809 1809 1809 1810 1812 1813 1815 1815 1815 1814 1813 1810 1808 1805 1804 1801 1798 1796 1792 1789 1786 1783 1780 1778 1776 1773 1770 1768 1764 1752 1741 1734 1726 1721 1720 1720 1720 1722 1723 1723 1723 1722 1716 1714 1714 1714 1715 1715 1716 1716 1716 1716 1715 1713 1712 1711 1709 1706 1705 1703 1701 1698 1697 1692 1690 1686 1683 1682 1678 1674 1666 1662 1661 1659 1655 1650 1645 1640 1638 1638 1637 1637 1634 1631 1630 1628 1625 1622 1622 1622 1622 1624 1624 1624 1624 1624 1623 1622 1621 1619 1618 1617 1615 1613 1612 1611 1608 1607 1604 1602 1600 1598 1597 1596 1593 1591 1588 1588 1584 1580 1575 1570 1567 1567 1565 1564 1562 1561 1560 1560 1560 1559 1556 1554 1552 1551 1549 1547 1542 1540 1539 1539 1539 1540 1540 1540 1538 1536 1535 1534 1533 1531 1530 1529 1529 1528 1528 1528 1528 1528 1528 1528 1530 1535 1546 1554 1559 1560 1560 1560 1551 0 0 0 0 0 0 0 0 0 0 0 0 0 0 0 0 0 0 0 0 0 0 0 0 0 0 0 0 0 0 0 0 0 0 0 0 0 0 0 0 0
3209 3209 3231 3232 3241 3241 3241 3257 3265 3266 3270 3276 3276 3290 3304 3317 3330 3341 3356 3376 3383 3409 3426 3436 3448 3460 3463 3463 3463 3463 3453 3453 3453 3454 3459 3461 3472 3487 3502 3511 3514 3515 3519 3529 3544 3559 3568 3570 3575 3576 3580 3585 3590 3595 3600 3603 3604 3604 3604 3609 3616 3623 3629 3631 3633 3638 3647 3655 3657 3661 3661 3662 3663 3666 3670 3675 3679 3684 3693 3701 3710 3718 3723 3725 3725 3725 3726 3728 3737 3752 3761 3768 3771 3774 3779 3779 3787 3799 3807 3812 3819 3830 3830 3830 3808 3770 3677 3538 2949 0 0 0 0 0 0 0 0 0 0 0 0 0 0 0 0 0 0 0 0 0 0 0 0 0 0 0 0 0 0 0 0 0 0 0 0 0 0 0 0 0 0 0 0 0 0 0 0 0 0 0 0 0 0 0 0 0 0 0 0 0 0 0 0 0 0 0 0 0 0 0 0 0 0 0 0 0 0 0 0 0 0 0 0 0 0 0 0 0 0 0 0 0 0 0 0 0 0 0 0 0 0 0 0 0 0 0 0 0 3544 3783 3835 3906 3937 3949 3958 3958 3958 3945 3945 3945 3953 3953 3953 3933 3904 3880 3870 3863 3862 3861 3850 3849 3845 3845 3844 3844 3844 3852 3852 3852 3844 3836 3835 3835 3835 3839 3840 3845 3845 3846 3846 3845 3845 3845 3845 3854 3867 3867 3867 3857 3853 3852 3852 3853 3853 3853 3853 3855 3855 3850 3855 3855 3851 3851 3857 3851 3845 3841 3798 3754 3754 3754 3786 3860 3860 3865 3865 3858 3773 3540 3457 3444 3437 3350 3071 2841 2714 2639 2606 2567 2515 2452 2421 2407 2398 2382 2369 2350 2340 2325 2315 2310 2302 2293 2287 2280 2269 2262 2257 2253 2248 2241 2235 2231 2227 2221 2215 2209 2203 2199 2194 2191 2187 2184 2179 2175 2172 2168 2164 2160 2156 2153 2150 2147 2143 2139 2134 2130 2126 2122 2119 2114 2109 2105 2102 2100 2097 2094 2092 2090 2087 2083 2081 2078 2075 2072 2069 2066 2062 2059 2055 2053 2050 2047 2045 2042 2039 2036 2034 2031 2029 2025 2023 2020 2017 2014 2010 2006 2003 1999 1992 1980 1965 1946 1920 1909 1904 1899 1896 1891 1887 1884 1880 1876 1871 1865 1858 1852 1848 1840 1833 1830 1828 1826 1824 1822 1822 1820 1818 1816 1815 1813 1813 1813 1816 1818 1818 1818 1814 1812 1810 1807 1805 1803 1800 1798 1794 1791 1788 1785 1782 1779 1776 1773 1770 1769 1765 1753 1748 1742 1740 1740 1740 1743 1743 1743 1733 1730 1729 1728 1724 1721 1719 1718 1718 1718 1719 1719 1719 1717 1715 1715 1713 1711 1709 1708 1705 1703 1701 1699 1697 1694 1691 1687 1685 1684 1681 1676 1672 1671 1670 1667 1662 1657 1652 1649 1646 1643 1643 1643 1641 1637 1635 1633 1631 1630 1630 1630 1628 1626 1626 1625 1624 1624 1623 1623 1622 1620 1619 1617 1615 1614 1612 1611 1610 1608 1605 1603 1601 1599 1598 1596 1593 1592 1591 1590 1586 1583 1577 1573 1572 1570 1570 1569 1565 1564 1563 1562 1561 1560 1558 1555 1554 1553 1551 1549 1549 1546 1544 1543 1542 1542 1541 1540 1539 1537 1536 1535 1534 1532 1531 1530 1530 1529 1528 1528 1528 1528 1528 1528 1530 1535 1541 1554 1559 1559 1559 1558 1551 0 0 0 0 0 0 0 0 0 0 0 0 0 0 0 0 0 0 0 0 0 0 0 0 0 0 0 0 0 0 0 0 0 0 0 0 0 0 0 0 0
3209 3209 3231 3232 3237 3248 3253 3257 3265 3269 3269 3276 3282 3290 3304 3323 3338 3351 3367 3389 3395 3418 3437 3445 3453 3465 3475 3475 3475 3471 3456 3454 3454 3454 3459 3461 3467 3473 3485 3495 3504 3512 3519 3529 3543 3558 3567 3568 3570 3572 3576 3583 3590 3595 3600 3603 3604 3604 3604 3609 3616 3623 3629 3631 3633 3638 3647 3657 3661 3661 3665 3665 3668 3670 3672 3675 3679 3685 3693 3704 3711 3721 3728 3728 3728 3728 3730 3730 3740 3752 3760 3768 3772 3774 3779 3783 3787 3795 3803 3811 3819 3830 3830 3830 3829 3799 3721 3560 3085 0 0 0 0 0 0 0 0 0 0 0 0 0 0 0 0 0 0 0 0 0 0 0 0 0 0 0 0 0 0 0 0 0 0 0 0 0 0 0 0 0 0 0 0 0 0 0 0 0 0 0 0 0 0 0 0 0 0 0 0 0 0 0 0 0 0 0 0 0 0 0 0 0 0 0 0 0 0 0 0 0 0 0 0 0 0 0 0 0 0 0 0 0 0 0 0 0 0 0 0 0 0 0 0 0 0 0 0 0 3295 3545 3802 3861 3918 3942 3952 3952 3952 3945 3945 3945 3956 3956 3956 3933 3907 3878 3865 3860 3859 3853 3850 3850 3850 3848 3848 3850 3845 3844 3844 3839 3834 3833 3833 3834 3835 3835 3838 3845 3845 3845 3845 3844 3842 3842 3844 3855 3867 3867 3867 3859 3852 3851 3851 3852 3853 3853 3853 3855 3855 3842 3857 3857 3851 3851 3857 3854 3854 3854 3803 3782 3782 3782 3786 3860 3866 3866 3866 3865 3733 3540 3447 3444 3437 3350 3071 2841 2713 2637 2606 2567 2515 2452 2421 2407 2398 2380 2364 2350 2340 2325 2315 2310 2302 2292 2284 2275 2266 2256 2252 2250 2245 2240 2234 2230 2224 2218 2214 2209 2203 2199 2194 2191 2187 2184 2179 2175 2171 2168 2164 2160 2156 2153 2150 2147 2143 2139 2134 2130 2126 2122 2117 2112 2109 2105 2102 2100 2097 2094 2092 2089 2087 2083 2080 2078 2075 2072 2069 2066 2063 2059 2055 2053 2050 2047 2045 2042 2039 2036 2034 2031 2028 2026 2023 2020 2017 2014 2010 2006 2003 1999 1992 1980 1967 1947 1923 1915 1910 1904 1898 1894 1890 1886 1883 1880 1875 1870 1863 1856 1851 1849 1848 1847 1846 1839 1838 1835 1833 1831 1830 1830 1828 1825 1822 1820 1819 1818 1818 1818 1816 1812 1811 1809 1807 1804 1802 1798 1796 1792 1789 1786 1783 1781 1777 1773 1771 1770 1770 1764 1760 1756 1753 1753 1753 1753 1753 1750 1743 1735 1735 1734 1734 1731 1727 1725 1724 1723 1722 1721 1720 1719 1718 1716 1714 1711 1710 1708 1706 1704 1702 1700 1698 1695 1692 1689 1686 1685 1683 1679 1677 1674 1671 1669 1666 1661 1658 1656 1653 1650 1648 1645 1643 1641 1641 1639 1639 1637 1636 1635 1633 1630 1629 1629 1627 1626 1625 1623 1622 1621 1620 1618 1617 1615 1613 1612 1610 1608 1607 1604 1602 1600 1598 1597 1595 1594 1592 1590 1589 1586 1581 1577 1574 1573 1571 1569 1568 1566 1564 1564 1563 1561 1559 1557 1556 1556 1555 1553 1551 1549 1548 1545 1545 1544 1542 1541 1539 1539 1538 1537 1536 1534 1532 1532 1531 1531 1529 1529 1529 1528 1528 1528 1531 1535 1541 1554 1559 1559 1559 1557 0 0 0 0 0 0 0 0 0 0 0 0 0 0 0 0 0 0 0 0 0 0 0 0 0 0 0 0 0 0 0 0 0 0 0 0 0 0 0 0 0 0
3209 3209 3230 3230 3237 3237 3253 3257 3269 3276 3288 3303 3317 3318 3324 3332 3347 3359 3369 3390 3397 3423 3437 3445 3453 3465 3475 3477 3477 3477 3460 3455 3455 3455 3460 3461 3467 3473 3485 3494 3504 3512 3519 3529 3543 3558 3565 3567 3567 3569 3576 3581 3589 3594 3598 3603 3603 3604 3604 3609 3616 3625 3631 3633 3634 3638 3648 3658 3662 3664 3667 3671 3673 3676 3681 3682 3682 3686 3693 3704 3715 3723 3729 3732 3732 3733 3733 3734 3743 3752 3760 3769 3773 3777 3782 3786 3789 3793 3794 3801 3814 3830 3830 3830 3830 3808 3755 3618 3202 2581 0 0 0 0 0 0 0 0 0 0 0 0 0 0 0 0 0 0 0 0 0 0 0 0 0 0 0 0 0 0 0 0 0 0 0 0 0 0 0 0 0 0 0 0 0 0 0 0 0 0 0 0 0 0 0 0 0 0 0 0 0 0 0 0 0 0 0 0 0 0 0 0 0 0 0 0 0 0 0 0 0 0 0 0 0 0 0 0 0 0 0 0 0 0 0 0 0 0 0 0 0 0 0 0 0 0 0 0 3146 3467 3775 3805 3900 3936 3951 3951 3951 3945 3945 3945 3956 3956 3956 3933 3907 3878 3852 3852 3852 3850 3850 3850 3850 3850 3850 3850 3848 3847 3845 3839 3833 3833 3833 3833 3837 3837 3837 3838 3845 3845 3845 3844 3842 3842 3844 3855 3867 3867 3867 3857 3852 3851 3851 3852 3851 3851 3847 3847 3847 3846 3857 3858 3858 3858 3864 3858 3854 3854 3816 3782 3782 3782 3786 3860 3866 3867 3867 3866 3717 3529 3444 3437 3433 3331 3057 2841 2710 2637 2604 2559 2508 2452 2421 2407 2396 2380 2358 2345 2334 2321 2314 2310 2298 2288 2280 2272 2260 2255 2251 2249 2244 2239 2233 2228 2222 2217 2212 2208 2202 2197 2193 2190 2186 2183 2178 2175 2171 2168 2164 2160 2155 2151 2149 2147 2143 2139 2133 2130 2125 2121 2117 2112 2108 2105 2102 2100 2097 2094 2091 2088 2086 2083 2080 2078 2075 2072 2069 2066 2063 2059 2055 2053 2050 2047 2045 2041 2038 2035 2034 2031 2029 2026 2023 2020 2017 2014 2010 2006 2001 1997 1990 1980 1967 1947 1925 1917 1910 1905 1900 1895 1892 1888 1886 1882 1879 1873 1868 1863 1860 1859 1858 1856 1853 1849 1846 1843 1840 1834 1834 1833 1832 1832 1831 1826 1823 1823 1821 1819 1817 1814 1813 1811 1808 1807 1804 1800 1798 1795 1791 1788 1785 1782 1780 1777 1774 1773 1772 1770 1767 1763 1760 1758 1756 1755 1755 1750 1744 1742 1741 1738 1737 1733 1731 1730 1727 1725 1723 1723 1721 1719 1719 1716 1715 1712 1711 1710 1708 1706 1704 1701 1699 1697 1694 1690 1688 1686 1683 1680 1677 1675 1672 1671 1668 1665 1661 1659 1657 1655 1653 1649 1646 1645 1644 1643 1641 1639 1638 1638 1636 1635 1633 1630 1629 1628 1626 1625 1624 1623 1622 1620 1618 1616 1614 1613 1611 1609 1607 1606 1604 1601 1599 1598 1596 1595 1594 1592 1589 1586 1583 1580 1576 1575 1573 1571 1570 1568 1567 1565 1564 1564 1561 1560 1560 1558 1557 1555 1553 1551 1549 1548 1547 1545 1543 1542 1541 1540 1539 1538 1537 1536 1535 1534 1533 1532 1531 1530 1529 1528 1528 1528 1535 1537 1541 1558 1558 1558 1549 0 0 0 0 0 0 0 0 0 0 0 0 0 0 0 0 0 0 0 0 0 0 0 0 0 0 0 0 0 0 0 0 0 0 0 0 0 0 0 0 0 0 0
3230 3230 3223 3230 3237 3237 3253 3258 3270 3283 3301 3312 3321 3332 3342 3346 3353 3361 3372 3390 3397 3424 3437 3445 3453 3465 3475 3480 3480 3480 3464 3455 3455 3455 3460 3462 3467 3473 3485 3491 3502 3509 3517 3529 3543 3557 3563 3565 3566 3566 3573 3580 3587 3592 3596 3600 3604 3604 3608 3612 3621 3628 3634 3636 3638 3643 3652 3659 3663 3664 3667 3671 3676 3678 3681 3682 3685 3687 3695 3704 3715 3723 3731 3734 3734 3734 3735 3735 3744 3753 3760 3768 3773 3780 3785 3789 3790 3793 3794 3801 3808 3822 3830 3830 3830 3808 3763 3629 3297 2704 0 0 0 0 0 0 0 0 0 0 0 0 0 0 0 0 0 0 0 0 0 0 0 0 0 0 0 0 0 0 0 0 0 0 0 0 0 0 0 0 0 0 0 0 0 0 0 0 0 0 0 0 0 0 0 0 0 0 0 0 0 0 0 0 0 0 0 0 0 0 0 0 0 0 0 0 0 0 0 0 0 0 0 0 0 0 0 0 0 0 0 0 0 0 0 0 0 0 0 0 0 0 0 0 0 0 0 0 0 3445 3775 3792 3885 3925 3945 3945 3945 3940 3940 3940 3958 3962 3962 3962 3907 3874 3852 3852 3852 3852 3853 3853 3853 3850 3850 3848 3847 3845 3842 3839 3833 3833 3833 3833 3837 3837 3837 3837 3845 3845 3845 3844 3842 3842 3844 3855 3869 3869 3869 3867 3859 3851 3851 3854 3851 3851 3847 3847 3847 3850 3852 3857 3853 3853 3862 3862 3854 3854 3835 3782 3782 3782 3815 3875 3875 3875 3867 3860 3705 3529 3431 3401 3352 3263 3051 2841 2704 2629 2604 2564 2513 2455 2433 2415 2392 2371 2352 2338 2327 2316 2310 2309 2296 2286 2275 2266 2260 2255 2250 2248 2243 2238 2231 2226 2220 2215 2211 2207 2201 2196 2192 2188 2185 2181 2178 2174 2170 2167 2163 2160 2154 2151 2148 2145 2142 2137 2133 2128 2125 2121 2117 2112 2108 2105 2102 2100 2097 2094 2090 2088 2086 2082 2080 2078 2075 2072 2069 2066 2062 2059 2055 2053 2050 2047 2045 2041 2038 2035 2033 2031 2029 2026 2023 2020 2017 2014 2010 2006 2001 1997 1990 1980 1967 1948 1928 1917 1910 1905 1900 1895 1893 1891 1887 1883 1880 1876 1873 1871 1870 1867 1860 1858 1857 1855 1849 1844 1842 1839 1838 1837 1836 1834 1833 1829 1826 1824 1823 1820 1818 1815 1813 1812 1810 1808 1805 1802 1800 1797 1792 1790 1788 1785 1782 1779 1778 1774 1773 1770 1768 1767 1765 1761 1759 1758 1756 1752 1748 1745 1743 1742 1739 1736 1734 1732 1731 1729 1727 1725 1723 1721 1720 1718 1715 1713 1712 1711 1709 1707 1704 1702 1700 1698 1696 1692 1689 1687 1685 1681 1679 1677 1675 1673 1671 1668 1664 1662 1660 1658 1656 1653 1650 1648 1647 1645 1643 1641 1640 1639 1637 1635 1634 1632 1630 1628 1627 1626 1625 1624 1623 1620 1619 1618 1616 1614 1612 1610 1609 1606 1605 1602 1601 1599 1597 1597 1594 1592 1590 1587 1586 1583 1580 1577 1574 1573 1572 1569 1569 1567 1567 1566 1563 1563 1561 1560 1559 1557 1555 1553 1550 1549 1548 1547 1544 1543 1543 1542 1541 1540 1540 1537 1537 1535 1535 1533 1533 1531 1531 1529 1529 1529 1537 1542 1552 1552 1552 1541 1511 0 0 0 0 0 0 0 0 0 0 0 0 0 0 0 0 0 0 0 0 0 0 0 0 0 0 0 0 0 0 0 0 0 0 0 0 0 0 0 0 0 0 0
3253 3253 3223 3237 3237 3237 3258 3263 3273 3284 3304 3314 3324 3334 3342 3346 3353 3361 3378 3413 3415 3424 3435 3441 3447 3448 3451 3465 3478 3478 3478 3472 3466 3466 3466 3469 3473 3480 3482 3491 3499 3509 3517 3529 3539 3548 3555 3558 3560 3565 3572 3578 3586 3589 3591 3597 3604 3610 3613 3617 3624 3631 3638 3641 3648 3656 3661 3661 3663 3664 3667 3671 3676 3678 3681 3682 3686 3690 3695 3705 3717 3724 3731 3734 3735 3735 3736 3740 3746 3755 3761 3767 3772 3780 3785 3789 3791 3793 3794 3801 3808 3813 3821 3821 3821 3808 3763 3684 3411 2825 0 0 0 0 0 0 0 0 0 0 0 0 0 0 0 0 0 0 0 0 0 0 0 0 0 0 0 0 0 0 0 0 0 0 0 0 0 0 0 0 0 0 0 0 0 0 0 0 0 0 0 0 0 0 0 0 0 0 0 0 0 0 0 0 0 0 0 0 0 0 0 0 0 0 0 0 0 0 0 0 0 0 0 0 0 0 0 0 0 0 0 0 0 0 0 0 0 0 0 0 0 0 0 0 0 0 0 0 0 3398 3672 3790 3885 3925 3945 3945 3945 3934 3934 3934 3958 3964 3964 3964 3907 3866 3852 3852 3852 3852 3853 3853 3851 3850 3848 3848 3847 3845 3844 3842 3841 3834 3834 3834 3837 3837 3837 3837 3840 3840 3840 3839 3839 3839 3840 3850 3867 3867 3867 3871 3859 3851 3851 3854 3851 3851 3848 3848 3848 3850 3852 3857 3857 3852 3860 3860 3845 3835 3829 3782 3782 3782 3830 3851 3858 3867 3858 3851 3705 3507 3394 3336 3306 3262 3041 2839 2703 2629 2604 2567 2513 2455 2433 2415 2390 2365 2349 2336 2321 2311 2308 2302 2292 2284 2275 2266 2259 2254 2250 2246 2242 2237 2231 2224 2219 2215 2210 2205 2200 2196 2191 2188 2185 2180 2176 2173 2169 2165 2162 2158 2153 2150 2147 2144 2141 2136 2131 2127 2124 2120 2116 2112 2109 2105 2102 2100 2096 2093 2090 2087 2084 2082 2080 2077 2074 2071 2068 2066 2062 2059 2055 2053 2050 2047 2045 2041 2038 2035 2033 2031 2028 2026 2023 2020 2017 2014 2011 2007 2001 1997 1990 1982 1972 1957 1941 1919 1912 1907 1900 1896 1894 1892 1887 1884 1881 1878 1876 1874 1871 1869 1865 1860 1857 1856 1851 1848 1846 1845 1842 1841 1839 1835 1833 1831 1829 1825 1824 1822 1820 1816 1815 1814 1812 1809 1807 1805 1801 1798 1794 1792 1790 1788 1786 1784 1780 1777 1774 1772 1769 1767 1765 1763 1761 1759 1757 1754 1751 1748 1746 1744 1742 1740 1737 1735 1734 1732 1729 1727 1724 1723 1721 1719 1716 1715 1714 1711 1710 1708 1706 1703 1701 1699 1697 1694 1692 1689 1686 1684 1681 1679 1677 1675 1673 1670 1667 1665 1662 1660 1658 1655 1653 1651 1649 1647 1645 1643 1641 1640 1639 1637 1635 1634 1632 1630 1628 1627 1627 1625 1624 1622 1621 1618 1617 1615 1613 1611 1609 1607 1606 1605 1602 1601 1599 1597 1595 1594 1591 1589 1586 1584 1581 1579 1576 1574 1573 1572 1570 1569 1568 1567 1566 1564 1563 1562 1561 1560 1557 1555 1553 1551 1549 1547 1546 1546 1545 1544 1542 1542 1541 1539 1538 1537 1536 1535 1534 1533 1532 1530 1530 1530 1537 1542 1552 1552 1552 1535 1492 0 0 0 0 0 0 0 0 0 0 0 0 0 0 0 0 0 0 0 0 0 0 0 0 0 0 0 0 0 0 0 0 0 0 0 0 0 0 0 0 0 0 0
3253 3253 3230 3230 3230 3230 3259 3264 3283 3294 3305 3316 3324 3334 3342 3346 3353 3361 3378 3413 3415 3423 3423 3423 3426 3427 3427 3444 3465 3477 3477 3477 3472 3472 3472 3476 3480 3482 3482 3491 3499 3509 3517 3522 3523 3531 3540 3549 3553 3563 3572 3578 3585 3585 3589 3596 3603 3610 3617 3619 3624 3631 3638 3641 3648 3656 3661 3661 3662 3663 3666 3670 3676 3678 3681 3682 3686 3691 3699 3705 3715 3723 3731 3734 3735 3735 3738 3743 3749 3757 3762 3767 3772 3780 3785 3789 3795 3797 3801 3804 3808 3813 3815 3815 3815 3808 3788 3685 3564 3001 0 0 0 0 0 0 0 0 0 0 0 0 0 0 0 0 0 0 0 0 0 0 0 0 0 0 0 0 0 0 0 0 0 0 0 0 0 0 0 0 0 0 0 0 0 0 0 0 0 0 0 0 0 0 0 0 0 0 0 0 0 0 0 0 0 0 0 0 0 0 0 0 0 0 0 0 0 0 0 0 0 0 0 0 0 0 0 0 0 0 0 0 0 0 0 0 0 0 0 0 0 0 0 0 0 0 0 0 0 3250 3632 3790 3874 3925 3945 3945 3945 3934 3934 3934 3957 3964 3964 3964 3893 3857 3851 3851 3851 3857 3857 3857 3853 3851 3846 3842 3842 3842 3842 3842 3841 3841 3841 3840 3840 3840 3838 3837 3837 3836 3838 3838 3838 3838 3838 3838 3863 3863 3863 3871 3861 3861 3851 3862 3851 3850 3850 3851 3851 3851 3851 3858 3858 3850 3854 3854 3844 3835 3814 3791 3791 3791 3845 3848 3849 3852 3849 3848 3717 3507 3394 3336 3306 3262 3041 2836 2700 2629 2582 2564 2507 2455 2433 2415 2384 2360 2346 2330 2316 2308 2304 2296 2291 2282 2274 2265 2259 2253 2248 2245 2241 2235 2228 2223 2219 2214 2210 2203 2198 2194 2191 2186 2183 2179 2175 2172 2168 2164 2162 2157 2153 2149 2147 2144 2139 2135 2130 2126 2123 2119 2115 2112 2109 2106 2102 2099 2096 2092 2089 2087 2084 2082 2079 2076 2073 2070 2068 2065 2062 2059 2055 2053 2050 2047 2045 2041 2038 2035 2033 2031 2028 2025 2022 2020 2016 2014 2012 2007 2003 2000 1994 1988 1977 1965 1949 1924 1912 1907 1901 1898 1896 1892 1888 1885 1882 1880 1877 1876 1874 1870 1867 1863 1860 1856 1853 1851 1849 1847 1845 1843 1841 1838 1835 1833 1830 1827 1826 1824 1821 1819 1818 1816 1813 1811 1809 1808 1804 1800 1797 1795 1793 1791 1791 1787 1784 1780 1776 1774 1770 1768 1766 1765 1763 1761 1758 1755 1753 1751 1748 1745 1744 1741 1740 1739 1736 1734 1732 1728 1726 1724 1722 1720 1718 1716 1715 1713 1711 1709 1707 1705 1702 1700 1698 1696 1693 1690 1687 1685 1683 1681 1679 1677 1675 1671 1669 1666 1665 1663 1660 1658 1656 1653 1651 1649 1647 1645 1644 1643 1641 1638 1636 1635 1632 1631 1629 1629 1628 1626 1625 1624 1621 1620 1618 1616 1614 1612 1610 1609 1607 1605 1604 1602 1600 1597 1596 1594 1592 1590 1587 1586 1582 1581 1578 1576 1575 1573 1572 1571 1570 1568 1567 1567 1565 1564 1562 1561 1559 1558 1555 1554 1552 1550 1548 1548 1547 1546 1544 1543 1542 1541 1539 1538 1537 1536 1535 1534 1532 1530 1530 1530 1537 1542 1552 1552 1552 1519 1482 0 0 0 0 0 0 0 0 0 0 0 0 0 0 0 0 0 0 0 0 0 0 0 0 0 0 0 0 0 0 0 0 0 0 0 0 0 0 0 0 0 0 0
3253 3253 3223 3230 3230 3230 3269 3291 3294 3302 3309 3316 3324 3332 3340 3341 3346 3359 3378 3413 3417 3418 3418 3417 3413 3413 3413 3417 3447 3477 3477 3477 3472 3472 3472 3476 3480 3480 3480 3480 3490 3497 3505 3511 3517 3523 3531 3541 3551 3562 3572 3577 3583 3584 3586 3595 3603 3610 3617 3619 3624 3631 3638 3641 3648 3656 3656 3658 3661 3661 3666 3670 3674 3676 3679 3680 3686 3691 3699 3705 3714 3723 3730 3731 3731 3735 3739 3749 3755 3759 3764 3768 3771 3779 3784 3788 3795 3806 3810 3810 3812 3812 3815 3815 3815 3808 3788 3686 3606 3180 2577 0 0 0 0 0 0 0 0 0 0 0 0 0 0 0 0 0 0 0 0 0 0 0 0 0 0 0 0 0 0 0 0 0 0 0 0 0 0 0 0 0 0 0 0 0 0 0 0 0 0 0 0 0 0 0 0 0 0 0 0 0 0 0 0 0 0 0 0 0 0 0 0 0 0 0 0 0 0 0 0 0 0 0 0 0 0 0 0 0 0 0 0 0 0 0 0 0 0 0 0 0 0 0 0 0 0 0 0 0 3632 3790 3869 3910 3936 3945 3945 3945 3945 3947 3954 3962 3962 3962 3875 3857 3851 3851 3851 3858 3858 3858 3857 3851 3846 3842 3842 3842 3843 3843 3843 3843 3843 3840 3840 3840 3837 3834 3834 3834 3841 3841 3841 3838 3838 3838 3839 3859 3859 3867 3859 3859 3853 3855 3853 3853 3852 3852 3852 3852 3852 3857 3857 3844 3844 3837 3829 3796 3787 3787 3787 3798 3846 3846 3848 3848 3846 3835 3722 3507 3394 3336 3306 3262 3041 2827 2694 2617 2581 2558 2504 2439 2413 2398 2372 2355 2341 2325 2313 2306 2297 2292 2288 2280 2273 2265 2258 2251 2247 2243 2237 2233 2227 2221 2217 2212 2207 2201 2196 2193 2189 2186 2182 2178 2175 2170 2166 2163 2159 2156 2152 2149 2147 2144 2139 2135 2130 2125 2121 2117 2114 2111 2109 2106 2102 2099 2096 2092 2089 2086 2083 2081 2078 2075 2072 2069 2067 2064 2061 2058 2055 2053 2050 2047 2045 2041 2038 2035 2033 2030 2028 2025 2022 2018 2016 2014 2012 2009 2005 2000 1995 1989 1980 1969 1954 1928 1912 1909 1906 1902 1897 1892 1889 1885 1883 1881 1879 1877 1875 1872 1868 1865 1861 1858 1855 1854 1851 1849 1847 1845 1843 1840 1837 1835 1832 1830 1828 1825 1824 1821 1819 1818 1815 1814 1812 1810 1806 1802 1799 1797 1795 1793 1792 1790 1786 1782 1779 1777 1774 1771 1769 1767 1765 1762 1761 1758 1755 1754 1750 1748 1746 1745 1743 1741 1739 1736 1734 1730 1728 1725 1723 1722 1720 1718 1715 1714 1712 1710 1707 1706 1704 1702 1699 1697 1694 1691 1689 1686 1684 1683 1680 1679 1676 1674 1671 1669 1667 1665 1662 1660 1658 1655 1653 1651 1650 1648 1646 1645 1644 1641 1638 1636 1634 1632 1631 1630 1629 1627 1626 1625 1623 1621 1619 1617 1615 1613 1611 1610 1609 1607 1605 1603 1600 1598 1596 1595 1593 1591 1589 1586 1583 1582 1581 1579 1577 1576 1573 1573 1571 1569 1569 1568 1567 1566 1564 1563 1561 1560 1558 1556 1554 1552 1551 1549 1548 1547 1546 1545 1544 1542 1542 1540 1539 1538 1536 1535 1533 1533 1533 1534 1534 1534 1534 1534 1522 1500 1479 0 0 0 0 0 0 0 0 0 0 0 0 0 0 0 0 0 0 0 0 0 0 0 0 0 0 0 0 0 0 0 0 0 0 0 0 0 0 0 0 0 0 0
3248 3248 3223 3230 3230 3230 3275 3299 3302 3309 3310 3314 3321 3330 3330 3332 3336 3340 3379 3414 3417 3417 3417 3415 3411 3397 3397 3397 3421 3461 3472 3472 3472 3472 3472 3472 3472 3472 3472 3472 3485 3497 3505 3511 3517 3523 3528 3538 3548 3560 3566 3573 3577 3578 3583 3594 3600 3609 3617 3619 3619 3626 3634 3641 3648 3649 3651 3653 3653 3658 3666 3670 3674 3676 3676 3680 3683 3691 3699 3704 3711 3722 3727 3727 3731 3734 3739 3749 3755 3763 3766 3768 3771 3775 3782 3787 3795 3806 3810 3811 3812 3815 3815 3822 3822 3822 3788 3721 3622 3346 2741 0 0 0 0 0 0 0 0 0 0 0 0 0 0 0 0 0 0 0 0 0 0 0 0 0 0 0 0 0 0 0 0 0 0 0 0 0 0 0 0 0 0 0 0 0 0 0 0 0 0 0 0 0 0 0 0 0 0 0 0 0 0 0 0 0 0 0 0 0 0 0 0 0 0 0 0 0 0 0 0 0 0 0 0 0 0 0 0 0 0 0 0 0 0 0 0 0 0 0 0 0 0 0 0 0 0 0 0 0 3529 3790 3865 3909 3936 3956 3968 3968 3968 3968 3968 3955 3955 3955 3875 3857 3854 3854 3854 3857 3858 3858 3858 3853 3846 3842 3842 3842 3844 3844 3844 3844 3844 3840 3840 3840 3838 3838 3838 3838 3847 3847 3847 3843 3843 3843 3863 3863 3863 3859 3851 3851 3851 3855 3855 3855 3852 3852 3852 3852 3852 3847 3847 3841 3841 3837 3829 3796 3779 3779 3779 3799 3838 3838 3843 3843 3838 3829 3723 3520 3414 3356 3323 3262 3038 2802 2687 2608 2578 2531 2458 2414 2385 2370 2356 2347 2330 2314 2307 2299 2294 2290 2282 2276 2268 2262 2255 2249 2244 2239 2234 2229 2224 2218 2214 2209 2203 2199 2195 2191 2187 2183 2181 2178 2174 2170 2165 2161 2158 2155 2151 2149 2146 2143 2139 2135 2129 2125 2120 2117 2114 2111 2109 2106 2102 2099 2096 2092 2088 2085 2082 2080 2077 2074 2071 2068 2066 2063 2060 2057 2055 2053 2050 2047 2045 2041 2038 2035 2033 2030 2027 2024 2020 2017 2015 2014 2012 2009 2005 2000 1995 1989 1980 1971 1958 1939 1920 1912 1910 1906 1899 1894 1890 1888 1885 1883 1881 1879 1877 1874 1871 1866 1864 1861 1858 1856 1853 1850 1847 1845 1844 1842 1840 1837 1835 1831 1829 1827 1825 1823 1822 1819 1817 1815 1813 1812 1808 1804 1802 1799 1796 1794 1794 1792 1788 1785 1782 1778 1776 1773 1771 1770 1767 1765 1762 1760 1757 1756 1753 1751 1748 1747 1745 1744 1740 1738 1735 1732 1730 1727 1724 1723 1720 1718 1716 1714 1713 1711 1709 1708 1705 1703 1700 1697 1695 1692 1690 1688 1685 1684 1682 1680 1677 1675 1673 1671 1669 1666 1664 1661 1659 1657 1655 1654 1652 1650 1649 1648 1646 1643 1640 1638 1636 1634 1634 1632 1630 1628 1627 1625 1624 1622 1620 1618 1616 1614 1612 1611 1610 1608 1606 1604 1601 1600 1597 1596 1594 1593 1590 1587 1586 1583 1582 1581 1579 1577 1575 1573 1572 1570 1570 1569 1569 1566 1566 1564 1563 1561 1560 1557 1555 1555 1553 1552 1550 1549 1547 1546 1545 1543 1542 1541 1541 1539 1538 1536 1536 1536 1534 1534 1534 1519 1519 1518 1487 1477 1445 0 0 0 0 0 0 0 0 0 0 0 0 0 0 0 0 0 0 0 0 0 0 0 0 0 0 0 0 0 0 0 0 0 0 0 0 0 0 0 0 0 0 0
3230 3230 3230 3230 3230 3233 3275 3299 3302 3309 3310 3314 3319 3319 3319 3319 3319 3327 3376 3414 3416 3416 3416 3414 3406 3395 3395 3395 3415 3426 3447 3453 3459 3466 3470 3470 3470 3467 3467 3467 3485 3497 3505 3511 3517 3523 3528 3534 3542 3545 3552 3556 3561 3565 3579 3589 3598 3608 3609 3611 3614 3620 3628 3633 3642 3644 3644 3645 3650 3658 3666 3670 3674 3675 3675 3676 3680 3688 3698 3704 3711 3722 3726 3727 3731 3732 3739 3749 3756 3763 3768 3768 3771 3774 3778 3785 3789 3806 3811 3811 3813 3816 3816 3822 3826 3826 3826 3753 3639 3473 2838 0 0 0 0 0 0 0 0 0 0 0 0 0 0 0 0 0 0 0 0 0 0 0 0 0 0 0 0 0 0 0 0 0 0 0 0 0 0 0 0 0 0 0 0 0 0 0 0 0 0 0 0 0 0 0 0 0 0 0 0 0 0 0 0 0 0 0 0 0 0 0 0 0 0 0 0 0 0 0 0 0 0 0 0 0 0 0 0 0 0 0 0 0 0 0 0 0 0 0 0 0 0 0 0 0 0 0 0 0 3232 3626 3831 3878 3936 3956 3968 3968 3968 3952 3939 3934 3934 3899 3873 3857 3854 3854 3854 3857 3858 3858 3858 3858 3858 3857 3858 3858 3857 3854 3851 3851 3851 3851 3848 3848 3838 3838 3838 3840 3847 3847 3847 3843 3843 3843 3860 3863 3863 3860 3842 3842 3842 3854 3854 3854 3853 3853 3853 3853 3852 3847 3841 3832 3832 3829 3829 3796 3779 3779 3779 3799 3838 3838 3838 3838 3838 3829 3752 3544 3415 3367 3323 3262 3032 2794 2650 2603 2556 2495 2440 2403 2382 2367 2352 2336 2319 2311 2306 2298 2291 2285 2277 2269 2264 2258 2254 2248 2240 2235 2228 2225 2220 2216 2210 2205 2202 2197 2193 2189 2185 2182 2179 2177 2173 2170 2165 2161 2157 2154 2151 2149 2146 2143 2139 2135 2129 2124 2120 2117 2114 2111 2109 2105 2102 2099 2096 2092 2088 2084 2082 2080 2077 2074 2071 2068 2066 2063 2059 2057 2054 2052 2050 2047 2044 2041 2037 2035 2033 2030 2027 2023 2019 2017 2015 2014 2012 2009 2005 2000 1995 1990 1981 1971 1961 1945 1928 1915 1910 1906 1901 1896 1892 1890 1888 1885 1883 1880 1878 1875 1872 1868 1866 1864 1861 1859 1856 1852 1850 1847 1845 1843 1841 1839 1836 1832 1830 1828 1826 1825 1823 1821 1820 1817 1815 1813 1809 1806 1803 1801 1798 1796 1794 1793 1790 1786 1784 1780 1778 1775 1773 1772 1769 1766 1764 1761 1759 1757 1755 1753 1751 1749 1747 1745 1742 1739 1737 1734 1731 1728 1726 1725 1722 1720 1718 1715 1714 1712 1711 1708 1706 1705 1702 1699 1696 1693 1691 1689 1687 1685 1682 1681 1679 1676 1674 1672 1670 1668 1665 1663 1661 1658 1657 1656 1654 1652 1650 1648 1646 1643 1640 1638 1637 1636 1634 1632 1630 1628 1627 1625 1624 1622 1620 1619 1617 1615 1614 1612 1610 1608 1606 1604 1602 1600 1599 1597 1595 1593 1590 1589 1586 1585 1583 1581 1579 1578 1576 1575 1574 1572 1572 1571 1569 1568 1567 1565 1564 1564 1561 1559 1557 1556 1555 1553 1551 1550 1548 1547 1545 1545 1543 1542 1542 1540 1539 1538 1538 1538 1535 1535 1528 1516 1513 1505 1487 1454 1439 0 0 0 0 0 0 0 0 0 0 0 0 0 0 0 0 0 0 0 0 0 0 0 0 0 0 0 0 0 0 0 0 0 0 0 0 0 0 0 0 0 0 0
3226 3227 3227 3233 3233 3238 3275 3299 3302 3303 3303 3303 3303 3303 3305 3306 3309 3327 3374 3414 3414 3414 3414 3407 3401 3395 3395 3395 3415 3426 3430 3438 3447 3448 3448 3448 3448 3451 3454 3467 3481 3492 3505 3511 3517 3523 3527 3527 3529 3531 3532 3539 3544 3557 3572 3583 3591 3600 3608 3610 3611 3614 3619 3626 3634 3641 3644 3645 3650 3658 3666 3670 3674 3674 3674 3675 3677 3686 3697 3703 3710 3719 3726 3726 3731 3731 3738 3748 3756 3765 3770 3770 3770 3774 3778 3783 3786 3798 3811 3811 3814 3816 3816 3822 3826 3826 3826 3787 3707 3588 3091 0 0 0 0 0 0 0 0 0 0 0 0 0 0 0 0 0 0 0 0 0 0 0 0 0 0 0 0 0 0 0 0 0 0 0 0 0 0 0 0 0 0 0 0 0 0 0 0 0 0 0 0 0 0 0 0 0 0 0 0 0 0 0 0 0 0 0 0 0 0 0 0 0 0 0 0 0 0 0 0 0 0 0 0 0 0 0 0 0 0 0 0 0 0 0 0 0 0 0 0 0 0 0 0 0 0 0 0 0 3069 3457 3789 3849 3897 3934 3968 3968 3968 3930 3928 3925 3907 3894 3873 3857 3854 3854 3854 3857 3867 3867 3867 3867 3867 3867 3871 3871 3871 3863 3851 3851 3851 3848 3845 3840 3837 3840 3840 3840 3856 3856 3856 3845 3845 3845 3856 3856 3856 3847 3839 3839 3839 3853 3853 3854 3853 3851 3851 3854 3851 3843 3843 3835 3835 3832 3824 3809 3780 3780 3780 3799 3833 3835 3838 3835 3833 3827 3752 3556 3419 3377 3323 3211 3006 2791 2644 2561 2526 2488 2435 2401 2382 2365 2350 2333 2319 2310 2301 2290 2283 2276 2272 2268 2262 2256 2249 2243 2239 2232 2226 2222 2220 2215 2209 2205 2200 2196 2191 2188 2185 2182 2178 2176 2172 2169 2165 2161 2157 2153 2151 2149 2146 2143 2137 2133 2128 2124 2120 2117 2114 2111 2108 2105 2102 2098 2095 2092 2087 2084 2081 2079 2077 2073 2070 2067 2064 2061 2059 2056 2054 2051 2048 2046 2044 2040 2037 2034 2032 2030 2027 2023 2019 2016 2014 2013 2012 2009 2005 2000 1996 1991 1983 1972 1963 1948 1930 1917 1912 1906 1902 1897 1894 1891 1890 1887 1884 1882 1880 1877 1874 1871 1869 1867 1865 1863 1860 1856 1853 1849 1847 1845 1843 1840 1837 1834 1832 1830 1828 1826 1825 1824 1820 1818 1816 1813 1810 1808 1806 1802 1800 1799 1795 1794 1791 1788 1785 1782 1780 1776 1775 1773 1772 1768 1766 1764 1762 1758 1756 1754 1753 1750 1748 1746 1744 1741 1738 1735 1733 1730 1728 1726 1723 1721 1719 1717 1716 1714 1712 1710 1708 1706 1703 1701 1698 1695 1692 1691 1689 1687 1684 1682 1679 1678 1676 1673 1672 1670 1668 1665 1662 1660 1658 1656 1655 1653 1650 1649 1646 1644 1642 1639 1637 1636 1634 1632 1631 1629 1627 1626 1624 1623 1621 1619 1618 1616 1615 1612 1610 1608 1606 1604 1602 1600 1599 1597 1595 1594 1591 1589 1588 1585 1584 1582 1580 1579 1576 1575 1574 1574 1573 1572 1570 1569 1568 1566 1566 1565 1563 1561 1559 1558 1556 1554 1552 1551 1550 1549 1548 1546 1545 1544 1543 1542 1540 1538 1538 1538 1538 1538 1525 1514 1511 1505 1487 1438 1417 0 0 0 0 0 0 0 0 0 0 0 0 0 0 0 0 0 0 0 0 0 0 0 0 0 0 0 0 0 0 0 0 0 0 0 0 0 0 0 0 0 0 0
3230 3230 3230 3233 3233 3241 3262 3282 3282 3285 3285 3285 3292 3303 3305 3306 3309 3327 3371 3414 3414 3414 3397 3393 3393 3393 3401 3407 3415 3426 3430 3438 3439 3439 3439 3439 3439 3441 3454 3467 3481 3492 3505 3511 3517 3517 3517 3517 3517 3517 3521 3535 3540 3557 3572 3577 3586 3593 3602 3607 3609 3610 3616 3622 3629 3640 3644 3645 3647 3658 3666 3670 3670 3670 3670 3670 3670 3682 3694 3702 3710 3718 3722 3723 3726 3728 3737 3746 3755 3765 3769 3770 3770 3773 3778 3779 3783 3790 3804 3811 3814 3816 3816 3817 3820 3820 3820 3797 3716 3588 3132 0 0 0 0 0 0 0 0 0 0 0 0 0 0 0 0 0 0 0 0 0 0 0 0 0 0 0 0 0 0 0 0 0 0 0 0 0 0 0 0 0 0 0 0 0 0 0 0 0 0 0 0 0 0 0 0 0 0 0 0 0 0 0 0 0 0 0 0 0 0 0 0 0 0 0 0 0 0 0 0 0 0 0 0 0 0 0 0 0 0 0 0 0 0 0 0 0 0 0 0 0 0 0 0 0 0 0 0 0 3000 3390 3778 3811 3811 3821 3866 3898 3902 3902 3904 3904 3901 3885 3869 3858 3856 3856 3856 3861 3868 3868 3868 3868 3868 3868 3875 3875 3875 3865 3863 3851 3845 3839 3839 3833 3833 3839 3840 3841 3854 3854 3854 3845 3845 3845 3848 3848 3848 3842 3841 3841 3842 3853 3853 3854 3853 3853 3853 3854 3853 3853 3847 3835 3835 3832 3824 3823 3780 3780 3780 3793 3830 3830 3838 3830 3828 3823 3752 3560 3430 3367 3315 3211 3006 2776 2634 2551 2501 2466 2420 2399 2381 2365 2350 2333 2319 2307 2296 2283 2276 2273 2271 2267 2261 2252 2244 2239 2235 2230 2226 2222 2219 2215 2209 2205 2199 2195 2191 2187 2184 2181 2178 2173 2170 2168 2164 2159 2156 2153 2150 2148 2144 2140 2135 2132 2128 2124 2120 2117 2114 2111 2108 2104 2102 2098 2095 2092 2087 2084 2081 2079 2076 2073 2070 2067 2064 2061 2058 2055 2053 2050 2048 2045 2043 2040 2037 2034 2031 2029 2026 2023 2019 2016 2014 2012 2010 2008 2004 2000 1996 1993 1988 1976 1967 1951 1930 1921 1913 1908 1903 1899 1895 1893 1890 1888 1886 1884 1882 1879 1876 1875 1872 1869 1867 1864 1861 1859 1855 1853 1849 1846 1844 1842 1840 1836 1835 1831 1830 1827 1826 1824 1822 1819 1816 1814 1811 1809 1807 1804 1802 1801 1798 1795 1793 1790 1786 1783 1780 1778 1776 1775 1774 1771 1768 1766 1763 1760 1759 1756 1754 1752 1750 1747 1744 1742 1740 1736 1734 1731 1730 1727 1724 1723 1720 1718 1717 1715 1714 1711 1709 1707 1704 1702 1699 1697 1694 1692 1690 1687 1686 1683 1681 1679 1677 1675 1673 1671 1669 1667 1664 1661 1659 1657 1655 1653 1651 1650 1647 1644 1643 1640 1638 1637 1635 1633 1631 1629 1627 1626 1624 1623 1621 1620 1618 1616 1615 1612 1610 1608 1606 1604 1602 1600 1599 1597 1596 1594 1592 1590 1588 1587 1585 1583 1581 1580 1578 1577 1575 1574 1574 1572 1571 1570 1569 1568 1566 1565 1563 1562 1559 1559 1557 1556 1554 1552 1552 1550 1549 1547 1546 1544 1544 1542 1541 1540 1540 1539 1538 1537 1525 1514 1511 1505 1487 1438 0 0 0 0 0 0 0 0 0 0 0 0 0 0 0 0 0 0 0 0 0 0 0 0 0 0 0 0 0 0 0 0 0 0 0 0 0 0 0 0 0 0 0 0
3235 3235 3235 3241 3241 3243 3262 3269 3272 3272 3273 3280 3288 3303 3305 3306 3312 3335 3371 3391 3391 3391 3384 3384 3384 3392 3401 3408 3417 3428 3430 3435 3436 3436 3436 3436 3436 3438 3454 3469 3481 3489 3498 3509 3516 3516 3516 3516 3516 3517 3521 3535 3540 3557 3572 3574 3578 3589 3601 3606 3606 3609 3613 3617 3628 3638 3643 3644 3644 3652 3658 3661 3663 3664 3665 3667 3668 3675 3683 3690 3698 3716 3716 3721 3723 3726 3731 3743 3754 3765 3767 3769 3769 3769 3769 3771 3774 3783 3798 3811 3811 3811 3811 3811 3816 3816 3816 3797 3716 3588 3149 2635 0 0 0 0 0 0 0 0 0 0 0 0 0 0 0 0 0 0 0 0 0 0 0 0 0 0 0 0 0 0 0 0 0 0 0 0 0 0 0 0 0 0 0 0 0 0 0 0 0 0 0 0 0 0 0 0 0 0 0 0 0 0 0 0 0 0 0 0 0 0 0 0 0 0 0 0 0 0 0 0 0 0 0 0 0 0 0 0 0 0 0 0 0 0 0 0 0 0 0 0 0 0 0 0 0 0 0 0 2916 3355 3705 3811 3811 3821 3866 3898 3900 3901 3901 3901 3899 3879 3869 3863 3863 3863 3870 3870 3870 3870 3870 3869 3869 3869 3875 3875 3875 3868 3867 3864 3845 3845 3840 3833 3833 3840 3840 3843 3851 3851 3851 3847 3847 3847 3847 3847 3847 3842 3842 3842 3847 3849 3851 3851 3851 3853 3853 3853 3853 3853 3849 3835 3835 3832 3828 3828 3779 3736 3736 3736 3762 3781 3828 3828 3828 3823 3760 3562 3433 3363 3314 3209 3006 2776 2634 2544 2490 2443 2417 2397 2381 2366 2350 2331 2318 2305 2295 2283 2275 2271 2269 2265 2257 2249 2243 2238 2233 2228 2224 2221 2218 2213 2208 2205 2199 2195 2191 2186 2183 2180 2177 2172 2168 2164 2160 2156 2154 2151 2149 2146 2143 2140 2135 2131 2127 2123 2120 2117 2114 2111 2108 2104 2102 2097 2094 2091 2087 2084 2081 2078 2076 2073 2069 2067 2063 2060 2058 2055 2052 2049 2047 2045 2043 2040 2037 2034 2030 2029 2025 2023 2018 2015 2012 2010 2008 2006 2002 1999 1996 1993 1989 1980 1970 1956 1934 1925 1916 1909 1905 1902 1898 1895 1892 1888 1888 1886 1883 1881 1879 1877 1875 1871 1868 1865 1863 1861 1858 1856 1852 1849 1847 1845 1843 1839 1837 1834 1832 1830 1829 1826 1824 1821 1818 1815 1814 1812 1809 1807 1805 1802 1800 1798 1795 1791 1788 1785 1782 1780 1778 1776 1775 1773 1770 1768 1764 1762 1760 1758 1756 1753 1751 1748 1745 1743 1740 1738 1735 1732 1731 1728 1725 1724 1721 1720 1718 1717 1714 1714 1711 1708 1707 1704 1702 1699 1696 1693 1691 1689 1687 1685 1683 1679 1677 1676 1673 1672 1671 1668 1665 1662 1660 1659 1656 1654 1652 1650 1648 1646 1644 1641 1639 1637 1635 1633 1632 1629 1628 1627 1625 1624 1621 1620 1618 1616 1615 1612 1610 1608 1606 1604 1602 1600 1599 1597 1596 1594 1592 1590 1588 1587 1586 1584 1582 1580 1579 1577 1576 1574 1574 1573 1572 1570 1569 1568 1567 1565 1563 1562 1561 1560 1558 1557 1555 1554 1553 1551 1550 1548 1546 1546 1544 1542 1542 1540 1540 1540 1539 1537 1525 1514 1514 1511 1494 0 0 0 0 0 0 0 0 0 0 0 0 0 0 0 0 0 0 0 0 0 0 0 0 0 0 0 0 0 0 0 0 0 0 0 0 0 0 0 0 0 0 0 0 0
3230 3233 3233 3244 3246 3255 3256 3259 3261 3261 3261 3273 3287 3309 3321 3325 3327 3335 3361 3366 3371 3374 3374 3374 3376 3389 3401 3409 3417 3428 3430 3435 3436 3436 3436 3436 3436 3438 3458 3470 3477 3480 3481 3490 3496 3501 3508 3509 3510 3517 3521 3535 3540 3569 3570 3573 3574 3582 3594 3603 3606 3608 3611 3615 3619 3638 3642 3643 3643 3650 3654 3657 3662 3663 3664 3667 3668 3670 3675 3682 3688 3699 3708 3712 3715 3717 3725 3736 3748 3758 3760 3760 3760 3760 3760 3763 3771 3775 3782 3784 3787 3791 3792 3796 3808 3808 3808 3797 3724 3588 3267 2879 0 0 0 0 0 0 0 0 0 0 0 0 0 0 0 0 0 0 0 0 0 0 0 0 0 0 0 0 0 0 0 0 0 0 0 0 0 0 0 0 0 0 0 0 0 0 0 0 0 0 0 0 0 0 0 0 0 0 0 0 0 0 0 0 0 0 0 0 0 0 0 0 0 0 0 0 0 0 0 0 0 0 0 0 0 0 0 0 0 0 0 0 0 0 0 0 0 0 0 0 0 0 0 0 0 0 0 0 2738 3206 3553 3807 3811 3821 3866 3898 3900 3901 3901 3901 3896 3879 3879 3879 3884 3896 3896 3896 3883 3876 3875 3875 3874 3875 3875 3876 3876 3876 3868 3864 3845 3845 3840 3837 3837 3840 3840 3841 3841 3842 3842 3841 3842 3833 3833 3834 3834 3834 3843 3843 3843 3843 3847 3843 3842 3843 3849 3853 3853 3853 3851 3840 3840 3837 3831 3822 3773 3720 3708 3708 3708 3776 3830 3830 3830 3823 3760 3564 3449 3363 3275 3198 2976 2776 2629 2544 2490 2442 2415 2396 2381 2366 2350 2331 2318 2305 2294 2283 2275 2270 2267 2261 2254 2248 2242 2238 2232 2226 2222 2217 2215 2211 2208 2204 2198 2194 2190 2186 2183 2179 2177 2171 2167 2163 2160 2155 2152 2151 2148 2145 2142 2138 2135 2130 2127 2123 2119 2116 2113 2110 2107 2103 2100 2097 2093 2090 2087 2084 2081 2078 2076 2073 2069 2066 2063 2060 2057 2054 2052 2049 2047 2045 2043 2040 2037 2033 2030 2027 2024 2021 2017 2015 2012 2009 2007 2005 2002 1999 1996 1993 1989 1982 1972 1959 1939 1928 1917 1910 1906 1904 1900 1896 1894 1889 1888 1886 1886 1884 1882 1880 1876 1873 1868 1866 1864 1861 1860 1857 1854 1851 1850 1848 1846 1844 1842 1838 1835 1833 1831 1829 1826 1823 1820 1818 1815 1814 1811 1809 1806 1804 1802 1800 1797 1793 1789 1786 1784 1782 1780 1778 1777 1774 1771 1768 1766 1764 1761 1759 1758 1754 1753 1750 1746 1744 1742 1739 1736 1733 1731 1729 1727 1725 1723 1722 1720 1719 1716 1715 1712 1710 1708 1706 1703 1700 1697 1694 1691 1689 1687 1685 1684 1680 1678 1676 1675 1673 1671 1669 1666 1664 1661 1659 1656 1654 1652 1650 1648 1646 1644 1642 1640 1639 1636 1634 1633 1631 1630 1627 1625 1624 1622 1620 1618 1616 1614 1612 1609 1608 1606 1604 1602 1600 1599 1597 1596 1594 1592 1590 1589 1587 1586 1584 1582 1581 1579 1578 1576 1575 1574 1573 1572 1570 1570 1568 1567 1566 1564 1563 1562 1560 1559 1557 1556 1555 1553 1552 1550 1548 1547 1546 1545 1544 1543 1542 1540 1540 1539 1537 1530 1528 1522 1517 1508 0 0 0 0 0 0 0 0 0 0 0 0 0 0 0 0 0 0 0 0 0 0 0 0 0 0 0 0 0 0 0 0 0 0 0 0 0 0 0 0 0 0 0 0 0
3195 3195 3224 3226 3246 3255 3255 3256 3256 3257 3258 3267 3286 3309 3321 3325 3327 3335 3357 3366 3371 3374 3374 3374 3376 3389 3403 3414 3419 3428 3430 3430 3430 3428 3426 3426 3426 3438 3458 3473 3477 3477 3479 3479 3486 3497 3506 3509 3510 3520 3529 3546 3574 3574 3574 3571 3571 3571 3584 3592 3600 3604 3609 3609 3619 3629 3634 3635 3642 3647 3654 3657 3662 3663 3664 3667 3668 3670 3675 3678 3686 3696 3708 3712 3715 3717 3720 3727 3737 3745 3747 3749 3750 3755 3758 3763 3770 3774 3775 3779 3782 3786 3787 3790 3795 3797 3797 3797 3724 3589 3380 2969 0 0 0 0 0 0 0 0 0 0 0 0 0 0 0 0 0 0 0 0 0 0 0 0 0 0 0 0 0 0 0 0 0 0 0 0 0 0 0 0 0 0 0 0 0 0 0 0 0 0 0 0 0 0 0 0 0 0 0 0 0 0 0 0 0 0 0 0 0 0 0 0 0 0 0 0 0 0 0 0 0 0 0 0 0 0 0 0 0 0 0 0 0 0 0 0 0 0 0 0 0 0 0 0 0 0 0 0 0 3027 3439 3782 3811 3839 3867 3882 3898 3899 3899 3898 3895 3884 3884 3884 3895 3899 3899 3899 3890 3890 3889 3889 3885 3882 3882 3882 3883 3883 3883 3868 3854 3854 3848 3847 3847 3843 3833 3833 3833 3834 3834 3834 3824 3824 3813 3813 3813 3828 3832 3843 3843 3843 3845 3843 3840 3843 3843 3843 3853 3853 3844 3844 3844 3843 3831 3820 3770 3715 3695 3695 3695 3763 3833 3833 3833 3830 3767 3565 3460 3363 3275 3191 2966 2769 2629 2543 2490 2442 2413 2394 2379 2366 2349 2325 2313 2301 2293 2284 2275 2270 2264 2260 2252 2247 2242 2237 2232 2224 2220 2214 2210 2207 2205 2202 2197 2193 2189 2186 2182 2179 2176 2171 2167 2162 2159 2155 2152 2149 2147 2144 2141 2138 2134 2130 2126 2123 2119 2115 2112 2108 2106 2103 2099 2097 2093 2089 2086 2084 2081 2078 2076 2073 2069 2066 2062 2059 2057 2054 2051 2048 2047 2044 2042 2039 2036 2033 2029 2026 2023 2020 2017 2014 2011 2009 2006 2003 2001 1999 1996 1993 1989 1984 1976 1964 1944 1931 1919 1913 1909 1904 1900 1897 1894 1891 1888 1888 1886 1885 1884 1881 1878 1875 1871 1868 1866 1863 1861 1859 1856 1853 1852 1851 1849 1847 1844 1841 1839 1836 1834 1831 1828 1825 1823 1820 1818 1815 1813 1812 1809 1807 1804 1802 1800 1797 1794 1790 1788 1784 1781 1781 1778 1775 1772 1769 1767 1764 1762 1760 1759 1756 1753 1751 1748 1745 1742 1740 1737 1734 1731 1731 1729 1727 1726 1725 1722 1719 1717 1716 1715 1712 1709 1706 1704 1701 1698 1695 1692 1690 1688 1686 1685 1683 1680 1678 1676 1674 1671 1669 1666 1664 1661 1659 1656 1654 1652 1650 1648 1646 1644 1642 1641 1639 1636 1635 1633 1631 1630 1627 1625 1624 1622 1620 1618 1616 1614 1611 1608 1608 1605 1604 1601 1600 1599 1597 1595 1594 1592 1590 1589 1587 1586 1584 1582 1581 1580 1578 1577 1576 1574 1573 1572 1571 1570 1569 1568 1566 1565 1564 1562 1561 1560 1558 1557 1556 1554 1552 1552 1550 1548 1546 1546 1545 1543 1542 1542 1540 1540 1536 1535 1531 1524 1523 1510 0 0 0 0 0 0 0 0 0 0 0 0 0 0 0 0 0 0 0 0 0 0 0 0 0 0 0 0 0 0 0 0 0 0 0 0 0 0 0 0 0 0 0 0 0
3168 3168 3202 3231 3246 3255 3256 3256 3256 3257 3259 3267 3285 3309 3324 3325 3327 3332 3357 3366 3371 3374 3374 3374 3376 3389 3403 3414 3419 3419 3420 3420 3420 3416 3416 3416 3426 3438 3460 3477 3477 3477 3477 3477 3486 3497 3506 3510 3519 3528 3542 3565 3574 3574 3574 3573 3573 3573 3582 3586 3593 3597 3598 3604 3615 3629 3634 3635 3640 3647 3654 3657 3662 3666 3668 3669 3669 3670 3675 3678 3686 3696 3708 3712 3716 3717 3719 3722 3728 3735 3743 3749 3750 3755 3758 3763 3770 3774 3775 3779 3782 3785 3786 3787 3788 3797 3797 3797 3724 3589 3457 3033 0 0 0 0 0 0 0 0 0 0 0 0 0 0 0 0 0 0 0 0 0 0 0 0 0 0 0 0 0 0 0 0 0 0 0 0 0 0 0 0 0 0 0 0 0 0 0 0 0 0 0 0 0 0 0 0 0 0 0 0 0 0 0 0 0 0 0 0 0 0 0 0 0 0 0 0 0 0 0 0 0 0 0 0 0 0 0 0 0 0 0 0 0 0 0 0 0 0 0 0 0 0 0 0 0 0 0 0 0 2950 3396 3751 3811 3854 3867 3882 3898 3899 3899 3898 3886 3884 3884 3884 3895 3899 3899 3899 3890 3890 3889 3889 3885 3885 3885 3886 3901 3901 3901 3876 3865 3856 3855 3855 3854 3847 3833 3833 3829 3829 3829 3829 3822 3806 3792 3792 3792 3828 3834 3836 3836 3837 3837 3837 3838 3840 3840 3840 3853 3853 3844 3844 3844 3843 3831 3820 3768 3713 3691 3691 3691 3762 3822 3835 3835 3835 3775 3565 3465 3363 3275 3191 2966 2769 2627 2539 2484 2439 2403 2387 2378 2366 2339 2323 2313 2301 2292 2284 2275 2269 2264 2257 2251 2246 2240 2236 2230 2224 2218 2213 2208 2205 2202 2199 2195 2191 2187 2184 2181 2177 2175 2170 2167 2162 2159 2155 2152 2149 2145 2143 2140 2137 2133 2129 2126 2123 2119 2115 2112 2108 2104 2101 2099 2096 2093 2089 2086 2084 2081 2078 2076 2073 2069 2065 2062 2059 2056 2054 2051 2048 2045 2044 2042 2038 2035 2032 2029 2026 2023 2019 2017 2013 2011 2009 2006 2003 2001 1998 1996 1993 1989 1984 1980 1969 1950 1934 1924 1916 1912 1907 1903 1899 1896 1895 1893 1891 1889 1886 1885 1882 1879 1877 1873 1871 1868 1865 1863 1861 1858 1856 1856 1855 1852 1849 1847 1843 1841 1838 1835 1831 1828 1826 1824 1822 1819 1817 1816 1814 1812 1809 1806 1804 1802 1799 1796 1793 1790 1787 1783 1781 1779 1776 1772 1769 1767 1765 1764 1763 1760 1756 1754 1752 1751 1748 1744 1742 1739 1736 1733 1731 1731 1730 1729 1727 1724 1722 1719 1717 1715 1713 1710 1709 1707 1704 1702 1698 1695 1692 1688 1686 1685 1683 1680 1678 1676 1674 1671 1669 1666 1664 1661 1658 1656 1654 1652 1649 1648 1646 1644 1642 1641 1639 1636 1635 1633 1631 1630 1627 1625 1624 1622 1620 1618 1616 1613 1610 1608 1607 1605 1602 1601 1598 1597 1595 1593 1592 1591 1590 1589 1587 1586 1585 1583 1581 1580 1579 1578 1576 1575 1574 1572 1571 1570 1569 1568 1566 1565 1564 1563 1561 1561 1559 1558 1556 1555 1553 1553 1551 1549 1547 1546 1546 1544 1544 1542 1541 1540 1540 1536 1535 1527 1523 1514 0 0 0 0 0 0 0 0 0 0 0 0 0 0 0 0 0 0 0 0 0 0 0 0 0 0 0 0 0 0 0 0 0 0 0 0 0 0 0 0 0 0 0 0 0
3168 3168 3202 3231 3246 3252 3254 3254 3255 3257 3259 3267 3285 3307 3319 3324 3329 3332 3357 3382 3382 3382 3382 3382 3383 3393 3407 3419 3419 3419 3420 3420 3420 3414 3414 3414 3426 3438 3463 3484 3484 3484 3484 3484 3486 3497 3506 3516 3526 3540 3552 3565 3574 3574 3574 3571 3571 3571 3582 3586 3593 3597 3598 3604 3615 3629 3634 3635 3640 3647 3659 3668 3669 3672 3672 3672 3672 3672 3675 3678 3686 3696 3708 3717 3719 3719 3720 3720 3725 3735 3743 3749 3750 3755 3759 3767 3770 3774 3775 3779 3782 3785 3786 3787 3788 3802 3802 3802 3758 3645 3560 3175 2701 0 0 0 0 0 0 0 0 0 0 0 0 0 0 0 0 0 0 0 0 0 0 0 0 0 0 0 0 0 0 0 0 0 0 0 0 0 0 0 0 0 0 0 0 0 0 0 0 0 0 0 0 0 0 0 0 0 0 0 0 0 0 0 0 0 0 0 0 0 0 0 0 0 0 0 0 0 0 0 0 0 0 0 0 0 0 0 0 0 0 0 0 0 0 0 0 0 0 0 0 0 0 0 0 0 0 0 0 0 3273 3612 3819 3854 3867 3882 3897 3899 3899 3897 3886 3884 3884 3884 3895 3899 3899 3899 3890 3890 3889 3889 3885 3885 3885 3910 3911 3911 3911 3876 3865 3856 3855 3855 3854 3837 3833 3828 3828 3828 3828 3826 3811 3803 3792 3792 3792 3834 3836 3836 3836 3836 3836 3836 3837 3838 3838 3838 3853 3853 3844 3844 3844 3843 3831 3820 3761 3704 3686 3686 3686 3760 3821 3835 3835 3835 3783 3573 3472 3469 3304 3191 2940 2753 2613 2537 2484 2438 2394 2377 2369 2351 2334 2323 2313 2301 2292 2284 2275 2269 2262 2256 2251 2245 2237 2233 2228 2221 2217 2211 2206 2204 2200 2197 2194 2191 2187 2183 2179 2176 2173 2170 2166 2162 2159 2155 2152 2147 2145 2141 2139 2135 2132 2129 2126 2122 2118 2115 2111 2108 2104 2101 2098 2095 2092 2089 2086 2084 2081 2078 2076 2073 2069 2065 2061 2058 2055 2053 2050 2048 2045 2042 2040 2038 2035 2032 2029 2026 2022 2019 2016 2013 2011 2008 2006 2003 2000 1998 1995 1992 1988 1985 1980 1972 1957 1939 1927 1921 1915 1910 1908 1903 1901 1899 1896 1894 1890 1887 1885 1884 1881 1878 1876 1874 1872 1869 1866 1863 1861 1859 1859 1857 1856 1851 1848 1846 1842 1838 1836 1833 1830 1828 1825 1822 1819 1817 1817 1816 1814 1812 1809 1806 1804 1802 1799 1795 1792 1790 1786 1783 1781 1778 1775 1771 1769 1768 1765 1763 1760 1757 1754 1753 1752 1749 1746 1742 1740 1737 1736 1734 1733 1732 1730 1727 1726 1724 1720 1718 1717 1714 1711 1711 1709 1707 1706 1701 1697 1693 1689 1687 1685 1683 1680 1678 1676 1674 1671 1669 1666 1663 1660 1657 1655 1653 1651 1649 1647 1646 1644 1642 1641 1638 1636 1635 1633 1631 1630 1627 1625 1623 1621 1619 1617 1615 1612 1610 1608 1606 1603 1601 1599 1598 1596 1595 1593 1592 1590 1590 1588 1587 1586 1585 1583 1581 1580 1579 1578 1577 1575 1573 1572 1571 1570 1569 1568 1566 1565 1564 1563 1562 1561 1559 1559 1557 1556 1554 1553 1552 1550 1548 1547 1546 1544 1544 1544 1544 1540 1540 1537 1536 1530 1523 1515 0 0 0 0 0 0 0 0 0 0 0 0 0 0 0 0 0 0 0 0 0 0 0 0 0 0 0 0 0 0 0 0 0 0 0 0 0 0 0 0 0 0 0 0 0
3168 3168 3202 3229 3229 3231 3240 3252 3255 3258 3259 3266 3285 3301 3315 3324 3326 3332 3353 3382 3382 3382 3382 3382 3386 3398 3410 3419 3419 3419 3420 3420 3420 3414 3414 3414 3433 3438 3466 3484 3484 3484 3484 3484 3486 3499 3513 3527 3538 3547 3552 3565 3569 3570 3573 3574 3575 3578 3582 3586 3593 3597 3598 3604 3615 3631 3637 3637 3642 3658 3666 3668 3669 3672 3674 3675 3676 3676 3678 3680 3689 3696 3708 3718 3719 3720 3722 3723 3725 3735 3743 3750 3759 3771 3775 3776 3777 3777 3779 3781 3784 3785 3788 3788 3788 3802 3802 3802 3784 3687 3586 3337 2928 0 0 0 0 0 0 0 0 0 0 0 0 0 0 0 0 0 0 0 0 0 0 0 0 0 0 0 0 0 0 0 0 0 0 0 0 0 0 0 0 0 0 0 0 0 0 0 0 0 0 0 0 0 0 0 0 0 0 0 0 0 0 0 0 0 0 0 0 0 0 0 0 0 0 0 0 0 0 0 0 0 0 0 0 0 0 0 0 0 0 0 0 0 0 0 0 0 0 0 0 0 0 0 0 0 0 0 0 0 3152 3536 3785 3854 3855 3863 3866 3876 3878 3878 3878 3876 3876 3876 3885 3895 3895 3895 3894 3890 3889 3889 3885 3885 3885 3910 3933 3933 3933 3876 3865 3854 3854 3854 3843 3837 3834 3833 3833 3834 3834 3833 3811 3803 3792 3792 3792 3834 3842 3842 3842 3835 3820 3819 3819 3819 3825 3833 3853 3853 3841 3841 3841 3838 3831 3819 3761 3703 3649 3649 3649 3710 3754 3816 3816 3816 3775 3589 3472 3469 3358 3186 2927 2739 2598 2506 2452 2420 2386 2368 2361 2342 2330 2323 2314 2302 2292 2284 2275 2268 2261 2254 2249 2245 2237 2232 2227 2221 2216 2211 2206 2202 2199 2196 2193 2191 2187 2182 2179 2176 2172 2170 2165 2163 2159 2155 2152 2147 2143 2140 2137 2135 2132 2129 2125 2122 2118 2114 2110 2107 2103 2100 2098 2095 2093 2089 2086 2083 2081 2078 2076 2072 2068 2065 2061 2057 2055 2051 2049 2047 2045 2042 2039 2037 2035 2031 2028 2025 2022 2018 2015 2013 2011 2008 2005 2003 2000 1997 1994 1991 1987 1985 1980 1975 1962 1945 1936 1926 1920 1916 1912 1908 1905 1902 1899 1896 1893 1890 1887 1884 1882 1880 1879 1878 1875 1871 1866 1864 1861 1861 1860 1859 1858 1856 1852 1849 1843 1840 1838 1835 1832 1829 1825 1823 1820 1818 1817 1816 1815 1813 1810 1807 1807 1805 1800 1795 1793 1790 1788 1786 1783 1781 1779 1773 1771 1771 1767 1764 1760 1757 1756 1754 1753 1751 1746 1743 1741 1739 1737 1734 1734 1733 1733 1731 1728 1725 1721 1721 1720 1715 1712 1712 1710 1709 1708 1707 1699 1693 1690 1687 1685 1684 1681 1679 1674 1671 1670 1667 1666 1663 1658 1655 1654 1651 1649 1647 1646 1644 1643 1641 1639 1636 1635 1634 1632 1631 1629 1627 1624 1622 1620 1619 1616 1614 1611 1609 1606 1604 1601 1600 1599 1597 1595 1593 1591 1590 1590 1589 1588 1587 1586 1585 1583 1581 1580 1579 1578 1577 1575 1573 1572 1571 1569 1569 1567 1566 1565 1564 1563 1562 1561 1560 1559 1558 1556 1555 1553 1552 1552 1549 1547 1546 1545 1544 1544 1544 1541 1540 1537 1536 1530 1521 1515 0 0 0 0 0 0 0 0 0 0 0 0 0 0 0 0 0 0 0 0 0 0 0 0 0 0 0 0 0 0 0 0 0 0 0 0 0 0 0 0 0 0 0 0 0
3194 3194 3229 3235 3235 3231 3235 3235 3255 3256 3258 3260 3285 3297 3314 3324 3324 3331 3353 3382 3382 3382 3382 3382 3386 3400 3410 3419 3419 3419 3424 3424 3424 3416 3416 3416 3440 3445 3466 3484 3484 3484 3484 3484 3492 3506 3524 3534 3544 3549 3554 3560 3567 3572 3573 3574 3576 3585 3591 3594 3597 3598 3600 3609 3623 3631 3637 3643 3648 3658 3666 3668 3669 3672 3674 3679 3680 3680 3682 3686 3689 3697 3708 3718 3723 3723 3725 3725 3725 3735 3747 3757 3764 3771 3780 3780 3781 3781 3783 3784 3786 3788 3788 3789 3790 3803 3803 3803 3791 3738 3631 3469 2975 0 0 0 0 0 0 0 0 0 0 0 0 0 0 0 0 0 0 0 0 0 0 0 0 0 0 0 0 0 0 0 0 0 0 0 0 0 0 0 0 0 0 0 0 0 0 0 0 0 0 0 0 0 0 0 0 0 0 0 0 0 0 0 0 0 0 0 0 0 0 0 0 0 0 0 0 0 0 0 0 0 0 0 0 0 0 0 0 0 0 0 0 0 0 0 0 0 0 0 0 0 0 0 0 0 0 0 0 0 3013 3432 3785 3835 3840 3848 3851 3851 3864 3872 3873 3875 3876 3876 3879 3883 3883 3889 3889 3889 3889 3889 3885 3885 3885 3910 3933 3933 3933 3876 3860 3850 3849 3843 3838 3838 3838 3838 3838 3833 3820 3818 3811 3803 3792 3792 3792 3834 3838 3838 3838 3809 3776 3776 3776 3803 3819 3823 3823 3832 3832 3832 3838 3838 3828 3819 3760 3687 3625 3616 3616 3616 3695 3765 3775 3775 3775 3589 3479 3472 3358 3186 2926 2732 2581 2492 2443 2407 2385 2367 2354 2339 2330 2322 2314 2302 2292 2279 2271 2264 2259 2253 2248 2243 2237 2231 2225 2220 2215 2211 2206 2201 2198 2195 2193 2190 2186 2182 2178 2176 2172 2169 2165 2163 2159 2155 2152 2147 2143 2140 2137 2134 2131 2129 2125 2122 2117 2113 2110 2107 2103 2100 2098 2095 2093 2089 2086 2083 2080 2078 2076 2072 2068 2065 2061 2057 2054 2051 2048 2046 2043 2041 2038 2036 2034 2031 2027 2025 2022 2018 2015 2013 2011 2008 2005 2002 1999 1997 1993 1990 1987 1985 1981 1976 1963 1948 1940 1932 1925 1920 1915 1913 1908 1904 1900 1899 1898 1896 1893 1890 1888 1885 1883 1881 1876 1873 1867 1864 1862 1862 1861 1861 1860 1857 1854 1851 1845 1842 1842 1841 1836 1831 1827 1824 1821 1818 1818 1817 1816 1815 1813 1810 1809 1807 1802 1796 1793 1791 1791 1788 1787 1783 1780 1776 1775 1771 1769 1766 1764 1760 1758 1756 1754 1751 1747 1745 1743 1743 1741 1737 1736 1735 1735 1735 1733 1731 1729 1725 1722 1716 1715 1713 1710 1710 1710 1708 1707 1701 1694 1690 1685 1684 1681 1679 1674 1671 1670 1667 1666 1661 1657 1655 1653 1651 1648 1646 1644 1643 1641 1639 1636 1635 1635 1634 1632 1630 1629 1626 1623 1621 1620 1618 1615 1613 1610 1607 1604 1601 1600 1599 1598 1595 1593 1591 1589 1587 1587 1587 1586 1586 1585 1584 1583 1581 1580 1579 1578 1577 1575 1573 1572 1571 1569 1569 1567 1566 1565 1564 1563 1562 1561 1560 1559 1558 1557 1556 1554 1553 1552 1549 1547 1546 1546 1545 1544 1544 1541 1538 1537 1537 1530 1521 1515 0 0 0 0 0 0 0 0 0 0 0 0 0 0 0 0 0 0 0 0 0 0 0 0 0 0 0 0 0 0 0 0 0 0 0 0 0 0 0 0 0 0 0 0 0
3226 3226 3231 3235 3235 3231 3235 3235 3255 3256 3259 3265 3282 3290 3307 3324 3324 3331 3350 3368 3369 3374 3374 3379 3387 3402 3410 3413 3417 3419 3424 3424 3424 3428 3428 3428 3445 3449 3465 3482 3482 3482 3484 3484 3497 3512 3527 3536 3544 3549 3552 3559 3567 3570 3572 3575 3580 3586 3591 3597 3602 3603 3604 3611 3623 3631 3637 3643 3648 3658 3663 3666 3667 3669 3674 3680 3688 3690 3690 3692 3693 3697 3705 3718 3725 3730 3734 3734 3734 3742 3752 3758 3764 3771 3780 3780 3781 3781 3783 3784 3786 3788 3790 3794 3797 3805 3816 3816 3816 3774 3676 3563 3086 0 0 0 0 0 0 0 0 0 0 0 0 0 0 0 0 0 0 0 0 0 0 0 0 0 0 0 0 0 0 0 0 0 0 0 0 0 0 0 0 0 0 0 0 0 0 0 0 0 0 0 0 0 0 0 0 0 0 0 0 0 0 0 0 0 0 0 0 0 0 0 0 0 0 0 0 0 0 0 0 0 0 0 0 0 0 0 0 0 0 0 0 0 0 0 0 0 0 0 0 0 0 0 0 0 0 0 0 0 0 3250 3608 3817 3838 3843 3846 3846 3864 3872 3873 3875 3875 3875 3875 3875 3873 3875 3875 3889 3889 3889 3885 3873 3873 3873 3900 3900 3900 3876 3860 3850 3849 3843 3838 3838 3838 3838 3838 3833 3833 3832 3820 3814 3788 3788 3788 3834 3834 3834 3833 3802 3758 3758 3758 3762 3791 3800 3809 3813 3825 3825 3825 3826 3826 3813 3751 3680 3620 3590 3590 3590 3647 3716 3760 3760 3760 3589 3476 3439 3358 3180 2926 2730 2578 0 2440 2406 2383 2365 2348 2337 2329 2322 2314 2302 2287 2277 2268 2262 2256 2251 2248 2242 2235 2229 2224 2219 2215 2210 2206 2201 2198 2194 2192 2190 2186 2182 2178 2176 2172 2168 2165 2163 2159 2155 2151 2147 2142 2140 2137 2134 2131 2128 2124 2120 2116 2113 2110 2106 2103 2100 2097 2095 2092 2089 2085 2082 2080 2078 2075 2072 2068 2064 2061 2057 2054 2051 2048 2046 2042 2040 2037 2035 2033 2031 2027 2024 2021 2018 2015 2013 2011 2007 2005 2001 1998 1995 1993 1990 1987 1985 1981 1976 1968 1952 1941 1935 1928 1923 1920 1918 1913 1908 1902 1900 1899 1899 1895 1893 1892 1890 1887 1883 1881 1876 1871 1868 1864 1864 1864 1863 1861 1858 1856 1853 1848 1845 1843 1842 1838 1834 1829 1824 1822 1820 1820 1819 1818 1818 1817 1817 1813 1809 1802 1798 1796 1795 1794 1792 1789 1785 1782 1777 1775 1772 1769 1767 1766 1765 1763 1760 1756 1755 1750 1748 1746 1746 1744 1740 1736 1736 1736 1736 1736 1735 1733 1729 1727 1724 1720 1718 1715 1713 1710 1710 1709 1703 1700 1692 1688 1685 1682 1679 1674 1671 1670 1667 1666 1661 1657 1655 1653 1650 1648 1645 1643 1642 1638 1635 1635 1634 1634 1634 1632 1630 1627 1625 1623 1621 1619 1616 1613 1610 1607 1604 1603 1600 1599 1599 1595 1593 1591 1589 1587 1587 1587 1585 1585 1584 1583 1582 1582 1581 1580 1579 1578 1576 1575 1573 1571 1570 1569 1568 1567 1566 1565 1564 1563 1562 1561 1560 1559 1559 1558 1556 1554 1553 1552 1549 1548 1547 1547 1545 1544 1543 1542 1541 1540 1538 1530 1521 1514 0 0 0 0 0 0 0 0 0 0 0 0 0 0 0 0 0 0 0 0 0 0 0 0 0 0 0 0 0 0 0 0 0 0 0 0 0 0 0 0 0 0 0 0 0
3226 3226 3229 3235 3235 3230 3235 3235 3255 3256 3259 3271 3279 3281 3292 3305 3317 3328 3342 3357 3358 3360 3368 3371 3387 3402 3404 3409 3409 3413 3427 3429 3430 3432 3433 3437 3448 3449 3465 3471 3476 3476 3480 3481 3500 3514 3528 3536 3544 3549 3551 3558 3565 3569 3569 3575 3580 3586 3591 3597 3604 3611 3611 3617 3624 3631 3635 3643 3648 3658 3661 3662 3663 3667 3673 3680 3688 3690 3691 3696 3697 3699 3703 3715 3725 3734 3739 3739 3742 3746 3752 3758 3764 3768 3776 3780 3782 3783 3784 3784 3786 3788 3790 3794 3799 3805 3818 3818 3818 3791 3716 3585 3213 2563 0 0 0 0 0 0 0 0 0 0 0 0 0 0 0 0 0 0 0 0 0 0 0 0 0 0 0 0 0 0 0 0 0 0 0 0 0 0 0 0 0 0 0 0 0 0 0 0 0 0 0 0 0 0 0 0 0 0 0 0 0 0 0 0 0 0 0 0 0 0 0 0 0 0 0 0 0 0 0 0 0 0 0 0 0 0 0 0 0 0 0 0 0 0 0 0 0 0 0 0 0 0 0 0 0 0 0 0 0 2986 3524 3787 3838 3843 3845 3845 3864 3864 3867 3872 3872 3867 3867 3869 3869 3869 3873 3890 3890 3890 3873 3856 3856 3856 3889 3895 3895 3895 3872 3860 3850 3849 3838 3838 3838 3838 3838 3828 3828 3828 3820 3818 3775 3775 3775 3826 3826 3826 3805 3773 3738 3703 3624 3614 3614 3614 3681 3732 3751 3810 3810 3810 3801 3766 3751 3671 3617 3590 3590 3590 3641 3693 3708 3708 3708 3574 3469 3405 3323 3170 2915 2718 2572 0 2440 2404 2379 2362 2347 2337 2326 2316 2305 2293 2286 2277 2268 2262 2256 2251 2246 2240 2233 2229 2223 2218 2214 2210 2206 2201 2198 2194 2192 2188 2185 2182 2179 2176 2172 2168 2164 2161 2158 2154 2151 2147 2142 2140 2136 2133 2130 2127 2124 2120 2116 2113 2109 2106 2103 2100 2097 2095 2092 2089 2085 2082 2080 2077 2074 2071 2068 2064 2060 2057 2053 2049 2047 2044 2042 2039 2037 2035 2033 2030 2027 2024 2021 2018 2015 2013 2011 2007 2004 2001 1998 1995 1993 1990 1988 1985 1982 1976 1970 1960 1943 1937 1931 1927 1925 1923 1920 1915 1908 1903 1902 1901 1900 1899 1897 1893 1890 1888 1887 1886 1885 1882 1875 1872 1868 1866 1863 1861 1859 1856 1854 1851 1846 1842 1839 1835 1833 1829 1824 1824 1824 1823 1823 1823 1823 1821 1821 1815 1808 1800 1798 1798 1798 1795 1793 1787 1783 1779 1777 1773 1770 1767 1766 1766 1765 1763 1761 1758 1754 1750 1750 1748 1748 1743 1741 1741 1741 1741 1741 1741 1737 1733 1729 1727 1724 1721 1719 1715 1713 1712 1710 1705 1701 1699 1696 1692 1687 1679 1674 1671 1670 1669 1663 1659 1656 1653 1651 1650 1647 1645 1643 1641 1636 1633 1633 1633 1632 1632 1632 1629 1625 1622 1620 1619 1619 1615 1611 1608 1605 1603 1601 1600 1596 1593 1590 1587 1586 1586 1586 1585 1585 1584 1584 1583 1583 1582 1581 1581 1580 1579 1577 1576 1574 1572 1571 1570 1569 1568 1567 1565 1565 1564 1563 1562 1561 1560 1559 1559 1558 1557 1555 1553 1552 1551 1549 1547 1547 1545 1544 1541 1541 1541 1540 1538 1530 1521 1508 0 0 0 0 0 0 0 0 0 0 0 0 0 0 0 0 0 0 0 0 0 0 0 0 0 0 0 0 0 0 0 0 0 0 0 0 0 0 0 0 0 0 0 0 0
3226 3226 3227 3235 3235 3235 3248 3255 3261 3268 3273 3275 3275 3279 3281 3282 3295 3314 3339 3348 3348 3352 3364 3369 3385 3398 3400 3409 3409 3413 3427 3434 3439 3440 3442 3445 3448 3448 3448 3449 3452 3452 3464 3481 3501 3514 3529 3536 3544 3547 3550 3555 3559 3564 3568 3575 3580 3586 3591 3597 3604 3616 3622 3623 3625 3631 3635 3640 3640 3650 3656 3656 3661 3667 3673 3680 3688 3690 3691 3696 3697 3699 3703 3713 3723 3734 3739 3741 3742 3746 3752 3758 3760 3767 3770 3778 3782 3783 3784 3785 3786 3788 3790 3794 3799 3805 3816 3816 3816 3806 3735 3616 3342 2799 0 0 0 0 0 0 0 0 0 0 0 0 0 0 0 0 0 0 0 0 0 0 0 0 0 0 0 0 0 0 0 0 0 0 0 0 0 0 0 0 0 0 0 0 0 0 0 0 0 0 0 0 0 0 0 0 0 0 0 0 0 0 0 0 0 0 0 0 0 0 0 0 0 0 0 0 0 0 0 0 0 0 0 0 0 0 0 0 0 0 0 0 0 0 0 0 0 0 0 0 0 0 0 0 0 0 0 0 0 2824 3349 3786 3793 3833 3840 3843 3865 3865 3865 3876 3869 3864 3860 3869 3869 3869 3873 3890 3890 3890 3868 3852 3852 3852 3868 3892 3902 3902 3902 3891 3869 3850 3835 3835 3835 3820 3820 3818 3818 3818 3818 3818 3748 3748 3748 3749 3750 3750 3749 3740 3695 3665 3624 3614 3614 3614 3633 3644 3669 3711 3738 3738 3738 3683 3646 3633 3617 3590 3590 3590 3641 3693 3699 3699 3699 3570 3462 3382 3290 3108 2894 2699 2562 0 2440 2404 2382 2357 2344 2332 2322 2310 2302 2292 2284 2277 2268 2262 2256 2251 2246 2239 2233 2229 2222 2217 2212 2209 2205 2201 2198 2194 2191 2188 2184 2181 2178 2176 2172 2167 2164 2161 2155 2153 2150 2146 2141 2138 2136 2132 2128 2126 2124 2120 2116 2113 2109 2106 2103 2100 2096 2093 2090 2088 2083 2081 2078 2076 2073 2070 2067 2063 2059 2056 2052 2049 2046 2044 2042 2039 2036 2034 2032 2030 2027 2024 2020 2018 2015 2013 2011 2007 2005 2001 1998 1995 1993 1990 1988 1986 1982 1978 1973 1965 1953 1938 1933 1929 1929 1928 1924 1921 1914 1907 1907 1906 1905 1905 1901 1897 1895 1893 1891 1891 1890 1887 1880 1877 1875 1873 1873 1873 1872 1868 1867 1859 1856 1847 1842 1840 1837 1832 1829 1829 1829 1829 1829 1826 1825 1823 1823 1821 1812 1804 1803 1802 1802 1800 1794 1791 1786 1783 1782 1777 1773 1772 1769 1769 1769 1768 1766 1762 1757 1755 1755 1753 1753 1753 1753 1749 1749 1749 1746 1746 1746 1742 1739 1735 1729 1726 1721 1716 1715 1715 1713 1711 1706 1702 1699 1693 1687 1679 1675 1671 1670 1669 1662 1658 1655 1649 1645 1643 1643 1642 1640 1638 1635 1632 1632 1631 1631 1631 1630 1627 1623 1621 1620 1619 1617 1614 1610 1606 1602 1601 1597 1592 1588 1586 1584 1582 1581 1581 1581 1582 1582 1583 1583 1583 1582 1581 1581 1580 1579 1578 1577 1575 1574 1572 1571 1570 1569 1568 1567 1565 1565 1564 1563 1562 1561 1560 1560 1559 1559 1557 1555 1554 1552 1551 1549 1547 1547 1546 1544 1541 1541 1541 1541 1540 1533 1521 1503 0 0 0 0 0 0 0 0 0 0 0 0 0 0 0 0 0 0 0 0 0 0 0 0 0 0 0 0 0 0 0 0 0 0 0 0 0 0 0 0 0 0 0 0 0
3226 3226 3226 3231 3248 3248 3253 3257 3257 3268 3279 3280 3280 3279 3275 3275 3275 3298 3330 3338 3346 3349 3349 3354 3375 3392 3395 3409 3409 3413 3427 3440 3445 3446 3446 3446 3445 3444 3442 3437 3437 3437 3456 3480 3501 3520 3528 3530 3533 3538 3543 3547 3549 3550 3556 3560 3568 3575 3585 3595 3604 3617 3622 3623 3625 3631 3635 3635 3640 3647 3653 3655 3660 3665 3671 3680 3680 3686 3691 3696 3699 3700 3703 3713 3723 3734 3739 3741 3742 3746 3749 3754 3757 3765 3770 3778 3784 3784 3785 3785 3786 3788 3790 3794 3799 3804 3813 3834 3834 3834 3788 3643 3448 2878 0 0 0 0 0 0 0 0 0 0 0 0 0 0 0 0 0 0 0 0 0 0 0 0 0 0 0 0 0 0 0 0 0 0 0 0 0 0 0 0 0 0 0 0 0 0 0 0 0 0 0 0 0 0 0 0 0 0 0 0 0 0 0 0 0 0 0 0 0 0 0 0 0 0 0 0 0 0 0 0 0 0 0 0 0 0 0 0 0 0 0 0 0 0 0 0 0 0 0 0 0 0 0 0 0 0 0 0 0 2765 3139 3575 3793 3828 3844 3859 3871 3871 3871 3864 3858 3858 3853 3853 3859 3869 3897 3897 3897 3886 3863 3846 3846 3846 3862 3872 3885 3891 3891 3891 3869 3850 3835 3833 3809 3809 3805 3805 3803 3796 3778 3728 3728 3728 3734 3749 3750 3750 3749 3740 3695 3665 3624 3614 3614 3614 3614 3633 3637 3656 3694 3694 3694 3613 3613 3611 3600 3600 3611 3611 3641 3693 3693 3693 3667 3526 3452 3358 3265 3083 2858 2678 2556 2483 2440 2404 2382 2357 2337 2328 2321 2310 2302 2292 2284 2277 2272 2266 2258 2252 2246 2239 2233 2228 2222 2216 2212 2209 2206 2201 2198 2194 2191 2187 2184 2181 2179 2176 2172 2167 2163 2159 2155 2151 2147 2144 2141 2137 2134 2131 2128 2125 2123 2119 2116 2113 2109 2106 2102 2099 2095 2093 2090 2087 2083 2080 2077 2074 2071 2069 2065 2063 2059 2055 2052 2049 2046 2043 2041 2039 2036 2033 2032 2029 2027 2023 2020 2018 2015 2013 2011 2008 2005 2002 1999 1996 1994 1992 1990 1987 1984 1980 1973 1968 1962 1957 1950 1945 1942 1941 1941 1941 1941 1939 1938 1934 1930 1930 1930 1925 1921 1920 1920 1920 1920 1918 1917 1915 1913 1911 1911 1911 1918 1918 1918 1901 1878 1878 1876 1874 1874 1871 1868 1862 1860 1855 1848 1843 1842 1841 1840 1840 1826 1821 1821 1821 1821 1821 1815 1811 1808 1808 1807 1803 1799 0 0 0 1788 1786 1781 0 0 0 0 0 0 0 0 1790 1769 1761 1756 1752 1747 1745 1739 1736 1732 1727 1727 1727 1729 1735 1735 1735 1731 1716 1703 1694 1687 1679 1675 1670 1668 1667 1660 1653 1646 1643 1638 1635 1634 1634 1634 1634 1633 1631 1629 1628 1626 1625 1625 1623 1622 1620 1619 1618 1616 1614 1609 1603 1601 1599 1596 1591 1585 1583 1581 1580 1578 1577 1577 1577 1577 1577 1577 1577 1576 1576 1576 1577 1577 1577 1576 1575 1574 1571 1570 1570 1568 1567 1566 1565 1565 1563 1563 1562 1561 1560 1560 1559 1559 1557 1555 1554 1554 1549 1548 1547 1546 1545 1544 1541 1541 1541 1539 1537 1533 1521 1497 0 0 0 0 0 0 0 0 0 0 0 0 0 0 0 0 0 0 0 0 0 0 0 0 0 0 0 0 0 0 0 0 0 0 0 0 0 0 0 0 0 0 0 0 0
3224 3226 3226 3226 3231 3248 3253 3257 3266 3268 3280 3282 3282 3282 3275 3275 3275 3286 3319 3329 3335 3336 3336 3352 3358 3377 3395 3409 3419 3426 3432 3448 3448 3448 3448 3448 3448 3442 3442 3436 3436 3436 3453 3480 3501 3520 3527 3527 3528 3529 3539 3543 3545 3546 3546 3549 3557 3567 3580 3594 3604 3617 3622 3623 3625 3630 3633 3635 3639 3646 3652 3655 3658 3663 3668 3673 3680 3683 3689 3696 3699 3702 3704 3713 3723 3730 3738 3741 3741 3744 3747 3753 3757 3765 3770 3778 3784 3785 3786 3786 3788 3789 3790 3793 3794 3798 3804 3822 3822 3822 3812 3709 3564 2878 0 0 0 0 0 0 0 0 0 0 0 0 0 0 0 0 0 0 0 0 0 0 0 0 0 0 0 0 0 0 0 0 0 0 0 0 0 0 0 0 0 0 0 0 0 0 0 0 0 0 0 0 0 0 0 0 0 0 0 0 0 0 0 0 0 0 0 0 0 0 0 0 0 0 0 0 0 0 0 0 0 0 0 0 0 0 0 0 0 0 0 0 0 0 0 0 0 0 0 0 0 0 0 0 0 0 0 0 0 0 2948 3448 3792 3828 3857 3871 3871 3871 3871 3864 3843 3843 3843 3859 3888 3913 3913 3913 3900 3866 3846 3841 3841 3841 3849 3856 3877 3891 3891 3891 3869 3833 3809 3797 3745 3700 3700 3700 3762 3762 3762 3728 3728 3728 3734 3749 3750 3750 3749 3740 3695 3675 3665 3660 3653 3644 3637 3637 3637 3641 3651 3651 3651 3576 3576 3576 3615 3627 3639 3640 3681 3715 3715 3715 3648 3519 3440 3357 3265 3082 2852 2674 2554 2483 2442 2412 2379 2357 2336 2326 2320 2310 2301 2291 2284 2277 2272 2266 2258 2252 2246 2239 2233 2228 2222 2216 2212 2209 2205 2202 2198 2194 2191 2187 2184 2181 2179 2176 2172 2167 2162 2158 2154 2150 2146 2143 2139 2137 2133 2131 2128 2125 2122 2119 2116 2112 2108 2106 2101 2099 2095 2091 2088 2086 2082 2078 2075 2073 2070 2068 2065 2062 2059 2055 2052 2049 2046 2043 2041 2038 2035 2033 2030 2028 2025 2023 2020 2018 2016 2013 2011 2008 2005 2003 2000 1997 1996 1993 1991 1989 1984 1981 1976 1972 1966 1964 1964 1963 1963 1963 1963 1963 1961 1961 1959 1951 1951 1951 1950 1950 1944 1940 1939 1936 1936 1936 1940 1942 1942 1942 1941 1941 1941 1941 1941 1941 1937 1937 1937 1935 1935 1935 1934 1933 1925 1914 1914 1914 0 0 0 0 0 0 0 0 0 0 0 0 0 0 0 0 0 0 0 0 0 0 0 0 0 0 0 0 0 0 0 1840 1807 1785 1763 1753 1751 1750 1749 1749 1749 1749 1764 1784 1793 1793 1793 1768 1744 1720 1703 1694 1687 1679 1673 1666 1660 1653 1646 1641 1635 1630 1628 1627 1626 1625 1625 1625 1621 1620 1620 1620 1620 1619 1619 1619 1618 1618 1617 1616 1614 1611 1607 1602 1600 1598 1595 1590 1583 1579 1578 1577 1575 1574 1574 1574 1574 1574 1575 1574 1574 1574 1574 1574 1574 1574 1574 1572 1571 1570 1570 1569 1568 1567 1566 1565 1564 1563 1563 1561 1561 1561 1560 1560 1559 1557 1555 1554 1554 1549 1548 1546 1544 1543 1541 1539 1539 1539 1536 1536 1533 1509 0 0 0 0 0 0 0 0 0 0 0 0 0 0 0 0 0 0 0 0 0 0 0 0 0 0 0 0 0 0 0 0 0 0 0 0 0 0 0 0 0 0 0 0 0 0
3208 3218 3218 3219 3219 3221 3236 3249 3257 3257 3280 3282 3282 3282 3266 3266 3266 3286 3306 3324 3324 3328 3329 3345 3352 3370 3392 3409 3419 3426 3432 3448 3450 3450 3450 3446 3445 3441 3438 3431 3431 3431 3449 3479 3501 3520 3521 3525 3527 3528 3533 3541 3544 3544 3545 3547 3550 3559 3573 3591 3604 3617 3619 3621 3625 3630 3631 3633 3635 3641 3648 3653 3657 3662 3667 3672 3680 3683 3689 3696 3699 3702 3706 3716 3722 3728 3733 3736 3736 3739 3747 3753 3757 3765 3772 3778 3784 3785 3786 3786 3788 3789 3790 3793 3793 3798 3804 3822 3822 3822 3812 3727 3573 3052 0 0 0 0 0 0 0 0 0 0 0 0 0 0 0 0 0 0 0 0 0 0 0 0 0 0 0 0 0 0 0 0 0 0 0 0 0 0 0 0 0 0 0 0 0 0 0 0 0 0 0 0 0 0 0 0 0 0 0 0 0 0 0 0 0 0 0 0 0 0 0 0 0 0 0 0 0 0 0 0 0 0 0 0 0 0 0 0 0 0 0 0 0 0 0 0 0 0 0 0 0 0 0 0 0 0 0 0 0 0 2931 3367 3785 3821 3876 3898 3898 3898 3884 3857 3839 3839 3839 3872 3909 3919 3919 3919 3897 3866 3843 3834 3833 3833 3833 3852 3852 3852 3845 3793 3752 3752 3745 3745 3745 3700 3700 3700 3762 3762 3762 3738 3738 3738 3762 3781 3781 3781 3781 3740 3687 3687 3687 3699 3699 3699 3677 3641 3641 3641 3641 3641 3611 3558 3558 3558 3614 3627 3639 3640 3681 3713 3713 3713 3648 3519 3432 3343 3254 3082 2852 2669 2551 2480 2442 2412 2377 2357 2336 2326 2319 2310 2301 2291 2284 2277 2272 2266 2258 2252 2246 2239 2233 2228 2222 2216 2212 2209 2205 2202 2198 2195 2191 2187 2184 2181 2178 2175 2172 2166 2162 2158 2153 2150 2146 2143 2139 2136 2133 2130 2127 2124 2120 2118 2115 2111 2108 2104 2101 2097 2094 2090 2088 2085 2082 2078 2075 2073 2070 2068 2065 2062 2059 2055 2052 2049 2046 2043 2040 2038 2035 2032 2029 2027 2025 2022 2020 2018 2016 2013 2011 2008 2006 2003 2001 1999 1997 1994 1991 1989 1985 1982 1978 1976 1974 1973 1972 1972 1972 1972 1970 1969 1968 1965 1962 1961 1961 1960 1960 1960 1960 1957 1954 1954 1954 1955 1955 1955 1953 1952 1952 1952 1959 1959 1959 1959 1951 1951 1951 1951 1953 1953 1953 1953 1953 1950 1950 1950 1953 1955 1955 1956 1956 1956 1956 1953 1950 1947 1945 0 0 0 0 0 0 0 0 0 0 0 0 0 1940 1940 1940 1936 1934 1923 1890 1860 1829 1810 1787 1762 1759 1759 1759 1765 1783 1793 1800 1818 1818 1818 1793 1768 1744 1720 1703 1694 1685 1678 1667 1656 1650 1645 1640 1634 1630 1627 1627 1623 1621 1621 1621 1619 1618 1617 1616 1616 1615 1615 1615 1616 1616 1616 1614 1613 1610 1607 1604 1602 1600 1598 1595 1590 1583 1577 1576 1575 1574 1572 1571 1571 1571 1571 1572 1572 1572 1572 1572 1572 1572 1572 1572 1572 1571 1569 1569 1569 1568 1567 1566 1565 1564 1563 1563 1563 1562 1561 1561 1561 1561 1558 1555 1554 1552 1546 1544 1543 1542 1542 1540 1537 1536 1536 1533 0 0 0 0 0 0 0 0 0 0 0 0 0 0 0 0 0 0 0 0 0 0 0 0 0 0 0 0 0 0 0 0 0 0 0 0 0 0 0 0 0 0 0 0 0 0 0 0 0
3208 3218 3218 3219 3219 3221 3229 3229 3257 3257 3261 3266 3266 3276 3276 3276 3276 3286 3306 3311 3317 3322 3328 3345 3350 3365 3384 3404 3419 3426 3432 3448 3450 3450 3450 3445 3443 3441 3437 3431 3431 3431 3447 3473 3501 3512 3512 3514 3514 3519 3525 3540 3540 3543 3543 3547 3547 3552 3563 3583 3602 3613 3614 3615 3620 3626 3628 3629 3631 3634 3641 3650 3658 3662 3667 3672 3680 3683 3689 3695 3698 3702 3713 3718 3722 3727 3730 3732 3735 3738 3747 3753 3761 3769 3773 3778 3783 3784 3786 3786 3788 3789 3789 3792 3793 3798 3804 3818 3818 3818 3812 3733 3603 3248 0 0 0 0 0 0 0 0 0 0 0 0 0 0 0 0 0 0 0 0 0 0 0 0 0 0 0 0 0 0 0 0 0 0 0 0 0 0 0 0 0 0 0 0 0 0 0 0 0 0 0 0 0 0 0 0 0 0 0 0 0 0 0 0 0 0 0 0 0 0 0 0 0 0 0 0 0 0 0 0 0 0 0 0 0 0 0 0 0 0 0 0 0 0 0 0 0 0 0 0 0 0 0 0 0 0 0 0 0 0 2919 3210 3639 3821 3876 3898 3898 3898 3884 3839 3838 3838 3838 3872 3909 3919 3919 3919 3896 3865 3843 3834 3833 3833 3827 3833 3826 3815 3815 3793 3752 3752 3745 3745 3745 3700 3700 3700 3762 3762 3762 3762 3762 3762 3762 3781 3781 3781 3781 3740 3687 3687 3687 3699 3699 3699 3677 3641 3641 3641 3641 3641 3601 3558 3558 3558 3614 3627 3639 3640 3681 3698 3698 3698 3648 3526 3427 3341 3254 3075 2842 2668 2543 2475 2442 2412 2377 2357 2336 2326 2319 2310 2301 2291 2282 2275 2268 2262 2257 2251 2246 2239 2233 2228 2222 2216 2213 2209 2206 2202 2198 2195 2191 2187 2184 2181 2177 2174 2171 2166 2162 2157 2152 2149 2146 2143 2139 2136 2133 2130 2126 2123 2120 2117 2115 2110 2107 2102 2099 2096 2093 2090 2087 2084 2080 2078 2075 2073 2070 2067 2065 2062 2058 2055 2052 2049 2046 2043 2040 2037 2034 2031 2029 2027 2025 2022 2020 2018 2016 2014 2011 2008 2007 2004 2003 1999 1997 1994 1992 1989 1985 1984 1982 1981 1980 1980 1979 1978 1977 1976 1975 1974 1973 1970 1970 1966 1966 1966 1967 1967 1967 1966 1965 1965 1965 1966 1966 1966 1966 1967 1968 1968 1968 1968 1967 1963 1959 1959 1959 1960 1961 1961 1961 1961 1959 1958 1958 1958 1961 1965 1965 1966 1966 1966 1963 1961 1958 1955 1952 1952 1952 1955 1955 1955 1955 1955 1955 1955 1955 1953 1950 1950 1949 1949 1949 1946 1946 1940 1927 1905 1856 1822 1802 1774 1773 1773 1773 1790 1799 1811 1827 1827 1827 1818 1793 1768 1744 1720 1697 1685 1676 1663 1659 1653 1646 1641 1636 1629 1624 1624 1623 1620 1619 1618 1618 1618 1616 1615 1615 1614 1613 1613 1613 1613 1613 1613 1613 1610 1608 1606 1604 1602 1599 1597 1594 1590 1583 1577 1576 1575 1574 1572 1570 1569 1569 1570 1569 1569 1569 1569 1569 1570 1571 1571 1571 1570 1569 1567 1567 1567 1567 1567 1567 1565 1564 1563 1563 1563 1565 1565 1565 1564 1563 1560 1555 1550 1544 1542 1541 1541 1539 0 0 0 0 0 0 0 0 0 0 0 0 0 0 0 0 0 0 0 0 0 0 0 0 0 0 0 0 0 0 0 0 0 0 0 0 0 0 0 0 0 0 0 0 0 0 0 0 0 0 0 0 0 0 0
3201 3212 3205 3212 3212 3221 3229 3229 3234 3234 3234 3240 3254 3261 3261 3266 3276 3281 3300 3306 3308 3314 3328 3341 3345 3358 3368 3373 3396 3410 3422 3433 3444 3444 3444 3433 3384 3357 3357 3357 3360 3375 3401 3413 3464 3481 3482 3483 3483 3491 3509 3522 3535 3540 3543 3547 3547 3550 3562 3579 3596 3599 3602 3603 3611 3620 3626 3627 3628 3630 3640 3647 3658 3662 3668 3672 3681 3690 3694 3695 3698 3702 3713 3718 3723 3727 3728 3729 3730 3738 3747 3756 3765 3769 3773 3777 3779 3780 3781 3783 3786 3787 3788 3792 3793 3800 3808 3818 3818 3818 3799 3742 3618 3374 2760 0 0 0 0 0 0 0 0 0 0 0 0 0 0 0 0 0 0 0 0 0 0 0 0 0 0 0 0 0 0 0 0 0 0 0 0 0 0 0 0 0 0 0 0 0 0 0 0 0 0 0 0 0 0 0 0 0 0 0 0 0 0 0 0 0 0 0 0 0 0 0 0 0 0 0 0 0 0 0 0 0 0 0 0 0 0 0 0 0 0 0 0 0 0 0 0 0 0 0 0 0 0 0 0 0 0 0 0 0 2777 3061 3620 3797 3876 3898 3898 3898 3857 3825 3825 3825 3830 3872 3894 3894 3894 3858 3836 3833 3829 3824 3824 3824 3823 3823 3817 3815 3815 3793 3752 3752 3752 3794 3799 3802 3825 3838 3838 3838 3810 3765 3762 3762 3762 3765 3765 3765 3730 3701 3687 3687 3687 3699 3699 3699 3677 3637 3637 3637 3635 3635 3601 3558 3558 3558 3563 3575 3584 3608 3698 3698 3698 3698 3656 3557 3413 3320 3247 3061 2842 2663 2532 2463 2432 2391 2373 2357 2336 2326 2319 2310 2300 2286 2276 2268 2260 2255 2251 2249 2245 2240 2233 2228 2221 2216 2213 2209 2206 2203 2199 2195 2190 2187 2184 2181 2177 2172 2169 2165 2161 2157 2151 2149 2146 2142 2138 2135 2132 2129 2126 2123 2120 2116 2112 2109 2106 2102 2099 2095 2092 2090 2087 2084 2080 2077 2075 2073 2070 2067 2065 2062 2058 2055 2052 2049 2046 2043 2040 2037 2034 2031 2029 2027 2025 2022 2020 2018 2016 2014 2011 2010 2007 2005 2003 1999 1997 1995 1992 1989 1986 1984 1983 1983 1982 1982 1982 1981 1980 1979 1977 1977 1975 1974 1973 1970 1969 1969 1969 1971 1971 1971 1970 1970 1970 1971 1971 1971 1970 1970 1970 1970 1969 1969 1967 1963 1962 1962 1962 1963 1963 1963 1962 1961 1961 1961 1963 1964 1969 1969 1969 1969 1968 1968 1967 1967 1964 1961 1958 1956 1956 1956 1957 1958 1961 1961 1961 1961 1961 1961 1958 1956 1955 1954 1954 1954 1952 1951 1937 1920 1890 1837 1823 1807 1807 1807 1811 0 0 1862 1862 1862 1845 1818 1772 1744 1718 1693 1679 1678 1669 1662 1658 1652 1643 1635 1626 1621 1616 1614 1614 1614 1614 1614 1614 1614 1615 1615 1614 1614 1612 1612 1611 1611 1611 1611 1611 1609 1608 1606 1604 1600 1599 1597 1594 1591 1585 1577 1576 1575 1574 1572 1569 1569 1569 1569 1569 1568 1566 1566 1566 1567 1569 1569 1569 1569 1568 1567 1567 1567 1567 1567 1567 1565 1564 1563 1563 1563 1565 1566 1566 1566 1564 1561 1555 1550 1544 1541 1541 1541 0 0 0 0 0 0 0 0 0 0 0 0 0 0 0 0 0 0 0 0 0 0 0 0 0 0 0 0 0 0 0 0 0 0 0 0 0 0 0 0 0 0 0 0 0 0 0 0 0 0 0 0 0 0 0 0
3198 3203 3203 3205 3205 3211 3221 3221 3228 3228 3233 3233 3233 3237 3245 3252 3276 3281 3300 3302 3307 3311 3326 3328 3329 3333 3339 3343 3355 3367 3390 3390 3390 3370 3362 3356 3354 3356 3356 3357 3360 3361 3376 3376 3385 3385 3385 3396 3421 3457 3480 3500 3518 3536 3543 3545 3547 3550 3562 3579 3588 3590 3591 3593 3604 3618 3626 3626 3627 3630 3636 3646 3658 3669 3682 3686 3692 3693 3694 3694 3697 3702 3713 3718 3724 3724 3726 3727 3728 3735 3747 3756 3765 3769 3772 3773 3774 3775 3778 3778 3778 3779 3781 3783 3793 3800 3808 3813 3813 3813 3795 3747 3635 3547 2925 0 0 0 0 0 0 0 0 0 0 0 0 0 0 0 0 0 0 0 0 0 0 0 0 0 0 0 0 0 0 0 0 0 0 0 0 0 0 0 0 0 0 0 0 0 0 0 0 0 0 0 0 0 0 0 0 0 0 0 0 0 0 0 0 0 0 0 0 0 0 0 0 0 0 0 0 0 0 0 0 0 0 0 0 0 0 0 0 0 0 0 0 0 0 0 0 0 0 0 0 0 0 0 0 0 0 0 0 0 0 2932 3528 3796 3868 3898 3898 3898 3851 3810 3810 3810 3822 3846 3846 3846 3842 3833 3826 3826 3824 3823 3824 3823 3819 3823 3812 3812 3812 3804 3795 3795 3795 3798 3808 3809 3828 3838 3838 3838 3810 3765 3762 3762 3756 3755 3748 3719 3698 3680 3650 3650 3650 3686 3686 3686 3632 3632 3632 3647 3647 3647 3601 3579 3563 3563 3563 3572 3584 3608 3698 3698 3698 3698 3667 3557 3393 3291 3206 3061 2842 2645 2532 2463 2425 2388 2372 2357 2336 2325 2319 2307 2298 2284 2273 2264 2259 2254 2250 2246 2245 2240 2234 2228 2220 2216 2213 2209 2207 2203 2199 2195 2190 2187 2184 2179 2175 2171 2167 2164 2161 2156 2151 2148 2145 2142 2138 2135 2131 2128 2125 2122 2119 2116 2112 2108 2105 2101 2098 2095 2092 2090 2087 2084 2079 2077 2075 2073 2070 2067 2065 2061 2058 2054 2051 2048 2045 2042 2039 2036 2034 2031 2028 2027 2025 2022 2020 2018 2016 2014 2012 2010 2007 2005 2003 2000 1997 1995 1992 1990 1988 1986 1984 1984 1984 1984 1984 1984 1983 1981 1978 1977 1977 1976 1976 1975 1972 1972 1972 1972 1973 1973 1973 1973 1973 1973 1973 1973 1972 1972 1971 1970 1970 1970 1967 1966 1966 1966 1967 1967 1967 1966 1965 1965 1964 1964 1965 1967 1970 1970 1970 1970 1969 1968 1968 1967 1967 1964 1962 1959 1958 1958 1958 1959 1962 1963 1964 1965 1965 1965 1963 1961 1961 1961 1960 1959 1957 1955 1948 1939 1917 1881 1851 1839 1835 1835 0 0 0 0 1913 1876 1845 1789 1754 1718 1690 1671 1667 1665 1664 1661 1653 1646 1631 1622 1615 1608 1605 1605 1605 1607 1610 1610 1611 1611 1613 1613 1613 1613 1612 1611 1609 1609 1609 1609 1609 1609 1608 1606 1604 1600 1599 1598 1594 1592 1588 1581 1577 1577 1576 1575 1570 1568 1568 1566 1565 1564 1564 1564 1565 1567 1568 1568 1568 1567 1566 1566 1566 1567 1567 1567 1567 1565 1564 1563 1563 1563 1564 1566 1566 1566 1566 1564 1557 1550 1544 1541 1540 1538 0 0 0 0 0 0 0 0 0 0 0 0 0 0 0 0 0 0 0 0 0 0 0 0 0 0 0 0 0 0 0 0 0 0 0 0 0 0 0 0 0 0 0 0 0 0 0 0 0 0 0 0 0 0 0 0
2980 2980 2985 3017 3083 3100 3155 3207 3211 3213 3218 3213 3211 3147 3147 3147 3157 3229 3284 3285 3296 3298 3298 3319 3323 3323 3330 3330 3330 3326 3326 3320 3316 3313 3313 3313 3318 3350 3350 3352 3354 3361 3369 3369 3369 3369 3369 3396 3396 3403 3409 3412 3471 3516 3538 3539 3542 3544 3561 3575 3575 3576 3585 3585 3601 3614 3624 3626 3626 3627 3632 3646 3662 3677 3686 3687 3692 3693 3694 3694 3697 3702 3712 3718 3724 3724 3725 3728 3728 3730 3746 3756 3765 3768 3768 3768 3768 3768 3768 3769 3770 3771 3771 3773 3783 3800 3805 3805 3805 3804 3794 3760 3685 3591 3064 0 0 0 0 0 0 0 0 0 0 0 0 0 0 0 0 0 0 0 0 0 0 0 0 0 0 0 0 0 0 0 0 0 0 0 0 0 0 0 0 0 0 0 0 0 0 0 0 0 0 0 0 0 0 0 0 0 0 0 0 0 0 0 0 0 0 0 0 0 0 0 0 0 0 0 0 0 0 0 0 0 0 0 0 0 0 0 0 0 0 0 0 0 0 0 0 0 0 0 0 0 0 0 0 0 0 0 0 0 0 2862 3244 3666 3778 3782 3788 3804 3819 3819 3819 3822 3823 3846 3846 3846 3828 3825 3824 3824 3819 3819 3819 3807 3807 3807 3805 3817 3817 3817 3814 3814 3812 3812 3812 3819 3828 3838 3838 3838 3810 3765 3753 3747 3739 3739 3728 3713 3698 3680 3647 3636 3636 3636 3636 3636 3635 3635 3635 3655 3655 3655 3643 3641 3637 3596 3584 3584 3584 3608 3698 3734 3734 3734 3701 3557 3369 3274 3198 3031 2821 2633 2532 2463 2423 2388 2372 2353 2336 2325 2319 2306 2293 2279 2271 2264 2259 2254 2250 2246 2245 2240 2234 2228 2219 2216 2213 2210 2207 2203 2199 2195 2190 2187 2184 2179 2175 2170 2166 2163 2160 2156 2151 2148 2145 2142 2138 2135 2131 2128 2125 2122 2119 2115 2111 2107 2105 2101 2098 2095 2092 2089 2087 2084 2079 2077 2075 2073 2070 2067 2064 2061 2058 2054 2051 2048 2044 2041 2038 2036 2034 2031 2028 2027 2025 2023 2020 2018 2016 2014 2012 2010 2008 2005 2003 2000 1997 1995 1993 1992 1990 1988 1986 1985 1985 1984 1984 1984 1983 1981 1980 1979 1979 1977 1977 1977 1976 1974 1974 1974 1974 1975 1975 1975 1975 1974 1974 1974 1974 1973 1973 1971 1970 1970 1969 1969 1969 1969 1970 1970 1970 1968 1967 1966 1966 1966 1966 1968 1970 1970 1970 1970 1969 1969 1968 1968 1967 1966 1963 1960 1959 1959 1959 1959 1962 1963 1964 1965 1965 1965 1965 1965 1965 1965 1964 1963 1959 1955 1955 1952 1943 1930 0 0 0 0 0 1934 1934 1934 0 0 0 1767 1733 1694 1668 1661 1661 1661 1658 1651 1648 1638 1625 1618 1608 1603 1601 1601 1601 1603 1605 1606 1606 1607 1607 1608 1608 1608 1608 1607 1604 1604 1604 1606 1607 1607 1606 1605 1604 1603 1602 1600 1600 1593 1589 1583 1581 1580 1577 1577 1573 1568 1566 1564 1563 1563 1563 1563 1564 1564 1565 1566 1566 1566 1566 1566 1567 1567 1567 1567 1567 1565 1564 1563 1563 1563 1564 1566 1567 1567 1566 1565 1558 1550 1543 1540 1535 0 0 0 0 0 0 0 0 0 0 0 0 0 0 0 0 0 0 0 0 0 0 0 0 0 0 0 0 0 0 0 0 0 0 0 0 0 0 0 0 0 0 0 0 0 0 0 0 0 0 0 0 0 0 0 0 0
2778 2778 2830 2868 2918 3022 3107 3107 3107 3102 3102 3102 3107 3107 3107 3046 3046 3046 3138 3187 3198 3198 3198 3161 3117 3114 3113 3113 3113 3115 3184 3225 3232 3241 3263 3276 3316 3348 3349 3352 3360 3361 3361 3366 3366 3366 3366 3366 3361 3314 3314 3314 3395 3408 3465 3524 3526 3544 3561 3574 3574 3576 3579 3579 3592 3608 3615 3616 3617 3621 3631 3646 3664 3679 3686 3687 3692 3692 3693 3694 3697 3702 3712 3718 3724 3724 3725 3726 3726 3726 3736 3750 3757 3761 3761 3761 3761 3762 3763 3765 3767 3768 3769 3771 3779 3790 3796 3796 3796 3795 3794 3765 3703 3618 3310 2779 0 0 0 0 0 0 0 0 0 0 0 0 0 0 0 0 0 0 0 0 0 0 0 0 0 0 0 0 0 0 0 0 0 0 0 0 0 0 0 0 0 0 0 0 0 0 0 0 0 0 0 0 0 0 0 0 0 0 0 0 0 0 0 0 0 0 0 0 0 0 0 0 0 0 0 0 0 0 0 0 0 0 0 0 0 0 0 0 0 0 0 0 0 0 0 0 0 0 0 0 0 0 0 0 0 0 0 0 0 0 3177 3451 3693 3761 3778 3810 3819 3828 3822 3828 3829 3846 3846 3846 3824 3817 3817 3819 3819 3819 3819 3807 3807 3807 3806 3817 3823 3823 3823 3823 3822 3820 3820 3820 3821 3821 3821 3809 3778 3740 3740 3740 3739 3739 3728 3709 3697 3680 3647 3636 3636 3636 3636 3636 3661 3661 3661 3661 3661 3655 3643 3641 3637 3635 3589 3589 3589 3643 3709 3734 3762 3762 3734 3543 3369 3274 3189 3015 2806 2630 2534 2473 2423 2384 2364 2341 2329 2322 2316 2301 2291 2279 2271 2264 2259 2254 2250 2246 2244 2240 2234 2227 2219 2216 2214 2210 2207 2203 2199 2195 2190 2187 2184 2179 2175 2170 2166 2163 2160 2156 2151 2148 2145 2141 2138 2135 2131 2128 2125 2122 2119 2115 2111 2107 2104 2101 2098 2094 2090 2088 2086 2084 2078 2076 2075 2073 2070 2067 2064 2060 2058 2054 2051 2047 2044 2041 2038 2036 2034 2030 2028 2026 2025 2023 2020 2018 2016 2014 2012 2010 2008 2006 2003 2000 1998 1995 1994 1992 1991 1989 1987 1986 1986 1985 1985 1985 1984 1983 1982 1981 1980 1980 1979 1979 1977 1976 1975 1975 1975 1976 1976 1976 1976 1975 1975 1975 1974 1974 1974 1973 1973 1973 1972 1971 1971 1971 1971 1971 1971 1970 1970 1968 1968 1968 1968 1968 1970 1970 1970 1970 1969 1969 1968 1968 1967 1966 1965 1962 1960 1960 1960 1960 1962 1963 1964 1965 1965 1965 1965 1965 1965 1965 1964 1963 1959 1958 1958 1956 1956 1948 1939 1939 1939 1941 1945 1946 1945 1945 1929 0 0 1767 1732 1688 1668 1661 1661 1661 1658 1651 1648 1638 1625 1618 1606 1601 1600 1600 1600 1601 1601 1601 1602 1602 1603 1603 1604 1604 1604 1603 1603 1603 1603 1604 1606 1606 1606 1606 1604 1604 1604 1602 1601 1600 1597 1593 1592 1592 1584 1579 1574 1571 1566 1564 1563 1562 1562 1562 1562 1563 1563 1563 1563 1563 1565 1566 1567 1567 1567 1566 1566 1565 1565 1563 1563 1563 1564 1567 1567 1567 1567 1565 1561 1548 1543 1540 0 0 0 0 0 0 0 0 0 0 0 0 0 0 0 0 0 0 0 0 0 0 0 0 0 0 0 0 0 0 0 0 0 0 0 0 0 0 0 0 0 0 0 0 0 0 0 0 0 0 0 0 0 0 0 0 0 0
