0 0 0 0 0 0 0 0 0 0 0 0 0 0 0 0 0 0 0 0 0 0 0 0 0 0 0 0 0 0 0 0 0 0 0 0 0 0 0 0 0 0 0 0 0 0 0 0 0 0 0 0 0 0 0 0 0 0 0 0 0 0 0 0 0 0 0 0 0 0 0 0 0 0 0 0 0 0 0 0 0 0 0 0 0 0 0 0 0 0 0 0 3137 3137 3153 3155 3176 3180 3191 3191 3191 3191 3191 3169 3169 3169 3179 3179 3179 0 3148 3148 3174 3174 3175 3179 3183 3183 3183 3183 3168 3165 3135 0 0 0 0 0 0 0 3314 3314 3314 3305 3287 3287 3287 3333 3354 3355 3359 3364 3370 3372 3370 3364 3354 3309 3276 3260 3253 3247 3247 3239 3237 3236 3212 3212 3212 3228 3228 3230 3232 3232 3248 3265 3311 3311 3311 3295 3275 3253 3222 3222 3222 3226 3229 3231 3237 3251 3251 3251 3251 3251 3262 3262 3267 3267 3267 3267 3269 3269 3269 3261 3261 3252 3260 3255 3250 3250 3239 3238 3238 3239 3258 3258 3258 0 0 3103 3132 3148 3168 3175 3177 3212 3223 3223 3225 3223 3205 3192 3175 3174 3174 3153 3127 3111 3049 2926 2705 2511 2451 2444 2426 2424 2423 2423 2416 2389 2389 2389 2396 2396 2396 2389 2380 2370 2353 2350 2348 2344 2341 2338 2334 2329 2322 2314 2312 2306 2294 2273 2263 2261 2260 2247 2235 2235 2235 2235 2231 2227 0 0 0 0 0 0 0 0 0 0 0 0 0 2118 2132 2162 2166 2166 2166 2164 2159 2154 2152 2151 2148 2145 2143 2142 2139 2138 2137 2135 2131 2129 2127 2125 2122 2120 2118 2116 2116 2115 2115 2114 2114 2113 2112 2110 2109 2109 2107 2107 2106 2103 2101 2099 2097 2097 2096 2095 2094 2093 2093 2092 2090 2089 2088 2086 2083 2081 2080 2078 2077 2074 2072 2071 2069 2069 2069 2069 2069 2070 2070 2071 2073 2074 2077 2078 2078 2078 2079 2079 2079 2077 2076 2076 2075 2074 2071 2066 2059 2053 2048 2043 2039 2036 2036 2034 2030 2027 2024 2023 2022 2021 2021 2021 2020 2018 2018 2018 2019 2020 2022 2024 2025 2026 2026 2026 2026 2025 2023 2023 2022 2022 2022 2022 2019 2018 2016 2016 2016 2015 2015 2015 2014 2011 2008 2004 1998 1993 1993 1992 1988 1984 1980 1976 1972 1970 1968 1966 1964 1962 1959 1955 1953 1951 1949 1945 1941 1939 1938 1936 1934 1931 1930 1928 1924 1924 1920 1915 1907 1902 1892 0 0 0 0 0 0 0 0 1310 1290 1286 1276 1275 1274 1274 1274 1276 1276 1276 1276 1276 1276 1277 1278 1279 1279 1279 1279 1278 1278 1277 1277 1277 1276 1276 1275 1275 1275 1275 1275 1276 1276 1281 1283 1283 0 0 0 0 0 0 0 1947 1962 1968 1974 1974 1974 1963 1960 1957 1956 1944 1937 1930 1922 1902 0 0 0 0 0 0 0 0 0 0 0 0 0 0 0 0 0 0 0 0 0 0 0 0 0 0 0 0 0 0 0 0 0 0 0 0 0 0 0 0 0 0 0 0 0 0 0 0 0 0 0 0 0 0 0 0 0 0 0 0 0 0 0 0 0 0 0 0 0 0 0 0 0 0 0 0 0 0 0 0 0 0 0 0 0 0 0 0 0 0 0 0 0 0 0 0 0 0 0 0 0 0 0 0 0 0 0 0 0 0 0 0 0 0 0 0 0 0
0 0 0 0 0 0 0 0 0 0 0 0 0 0 0 0 0 0 0 0 0 0 0 0 0 0 0 0 0 0 0 0 0 0 0 0 0 0 0 0 0 0 0 0 0 0 0 0 0 0 0 0 0 0 0 0 0 0 0 0 0 0 0 0 0 0 0 0 0 0 0 0 0 0 0 0 0 0 0 0 0 0 0 0 0 0 0 0 0 0 0 0 3127 3127 3138 3139 3153 3153 3160 3180 3191 3191 3191 3169 3169 3169 3179 3185 3193 3193 3193 3183 3183 3183 3184 3188 3188 3184 3179 3179 3168 3165 3135 0 0 0 0 0 0 0 3308 3311 3311 3311 3290 3290 3290 3333 3352 3353 3359 3362 3362 3363 3366 3363 3362 3328 3282 3264 3252 3241 3241 3241 3236 3236 3218 3217 3217 3217 3228 3230 3232 3230 3232 3236 3256 3295 3295 3295 3275 3253 3225 3225 3225 3226 3229 3231 3237 3252 3252 3252 3252 3252 3262 3262 3267 3267 3267 3268 3268 3268 3268 3268 3261 3251 3260 3260 3260 3260 3260 3252 3252 3252 3284 3284 3284 3259 3253 3241 3241 3241 3243 3256 3260 3261 3263 3264 3265 3265 3265 3264 3194 3176 3176 3168 3162 3153 3041 2888 2705 2513 2463 2444 2426 2426 2424 2424 2416 2393 2393 2393 2396 2396 2396 2388 2378 2367 2353 2350 2347 2344 2341 2338 2334 2329 2323 2317 2312 2306 2294 2272 2260 2259 2256 2244 2229 2227 2227 2227 2225 2220 0 0 0 0 0 0 0 0 0 0 0 0 0 2118 2132 2162 2162 2162 2161 2158 2154 2151 2149 2149 2147 2145 2143 2141 2139 2138 2137 2135 2132 2129 2127 2125 2121 2119 2116 2115 2115 2115 2114 2114 2114 2112 2112 2110 2109 2109 2107 2107 2106 2105 2102 2100 2098 2097 2096 2094 2093 2092 2090 2090 2088 2087 2087 2085 2082 2080 2079 2077 2076 2073 2072 2071 2069 2068 2067 2067 2067 2068 2070 2071 2072 2074 2077 2078 2078 2078 2078 2078 2077 2076 2075 2075 2074 2073 2071 2066 2059 2053 2048 2043 2039 2036 2036 2034 2030 2027 2024 2021 2019 2019 2019 2019 2019 2018 2018 2018 2018 2020 2021 2022 2023 2024 2026 2026 2026 2024 2022 2022 2022 2022 2022 2021 2019 2018 2016 2016 2015 2015 2014 2014 2013 2011 2008 2004 1998 1993 1990 1989 1986 1983 1980 1977 1974 1971 1969 1966 1964 1962 1959 1955 1953 1951 1949 1945 1941 1938 1936 1933 1928 1926 1925 1910 1905 1902 1895 1890 1886 1883 0 0 0 0 0 0 0 0 0 1288 1286 1283 1276 1275 1274 1274 1274 1276 1276 1276 1276 1276 1276 1277 1278 1278 1278 1278 1278 1278 1278 1277 1277 1277 1276 1276 1275 1275 1275 1274 1275 1275 1275 1274 1275 1276 1277 0 0 0 0 0 0 1940 1959 1968 1978 1978 1978 1965 1963 1959 1954 1944 1937 1928 1904 1878 0 0 0 0 0 0 0 0 0 0 0 0 0 0 0 0 0 0 0 0 0 0 0 0 0 0 0 0 0 0 0 0 0 0 0 0 0 0 0 0 0 0 0 0 0 0 0 0 0 0 0 0 0 0 0 0 0 0 0 0 0 0 0 0 0 0 0 0 0 0 0 0 0 0 0 0 0 0 0 0 0 0 0 0 0 0 0 0 0 0 0 0 0 0 0 0 0 0 0 0 0 0 0 0 0 0 0 0 0 0 0 0 0 0 0 0 0 0
0 0 0 0 0 0 0 0 0 0 0 0 0 0 0 0 0 0 0 0 0 0 0 0 0 0 0 0 0 0 0 0 0 0 0 0 0 0 0 0 0 0 0 0 0 0 0 0 0 0 0 0 0 0 0 0 0 0 0 0 0 0 0 0 0 0 0 0 0 0 0 0 0 0 0 0 0 0 0 0 0 0 3159 3159 3159 0 3093 0 3112 3112 3125 0 3127 3127 3127 3133 3138 3138 3156 3180 3191 3191 3191 3169 3169 3169 3183 3195 3198 3208 3208 3208 3207 3191 3191 3191 3191 3187 3191 3191 3172 3168 0 0 0 0 0 0 0 0 3284 3313 3313 3313 3297 3297 3297 3335 3352 3353 3359 3359 3359 3362 3365 3359 3355 3340 3289 3265 3258 3241 3241 3241 3236 3236 3236 3222 3222 3222 3228 3230 3232 3230 3232 3236 3253 3263 3272 3272 3272 3253 3225 3225 3225 3228 3229 3237 3240 3262 3263 3272 3274 3288 3288 3288 3280 3278 3274 3268 3268 3268 3268 3263 3261 3251 3256 3256 3256 3261 3261 3261 3261 3261 3276 3276 3276 3268 3265 3265 3259 3261 3261 3263 3261 3263 3265 3264 3265 3268 3268 3264 3236 3235 3215 3214 3209 3164 3031 2881 2701 2518 2467 2444 2426 2426 2424 2424 2416 2397 2397 2397 2397 2397 2397 2386 2376 2366 2353 2349 2346 2343 2341 2337 2334 2329 2326 2323 2319 2307 2293 2271 2259 2258 2256 2244 2227 2226 2218 2216 2214 2212 0 0 0 0 0 0 0 0 0 0 0 0 0 2118 2132 2162 2162 2162 2158 2153 2151 2147 2145 2144 2144 2143 2141 2139 2138 2138 2137 2135 2132 2129 2127 2124 2121 2119 2116 2115 2115 2115 2114 2113 2113 2111 2111 2110 2109 2109 2107 2107 2106 2105 2103 2101 2099 2098 2096 2094 2092 2090 2089 2087 2087 2086 2086 2085 2081 2078 2078 2077 2074 2071 2069 2068 2067 2064 2064 2064 2065 2066 2067 2067 2069 2073 2075 2078 2078 2078 2077 2076 2075 2074 2074 2073 2073 2073 2070 2065 2059 2053 2048 2044 2040 2037 2036 2034 2030 2026 2024 2021 2018 2016 2016 2016 2016 2016 2016 2017 2017 2019 2019 2020 2021 2023 2024 2024 2024 2023 2022 2022 2022 2022 2022 2021 2019 2018 2016 2016 2015 2013 2011 2011 2011 2011 2008 2004 1997 1992 1990 1987 1985 1983 1979 1977 1976 1974 1972 1969 1966 1963 1959 1955 1953 1952 1949 1945 1940 1938 1933 1925 1920 1919 1916 1899 1891 1882 1872 1867 0 0 0 0 0 0 0 0 0 0 1287 1287 1286 1283 1279 1275 1275 1275 1275 1276 1276 1276 1276 1276 1276 1277 1277 1278 1278 1278 1278 1278 1277 1277 1277 1276 1276 1275 1275 1274 1274 1274 1274 1274 1274 1274 1274 1274 1274 0 0 0 0 0 0 0 1958 1967 1976 1976 1976 1975 1966 1959 1953 1939 1937 1923 1892 1865 1840 0 0 0 0 0 0 0 0 0 0 0 0 0 0 0 0 0 0 0 0 0 0 0 0 0 0 0 0 0 0 0 0 0 0 0 0 0 0 0 0 0 0 0 0 0 0 0 0 0 0 0 0 0 0 0 0 0 0 0 0 0 0 0 0 0 0 0 0 0 0 0 0 0 0 0 0 0 0 0 0 0 0 0 0 0 0 0 0 0 0 0 0 0 0 0 0 0 0 0 0 0 0 0 0 0 0 0 0 0 0 0 0 0 0 0 0 0
0 0 0 0 0 0 0 0 0 0 0 0 0 0 0 0 0 0 0 0 0 0 0 0 0 0 0 0 0 0 0 0 0 0 0 0 0 0 0 0 0 0 0 0 0 0 0 0 0 0 0 0 0 0 0 0 0 0 0 0 0 0 0 0 0 0 0 0 0 0 3012 3012 3012 0 0 0 0 0 0 0 3074 3142 3159 3159 3159 3120 3117 3117 3120 3145 3145 3145 3147 3138 3135 3133 3138 3138 3156 3161 3164 3164 3164 3164 3164 3173 3183 3195 3204 3222 3230 3230 3230 3211 3205 3192 3189 3187 3189 3189 3179 3179 3138 0 0 0 0 0 0 0 3257 3314 3314 3314 3314 3314 3337 3342 3350 3353 3361 3361 3361 3361 3361 3349 3349 3349 3297 3271 3258 3241 3241 3241 3236 3236 3236 3222 3222 3222 3235 3235 3236 3235 3235 3236 3253 3255 3255 3255 3249 3248 3239 3225 3225 3225 3241 3246 3256 3262 3277 3283 3293 3332 3332 3332 3312 3304 3280 3278 3278 3278 3269 3266 3254 3254 3254 3254 3257 3266 3266 3266 3266 3266 3276 3276 3276 3273 3273 3273 3273 3273 3278 3277 3266 3269 3272 3272 3272 3280 3280 3280 3271 3266 3230 3228 3223 3181 3031 2788 2640 2532 2483 2444 2424 2424 2421 2415 2415 2406 2401 2398 2397 2397 2395 2380 2371 2363 2352 2347 2344 2343 2341 2337 2333 2329 2326 2323 2319 2307 2293 2270 2259 2257 2256 2244 2228 2226 2214 2208 2206 2205 0 0 0 0 0 0 0 0 0 0 0 0 0 2111 2132 2162 2162 2162 2158 2153 2148 2144 2143 2143 2142 2142 2139 2137 2136 2136 2135 2135 2132 2129 2127 2124 2121 2118 2116 2115 2115 2115 2114 2113 2111 2110 2110 2110 2109 2108 2107 2106 2106 2105 2103 2101 2099 2098 2096 2094 2092 2090 2089 2087 2087 2086 2086 2085 2081 2076 2075 2073 2071 2068 2065 2064 2063 2063 2063 2063 2063 2063 2062 2062 2062 2068 2070 2073 2074 2074 2074 2073 2073 2072 2072 2072 2072 2072 2070 2065 2060 2054 2050 2047 2042 2039 2038 2035 2030 2026 2023 2021 2017 2014 2013 2012 2012 2012 2013 2014 2015 2016 2017 2017 2019 2022 2023 2023 2023 2022 2022 2022 2022 2022 2022 2021 2019 2018 2016 2016 2015 2013 2011 2010 2009 2009 2008 2003 1997 1992 1989 1987 1985 1983 1979 1978 1976 1974 1972 1969 1966 1963 1959 1955 1953 1952 1949 1945 1939 1931 1929 1920 1915 1909 1902 1892 1882 1871 1860 0 0 0 0 0 0 0 0 0 0 1287 1285 1285 1283 1283 1280 1276 1276 1276 1276 1276 1276 1276 1276 1276 1276 1277 1277 1278 1278 1278 1277 1277 1277 1277 1276 1276 1275 1275 1275 1274 1274 1274 1274 1275 1275 1275 1273 1273 1273 1290 0 0 0 0 0 0 0 1966 1970 1979 1979 1979 1966 1957 1946 1938 1937 1921 1891 1859 1840 0 0 0 0 0 0 0 0 0 0 0 0 0 0 0 0 0 0 0 0 0 0 0 0 0 0 0 0 0 0 0 0 0 0 0 0 0 0 0 0 0 0 0 0 0 0 0 0 0 0 0 0 0 0 0 0 0 0 0 0 0 0 0 0 0 0 0 0 0 0 0 0 0 0 0 0 0 0 0 0 0 0 0 0 0 0 0 0 0 0 0 0 0 0 0 0 0 0 0 0 0 0 0 0 0 0 0 0 0 0 0 0 0 0 0 0 0
0 0 0 0 0 0 0 0 0 0 0 0 0 0 0 0 0 0 0 0 0 0 0 0 0 0 0 0 0 0 0 0 0 0 0 0 0 0 0 0 0 0 0 0 0 0 0 0 0 0 0 0 0 0 0 0 0 0 0 0 0 0 0 0 0 0 0 0 0 3051 3055 3058 3064 3072 3073 3078 3078 3076 3078 3078 3078 3114 3114 3114 3114 3111 3111 3118 3123 3176 3191 3193 3193 3191 3171 3167 3156 3156 3156 3157 3161 3161 3159 3164 3164 3173 3190 3195 3204 3222 3257 3276 3276 3276 3239 3192 3189 3187 3189 3189 3238 3238 0 0 0 0 0 0 0 0 3257 3329 3368 3368 3368 3357 3350 3350 3350 3353 3359 3359 3359 3359 3361 3350 3350 3350 3324 3322 3302 3276 3266 3266 3265 3259 3246 3225 3225 3225 3235 3235 3241 3245 3245 3249 3253 3255 3255 3255 3249 3239 3234 3231 3231 3231 3241 3267 3284 3285 3285 3298 3329 3360 3361 3361 3361 3326 3284 3280 3279 3279 3273 3266 3266 3272 3272 3272 3272 3272 3266 3266 3266 3266 3276 3276 3276 3279 3279 3279 3279 3279 3281 3277 3270 3269 3270 3270 3269 3270 3270 3270 3267 3270 3270 3267 3267 3182 3031 2733 2622 2533 2505 2444 2421 2409 2409 2408 2409 2409 2406 2404 2399 2391 2387 2379 2366 2360 2350 2342 2339 2338 2338 2336 2333 2329 2326 2323 2319 2307 2291 2269 2259 2257 2255 2253 2240 2226 2214 2205 2195 2185 0 0 0 0 0 0 0 0 0 0 0 0 2083 2094 2132 2162 2162 2162 2156 2151 2147 2144 2143 2143 2142 2141 2138 2137 2135 2134 2134 2133 2131 2128 2124 2121 2120 2118 2116 2115 2114 2114 2114 2113 2111 2110 2109 2108 2108 2108 2107 2106 2105 2104 2103 2101 2099 2098 2096 2095 2092 2090 2089 2087 2086 2086 2085 2083 2080 2076 2073 2071 2068 2067 2065 2063 2060 2060 2060 2061 2061 2061 2059 2059 2059 2063 2065 2069 2070 2070 2071 2071 2071 2071 2071 2071 2071 2071 2069 2065 2060 2056 2050 2047 2042 2039 2038 2035 2030 2026 2021 2017 2017 2014 2012 2010 2010 2010 2010 2012 2013 2013 2014 2014 2018 2022 2022 2022 2022 2022 2022 2022 2022 2022 2022 2021 2019 2018 2016 2016 2015 2013 2010 2009 2008 2008 2006 2004 1998 1992 1989 1987 1985 1983 1980 1978 1976 1974 1972 1969 1966 1963 1959 1955 1953 1952 1949 1945 1939 1930 1926 1918 1909 1901 1894 1888 1865 1847 0 0 0 0 0 0 0 0 0 0 1287 1284 1284 1283 1282 1282 1280 1278 1277 1277 1277 1276 1277 1276 1277 1277 1277 1277 1278 1278 1278 1278 1277 1277 1277 1276 1276 1275 1275 1275 1275 1274 1274 1274 1274 1275 1275 1275 1273 1273 1273 1286 0 0 0 0 0 0 0 1956 1970 1979 1979 1979 1966 1956 1940 1935 1923 1918 1889 1859 1843 1830 0 0 0 0 0 0 0 0 0 0 0 0 0 0 0 0 0 0 0 0 0 0 0 0 0 0 0 0 0 0 0 0 0 0 0 0 0 0 0 0 0 0 0 0 0 0 0 0 0 0 0 0 0 0 0 0 0 0 0 0 0 0 0 0 0 0 0 0 0 0 0 0 0 0 0 0 0 0 0 0 0 0 0 0 0 0 0 0 0 0 0 0 0 0 0 0 0 0 0 0 0 0 0 0 0 0 0 0 0 0 0 0 0 0 0 0
0 0 0 0 0 0 0 0 0 0 0 0 0 0 0 0 0 0 0 0 0 0 0 0 0 0 0 0 0 0 0 0 0 0 0 0 0 0 0 0 0 0 0 0 0 0 0 0 0 0 0 0 0 0 0 0 0 0 0 0 0 0 0 0 0 0 0 0 3059 3060 3070 3070 3073 3084 3085 3085 3093 3093 3085 3143 3143 3114 3114 3121 3121 3121 3127 3143 3157 3199 3218 3218 3218 3207 3184 3170 3163 3161 3157 3161 3163 3161 3162 3164 3164 3177 3186 3190 3204 3224 3269 3276 3276 3276 3243 3229 3206 3201 3201 3201 3263 3263 3263 0 0 0 0 0 0 0 3257 3336 3395 3395 3395 3357 3350 3350 3350 3353 3359 3359 3359 3359 3361 3361 3361 3361 3356 3351 3324 3281 3268 3268 3267 3259 3250 3229 3229 3229 3238 3238 3246 3247 3249 3263 3263 3263 3259 3255 3249 3239 3235 3234 3235 3235 3241 3267 3284 3285 3285 3298 3329 3371 3371 3371 3370 3326 3285 3280 3278 3278 3275 3269 3269 3272 3272 3272 3274 3272 3270 3270 3270 3270 3284 3284 3284 3285 3285 3289 3289 3289 3282 3280 3275 3275 3275 3274 3272 3270 3270 3270 3271 3285 3285 3285 3270 3182 2990 2692 2597 2533 2505 2454 2421 2409 2409 2408 2409 2409 2406 2404 2398 2390 2383 2379 2366 2360 2349 2342 2338 2333 2331 2331 2329 2325 2321 2317 2312 2307 2287 2257 2257 2254 2253 2253 2240 2226 2213 2198 2195 2185 0 0 0 0 0 0 0 0 0 0 0 0 2066 2083 2132 2161 2161 2161 2155 2150 2147 2144 2143 2143 2142 2141 2138 2137 2135 2134 2133 2132 2129 2126 2123 2120 2120 2118 2116 2114 2114 2114 2114 2112 2111 2110 2108 2108 2108 2107 2106 2105 2103 2102 2101 2100 2099 2097 2096 2095 2093 2091 2090 2089 2088 2086 2084 2083 2080 2076 2073 2070 2067 2067 2064 2063 2060 2060 2059 2059 2059 2059 2059 2059 2059 2063 2065 2066 2067 2069 2070 2070 2070 2070 2070 2070 2070 2070 2068 2065 2060 2056 2050 2047 2042 2039 2038 2035 2030 2025 2021 2017 2014 2013 2011 2009 2009 2009 2009 2010 2010 2010 2010 2010 2014 2020 2022 2022 2022 2022 2022 2022 2022 2022 2022 2021 2019 2018 2016 2016 2015 2013 2009 2006 2006 2005 2005 2004 1998 1992 1989 1987 1985 1984 1980 1978 1976 1974 1970 1968 1965 1960 1958 1955 1953 1951 1949 1945 1939 1930 1921 1916 1907 1895 1885 1872 0 0 0 0 0 0 0 0 1315 1301 1292 1287 1286 1284 1283 1282 1282 1281 1280 1278 1278 1277 1277 1277 1277 1277 1277 1278 1278 1278 1278 1278 1278 1278 1277 1277 1276 1276 1276 1275 1275 1275 1275 1275 1275 1275 1275 1276 1276 1276 1273 1273 1273 1280 1283 0 0 0 0 0 0 0 1969 1975 1975 1975 1970 1951 1938 1935 1923 1905 1888 1859 1843 1833 0 0 0 0 0 0 0 0 0 0 0 0 0 0 0 0 0 0 0 0 0 0 0 0 0 0 0 0 0 0 0 0 0 0 0 0 0 0 0 0 0 0 0 0 0 0 0 0 0 0 0 0 0 0 0 0 0 0 0 0 0 0 0 0 0 0 0 0 0 0 0 0 0 0 0 0 0 0 0 0 0 0 0 0 0 0 0 0 0 0 0 0 0 0 0 0 0 0 0 0 0 0 0 0 0 0 0 0 0 0 0 0 0 0 0 0
0 0 0 0 0 0 0 0 0 0 0 0 0 0 0 0 0 0 0 0 0 0 0 0 0 0 0 0 0 0 0 0 0 0 0 0 0 0 0 0 0 0 0 0 0 0 0 0 0 0 0 0 0 0 0 0 0 0 0 0 0 0 0 0 0 0 0 3065 3065 3073 3073 3073 3086 3088 3095 3096 3099 3136 3148 3148 3148 3146 3146 3121 3121 3121 3144 3164 3194 3219 3221 3221 3221 3212 3199 3190 3190 3184 3183 3183 3175 3173 3173 3175 3183 3186 3190 3191 3206 3224 3269 3276 3276 3276 3243 3229 3206 3206 3206 3218 3290 3290 3290 0 0 0 0 0 0 0 3274 3372 3399 3399 3399 3357 3328 3327 3327 3328 3346 3359 3361 3364 3369 3378 3378 3378 3370 3354 3324 3283 3275 3274 3272 3271 3254 3251 3247 3247 3247 3247 3247 3247 3250 3265 3270 3271 3271 3270 3252 3240 3240 3240 3241 3251 3252 3267 3284 3285 3285 3298 3329 3371 3371 3371 3370 3326 3284 3280 3278 3274 3274 3274 3275 3275 3275 3275 3282 3275 3275 3275 3275 3275 3287 3287 3287 3293 3293 3293 3293 3293 3292 3287 3286 3281 3281 3280 3278 3276 3271 3271 3271 3291 3291 3291 3270 3181 2864 2669 2592 2533 2505 2454 2438 2413 2409 2409 2409 2409 2405 2404 2398 2389 2383 2379 2366 2360 2349 2341 2337 2333 2331 2328 2326 2324 2314 2310 2299 2298 2275 2256 2256 2253 2252 2252 2240 2226 2212 2198 2189 2181 0 0 0 0 0 0 0 0 0 0 0 0 2066 2083 2133 2161 2161 2161 2153 2150 2147 2144 2143 2142 2142 2140 2138 2136 2135 2133 2131 2131 2129 2125 2123 2120 2120 2117 2115 2113 2113 2113 2113 2112 2111 2109 2108 2107 2107 2106 2105 2104 2100 2098 2096 2096 2096 2096 2096 2095 2094 2092 2092 2091 2088 2086 2084 2082 2080 2076 2072 2069 2067 2066 2064 2063 2060 2059 2059 2058 2058 2058 2058 2058 2059 2063 2065 2065 2066 2067 2068 2069 2069 2069 2069 2069 2068 2067 2066 2065 2060 2056 2050 2045 2041 2039 2037 2033 2029 2025 2021 2017 2013 2010 2009 2008 2008 2008 2008 2008 2009 2009 2009 2009 2012 2015 2017 2020 2022 2022 2022 2022 2022 2022 2022 2021 2019 2017 2015 2013 2013 2011 2008 2006 2005 2004 2004 2003 1998 1994 1989 1988 1986 1984 1981 1978 1975 1972 1967 1965 1962 1959 1956 1953 1951 1949 1946 1944 1939 1929 1919 1908 1906 1895 1872 1859 0 0 0 0 0 0 0 1312 1298 1295 1289 1287 1286 1284 1283 1282 1282 1281 1280 1280 1280 1280 1279 1278 1278 1278 1278 1278 1278 1278 1278 1278 1278 1278 1277 1277 1276 1276 1276 1275 1275 1275 1275 1275 1275 1275 1275 1276 1276 1276 1275 1275 1275 1278 1283 1288 0 0 0 0 0 0 0 1975 1975 1975 1970 1951 1938 1930 1923 1905 1888 1869 1856 1841 0 0 0 0 0 0 0 0 0 0 0 0 0 0 0 0 0 0 1396 1396 1393 1378 1370 0 0 0 0 0 0 0 0 0 0 0 0 0 0 0 0 0 0 0 0 0 0 0 0 0 0 0 0 0 0 0 0 0 0 0 0 0 0 0 0 0 0 0 0 0 0 0 0 0 0 0 0 0 0 0 0 0 0 0 0 0 0 0 0 0 0 0 0 0 0 0 0 0 0 0 0 0 0 0 0 0 0 0 0 0 0 0 0 0 0 0 0 0
0 0 0 0 0 0 0 0 0 0 0 0 0 0 0 0 0 0 0 0 0 0 0 0 0 0 0 0 0 0 0 0 0 0 0 0 0 0 0 0 0 0 0 0 0 0 0 0 0 0 0 0 0 0 0 0 0 0 0 0 0 0 0 0 0 0 3112 3112 3112 3078 3078 3078 3086 3088 3095 3096 3099 3145 3147 3157 0 0 3142 3121 3121 3121 3172 3189 3207 3243 3247 3247 3247 3224 3205 3190 3190 3190 3206 3212 3212 3214 3212 3212 3206 3205 3205 3206 3206 3245 3272 3272 3272 3270 3243 3229 3206 3206 3206 3218 3290 3290 3290 0 0 0 0 0 0 0 3325 3385 3399 3399 3399 3350 3317 3316 3316 3316 3346 3361 3375 3383 3385 3387 3387 3387 3387 3357 3331 3299 3299 3299 3319 3319 3319 3311 3283 3264 3257 3257 3250 3250 3250 3270 3281 3282 3282 3281 3279 3270 3264 3262 3252 3252 3258 3258 3279 3279 3282 3284 3307 3371 3371 3371 3370 3321 3284 3282 3280 3277 3277 3277 3281 3281 3281 3281 3282 3278 3278 3282 3282 3284 3284 3284 3288 3288 3288 3296 3296 3296 3296 3289 3288 3283 3283 3283 3283 3283 3282 3282 3282 3292 3292 3292 3267 3109 2776 2580 2532 2521 2486 2457 2440 2428 2424 2412 2408 2407 2404 2402 2396 2387 2383 2379 2371 2364 2349 2341 2337 2333 2331 2328 2326 2324 2310 2299 2295 2290 2262 2248 2248 2246 2245 2245 2235 2224 2212 2198 2189 2185 0 0 0 0 0 0 0 0 0 0 0 0 0 2083 2132 2158 2158 2158 2150 2146 2144 2143 2143 2142 2141 2139 2137 2136 2134 2132 2131 2129 2129 2125 2123 2120 2119 2117 2115 2113 2112 2112 2112 2112 2110 2109 2107 2107 2107 2106 2104 2102 2099 2096 2096 2096 2096 2096 2096 2095 2094 2092 2092 2091 2089 2086 2084 2082 2079 2076 2072 2069 2067 2066 2065 2063 2060 2058 2058 2058 2058 2058 2058 2058 2059 2062 2064 2064 2064 2065 2066 2066 2066 2066 2066 2067 2067 2067 2065 2063 2059 2054 2048 2043 2040 2038 2035 2033 2029 2025 2021 2017 2012 2008 2007 2007 2007 2007 2008 2008 2008 2008 2008 2009 2009 2011 2013 2017 2020 2022 2022 2022 2022 2022 2021 2021 2017 2015 2014 2013 2012 2009 2008 2005 2004 2004 2004 2001 1998 1994 1990 1988 1987 1985 1982 1978 1975 1972 1967 1965 1962 1958 1955 1953 1945 1945 1944 1944 1937 1929 1919 1905 1891 1888 1872 1857 0 0 0 0 0 0 1312 1297 1294 1291 1289 1287 1287 1286 1286 1283 1282 1282 1282 1281 1280 1280 1279 1279 1279 1278 1278 1278 1278 1278 1278 1278 1278 1278 1277 1277 1276 1276 1275 1275 1275 1275 1275 1275 1275 1275 1276 1276 1276 1276 1275 1275 1275 1278 1282 1283 0 0 0 0 0 0 0 0 1972 1972 1963 1951 1938 1930 1923 1905 1888 1884 1875 1857 0 0 0 0 0 0 0 0 0 0 0 0 0 0 0 0 0 1393 1396 1396 1393 1379 1370 1358 0 0 0 0 0 0 0 0 0 0 0 0 0 0 0 0 0 0 0 0 0 0 0 0 0 0 0 0 0 0 0 0 0 0 0 0 0 0 0 0 0 0 0 0 0 0 0 0 0 0 0 0 0 0 0 0 0 0 0 0 0 0 0 0 0 0 0 0 0 0 0 0 0 0 0 0 0 0 0 0 0 0 0 0 0 0 0 0 0 0 0 0
0 0 0 0 0 0 0 0 0 0 0 0 0 0 0 0 0 0 0 0 0 0 0 0 0 0 0 0 0 0 0 0 0 0 0 0 0 0 0 0 0 0 0 0 0 0 0 0 0 0 0 0 0 0 0 0 0 0 0 0 0 0 0 0 0 3068 3121 3121 3121 3111 3111 3111 3111 3111 3103 3103 3103 3145 3147 3148 3148 3145 3142 3133 3133 3133 3172 3189 3207 3243 3247 3247 3247 3224 3205 3192 3192 3192 3225 3228 3232 3233 3241 3241 3241 3235 3206 3206 3206 3248 3272 3272 3272 3248 3219 3219 3219 3218 3223 3238 3290 3290 3290 3272 0 0 0 0 0 0 3348 3385 3385 3385 3349 3316 3299 3299 3299 3316 3346 3372 3375 3383 3387 3390 3408 3408 3408 3365 3331 3315 3315 3315 3328 3339 3339 3339 3330 3303 3276 3271 3269 3269 3269 3276 3284 3292 3293 3300 3302 3302 3302 3267 3265 3257 3257 3257 3264 3266 3276 3281 3283 3317 3347 3347 3347 3308 3285 3284 3283 3277 3277 3277 3281 3281 3281 3281 3282 3285 3286 3290 3290 3292 3292 3292 3292 3294 3296 3305 3305 3299 3299 3297 3291 3290 3283 3283 3283 3283 3282 3282 3282 3297 3297 3297 3237 3063 2711 2567 2504 2489 2479 2457 2443 2428 2424 2418 2407 2405 2402 2402 2396 2389 2384 2380 2372 2366 2354 2342 2338 2335 2332 2328 2326 2320 2309 2292 2289 2278 2250 2239 2239 2239 2236 2236 2223 2215 2201 2193 2185 2180 0 0 0 0 0 0 0 0 0 0 0 0 0 2095 2130 2150 2150 2150 2145 2142 2139 2139 2137 2137 2137 2136 2135 2133 2132 2131 2129 2127 2125 2125 2122 2120 2119 2116 2114 2112 2111 2110 2110 2110 2110 2109 2107 2106 2103 2102 2101 2100 2099 2096 2096 2096 2096 2096 2096 2095 2094 2092 2092 2091 2089 2086 2084 2082 2079 2076 2072 2069 2067 2066 2064 2062 2060 2057 2057 2057 2057 2057 2057 2057 2059 2060 2061 2062 2063 2064 2065 2065 2065 2065 2065 2065 2064 2063 2060 2059 2057 2051 2046 2042 2040 2036 2034 2031 2029 2025 2021 2017 2011 2008 2007 2006 2005 2005 2005 2005 2007 2008 2008 2009 2009 2011 2013 2016 2019 2021 2022 2022 2022 2022 2020 2018 2016 2015 2014 2013 2012 2009 2007 2006 2004 2003 2002 2000 1996 1994 1990 1989 1987 1985 1982 1979 1975 1972 1967 1965 1962 1958 1955 1950 1944 1942 1939 1939 1935 1921 1907 1890 1882 1867 1865 1835 0 0 0 0 0 1311 1295 1292 1290 1290 1289 1289 1288 1287 1287 1286 1283 1283 1282 1282 1282 1281 1280 1279 1279 1279 1279 1279 1278 1278 1278 1278 1278 1278 1278 1277 1276 1276 1276 1276 1276 1276 1276 1275 1275 1276 1276 1276 1276 1276 1275 1275 1275 1278 1282 1282 1284 0 0 0 0 0 0 0 1963 1963 1963 1952 1941 1930 1923 1914 1900 1887 1875 1857 0 0 0 0 0 0 0 0 0 0 0 0 0 0 1367 1370 1381 1393 1396 1396 1393 1379 1370 1358 1338 1332 0 0 0 0 0 0 0 0 0 0 0 0 0 0 0 0 0 0 0 0 0 0 0 0 0 0 0 0 0 0 0 0 0 0 0 0 0 0 0 0 0 0 0 0 0 0 0 0 0 0 0 0 0 0 0 0 0 0 0 0 0 0 0 0 0 0 0 0 0 0 0 0 0 0 0 0 0 0 0 0 0 0 0 0 0 0 0 0 0 0
0 0 0 0 0 0 0 0 0 0 0 0 0 0 0 0 0 0 0 0 0 0 0 0 0 0 0 0 0 0 0 0 0 0 0 0 0 0 0 0 0 0 0 0 0 0 0 0 0 0 0 0 0 0 0 0 0 0 3065 3065 3061 3046 3046 3046 3072 3090 3146 3146 3146 3142 3142 3140 3130 3122 3122 3125 3130 3136 3136 3136 3136 3128 3124 3124 3135 3135 3172 3197 3207 3243 3247 3247 3247 3224 3205 3200 3200 3200 3233 3233 3238 3247 3249 3269 3269 3269 3231 3231 3231 3248 3270 3270 3270 3236 3211 3211 3211 3218 3218 3236 3237 3237 3237 3237 0 0 0 0 0 0 3349 3349 3349 3344 3316 3308 3299 3299 3299 3316 3361 3374 3375 3383 3387 3390 3408 3408 3408 3379 3334 3334 3333 3333 3342 3357 3392 3392 3392 3370 3321 3301 3287 3287 3287 3297 3315 3319 3319 3324 3324 3324 3319 3285 3270 3268 3259 3259 3259 3266 3266 3266 3266 3289 3305 3305 3305 3298 3285 3284 3283 3277 3277 3277 3282 3282 3282 3282 3282 3290 3293 3294 3294 3295 3294 3294 3299 3300 3308 3308 3308 3305 3299 3298 3298 3291 3291 3291 3291 3291 3293 3293 3296 3299 3299 3299 3215 3044 2697 2534 2494 2479 2470 2457 2444 2428 2424 2418 2407 2402 2401 2400 2396 2390 2384 2380 2372 2367 2356 2344 2341 2340 2336 2330 2326 2320 2305 2290 2288 2263 2243 2233 2232 2226 2222 2221 2216 2215 2201 2193 2181 2180 0 0 0 0 0 0 0 0 0 0 0 0 0 2098 2128 2141 2141 2141 2141 2138 2136 2134 2134 2134 2133 2133 2133 2132 2132 2130 2128 2126 2124 2123 2121 2120 2118 2116 2114 2112 2109 2109 2109 2109 2108 2106 2104 2102 2101 2101 2101 2099 2098 2096 2095 2095 2094 2094 2094 2094 2093 2092 2091 2090 2089 2086 2084 2081 2079 2076 2072 2069 2066 2065 2064 2062 2059 2056 2056 2056 2056 2056 2057 2057 2058 2059 2059 2060 2062 2064 2064 2064 2064 2063 2063 2062 2061 2059 2057 2055 2052 2050 2046 2042 2039 2036 2032 2029 2026 2024 2020 2015 2011 2008 2007 2005 2004 2004 2004 2004 2005 2006 2006 2008 2009 2011 2013 2015 2018 2018 2019 2020 2020 2020 2019 2017 2016 2015 2014 2013 2012 2009 2007 2006 2004 2003 2000 1998 1995 1993 1991 1990 1988 1985 1983 1980 1977 1973 1969 1965 1962 1958 1954 1950 1944 1942 1934 1932 1928 1914 1898 1873 1858 0 0 0 0 0 0 0 1321 1300 1295 1291 1290 1290 1290 1290 1289 1289 1287 1286 1285 1284 1283 1283 1282 1281 1281 1281 1280 1280 1280 1280 1279 1279 1279 1279 1279 1278 1278 1277 1276 1276 1276 1276 1276 1276 1276 1276 1276 1276 1276 1277 1277 1277 1276 1276 1276 1275 1275 1278 1279 1286 0 0 0 0 0 0 1955 1955 1955 1952 1941 1930 1924 1914 1904 1887 1875 1857 0 0 0 0 0 0 0 0 0 0 0 0 1363 1365 1367 1370 1376 1378 1381 1378 1378 1378 1365 1355 1339 1335 1325 0 0 0 0 0 0 0 0 0 0 0 0 0 0 0 0 0 0 0 0 0 0 0 0 0 0 0 0 0 0 0 0 0 0 0 0 0 0 0 0 0 0 0 0 0 0 0 0 0 0 0 0 0 0 0 0 0 0 0 0 0 0 0 0 0 0 0 0 0 0 0 0 0 0 0 0 0 0 0 0 0 0 0 0 0 0 0 0 0
0 0 0 0 0 0 0 0 0 0 0 0 0 0 0 0 0 0 0 0 0 0 0 0 0 0 0 0 0 0 0 0 0 0 0 0 0 0 0 0 0 0 0 0 0 0 0 0 0 0 0 0 0 0 0 0 0 3082 3083 3094 3094 3085 3083 3085 3085 3120 3173 3173 3173 3156 3156 3152 3152 3147 3147 3142 3138 3134 3132 3132 3128 3126 3125 3125 3126 3153 3179 3197 3207 3239 3247 3247 3247 3218 3202 3202 3202 3209 3233 3233 3239 3247 3249 3269 3269 3269 3234 3234 3234 3248 3269 3269 3269 3235 3211 3211 3211 3218 3218 3237 3237 3237 3259 3259 3259 0 0 0 0 0 3340 3340 3340 3333 3317 3308 3308 3317 3324 3335 3362 3375 3375 3378 3378 3385 3408 3408 3408 3384 3362 3346 3346 3346 3369 3395 3395 3395 3395 3370 3321 3308 3306 3306 3308 3317 3320 3330 3335 3351 3351 3351 3319 3285 3271 3267 3264 3264 3267 3266 3266 3271 3274 3274 3286 3293 3293 3293 3285 3284 3281 3277 3277 3277 3282 3282 3286 3289 3292 3293 3296 3298 3298 3299 3299 3299 3300 3300 3305 3308 3308 3305 3301 3300 3298 3296 3296 3294 3294 3298 3300 3300 3305 3300 3297 3269 3168 2993 2574 2504 2475 2472 2470 2468 2448 2427 2420 2418 2407 2403 2401 2399 2398 2390 2385 2381 2375 2369 2356 2350 2349 2344 2338 2330 2326 2318 2300 2283 2276 2261 2242 2231 2226 2220 2217 2216 2216 2215 2201 2193 2181 2180 0 0 0 0 0 0 0 0 0 0 0 0 0 2098 2117 2132 2137 2137 2137 2134 2133 2133 2133 2133 2133 2133 2133 2131 2130 2129 2128 2126 2124 2123 2121 2120 2118 2116 2113 2110 2108 2108 2108 2108 2108 2106 2103 2102 2101 2101 2100 2099 2098 2096 2095 2092 2092 2092 2092 2092 2091 2091 2090 2087 2086 2085 2082 2079 2077 2075 2072 2069 2066 2064 2064 2061 2058 2056 2055 2055 2055 2055 2056 2056 2057 2058 2059 2059 2061 2063 2063 2063 2063 2063 2062 2061 2060 2058 2055 2053 2051 2048 2045 2042 2038 2036 2031 2027 2025 2022 2018 2014 2011 2009 2007 2005 2004 2003 2003 2003 2004 2005 2006 2008 2011 2012 2013 2015 2016 2018 2019 2020 2020 2020 2019 2017 2016 2016 2015 2014 2012 2009 2007 2006 2004 2003 2000 1997 1994 1992 1990 1990 1988 1985 1983 1980 1977 1973 1969 1965 1962 1958 1954 1949 1944 1942 1934 1922 1907 1888 1868 1850 0 0 0 0 0 0 0 0 1313 1299 1295 1291 1290 1290 1290 1290 1289 1289 1288 1286 1285 1285 1284 1283 1282 1282 1281 1281 1281 1280 1280 1280 1280 1279 1279 1279 1279 1278 1278 1278 1277 1277 1276 1276 1276 1276 1276 1276 1276 1276 1277 1277 1278 1278 1278 1278 1278 1277 1275 1278 1279 1280 0 0 0 0 0 0 1931 1952 1952 1952 1941 1930 1924 1916 1904 1884 1846 1843 0 0 0 0 0 0 0 0 0 0 1376 1365 1365 1365 1367 1367 1367 1366 1366 1366 1366 1366 1356 1354 1343 1343 1339 1336 0 0 0 0 0 0 0 0 0 0 0 0 0 0 0 0 0 0 0 0 0 0 0 0 0 0 0 0 0 0 0 0 0 0 0 0 0 0 0 0 0 0 0 0 0 0 0 0 0 0 0 0 0 0 0 0 0 0 0 0 0 0 0 0 0 0 0 0 0 0 0 0 0 0 0 0 0 0 0 0 0 0 0 0 0 0 0 0
0 0 0 0 0 0 0 0 0 0 0 0 0 0 0 0 0 0 0 0 0 0 0 0 0 0 0 0 0 0 0 0 0 0 0 0 0 0 0 0 0 0 0 0 0 0 0 0 0 0 0 0 0 0 0 0 3037 3090 3118 3118 3118 3103 3101 3101 3103 3135 3173 3173 3173 3156 3156 3152 3152 3147 3147 3142 3138 3130 3128 3128 3126 3124 3125 3125 3126 3168 3186 3197 3207 3239 3247 3247 3247 3218 3202 3202 3202 3211 3230 3230 3230 3230 3230 3269 3269 3269 3236 3236 3236 3271 3271 3271 3270 3235 3235 3235 3261 3261 3261 3237 3237 3237 3259 3259 3259 0 0 0 0 0 3340 3340 3340 3333 3331 3331 3331 3356 3361 3376 3378 3378 3378 3378 3378 3385 3408 3408 3408 3384 3363 3356 3356 3356 3378 3395 3395 3395 3395 3370 3321 3321 3319 3319 3319 3319 3320 3330 3335 3351 3351 3351 3319 3285 3271 3270 3269 3269 3270 3273 3273 3273 3273 3273 3280 3281 3286 3285 3285 3285 3285 3277 3277 3277 3286 3289 3289 3291 3292 3293 3296 3304 3306 3306 3304 3302 3302 3302 3304 3309 3309 3309 3306 3305 3302 3302 3302 3302 3302 3302 3302 3299 3299 3292 3264 3222 3151 2834 2544 2504 2475 2475 2470 2468 2454 2424 2419 2415 2407 2403 2399 2398 2398 2392 2387 2381 2375 2369 2356 2354 2350 2344 2338 2333 2325 2313 2296 2282 2266 2252 2237 2230 2218 2218 2217 2216 2216 2215 2209 2199 2195 2188 0 0 0 0 0 0 0 0 0 0 0 0 0 0 2112 2132 2136 2136 2136 2134 2133 2133 2133 2133 2133 2133 2132 2131 2130 2128 2126 2125 2124 2122 2121 2120 2118 2115 2111 2109 2108 2107 2107 2107 2106 2105 2103 2102 2101 2100 2100 2099 2098 2096 2093 2091 2091 2091 2090 2090 2090 2090 2088 2087 2084 2084 2081 2078 2076 2074 2072 2069 2066 2064 2062 2060 2058 2056 2055 2055 2055 2055 2055 2055 2056 2056 2058 2059 2060 2062 2062 2062 2062 2062 2061 2060 2059 2056 2055 2053 2051 2048 2045 2041 2037 2033 2031 2027 2025 2022 2018 2013 2011 2009 2007 2006 2004 2003 2002 2002 2002 2003 2004 2008 2011 2012 2014 2015 2016 2018 2019 2020 2020 2020 2019 2017 2017 2017 2017 2014 2012 2009 2007 2006 2005 2003 2000 1997 1994 1992 1991 1990 1988 1985 1983 1980 1977 1974 1969 1965 1961 1958 1954 1949 1944 1942 1932 1921 1905 1879 1855 0 0 0 0 0 0 0 0 1315 1306 1295 1295 1292 1291 1291 1290 1290 1289 1289 1288 1286 1285 1285 1284 1283 1283 1282 1282 1282 1281 1281 1281 1281 1280 1280 1280 1280 1279 1279 1279 1278 1278 1277 1277 1277 1277 1277 1277 1277 1277 1277 1277 1277 1278 1278 1278 1278 1278 1277 1275 1278 1278 1278 1278 0 0 0 0 0 0 0 1937 1937 1933 1931 1928 1919 1904 1878 1839 1836 0 0 0 0 0 0 0 0 1386 1386 1386 1363 1360 1356 1356 1356 1357 1359 1360 1360 1360 1360 1354 1351 1351 1351 1355 1355 1355 0 0 0 0 0 0 0 0 0 0 0 0 0 0 0 0 0 0 0 0 0 0 0 0 0 0 0 0 0 0 0 0 0 0 0 0 0 0 0 0 0 0 0 0 0 0 0 0 0 0 0 0 0 0 0 0 0 0 0 0 0 0 0 0 0 0 0 0 0 0 0 0 0 0 0 0 0 0 0 0 0 0 0 0 0 0 0
0 0 0 0 0 0 0 0 0 0 0 0 0 0 0 0 0 0 0 0 0 0 0 0 0 0 0 0 0 0 0 0 0 0 0 0 0 0 0 0 0 0 0 0 0 0 0 0 0 0 0 0 0 0 3057 3072 3077 3090 3121 3122 3124 3134 3124 3139 3142 3148 3173 3173 3173 3161 3156 3152 3152 3147 3147 3142 3126 3125 3125 3124 3124 3126 3128 3133 3147 3198 3207 3217 3219 3239 3270 3270 3270 3218 3213 3213 3213 3221 3221 3221 3215 3215 3215 3239 3247 3247 3247 3247 3247 3267 3272 3272 3272 3255 3255 3255 3261 3261 3261 3231 3231 3231 3248 3248 3248 0 0 0 0 3286 3340 3340 3342 3342 3342 3355 3366 3366 3369 3378 3378 3378 3378 3378 3378 3390 3411 3411 3411 3385 3376 3376 3376 3415 3415 3415 3408 3383 3351 3321 3319 3319 3321 3331 3331 3331 3333 3333 3335 3335 3335 3335 3301 3278 3271 3271 3270 3270 3271 3280 3280 3280 3280 3280 3280 3281 3286 3284 3284 3284 3284 3284 3288 3288 3289 3294 3297 3303 3305 3306 3308 3313 3315 3315 3315 3311 3305 3305 3305 3310 3310 3310 3306 3305 3304 3303 3302 3302 3302 3302 3302 3300 3300 3285 3219 3145 3023 2722 2544 2504 2475 2475 2475 2468 2466 2423 2413 2409 2406 2403 2398 2397 2393 2392 2387 2382 2375 2369 2356 2354 2350 2344 2338 2331 2325 2308 2293 2279 2265 2248 2222 2218 2218 2218 2218 2217 2217 2215 2209 2202 2202 2201 2199 0 0 0 0 0 0 0 0 0 0 0 0 0 2112 2132 2134 2134 2134 2132 2132 2132 2132 2133 2133 2133 2132 2131 2130 2128 2126 2124 2123 2122 2121 2120 2117 2113 2111 2108 2108 2107 2107 2106 2105 2104 2102 2102 2101 2100 2099 2097 2095 2095 2093 2091 2090 2090 2090 2090 2090 2089 2085 2085 2084 2084 2081 2078 2076 2074 2072 2069 2066 2064 2062 2060 2058 2056 2055 2055 2055 2055 2055 2055 2055 2056 2056 2058 2060 2062 2062 2062 2062 2061 2061 2059 2058 2056 2054 2053 2050 2047 2044 2040 2037 2033 2031 2027 2024 2021 2017 2013 2011 2009 2007 2006 2004 2003 2001 2001 2001 2001 2004 2008 2011 2012 2014 2015 2016 2017 2018 2019 2019 2019 2019 2019 2018 2018 2018 2016 2013 2010 2008 2008 2006 2003 2000 1997 1994 1992 1991 1990 1988 1985 1983 1980 1977 1974 1969 1965 1960 1958 1952 1947 1944 1942 1932 1916 1903 1878 0 0 0 0 0 0 1333 1332 1324 1303 1297 1295 1295 1294 1294 1292 1291 1290 1289 1288 1288 1286 1285 1285 1285 1284 1283 1283 1282 1282 1282 1282 1281 1281 1281 1281 1280 1280 1279 1279 1279 1279 1278 1278 1277 1277 1277 1277 1277 1278 1277 1277 1278 1278 1278 1278 1278 1277 1277 1277 1276 1276 1277 1277 1277 0 0 0 0 0 0 0 1921 1926 1927 1927 1927 1923 1904 1870 1831 0 0 0 0 0 0 0 0 1403 1403 1403 1386 1360 1351 1349 1348 1348 1348 1351 1355 1359 1359 1359 1354 1351 1351 1351 1357 1357 1357 1350 0 0 0 0 0 0 0 0 0 0 0 0 0 0 0 0 0 0 0 0 0 0 0 0 0 0 0 0 0 0 0 0 0 0 0 0 0 0 0 0 0 0 0 0 0 0 0 0 0 0 0 0 0 0 0 0 0 0 0 0 0 0 0 0 0 0 0 0 0 0 0 0 0 0 0 0 0 0 0 0 0 0 0 0 0 0
0 0 0 0 0 0 0 0 0 0 0 0 0 0 0 0 0 0 0 0 0 0 0 0 0 0 0 0 0 0 0 0 0 0 0 0 0 0 0 0 0 0 0 0 0 0 0 0 0 0 0 0 0 0 3083 3120 3121 3134 3134 3124 3124 3134 3139 3148 3159 3161 3169 3169 3169 3161 3148 3134 3134 3134 3133 3133 3126 3125 3125 3126 3149 3169 3171 3179 3179 3201 3227 3234 3247 3257 3276 0 3276 3243 3235 3233 3235 3233 3232 3230 3215 3215 3215 3239 3248 3251 3252 3253 3253 3257 3271 3271 3271 3274 3274 3276 3276 3276 3270 3252 3249 3248 3248 3241 3241 0 0 0 0 3300 3350 3350 3350 3350 3350 3358 3370 3370 3372 3378 3378 3378 3390 3395 3395 3406 3417 3417 3417 3386 3386 3386 3399 3415 3415 3415 3408 3373 3351 3321 3321 3321 3335 3339 3339 3339 3338 3338 3338 3338 3338 3317 3290 3278 3275 3275 3275 3276 3278 3289 3289 3289 3281 3281 3281 3282 3286 3286 3295 3286 3284 3284 3292 3292 3301 3317 3317 3317 3317 3313 3313 3317 3315 3315 3315 3311 3306 3306 3306 3310 3311 3311 3311 3306 3306 3305 3302 3302 3302 3305 3309 3309 3305 3278 3187 3118 2959 2667 2544 2505 2496 2496 2486 2481 2466 2414 2405 2401 2400 2397 2394 2393 2392 2388 2388 2383 2376 2368 2354 2351 2350 2344 2337 2330 2324 2308 2293 2279 2265 2244 2222 2222 2222 2225 2225 2225 2221 2216 2210 2203 2203 2201 2199 0 0 0 0 0 0 0 0 0 0 0 0 0 2112 2137 2137 2137 2134 2132 2132 2132 2133 2133 2133 2133 2132 2130 2130 2128 2126 2124 2122 2121 2121 2120 2115 2111 2109 2107 2106 2106 2105 2104 2103 2103 2102 2102 2101 2100 2098 2096 2095 2094 2093 2091 2090 2090 2090 2090 2090 2088 2085 2085 2084 2084 2081 2078 2076 2074 2072 2070 2067 2064 2062 2060 2059 2058 2057 2056 2055 2055 2055 2055 2055 2055 2056 2057 2059 2060 2060 2061 2061 2061 2060 2059 2058 2056 2054 2053 2050 2047 2044 2040 2037 2033 2031 2028 2024 2021 2017 2013 2011 2009 2007 2006 2004 2003 2001 2001 2001 2001 2004 2008 2011 2013 2015 2015 2015 2017 2018 2020 2020 2020 2019 2019 2019 2018 2018 2016 2013 2011 2009 2008 2006 2004 2001 1997 1995 1993 1991 1990 1987 1985 1983 1980 1977 1974 1970 1964 1959 1956 1951 1944 1940 1933 1927 1915 1890 0 0 0 0 0 0 0 1316 1309 1308 1298 1297 1295 1295 1294 1294 1292 1291 1290 1289 1288 1288 1287 1286 1286 1285 1284 1284 1283 1283 1283 1283 1282 1282 1282 1281 1281 1281 1281 1280 1280 1280 1279 1279 1279 1279 1279 1279 1279 1278 1278 1278 1278 1278 1278 1278 1278 1278 1277 1277 1277 1277 1277 1277 1277 1277 1279 0 0 0 0 0 0 0 1917 1927 1927 1927 1923 1903 1869 0 0 0 0 0 0 0 1409 1408 1402 1402 1398 1383 1358 1351 1349 1344 1344 1344 1348 1352 1358 1358 1358 1353 1353 1353 1353 1358 1360 1360 1360 1350 0 0 0 0 0 0 0 0 0 0 0 0 0 0 0 0 0 0 0 0 0 0 0 0 0 0 0 0 0 0 0 0 0 0 0 0 0 0 0 0 0 0 0 0 0 0 0 0 0 0 0 0 0 0 0 0 0 0 0 0 0 0 0 0 0 0 0 0 0 0 0 0 0 0 0 0 0 0 0 0 0 0 0 0 0
0 0 0 0 0 0 0 0 0 0 0 0 0 0 0 0 0 0 0 0 0 0 0 0 0 0 0 0 0 0 0 0 0 0 0 0 0 0 0 0 0 0 0 0 0 0 0 0 0 0 3033 3044 3045 3049 3083 3126 3126 3126 3121 3121 3121 3124 3139 3152 3162 3163 3168 3168 3168 3161 3148 3134 3134 3134 3125 3126 3126 3126 3126 3142 3181 3215 3215 3215 3215 3215 3233 3246 3257 3265 3276 3276 3276 3249 3248 3247 3240 3239 3236 3230 3219 3219 3219 3239 3251 3252 3255 3256 3262 3267 3271 3276 3277 3283 3283 3283 3282 3278 3270 3263 3261 3259 3259 3259 3248 3241 0 0 0 3300 3350 3350 3353 3353 3353 3366 3371 3371 3371 3372 3376 3378 3401 3406 3410 3415 3429 3429 3429 3403 3403 3403 3403 3418 3418 3418 3408 3373 3351 3333 3333 3333 3349 3349 3349 3339 3338 3338 3338 3338 3338 3317 3290 3278 3278 3278 3295 3298 3298 3298 3298 3298 3295 3282 3282 3282 3290 3290 3300 3290 3298 3298 3300 3305 3321 3326 3326 3326 3324 3324 3323 3324 3324 3323 3316 3316 3307 3307 3307 3309 3311 3311 3312 3312 3312 3312 3316 3316 3315 3315 3326 3315 3309 3276 3179 3104 2923 2663 2545 2522 2504 2501 2497 2497 2466 2414 2405 2395 2395 2390 2390 2390 2390 2390 2390 2385 2376 2368 2350 2349 2347 2337 2332 2330 2324 2308 2293 2279 2265 2244 2229 2229 2228 2228 2228 2227 2222 2216 2210 2207 2207 2203 2201 0 0 0 0 0 0 0 0 0 0 0 0 0 2115 2137 2137 2137 2134 2132 2132 2132 2133 2133 2133 2133 2131 2130 2129 2128 2126 2124 2122 2121 2120 2117 2113 2111 2108 2107 2105 2104 2104 2103 2103 2103 2102 2102 2102 2100 2098 2096 2095 2094 2093 2091 2090 2090 2090 2090 2090 2088 2085 2085 2084 2084 2082 2079 2078 2074 2073 2070 2068 2066 2064 2062 2061 2059 2058 2056 2055 2055 2055 2055 2055 2055 2056 2057 2058 2059 2059 2060 2060 2060 2060 2059 2057 2056 2054 2053 2050 2047 2044 2040 2037 2034 2031 2028 2025 2021 2017 2013 2011 2008 2007 2006 2004 2003 2001 2001 2001 2001 2004 2007 2010 2013 2015 2015 2015 2017 2018 2020 2020 2020 2020 2019 2019 2019 2018 2016 2013 2011 2009 2008 2006 2004 2001 1997 1995 1993 1991 1989 1987 1985 1982 1979 1976 1974 1970 1964 1956 1950 1945 1929 1925 1922 1914 1898 0 0 0 0 0 0 0 1306 1299 1299 1297 1297 1296 1295 1295 1294 1294 1292 1291 1290 1289 1288 1288 1287 1287 1286 1286 1285 1284 1284 1284 1284 1284 1284 1283 1282 1282 1282 1282 1281 1281 1280 1280 1280 1279 1279 1279 1279 1279 1279 1279 1279 1279 1278 1278 1278 1278 1278 1278 1276 1276 1276 1276 1276 1276 1276 1276 1276 1282 0 0 0 0 0 0 1913 1925 1925 1925 1923 1899 1866 0 0 0 0 0 0 1428 1409 1408 1405 1404 1389 1367 1356 1351 1349 1344 1344 1344 1348 1352 1356 1356 1356 1353 1353 1353 1353 1358 1362 1362 1365 1365 1351 0 0 0 0 0 0 0 0 0 0 0 0 0 0 0 0 0 0 0 0 0 0 0 0 0 0 0 0 0 0 0 0 0 0 0 0 0 0 0 0 0 0 0 0 0 0 0 0 0 0 0 0 0 0 0 0 0 0 0 0 0 0 0 0 0 0 0 0 0 0 0 0 0 0 0 0 0 0 0 0 0 0 0 0
0 0 0 0 0 0 0 0 0 0 0 0 0 0 0 0 0 0 0 0 0 0 0 0 0 0 0 0 0 0 0 0 0 0 0 0 0 0 0 0 0 0 0 0 0 0 0 0 0 3037 3045 3049 3049 3056 3085 3126 3126 3126 3119 3108 3108 3108 3134 3157 3162 3163 3165 3165 3165 3163 3148 3134 3130 3130 3130 3135 3135 3140 3150 3155 3212 3251 3251 3251 3253 3252 3252 3253 3257 3257 3265 3257 3253 3251 3251 3247 3243 3243 3242 3242 3243 3247 3261 3261 3261 3260 3260 3260 3264 3270 3272 3278 3286 3286 3286 3283 3282 3278 3278 3271 3270 3268 3268 3268 3248 3241 3216 3216 3216 3300 3351 3351 3354 3354 3354 3370 3371 3371 3371 3372 3373 3379 3403 3406 3413 3415 3439 3439 3439 3424 3421 3420 3421 3421 3420 3419 3402 3373 3352 3344 3344 3344 3350 3350 3350 3341 3338 3338 3338 3338 3338 3317 3290 3290 3290 3298 3298 3298 3298 3298 3298 3298 3298 3288 3288 3287 3287 3295 3301 3300 3301 3301 3307 3321 3339 3339 3339 3338 3335 3333 3333 3326 3325 3324 3323 3318 3307 3307 3307 3310 3315 3315 3315 3315 3316 3316 3319 3316 3315 3310 3315 3308 3305 3264 3172 3100 2842 2620 2545 2530 2514 2508 2503 2495 2458 2414 2405 2393 2390 2390 2388 2388 2388 2389 2389 2389 2380 2368 2349 2347 2339 2336 2331 2330 2324 2314 2302 2279 2266 2244 2232 2231 2231 2231 2231 2227 2221 2215 2208 2208 2208 2204 2202 2184 0 0 0 0 0 0 0 0 0 0 0 0 2115 2136 2136 2136 2131 2131 2131 2132 2133 2133 2133 2133 2131 2130 2129 2128 2126 2124 2121 2118 2117 2114 2113 2110 2107 2106 2105 2104 2103 2103 2103 2103 2102 2102 2102 2099 2098 2096 2096 2095 2093 2092 2091 2091 2091 2091 2090 2088 2086 2085 2084 2084 2082 2079 2078 2074 2073 2070 2068 2066 2064 2062 2061 2059 2058 2056 2055 2055 2055 2055 2055 2056 2056 2057 2058 2058 2059 2060 2060 2060 2060 2059 2057 2056 2055 2054 2051 2047 2044 2040 2037 2034 2031 2028 2025 2022 2019 2014 2011 2006 2004 2004 2003 2002 2000 2000 2000 2001 2004 2007 2010 2013 2014 2015 2015 2017 2018 2020 2020 2020 2020 2019 2019 2019 2017 2015 2013 2011 2009 2008 2005 2003 2000 1997 1995 1993 1991 1989 1987 1985 1982 1979 1976 1974 1970 1963 1953 1943 1928 1917 1915 1911 1901 0 0 0 0 0 0 0 1303 1300 1299 1298 1297 1297 1297 1296 1295 1293 1293 1292 1291 1290 1289 1289 1288 1287 1287 1286 1286 1285 1285 1285 1285 1284 1284 1284 1284 1284 1283 1283 1282 1282 1281 1281 1281 1280 1280 1280 1280 1280 1280 1280 1280 1280 1280 1279 1279 1279 1279 1278 1278 1276 1276 1276 1276 1276 1276 1275 1275 1275 1280 0 0 0 0 0 0 0 1922 1922 1922 1919 1891 0 0 0 0 0 0 0 1428 1413 1407 1405 1403 1388 1366 1356 1351 1350 1343 1343 1343 1347 1351 1351 1352 1352 1351 1351 1353 1353 1358 1362 1364 1366 1368 1368 1364 0 0 0 0 0 0 0 0 0 0 0 0 0 0 0 0 0 0 0 0 0 0 0 0 0 0 0 0 0 0 0 0 0 0 0 0 0 0 0 0 0 0 0 0 0 0 0 0 0 0 0 0 0 0 0 0 0 0 0 0 0 0 0 0 0 0 0 0 0 0 0 0 0 0 0 0 0 0 0 0 0 0 0
0 0 0 0 0 0 0 0 0 0 0 0 0 0 0 0 0 0 0 0 0 0 0 0 0 0 0 0 0 0 0 0 0 0 0 0 0 0 0 0 0 0 0 0 0 0 0 0 0 3040 3056 3056 3056 3059 3085 3126 3126 3126 3109 3108 3108 3108 3134 3163 3167 3168 3168 3168 3168 3168 3165 3156 3142 3140 3135 3140 3140 3140 3150 3155 3212 3251 3277 3277 3277 3276 3267 3265 3252 3252 3250 3250 3250 3251 3251 3255 3255 3272 3272 3272 3266 3265 3265 3265 3265 3263 3263 3263 3265 3270 3272 3285 3287 3287 3287 3289 3289 3295 3299 3299 3299 3299 3299 3299 3299 3299 3236 3236 0 3254 3259 3345 3347 3351 3354 3370 3370 3370 3369 3369 3369 3379 3403 3404 3413 3415 3439 3442 3442 3442 3439 3439 3436 3431 3420 3412 3394 3373 3358 3345 3345 3345 3353 3353 3353 3353 3353 3353 3388 3388 3388 3363 3336 3318 3311 3304 3302 3298 3298 3296 3296 3295 3294 3286 3294 3290 3290 3300 3301 3301 3301 3303 3307 3321 3339 3339 3339 3338 3335 3333 3333 3326 3326 3325 3324 3318 3306 3306 3306 3310 3321 3321 3326 3326 3321 3315 3326 3315 3313 3305 3305 3305 3293 3240 3172 3050 2747 2586 2552 2530 2524 2512 2503 2482 2458 2418 2408 2393 2390 2390 2388 2388 2388 2389 2389 2389 2382 2368 2349 2340 2335 2333 2333 2331 2330 2323 2302 2279 2267 2252 2243 2242 2241 2239 2231 2227 2220 2213 2208 2208 2208 2206 2206 2186 0 0 0 0 0 0 0 0 0 0 0 0 2115 2135 2135 2135 2131 2131 2131 2132 2133 2133 2133 2133 2131 2130 2129 2128 2126 2124 2121 2118 2116 2114 2112 2109 2107 2106 2105 2104 2103 2103 2103 2103 2102 2102 2101 2099 2098 2097 2097 2096 2095 2093 2092 2092 2092 2092 2091 2090 2088 2088 2087 2086 2082 2079 2078 2074 2073 2070 2068 2066 2064 2062 2061 2059 2058 2056 2055 2055 2055 2055 2055 2055 2055 2057 2058 2058 2058 2059 2060 2060 2060 2059 2058 2057 2056 2054 2051 2047 2044 2041 2038 2034 2030 2028 2025 2023 2020 2015 2010 2006 2004 2002 2002 2001 2000 2000 2000 2001 2004 2005 2008 2012 2013 2013 2015 2017 2018 2020 2020 2020 2020 2019 2018 2017 2016 2014 2012 2010 2009 2007 2005 2003 2000 1997 1993 1991 1990 1989 1987 1985 1982 1979 1975 1970 1964 1958 1948 1935 1925 1916 1906 1896 0 0 0 0 0 0 0 1308 1303 1300 1299 1298 1297 1297 1297 1296 1295 1293 1293 1292 1291 1290 1289 1289 1288 1288 1287 1287 1286 1286 1286 1285 1285 1285 1285 1284 1284 1284 1283 1283 1283 1283 1282 1282 1281 1281 1281 1281 1281 1281 1281 1281 1281 1281 1281 1280 1280 1280 1279 1279 1278 1277 1277 1277 1277 1277 1277 1275 1275 1275 1280 1288 1299 1346 0 0 0 0 0 1922 1922 1907 0 0 0 0 0 0 0 0 1428 1413 1405 1402 1399 1384 1365 1355 1351 1350 1343 1343 1343 1345 1347 1347 1347 1346 1344 1344 1344 1345 1348 1356 1364 1366 1368 1368 1364 1347 0 0 0 0 0 0 0 0 0 0 0 0 0 0 0 0 0 0 0 0 0 0 0 0 0 0 0 0 0 0 0 0 0 0 0 0 0 0 0 0 0 0 0 0 0 0 0 0 0 0 0 0 0 0 0 0 0 0 0 0 0 0 0 0 0 0 0 0 0 0 0 0 0 0 0 0 0 0 0 0 0 0
0 0 0 0 0 0 0 0 0 0 0 0 0 0 0 0 0 0 0 0 0 0 0 0 0 0 0 0 0 0 0 0 0 0 0 0 0 0 0 0 3068 3068 3068 0 0 0 0 0 0 3054 3056 3056 3056 3067 3091 3119 3119 3119 3109 3108 3108 3108 3134 3165 3169 3170 3170 3169 3169 3168 3165 3158 3156 3144 3143 3143 3140 3140 3150 3155 3212 3251 3277 3277 3277 3276 3267 3259 3252 3252 3250 3250 3250 3251 3252 3252 3259 3280 3280 3280 3279 3271 3271 3271 3271 3271 3279 3288 3294 3294 3294 3295 3291 3290 3290 3293 3293 3310 3337 3342 3342 3348 3348 3342 3333 3332 3255 3254 3251 3251 3254 3323 3345 3357 3359 3376 3376 3376 3369 3369 3369 3390 3400 3403 3404 3413 3430 3433 3442 3442 3442 3439 3436 3434 3415 3407 3394 3370 3358 3349 3349 3349 3356 3357 3357 3357 3357 3373 3402 3412 3412 3412 3386 3365 3331 3309 3309 3307 3306 3303 3303 3297 3295 3286 3297 3290 3290 3300 3301 3301 3306 3307 3309 3321 3337 3337 3337 3337 3337 3335 3333 3333 3325 3324 3322 3301 3295 3295 3295 3306 3329 3331 3334 3336 3334 3334 3326 3315 3313 3309 3283 3278 3255 3240 3172 2992 2710 2586 2552 2537 2524 2512 2503 2477 2458 2446 2416 2393 2393 2390 2390 2390 2390 2390 2390 2389 2382 2369 2355 2340 2335 2335 2335 2332 2330 2328 2302 2280 2273 2271 2265 2259 2251 2239 2231 2223 2221 2215 2209 2208 2208 2207 2207 2186 0 0 0 0 0 0 0 0 0 0 0 0 2110 2129 2131 2131 2131 2131 2131 2132 2133 2133 2133 2133 2131 2130 2129 2127 2124 2122 2119 2117 2115 2113 2110 2108 2108 2107 2105 2104 2104 2103 2103 2102 2102 2102 2101 2099 2098 2097 2097 2096 2096 2095 2093 2093 2093 2093 2092 2092 2090 2089 2087 2086 2082 2078 2075 2072 2070 2067 2065 2064 2063 2062 2061 2059 2057 2056 2055 2055 2055 2055 2055 2055 2055 2057 2057 2058 2058 2059 2060 2060 2060 2059 2058 2058 2057 2055 2052 2048 2046 2042 2038 2034 2030 2028 2025 2024 2020 2016 2010 2006 2004 2002 2002 2001 1999 1999 1999 2001 2002 2003 2008 2011 2013 2013 2015 2016 2018 2020 2021 2021 2021 2020 2018 2017 2015 2014 2012 2009 2008 2007 2005 2003 2001 1997 1993 1991 1990 1989 1987 1984 1980 1977 1972 1966 1961 1955 1945 1934 1924 1910 0 0 0 0 0 0 0 0 1313 1307 1303 1300 1299 1299 1298 1297 1297 1296 1295 1293 1293 1293 1291 1291 1290 1289 1289 1288 1287 1287 1287 1286 1286 1286 1285 1285 1285 1285 1285 1285 1285 1283 1283 1283 1282 1282 1282 1282 1282 1281 1281 1281 1281 1281 1281 1281 1281 1281 1281 1280 1279 1279 1278 1278 1278 1278 1278 1278 1277 1276 1276 1276 1279 1285 1290 1299 0 0 0 0 0 0 0 0 0 0 0 0 0 0 1443 1441 1427 1413 1402 1394 1391 1375 1363 1355 1351 1350 1343 1343 1343 1343 1344 1344 1344 1344 1338 1338 1338 1340 1345 1354 1358 1370 1371 1371 1371 1350 1338 0 0 0 0 0 0 0 0 0 0 0 0 0 0 0 0 0 0 0 0 0 0 0 0 0 0 0 0 0 0 0 0 0 0 0 0 0 0 0 0 0 0 0 0 0 0 0 0 0 0 0 0 0 0 0 0 0 0 0 0 0 0 0 0 0 0 0 0 0 0 0 0 0 0 0 0 0 0 0 0 0
0 0 0 0 0 0 0 0 0 0 0 0 0 0 0 0 0 0 0 0 0 0 0 0 0 0 0 0 0 0 0 0 0 0 0 0 0 0 0 3075 3087 3093 3093 3087 0 0 0 0 3044 3054 3056 3066 3066 3067 3098 3119 3119 3119 3118 3118 3118 3130 3145 3167 3169 3175 3175 3169 3169 3169 3168 3163 3158 3156 3147 3147 3141 3141 3150 3155 3201 3248 3277 3277 3277 3276 3267 3252 3252 3250 3250 3250 3250 3252 3262 3265 3266 3281 3306 3306 3306 3287 3272 3271 3271 3271 3279 3292 3303 3315 3315 3315 3314 3297 3294 3294 3294 3315 3350 3381 3390 3394 3394 3390 3370 3332 3255 3250 3250 3250 3251 3312 3362 3362 3376 3377 3377 3377 3375 3375 3375 3394 3400 3402 3403 3404 3430 3433 3442 3442 3442 3439 3436 3434 3415 3403 3391 3370 3358 3354 3354 3354 3360 3372 3379 3382 3384 3399 3412 3424 3424 3424 3422 3390 3350 3326 3309 3307 3306 3303 3303 3297 3295 3286 3297 3297 3298 3301 3312 3310 3310 3312 3312 3324 3329 3337 3337 3329 3329 3331 3325 3331 3331 3325 3322 3298 3282 3282 3282 3298 3330 3336 3338 3338 3338 3338 3333 3316 3310 3304 3283 3278 3255 3240 3173 2988 2658 2586 2552 2530 2524 2512 2486 2475 2458 2447 2417 2407 2407 2406 2406 2406 2398 2395 2395 2389 2382 2375 2358 2340 2335 2335 2335 2334 2334 2328 2300 2280 2280 2275 2270 2262 2254 2240 2233 2223 2221 2215 2209 2209 2209 2208 2203 2191 0 0 0 0 0 0 0 0 0 0 0 0 2110 2127 2131 2131 2131 2131 2131 2131 2132 2132 2132 2131 2131 2129 2126 2125 2123 2120 2119 2116 2114 2112 2110 2108 2107 2107 2107 2105 2104 2103 2103 2102 2102 2101 2100 2099 2098 2097 2097 2097 2097 2096 2094 2094 2093 2093 2092 2092 2091 2089 2087 2086 2082 2077 2073 2068 2066 2063 2063 2062 2061 2061 2059 2058 2056 2055 2054 2054 2054 2054 2054 2054 2055 2057 2057 2058 2058 2059 2059 2060 2060 2060 2059 2059 2058 2056 2052 2049 2048 2044 2039 2034 2030 2028 2026 2024 2021 2016 2011 2007 2004 2002 2002 2000 1999 1999 1999 2001 2002 2002 2006 2010 2013 2013 2015 2016 2018 2020 2021 2021 2021 2020 2018 2017 2015 2013 2012 2009 2008 2006 2005 2003 2000 1998 1993 1991 1990 1989 1986 1983 1979 1975 1968 1961 1955 1951 1941 1929 1913 0 0 0 0 0 0 0 0 1314 1311 1306 1304 1302 1302 1299 1298 1298 1297 1296 1295 1294 1293 1293 1293 1291 1290 1290 1289 1288 1288 1287 1287 1287 1287 1286 1286 1285 1285 1285 1285 1285 1285 1284 1284 1283 1283 1283 1282 1282 1282 1282 1282 1282 1282 1282 1282 1282 1282 1282 1281 1281 1281 1280 1280 1279 1279 1279 1278 1278 1277 1275 1275 1275 1279 1281 1282 1291 0 0 0 0 0 0 0 0 0 0 0 0 0 1443 1443 1439 1426 1413 1402 1392 1381 1368 1359 1355 1350 1346 1341 1340 1340 1339 1339 1339 1338 1338 1337 1338 1338 1340 1345 1354 1358 1369 1369 1369 1369 1354 1352 1348 1348 1348 1348 0 0 0 0 0 0 0 0 0 0 0 0 0 0 0 0 0 0 0 0 0 0 0 0 0 0 0 0 0 0 0 0 0 0 0 0 0 0 0 0 0 0 0 0 0 0 0 0 0 0 0 0 0 0 0 0 0 0 0 0 0 0 0 0 0 0 0 0 0 0 0 0 0 0 0 0 0
0 0 0 0 0 0 0 0 0 0 0 0 0 0 0 0 0 0 0 0 0 0 0 0 0 0 0 0 0 0 0 0 0 0 0 3018 3020 3080 3080 3080 3087 3093 3093 3087 0 0 3041 3057 3057 3057 3058 3067 3068 3078 3108 3119 3119 3121 3121 3121 3147 3152 3156 3168 3182 3183 3183 3182 3175 3169 3169 3169 3168 3164 3160 3157 3151 3151 3155 3155 3201 3231 3255 3258 3258 3258 3255 3254 3254 3250 3250 3254 3257 3257 3262 3269 3273 3292 3306 3306 3306 3290 3273 3271 3271 3271 3279 3292 3305 3315 3320 3320 3320 3313 3305 3305 3305 3327 3354 3382 3390 3394 3394 3390 3370 3332 3255 3235 3235 3235 3251 3309 3372 3386 3407 3407 3407 3391 3386 3386 3386 3395 3400 3402 3403 3413 3430 3433 3440 3440 3440 3434 3431 3426 3410 3389 3367 3353 3351 3351 3351 3354 3360 3372 3392 3410 3414 3422 3422 3425 3425 3425 3422 3402 3372 3348 3330 3323 3309 3303 3303 3301 3301 3313 3315 3315 3315 3315 3312 3310 3310 3312 3312 3324 3326 3326 3326 3322 3313 3313 3313 3329 3329 3329 3322 3290 3266 3266 3266 3289 3318 3334 3339 3339 3339 3338 3333 3319 3310 3304 3283 3278 3260 3255 3218 2976 2658 2575 2552 2530 2522 2502 2480 2463 2458 2448 2419 2416 2416 2414 2414 2413 2410 2400 2395 2389 2382 2377 2358 2343 2336 2336 2336 2334 2334 2329 2300 2283 2281 2280 2270 2262 2254 2241 2233 2223 2221 2219 2217 2212 2209 2203 2198 2192 2179 0 0 0 0 0 0 0 0 0 0 0 2108 2126 2127 2128 2129 2129 2129 2130 2131 2131 2131 2130 2129 2127 2125 2123 2122 2120 2118 2116 2114 2112 2110 2108 2107 2107 2107 2105 2104 2103 2103 2101 2101 2101 2100 2099 2099 2098 2098 2097 2097 2096 2096 2095 2094 2093 2093 2093 2091 2089 2087 2086 2082 2077 2071 2066 2064 2061 2060 2059 2059 2059 2058 2056 2055 2053 2053 2053 2053 2053 2053 2053 2054 2056 2056 2058 2058 2059 2059 2060 2060 2060 2059 2059 2058 2056 2054 2051 2049 2045 2040 2035 2031 2028 2026 2024 2021 2016 2012 2008 2004 2003 2002 2000 1999 1999 1999 2000 2001 2002 2005 2010 2012 2013 2014 2016 2018 2020 2021 2021 2021 2020 2018 2017 2015 2013 2012 2008 2008 2005 2004 2002 2000 2000 1998 1994 1990 1989 1986 1982 1978 1972 1964 1955 1946 1940 1922 0 0 0 0 0 0 0 0 1321 1313 1312 1311 1306 1304 1302 1302 1300 1299 1298 1298 1297 1296 1295 1294 1293 1293 1292 1291 1290 1289 1288 1287 1287 1287 1287 1287 1286 1286 1285 1285 1285 1285 1285 1285 1285 1284 1284 1284 1283 1283 1283 1283 1283 1283 1283 1283 1283 1283 1283 1282 1282 1282 1282 1282 1281 1280 1279 1279 1279 1278 1278 1277 1276 1275 1275 1275 1278 1280 1282 0 0 0 0 0 0 0 0 0 0 0 0 0 1443 1443 1437 1418 1413 1399 1392 1377 1366 1355 1347 1345 1342 1341 1338 1338 1338 1337 1337 1335 1335 1335 1335 1336 1338 1345 1351 1358 1369 1369 1369 1366 1354 1354 1349 1349 1349 1349 1350 1350 1348 1329 1318 1315 1300 1286 0 0 0 0 0 0 0 0 0 0 0 0 0 0 0 0 0 0 0 0 0 0 0 0 0 0 0 0 0 0 0 0 0 0 0 0 0 0 0 0 0 0 0 0 0 0 0 0 0 0 0 0 0 0 0 0 0 0 0 0 0 0 0 0 0 0 0 0 0
0 0 0 0 0 0 0 0 0 0 0 0 0 0 0 0 0 0 0 0 0 0 0 0 0 0 0 0 0 0 0 0 0 0 3018 3115 3115 3132 3115 3114 3093 3114 3096 3093 3096 0 3067 3063 3063 3063 3067 3068 3083 3097 3126 3126 3128 3129 3139 3140 3160 3168 3170 3170 3187 3192 3192 3192 3184 3175 3170 3169 3169 3169 3168 3166 3162 3162 3162 3167 3201 3231 3255 3258 3258 3258 3255 3255 3255 3254 3256 3257 3261 3261 3267 3272 3281 3294 3308 3308 3308 3292 3278 3269 3269 3269 3277 3297 3310 3315 3324 3324 3324 3318 3315 3315 3315 3327 3356 3384 3390 3394 3394 3390 3370 3335 3277 3250 3250 3250 3269 3312 3377 3414 3421 3421 3421 3412 3409 3408 3405 3403 3403 3403 3417 3433 3453 3461 3461 3461 3439 3424 3419 3418 3410 3389 3358 3341 3341 3341 3348 3354 3360 3372 3393 3422 3422 3427 3427 3428 3428 3428 3422 3408 3385 3372 3364 3330 3323 3323 3323 3333 3348 3349 3349 3349 3334 3320 3320 3319 3316 3319 3320 3320 3320 3320 3315 3310 3305 3305 3305 3329 3329 3329 3316 3288 3266 3266 3266 3289 3309 3334 3339 3339 3339 3338 3333 3332 3331 3305 3305 3305 3305 3299 3218 2959 2658 2575 2552 2524 2509 2488 2472 2462 2459 2448 2427 2423 2421 2421 2421 2416 2411 2410 2403 2389 2384 2377 2360 2343 2337 2337 2336 2334 2334 2329 2300 2291 2288 2283 2277 2267 2256 2241 2233 2227 2226 2223 2219 2214 2209 2203 2196 2192 2179 0 0 0 0 0 0 0 0 0 0 0 2103 2125 2127 2127 2127 2127 2127 2129 2131 2131 2131 2130 2129 2127 2124 2123 2121 2120 2118 2116 2113 2112 2110 2108 2108 2107 2107 2105 2104 2103 2102 2101 2101 2101 2100 2100 2099 2098 2098 2098 2098 2097 2096 2095 2094 2093 2093 2093 2091 2088 2086 2083 2080 2076 2071 2066 2063 2061 2059 2059 2059 2058 2057 2056 2054 2052 2052 2052 2052 2052 2052 2053 2053 2054 2055 2056 2058 2059 2059 2060 2060 2060 2059 2059 2058 2057 2055 2053 2050 2047 2043 2037 2031 2028 2025 2024 2020 2017 2012 2008 2005 2003 2002 2000 1999 1999 1999 2000 2001 2002 2005 2010 2012 2013 2014 2015 2017 2019 2021 2021 2021 2020 2018 2017 2015 2013 2012 2008 2006 2003 2001 2000 2000 2000 1998 1995 1990 1989 1986 1979 1972 1961 1951 1946 1940 1925 0 0 0 0 0 0 0 0 1324 1316 1310 1310 1308 1306 1304 1302 1302 1300 1299 1298 1298 1297 1296 1296 1294 1294 1293 1292 1291 1290 1289 1288 1287 1287 1287 1287 1287 1287 1287 1286 1286 1286 1286 1286 1286 1285 1284 1284 1284 1284 1284 1284 1284 1284 1284 1284 1284 1284 1284 1283 1283 1283 1283 1282 1282 1281 1281 1280 1280 1280 1279 1279 1278 1276 1275 1275 1275 1276 1276 1276 0 0 0 0 0 0 0 0 0 0 0 0 0 1446 1443 1429 1418 1409 1398 1390 1376 1366 1355 1347 1345 1339 1338 1337 1336 1335 1335 1335 1334 1334 1333 1333 1334 1336 1340 1351 1361 1369 1369 1369 1366 1355 1354 1354 1355 1356 1356 1356 1350 1348 1330 1319 1315 1311 1307 1289 0 0 0 0 0 0 0 0 0 0 0 0 0 0 0 0 0 0 0 0 0 0 0 0 0 0 0 0 0 0 0 0 0 0 0 0 0 0 0 0 0 0 0 0 0 0 0 0 0 0 0 0 0 0 0 0 0 0 0 0 0 0 0 0 0 0 0 0
0 0 0 0 0 0 0 0 0 0 0 0 0 0 0 0 0 0 0 0 0 0 0 0 0 0 0 0 0 0 0 0 0 3014 3096 3115 3130 3132 3130 3115 3111 3090 3090 3088 3088 3088 3087 3065 3065 3065 3065 3068 3083 3099 3127 3144 3144 3155 3157 3157 3178 3178 3179 3183 3187 3197 3200 3200 3200 3187 3175 3175 3175 3179 3187 3190 3194 3198 3198 3201 3216 3231 3255 3258 3258 3258 3255 3255 3255 3275 3275 3275 3278 3278 3278 3293 3299 3311 3321 3321 3321 3307 3287 3286 3277 3277 3277 3297 3310 3315 3328 3336 3336 3336 3326 3326 3326 3333 3356 3384 3386 3386 3386 3370 3354 3335 3283 3256 3256 0 3269 3308 3377 3414 3439 3439 3439 3431 3425 3423 3419 3419 3419 3419 3437 3457 3477 3477 3477 3467 3434 3423 3413 3410 3410 3389 3358 3341 3340 3340 3341 3346 3352 3371 3401 3428 3429 3431 3434 3435 3435 3435 3418 3413 3406 3396 3370 3367 3358 3352 3352 3352 3370 3371 3371 3370 3365 3351 3330 3326 3321 3321 3321 3321 3321 3320 3315 3310 3305 3305 3305 3329 3329 3329 3313 3288 3266 3266 3266 3289 3309 3334 3339 3339 3339 3338 3333 3332 3332 3331 3333 3334 3334 3327 3218 2956 2658 2573 2530 2515 2499 2488 2472 2462 2459 2448 2436 2431 2428 2427 2427 2425 2418 2411 2410 2395 2385 2377 2360 2343 2337 2337 2334 2334 2334 2328 2309 2296 2290 2284 2281 2267 2256 2253 2241 2233 2228 2224 2220 2214 2209 2203 2195 2191 2180 0 0 0 0 0 0 0 0 0 0 0 2096 2122 2126 2126 2127 2127 2127 2129 2131 2131 2131 2129 2128 2126 2124 2122 2121 2120 2117 2116 2113 2111 2110 2108 2108 2107 2106 2105 2104 2103 2102 2101 2101 2101 2101 2100 2099 2098 2098 2098 2098 2098 2097 2095 2094 2093 2093 2093 2091 2088 2084 2081 2078 2074 2070 2066 2063 2061 2059 2058 2058 2058 2057 2055 2053 2052 2051 2051 2051 2051 2052 2053 2053 2053 2054 2055 2057 2058 2059 2060 2060 2060 2059 2059 2058 2057 2055 2053 2051 2048 2044 2038 2033 2028 2025 2024 2020 2017 2012 2008 2005 2004 2002 2002 2001 2000 2000 2000 2001 2001 2005 2010 2012 2013 2014 2015 2017 2019 2021 2021 2021 2020 2018 2017 2015 2013 2012 2008 2004 2001 1999 1999 1999 1999 1998 1995 1990 1988 1981 1973 1963 1951 1943 1936 1928 0 0 0 0 0 0 0 0 1326 1320 1316 1310 1308 1305 1303 1303 1302 1302 1300 1300 1298 1298 1298 1297 1296 1295 1294 1293 1292 1291 1290 1289 1288 1287 1287 1287 1287 1287 1287 1287 1286 1286 1286 1286 1286 1286 1285 1285 1285 1285 1285 1285 1285 1284 1284 1284 1284 1284 1284 1284 1283 1283 1283 1283 1283 1282 1282 1282 1281 1281 1280 1280 1279 1278 1277 1276 1275 1275 1274 1274 1274 1274 0 0 0 0 0 0 0 0 0 0 0 1452 1449 1446 1424 1409 1402 1398 1389 1376 1366 1355 1347 1341 1338 1335 1332 1332 1332 1333 1333 1333 1333 1333 1333 1334 1336 1340 1351 1363 1369 1369 1369 1369 1367 1367 1358 1360 1360 1356 1350 1348 1347 1330 1319 1315 1313 1313 1312 1312 0 0 0 0 0 0 0 0 0 0 0 0 0 0 0 0 0 0 0 0 0 0 0 0 0 0 0 0 0 0 0 0 0 0 0 0 0 0 0 0 0 0 0 0 0 0 0 0 0 0 0 0 0 0 0 0 0 0 0 0 0 0 0 0 0 0 0
0 0 0 0 0 0 0 0 0 0 0 0 0 0 0 0 0 0 0 0 0 0 0 0 0 0 0 0 0 0 0 0 0 3014 3096 3102 3113 3115 3115 3115 3107 3080 3080 3080 3087 3087 3087 3067 3067 3067 3069 3078 3083 3103 3129 3155 3157 3171 3174 3176 3192 3192 3192 3193 3197 3197 3200 3212 3212 3212 3202 3202 3202 3219 3228 3228 3237 3237 3237 3238 3243 3248 3261 3263 3263 3263 3260 3260 3260 3284 3292 3293 3295 3302 3307 3313 3321 3323 3331 3331 3323 3313 3291 3291 3277 3277 3277 3303 3320 3326 3328 3336 3336 3336 3326 3326 3326 3336 3357 3386 3386 3386 3386 3370 3351 3335 3313 3279 3273 3273 3279 3308 3377 3414 3439 3440 3440 3440 3430 3430 3428 3428 3428 3431 3453 3464 3482 3482 3482 3477 3439 3419 3413 3411 3410 3390 3358 3341 3339 3329 3329 3329 3347 3370 3401 3428 3429 3431 3435 3431 3429 3416 3413 3410 3410 3401 3397 3388 3377 3360 3360 3360 3370 3374 3375 3374 3370 3364 3338 3338 3336 3327 3338 3340 3329 3329 3329 3310 3305 3305 3305 3321 3321 3321 3299 3288 3286 3286 3286 3289 3309 3334 3336 3336 3336 3332 3332 3331 3332 3331 3333 3338 3338 3331 3166 2860 2658 2561 2526 2514 2499 2488 2472 2462 2459 2455 2453 2433 2433 2432 2431 2431 2428 2417 2412 2405 2385 2376 2360 2345 2343 2335 2335 2334 2332 2327 2311 2296 2291 2285 2282 2267 2259 2257 2253 2235 2228 2224 2220 2212 2207 2203 2194 2192 2182 0 0 0 0 0 0 0 0 0 1976 2043 2080 2121 2126 2126 2126 2126 2126 2128 2130 2130 2130 2129 2127 2126 2123 2122 2120 2118 2117 2115 2113 2111 2110 2108 2108 2107 2106 2105 2103 2102 2102 2101 2101 2101 2101 2100 2099 2098 2098 2098 2098 2098 2097 2096 2095 2095 2094 2093 2091 2088 2084 2080 2076 2071 2068 2066 2062 2061 2059 2058 2058 2057 2057 2055 2052 2051 2050 2050 2050 2050 2051 2052 2052 2053 2053 2055 2056 2057 2059 2059 2059 2059 2059 2058 2057 2057 2055 2053 2051 2048 2044 2041 2034 2029 2027 2024 2021 2017 2012 2008 2006 2004 2004 2002 2001 2000 2000 2000 2000 2001 2004 2010 2012 2013 2014 2015 2016 2019 2020 2020 2020 2019 2017 2016 2015 2013 2011 2008 2004 2001 1999 1999 1998 1998 1998 1994 1988 1983 1978 1967 1952 1939 1932 1921 0 0 0 0 0 0 0 0 1323 1310 1309 1309 1306 1306 1305 1303 1303 1302 1302 1300 1300 1298 1298 1298 1297 1297 1295 1294 1293 1292 1291 1290 1289 1288 1287 1286 1286 1285 1285 1286 1286 1286 1286 1286 1286 1285 1285 1285 1285 1285 1285 1285 1285 1285 1285 1285 1285 1285 1285 1285 1285 1284 1284 1284 1284 1284 1283 1283 1283 1282 1281 1280 1280 1279 1278 1278 1278 1276 1275 1275 1274 1274 1274 1275 0 0 0 0 0 0 0 0 0 1468 1452 1449 1446 1423 1409 1402 1396 1386 1376 1366 1355 1346 1339 1337 1334 1331 1328 1328 1328 1330 1331 1332 1332 1332 1332 1332 1336 1346 1363 1369 1369 1369 1369 1367 1367 1358 1358 1356 1353 1344 1332 1331 1329 1318 1311 1311 1311 1312 1312 1312 0 0 0 0 0 0 0 0 0 0 0 0 0 0 0 0 0 0 0 0 0 0 0 0 0 0 0 0 0 0 0 0 0 0 0 0 0 0 0 0 0 0 0 0 0 0 0 0 0 0 0 0 0 0 0 0 0 0 0 0 0 0 0 0 0 0
0 0 0 0 0 0 0 0 0 0 0 0 0 0 0 0 0 0 0 0 0 0 0 0 0 0 0 0 0 0 0 0 0 3027 3085 3098 3113 3115 3115 3115 3094 3078 3076 3076 3076 3087 3087 3087 3086 3073 3073 3082 3086 3103 3129 3155 3157 3171 3174 3191 3207 3207 3207 3206 3205 3205 3205 3213 3215 3216 3217 3217 3225 3261 3265 3265 3265 3260 3260 3260 3278 3294 3294 3294 3279 3273 3267 3267 3267 3286 3299 3303 3307 3316 3332 3336 3336 3336 3336 3336 3334 3334 3331 3296 3294 3294 3294 3325 3332 3337 3339 3339 3339 3339 3330 3330 3330 3339 3369 3388 3388 3388 3384 3370 3351 3335 3314 3280 3274 3274 3280 3309 3401 3414 3447 3449 3449 3449 3442 3433 3433 3433 3440 3453 3460 3471 3483 3483 3483 3478 3440 3419 3416 3413 3410 3408 3391 3391 3362 3329 3329 3329 3347 3370 3394 3421 3427 3429 3434 3429 3429 3416 3413 3410 3409 3409 3397 3391 3381 3375 3375 3375 3378 3378 3378 3375 3375 3365 3343 3341 3338 3334 3338 3340 3335 3335 3335 3331 3328 3328 3329 3321 3321 3321 3299 3295 3288 3288 3288 3297 3309 3334 3334 3334 3334 3326 3324 3324 3324 3324 3331 3338 3338 3331 3094 2750 2615 2531 2522 2511 2498 2488 2476 2467 2465 2464 2462 2447 2434 2433 2431 2431 2428 2418 2412 2405 2388 2376 2362 2351 2344 2337 2335 2334 2328 2326 2313 2297 2294 2294 2292 2271 2263 2260 2256 2239 2228 2224 2220 2212 2207 2198 2193 2193 2185 0 0 0 2037 2037 2037 2037 2008 2008 2008 2020 2074 2118 2126 2126 2126 2126 2126 2127 2128 2128 2128 2128 2125 2124 2122 2121 2119 2117 2116 2113 2113 2111 2110 2109 2108 2107 2106 2105 2103 2102 2101 2101 2101 2101 2101 2100 2099 2098 2098 2098 2098 2098 2097 2096 2095 2095 2094 2093 2091 2088 2084 2080 2075 2069 2066 2064 2061 2059 2058 2056 2055 2055 2054 2053 2051 2050 2049 2048 2048 2048 2050 2050 2050 2051 2052 2054 2055 2056 2058 2058 2058 2058 2058 2058 2056 2055 2053 2051 2051 2048 2044 2041 2035 2030 2027 2024 2021 2018 2012 2009 2007 2005 2004 2003 2002 2001 2000 2000 2000 2001 2004 2008 2010 2013 2013 2014 2016 2017 2019 2019 2019 2018 2017 2015 2013 2012 2010 2007 2003 2001 1998 1998 1997 1995 1993 1989 1982 1976 1968 1956 1943 1930 1917 0 0 0 0 0 0 0 1316 1313 1310 1309 1308 1307 1306 1306 1305 1303 1303 1302 1302 1301 1300 1300 1299 1298 1298 1297 1295 1294 1293 1292 1291 1290 1289 1288 1286 1286 1285 1285 1284 1284 1284 1285 1285 1285 1285 1285 1286 1286 1286 1286 1286 1286 1286 1286 1286 1286 1286 1285 1285 1285 1285 1285 1285 1284 1284 1284 1284 1284 1283 1283 1283 1282 1280 1280 1279 1279 1278 1278 1277 1275 1274 1274 1274 1274 1283 0 0 0 0 0 0 0 1483 1465 1452 1449 1440 1420 1409 1400 1394 1386 1376 1366 1355 1344 1339 1335 1333 1331 1328 1328 1328 1328 1331 1331 1331 1331 1331 1331 1333 1342 1363 1369 1369 1369 1366 1366 1366 1357 1357 1354 1340 1340 1328 1316 1302 1300 1300 1300 1307 1312 1312 1312 0 0 0 0 0 0 0 0 0 0 0 0 0 0 0 0 0 0 0 0 0 0 0 0 0 0 0 0 0 0 0 0 0 0 0 0 0 0 0 0 0 0 0 0 0 0 0 0 0 0 0 0 0 0 0 0 0 0 0 0 0 0 0 0 0 0
0 0 0 0 0 0 0 0 0 0 0 0 0 0 0 0 0 0 0 0 0 0 0 0 0 0 0 0 0 0 0 0 0 0 3058 3102 3113 3113 3113 3113 3085 3071 3067 3067 3067 3081 3102 3102 3102 3090 3082 3082 3090 3103 3128 3155 3157 3162 3174 3191 3207 3220 3227 3227 3227 3220 3220 3213 3216 3220 3220 3231 3249 3261 3282 3282 3282 3269 3269 3269 3280 3294 3303 3303 3303 3293 3279 3279 3279 3286 3299 3316 3327 3334 3344 3344 3344 3341 3341 3338 3338 3336 3331 3318 3307 3307 3307 3329 3332 3339 3339 3339 3339 3339 3337 3337 3337 3356 3381 3383 3383 3383 3379 3366 3353 3346 3314 3284 3282 3282 3284 3315 3402 3414 3447 3458 3464 3464 3464 3454 3454 3454 3462 3478 3483 3484 3497 3503 3503 3503 3447 3433 3427 3419 3416 3416 3411 3411 3393 3346 3346 3346 3347 3371 3394 3408 3418 3420 3420 3420 3420 3414 3410 3409 3407 3407 3397 3393 3393 3393 3393 3393 3387 3381 3378 3376 3376 3368 3347 3343 3341 3334 3341 3341 3341 3341 3341 3339 3332 3332 3332 3332 3332 3321 3303 3299 3297 3297 3297 3297 3309 3334 3334 3334 3330 3322 3319 3319 3319 3324 3327 3327 3327 3309 3059 2697 2545 2511 2509 2508 2499 2490 2478 2477 2476 2471 2465 2452 2434 2433 2431 2431 2428 2418 2412 2407 2396 2376 2367 2355 2345 2340 2339 2334 2327 2326 2313 2304 2298 2297 2296 2285 2274 2263 2257 2239 2229 2225 2220 2215 2207 2198 2193 2193 2185 0 0 2046 2046 2046 2057 2057 2057 2020 2020 2020 2074 2115 2128 2128 2128 2127 2127 2127 2127 2127 2127 2127 2125 2122 2119 2118 2117 2116 2114 2113 2112 2111 2110 2109 2108 2107 2106 2105 2103 2102 2101 2101 2101 2101 2101 2099 2098 2098 2097 2097 2097 2097 2096 2096 2095 2095 2094 2092 2091 2088 2084 2080 2074 2068 2063 2061 2059 2057 2056 2054 2054 2053 2052 2051 2051 2049 2047 2047 2047 2047 2048 2048 2049 2049 2050 2052 2054 2055 2056 2057 2057 2057 2057 2057 2056 2055 2052 2049 2047 2047 2044 2041 2035 2031 2029 2026 2022 2018 2014 2011 2008 2005 2004 2003 2002 2001 2000 1999 1999 1999 2002 2007 2010 2012 2012 2013 2014 2016 2017 2017 2017 2017 2016 2015 2013 2011 2009 2007 2003 2001 1998 1996 1992 1989 1985 1978 1972 1968 1963 1953 1937 0 0 0 0 0 0 0 0 1315 1312 1311 1310 1309 1308 1307 1306 1306 1305 1303 1303 1303 1303 1301 1301 1300 1299 1299 1298 1297 1296 1295 1294 1292 1291 1290 1289 1288 1286 1286 1285 1284 1283 1283 1283 1283 1284 1285 1285 1285 1286 1286 1286 1286 1286 1286 1287 1287 1287 1287 1287 1287 1286 1286 1286 1286 1286 1285 1285 1285 1285 1285 1285 1284 1283 1282 1282 1280 1279 1279 1279 1278 1278 1278 1278 1277 1277 1278 1280 0 0 0 0 0 0 0 1463 1456 1449 1446 1432 1419 1408 1399 1394 1384 1371 1356 1347 1343 1338 1334 1333 1329 1327 1326 1326 1326 1326 1328 1329 1329 1329 1329 1331 1341 1358 1368 1368 1368 1365 1363 1360 1355 1355 1340 1327 1319 1313 1297 1287 1287 1287 1292 1302 1306 1306 1305 0 0 0 0 0 0 0 0 0 0 0 0 0 0 0 0 0 0 0 0 0 0 0 0 0 0 0 0 0 0 0 0 0 0 0 0 0 0 0 0 0 0 0 0 0 0 0 0 0 0 0 0 0 0 0 0 0 0 0 0 0 0 0 0 0 0
0 0 0 0 0 0 0 0 0 0 0 0 0 0 0 0 0 0 0 0 0 0 0 0 0 0 0 0 0 0 0 0 0 3038 3074 3102 3103 3108 3108 3103 3084 3067 3067 3067 3067 3081 3148 3148 3148 3139 3100 3097 3097 3097 3128 3155 3157 3162 3167 3191 3207 3220 3236 3236 3236 3226 3224 3224 3216 3224 3224 3231 3249 3261 3284 3284 3284 3272 3272 3272 3280 3294 3303 3303 3303 3293 3290 3290 3290 3296 3316 3336 3351 3352 3352 3352 3351 3344 3342 3342 3341 3341 3341 3332 3325 3325 3325 3329 3337 3339 3339 3339 3339 3339 3339 3339 3356 3386 3396 3396 3396 3383 3379 3366 3353 3346 3314 3289 3282 3282 3289 3329 3426 3440 3448 3462 3486 3486 3486 3476 3476 3476 3476 3484 3491 3493 3497 3503 3503 3503 3489 3453 3440 3423 3418 3418 3418 3411 3411 3383 3369 3369 3369 3385 3394 3397 3413 3417 3417 3417 3415 3414 3405 3405 3405 3405 3405 3398 3398 3398 3393 3393 3387 3381 3380 3379 3378 3369 3353 3343 3342 3339 3342 3342 3345 3345 3345 3340 3340 3338 3336 3336 3334 3318 3308 3302 3302 3303 3308 3318 3320 3320 3320 3319 3317 3314 3312 3312 3312 3316 3316 3316 3291 3233 2997 2658 2545 2511 2511 2508 2499 2491 2481 2478 2477 2471 2465 2454 2434 2432 2431 2429 2425 2418 2413 2409 2398 2385 2368 2356 2353 2350 2347 2334 2327 2326 2316 2308 2307 2305 2303 2298 2289 2272 2265 2248 2229 2225 2220 2216 2209 2198 2193 2185 2185 0 0 2046 2046 2046 2057 2057 2057 2020 2020 2020 2074 2110 2126 2133 2133 2133 2132 2128 2127 2127 2126 2125 2124 2122 2119 2118 2117 2115 2114 2113 2112 2111 2110 2109 2108 2107 2106 2105 2104 2102 2102 2102 2101 2101 2100 2099 2098 2097 2097 2097 2097 2096 2096 2095 2095 2095 2093 2091 2090 2087 2084 2079 2073 2067 2062 2060 2059 2056 2056 2054 2053 2051 2051 2050 2049 2046 2045 2045 2045 2046 2046 2047 2047 2047 2049 2051 2052 2054 2055 2055 2056 2056 2056 2055 2054 2053 2051 2049 2046 2044 2042 2038 2035 2032 2029 2026 2023 2020 2017 2012 2008 2005 2004 2003 2002 2001 1999 1997 1997 1997 2001 2007 2009 2011 2012 2012 2013 2016 2016 2016 2016 2015 2014 2013 2013 2011 2009 2006 2003 2000 1995 1991 1987 1983 1976 1970 1964 1960 1955 1943 0 0 0 0 0 0 0 0 1321 1315 1312 1311 1310 1309 1308 1308 1308 1307 1306 1304 1304 1303 1303 1302 1301 1301 1300 1299 1298 1297 1296 1295 1294 1292 1291 1290 1288 1287 1286 1284 1283 1282 1282 1282 1282 1282 1283 1284 1284 1285 1286 1286 1286 1287 1287 1287 1287 1287 1287 1287 1287 1287 1287 1287 1287 1286 1286 1286 1286 1285 1285 1285 1285 1285 1284 1282 1282 1281 1280 1279 1279 1279 1279 1279 1279 1278 1278 1278 1280 1284 0 0 0 0 0 1457 1452 1441 1438 1435 1420 1413 1407 1399 1388 1377 1371 1356 1346 1341 1337 1334 1332 1329 1327 1324 1324 1324 1324 1325 1327 1328 1328 1329 1331 1335 1346 1361 1361 1361 1357 1353 1350 1343 1335 1319 1306 1300 1296 1291 1285 1282 1282 1282 1290 1290 1290 1257 0 0 0 0 0 0 0 0 0 0 0 0 0 0 0 0 0 0 0 0 0 0 0 0 0 0 0 0 0 0 0 0 0 0 0 0 0 0 0 0 0 0 0 0 0 0 0 0 0 0 0 0 0 0 0 0 0 0 0 0 0 0 0 0 0 0
0 0 0 0 0 0 0 0 0 0 0 0 0 0 0 0 0 0 0 0 0 0 0 0 0 0 0 0 0 0 0 0 0 2 3074 3080 3091 3091 3091 3079 3079 3066 3066 3066 3067 3081 3152 3152 3152 3146 3130 3097 3097 3097 3130 3155 3157 3162 3167 3177 3189 3220 3238 3238 3241 3241 3241 3234 3227 3227 3227 3247 3251 3266 3271 3276 3276 3276 3276 3276 3284 3288 3303 3303 3303 3297 3297 3297 3314 3334 3354 3360 3360 3360 3360 3359 3355 3353 3343 3343 3343 3344 3344 3344 3344 3344 3339 3339 3339 3340 3340 3342 3342 3346 3353 3369 3387 3402 3402 3402 3391 3372 3368 3366 3358 3353 3314 3289 3282 3282 3289 3370 3464 3481 3482 3487 3491 3491 3491 3487 3483 3483 3483 3484 3491 3497 3497 3503 3503 3503 3490 3467 3441 3423 3416 3416 3416 3414 3414 3414 3408 3395 3393 3394 3395 3395 3410 3412 3415 3415 3415 3415 3404 3404 3404 3404 3404 3398 3398 3398 3393 3393 3390 3390 3387 3383 3383 3375 3364 3351 3344 3343 3343 3344 3345 3345 3345 3342 3342 3342 3342 3342 3336 3323 3319 3318 3307 3307 3318 3318 3320 3320 3320 3313 3312 3299 3299 3300 3312 3303 3303 3303 3249 3167 2948 2658 2545 2511 2511 2509 2508 2494 2487 2478 2477 2471 2465 2455 2436 2434 2431 2429 2422 2418 2415 2410 2410 2396 2372 2360 2355 2355 2352 2336 2329 2328 2323 2317 2313 2309 2303 2299 2294 2281 2270 2261 2239 2225 2221 2219 2211 2203 2195 2193 2186 2176 0 2046 2046 2046 2057 2057 2057 2031 2031 2031 2097 2110 2126 2135 2135 2135 2133 2130 2127 2126 2126 2124 2122 2120 2119 2117 2116 2115 2114 2113 2112 2111 2110 2110 2108 2107 2106 2105 2104 2102 2102 2102 2101 2101 2100 2099 2098 2097 2096 2096 2096 2095 2095 2094 2094 2093 2092 2090 2086 2084 2082 2076 2072 2065 2062 2060 2059 2056 2055 2054 2053 2051 2049 2048 2047 2046 2045 2044 2044 2044 2046 2046 2046 2046 2047 2049 2051 2053 2054 2055 2055 2055 2055 2054 2053 2052 2051 2048 2046 2044 2041 2038 2035 2032 2029 2026 2024 2020 2017 2013 2009 2005 2003 2001 2000 2000 1999 1997 1997 1997 1998 2002 2008 2010 2011 2012 2012 2014 2015 2015 2015 2014 2013 2013 2011 2011 2009 2006 2002 1995 1991 1987 1982 1975 1970 1963 1959 1952 0 0 0 0 0 0 0 0 1320 1319 1317 1314 1313 1312 1310 1310 1310 1310 1310 1310 1308 1306 1305 1304 1304 1302 1302 1301 1300 1300 1298 1297 1296 1295 1294 1292 1291 1290 1288 1286 1285 1282 1282 1281 1281 1281 1281 1281 1282 1283 1284 1284 1286 1286 1287 1287 1287 1287 1288 1288 1288 1288 1288 1288 1288 1287 1287 1287 1287 1286 1286 1286 1286 1286 1286 1286 1284 1283 1282 1281 1281 1279 1279 1279 1280 1280 1280 1279 1279 1279 1283 1284 1294 0 0 0 1432 1436 1436 1436 1431 1427 1416 1408 1401 1391 1382 1368 1356 1352 1345 1336 1333 1331 1329 1327 1325 1324 1323 1323 1323 1324 1326 1326 1326 1327 1331 1333 1340 1351 1351 1351 1351 1345 1335 1328 1324 1317 1306 1300 1296 1291 1285 1280 1280 1280 1280 1280 1280 1255 0 0 0 0 0 0 0 0 0 0 0 0 0 0 0 0 0 0 0 0 0 0 0 0 0 0 0 0 0 0 0 0 0 0 0 0 0 0 0 0 0 0 0 0 0 0 0 0 0 0 0 0 0 0 0 0 0 0 0 0 0 0 0 0 0 0
0 0 0 0 0 0 0 0 0 0 0 0 0 0 0 0 0 0 0 0 0 0 0 0 0 0 0 0 0 0 0 0 0 0 3074 3113 3113 3113 3091 3073 3072 3065 3065 3065 3070 3096 3152 3152 3152 3146 3132 3105 3105 3105 3130 3155 3162 3163 3167 3177 3189 3224 3238 3243 3263 3270 3270 3270 3250 3247 3247 3247 3259 3266 3271 3283 3283 3283 3284 3284 3284 3288 3298 3298 3298 3298 3300 3332 3340 3349 3365 3365 3365 3360 3360 3360 3359 3359 3353 3344 3344 3344 3349 3364 3364 3364 3359 3347 3343 3343 3342 3342 3343 3364 3383 3390 3398 3402 3402 3402 3383 3372 3368 3366 3361 3356 3316 3285 3285 3285 3286 3391 3480 3499 3504 3504 3504 3504 3495 3490 3490 3490 3491 3491 3491 3491 3491 3502 3502 3502 3490 3468 3446 3427 3419 3419 3419 3414 3414 3414 3408 3395 3391 3391 3391 3391 3391 3401 3406 3415 3415 3415 3404 3404 3404 3404 3404 3398 3392 3391 3390 3388 3388 3388 3383 3383 3383 3375 3365 3360 3354 3352 3348 3348 3348 3348 3345 3342 3342 3342 3342 3342 3340 3332 3332 3332 3340 3340 3340 3328 3323 3323 3320 3313 3273 3273 3273 3293 3300 3300 3300 3290 3188 3121 2931 2658 2545 2528 2522 2515 2509 2500 2487 2477 2477 2471 2465 2456 2437 2434 2429 2429 2422 2418 2415 2413 2412 2402 2374 2362 2362 2358 2355 2343 2335 2329 2326 2320 2316 2313 2309 2305 2303 2289 2273 2268 2250 2228 2224 2219 2211 2204 2196 2193 2186 2176 0 2033 2033 2033 2033 2033 2010 2010 2010 2040 2097 2109 2124 2135 2135 2135 2133 2130 2127 2126 2126 2124 2122 2120 2118 2117 2117 2115 2115 2113 2112 2111 2110 2110 2108 2107 2106 2105 2104 2103 2103 2102 2101 2100 2099 2099 2098 2097 2096 2095 2095 2095 2094 2094 2093 2092 2091 2088 2086 2084 2081 2076 2071 2065 2062 2060 2059 2056 2055 2054 2052 2051 2049 2048 2047 2046 2045 2043 2043 2043 2044 2045 2045 2045 2047 2048 2050 2052 2053 2054 2054 2054 2054 2053 2052 2051 2050 2048 2046 2044 2041 2038 2034 2031 2029 2026 2024 2020 2017 2013 2008 2005 2001 1998 1997 1997 1996 1996 1995 1995 1995 1999 2006 2009 2010 2010 2011 2013 2014 2014 2014 2014 2013 2012 2011 2011 2009 2005 1999 1993 1989 1985 1978 1970 1963 1960 1954 0 0 0 0 0 0 0 0 1333 1318 1318 1315 1313 1313 1313 1313 1313 1312 1311 1311 1310 1309 1308 1306 1305 1304 1303 1303 1301 1301 1300 1299 1297 1296 1295 1293 1292 1291 1290 1287 1285 1283 1281 1281 1281 1281 1281 1281 1281 1282 1282 1283 1284 1285 1286 1287 1287 1287 1288 1288 1288 1288 1288 1288 1288 1288 1288 1287 1287 1287 1287 1287 1287 1286 1286 1286 1286 1285 1284 1283 1282 1281 1281 1281 1281 1281 1280 1280 1280 1280 1280 1283 1284 1290 1310 0 1403 1419 1431 1431 1431 1424 1421 1413 1407 1400 1391 1381 1367 1353 1349 1340 1335 1332 1327 1326 1323 1323 1321 1321 1321 1321 1322 1324 1325 1325 1325 1327 1332 1339 1343 1344 1344 1344 1336 1325 1323 1323 1313 1306 1300 1296 1291 1285 1280 1280 1280 1280 1280 1280 1242 0 0 0 0 0 0 0 0 0 0 0 0 0 0 0 0 0 0 0 0 0 0 0 0 0 0 0 0 0 0 0 0 0 0 0 0 0 0 0 0 0 0 0 0 0 0 0 0 0 0 0 0 0 0 0 0 0 0 0 0 0 0 0 0 0 0
0 0 0 0 0 0 0 0 0 0 0 0 0 0 0 0 0 0 0 0 0 0 0 0 0 0 0 0 0 0 0 0 0 0 3110 3113 3113 3113 3091 3072 3071 3068 3068 3068 3083 3109 3152 3152 3152 3146 3140 3125 3125 3125 3140 3155 3162 3176 3177 3178 3189 3224 3238 3250 3263 3270 3288 3288 3288 3251 3251 3251 3259 3266 3271 3283 3286 3288 3290 3290 3290 3293 3298 3298 3298 3298 3300 3353 3355 3357 3365 3365 3365 3363 3363 3363 3371 3372 3372 3371 3365 3364 3364 3365 3372 3378 3378 3378 3366 3357 3350 3350 3350 3389 3400 3402 3407 3402 3402 3402 3383 3368 3364 3364 3362 3362 3338 3287 3284 3284 3287 3402 3486 3503 3504 3504 3504 3502 3495 3490 3490 3490 3491 3491 3491 3490 3490 3490 3490 3490 3490 3470 3447 3438 3420 3420 3420 3414 3414 3414 3408 3395 3391 3391 3391 3380 3380 3380 3396 3398 3398 3396 3396 3404 3404 3404 3404 3400 3390 3389 3386 3378 3378 3378 3383 3383 3383 3375 3366 3366 3365 3365 3365 3358 3354 3352 3352 3352 3345 3345 3344 3344 3343 3340 3343 3348 3368 3368 3368 3368 3353 3345 3336 3313 3273 3253 3253 3253 3295 3295 3295 3227 3175 3119 2931 2654 2545 2528 2522 2515 2509 2500 2487 2477 2477 2471 2465 2457 2440 2440 2431 2429 2422 2419 2417 2414 2413 2404 2381 2363 2362 2362 2357 2346 2336 2331 2326 2322 2321 2319 2317 2315 2313 2309 2279 2269 2253 2231 2224 2220 2212 2206 2197 2196 2186 2176 0 2032 2026 2022 2015 2014 2010 2010 2010 2041 2097 2109 2124 2135 2135 2135 2133 2130 2128 2127 2125 2123 2122 2120 2118 2117 2117 2115 2115 2114 2112 2111 2110 2110 2108 2107 2106 2106 2104 2104 2103 2102 2101 2100 2099 2099 2097 2097 2096 2095 2095 2095 2094 2094 2092 2091 2090 2088 2085 2084 2081 2076 2071 2065 2063 2061 2059 2056 2055 2054 2052 2050 2048 2047 2047 2046 2044 2043 2043 2043 2043 2044 2044 2045 2046 2047 2049 2051 2053 2054 2054 2054 2053 2052 2051 2050 2049 2048 2046 2043 2040 2037 2034 2031 2028 2026 2024 2019 2016 2012 2008 2004 2001 1998 1996 1995 1995 1994 1994 1994 1994 1997 2004 2004 2007 2009 2011 2011 2013 2013 2013 2012 2011 2011 2010 2010 2008 2000 1997 1992 1988 1983 1975 1966 1958 1953 0 0 0 0 0 0 0 0 1338 1325 1318 1316 1314 1314 1314 1313 1313 1313 1312 1311 1311 1310 1309 1308 1308 1306 1305 1304 1303 1302 1301 1300 1299 1298 1296 1294 1293 1291 1290 1289 1287 1285 1283 1281 1281 1281 1281 1280 1281 1281 1282 1282 1282 1284 1285 1286 1287 1288 1288 1288 1288 1288 1288 1289 1288 1288 1288 1288 1288 1288 1288 1287 1287 1287 1287 1287 1287 1286 1285 1284 1283 1283 1282 1282 1282 1282 1282 1282 1281 1281 1281 1281 1283 1284 1292 1299 1325 1361 1407 1420 1420 1420 1417 1417 1410 1404 1397 1390 1380 1366 1348 1342 1337 1333 1329 1327 1324 1323 1320 1319 1319 1319 1319 1319 1320 1321 1322 1323 1324 1325 1329 1331 1331 1331 1324 1323 1321 1320 1318 1313 1308 1302 1301 1300 1295 1284 1280 1280 1280 1280 1271 1229 0 0 0 0 0 0 0 0 0 0 0 0 0 0 0 0 0 0 0 0 0 0 0 0 0 0 0 0 0 0 0 0 0 0 0 0 0 0 0 0 0 0 0 0 0 0 0 0 0 0 0 0 0 0 0 0 0 0 0 0 0 0 0 0 0 0
0 0 0 0 0 0 0 0 0 0 0 0 0 0 0 0 0 0 0 0 0 0 0 0 0 0 0 0 0 0 0 3236 3236 3186 3175 3164 3152 3152 3112 3072 3071 3071 3072 3082 3092 3121 3131 3145 3145 3147 3145 3143 3143 3144 3144 3151 3161 3176 3194 3212 3213 3226 3238 3260 3270 3284 3294 3294 3294 3292 3285 3285 3285 3285 3287 3291 3291 3306 3312 3312 3312 3300 3300 3300 3300 3305 3328 3353 3357 3358 3365 3365 3365 3366 3366 3366 3377 3381 3381 3381 3379 3369 3369 3369 3372 3384 3384 3384 3381 3366 3366 3366 3370 3393 3400 3402 3402 3400 3393 3387 3376 3365 3365 3365 3368 3368 3368 3296 3288 3288 3296 3424 3489 3505 3505 3505 3504 3500 3495 3490 3490 3490 3491 3491 3491 3489 3489 3489 3490 3490 3490 3475 3449 3447 3426 3426 3426 3408 3408 3408 3384 3384 3384 3384 3384 3379 3379 3379 3395 3396 3398 3408 3408 3410 3417 3417 3410 3407 3391 3385 3383 3378 3378 3378 3380 3380 3380 3375 3366 3366 3366 3366 3366 3363 3359 3358 3356 3356 3349 3349 3349 3349 3350 3351 3366 3368 3372 3372 3368 3368 3353 3345 3336 3315 3273 3242 3242 3242 3268 3268 3268 3201 3142 3113 2867 2593 2542 2528 2522 2515 2509 2500 2486 2477 2477 2474 2466 2462 2453 2441 2440 2431 2424 2421 2419 2417 2413 2404 2388 2367 2366 2362 2357 2348 2338 2331 2326 2325 2325 2325 2324 2324 2324 2323 2306 2270 2261 2235 2225 2221 2215 2207 2197 2196 2188 2167 0 2032 2017 2016 2014 2013 2013 2013 2016 2041 2080 2099 2124 2135 2135 2135 2131 2129 2128 2126 2125 2123 2122 2120 2118 2117 2117 2116 2115 2114 2113 2111 2110 2110 2109 2108 2107 2106 2105 2104 2104 2103 2101 2100 2099 2099 2097 2097 2096 2095 2095 2095 2094 2093 2092 2091 2089 2088 2085 2083 2080 2076 2071 2065 2063 2061 2059 2056 2055 2053 2052 2050 2048 2047 2047 2045 2044 2041 2041 2041 2042 2044 2044 2045 2046 2047 2049 2051 2052 2053 2053 2053 2052 2050 2049 2049 2049 2047 2045 2043 2040 2037 2033 2029 2026 2023 2021 2017 2014 2009 2006 2003 1999 1997 1994 1994 1992 1992 1992 1992 1993 1996 2000 2003 2003 2006 2009 2010 2010 2010 2009 2008 2008 2007 2007 2004 2002 2000 1997 1990 1983 1981 1973 1959 1949 0 0 0 0 0 0 0 1341 1328 1323 1322 1318 1317 1314 1314 1314 1314 1314 1313 1313 1312 1311 1310 1310 1309 1308 1307 1306 1304 1303 1302 1301 1301 1299 1298 1296 1294 1293 1291 1290 1289 1287 1285 1283 1281 1281 1280 1280 1280 1280 1280 1281 1282 1282 1284 1285 1285 1287 1288 1288 1288 1289 1289 1289 1289 1289 1289 1289 1289 1289 1288 1288 1288 1288 1288 1288 1288 1287 1286 1285 1285 1284 1283 1283 1283 1283 1283 1283 1283 1282 1282 1282 1282 1283 1285 1290 1291 1307 1329 1360 1413 1413 1413 1411 1411 1407 1400 1394 1386 1377 1357 1347 1340 1336 1332 1329 1327 1324 1321 1319 1318 1318 1317 1317 1317 1317 1319 1320 1320 1320 1320 1322 1325 1325 1325 1319 1318 1316 1315 1315 1313 1309 1308 1305 1304 1300 1295 1293 1291 1289 1285 1271 1229 1187 1151 0 0 0 0 0 0 0 0 0 0 0 0 0 0 0 0 0 0 0 0 0 0 0 0 0 0 0 0 0 0 0 0 0 0 0 0 0 0 0 0 0 0 0 0 0 0 0 0 0 0 0 0 0 0 0 0 0 0 0 0 0 0 0 0
0 0 0 0 0 0 0 0 0 0 0 0 0 0 0 0 0 0 0 0 0 0 0 0 0 0 0 0 0 0 3236 3236 3236 3194 3194 3194 3192 3192 3180 3077 3077 3077 3091 3104 3115 3122 3126 3139 3139 3147 3147 3147 3149 3150 3156 3157 3157 3176 3196 3213 3217 3236 3245 3262 3280 3294 3296 3311 3311 3311 3314 3314 3304 3298 3310 3310 3310 3319 3319 3319 3318 3315 3315 3315 3322 3334 3346 3360 3361 3364 3365 3365 3365 3365 3365 3367 3377 3381 3381 3381 3381 3369 3369 3369 3372 3384 3384 3384 3384 3378 3373 3373 3373 3393 3400 3400 3400 3392 3381 3375 3369 3364 3364 3364 3368 3368 3368 3298 3289 3289 3298 3452 3505 3506 3506 3506 3504 3500 3495 3492 3492 3492 3492 3492 3492 3490 3490 3490 3490 3490 3490 3480 3480 3467 3449 3433 3428 3425 3425 3406 3384 3384 3384 3384 3384 3379 3378 3378 3378 3385 3396 3408 3408 3417 3423 3423 3423 3418 3391 3382 3368 3368 3368 3370 3370 3373 3373 3370 3366 3366 3366 3372 3372 3372 3359 3358 3358 3359 3359 3356 3354 3354 3354 3360 3369 3369 3376 3376 3368 3368 3353 3345 3336 3319 3274 3242 3242 3242 3234 3234 3234 3166 3131 3037 2767 2585 2538 2509 2506 2502 2497 2490 2485 2477 2477 2476 2470 2465 2461 2441 2440 2432 2424 2421 2419 2417 2413 2404 2389 2373 2368 2361 2359 2348 2338 2331 2331 2331 2330 2330 2330 2330 2330 2330 2315 2282 2273 2249 2226 2225 2218 2208 2201 2197 2192 2167 0 2032 2014 2014 2014 2014 2021 2030 2032 2041 2058 2086 2128 2134 2134 2134 2131 2129 2128 2126 2125 2124 2123 2121 2119 2118 2118 2116 2115 2114 2113 2112 2111 2110 2109 2108 2107 2107 2106 2104 2104 2103 2102 2100 2099 2099 2098 2097 2097 2095 2095 2095 2094 2093 2092 2090 2089 2087 2084 2083 2080 2076 2071 2066 2063 2061 2059 2056 2055 2052 2051 2049 2047 2046 2045 2045 2041 2040 2040 2040 2040 2042 2043 2045 2046 2047 2048 2050 2052 2052 2052 2051 2050 2048 2048 2047 2046 2045 2044 2042 2039 2036 2033 2029 2025 2021 2018 2013 2011 2007 2004 2000 1996 1994 1993 1992 1991 1991 1991 1992 1993 1994 1996 1998 2001 2003 2008 2008 2008 2007 2006 2005 2005 2005 2005 2001 1998 1997 1993 1988 1982 1979 1973 1949 1922 0 0 0 0 0 0 1348 1325 1321 1321 1320 1318 1317 1314 1314 1314 1314 1314 1314 1313 1312 1311 1311 1310 1309 1308 1308 1306 1305 1304 1303 1302 1301 1300 1297 1296 1294 1293 1291 1290 1289 1287 1285 1283 1281 1281 1280 1280 1279 1279 1279 1280 1281 1281 1281 1282 1285 1287 1288 1288 1289 1289 1289 1290 1290 1290 1290 1289 1289 1289 1289 1289 1289 1289 1289 1289 1289 1288 1287 1286 1285 1285 1284 1284 1284 1283 1283 1283 1283 1283 1283 1283 1283 1284 1287 1290 1290 1297 1313 1329 1366 1405 1408 1408 1407 1405 1397 1389 1383 1365 1351 1345 1340 1335 1332 1329 1326 1323 1320 1317 1317 1317 1316 1315 1316 1317 1316 1316 1316 1316 1316 1316 1320 1320 1320 1317 1313 1312 1312 1312 1311 1309 1309 1307 1304 1302 1302 1302 1301 1301 1300 1271 1229 1187 1154 0 0 0 0 0 0 0 0 0 0 0 0 0 0 0 0 0 0 0 0 0 0 0 0 0 0 0 0 0 0 0 0 0 0 0 0 0 0 0 0 0 0 0 0 0 0 0 0 0 0 0 0 0 0 0 0 0 0 0 0 0 0 0 0
0 0 0 0 0 0 0 0 0 0 0 0 0 0 0 0 0 0 0 0 0 0 0 0 0 0 2960 0 0 3174 3236 3236 3236 3211 3211 3208 3208 3205 3182 3164 3118 3117 3117 3118 3120 3124 3126 3137 3137 3140 3141 3147 3149 3149 3156 3157 3157 3178 3197 3214 3219 3240 3250 3264 3286 3294 3296 3310 3313 3319 3319 3322 3321 3321 3319 3321 3321 3329 3331 3331 3331 3334 3334 3336 3346 3347 3350 3353 3364 3366 3366 3366 3365 3365 3365 3368 3377 3381 3382 3382 3382 3370 3370 3370 3372 3387 3389 3389 3389 3379 3379 3379 3384 3387 3387 3387 3378 3375 3375 3371 3369 3362 3362 3362 3368 3368 3368 3317 3300 3300 3300 3452 3509 3509 3509 3506 3504 3501 3497 3492 3492 3492 3501 3503 3503 3503 3490 3489 3488 3488 3488 3488 3487 3481 3461 3437 3433 3425 3425 3403 3384 3384 3384 3389 3389 3389 3379 3379 3379 3385 3396 3408 3417 3418 3423 3423 3423 3419 3391 3382 3365 3365 3365 3366 3367 3367 3367 3365 3364 3364 3364 3377 3377 3377 3362 3359 3359 3362 3359 3359 3354 3354 3354 3363 3371 3371 3371 3364 3363 3323 3320 3319 3305 3305 3305 3245 3245 3245 3228 3228 3203 3123 3067 2921 2727 2576 2529 2509 2506 2502 2497 2490 2485 2479 2478 2476 2470 2465 2461 2441 2440 2434 2427 2423 2419 2418 2413 2404 2390 2375 2369 2361 2360 2350 2338 2338 2338 2338 2338 2338 2336 2336 2335 2334 2322 2293 2283 2264 2238 2228 2219 2208 2201 2198 2189 2167 0 0 2014 2011 2011 2011 2021 2030 2030 2033 2036 2086 2128 2134 2134 2134 2131 2129 2128 2127 2125 2124 2123 2121 2120 2118 2118 2116 2115 2115 2113 2112 2111 2110 2109 2108 2108 2107 2106 2104 2104 2103 2102 2101 2100 2099 2098 2098 2097 2096 2095 2094 2094 2092 2092 2090 2088 2086 2084 2081 2080 2076 2071 2066 2063 2060 2058 2056 2054 2052 2051 2048 2046 2045 2044 2041 2039 2038 2038 2038 2038 2040 2042 2043 2045 2046 2047 2048 2051 2051 2051 2049 2048 2047 2047 2046 2045 2044 2042 2040 2038 2035 2032 2029 2025 2021 2016 2013 2009 2006 2003 1999 1995 1992 1990 1990 1989 1989 1989 1990 1990 1991 1992 1994 1996 2000 2004 2004 2004 2002 2000 2000 2000 2001 2001 2001 1998 1995 1988 1979 1973 1970 1962 1949 0 0 0 0 0 0 1336 1332 1322 1319 1319 1319 1318 1317 1315 1315 1315 1315 1315 1314 1313 1312 1311 1311 1310 1309 1309 1308 1306 1306 1304 1303 1303 1301 1300 1297 1296 1294 1293 1292 1291 1290 1288 1285 1283 1282 1281 1280 1280 1279 1279 1279 1280 1279 1280 1280 1281 1285 1286 1288 1288 1289 1289 1289 1290 1290 1291 1291 1290 1290 1290 1290 1289 1290 1289 1289 1289 1289 1289 1288 1287 1286 1285 1285 1284 1284 1284 1284 1284 1284 1284 1284 1284 1284 1285 1287 1290 1290 1291 1296 1306 1338 1369 1399 1402 1402 1402 1397 1388 1379 1362 1350 1344 1339 1333 1331 1327 1324 1321 1319 1316 1314 1314 1314 1314 1314 1315 1314 1314 1314 1313 1313 1313 1314 1314 1314 1313 1313 1311 1308 1308 1308 1308 1308 1308 1308 1306 1306 1306 1304 1302 1300 1277 1246 1223 1187 0 0 0 0 0 0 0 0 0 0 0 0 0 0 0 0 0 0 0 0 0 0 0 0 0 0 0 0 0 0 0 0 0 0 0 0 0 0 0 0 0 0 0 0 0 0 0 0 0 0 0 0 0 0 0 0 0 0 0 0 0 0 0 0
0 0 0 0 0 0 0 0 0 0 0 0 0 0 0 0 0 0 0 0 0 0 0 0 0 3027 3098 3100 3121 3179 3236 3245 3245 3245 3215 3213 3213 3208 3205 3204 3170 3162 3148 3136 3129 3127 3126 3126 3124 3124 3124 3132 3149 3149 3154 3157 3157 3178 3203 3223 3242 3246 3254 3264 3276 3292 3298 3308 3319 3325 3327 3327 3340 3340 3340 3336 3336 3336 3338 3345 3353 3356 3356 3356 3355 3355 3355 3355 3364 3366 3366 3366 3365 3365 3365 3373 3378 3383 3384 3384 3383 3376 3372 3372 3372 3387 3389 3389 3389 3380 3380 3380 3385 3385 3385 3385 3377 3375 3375 3371 3369 3362 3359 3358 3358 3358 3357 3334 3305 3305 3305 3452 3513 3513 3513 3506 3506 3504 3502 3501 3502 3502 3503 3507 3507 3507 3495 3489 3489 3488 3488 3487 3487 3486 3463 3439 3432 3429 3427 3406 3391 3391 3391 3407 3407 3407 3401 3386 3386 3386 3396 3408 3417 3423 3425 3425 3425 3419 3395 3382 3365 3364 3363 3363 3363 3365 3365 3365 3361 3361 3361 3377 3377 3377 3377 3377 3368 3371 3371 3368 3360 3360 3360 3363 3365 3365 3365 3361 3347 3323 3312 3312 3307 3307 3307 3280 3245 3245 3236 3228 3195 3123 3039 2881 2680 2564 2520 2509 2506 2502 2497 2490 2485 2481 2480 2476 2470 2465 2461 2442 2439 2434 2427 2423 2422 2419 2413 2404 2391 2378 2370 2361 2360 2355 2344 2344 2344 2345 2345 2345 2345 2342 2342 2341 2326 2316 2295 2282 2247 2231 2220 2211 2203 2198 2189 2173 0 0 2020 2009 2009 2009 2021 2021 2024 2030 2036 2086 2129 2134 2134 2134 2132 2129 2128 2127 2125 2124 2122 2121 2120 2119 2118 2116 2115 2115 2113 2113 2112 2111 2110 2108 2108 2107 2106 2104 2103 2103 2102 2101 2100 2099 2098 2098 2097 2096 2095 2094 2093 2092 2091 2089 2088 2085 2083 2081 2078 2075 2070 2066 2063 2060 2057 2056 2054 2052 2049 2047 2045 2043 2041 2039 2038 2037 2037 2037 2037 2038 2040 2041 2043 2045 2046 2047 2049 2049 2049 2048 2047 2047 2046 2046 2045 2044 2042 2039 2037 2035 2032 2029 2025 2021 2016 2012 2008 2004 2001 1997 1994 1990 1988 1986 1986 1986 1986 1987 1988 1988 1988 1990 1993 1994 1999 1999 1999 1996 1996 1996 1997 1998 1998 1998 1994 1988 1980 1969 1958 1953 0 0 0 0 0 0 0 1338 1336 1329 1322 1320 1319 1319 1318 1317 1317 1317 1316 1316 1316 1315 1314 1313 1312 1311 1310 1310 1309 1308 1307 1306 1304 1304 1304 1302 1300 1298 1296 1294 1293 1292 1291 1290 1288 1286 1284 1283 1281 1280 1279 1279 1278 1278 1278 1278 1278 1279 1281 1282 1285 1288 1289 1289 1289 1290 1290 1291 1291 1291 1291 1291 1290 1290 1290 1290 1290 1290 1290 1290 1289 1289 1288 1287 1286 1286 1286 1284 1284 1284 1284 1284 1284 1284 1284 1284 1285 1287 1287 1287 1288 1288 1294 1310 1336 1375 1400 1400 1400 1395 1388 1378 1358 1346 1338 1333 1328 1326 1323 1321 1319 1316 1313 1312 1312 1312 1311 1312 1312 1312 1312 1312 1313 1313 1313 1313 1313 1313 1313 1313 1311 1308 1308 1308 1307 1307 1307 1304 1304 1304 1304 1304 1302 1301 1281 1264 1229 1196 0 0 0 0 0 0 0 0 0 0 0 0 0 0 0 0 0 0 0 0 0 0 0 0 0 0 0 0 0 0 0 0 0 0 0 0 0 0 0 0 0 0 0 0 0 0 0 0 0 0 0 0 0 0 0 0 0 0 0 0 0 0 0 0
0 0 0 0 0 0 0 0 0 0 0 0 0 0 0 0 0 0 0 0 0 0 0 0 0 3098 3100 3118 3143 3179 3229 3253 3253 3253 3218 3208 3208 3208 3207 3207 3207 3193 3191 3185 3184 3147 3127 3126 3124 3124 3124 3132 3135 3138 3138 3146 3154 3172 3196 3214 3241 3251 3256 3260 3276 3292 3301 3310 3319 3329 3330 3337 3349 3356 3356 3356 3353 3349 3349 3353 3353 3356 3356 3356 3356 3356 3357 3363 3370 3377 3377 3377 3373 3373 3373 3373 3381 3383 3384 3384 3383 3378 3378 3378 3387 3392 3400 3400 3400 3391 3391 3391 3393 3393 3393 3385 3377 3377 3377 3377 3377 3377 3359 3358 3358 3358 3357 3342 3305 3305 3305 3444 3521 3522 3522 3522 3522 3516 3513 3511 3507 3507 3507 3510 3510 3510 3499 3491 3490 3490 3490 3490 3490 3488 3467 3439 3432 3430 3429 3406 3397 3397 3397 3408 3422 3422 3422 3412 3412 3412 3414 3420 3425 3425 3425 3419 3414 3407 3401 3395 3395 3368 3363 3363 3363 3365 3365 3365 3361 3361 3361 3380 3380 3380 3380 3380 3376 3371 3374 3371 3371 3371 3368 3368 3368 3365 3357 3357 3345 3323 3312 3312 3312 3312 3312 3311 3274 3265 3260 3245 3195 3123 3039 2864 2662 2548 2513 2512 2511 2508 2501 2490 2486 2483 2481 2476 2470 2465 2459 2442 2437 2434 2427 2425 2422 2419 2414 2405 2391 2391 2378 2368 2362 2360 2352 2348 2348 2348 2352 2352 2353 2353 2352 2351 2345 2333 2304 2290 2257 2233 2223 2214 2204 2200 2200 2195 2189 0 0 2009 2009 2009 2014 2014 2016 2024 2036 2078 2129 2134 2134 2134 2132 2129 2129 2127 2125 2124 2122 2121 2120 2119 2118 2117 2116 2115 2114 2113 2112 2111 2110 2110 2108 2107 2105 2103 2103 2102 2101 2101 2100 2099 2098 2098 2097 2096 2095 2094 2093 2091 2089 2087 2086 2085 2082 2080 2078 2074 2070 2066 2063 2060 2057 2055 2053 2051 2048 2046 2044 2042 2039 2037 2036 2035 2035 2035 2036 2037 2039 2039 2040 2042 2044 2046 2047 2047 2047 2047 2046 2046 2046 2045 2044 2042 2041 2038 2037 2034 2031 2028 2024 2021 2016 2012 2006 2003 2000 1996 1993 1989 1986 1984 1983 1983 1983 1983 1984 1984 1985 1988 1990 1990 1991 1993 1995 1995 1994 1995 1994 1994 1994 1991 1989 1982 1973 1962 1949 0 0 0 0 0 0 0 0 1337 1333 1328 1321 1320 1320 1320 1319 1318 1318 1317 1317 1317 1317 1315 1314 1313 1312 1311 1311 1310 1309 1309 1308 1306 1306 1305 1304 1302 1300 1298 1296 1294 1293 1292 1291 1290 1288 1286 1284 1283 1281 1280 1279 1278 1278 1278 1278 1278 1278 1279 1281 1282 1285 1288 1289 1289 1289 1290 1290 1291 1291 1292 1292 1291 1291 1291 1291 1291 1291 1291 1291 1291 1291 1290 1289 1287 1287 1286 1286 1285 1285 1284 1284 1284 1284 1284 1284 1285 1286 1287 1287 1287 1287 1287 1288 1296 1314 1346 1382 1395 1395 1395 1386 1367 1355 1344 1334 1326 1323 1322 1320 1318 1316 1313 1310 1310 1310 1310 1310 1310 1310 1310 1311 1312 1312 1313 1313 1313 1313 1313 1313 1311 1310 1308 1308 1308 1308 1308 1308 1306 1304 1304 1304 1304 1303 1303 1284 1265 1246 1205 0 0 0 0 0 0 0 0 0 0 0 0 0 0 0 0 0 0 0 0 0 0 0 0 0 0 0 0 0 0 0 0 0 0 0 0 0 0 0 0 0 0 0 0 0 0 0 0 0 0 0 0 0 0 0 0 0 0 0 0 0 0 0 0
