3056 3056 3076 3081 3098 3118 3140 3179 3209 3236 3238 3256 3278 3297 3297 3297 3289 3289 3289 3294 3316 3318 3318 3320 3320 3320 3325 3329 3334 3337 3341 3344 3346 3348 3354 3359 3367 3376 3378 3378 3379 3379 3379 3384 3390 3394 3398 3404 3405 3407 3411 3417 3425 3431 3437 3442 3447 3450 3453 3458 3465 3471 3475 3477 3481 3483 3484 3487 3491 3499 3504 3508 3515 3521 3526 3531 3534 3538 3540 3545 3551 3556 3556 3556 3556 3556 3557 3557 3558 3558 3558 3559 3561 3561 3562 3564 3567 3570 3571 3573 3573 3574 3575 3576 3576 3578 3579 3580 3586 3602 3616 3624 3629 3629 3629 3616 3601 3591 3566 3521 3471 3398 3183 3054 3048 2616 2203 1922 0 0 0 1617 1617 1617 1617 1618 1618 1618 1616 1615 1615 1614 1613 1613 1613 1612 1610 1610 1608 1607 1606 1604 1603 1596 1590 1586 1586 1585 1582 1581 1580 1577 1573 1572 1572 1572 1571 1571 1571 1571 1573 1575 1576 1577 1577 1578 1578 1581 1582 1583 1583 1583 1581 1579 1578 1575 1571 1571 1568 1560 1557 1554 1552 1551 1551 1551 1550 1549 1549 1549 1549 1551 1557 1559 1560 1563 1565 1567 1568 1568 1567 1567 1567 1566 1566 1565 1565 1564 1562 1561 1560 1557 1556 1556 1555 1549 1549 1549 1549 1549 1550 1550 1550 1550 1551 1551 1551 1551 1551 1551 1551 1551 1550 1550 1549 1549 1549 1548 1547 1547 1547 1545 1545 1544 1543 1543 1542 1542 1542 1542 1541 1540 1539 1538 1537 1537 1537 1537 1537 1537 1536 1536 1535 1535 1535 1534 1533 1533 1532 1532 1530 1530 1529 1528 1528 1527 1527 1527 1527 1526 1525 1525 1525 1524 1524 1523 1523 1522 1521 1520 1520 1519 1518 1517 1517 1516 1515 1514 1513 1512 1511 1510 1509 1509 1508 1508 1507 1507 1507 1507 1507 1507 1507 1507 1508 1509 1510 1515 1520 1520 1520 1520 1522 1525 1528 1528 1529 1530 1530 1531 1533 1533 1533 1527 1521 1521 1520 1518 1517 1516 1515 1515 1515 1514 1513 1511 1509 1509 1507 1507 1507 1507 1509 1509 1510 1511 1514 1519 1525 1544 1574 0 0 0 0 1919 1931 1931 1931 1929 1927 1926 1926 1926 1925 1925 1925 1925 1925 1924 1924 1924 1924 1924 1924 1925 1925 1926 1926 1926 1927 1928 1928 1928 1929 1929 1930 1930 1931 1931 1932 1932 1932 1933 1933 1933 1933 1934 1934 1934 1934 1934 1934 1934 1934 1934 1934 1934 1934 1934 1934 1934 1934 1934 1934 1934 1934 1934 1934 1934 1933 1933 1932 1932 1932 1931 1931 1931 1931 1931 1931 1931 1931 1931 1931 1931 1931 1931 1931 1931 1931 1931 1931 1931 1932 1932 1932 1932 1932 1933 1933 1933 1933 1934 1934 1934 1934 1935 1935 1935 1937 1938 1940 1942 1942 1944 1945 1947 1949 1952 1954 1956 1956 1957 1957 1958 1959 1960 1962 1963 1964 1966 1967 1969 1970 1971 1975 1977 1978 1980 1981 1981 1981 1981 1982 1984 1985 1986 1986 1986 0 0 0 0 0 0 0 0 0 0 0 0 0 0 0 0 0 0 0 0 0 0 0 0 0 0 0 0 0 0 0 0 0 0 0 0 0 0 0 0 0 0 0 0 0 0 0 0 0 0 0 0 0 0 0 0 0 0 0 0 0 0 0 0 0 0 0 0 0 0 0 0 0 0 0 0 0 0 0 0 0 0 0 0 0 0 0 0 0 0 0 0 0 0 0 0 0 0 0 0 0 0 0 0 0 0 0 0 0 0 0 0 0 0 0 0 0 0 0 0
3060 3060 3104 3106 3111 3142 3160 3179 3209 3230 3237 3247 3258 3261 3262 3266 3266 3268 3280 3294 3316 3318 3318 3322 3322 3323 3326 3329 3332 3336 3339 3344 3346 3349 3356 3363 3369 3376 3379 3379 3379 3379 3379 3384 3390 3394 3400 3405 3405 3407 3411 3418 3425 3432 3438 3444 3450 3451 3453 3458 3465 3471 3475 3477 3481 3483 3484 3487 3491 3499 3504 3509 3517 3528 3537 3540 3540 3541 3542 3545 3551 3557 3557 3557 3557 3557 3557 3557 3558 3558 3559 3559 3561 3562 3563 3565 3567 3570 3572 3573 3574 3574 3574 3575 3576 3577 3577 3579 3581 3589 3603 3615 3623 3627 3627 3627 3618 3615 3601 3578 3536 3453 3398 3230 3219 3090 2773 2354 0 0 0 0 1621 1618 1618 1618 1618 1618 1618 1617 1617 1615 1614 1614 1613 1613 1611 1611 1610 1609 1607 1605 1604 1600 1597 1592 1587 1586 1586 1585 1584 1582 1577 1577 1577 1577 1577 1575 1575 1575 1577 1579 1579 1580 1580 1582 1583 1585 1585 1586 1586 1586 1584 1584 1582 1579 1576 1575 1575 1569 1559 1557 1556 1555 1555 1553 1553 1551 1550 1550 1550 1557 1564 1565 1566 1566 1567 1568 1568 1568 1568 1568 1568 1567 1567 1565 1565 1565 1565 1564 1561 1560 1560 1559 1559 1556 1552 1551 1551 1551 1551 1551 1551 1551 1551 1551 1552 1552 1552 1552 1552 1551 1551 1551 1550 1550 1550 1549 1549 1549 1547 1547 1546 1545 1544 1544 1543 1543 1543 1542 1542 1542 1540 1540 1540 1539 1539 1538 1537 1537 1537 1537 1536 1536 1536 1535 1534 1534 1533 1532 1531 1530 1530 1529 1529 1528 1528 1528 1528 1527 1526 1526 1525 1525 1524 1523 1523 1522 1522 1521 1520 1520 1518 1517 1517 1516 1516 1514 1514 1513 1512 1511 1510 1509 1509 1508 1507 1507 1507 1508 1509 1509 1510 1511 1511 1512 1517 1520 1521 1521 1522 1522 1523 1525 1528 1529 1529 1530 1531 1532 1536 1536 1536 1530 1521 1521 1520 1518 1518 1518 1518 1519 1519 1519 1516 1513 1509 1509 1509 1509 1510 1511 1512 1512 1513 1514 1520 1525 1532 1562 0 0 0 0 0 1927 1927 1929 1929 1929 1928 1927 1927 1927 1927 1927 1925 1925 1925 1925 1924 1924 1924 1924 1924 1925 1925 1925 1926 1926 1926 1927 1928 1928 1928 1929 1929 1929 1930 1930 1931 1932 1932 1932 1933 1933 1933 1933 1934 1934 1934 1934 1934 1934 1934 1934 1934 1934 1934 1934 1934 1934 1934 1934 1934 1934 1934 1934 1934 1934 1933 1932 1932 1932 1932 1931 1931 1931 1931 1931 1931 1931 1931 1931 1931 1931 1931 1931 1931 1931 1931 1931 1931 1931 1931 1931 1931 1932 1932 1932 1932 1932 1933 1933 1933 1933 1933 1933 1934 1934 1934 1936 1937 1940 1940 1943 1944 1945 1948 1950 1951 1953 1954 1955 1956 1956 1957 1958 1959 1961 1963 1965 1966 1967 1968 1971 1973 1975 1977 1978 1980 1980 1981 1981 1982 1983 1984 1986 1986 1986 0 0 0 0 0 0 0 0 0 0 0 0 0 0 0 0 0 0 0 0 0 0 0 0 0 0 0 0 0 0 0 0 0 0 0 0 0 0 0 0 0 0 0 0 0 0 0 0 0 0 0 0 0 0 0 0 0 0 0 0 0 0 0 0 0 0 0 0 0 0 0 0 0 0 0 0 0 0 0 0 0 0 0 0 0 0 0 0 0 0 0 0 0 0 0 0 0 0 0 0 0 0 0 0 0 0 0 0 0 0 0 0 0 0 0 0 0 0 0 0
3060 3060 3104 3106 3126 3156 3160 3179 3209 3221 3236 3244 3253 3254 3256 3260 3262 3266 3280 3294 3316 3318 3320 3322 3322 3323 3326 3329 3332 3335 3338 3344 3346 3350 3358 3363 3369 3376 3379 3379 3381 3381 3381 3385 3390 3395 3400 3407 3410 3411 3411 3418 3425 3432 3440 3447 3453 3454 3456 3461 3466 3471 3475 3477 3481 3486 3490 3493 3496 3501 3504 3511 3520 3528 3537 3540 3540 3541 3542 3545 3551 3557 3557 3557 3557 3557 3557 3557 3557 3558 3559 3559 3562 3563 3565 3569 3572 3572 3572 3573 3574 3574 3574 3574 3574 3575 3576 3578 3579 3581 3587 3602 3614 3626 3630 3631 3631 3630 3626 3610 3570 3535 3469 3430 3423 3289 3288 2823 0 0 0 0 0 1622 1622 1621 1620 1620 1620 1618 1617 1615 1615 1615 1614 1613 1613 1612 1610 1609 1607 1605 1604 1604 1602 1597 1592 1590 1589 1589 1588 1587 1584 1584 1583 1583 1582 1581 1580 1580 1580 1581 1584 1584 1586 1586 1588 1588 1588 1587 1587 1587 1587 1585 1584 1583 1580 1576 1576 1574 1567 1560 1560 1559 1559 1559 1557 1555 1555 1555 1557 1565 1567 1567 1567 1569 1569 1569 1569 1569 1569 1569 1569 1568 1568 1568 1567 1566 1566 1565 1565 1564 1561 1561 1560 1558 1555 1553 1552 1552 1552 1552 1552 1552 1553 1553 1552 1552 1552 1552 1552 1552 1552 1552 1551 1551 1551 1551 1550 1550 1549 1548 1547 1546 1545 1545 1544 1543 1543 1543 1543 1543 1542 1542 1541 1540 1539 1538 1538 1538 1538 1537 1537 1537 1536 1535 1535 1535 1534 1533 1533 1531 1531 1530 1530 1529 1529 1528 1528 1527 1526 1526 1526 1525 1525 1524 1524 1523 1523 1522 1521 1520 1519 1519 1518 1517 1516 1515 1514 1514 1512 1511 1510 1510 1510 1508 1508 1508 1508 1510 1511 1511 1511 1512 1514 1517 1518 1520 1521 1521 1522 1523 1523 1526 1529 1531 1533 1534 1535 1540 1547 1547 1547 1535 1533 1533 1532 1532 1529 1525 1524 1524 1522 1522 1522 1522 1519 1513 1511 1511 1511 1512 1513 1514 1517 1520 1527 1528 1538 0 0 0 0 0 1927 1927 1927 1928 1928 1928 1928 1927 1927 1927 1927 1927 1926 1925 1925 1925 1924 1924 1924 1924 1924 1924 1925 1925 1925 1926 1926 1926 1927 1927 1928 1928 1929 1929 1929 1930 1930 1931 1931 1931 1932 1932 1932 1932 1933 1933 1933 1933 1933 1933 1933 1933 1934 1934 1934 1934 1934 1934 1934 1934 1934 1934 1934 1934 1934 1934 1933 1933 1932 1932 1932 1931 1931 1931 1931 1931 1931 1931 1931 1931 1931 1931 1930 1930 1930 1930 1930 1930 1930 1930 1930 1930 1931 1931 1931 1931 1932 1932 1932 1932 1932 1932 1932 1933 1933 1933 1933 1935 1936 1938 1939 1941 1943 1944 1945 1947 1949 1950 1952 1953 1954 1956 1956 1956 1957 1959 1960 1962 1964 1966 1967 1970 1973 1975 1976 1978 1979 1981 1981 1982 1982 1985 1985 1984 1982 1971 0 0 0 0 0 0 0 0 0 0 0 0 0 0 0 0 0 0 0 0 0 0 0 0 0 0 0 0 0 0 0 0 0 0 0 0 0 0 0 0 0 0 0 0 0 0 0 0 0 0 0 0 0 0 0 0 0 0 0 0 0 0 0 0 0 0 0 0 0 0 0 0 0 0 0 0 0 0 0 0 0 0 0 0 0 0 0 0 0 0 0 0 0 0 0 0 0 0 0 0 0 0 0 0 0 0 0 0 0 0 0 0 0 0 0 0 0 0 0 0
3060 3060 3104 3106 3126 3157 3160 3172 3177 3192 3220 3238 3250 3253 3256 3260 3262 3266 3280 3295 3316 3319 3319 3322 3322 3323 3326 3329 3332 3335 3338 3344 3346 3351 3358 3364 3369 3373 3379 3379 3379 3382 3382 3385 3390 3395 3400 3407 3413 3414 3416 3419 3426 3433 3441 3448 3454 3458 3462 3469 3474 3477 3479 3481 3485 3488 3491 3497 3503 3506 3507 3513 3520 3528 3537 3540 3540 3541 3542 3543 3550 3557 3557 3557 3557 3557 3557 3557 3557 3558 3559 3559 3562 3565 3572 3574 3575 3575 3575 3575 3575 3574 3574 3575 3575 3575 3575 3577 3577 3579 3579 3589 3608 3623 3630 3632 3632 3632 3632 3632 3607 3564 3544 3509 3503 3447 3319 3215 2927 2606 0 0 0 0 0 1625 1624 1621 1620 1618 1617 1617 1615 1615 1615 1614 1614 1613 1611 1610 1608 1607 1605 1605 1604 1602 1601 1598 1593 1593 1592 1592 1590 1589 1587 1587 1586 1586 1586 1587 1587 1588 1588 1588 1588 1588 1590 1590 1590 1589 1589 1588 1588 1587 1587 1586 1584 1580 1579 1577 1573 1567 1565 1564 1564 1563 1561 1559 1559 1559 1560 1567 1567 1568 1569 1570 1570 1570 1571 1571 1571 1570 1570 1570 1569 1569 1568 1568 1567 1566 1565 1565 1564 1563 1561 1558 1557 1556 1556 1553 1553 1553 1553 1554 1554 1554 1553 1553 1553 1553 1553 1553 1553 1553 1552 1552 1552 1552 1551 1550 1550 1549 1548 1547 1547 1546 1545 1545 1544 1544 1544 1543 1542 1542 1541 1540 1540 1539 1539 1539 1538 1538 1538 1537 1536 1536 1536 1535 1534 1534 1533 1532 1531 1531 1531 1530 1530 1529 1528 1528 1527 1527 1526 1526 1525 1524 1524 1523 1523 1522 1521 1520 1520 1519 1518 1517 1516 1515 1514 1514 1513 1512 1511 1511 1510 1510 1510 1510 1511 1511 1512 1514 1514 1516 1518 1518 1518 1521 1522 1522 1522 1524 1529 1534 1537 1541 1547 1550 1556 1561 1561 0 0 0 0 1553 1550 1546 1539 1533 1529 1527 1524 1524 1524 1522 1522 1521 1517 1517 1517 1517 1520 1521 1523 1527 1537 1537 1547 0 0 0 0 0 1927 1927 1928 1928 1929 1929 1929 1929 1928 1928 1928 1927 1926 1926 1925 1925 1924 1924 1924 1924 1924 1924 1925 1925 1925 1925 1926 1926 1926 1927 1927 1928 1929 1929 1929 1930 1930 1930 1930 1931 1931 1931 1932 1932 1932 1932 1932 1932 1932 1932 1933 1933 1933 1934 1934 1934 1934 1934 1934 1934 1934 1934 1934 1934 1934 1933 1933 1933 1932 1932 1931 1931 1931 1931 1931 1931 1931 1931 1931 1931 1931 1930 1930 1930 1930 1930 1930 1930 1930 1930 1930 1930 1930 1930 1930 1930 1930 1931 1931 1931 1931 1931 1931 1931 1931 1931 1932 1933 1935 1936 1937 1939 1941 1942 1944 1945 1947 1949 1951 1952 1953 1954 1955 1955 1957 1958 1960 1962 1964 1965 1967 1970 1973 1974 1976 1977 1978 1980 1984 1985 1985 1986 1985 1984 1982 1971 0 0 0 0 0 0 0 0 0 0 0 0 0 0 0 0 0 0 0 0 0 0 0 0 0 0 0 0 0 0 0 0 0 0 0 0 0 0 0 0 0 0 0 0 0 0 0 0 0 0 0 0 0 0 0 0 0 0 0 0 0 0 0 0 0 0 0 0 0 0 0 0 0 0 0 0 0 0 0 0 0 0 0 0 0 0 0 0 0 0 0 0 0 0 0 0 0 0 0 0 0 0 0 0 0 0 0 0 0 0 0 0 0 0 0 0 0 0 0 0
3060 3060 3104 3106 3137 3144 3145 3150 3150 3165 3198 3229 3250 3253 3256 3260 3266 3270 3280 3297 3316 3321 3322 3322 3322 3322 3326 3329 3331 3334 3338 3344 3347 3351 3358 3365 3369 3373 3377 3379 3379 3382 3385 3386 3390 3396 3401 3408 3415 3418 3418 3423 3429 3439 3445 3452 3459 3463 3469 3475 3479 3481 3482 3483 3486 3488 3492 3498 3504 3508 3509 3514 3520 3526 3528 3529 3531 3531 3535 3541 3550 3555 3558 3558 3558 3557 3557 3557 3557 3558 3560 3563 3568 3571 3576 3580 3580 3582 3582 3582 3579 3578 3575 3574 3572 3572 3572 3578 3578 3578 3579 3586 3603 3618 3625 3630 3632 3632 3639 3639 3639 3605 3575 3554 3549 3498 3414 3321 3241 3069 2801 0 0 0 0 0 1627 1622 1618 1618 1618 1617 1616 1615 1615 1615 1614 1614 1612 1611 1611 1610 1608 1607 1606 1606 1605 1604 1599 1597 1596 1595 1593 1593 1590 1590 1590 1590 1590 1591 1591 1592 1592 1592 1593 1593 1592 1592 1592 1590 1590 1590 1590 1590 1589 1587 1585 1583 1581 1581 1580 1576 1573 1570 1566 1566 1564 1561 1561 1561 1564 1568 1569 1570 1571 1571 1572 1572 1572 1572 1572 1572 1572 1571 1570 1570 1569 1568 1568 1566 1566 1566 1564 1564 1563 1561 1560 1559 1556 1556 1554 1554 1554 1554 1554 1554 1553 1553 1553 1553 1553 1553 1553 1553 1553 1553 1553 1552 1552 1551 1551 1550 1549 1548 1548 1546 1546 1545 1545 1544 1544 1543 1542 1542 1541 1541 1540 1540 1540 1539 1539 1539 1538 1537 1537 1537 1536 1536 1535 1534 1534 1533 1532 1532 1532 1531 1531 1530 1529 1528 1527 1527 1527 1526 1526 1525 1524 1524 1523 1522 1521 1521 1520 1520 1519 1518 1517 1515 1515 1514 1514 1513 1512 1512 1511 1511 1511 1512 1513 1513 1513 1514 1518 1521 1521 1521 1521 1521 1524 1526 1527 1536 1546 1548 1549 1551 1559 1571 0 0 0 0 0 0 0 0 0 0 1559 1550 1544 1543 1542 1538 1538 1538 1537 1536 1532 1524 1524 1524 1528 1529 1533 1538 1546 1548 1562 0 0 0 0 1924 1927 1928 1928 1928 1929 1929 1929 1929 1929 1929 1928 1927 1926 1926 1925 1925 1925 1924 1924 1924 1924 1924 1925 1925 1925 1925 1925 1926 1926 1926 1927 1927 1928 1928 1929 1929 1929 1930 1930 1931 1931 1931 1931 1932 1932 1932 1932 1932 1932 1932 1933 1933 1933 1933 1933 1933 1933 1933 1934 1934 1934 1934 1934 1934 1933 1933 1933 1933 1932 1932 1931 1931 1931 1931 1931 1930 1930 1930 1930 1930 1930 1930 1930 1930 1929 1929 1929 1929 1929 1929 1929 1929 1929 1930 1930 1930 1930 1930 1930 1931 1931 1931 1930 1930 1930 1930 1931 1932 1933 1934 1936 1937 1940 1941 1943 1945 1947 1948 1949 1951 1952 1953 1954 1955 1957 1958 1960 1962 1964 1965 1967 1970 1972 1974 1976 1977 1978 1980 1984 1985 1986 1986 1986 1986 1982 1971 0 0 0 0 0 0 0 0 0 0 0 0 0 0 0 0 0 0 0 0 0 0 0 0 0 0 0 0 0 0 0 0 0 0 0 0 0 0 0 0 0 0 0 0 0 0 0 0 0 0 0 0 0 0 0 0 0 0 0 0 0 0 0 0 0 0 0 0 0 0 0 0 0 0 0 0 0 0 0 0 0 0 0 0 0 0 0 0 0 0 0 0 0 0 0 0 0 0 0 0 0 0 0 0 0 0 0 0 0 0 0 0 0 0 0 0 0 0 0 0
3060 3060 3104 3106 3141 3141 3144 3145 3145 3157 3190 3221 3249 3253 3256 3262 3269 3283 3290 3297 3317 3321 3322 3323 3323 3323 3326 3328 3331 3335 3338 3345 3348 3350 3358 3364 3369 3373 3377 3379 3379 3382 3385 3386 3390 3396 3401 3408 3415 3419 3422 3426 3435 3444 3449 3455 3461 3466 3474 3480 3483 3483 3485 3485 3486 3490 3493 3498 3505 3518 3518 3520 3520 3519 3519 3519 3519 3519 3527 3539 3547 3553 3558 3559 3559 3559 3560 3559 3560 3560 3561 3569 3575 3578 3580 3580 3583 3583 3583 3583 3583 3580 3580 3574 3572 3572 3572 3578 3578 3578 3580 3585 3600 3608 3609 3610 3619 3632 3642 3642 3642 3640 3628 3620 3616 3576 3508 3471 3396 3323 3221 2828 0 0 0 0 0 1625 1619 1619 1618 1618 1618 1616 1616 1615 1615 1615 1614 1612 1612 1611 1610 1609 1608 1606 1606 1605 1602 1600 1597 1596 1595 1594 1593 1593 1593 1593 1593 1592 1592 1592 1594 1594 1594 1594 1594 1594 1594 1593 1593 1592 1591 1590 1590 1588 1587 1586 1584 1583 1581 1580 1579 1575 1571 1567 1564 1564 1564 1568 1571 1571 1572 1572 1573 1573 1573 1573 1573 1573 1573 1573 1572 1572 1571 1571 1570 1569 1568 1567 1566 1566 1565 1564 1563 1562 1561 1560 1560 1556 1555 1555 1554 1555 1554 1554 1554 1554 1554 1554 1554 1554 1554 1554 1554 1554 1553 1553 1552 1552 1551 1550 1549 1549 1548 1548 1546 1546 1545 1544 1544 1543 1543 1542 1541 1541 1541 1540 1540 1540 1539 1539 1539 1538 1538 1537 1537 1536 1536 1536 1534 1533 1533 1533 1532 1531 1531 1531 1530 1528 1528 1528 1527 1526 1526 1525 1524 1524 1523 1522 1522 1521 1520 1520 1519 1518 1517 1515 1515 1515 1514 1513 1512 1512 1512 1512 1513 1513 1513 1514 1515 1516 1520 1523 1523 1523 1523 1523 1529 1537 1548 1552 1554 1558 1560 1564 1574 0 0 0 0 0 0 0 0 0 0 0 0 0 0 0 0 1565 1558 1558 1558 1555 1551 1541 1536 1536 1536 1541 1544 1548 1550 1562 0 0 0 0 0 1924 1928 1930 1930 1930 1930 1930 1930 1929 1929 1929 1928 1927 1926 1926 1925 1925 1925 1924 1924 1924 1924 1924 1924 1925 1925 1925 1925 1926 1926 1926 1927 1927 1928 1928 1928 1929 1929 1930 1930 1931 1931 1931 1931 1931 1932 1932 1932 1932 1932 1932 1933 1933 1933 1933 1933 1933 1933 1934 1934 1934 1934 1934 1934 1933 1933 1933 1933 1932 1932 1932 1931 1931 1931 1931 1931 1931 1931 1930 1930 1930 1930 1930 1930 1930 1929 1929 1929 1929 1928 1928 1928 1929 1929 1929 1929 1929 1929 1929 1929 1929 1929 1929 1929 1929 1929 1929 1930 1931 1931 1933 1934 1935 1937 1940 1942 1943 1946 1947 1949 1950 1951 1953 1954 1955 1957 1958 1960 1962 1964 1965 1968 1970 1972 1975 1976 1977 1978 1980 1984 1984 1984 1986 1984 1984 1982 1957 0 0 0 0 0 0 0 0 0 0 0 0 0 0 0 0 0 0 0 0 0 0 0 0 0 0 0 0 0 0 0 0 0 0 0 0 0 0 0 0 0 0 0 0 0 0 0 0 0 0 0 0 0 0 0 0 0 0 0 0 0 0 0 0 0 0 0 0 0 0 0 0 0 0 0 0 0 0 0 0 0 0 0 0 0 0 0 0 0 0 0 0 0 0 0 0 0 0 0 0 0 0 0 0 0 0 0 0 0 0 0 0 0 0 0 0 0 0 0 0
3083 3083 3102 3105 3141 3141 3141 3143 3143 3157 3190 3216 3249 3253 3256 3268 3275 3287 3297 3314 3326 3326 3326 3323 3323 3323 3326 3329 3332 3336 3339 3348 3350 3350 3358 3364 3368 3374 3377 3379 3379 3383 3386 3388 3393 3400 3403 3409 3416 3420 3423 3430 3442 3448 3454 3457 3463 3470 3478 3482 3485 3487 3488 3488 3490 3491 3494 3501 3510 3522 3522 3523 3522 3520 3519 3516 3516 3516 3523 3534 3544 3553 3557 3559 3561 3563 3564 3564 3567 3567 3567 3573 3581 3583 3583 3583 3583 3583 3583 3584 3584 3584 3581 3578 3572 3572 3572 3577 3577 3578 3579 3582 3589 3591 3597 3605 3619 3632 3642 3642 3642 3640 3628 3620 3616 3599 3598 3557 3498 3407 3332 3140 2824 0 0 0 0 0 1623 1622 1620 1619 1619 1617 1617 1616 1616 1616 1615 1614 1612 1612 1611 1611 1610 1609 1608 1607 1605 1605 1602 1598 1596 1594 1594 1594 1594 1594 1594 1593 1593 1593 1594 1596 1596 1596 1596 1596 1596 1595 1595 1593 1592 1592 1591 1590 1589 1587 1587 1586 1585 1583 1581 1576 1572 1569 1566 1566 1566 1574 1574 1574 1574 1574 1574 1574 1574 1574 1574 1574 1574 1573 1573 1573 1572 1572 1571 1570 1569 1568 1566 1566 1565 1564 1563 1562 1561 1561 1560 1559 1557 1556 1555 1555 1555 1555 1554 1554 1554 1555 1555 1555 1555 1554 1554 1554 1554 1553 1552 1552 1552 1551 1551 1550 1549 1548 1547 1546 1545 1544 1543 1543 1543 1542 1541 1541 1541 1540 1540 1540 1540 1540 1539 1539 1538 1538 1538 1537 1536 1536 1535 1535 1534 1533 1533 1533 1532 1532 1530 1530 1529 1528 1527 1527 1526 1525 1524 1524 1523 1522 1522 1521 1521 1520 1519 1519 1518 1516 1516 1516 1515 1514 1513 1513 1513 1513 1513 1514 1514 1514 1516 1519 1524 1526 1526 1527 1527 1531 1538 1545 1557 1566 1571 1577 1584 1593 0 0 0 0 0 0 0 0 0 0 0 0 0 0 0 0 0 0 0 1595 1582 1572 1567 1556 1553 1552 1552 1552 1552 1556 1565 0 0 0 0 0 1902 1929 1930 1930 1930 1930 1931 1930 1930 1930 1930 1929 1928 1928 1927 1926 1925 1925 1925 1925 1924 1924 1924 1924 1924 1925 1925 1925 1925 1925 1926 1926 1926 1927 1928 1928 1928 1929 1929 1930 1930 1931 1931 1931 1931 1931 1932 1932 1932 1932 1932 1932 1933 1933 1933 1933 1933 1933 1933 1933 1934 1934 1934 1934 1933 1933 1933 1933 1933 1932 1932 1932 1932 1932 1931 1931 1931 1931 1931 1930 1930 1930 1930 1930 1930 1930 1929 1929 1929 1929 1928 1928 1928 1928 1928 1928 1928 1928 1928 1928 1928 1928 1928 1928 1927 1927 1928 1928 1929 1930 1930 1932 1933 1935 1937 1939 1941 1943 1945 1946 1948 1950 1951 1952 1954 1956 1957 1958 1960 1962 1964 1965 1968 1970 1972 1974 1976 1978 1978 1979 1982 1982 1983 1985 1983 1982 1982 1957 0 0 0 0 0 0 0 0 0 0 0 0 0 0 0 0 0 0 0 0 0 0 0 0 0 0 0 0 0 0 0 0 0 0 0 0 0 0 0 0 0 0 0 0 0 0 0 0 0 0 0 0 0 0 0 0 0 0 0 0 0 0 0 0 0 0 0 0 0 0 0 0 0 0 0 0 0 0 0 0 0 0 0 0 0 0 0 0 0 0 0 0 0 0 0 0 0 0 0 0 0 0 0 0 0 0 0 0 0 0 0 0 0 0 0 0 0 0 0 0
3083 3083 3102 3105 3127 3128 3128 3128 3134 3152 3187 3214 3241 3251 3258 3268 3275 3293 3311 3326 3330 3330 3330 3330 3329 3329 3329 3330 3332 3336 3339 3348 3350 3351 3357 3364 3368 3374 3379 3381 3383 3384 3387 3392 3397 3403 3405 3409 3416 3420 3425 3435 3444 3451 3456 3460 3466 3471 3478 3484 3488 3492 3493 3494 3495 3498 3501 3507 3510 3523 3530 3530 3530 3528 3519 3516 3516 3516 3519 3531 3543 3553 3557 3559 3561 3564 3568 3571 3572 3572 3574 3574 3581 3583 3583 3583 3583 3583 3583 3584 3584 3584 3583 3579 3577 3577 3577 3577 3577 3578 3579 3582 3589 3591 3597 3603 3615 3631 3642 3642 3642 3640 3628 3620 3616 3599 3598 3557 3498 3407 3332 3140 2824 0 0 0 0 0 1635 1624 1623 1623 1621 1617 1617 1617 1616 1616 1615 1615 1614 1612 1612 1611 1610 1610 1610 1609 1608 1607 1606 1601 1597 1596 1595 1595 1595 1595 1596 1596 1596 1597 1597 1597 1597 1597 1597 1597 1597 1596 1596 1595 1594 1594 1592 1590 1589 1588 1588 1586 1586 1586 1584 1579 1574 1571 1570 1570 1570 1575 1575 1575 1575 1575 1575 1575 1575 1575 1575 1575 1575 1575 1573 1573 1572 1572 1572 1571 1569 1568 1568 1566 1565 1564 1563 1562 1561 1561 1560 1559 1557 1556 1556 1556 1555 1555 1555 1555 1555 1556 1556 1556 1555 1555 1555 1554 1554 1554 1553 1553 1553 1552 1551 1551 1550 1549 1547 1546 1545 1544 1543 1543 1543 1542 1542 1542 1541 1541 1541 1541 1541 1541 1540 1540 1539 1538 1538 1538 1538 1536 1536 1536 1534 1534 1534 1533 1533 1532 1531 1530 1529 1529 1528 1527 1527 1526 1525 1525 1523 1523 1522 1521 1521 1521 1520 1519 1518 1517 1516 1516 1515 1515 1514 1514 1514 1514 1514 1514 1515 1517 1519 1522 1525 1528 1530 1531 1534 1538 1543 1555 1571 1596 1609 1617 1625 0 0 0 0 0 0 0 0 0 0 0 0 0 0 0 0 0 0 0 0 0 0 0 1607 1597 1591 1580 1580 1580 1580 0 0 0 0 0 0 0 1928 1930 1931 1932 1932 1932 1931 1931 1930 1930 1930 1929 1928 1928 1927 1926 1926 1926 1925 1925 1925 1925 1925 1925 1925 1925 1925 1925 1925 1925 1926 1926 1926 1927 1927 1927 1928 1929 1929 1930 1930 1930 1931 1931 1931 1931 1931 1931 1932 1932 1932 1932 1932 1932 1932 1933 1933 1933 1933 1933 1934 1934 1934 1933 1933 1933 1932 1932 1932 1932 1932 1932 1932 1932 1931 1931 1931 1931 1931 1930 1930 1930 1930 1930 1930 1929 1929 1929 1928 1928 1928 1928 1928 1928 1928 1928 1928 1928 1928 1928 1928 1928 1928 1927 1927 1927 1927 1927 1928 1929 1930 1932 1933 1935 1937 1939 1941 1943 1945 1946 1948 1949 1950 1952 1954 1956 1957 1958 1960 1962 1963 1965 1968 1970 1972 1974 1976 1978 1978 1979 1981 1981 1983 1983 1982 1979 1968 0 0 0 0 0 0 0 0 0 0 0 0 0 0 0 0 0 0 0 0 0 0 0 0 0 0 0 0 0 0 0 0 0 0 0 0 0 0 0 0 0 0 0 0 0 0 0 0 0 0 0 0 0 0 0 0 0 0 0 0 0 0 0 0 0 0 0 0 0 0 0 0 0 0 0 0 0 0 0 0 0 0 0 0 0 0 0 0 0 0 0 0 0 0 0 0 0 0 0 0 0 0 0 0 0 0 0 0 0 0 0 0 0 0 0 0 0 0 0 0 0
3083 3083 3102 3105 3122 3123 3123 3127 3130 3145 3182 3206 3233 3251 3258 3269 3275 3295 3311 3326 3330 3330 3333 3333 3334 3334 3334 3334 3334 3336 3339 3348 3350 3353 3357 3362 3368 3374 3380 3384 3385 3385 3388 3396 3402 3405 3410 3411 3416 3420 3427 3438 3446 3451 3456 3462 3468 3474 3479 3486 3490 3494 3494 3498 3501 3505 3507 3507 3510 3523 3530 3536 3536 3536 3533 3522 3519 3519 3519 3526 3542 3552 3556 3558 3561 3564 3568 3571 3572 3572 3574 3574 3583 3583 3583 3581 3579 3579 3579 3582 3583 3583 3583 3579 3577 3577 3577 3576 3576 3576 3576 3579 3580 3580 3589 3603 3611 3627 3640 3640 3640 3628 3607 3598 3598 3597 3597 3557 3498 3407 3332 3140 2824 0 0 0 0 0 1649 1630 1627 1624 1623 1622 1618 1617 1616 1616 1615 1615 1614 1613 1613 1613 1612 1611 1610 1609 1608 1607 1607 1604 1602 1600 1598 1598 1596 1596 1596 1598 1599 1599 1599 1599 1599 1599 1598 1598 1597 1597 1597 1596 1595 1594 1593 1592 1591 1590 1589 1588 1588 1586 1585 1583 1579 1576 1575 1575 1576 1576 1575 1575 1575 1575 1575 1575 1575 1576 1576 1576 1576 1575 1575 1574 1573 1573 1572 1571 1570 1569 1568 1566 1565 1564 1563 1562 1561 1559 1559 1559 1557 1557 1556 1556 1555 1555 1555 1556 1556 1557 1557 1557 1557 1556 1555 1555 1554 1554 1554 1554 1553 1552 1552 1551 1550 1549 1548 1547 1545 1544 1543 1543 1543 1543 1543 1542 1542 1542 1542 1541 1541 1541 1541 1541 1540 1539 1539 1538 1538 1537 1537 1536 1535 1535 1534 1534 1533 1533 1532 1531 1530 1529 1529 1527 1527 1527 1526 1525 1524 1524 1522 1522 1521 1521 1520 1519 1519 1517 1517 1517 1516 1515 1515 1514 1514 1514 1515 1515 1515 1518 1522 1523 1527 1530 1533 1535 1540 1547 1553 1566 1599 1622 1636 1645 1670 0 0 0 0 0 0 1957 1965 1967 1967 1967 1959 1947 0 0 0 0 0 0 0 0 0 0 0 0 0 0 0 0 0 0 0 0 0 0 0 1932 1932 1933 1933 1933 1932 1932 1931 1931 1931 1930 1930 1929 1928 1928 1927 1927 1926 1926 1925 1925 1925 1925 1925 1925 1925 1925 1925 1926 1926 1926 1926 1926 1927 1927 1927 1927 1928 1928 1929 1930 1930 1930 1930 1931 1931 1931 1931 1931 1931 1931 1931 1932 1932 1932 1932 1932 1933 1933 1933 1933 1933 1933 1933 1933 1933 1932 1932 1932 1932 1932 1932 1932 1932 1932 1932 1931 1931 1931 1931 1930 1930 1930 1930 1930 1930 1929 1929 1929 1928 1928 1928 1928 1928 1928 1928 1928 1928 1928 1928 1928 1928 1928 1928 1927 1927 1926 1926 1926 1928 1929 1930 1931 1933 1935 1937 1938 1941 1942 1945 1946 1948 1949 1950 1952 1954 1956 1958 1958 1960 1962 1963 1966 1968 1970 1972 1974 1976 1978 1978 1979 1981 1981 1983 1983 1980 1979 1968 0 0 0 0 0 0 0 0 0 0 0 0 0 0 0 0 0 0 0 0 0 0 0 0 0 0 0 0 0 0 0 0 0 0 0 0 0 0 0 0 0 0 0 0 0 0 0 0 0 0 0 0 0 0 0 0 0 0 0 0 0 0 0 0 0 0 0 0 0 0 0 0 0 0 0 0 0 0 0 0 0 0 0 0 0 0 0 0 0 0 0 0 0 0 0 0 0 0 0 0 0 0 0 0 0 0 0 0 0 0 0 0 0 0 0 0 0 0 0 0 0
3071 3071 3078 3081 3085 3102 3120 3123 3140 3145 3169 3206 3233 3251 3259 3277 3282 3302 3313 3326 3329 3330 3333 3333 3336 3336 3336 3336 3336 3338 3343 3344 3350 3353 3357 3362 3368 3374 3380 3384 3385 3389 3394 3396 3402 3407 3411 3417 3420 3423 3431 3440 3446 3452 3457 3463 3469 3476 3483 3487 3490 3494 3494 3498 3501 3505 3507 3507 3510 3519 3530 3536 3536 3536 3533 3524 3520 3520 3520 3526 3541 3552 3555 3556 3559 3563 3568 3571 3572 3572 3574 3574 3572 3572 3572 3572 3570 3573 3574 3574 3578 3579 3579 3579 3577 3577 3575 3575 3574 3575 3575 3576 3577 3578 3578 3577 3548 3494 3467 3421 3377 3336 3292 3250 3226 3224 3220 3200 3156 3087 2949 2861 0 0 0 0 0 0 1649 1630 1628 1626 1625 1625 1622 1618 1617 1617 1616 1615 1614 1614 1614 1613 1613 1612 1611 1610 1610 1609 1607 1605 1605 1603 1602 1600 1600 1600 1600 1600 1601 1601 1601 1601 1601 1600 1599 1599 1599 1598 1597 1597 1596 1594 1594 1593 1592 1591 1590 1590 1589 1587 1586 1584 1580 1578 1577 1577 1577 1577 1577 1576 1576 1576 1576 1576 1576 1576 1576 1576 1576 1575 1575 1575 1574 1573 1573 1572 1571 1569 1568 1567 1566 1564 1563 1562 1561 1559 1559 1557 1557 1556 1556 1556 1556 1556 1556 1556 1557 1557 1557 1557 1557 1556 1556 1555 1555 1555 1554 1554 1553 1553 1552 1551 1550 1549 1548 1547 1546 1544 1543 1543 1543 1543 1543 1543 1543 1542 1542 1542 1542 1541 1541 1541 1540 1539 1539 1539 1538 1538 1537 1536 1535 1535 1535 1534 1534 1534 1532 1532 1531 1530 1529 1528 1528 1527 1526 1526 1525 1524 1523 1523 1522 1521 1521 1520 1519 1519 1518 1517 1517 1516 1516 1516 1516 1516 1516 1517 1518 1520 1522 1524 1527 1532 1535 1538 1550 1559 1572 1590 1613 1624 1638 1653 0 0 0 0 0 0 1970 1971 1972 1977 1977 1977 1973 1973 1970 1965 1957 0 0 0 0 0 0 0 0 0 0 0 0 0 0 0 0 0 0 0 1928 1937 1937 1937 1934 1933 1933 1932 1932 1931 1931 1931 1931 1930 1930 1929 1928 1927 1926 1926 1926 1926 1926 1925 1925 1925 1925 1925 1925 1926 1926 1926 1926 1926 1927 1927 1927 1927 1928 1928 1929 1930 1930 1930 1930 1931 1931 1931 1931 1931 1931 1931 1931 1932 1932 1932 1932 1932 1932 1932 1932 1933 1933 1933 1933 1932 1932 1932 1932 1932 1932 1932 1932 1932 1932 1932 1932 1931 1931 1931 1931 1930 1930 1930 1930 1930 1929 1929 1929 1929 1928 1928 1928 1928 1928 1928 1928 1928 1928 1928 1928 1928 1928 1928 1928 1927 1927 1926 1926 1926 1927 1929 1930 1931 1933 1935 1936 1938 1940 1942 1944 1946 1947 1949 1950 1952 1955 1956 1958 1958 1960 1962 1963 1966 1968 1970 1972 1974 1976 1977 1977 1978 1978 1979 1980 1980 1980 1979 1968 0 0 0 0 0 0 0 0 0 0 0 0 0 0 0 0 0 0 0 0 0 0 0 0 0 0 0 0 0 0 0 0 0 0 0 0 0 0 0 0 0 0 0 0 0 0 0 0 0 0 0 0 0 0 0 0 0 0 0 0 0 0 0 0 0 0 0 0 0 0 0 0 0 0 0 0 0 0 0 0 0 0 0 0 0 0 0 0 0 0 0 0 0 0 0 0 0 0 0 0 0 0 0 0 0 0 0 0 0 0 0 0 0 0 0 0 0 0 0 0 0
3060 3062 3060 3062 3062 3079 3115 3123 3140 3145 3169 3206 3233 3260 3281 3295 3300 3303 3315 3322 3324 3326 3333 3333 3336 3336 3336 3336 3336 3339 3343 3344 3347 3355 3359 3362 3368 3375 3380 3384 3385 3389 3394 3396 3402 3407 3411 3421 3426 3431 3437 3440 3446 3452 3458 3463 3469 3476 3483 3487 3490 3494 3494 3498 3501 3501 3505 3507 3508 3510 3526 3536 3536 3536 3533 3524 3520 3520 3520 3525 3540 3541 3541 3541 3519 3519 3519 3520 3525 3527 3528 3531 3547 3558 3569 3569 3559 3559 3559 3533 3523 3522 3515 3486 3453 3429 3422 3422 3351 3284 3217 3178 3144 2978 2888 2800 2728 2685 2637 2558 0 0 0 0 0 0 0 0 0 0 0 0 0 0 0 0 0 0 1649 1630 1630 1630 1628 1628 1628 1623 1618 1617 1616 1615 1615 1615 1614 1614 1613 1612 1611 1611 1610 1610 1608 1608 1607 1605 1604 1603 1603 1603 1602 1602 1602 1602 1602 1601 1601 1601 1601 1600 1599 1599 1598 1597 1596 1596 1595 1594 1593 1592 1591 1590 1590 1589 1588 1585 1581 1579 1578 1578 1577 1577 1576 1576 1576 1576 1576 1576 1576 1576 1576 1576 1576 1576 1576 1575 1575 1574 1574 1573 1571 1570 1569 1568 1567 1564 1563 1562 1561 1559 1559 1557 1556 1556 1556 1556 1556 1556 1556 1557 1557 1558 1558 1558 1557 1557 1556 1556 1555 1555 1554 1554 1554 1553 1552 1552 1550 1549 1547 1547 1547 1545 1544 1544 1544 1544 1543 1543 1544 1543 1543 1543 1542 1542 1542 1541 1541 1539 1539 1539 1538 1538 1537 1537 1535 1535 1535 1534 1534 1534 1532 1532 1531 1530 1530 1529 1528 1527 1527 1526 1525 1524 1523 1523 1522 1521 1521 1520 1520 1519 1519 1518 1517 1517 1517 1517 1518 1518 1518 1519 1520 1522 1523 1526 1531 1533 1539 1548 1560 1569 1586 1602 1614 1624 1639 1655 0 0 0 0 0 1968 1973 1978 1978 1978 1978 1977 1976 1973 1972 1971 1969 1967 1961 1955 1953 0 0 0 0 0 0 0 0 0 0 0 0 0 0 1929 1939 1939 1939 1937 1934 1933 1933 1932 1932 1932 1932 1932 1931 1930 1930 1929 1928 1928 1927 1927 1926 1926 1926 1926 1926 1926 1926 1926 1926 1926 1926 1927 1927 1927 1927 1927 1927 1928 1928 1929 1929 1930 1930 1930 1930 1931 1931 1931 1931 1931 1931 1931 1931 1932 1932 1932 1932 1932 1932 1932 1932 1932 1932 1932 1932 1932 1932 1931 1931 1931 1931 1931 1932 1932 1932 1932 1932 1931 1931 1931 1931 1930 1930 1930 1930 1929 1929 1929 1929 1929 1928 1928 1928 1928 1928 1928 1928 1928 1928 1928 1928 1928 1928 1928 1928 1927 1927 1926 1926 1926 1927 1929 1930 1931 1933 1935 1936 1938 1940 1942 1944 1946 1947 1949 1950 1952 1955 1956 1958 1958 1960 1962 1964 1966 1968 1970 1973 1974 1976 1977 1977 1978 1978 1979 1982 1982 1982 1980 1973 0 0 0 0 0 0 0 0 0 0 0 0 0 0 0 0 0 0 0 0 0 0 0 0 0 0 0 0 0 0 0 0 0 0 0 0 0 0 0 0 0 0 0 0 0 0 0 0 0 0 0 0 0 0 0 0 0 0 0 0 0 0 0 0 0 0 0 0 0 0 0 0 0 0 0 0 0 0 0 0 0 0 0 0 0 0 0 0 0 0 0 0 0 0 0 0 0 0 0 0 0 0 0 0 0 0 0 0 0 0 0 0 0 0 0 0 0 0 0 0 0
3046 3048 3046 3048 3048 3069 3113 3130 3140 3145 3169 3213 3248 3287 3296 3305 3311 3313 3315 3321 3323 3323 3323 3323 3325 3330 3334 3335 3336 3339 3343 3344 3347 3356 3369 3374 3374 3378 3380 3382 3385 3389 3394 3396 3401 3407 3411 3421 3429 3438 3443 3446 3447 3452 3458 3463 3469 3476 3483 3487 3487 3487 3488 3491 3493 3496 3497 3497 3496 3490 3486 3484 3486 3486 3505 3511 3511 3511 3510 3484 3456 3417 3387 3365 3348 3343 3332 3331 3330 3329 3316 3287 3206 3130 3050 2995 2938 2754 0 0 0 0 0 0 0 0 0 0 0 0 0 0 0 0 0 0 0 0 0 0 0 0 0 0 0 0 0 0 0 0 0 0 0 0 0 0 0 0 1630 1630 1630 1630 1629 1629 1629 1624 1619 1617 1616 1616 1615 1615 1615 1614 1613 1613 1612 1612 1611 1611 1610 1608 1607 1606 1606 1605 1605 1604 1603 1602 1602 1602 1603 1602 1602 1602 1602 1601 1600 1599 1598 1597 1597 1596 1595 1594 1594 1592 1592 1592 1590 1589 1589 1586 1582 1579 1578 1578 1578 1576 1576 1575 1575 1576 1576 1576 1576 1576 1576 1576 1576 1576 1576 1576 1576 1575 1574 1573 1572 1571 1570 1568 1567 1565 1564 1562 1561 1560 1559 1557 1556 1556 1556 1556 1556 1556 1557 1558 1558 1558 1558 1558 1557 1557 1557 1556 1555 1555 1555 1554 1554 1553 1552 1552 1551 1549 1547 1547 1547 1546 1545 1544 1544 1544 1544 1544 1544 1544 1544 1544 1543 1543 1542 1541 1541 1540 1539 1539 1539 1538 1537 1537 1536 1535 1535 1534 1534 1534 1533 1532 1531 1531 1530 1529 1529 1528 1527 1526 1525 1524 1524 1524 1523 1522 1521 1521 1520 1519 1519 1519 1519 1519 1519 1519 1519 1520 1521 1522 1523 1526 1535 1540 1543 1549 1553 1563 1573 1589 1601 1603 1614 1624 1645 0 0 0 0 0 1951 1969 1976 1978 1978 1978 1978 1977 1976 1974 1972 1972 1972 1972 1970 1967 1964 1963 1958 1950 0 0 0 0 0 0 0 0 0 0 1939 1943 1943 1943 1940 1938 1934 1934 1933 1933 1933 1933 1933 1932 1932 1932 1931 1930 1929 1928 1928 1928 1927 1927 1927 1927 1927 1927 1927 1927 1927 1927 1927 1927 1927 1927 1927 1928 1928 1928 1929 1929 1929 1930 1930 1930 1930 1931 1931 1931 1931 1931 1931 1931 1931 1932 1932 1932 1932 1932 1932 1932 1932 1932 1932 1932 1931 1931 1931 1931 1931 1931 1931 1931 1932 1932 1932 1932 1932 1931 1931 1931 1931 1930 1930 1930 1930 1929 1929 1929 1929 1929 1928 1928 1928 1928 1928 1928 1928 1928 1928 1928 1928 1928 1928 1928 1928 1927 1927 1927 1927 1927 1928 1929 1930 1932 1933 1935 1936 1938 1939 1942 1944 1946 1947 1949 1951 1953 1955 1956 1958 1959 1961 1963 1965 1966 1968 1970 1973 1975 1976 1977 1977 1978 1978 1979 1982 1987 1987 1987 1974 0 0 0 0 0 0 0 0 0 0 0 0 0 0 0 0 0 0 0 0 0 0 0 0 0 0 0 0 0 0 0 0 0 0 0 0 0 0 0 0 0 0 0 0 0 0 0 0 0 0 0 0 0 0 0 0 0 0 0 0 0 0 0 0 0 0 0 0 0 0 0 0 0 0 0 0 0 0 0 0 0 0 0 0 0 0 0 0 0 0 0 0 0 0 0 0 0 0 0 0 0 0 0 0 0 0 0 0 0 0 0 0 0 0 0 0 0 0 0 0 0
3045 3047 3045 3047 3047 3050 3097 3130 3166 3169 3185 3228 3271 3300 3302 3309 3313 3319 3320 3320 3319 3319 3319 3319 3325 3329 3331 3333 3334 3339 3343 3344 3347 3357 3371 3379 3381 3381 3381 3381 3381 3386 3394 3396 3401 3407 3411 3421 3429 3438 3443 3446 3450 3452 3458 3463 3465 3469 3475 3480 3481 3482 3482 3482 3482 3484 3484 3484 3470 3444 3304 3172 3128 3016 2910 2821 2730 2684 2575 0 0 0 0 0 0 0 0 0 0 0 0 0 0 0 0 0 0 0 0 0 0 0 0 0 0 0 0 0 0 0 0 0 0 0 0 0 0 0 0 0 0 0 0 0 0 1649 1649 1650 1651 1655 1655 1655 1652 1640 1612 1612 1612 1630 1630 1630 1630 1630 1630 1630 1629 1625 1620 1618 1617 1617 1616 1615 1615 1614 1614 1614 1613 1612 1612 1611 1611 1610 1608 1607 1607 1606 1606 1604 1604 1604 1604 1604 1604 1603 1603 1603 1602 1601 1600 1600 1599 1598 1597 1597 1595 1595 1594 1594 1593 1592 1590 1589 1589 1586 1582 1579 1578 1578 1578 1575 1575 1575 1575 1576 1576 1576 1576 1576 1576 1576 1576 1576 1576 1576 1576 1575 1575 1574 1573 1571 1570 1569 1568 1565 1564 1562 1562 1561 1559 1556 1556 1556 1556 1556 1556 1557 1557 1558 1558 1558 1558 1558 1557 1557 1557 1556 1556 1555 1555 1554 1554 1553 1552 1552 1551 1550 1549 1548 1548 1546 1545 1545 1545 1545 1545 1545 1545 1544 1544 1544 1544 1543 1542 1542 1542 1540 1539 1539 1539 1538 1537 1537 1536 1536 1535 1535 1534 1534 1533 1532 1531 1531 1530 1529 1529 1528 1527 1526 1526 1525 1525 1524 1523 1523 1522 1521 1521 1520 1519 1519 1519 1520 1520 1521 1522 1523 1524 1528 1530 1532 1539 1541 1548 1555 1563 1577 1591 1596 1601 1603 1614 1624 0 0 0 0 0 0 1963 1973 1977 1978 1978 1978 1978 1977 1976 1975 1972 1972 1972 1972 1972 1971 1969 1967 1966 1964 1958 1952 1944 1942 1939 1939 1940 1942 1942 1945 1945 1945 1944 1943 1941 1938 1935 1935 1935 1935 1935 1935 1934 1933 1933 1932 1931 1931 1930 1930 1929 1928 1928 1928 1928 1928 1928 1927 1927 1927 1927 1927 1928 1928 1928 1928 1928 1928 1928 1928 1929 1929 1929 1930 1930 1930 1930 1931 1931 1932 1932 1932 1932 1932 1932 1932 1932 1932 1932 1932 1932 1932 1932 1932 1931 1931 1931 1931 1931 1931 1931 1931 1931 1931 1932 1932 1932 1932 1932 1931 1931 1931 1930 1930 1930 1930 1929 1929 1929 1929 1929 1929 1928 1928 1928 1928 1928 1928 1928 1928 1928 1928 1928 1928 1928 1928 1928 1927 1927 1927 1927 1927 1928 1929 1930 1932 1933 1935 1936 1938 1939 1942 1944 1946 1947 1949 1951 1953 1955 1956 1958 1960 1963 1964 1966 1967 1968 1970 1973 1976 1978 1978 1979 1979 1979 1981 1982 1988 1988 1988 1974 0 0 0 0 0 0 0 0 0 0 0 0 0 0 0 0 0 0 0 0 0 0 0 0 0 0 0 0 0 0 0 0 0 0 0 0 0 0 0 0 0 0 0 0 0 0 0 0 0 0 0 0 0 0 0 0 0 0 0 0 0 0 0 0 0 0 0 0 0 0 0 0 0 0 0 0 0 0 0 0 0 0 0 0 0 0 0 0 0 0 0 0 0 0 0 0 0 0 0 0 0 0 0 0 0 0 0 0 0 0 0 0 0 0 0 0 0 0 0 0 0
3031 3033 3031 3031 3031 3033 3078 3130 3171 3214 3234 3255 3287 3303 3304 3309 3313 3319 3320 3320 3319 3319 3319 3319 3325 3329 3331 3333 3334 3339 3343 3347 3347 3358 3371 3379 3381 3381 3381 3381 3381 3386 3394 3396 3401 3407 3411 3419 3429 3438 3443 3447 3450 3452 3458 3463 3465 3468 3472 3475 3478 3480 3480 3482 3482 3480 3480 3470 3455 3142 2608 0 0 0 0 0 0 0 0 0 0 0 0 0 0 0 0 0 0 0 0 0 0 0 0 0 0 0 0 0 0 0 0 0 0 0 1718 1738 1738 0 0 0 0 0 1708 1708 1708 1701 1678 1647 0 0 0 0 1643 1643 1643 1647 1648 1648 1648 1648 1646 1631 1608 1608 1608 1634 1634 1634 1633 1632 1629 1629 1626 1625 1620 1618 1617 1617 1616 1615 1615 1615 1615 1614 1614 1613 1613 1612 1612 1611 1610 1609 1608 1608 1607 1606 1605 1605 1605 1605 1604 1604 1604 1603 1602 1602 1600 1600 1599 1598 1598 1597 1597 1595 1594 1594 1593 1592 1589 1589 1589 1586 1581 1578 1578 1577 1573 1573 1573 1573 1573 1573 1573 1575 1575 1575 1575 1576 1576 1576 1576 1576 1576 1575 1575 1574 1573 1572 1571 1569 1568 1566 1565 1563 1562 1561 1559 1556 1556 1556 1556 1556 1556 1557 1557 1558 1558 1558 1558 1558 1557 1557 1557 1556 1556 1556 1555 1554 1554 1553 1552 1552 1551 1550 1550 1549 1548 1546 1546 1545 1545 1545 1545 1545 1545 1545 1544 1544 1544 1544 1544 1542 1542 1540 1540 1540 1539 1538 1537 1537 1536 1536 1535 1535 1535 1534 1533 1532 1532 1531 1531 1530 1530 1529 1528 1527 1526 1526 1525 1525 1523 1523 1522 1522 1521 1521 1521 1521 1521 1521 1522 1524 1525 1526 1526 1531 1535 1535 1540 1546 1553 1560 1566 1577 1591 1596 1601 1607 1614 1624 0 0 0 0 0 1974 1977 1978 1978 1978 1978 1978 1978 1978 1978 1976 1973 1972 1972 1972 1972 1972 1971 1971 1970 1968 1963 1958 1956 1953 1950 1949 1947 1947 1947 1947 1947 1946 1945 1943 1941 1938 1938 1937 1936 1936 1936 1936 1935 1934 1933 1932 1932 1932 1931 1930 1929 1929 1928 1928 1928 1928 1928 1929 1929 1929 1928 1928 1928 1928 1928 1928 1928 1928 1928 1929 1929 1929 1929 1930 1930 1930 1931 1931 1932 1932 1932 1932 1932 1932 1932 1932 1932 1932 1932 1932 1932 1932 1932 1932 1931 1931 1931 1931 1931 1931 1931 1931 1931 1931 1931 1931 1931 1931 1931 1931 1931 1930 1930 1930 1930 1930 1929 1929 1929 1929 1929 1929 1928 1928 1928 1928 1928 1928 1928 1928 1928 1928 1928 1928 1928 1928 1928 1928 1928 1928 1928 1928 1929 1930 1931 1933 1934 1935 1936 1938 1939 1942 1944 1946 1948 1950 1952 1953 1955 1956 1958 1961 1963 1965 1966 1967 1969 1971 1974 1976 1979 1979 1979 1979 1979 1982 1983 1988 1988 1988 1978 0 0 0 0 0 0 0 0 0 0 0 0 0 0 0 0 0 0 0 0 0 0 0 0 0 0 0 0 0 0 0 0 0 0 0 0 0 0 0 0 0 0 0 0 0 0 0 0 0 0 0 0 0 0 0 0 0 0 0 0 0 0 0 0 0 0 0 0 0 0 0 0 0 0 0 0 0 0 0 0 0 0 0 0 0 0 0 0 0 0 0 0 0 0 0 0 0 0 0 0 0 0 0 0 0 0 0 0 0 0 0 0 0 0 0 0 0 0 0 0 0
3019 3023 3019 3023 3023 3026 3060 3119 3172 3214 3234 3265 3287 3301 3304 3306 3311 3319 3320 3320 3319 3319 3319 3319 3325 3329 3331 3332 3335 3340 3344 3348 3348 3358 3371 3379 3382 3382 3382 3382 3382 3386 3394 3399 3405 3409 3415 3418 3425 3435 3443 3450 3451 3454 3459 3463 3465 3468 3469 3470 3473 3479 3480 3482 3482 3480 3470 3464 3446 3142 2567 0 0 0 0 0 0 0 0 0 0 0 0 0 0 0 0 0 0 0 0 0 0 0 0 0 1681 1681 1691 1709 1714 1714 1714 1706 1706 1706 1717 1717 1717 1715 1677 1667 1661 1658 1661 1664 1664 1664 1664 1647 1632 0 0 0 1629 1631 1643 1645 1646 1646 1646 1646 1645 1631 1609 1609 1609 1634 1658 1658 1658 1637 1632 1629 1626 1625 1621 1618 1618 1618 1617 1617 1616 1616 1615 1615 1614 1614 1613 1613 1612 1611 1611 1610 1609 1609 1608 1607 1607 1607 1606 1606 1605 1605 1604 1604 1603 1602 1601 1601 1600 1599 1599 1598 1597 1596 1595 1594 1593 1590 1589 1588 1588 1585 1581 1578 1575 1570 1570 1570 1572 1572 1572 1572 1572 1572 1574 1574 1575 1576 1576 1576 1576 1576 1576 1575 1575 1575 1574 1572 1571 1570 1569 1566 1565 1563 1562 1561 1558 1556 1556 1556 1556 1556 1557 1557 1557 1558 1558 1558 1558 1558 1558 1557 1557 1556 1556 1556 1555 1554 1554 1553 1553 1552 1551 1550 1550 1549 1548 1547 1546 1546 1546 1546 1546 1546 1546 1545 1545 1545 1544 1544 1544 1542 1542 1541 1540 1540 1539 1538 1537 1537 1536 1536 1536 1535 1535 1534 1533 1533 1532 1531 1531 1531 1530 1530 1529 1528 1527 1527 1526 1525 1524 1524 1524 1523 1523 1522 1522 1522 1522 1523 1523 1525 1527 1528 1528 1532 1538 1542 1544 1548 1553 1560 1566 1577 1591 1596 1601 1607 1614 0 0 0 0 0 1977 1979 1979 1979 1978 1978 1978 1978 1979 1979 1979 1977 1974 1973 1973 1973 1973 1973 1972 1971 1971 1968 1963 1959 1956 1953 1953 1950 1949 1949 1949 1949 1948 1946 1945 1943 1941 1940 1939 1939 1939 1939 1937 1936 1936 1934 1933 1933 1932 1932 1931 1931 1930 1930 1929 1929 1929 1929 1929 1929 1929 1929 1929 1929 1929 1929 1929 1928 1928 1928 1928 1929 1929 1929 1930 1930 1930 1930 1931 1931 1931 1932 1932 1932 1932 1932 1932 1932 1932 1932 1932 1932 1932 1932 1932 1932 1932 1932 1932 1931 1930 1930 1930 1930 1930 1931 1931 1931 1931 1931 1931 1931 1931 1930 1930 1930 1930 1930 1930 1930 1929 1929 1929 1929 1928 1928 1928 1928 1928 1928 1928 1928 1928 1929 1929 1929 1929 1929 1929 1928 1928 1928 1928 1929 1929 1930 1933 1934 1935 1936 1936 1938 1939 1942 1944 1946 1949 1951 1952 1954 1955 1957 1959 1962 1963 1965 1967 1968 1969 1972 1974 1977 1979 1979 1979 1979 1979 1983 1985 1988 1988 1988 1983 0 0 0 0 0 0 0 0 0 0 0 0 0 0 0 0 0 0 0 0 0 0 0 0 0 0 0 0 0 0 0 0 0 0 0 0 0 0 0 0 0 0 0 0 0 0 0 0 0 0 0 0 0 0 0 0 0 0 0 0 0 0 0 0 0 0 0 0 0 0 0 0 0 0 0 0 0 0 0 0 0 0 0 0 0 0 0 0 0 0 0 0 0 0 0 0 0 0 0 0 0 0 0 0 0 0 0 0 0 0 0 0 0 0 0 0 0 0 0 0 0
3017 3020 3017 3020 3020 3022 3059 3112 3172 3214 3234 3265 3287 3300 3302 3305 3307 3311 3314 3320 3320 3320 3321 3323 3326 3330 3330 3331 3335 3340 3344 3348 3354 3363 3371 3379 3382 3383 3383 3383 3383 3390 3400 3406 3408 3409 3415 3418 3425 3435 3443 3450 3453 3455 3461 3464 3467 3468 3468 3470 3473 3479 3480 3482 3482 3480 3470 3464 3446 3142 2567 0 0 0 0 0 0 0 0 0 0 0 0 0 0 0 0 0 0 0 0 0 0 0 0 1655 1677 1678 1678 0 0 0 1701 1701 1702 1702 1717 1717 1717 1709 1677 1649 1646 1631 1627 1627 1627 1646 1646 1646 1632 0 0 0 1629 1631 1636 1640 1642 1646 1646 1646 1645 1640 1612 1612 1612 1662 1662 1662 1660 1647 1632 1629 1627 1627 1622 1619 1619 1619 1618 1618 1617 1616 1616 1615 1615 1614 1614 1613 1613 1611 1611 1611 1610 1609 1609 1608 1608 1607 1607 1606 1605 1605 1605 1604 1603 1603 1602 1601 1601 1600 1600 1599 1598 1596 1595 1594 1592 1590 1589 1588 1585 1583 1581 1577 1571 1569 1568 1568 1568 1569 1570 1570 1570 1570 1570 1573 1575 1575 1575 1575 1576 1576 1576 1576 1576 1575 1574 1573 1571 1570 1570 1568 1565 1563 1562 1561 1558 1556 1556 1556 1557 1558 1558 1558 1558 1558 1558 1558 1558 1558 1557 1557 1557 1556 1556 1556 1555 1555 1554 1554 1553 1552 1552 1552 1551 1551 1549 1548 1547 1546 1546 1546 1547 1548 1548 1548 1547 1547 1547 1546 1545 1545 1543 1541 1541 1540 1540 1538 1537 1537 1536 1536 1536 1535 1535 1534 1533 1533 1533 1532 1532 1531 1531 1530 1529 1528 1528 1527 1527 1526 1525 1525 1524 1524 1523 1523 1523 1523 1524 1524 1524 1525 1528 1528 1529 1535 1539 1543 1546 1550 1555 1564 1566 1571 1590 1596 1601 1607 0 0 0 0 0 1979 1981 1981 1981 1981 1980 1980 1980 1980 1981 1981 1981 1978 1975 1973 1973 1973 1973 1973 1972 1972 1971 1968 1963 1961 1957 1954 1953 1951 1951 1950 1950 1949 1948 1946 1945 1943 1943 1943 1942 1942 1940 1939 1938 1937 1937 1936 1935 1934 1933 1933 1933 1932 1931 1931 1930 1930 1930 1930 1930 1930 1930 1930 1929 1929 1929 1929 1929 1928 1928 1929 1929 1929 1929 1929 1930 1930 1930 1930 1930 1931 1931 1931 1932 1931 1932 1932 1932 1932 1932 1932 1932 1932 1932 1932 1932 1932 1932 1932 1931 1931 1930 1930 1930 1930 1930 1930 1931 1931 1931 1931 1931 1931 1930 1930 1930 1930 1930 1930 1930 1930 1929 1929 1929 1929 1929 1929 1929 1928 1929 1929 1929 1929 1929 1929 1929 1929 1929 1929 1930 1930 1930 1929 1929 1929 1931 1932 1934 1935 1936 1937 1938 1939 1940 1942 1944 1946 1949 1951 1952 1954 1955 1958 1960 1962 1964 1966 1967 1968 1969 1972 1974 1977 1979 1979 1979 1980 1980 1985 1986 1986 1986 1986 1985 0 0 0 0 0 0 0 0 0 0 0 0 0 0 0 0 0 0 0 0 0 0 0 0 0 0 0 0 0 0 0 0 0 0 0 0 0 0 0 0 0 0 0 0 0 0 0 0 0 0 0 0 0 0 0 0 0 0 0 0 0 0 0 0 0 0 0 0 0 0 0 0 0 0 0 0 0 0 0 0 0 0 0 0 0 0 0 0 0 0 0 0 0 0 0 0 0 0 0 0 0 0 0 0 0 0 0 0 0 0 0 0 0 0 0 0 0 0 0 0 0
3006 3006 3009 3009 3010 3022 3059 3111 3171 3208 3234 3265 3286 3288 3292 3292 3292 3292 3296 3314 3323 3323 3326 3328 3328 3330 3331 3333 3335 3342 3347 3351 3354 3363 3371 3376 3381 3382 3383 3384 3385 3390 3400 3406 3408 3409 3415 3418 3425 3435 3443 3450 3454 3458 3463 3467 3468 3468 3469 3470 3473 3479 3484 3484 3484 3483 3479 3464 3455 3151 2567 0 0 0 0 0 0 0 0 0 0 0 0 0 0 0 0 0 0 0 0 0 0 0 0 1648 1677 1678 1678 0 0 0 1696 1701 1709 1715 1729 1729 1729 1707 1677 1649 1646 1631 1627 1627 1627 1646 1650 1650 1650 0 0 0 1629 1631 1636 1640 1642 1647 1647 1648 1648 1645 1630 1630 1630 1663 1675 1675 1675 1658 1640 1636 1633 1629 1622 1622 1621 1621 1621 1619 1617 1617 1616 1616 1616 1615 1615 1615 1613 1612 1611 1611 1610 1610 1609 1609 1608 1608 1607 1607 1606 1605 1605 1604 1604 1603 1602 1602 1601 1600 1600 1599 1598 1597 1596 1594 1592 1590 1589 1587 1584 1582 1581 1576 1570 1568 1566 1566 1566 1565 1568 1568 1568 1568 1569 1572 1574 1574 1575 1575 1575 1576 1576 1576 1576 1576 1575 1574 1572 1571 1570 1568 1565 1564 1564 1561 1558 1557 1557 1557 1557 1558 1558 1558 1558 1558 1558 1558 1558 1557 1557 1557 1557 1557 1556 1556 1555 1555 1555 1555 1554 1552 1552 1552 1552 1551 1549 1548 1548 1547 1547 1547 1547 1549 1549 1549 1549 1548 1548 1548 1548 1546 1545 1544 1541 1540 1540 1538 1538 1537 1537 1537 1536 1535 1535 1535 1534 1533 1533 1533 1532 1532 1531 1531 1530 1529 1529 1528 1528 1527 1526 1526 1525 1524 1524 1524 1524 1524 1524 1524 1526 1527 1529 1530 1532 1535 1540 1543 1546 1550 1556 1564 1566 1571 1590 1596 1607 0 0 0 0 0 1983 1987 1987 1987 1983 1983 1983 1983 1983 1983 1982 1981 1981 1978 1976 1974 1974 1973 1973 1973 1973 1972 1972 1968 1964 1961 1958 1955 1953 1952 1952 1951 1951 1949 1948 1947 1946 1945 1945 1944 1942 1942 1940 1939 1939 1938 1937 1936 1936 1935 1934 1933 1933 1933 1932 1932 1931 1931 1931 1931 1931 1931 1930 1930 1930 1930 1929 1929 1929 1929 1929 1929 1929 1929 1929 1929 1930 1930 1930 1930 1930 1930 1931 1931 1931 1931 1931 1931 1931 1931 1931 1932 1932 1932 1932 1932 1932 1932 1932 1932 1931 1930 1930 1929 1929 1929 1929 1930 1931 1931 1931 1931 1931 1930 1930 1930 1930 1930 1930 1930 1930 1930 1930 1929 1929 1929 1929 1929 1929 1929 1929 1929 1929 1930 1930 1929 1930 1930 1930 1930 1930 1930 1930 1930 1930 1930 1932 1933 1934 1936 1936 1938 1938 1940 1941 1943 1944 1947 1949 1951 1952 1954 1956 1958 1960 1963 1965 1966 1967 1969 1970 1972 1974 1977 1978 1978 1978 1979 1983 1985 1985 1985 1985 1983 1981 0 0 0 0 0 0 0 0 0 0 0 0 0 0 0 0 0 0 0 0 0 0 0 0 0 0 0 0 0 0 0 0 0 0 0 0 0 0 0 0 0 0 0 0 0 0 0 0 0 0 0 0 0 0 0 0 0 0 0 0 0 0 0 0 0 0 0 0 0 0 0 0 0 0 0 0 0 0 0 0 0 0 0 0 0 0 0 0 0 0 0 0 0 0 0 0 0 0 0 0 0 0 0 0 0 0 0 0 0 0 0 0 0 0 0 0 0 0 0 0 0
3006 3006 3009 3010 3012 3022 3059 3105 3143 3174 3207 3252 3269 3269 3271 3271 3271 3279 3292 3310 3326 3327 3328 3329 3331 3331 3331 3333 3337 3344 3347 3351 3354 3363 3370 3373 3373 3378 3382 3383 3385 3390 3400 3406 3408 3409 3415 3419 3425 3436 3445 3450 3454 3458 3463 3467 3468 3468 3469 3471 3478 3484 3490 3490 3490 3489 3486 3467 3464 3207 2701 0 0 0 0 0 0 0 0 0 0 0 0 0 0 0 0 0 0 0 0 0 0 0 0 1648 1682 1707 1707 1707 0 0 1696 1703 1704 1732 1736 1736 1736 1709 1683 1658 1646 1631 1627 1627 1627 1646 1662 1675 0 0 0 0 0 1637 1637 1640 1642 1650 1664 1664 1664 1650 1650 1650 1668 1686 1686 1686 1678 1663 1650 1648 1648 1646 1633 1626 1624 1624 1622 1622 1619 1619 1617 1616 1616 1616 1615 1615 1614 1613 1612 1612 1611 1611 1610 1610 1610 1609 1608 1607 1607 1607 1606 1605 1604 1603 1603 1602 1601 1601 1600 1599 1598 1597 1596 1594 1592 1590 1588 1587 1584 1581 1573 1568 1567 1567 1566 1563 1562 1562 1562 1562 1562 1566 1568 1572 1573 1574 1574 1575 1575 1576 1576 1576 1576 1576 1576 1575 1574 1572 1570 1570 1568 1567 1565 1562 1560 1558 1558 1558 1558 1558 1558 1558 1558 1558 1558 1558 1557 1557 1557 1557 1557 1557 1557 1556 1555 1555 1555 1555 1554 1553 1553 1552 1552 1552 1551 1550 1549 1548 1548 1548 1548 1549 1549 1549 1549 1549 1548 1548 1548 1547 1546 1545 1543 1541 1540 1538 1538 1537 1537 1537 1537 1536 1536 1535 1534 1534 1534 1533 1533 1532 1532 1531 1530 1530 1529 1529 1528 1528 1527 1526 1526 1525 1525 1525 1525 1525 1526 1526 1527 1529 1530 1531 1533 1536 1540 1544 1548 1551 1557 1564 1566 1571 1590 1614 0 0 0 0 0 1985 1994 1994 1994 1990 1988 1986 1986 1986 1985 1985 1983 1983 1982 1980 1979 1978 1976 1975 1975 1975 1975 1973 1972 1968 1965 1963 1960 1957 1955 1955 1954 1954 1951 1949 1948 1948 1948 1948 1946 1945 1944 1943 1942 1940 1939 1939 1938 1937 1936 1936 1935 1935 1934 1933 1932 1932 1932 1932 1932 1932 1931 1931 1931 1930 1930 1930 1929 1929 1929 1929 1929 1929 1929 1929 1929 1929 1930 1930 1930 1930 1930 1930 1930 1931 1931 1931 1931 1931 1931 1931 1931 1932 1932 1932 1932 1932 1932 1931 1931 1931 1931 1930 1930 1929 1929 1929 1929 1930 1931 1931 1931 1931 1930 1930 1930 1930 1930 1930 1930 1930 1930 1930 1930 1930 1929 1929 1929 1929 1929 1929 1930 1930 1930 1930 1930 1930 1930 1930 1930 1930 1931 1931 1931 1931 1931 1931 1932 1934 1935 1936 1936 1938 1939 1940 1941 1943 1945 1947 1949 1951 1952 1954 1956 1959 1961 1963 1965 1967 1969 1969 1970 1973 1975 1976 1978 1978 1978 1979 1983 1985 1985 1985 1983 1982 1980 0 0 0 0 0 0 0 0 0 0 0 0 0 0 0 0 0 0 0 0 0 0 0 0 0 0 0 0 0 0 0 0 0 0 0 0 0 0 0 0 0 0 0 0 0 0 0 0 0 0 0 0 0 0 0 0 0 0 0 0 0 0 0 0 0 0 0 0 0 0 0 0 0 0 0 0 0 0 0 0 0 0 0 0 0 0 0 0 0 0 0 0 0 0 0 0 0 0 0 0 0 0 0 0 0 0 0 0 0 0 0 0 0 0 0 0 0 0 0 0 0
3006 3006 3009 3010 3012 3022 3063 3105 3143 3158 3195 3234 3269 3269 3269 3271 3271 3279 3292 3310 3328 3331 3333 3333 3333 3333 3333 3333 3338 3344 3347 3351 3354 3360 3365 3368 3370 3374 3379 3382 3385 3389 3396 3401 3404 3409 3414 3419 3425 3436 3445 3450 3454 3458 3463 3465 3467 3468 3469 3471 3479 3485 3490 3490 3491 3491 3490 3475 3467 3302 2791 0 0 0 0 0 0 0 0 0 0 0 0 0 0 0 0 0 0 0 0 0 0 0 0 0 1689 1720 1720 1720 1703 1703 1703 1706 1721 1738 1738 1738 1736 1715 1693 1684 1681 1677 0 0 0 0 0 0 0 0 0 0 0 0 0 0 0 0 0 0 0 0 1707 1707 1718 1718 1718 1712 1693 1675 1668 1660 1657 1647 1635 1632 1627 1624 1624 1622 1622 1620 1619 1617 1616 1616 1616 1616 1615 1613 1613 1613 1612 1612 1611 1611 1610 1609 1609 1608 1607 1607 1606 1606 1604 1604 1604 1602 1602 1601 1600 1599 1598 1597 1596 1594 1592 1590 1588 1586 1584 1581 1570 1567 1566 1565 1565 1562 1558 1558 1558 1559 1561 1561 1564 1571 1573 1573 1573 1574 1575 1575 1576 1576 1576 1576 1576 1575 1574 1572 1572 1570 1570 1568 1565 1563 1561 1560 1559 1559 1559 1559 1559 1558 1558 1558 1557 1557 1557 1557 1557 1557 1557 1557 1557 1557 1556 1556 1556 1556 1555 1554 1553 1552 1552 1552 1552 1551 1550 1549 1548 1548 1548 1549 1549 1549 1549 1549 1548 1548 1548 1547 1546 1545 1543 1541 1541 1539 1538 1538 1538 1537 1537 1536 1536 1535 1535 1535 1535 1534 1534 1533 1533 1532 1531 1531 1530 1530 1529 1529 1528 1527 1526 1526 1526 1526 1527 1527 1528 1528 1529 1531 1533 1535 1538 1540 1541 1544 1550 1554 1558 1564 1570 1581 1605 0 0 0 0 0 1979 1996 1996 1996 1995 1993 1990 1989 1989 1989 1988 1987 1985 1985 1984 1983 1981 1981 1979 1979 1978 1977 1976 1974 1972 1968 1966 1964 1962 1959 1958 1956 1956 1954 1952 1950 1950 1950 1949 1949 1947 1946 1945 1944 1942 1941 1940 1939 1938 1937 1937 1936 1935 1935 1935 1934 1933 1933 1933 1932 1932 1932 1932 1931 1931 1930 1930 1930 1929 1929 1929 1929 1929 1929 1929 1929 1929 1929 1929 1930 1930 1930 1930 1930 1930 1930 1930 1931 1931 1931 1931 1931 1931 1931 1932 1932 1932 1932 1931 1931 1931 1931 1931 1930 1930 1929 1929 1929 1929 1930 1930 1930 1930 1930 1930 1930 1930 1930 1930 1930 1930 1930 1930 1930 1930 1930 1930 1929 1929 1929 1930 1930 1930 1930 1930 1930 1931 1931 1931 1931 1931 1931 1931 1931 1931 1931 1932 1932 1933 1934 1935 1936 1937 1938 1939 1940 1942 1943 1945 1947 1949 1951 1952 1954 1956 1959 1961 1963 1965 1967 1969 1970 1972 1973 1975 1976 1978 1978 1979 1979 1983 1985 1985 1985 1983 1981 1981 0 0 0 0 0 0 0 0 0 0 0 0 0 0 0 0 0 0 0 0 0 0 0 0 0 0 0 0 0 0 0 0 0 0 0 0 0 0 0 0 0 0 0 0 0 0 0 0 0 0 0 0 0 0 0 0 0 0 0 0 0 0 0 0 0 0 0 0 0 0 0 0 0 0 0 0 0 0 0 0 0 0 0 0 0 0 0 0 0 0 0 0 0 0 0 0 0 0 0 0 0 0 0 0 0 0 0 0 0 0 0 0 0 0 0 0 0 0 0 0 0
3025 3031 3031 3034 3034 3047 3071 3105 3143 3158 3195 3234 3269 3269 3269 3271 3271 3279 3292 3310 3326 3331 3333 3333 3333 3331 3331 3331 3338 3344 3345 3348 3349 3356 3362 3365 3370 3374 3376 3377 3381 3387 3393 3397 3401 3406 3413 3419 3425 3436 3445 3447 3451 3452 3458 3462 3465 3465 3467 3472 3479 3485 3490 3490 3491 3491 3490 3487 3467 3333 2888 0 0 0 0 0 0 0 0 0 0 0 0 0 0 0 0 0 0 0 0 0 0 0 0 0 0 1755 1755 1755 0 0 0 0 0 0 0 0 0 1731 1726 1726 1725 1725 0 0 0 0 0 1777 1777 1784 1784 1784 1780 1773 1773 1773 1778 1791 1791 1791 1777 1757 1757 1757 1758 1758 1758 1740 1715 1695 1686 1676 1657 1647 1640 1634 1633 1627 1625 1625 1623 1623 1623 1619 1617 1617 1617 1616 1615 1614 1613 1613 1613 1613 1612 1611 1610 1610 1610 1609 1608 1607 1607 1606 1605 1604 1604 1603 1602 1601 1601 1599 1598 1597 1596 1594 1592 1590 1587 1586 1584 1579 1569 1566 1566 1565 1565 1560 1554 1554 1554 1556 1559 1561 1563 1567 1569 1571 1573 1574 1574 1574 1575 1575 1576 1576 1576 1576 1575 1572 1572 1571 1570 1568 1565 1563 1561 1560 1560 1559 1559 1559 1559 1558 1557 1557 1557 1557 1557 1557 1557 1558 1557 1557 1558 1557 1557 1557 1556 1556 1555 1555 1554 1553 1553 1553 1552 1552 1552 1551 1549 1549 1549 1549 1549 1549 1549 1549 1548 1548 1548 1547 1546 1545 1543 1541 1541 1540 1540 1540 1539 1538 1537 1536 1536 1536 1536 1536 1535 1534 1534 1534 1533 1533 1532 1531 1531 1530 1529 1529 1528 1528 1528 1527 1527 1528 1528 1528 1529 1529 1529 1531 1534 1536 1539 1543 1545 1549 1553 1557 1562 1568 1580 1595 0 0 0 0 0 1977 1996 1997 1997 1996 1995 1995 1993 1991 1990 1990 1989 1988 1987 1986 1985 1985 1984 1982 1981 1981 1980 1979 1978 1975 1974 1971 1969 1966 1962 1960 1959 1957 1956 1955 1953 1952 1951 1951 1950 1949 1948 1946 1945 1945 1943 1942 1940 1939 1938 1938 1938 1937 1936 1936 1935 1934 1934 1934 1934 1933 1933 1932 1932 1932 1931 1930 1930 1929 1929 1929 1929 1929 1929 1929 1929 1929 1929 1929 1929 1929 1929 1930 1930 1930 1930 1930 1930 1930 1930 1930 1930 1931 1931 1931 1931 1932 1932 1932 1931 1931 1931 1931 1931 1930 1930 1929 1929 1929 1929 1930 1930 1930 1930 1930 1930 1930 1930 1930 1930 1930 1930 1930 1930 1930 1930 1930 1930 1930 1930 1930 1930 1930 1930 1931 1931 1931 1931 1931 1932 1932 1932 1932 1931 1931 1932 1932 1933 1933 1934 1935 1935 1936 1937 1938 1940 1941 1942 1944 1946 1947 1949 1951 1952 1954 1957 1959 1961 1963 1965 1968 1970 1971 1973 1974 1976 1976 1978 1979 1979 1980 1984 1985 1986 1986 1986 1984 1981 1962 0 0 0 0 0 0 0 0 0 0 0 0 0 0 0 0 0 0 0 0 0 0 0 0 0 0 0 0 0 0 0 0 0 0 0 0 0 0 0 0 0 0 0 0 0 0 0 0 0 0 0 0 0 0 0 0 0 0 0 0 0 0 0 0 0 0 0 0 0 0 0 0 0 0 0 0 0 0 0 0 0 0 0 0 0 0 0 0 0 0 0 0 0 0 0 0 0 0 0 0 0 0 0 0 0 0 0 0 0 0 0 0 0 0 0 0 0 0 0 0
3078 3078 3076 3076 3076 3076 3094 3124 3154 3158 3195 3234 3269 3273 3276 3279 3279 3285 3305 3317 3326 3331 3333 3333 3333 3333 3333 3333 3339 3341 3345 3348 3349 3350 3358 3365 3370 3374 3376 3377 3380 3384 3390 3394 3399 3403 3411 3417 3424 3431 3439 3441 3444 3448 3453 3458 3461 3465 3467 3472 3479 3485 3489 3490 3491 3491 3491 3490 3479 3404 3010 0 0 0 0 0 0 0 0 0 0 0 0 0 0 0 0 0 0 0 0 0 0 0 0 0 0 0 0 0 0 0 0 0 0 0 0 0 0 1793 1780 1775 1775 1775 1778 1780 1780 1780 1777 1777 1777 1784 1796 1796 1796 1788 1780 1780 1780 1800 1803 1803 1803 1785 1785 1785 1781 1781 1771 1754 1729 1706 1699 1680 1667 1649 1649 1635 1635 1633 1628 1627 1624 1623 1623 1622 1619 1619 1617 1617 1615 1614 1614 1614 1613 1613 1612 1612 1611 1611 1610 1609 1609 1607 1607 1606 1605 1605 1604 1604 1603 1601 1601 1599 1598 1597 1596 1594 1591 1587 1584 1583 1582 1578 1567 1565 1564 1563 1562 1558 1554 1554 1554 1556 1558 1560 1563 1566 1568 1570 1573 1573 1574 1574 1574 1575 1575 1576 1576 1576 1575 1573 1572 1572 1570 1568 1565 1563 1561 1560 1560 1559 1559 1558 1557 1557 1557 1556 1556 1556 1557 1557 1557 1558 1559 1559 1559 1559 1558 1557 1557 1557 1557 1555 1555 1553 1553 1553 1554 1554 1554 1553 1552 1552 1550 1550 1550 1550 1549 1548 1548 1548 1548 1547 1546 1545 1543 1543 1543 1541 1540 1540 1539 1539 1538 1538 1537 1537 1537 1536 1535 1535 1535 1534 1534 1534 1532 1532 1532 1530 1530 1529 1529 1529 1529 1529 1529 1529 1529 1529 1529 1529 1531 1535 1536 1537 1540 1543 1548 1552 1557 1562 1569 1582 1594 0 0 0 0 0 1966 1997 1997 1997 1997 1996 1995 1995 1993 1991 1991 1990 1990 1989 1988 1987 1987 1986 1985 1983 1983 1982 1981 1980 1979 1976 1975 1972 1970 1967 1964 1962 1959 1958 1956 1955 1954 1953 1953 1952 1951 1950 1949 1947 1946 1945 1944 1942 1940 1939 1939 1939 1938 1937 1936 1936 1935 1935 1935 1934 1934 1934 1934 1933 1932 1932 1931 1930 1930 1929 1929 1929 1929 1929 1929 1929 1929 1929 1929 1929 1929 1929 1929 1929 1929 1930 1930 1930 1930 1930 1930 1930 1930 1931 1931 1931 1931 1932 1932 1932 1931 1931 1931 1931 1931 1930 1930 1929 1929 1929 1929 1930 1930 1930 1930 1930 1930 1930 1930 1930 1929 1929 1929 1929 1929 1930 1930 1930 1930 1930 1930 1930 1930 1930 1931 1931 1931 1931 1932 1932 1932 1932 1932 1932 1932 1932 1932 1932 1933 1933 1934 1935 1936 1937 1938 1939 1940 1941 1943 1944 1946 1948 1949 1952 1953 1955 1957 1960 1961 1964 1966 1969 1970 1972 1974 1974 1976 1977 1978 1980 1980 1982 1984 1985 1988 1988 1988 1984 1981 1962 0 0 0 0 0 0 0 0 0 0 0 0 0 0 0 0 0 0 0 0 0 0 0 0 0 0 0 0 0 0 0 0 0 0 0 0 0 0 0 0 0 0 0 0 0 0 0 0 0 0 0 0 0 0 0 0 0 0 0 0 0 0 0 0 0 0 0 0 0 0 0 0 0 0 0 0 0 0 0 0 0 0 0 0 0 0 0 0 0 0 0 0 0 0 0 0 0 0 0 0 0 0 0 0 0 0 0 0 0 0 0 0 0 0 0 0 0 0 0 0
3078 3078 3081 3086 3088 3094 3112 3143 3165 3193 3221 3248 3269 3286 3298 3298 3299 3302 3305 3317 3322 3328 3328 3328 3328 3328 3328 3334 3339 3341 3345 3348 3349 3350 3355 3364 3371 3376 3376 3377 3380 3384 3389 3393 3395 3400 3407 3411 3418 3427 3433 3440 3444 3448 3453 3458 3461 3465 3467 3472 3479 3485 3489 3491 3491 3492 3492 3492 3479 3468 3189 2667 0 0 0 0 0 0 0 0 0 0 0 0 0 0 0 0 0 0 0 0 0 0 0 0 0 0 0 0 1869 1873 1879 1892 1892 1892 1883 1869 1850 1835 1819 1805 1804 1804 1803 1800 1798 1793 1777 1777 1777 1784 1796 1796 1796 1788 1780 1780 1780 1800 1803 1803 1803 1786 1786 1785 1781 1781 1771 1754 1732 1721 1705 1688 1669 1656 1649 1641 1637 1635 1629 1629 1627 1625 1624 1624 1623 1623 1622 1618 1617 1616 1615 1614 1614 1613 1613 1612 1612 1611 1610 1610 1609 1608 1607 1607 1606 1606 1604 1604 1603 1603 1602 1599 1598 1597 1596 1594 1591 1587 1584 1579 1577 1569 1565 1564 1563 1562 1559 1556 1554 1554 1554 1556 1557 1559 1561 1563 1564 1565 1569 1571 1572 1574 1574 1575 1575 1576 1576 1576 1575 1573 1571 1571 1570 1566 1564 1562 1561 1560 1560 1558 1558 1557 1557 1557 1556 1556 1556 1556 1557 1557 1558 1558 1560 1560 1560 1559 1558 1558 1557 1557 1557 1556 1555 1555 1555 1555 1555 1555 1555 1555 1555 1554 1552 1551 1550 1550 1549 1549 1548 1548 1548 1547 1546 1546 1544 1543 1543 1542 1541 1540 1540 1540 1539 1538 1537 1537 1537 1537 1536 1536 1536 1535 1534 1534 1533 1532 1532 1531 1530 1530 1530 1530 1530 1529 1529 1529 1529 1529 1531 1531 1534 1535 1537 1538 1541 1544 1548 1552 1559 1566 1575 1590 1617 0 0 0 0 0 1997 1997 1997 1997 1997 1996 1995 1995 1993 1991 1991 1991 1991 1990 1989 1989 1988 1987 1985 1984 1984 1982 1982 1980 1979 1977 1975 1973 1970 1968 1966 1963 1962 1960 1958 1956 1955 1954 1953 1952 1951 1950 1949 1948 1947 1945 1944 1943 1942 1941 1939 1939 1938 1937 1936 1936 1935 1935 1935 1934 1934 1934 1934 1933 1933 1932 1931 1931 1930 1929 1929 1929 1929 1928 1928 1928 1929 1929 1929 1929 1929 1929 1929 1929 1929 1929 1929 1929 1929 1930 1930 1930 1930 1931 1931 1931 1931 1931 1931 1931 1931 1931 1931 1931 1931 1931 1930 1929 1929 1929 1930 1930 1930 1930 1930 1930 1930 1930 1930 1929 1929 1929 1929 1929 1930 1930 1930 1930 1930 1930 1930 1930 1931 1931 1931 1931 1932 1932 1932 1932 1932 1932 1933 1933 1933 1932 1932 1932 1933 1934 1934 1935 1936 1937 1938 1939 1940 1941 1943 1944 1946 1948 1950 1952 1954 1955 1958 1960 1961 1965 1966 1969 1970 1972 1974 1975 1976 1977 1979 1981 1981 1982 1984 1984 1987 1994 1994 1994 1987 1976 1962 0 0 0 0 0 0 0 0 0 0 0 0 0 0 0 0 0 0 0 0 0 0 0 0 0 0 0 0 0 0 0 0 0 0 0 0 0 0 0 0 0 0 0 0 0 0 0 0 0 0 0 0 0 0 0 0 0 0 0 0 0 0 0 0 0 0 0 0 0 0 0 0 0 0 0 0 0 0 0 0 0 0 0 0 0 0 0 0 0 0 0 0 0 0 0 0 0 0 0 0 0 0 0 0 0 0 0 0 0 0 0 0 0 0 0 0 0 0 0
3078 3078 3081 3087 3091 3110 3133 3161 3187 3209 3228 3253 3269 3286 3298 3300 3302 3305 3305 3317 3322 3325 3326 3326 3327 3327 3331 3334 3339 3341 3345 3348 3350 3350 3353 3364 3371 3376 3380 3380 3381 3384 3388 3390 3392 3398 3406 3409 3416 3424 3433 3440 3444 3448 3453 3458 3461 3465 3468 3472 3479 3485 3489 3493 3496 3499 3499 3499 3479 3474 3295 2904 0 0 0 0 0 0 0 0 0 0 0 0 0 0 0 0 0 0 1938 1940 1938 1935 1935 1933 1921 1909 1894 1890 1890 1890 1893 1893 1893 1893 1883 1869 1856 1855 1849 1835 1828 1821 1810 1807 1804 1803 1783 1762 1762 1762 1796 1796 1796 1788 1780 1780 1780 1800 1803 1803 1803 1786 1786 1785 1781 1781 1771 1754 1744 1740 1719 1695 1674 1662 1658 1657 1655 1652 1637 1632 1630 1628 1627 1627 1626 1626 1626 1622 1618 1616 1616 1616 1615 1614 1613 1613 1612 1612 1611 1610 1609 1609 1608 1607 1607 1606 1605 1605 1603 1603 1602 1600 1598 1597 1596 1594 1591 1587 1584 1578 1568 1566 1564 1563 1563 1562 1558 1556 1554 1554 1554 1556 1557 1559 1561 1561 1562 1562 1565 1567 1568 1573 1574 1575 1575 1576 1576 1576 1574 1573 1571 1571 1569 1566 1564 1562 1561 1560 1560 1558 1558 1557 1557 1557 1556 1556 1556 1556 1557 1557 1558 1558 1560 1560 1560 1560 1560 1560 1559 1559 1558 1557 1556 1556 1556 1556 1556 1556 1556 1556 1556 1555 1555 1554 1551 1550 1549 1549 1548 1548 1548 1548 1547 1546 1545 1545 1544 1542 1541 1540 1540 1540 1540 1538 1538 1538 1538 1538 1537 1537 1536 1535 1534 1534 1533 1533 1532 1532 1532 1531 1531 1531 1531 1531 1531 1530 1530 1530 1532 1534 1534 1536 1538 1539 1542 1544 1548 1553 1559 1569 1579 1601 0 0 0 0 0 1997 2001 2001 2001 1997 1997 1996 1996 1995 1993 1992 1992 1991 1991 1991 1991 1991 1989 1988 1986 1985 1984 1983 1982 1980 1979 1977 1976 1973 1971 1968 1967 1964 1963 1961 1959 1957 1956 1955 1954 1952 1952 1951 1950 1949 1947 1946 1945 1943 1943 1941 1940 1939 1938 1937 1936 1936 1936 1936 1935 1935 1935 1935 1935 1934 1933 1932 1931 1930 1930 1929 1929 1928 1928 1928 1928 1928 1928 1928 1929 1929 1929 1929 1929 1929 1929 1929 1929 1929 1929 1929 1930 1930 1930 1931 1931 1931 1931 1931 1931 1931 1931 1931 1931 1931 1931 1931 1931 1930 1930 1930 1930 1930 1930 1930 1930 1929 1929 1929 1929 1929 1929 1929 1929 1929 1930 1930 1930 1930 1930 1930 1930 1930 1931 1931 1931 1931 1932 1932 1932 1933 1933 1933 1933 1933 1933 1933 1933 1933 1933 1934 1935 1936 1936 1937 1938 1939 1940 1942 1943 1944 1946 1948 1950 1952 1954 1955 1958 1960 1961 1965 1966 1969 1970 1972 1974 1975 1976 1977 1979 1981 1981 1983 1984 1984 1986 1994 1996 1996 1996 1987 1981 1967 0 0 0 0 0 0 0 0 0 0 0 0 0 0 0 0 0 0 0 0 0 0 0 0 0 0 0 0 0 0 0 0 0 0 0 0 0 0 0 0 0 0 0 0 0 0 0 0 0 0 0 0 0 0 0 0 0 0 0 0 0 0 0 0 0 0 0 0 0 0 0 0 0 0 0 0 0 0 0 0 0 0 0 0 0 0 0 0 0 0 0 0 0 0 0 0 0 0 0 0 0 0 0 0 0 0 0 0 0 0 0 0 0 0 0 0 0 0
3063 3063 3081 3089 3092 3113 3142 3175 3208 3233 3245 3253 3268 3286 3298 3302 3305 3306 3309 3316 3320 3321 3323 3323 3324 3327 3331 3336 3339 3341 3345 3348 3350 3350 3353 3362 3371 3376 3380 3381 3381 3384 3387 3388 3392 3398 3406 3409 3416 3424 3432 3438 3448 3450 3453 3457 3464 3469 3471 3474 3479 3485 3490 3496 3502 3502 3502 3502 3480 3474 3380 3024 0 0 0 0 0 0 0 0 0 0 0 1886 1886 1886 1912 1941 1959 1960 1960 1959 1950 1948 1947 1941 1937 1923 1915 1913 1908 1903 1902 1900 1899 1893 1883 1869 1856 1855 1849 1835 1828 1821 1816 1812 1807 1803 1783 1762 1762 0 1796 1796 1796 1783 1774 1774 1774 1790 1795 1795 1795 1786 1778 1762 1750 1750 1748 1748 1746 1745 1729 1711 1685 1671 1667 1665 1664 1663 1642 1642 1637 1637 1637 1628 1628 1627 1626 1625 1622 1621 1619 1618 1616 1614 1614 1613 1612 1612 1611 1610 1609 1609 1608 1608 1607 1606 1606 1605 1604 1603 1602 1601 1598 1597 1595 1594 1591 1589 1585 1576 1568 1564 1562 1562 1562 1561 1558 1556 1556 1556 1556 1556 1556 1556 1558 1560 1560 1560 1563 1565 1567 1570 1574 1574 1576 1576 1576 1576 1574 1573 1571 1571 1569 1566 1564 1562 1561 1560 1560 1558 1558 1557 1557 1557 1556 1557 1557 1557 1557 1557 1558 1558 1561 1561 1561 1561 1561 1561 1561 1560 1560 1560 1558 1558 1557 1557 1557 1557 1556 1556 1556 1556 1556 1555 1552 1551 1549 1549 1548 1548 1548 1548 1547 1546 1545 1545 1544 1543 1542 1541 1541 1541 1540 1539 1539 1539 1538 1538 1538 1537 1536 1536 1535 1535 1534 1534 1533 1533 1533 1533 1532 1532 1532 1532 1532 1532 1532 1534 1535 1536 1536 1536 1538 1541 1544 1546 1549 1554 1562 1573 1593 0 0 0 0 0 1984 2007 2007 2007 2003 1998 1997 1997 1997 1997 1996 1994 1994 1993 1993 1992 1992 1991 1991 1989 1987 1987 1985 1983 1983 1981 1979 1977 1976 1973 1971 1969 1967 1966 1964 1962 1960 1959 1957 1956 1954 1953 1952 1951 1951 1949 1948 1946 1945 1944 1943 1941 1940 1939 1938 1937 1936 1936 1936 1936 1936 1936 1935 1935 1935 1934 1933 1932 1931 1930 1929 1929 1928 1928 1928 1928 1928 1928 1928 1928 1928 1929 1929 1929 1929 1929 1929 1929 1929 1929 1929 1929 1929 1930 1930 1930 1931 1931 1931 1931 1932 1932 1932 1931 1931 1931 1931 1931 1931 1930 1930 1930 1930 1930 1930 1930 1930 1929 1929 1929 1929 1929 1929 1929 1929 1929 1930 1930 1930 1930 1930 1930 1930 1931 1931 1931 1931 1932 1932 1932 1933 1933 1933 1934 1934 1934 1934 1934 1934 1934 1934 1934 1935 1936 1936 1937 1938 1939 1940 1942 1943 1945 1946 1948 1950 1952 1954 1955 1957 1960 1961 1965 1966 1969 1970 1972 1974 1975 1976 1977 1979 1981 1982 1983 1984 1984 1987 1994 1999 1999 1999 1999 1994 1972 0 0 0 0 0 0 0 0 0 0 0 0 0 0 0 0 0 0 0 0 0 0 0 0 0 0 0 0 0 0 0 0 0 0 0 0 0 0 0 0 0 0 0 0 0 0 0 0 0 0 0 0 0 0 0 0 0 0 0 0 0 0 0 0 0 0 0 0 0 0 0 0 0 0 0 0 0 0 0 0 0 0 0 0 0 0 0 0 0 0 0 0 0 0 0 0 0 0 0 0 0 0 0 0 0 0 0 0 0 0 0 0 0 0 0 0 0 0
3063 3063 3081 3090 3106 3123 3143 3176 3214 3234 3251 3253 3266 3267 3283 3302 3303 3305 3306 3315 3320 3321 3321 3322 3324 3325 3331 3336 3339 3341 3345 3348 3350 3350 3351 3359 3366 3374 3380 3381 3381 3384 3385 3388 3392 3398 3406 3409 3416 3424 3432 3438 3448 3453 3454 3458 3464 3470 3474 3478 3482 3486 3493 3499 3504 3506 3506 3506 3489 3481 3394 3083 2603 0 0 0 0 0 0 0 0 1931 1931 1912 1912 1912 1922 1947 1961 1963 1963 1963 1958 1956 1956 1950 1946 1944 1943 1942 1936 1924 1911 1903 1900 1888 1869 1856 1856 1855 1849 1835 1828 1821 1821 1812 1803 1803 1791 1768 1768 0 1796 1796 1796 1770 1768 1768 1768 1782 1782 1782 1779 1774 1767 1754 1750 1750 1748 1748 1746 1745 1729 1721 1700 1683 1679 1670 1667 1663 1659 1657 1655 1653 1651 1634 1629 1628 1628 1625 1623 1622 1620 1618 1616 1615 1614 1613 1612 1612 1611 1610 1610 1609 1608 1608 1608 1606 1606 1605 1604 1603 1602 1601 1599 1597 1596 1594 1592 1589 1585 1576 1568 1564 1562 1562 1562 1561 1558 1556 1556 1556 1555 1555 1556 1556 1556 1557 1558 1558 1560 1563 1567 1570 1572 1574 1576 1576 1576 1576 1574 1573 1571 1571 1569 1567 1565 1562 1561 1560 1560 1558 1558 1558 1558 1558 1558 1558 1558 1558 1558 1558 1559 1560 1563 1563 1563 1563 1563 1561 1561 1561 1560 1560 1559 1558 1558 1558 1558 1557 1557 1557 1557 1557 1556 1555 1553 1552 1551 1551 1549 1549 1548 1548 1547 1546 1546 1546 1545 1544 1543 1543 1542 1541 1541 1540 1540 1540 1540 1539 1539 1538 1537 1536 1536 1535 1535 1535 1534 1533 1533 1533 1534 1534 1534 1534 1534 1535 1536 1537 1537 1537 1537 1538 1539 1543 1547 1551 1556 1568 1579 1596 0 0 0 0 0 0 2002 2010 2010 2010 2004 2000 1999 1999 1998 1998 1998 1996 1995 1995 1994 1994 1993 1992 1991 1991 1989 1988 1986 1985 1983 1982 1980 1979 1977 1974 1972 1971 1969 1967 1965 1963 1960 1959 1958 1956 1955 1953 1952 1952 1951 1949 1948 1947 1946 1944 1943 1941 1940 1939 1938 1937 1936 1936 1936 1936 1936 1936 1935 1935 1935 1934 1933 1932 1931 1930 1929 1929 1928 1928 1928 1928 1928 1928 1928 1928 1928 1928 1929 1929 1928 1928 1928 1928 1929 1929 1929 1929 1929 1930 1930 1930 1931 1931 1931 1931 1931 1931 1931 1931 1932 1931 1931 1931 1931 1930 1930 1930 1930 1930 1930 1930 1929 1929 1929 1929 1929 1929 1929 1929 1929 1929 1930 1930 1930 1930 1930 1930 1930 1931 1931 1931 1931 1932 1932 1933 1933 1934 1934 1934 1934 1934 1934 1934 1934 1934 1934 1934 1935 1936 1936 1937 1938 1939 1940 1942 1943 1945 1946 1948 1949 1951 1954 1955 1957 1959 1961 1964 1966 1968 1969 1971 1973 1975 1976 1977 1979 1981 1983 1984 1984 1984 1987 1992 1997 2001 2001 2001 2001 1987 0 0 0 0 0 0 0 0 0 0 0 0 0 0 0 0 0 0 0 0 0 0 0 0 0 0 0 0 0 0 0 0 0 0 0 0 0 0 0 0 0 0 0 0 0 0 0 0 0 0 0 0 0 0 0 0 0 0 0 0 0 0 0 0 0 0 0 0 0 0 0 0 0 0 0 0 0 0 0 0 0 0 0 0 0 0 0 0 0 0 0 0 0 0 0 0 0 0 0 0 0 0 0 0 0 0 0 0 0 0 0 0 0 0 0 0 0 0
3063 3063 3086 3103 3106 3124 3148 3177 3214 3234 3251 3252 3255 3257 3268 3285 3303 3305 3305 3313 3316 3319 3321 3321 3322 3324 3331 3336 3338 3338 3342 3346 3350 3351 3351 3359 3366 3374 3376 3378 3381 3383 3385 3388 3393 3401 3410 3414 3419 3425 3433 3440 3448 3453 3454 3459 3465 3471 3476 3481 3485 3489 3494 3501 3510 3510 3510 3510 3496 3481 3429 3123 2783 0 0 0 0 0 0 0 1958 1958 1958 1941 1937 1937 1937 1949 1964 1966 1966 1966 1963 1963 1963 1965 1966 1966 1966 1965 1952 1934 1918 1907 1897 1877 1854 1835 1835 1835 1829 1825 1824 1821 1820 1813 1812 1808 1808 1813 1808 1808 1806 1798 1796 1770 1763 1763 1763 1779 1779 1779 1767 1762 1757 1754 1750 1750 1748 1748 1747 1745 1735 1724 1709 1699 1680 1677 1669 1669 1669 1669 1669 1669 1659 1635 1629 1629 1628 1626 1624 1623 1621 1618 1616 1616 1614 1613 1613 1612 1612 1611 1610 1610 1609 1609 1608 1607 1607 1606 1605 1604 1602 1601 1599 1597 1597 1594 1592 1589 1585 1575 1568 1564 1562 1562 1562 1561 1560 1556 1556 1556 1555 1555 1555 1555 1555 1555 1557 1557 1559 1561 1566 1570 1574 1575 1576 1577 1577 1577 1574 1573 1572 1571 1570 1569 1567 1564 1563 1561 1561 1560 1559 1559 1559 1559 1560 1560 1560 1560 1560 1560 1561 1562 1563 1565 1565 1565 1564 1564 1562 1561 1561 1561 1560 1559 1559 1559 1559 1559 1558 1558 1558 1557 1557 1556 1554 1553 1552 1551 1550 1549 1548 1548 1547 1546 1546 1546 1546 1545 1544 1543 1543 1542 1542 1542 1541 1541 1540 1540 1540 1539 1539 1538 1537 1537 1537 1536 1535 1534 1534 1534 1534 1534 1536 1537 1537 1537 1538 1538 1537 1538 1538 1538 1543 1547 1553 1559 1572 1586 0 0 0 0 0 0 0 2005 2014 2014 2014 2012 2007 2002 2001 2001 2001 2001 2001 1999 1998 1997 1996 1996 1995 1994 1993 1991 1991 1988 1987 1986 1984 1983 1981 1980 1978 1975 1974 1971 1970 1968 1966 1964 1962 1960 1958 1957 1955 1953 1952 1952 1951 1949 1948 1947 1946 1944 1943 1941 1940 1939 1938 1937 1936 1936 1936 1936 1936 1936 1935 1935 1934 1934 1933 1932 1931 1930 1929 1928 1928 1928 1927 1927 1927 1927 1928 1928 1928 1928 1928 1928 1928 1928 1928 1928 1929 1929 1929 1929 1929 1930 1930 1930 1931 1931 1931 1931 1931 1931 1931 1931 1931 1931 1931 1931 1931 1930 1930 1930 1930 1930 1930 1930 1930 1929 1929 1929 1929 1928 1929 1929 1929 1929 1930 1930 1930 1930 1930 1930 1930 1931 1931 1931 1932 1932 1933 1934 1934 1934 1934 1934 1934 1934 1934 1934 1934 1934 1934 1934 1935 1936 1936 1937 1938 1939 1940 1942 1943 1944 1946 1946 1948 1950 1952 1954 1957 1958 1960 1963 1965 1967 1969 1971 1973 1974 1976 1977 1979 1981 1983 1985 1985 1987 1987 1990 1996 2001 2001 2001 2001 1989 1964 0 0 0 0 0 0 0 0 0 0 0 0 0 0 0 0 0 0 0 0 0 0 0 0 0 0 0 0 0 0 0 0 0 0 0 0 0 0 0 0 0 0 0 0 0 0 0 0 0 0 0 0 0 0 0 0 0 0 0 0 0 0 0 0 0 0 0 0 0 0 0 0 0 0 0 0 0 0 0 0 0 0 0 0 0 0 0 0 0 0 0 0 0 0 0 0 0 0 0 0 0 0 0 0 0 0 0 0 0 0 0 0 0 0 0 0 0
3078 3078 3097 3113 3117 3127 3148 3177 3214 3236 3252 3255 3257 3257 3268 3285 3303 3305 3305 3305 3309 3312 3316 3321 3321 3322 3326 3329 3336 3338 3340 3346 3350 3351 3354 3359 3366 3374 3375 3376 3379 3382 3385 3389 3394 3403 3413 3419 3424 3428 3434 3441 3448 3453 3455 3459 3465 3473 3478 3484 3487 3491 3496 3501 3510 3510 3510 3510 3501 3481 3459 3337 2929 0 0 0 0 0 0 0 1968 1968 1968 1959 1951 1950 1950 1950 1970 1976 1979 1980 1988 1989 1989 1988 1976 1973 1972 1971 1961 1939 1919 1908 1897 1877 1854 1835 1827 1826 1824 1824 1824 1821 1820 1818 1818 1818 1821 1834 1834 1834 1829 1806 1796 1770 1763 1763 1763 1770 1770 1770 1762 1762 1757 1757 1754 1754 1751 1748 1746 1742 1735 1724 1709 1701 1692 1686 1678 1678 1678 1684 1684 1684 1683 1649 1630 1629 1628 1627 1625 1624 1621 1620 1617 1616 1615 1614 1613 1613 1613 1612 1611 1611 1609 1609 1608 1608 1607 1606 1605 1604 1603 1601 1599 1598 1597 1594 1592 1587 1580 1575 1568 1565 1562 1562 1562 1562 1560 1557 1555 1555 1555 1555 1555 1555 1555 1555 1557 1557 1559 1561 1566 1573 1576 1576 1577 1577 1577 1577 1574 1573 1573 1573 1572 1571 1570 1566 1564 1562 1562 1560 1559 1559 1559 1560 1560 1560 1560 1560 1561 1562 1563 1564 1564 1565 1565 1565 1565 1564 1563 1562 1562 1562 1561 1561 1561 1561 1560 1560 1560 1559 1558 1558 1557 1557 1556 1554 1553 1552 1551 1549 1548 1548 1547 1547 1547 1546 1546 1546 1545 1545 1544 1544 1543 1542 1542 1542 1541 1541 1541 1540 1539 1539 1538 1537 1537 1537 1536 1535 1535 1534 1534 1534 1539 1539 1539 1539 1539 1538 1538 1538 1539 1543 1548 1553 1556 1567 1587 1610 0 0 0 0 0 0 2010 2013 2016 2016 2016 2013 2007 2003 2003 2003 2003 2003 2002 2001 2000 1999 1998 1997 1996 1995 1994 1992 1992 1989 1988 1987 1986 1984 1982 1980 1978 1977 1974 1971 1970 1968 1966 1965 1962 1961 1959 1958 1955 1954 1953 1952 1951 1949 1948 1947 1946 1944 1943 1941 1940 1939 1937 1936 1936 1936 1936 1936 1935 1935 1935 1934 1934 1933 1932 1931 1931 1929 1929 1928 1928 1927 1927 1927 1927 1927 1927 1928 1928 1928 1928 1928 1928 1928 1928 1928 1928 1929 1929 1929 1929 1929 1930 1930 1931 1931 1931 1931 1931 1931 1931 1931 1931 1931 1931 1931 1931 1930 1930 1930 1930 1930 1930 1930 1930 1929 1929 1929 1928 1928 1928 1928 1928 1929 1929 1930 1930 1930 1930 1930 1930 1931 1931 1931 1932 1932 1933 1934 1934 1934 1934 1934 1935 1935 1934 1934 1934 1934 1934 1934 1935 1935 1936 1937 1937 1939 1940 1941 1943 1943 1945 1946 1947 1949 1950 1952 1954 1957 1960 1963 1965 1966 1968 1970 1972 1974 1976 1977 1979 1981 1983 1985 1987 1988 1988 1990 1996 2001 2001 2001 2001 1995 1984 0 0 0 0 0 0 0 0 0 0 0 0 0 0 0 0 0 0 0 0 0 0 0 0 0 0 0 0 0 0 0 0 0 0 0 0 0 0 0 0 0 0 0 0 0 0 0 0 0 0 0 0 0 0 0 0 0 0 0 0 0 0 0 0 0 0 0 0 0 0 0 0 0 0 0 0 0 0 0 0 0 0 0 0 0 0 0 0 0 0 0 0 0 0 0 0 0 0 0 0 0 0 0 0 0 0 0 0 0 0 0 0 0 0 0 0 0
3084 3084 3115 3136 3139 3146 3160 3179 3214 3236 3252 3255 3257 3257 3268 3285 3302 3302 3303 3304 3305 3308 3313 3318 3321 3324 3326 3329 3336 3338 3340 3346 3350 3354 3358 3365 3373 3374 3375 3376 3378 3381 3385 3390 3396 3405 3413 3419 3424 3428 3433 3441 3448 3454 3455 3460 3468 3475 3483 3487 3490 3493 3496 3501 3509 3510 3510 3509 3501 3497 3468 3411 3037 0 0 0 0 0 0 0 0 1970 1970 1970 1962 1962 1962 1970 1980 1997 2016 2016 2016 2015 2006 1989 1976 1973 1972 1971 1961 1954 1935 1913 1897 1877 1854 1835 1827 1826 1824 1824 1824 1821 1821 1821 1821 1823 1839 1844 1844 1844 1829 1814 1806 1787 1763 1763 1763 1763 1763 1762 1762 1762 1757 1757 1755 1754 1754 1747 1746 1738 1735 1724 1712 1704 1697 1688 1688 1688 1691 1691 1691 1684 1683 1674 1644 1632 1630 1628 1627 1626 1623 1621 1621 1618 1616 1614 1613 1613 1613 1613 1612 1611 1610 1609 1609 1608 1607 1607 1605 1604 1604 1602 1600 1599 1597 1594 1591 1587 1580 1575 1571 1567 1564 1563 1562 1562 1560 1557 1555 1555 1555 1555 1555 1555 1555 1555 1557 1557 1559 1561 1567 1573 1577 1577 1577 1577 1577 1577 1577 1577 1576 1575 1573 1572 1570 1568 1567 1565 1563 1561 1559 1559 1559 1560 1560 1560 1560 1560 1561 1564 1564 1564 1566 1566 1566 1566 1566 1566 1564 1564 1564 1563 1562 1562 1563 1563 1562 1561 1561 1560 1560 1560 1559 1558 1556 1555 1554 1553 1551 1550 1549 1548 1548 1548 1548 1548 1547 1546 1546 1546 1546 1545 1544 1543 1543 1543 1543 1542 1542 1541 1541 1540 1539 1538 1537 1537 1536 1535 1535 1535 1535 1535 1540 1542 1542 1542 1541 1541 1541 1541 1543 1550 1556 1562 1573 1577 1599 1638 0 0 0 0 0 2017 2017 2019 2019 2019 2017 2013 2009 2006 2006 2006 2005 2005 2003 2002 2001 2000 2000 1998 1997 1996 1995 1993 1992 1991 1990 1988 1987 1985 1983 1981 1979 1977 1975 1973 1971 1969 1967 1965 1963 1961 1960 1958 1955 1954 1953 1952 1951 1949 1948 1947 1946 1944 1943 1941 1939 1939 1937 1936 1936 1936 1936 1935 1935 1934 1934 1934 1933 1933 1931 1930 1930 1928 1928 1927 1927 1927 1927 1927 1927 1927 1927 1927 1928 1928 1928 1928 1927 1927 1927 1928 1928 1929 1929 1929 1929 1929 1930 1930 1931 1931 1931 1931 1931 1931 1931 1931 1931 1931 1931 1931 1930 1930 1930 1930 1930 1929 1929 1929 1929 1929 1929 1928 1928 1928 1928 1928 1928 1929 1929 1929 1929 1930 1930 1930 1930 1931 1931 1932 1932 1933 1933 1934 1934 1934 1935 1935 1935 1935 1935 1935 1934 1934 1934 1934 1935 1935 1935 1937 1937 1938 1940 1941 1942 1943 1943 1945 1946 1948 1950 1952 1953 1955 1959 1962 1963 1966 1967 1970 1972 1973 1975 1977 1979 1981 1983 1985 1988 1989 1990 1990 1996 2000 2001 2002 2005 2005 2001 0 0 0 0 0 0 0 0 0 0 0 0 0 0 0 0 0 0 0 0 0 0 0 0 0 0 0 0 0 0 0 0 0 0 0 0 0 0 0 0 0 0 0 0 0 0 0 0 0 0 0 0 0 0 0 0 0 0 0 0 0 0 0 0 0 0 0 0 0 0 0 0 0 0 0 0 0 0 0 0 0 0 0 0 0 0 0 0 0 0 0 0 0 0 0 0 0 0 0 0 0 0 0 0 0 0 0 0 0 0 0 0 0 0 0 0 0
3086 3086 3115 3136 3139 3146 3164 3180 3214 3236 3258 3258 3261 3261 3284 3288 3296 3297 3299 3300 3302 3303 3309 3315 3321 3322 3325 3329 3336 3339 3342 3349 3353 3359 3365 3372 3375 3376 3376 3377 3378 3381 3384 3392 3399 3405 3413 3419 3424 3428 3433 3441 3447 3453 3457 3461 3470 3478 3485 3490 3493 3493 3496 3499 3501 3502 3502 3502 3501 3497 3475 3452 3089 2627 0 0 0 0 0 0 0 0 1980 1980 1970 1970 1970 1971 1994 2005 2017 2019 2019 2019 2006 1989 1976 1973 1972 1971 1961 1954 1936 1919 1906 1883 1857 1835 1827 1827 1827 1826 1826 1825 1821 1821 1821 1834 1840 1844 1844 1844 1829 1814 1806 1797 1781 1765 1764 1763 1762 1762 1762 1760 1757 1755 1755 1755 1754 1750 1746 1738 1735 1722 1712 1704 1697 1697 1697 1702 1702 1702 1691 1684 1683 1674 1667 1662 1648 1641 1640 1635 1627 1626 1623 1619 1618 1615 1613 1613 1613 1613 1613 1611 1610 1609 1609 1609 1608 1607 1606 1605 1604 1603 1601 1599 1597 1594 1591 1587 1580 1577 1575 1571 1568 1566 1564 1562 1560 1558 1556 1556 1556 1556 1556 1557 1557 1558 1558 1559 1559 1563 1567 1574 1577 1579 1580 1580 1580 1580 1579 1579 1578 1577 1575 1573 1572 1570 1568 1566 1564 1561 1560 1560 1560 1561 1561 1561 1561 1561 1563 1565 1565 1566 1566 1567 1567 1567 1567 1566 1565 1565 1565 1565 1564 1563 1563 1563 1563 1563 1563 1562 1561 1561 1560 1560 1557 1555 1555 1554 1552 1551 1550 1550 1549 1549 1549 1548 1548 1547 1547 1546 1546 1546 1545 1545 1544 1544 1543 1543 1543 1542 1542 1541 1539 1538 1538 1538 1537 1536 1535 1535 1535 1538 1543 1545 1545 1545 1545 1545 1545 1548 1553 1563 1571 1577 0 0 0 0 0 0 0 0 1995 2020 2021 2021 2021 2021 2019 2016 2012 2010 2008 2007 2006 2006 2004 2003 2003 2002 2001 1999 1998 1997 1995 1995 1993 1992 1990 1989 1987 1986 1983 1981 1980 1978 1976 1974 1972 1971 1969 1966 1965 1963 1961 1958 1957 1955 1953 1952 1950 1949 1948 1947 1946 1944 1942 1941 1939 1938 1937 1936 1936 1936 1935 1935 1934 1934 1934 1933 1932 1931 1930 1930 1929 1928 1927 1927 1927 1927 1927 1926 1926 1926 1927 1927 1927 1927 1927 1927 1927 1927 1927 1928 1928 1928 1929 1929 1929 1929 1930 1930 1931 1931 1931 1931 1931 1931 1931 1931 1931 1931 1930 1930 1930 1929 1929 1929 1929 1929 1929 1929 1929 1929 1928 1928 1928 1928 1928 1928 1928 1928 1929 1929 1929 1930 1930 1930 1930 1931 1932 1933 1933 1934 1934 1934 1934 1934 1935 1935 1935 1935 1935 1934 1934 1934 1934 1934 1935 1935 1935 1936 1937 1938 1939 1940 1941 1941 1942 1943 1945 1947 1949 1951 1953 1954 1957 1960 1963 1965 1966 1969 1971 1972 1975 1977 1979 1981 1983 1985 1988 1991 1991 1993 1997 2001 2003 2003 2005 2005 2003 0 0 0 0 0 0 0 0 0 0 0 0 0 0 0 0 0 0 0 0 0 0 0 0 0 0 0 0 0 0 0 0 0 0 0 0 0 0 0 0 0 0 0 0 0 0 0 0 0 0 0 0 0 0 0 0 0 0 0 0 0 0 0 0 0 0 0 0 0 0 0 0 0 0 0 0 0 0 0 0 0 0 0 0 0 0 0 0 0 0 0 0 0 0 0 0 0 0 0 0 0 0 0 0 0 0 0 0 0 0 0 0 0 0 0 0 0
3089 3089 3116 3136 3139 3146 3166 3195 3221 3255 3273 3279 3279 3284 3284 3286 3288 3291 3295 3295 3299 3301 3309 3315 3318 3322 3325 3329 3337 3340 3345 3352 3356 3365 3370 3372 3377 3377 3378 3378 3378 3381 3384 3392 3399 3405 3411 3420 3425 3428 3433 3441 3447 3452 3457 3463 3472 3480 3488 3492 3493 3495 3496 3496 3497 3498 3498 3499 3499 3499 3475 3464 3217 2776 0 0 0 0 0 0 0 0 1978 1978 1978 1978 1978 1980 1994 2008 2017 2019 2019 2019 2006 1987 1974 1957 1957 1957 1956 1954 1936 1926 1923 1899 1872 1847 1830 1830 1828 1828 1828 1825 1816 1816 1816 1834 1838 1838 1838 1830 1823 1814 1806 1797 1784 1769 1768 1765 1765 1762 1762 1761 1757 1757 1755 1755 1754 1750 1746 1738 1735 1722 1709 1704 1697 1697 1697 1702 1702 1702 1691 1679 1674 1671 1667 1662 1658 1643 1642 1642 1637 1631 1624 1620 1618 1615 1614 1614 1614 1614 1613 1612 1611 1610 1609 1609 1608 1607 1606 1605 1604 1603 1602 1600 1597 1595 1591 1589 1586 1584 1579 1575 1572 1568 1566 1563 1560 1559 1558 1557 1557 1557 1557 1559 1559 1560 1561 1562 1566 1569 1570 1574 1579 1580 1581 1582 1582 1582 1580 1580 1579 1579 1578 1576 1573 1571 1569 1568 1565 1563 1561 1561 1561 1561 1561 1561 1561 1561 1564 1568 1568 1568 1568 1568 1568 1568 1567 1567 1566 1566 1566 1566 1565 1564 1564 1564 1564 1564 1564 1563 1563 1563 1561 1561 1558 1556 1555 1554 1553 1552 1551 1550 1550 1550 1549 1549 1548 1548 1548 1547 1547 1546 1546 1545 1545 1544 1544 1543 1543 1543 1543 1542 1542 1540 1539 1538 1538 1538 1537 1538 1538 1546 1547 1547 1547 1547 1547 1548 1550 1554 1561 1576 1595 0 0 0 0 0 0 0 0 2021 2022 2022 2022 2021 2021 2021 2019 2016 2014 2011 2009 2007 2007 2006 2005 2005 2004 2003 2002 2000 1999 1998 1996 1996 1994 1993 1991 1989 1988 1986 1985 1982 1981 1978 1977 1975 1973 1971 1970 1967 1965 1964 1961 1960 1957 1956 1953 1952 1950 1949 1948 1947 1946 1944 1943 1941 1939 1938 1937 1936 1935 1935 1935 1934 1934 1934 1933 1933 1932 1930 1930 1929 1928 1927 1926 1926 1926 1926 1926 1926 1926 1926 1927 1927 1927 1927 1927 1927 1927 1927 1927 1928 1928 1928 1928 1929 1929 1929 1930 1930 1930 1931 1931 1931 1931 1931 1931 1931 1930 1930 1930 1930 1930 1929 1929 1929 1929 1929 1929 1929 1929 1929 1928 1928 1928 1928 1928 1928 1928 1928 1928 1929 1929 1930 1930 1930 1930 1931 1932 1933 1933 1933 1934 1934 1934 1934 1935 1935 1935 1935 1935 1934 1934 1934 1934 1934 1934 1934 1935 1936 1937 1937 1938 1940 1940 1941 1941 1943 1944 1945 1948 1950 1952 1953 1955 1958 1961 1963 1966 1967 1970 1972 1973 1977 1978 1981 1983 1985 1989 1991 1992 1995 1998 2000 2001 2003 2003 2003 2003 1992 0 0 0 0 0 0 0 0 0 0 0 0 0 0 0 0 0 0 0 0 0 0 0 0 0 0 0 0 0 0 0 0 0 0 0 0 0 0 0 0 0 0 0 0 0 0 0 0 0 0 0 0 0 0 0 0 0 0 0 0 0 0 0 0 0 0 0 0 0 0 0 0 0 0 0 0 0 0 0 0 0 0 0 0 0 0 0 0 0 0 0 0 0 0 0 0 0 0 0 0 0 0 0 0 0 0 0 0 0 0 0 0 0 0 0 0
3096 3096 3125 3139 3144 3146 3167 3199 3233 3268 3279 3281 3284 3284 3282 3282 3286 3286 3290 3292 3296 3300 3309 3313 3318 3320 3325 3329 3337 3340 3345 3352 3356 3365 3373 3375 3378 3380 3380 3381 3382 3382 3384 3392 3399 3404 3411 3419 3423 3428 3433 3441 3447 3454 3458 3465 3475 3485 3490 3493 3493 3495 3496 3496 3496 3497 3497 3497 3497 3497 3486 3479 3363 2992 0 0 0 0 0 0 0 0 1984 1984 1984 1984 1984 1987 2001 2011 2015 2022 2022 2015 2006 1987 1974 1957 1953 1952 1949 1941 1936 1926 1925 1907 1876 1850 1837 1833 1832 1830 1830 1816 1815 1815 1815 1834 1834 1834 1825 1817 1814 1807 1798 1797 1784 1772 1772 1768 1768 1765 1762 1762 1759 1758 1755 1754 1754 1747 1745 1738 1731 1717 1707 1702 1697 1697 1697 1702 1702 1702 1687 1677 1667 1665 1665 1662 1658 1658 1645 1643 1638 1631 1624 1620 1620 1619 1616 1615 1614 1614 1614 1613 1611 1611 1610 1609 1608 1608 1607 1606 1605 1604 1602 1600 1598 1597 1593 1591 1588 1586 1581 1576 1572 1569 1566 1563 1561 1560 1558 1558 1558 1559 1559 1560 1561 1561 1562 1565 1568 1570 1575 1578 1581 1582 1583 1583 1583 1583 1583 1583 1581 1580 1579 1576 1574 1573 1571 1569 1567 1566 1564 1564 1564 1564 1563 1563 1563 1563 1566 1569 1569 1569 1568 1568 1568 1568 1568 1568 1567 1567 1566 1566 1565 1565 1565 1565 1565 1565 1565 1565 1565 1564 1562 1561 1558 1556 1556 1555 1553 1552 1552 1552 1551 1551 1550 1550 1549 1549 1549 1548 1548 1548 1547 1546 1545 1545 1544 1544 1544 1544 1544 1544 1543 1542 1540 1540 1540 1540 1541 1541 1542 1548 1548 1549 1549 1549 1549 1549 1551 1557 1568 1593 0 0 0 0 0 0 1966 2010 2027 2027 2027 2023 2022 2022 2021 2021 2019 2017 2014 2012 2010 2008 2007 2007 2006 2005 2005 2003 2003 2000 1999 1998 1998 1996 1995 1993 1991 1990 1988 1987 1985 1983 1981 1979 1977 1976 1974 1972 1971 1969 1966 1965 1962 1960 1958 1957 1954 1952 1950 1949 1948 1947 1946 1944 1943 1941 1939 1938 1937 1936 1935 1935 1934 1934 1934 1933 1932 1932 1930 1930 1929 1928 1928 1927 1926 1926 1926 1926 1926 1926 1926 1926 1926 1926 1926 1927 1927 1927 1927 1927 1927 1927 1928 1928 1928 1928 1928 1929 1930 1930 1930 1931 1931 1931 1931 1931 1931 1930 1930 1930 1930 1930 1929 1929 1929 1929 1929 1929 1929 1929 1929 1928 1928 1928 1927 1927 1927 1927 1927 1928 1928 1929 1929 1930 1930 1930 1931 1931 1932 1933 1933 1934 1934 1934 1934 1934 1935 1935 1935 1935 1935 1934 1934 1934 1934 1934 1934 1934 1935 1935 1937 1937 1938 1938 1940 1941 1941 1942 1943 1945 1947 1949 1951 1953 1954 1957 1960 1962 1965 1965 1968 1970 1973 1975 1978 1981 1983 1985 1989 1991 1992 1995 1998 2000 2000 2002 2003 2003 2003 1992 0 0 0 0 0 0 0 0 0 0 0 0 0 0 0 0 0 0 0 0 0 0 0 0 0 0 0 0 0 0 0 0 0 0 0 0 0 0 0 0 0 0 0 0 0 0 0 0 0 0 0 0 0 0 0 0 0 0 0 0 0 0 0 0 0 0 0 0 0 0 0 0 0 0 0 0 0 0 0 0 0 0 0 0 0 0 0 0 0 0 0 0 0 0 0 0 0 0 0 0 0 0 0 0 0 0 0 0 0 0 0 0 0 0 0 0
3124 3124 3125 3139 3144 3146 3167 3210 3238 3268 3279 3282 3282 3282 3281 3281 3281 3286 3290 3291 3294 3300 3309 3313 3316 3316 3320 3328 3337 3340 3345 3352 3356 3365 3373 3375 3380 3383 3383 3383 3383 3383 3384 3389 3397 3404 3411 3418 3423 3426 3433 3439 3447 3454 3459 3470 3482 3494 3495 3495 3497 3497 3498 3498 3498 3497 3497 3497 3497 3497 3492 3482 3451 3149 2595 0 0 0 0 0 0 0 1984 1984 1984 1984 1984 1996 2004 2012 2015 2020 2020 2015 2006 1987 1974 1957 1953 1952 1939 1933 1927 1926 1924 1914 1891 1869 1851 1836 1836 1832 1831 1816 1815 1815 1815 1815 1815 1815 1810 1809 1806 1805 1797 1791 1786 1781 1781 1774 1773 1770 1770 1767 1759 1756 1755 1754 1753 1747 1739 1738 1730 1715 1704 1702 1698 1698 1696 1695 1695 1686 1679 1668 1661 1659 1659 1659 1659 1663 1663 1663 1648 1634 1628 1624 1623 1621 1621 1618 1616 1615 1615 1614 1613 1612 1611 1610 1609 1608 1607 1607 1605 1605 1603 1600 1598 1597 1597 1594 1591 1587 1582 1577 1573 1569 1567 1563 1561 1560 1558 1558 1558 1560 1560 1560 1561 1563 1566 1570 1570 1572 1576 1581 1584 1585 1585 1584 1584 1584 1584 1584 1582 1581 1580 1579 1574 1574 1573 1571 1569 1567 1567 1567 1567 1567 1567 1567 1567 1567 1569 1569 1569 1569 1569 1569 1569 1569 1569 1569 1567 1567 1567 1567 1566 1565 1565 1565 1565 1565 1565 1565 1565 1565 1563 1561 1558 1558 1556 1556 1555 1553 1552 1552 1551 1551 1551 1550 1550 1550 1549 1549 1549 1548 1548 1546 1546 1546 1546 1545 1545 1545 1545 1544 1544 1543 1541 1541 1541 1541 1542 1543 1550 1550 1550 1550 1550 1550 1550 1550 1559 1571 0 0 0 0 0 0 0 0 2029 2030 2030 2029 2028 2023 2023 2022 2022 2021 2019 2017 2014 2012 2011 2010 2009 2008 2007 2006 2006 2005 2003 2002 2001 1999 1998 1997 1995 1994 1992 1991 1989 1987 1986 1984 1982 1980 1977 1976 1975 1973 1971 1969 1967 1965 1962 1961 1959 1957 1955 1952 1950 1949 1948 1947 1946 1944 1943 1941 1939 1938 1937 1936 1935 1934 1934 1934 1933 1932 1930 1930 1930 1929 1928 1927 1926 1925 1925 1925 1925 1926 1926 1926 1926 1926 1926 1926 1926 1926 1926 1927 1927 1927 1927 1927 1927 1928 1928 1928 1928 1929 1929 1929 1930 1930 1930 1930 1930 1930 1930 1930 1930 1930 1929 1929 1929 1929 1929 1929 1929 1929 1929 1928 1928 1928 1928 1927 1927 1927 1927 1927 1927 1927 1928 1928 1929 1929 1930 1930 1931 1931 1931 1933 1933 1934 1934 1934 1934 1934 1935 1935 1935 1935 1935 1934 1934 1934 1934 1934 1934 1934 1934 1935 1936 1937 1937 1938 1940 1940 1941 1942 1943 1945 1946 1948 1950 1952 1954 1956 1958 1961 1963 1965 1967 1969 1972 1975 1978 1981 1982 1985 1989 1991 1992 1995 1998 2000 2000 2000 2000 2000 1999 1992 0 0 0 0 0 0 0 0 0 0 0 0 0 0 0 0 0 0 0 0 0 0 0 0 0 0 0 0 0 0 0 0 0 0 0 0 0 0 0 0 0 0 0 0 0 0 0 0 0 0 0 0 0 0 0 0 0 0 0 0 0 0 0 0 0 0 0 0 0 0 0 0 0 0 0 0 0 0 0 0 0 0 0 0 0 0 0 0 0 0 0 0 0 0 0 0 0 0 0 0 0 0 0 0 0 0 0 0 0 0 0 0 0 0 0 0
3158 3158 3158 3160 3162 3163 3187 3221 3238 3268 3279 3280 3280 3280 3280 3280 3280 3284 3289 3290 3294 3301 3309 3313 3314 3314 3320 3324 3331 3340 3344 3351 3355 3364 3373 3375 3380 3386 3386 3386 3384 3384 3384 3389 3397 3404 3411 3418 3423 3426 3433 3438 3447 3455 3462 3474 3490 3495 3495 3495 3498 3498 3501 3501 3501 3498 3498 3498 3499 3499 3499 3483 3481 3255 2772 0 0 0 0 0 0 0 0 2000 2003 2005 2005 2013 2022 2022 2022 2021 2020 2015 2006 1997 1984 1964 1953 1952 1939 1933 1933 1926 1925 1925 1896 1869 1851 1846 1843 1838 1832 1816 1815 1815 1811 1811 1811 1808 1806 1805 1802 1799 1793 1787 1787 1786 1785 1783 1783 1781 1778 1775 1765 1763 1762 1758 1750 1740 1739 1733 1724 1715 1704 1702 1702 1702 1701 1701 1691 1681 1675 1666 1661 1658 1657 1657 1657 1664 1664 1664 1662 1640 1629 1624 1624 1623 1621 1620 1618 1617 1616 1615 1613 1612 1612 1610 1610 1608 1608 1607 1606 1605 1604 1602 1600 1598 1598 1596 1593 1588 1582 1577 1574 1570 1567 1565 1563 1561 1559 1559 1559 1560 1560 1561 1563 1566 1571 1577 1579 1579 1582 1585 1586 1586 1586 1586 1586 1585 1585 1584 1583 1583 1582 1580 1576 1575 1574 1572 1570 1569 1569 1569 1568 1568 1568 1568 1568 1570 1570 1570 1570 1570 1570 1570 1570 1570 1569 1569 1568 1568 1568 1567 1566 1566 1566 1566 1566 1566 1566 1566 1566 1565 1563 1561 1560 1559 1557 1557 1556 1555 1553 1553 1552 1552 1552 1551 1551 1550 1550 1550 1550 1549 1549 1548 1547 1547 1547 1546 1546 1545 1545 1545 1545 1543 1541 1541 1541 1542 1543 1549 1554 1556 1556 1556 1557 1559 1560 1569 1584 1609 0 0 0 0 0 0 2023 2032 2032 2033 2032 2031 2029 2025 2023 2023 2023 2022 2021 2019 2016 2014 2013 2011 2010 2009 2008 2007 2006 2005 2003 2002 2001 2000 1999 1997 1996 1994 1993 1991 1989 1988 1986 1984 1982 1980 1978 1976 1975 1973 1972 1970 1967 1966 1963 1961 1959 1957 1955 1953 1951 1949 1948 1947 1945 1944 1943 1941 1939 1938 1937 1936 1934 1933 1933 1933 1932 1931 1930 1930 1928 1928 1928 1927 1926 1925 1925 1924 1924 1924 1925 1925 1925 1925 1925 1926 1926 1926 1926 1926 1926 1926 1927 1927 1927 1927 1928 1928 1928 1928 1929 1929 1929 1929 1929 1929 1929 1930 1929 1929 1929 1929 1929 1929 1929 1929 1928 1928 1928 1928 1928 1928 1928 1927 1927 1927 1926 1926 1926 1926 1926 1927 1928 1928 1928 1929 1929 1930 1931 1931 1931 1932 1933 1933 1933 1934 1934 1934 1935 1935 1935 1935 1935 1934 1934 1934 1933 1933 1934 1934 1934 1934 1936 1936 1937 1938 1939 1940 1941 1942 1943 1944 1946 1947 1950 1951 1952 1955 1958 1961 1963 1965 1966 1969 1971 1975 1978 1981 1982 1983 1987 1990 1992 1993 1994 1998 1998 1998 1998 1998 1998 1995 1992 0 0 0 0 0 0 0 0 0 0 0 0 0 0 0 0 0 0 0 0 0 0 0 0 0 0 0 0 0 0 0 0 0 0 0 0 0 0 0 0 0 0 0 0 0 0 0 0 0 0 0 0 0 0 0 0 0 0 0 0 0 0 0 0 0 0 0 0 0 0 0 0 0 0 0 0 0 0 0 0 0 0 0 0 0 0 0 0 0 0 0 0 0 0 0 0 0 0 0 0 0 0 0 0 0 0 0 0 0 0 0 0 0 0 0
3168 3168 3184 3190 3193 3196 3208 3223 3238 3250 3265 3279 3279 3279 3280 3280 3280 3282 3287 3290 3294 3301 3309 3313 3313 3314 3320 3323 3329 3335 3344 3346 3347 3357 3368 3375 3380 3386 3386 3386 3387 3387 3387 3389 3397 3407 3411 3416 3419 3425 3428 3436 3447 3455 3465 3479 3490 3495 3495 3495 3498 3498 3501 3501 3501 3501 3501 3502 3505 3505 3505 3496 3488 3316 2848 0 0 0 0 0 0 0 0 2020 2034 2034 2034 2029 2027 2027 2027 2021 2021 2020 2019 2009 1992 1976 1965 1956 1939 1933 1933 1929 1926 1926 1896 1869 1864 1862 1859 1859 1857 1850 1832 1831 1826 1823 1811 1808 1806 1805 1802 1795 1786 1786 1786 1786 1786 1789 1789 1790 1790 1790 1782 1775 1768 1759 1743 1729 1722 1719 1719 1715 1713 1713 1713 1713 1713 1702 1691 1681 1674 1662 1661 1658 1657 1657 1657 1664 1665 1665 1665 1646 1635 1631 1627 1624 1622 1620 1618 1618 1616 1616 1614 1613 1612 1611 1611 1609 1608 1608 1606 1605 1605 1603 1602 1600 1599 1598 1596 1594 1589 1585 1581 1575 1569 1567 1566 1564 1563 1563 1562 1563 1563 1564 1565 1570 1578 1582 1583 1583 1585 1587 1587 1587 1587 1587 1587 1587 1586 1586 1585 1585 1582 1582 1580 1579 1578 1575 1572 1570 1570 1570 1570 1570 1569 1569 1570 1571 1571 1571 1571 1571 1571 1571 1571 1571 1570 1569 1568 1568 1568 1567 1567 1567 1567 1566 1566 1566 1566 1566 1566 1565 1565 1563 1562 1561 1559 1557 1556 1556 1555 1554 1553 1552 1552 1552 1552 1551 1551 1551 1551 1550 1550 1549 1548 1548 1548 1548 1546 1546 1546 1546 1546 1543 1543 1543 1545 1547 1556 1563 1563 1563 1565 1565 1565 1569 1575 1584 1594 0 0 0 0 0 0 2029 2036 2036 2036 2033 2033 2033 2030 2027 2027 2026 2025 2024 2022 2020 2017 2015 2014 2011 2011 2009 2008 2007 2006 2005 2003 2002 2001 2000 1999 1997 1996 1994 1993 1991 1990 1988 1986 1985 1983 1981 1979 1977 1975 1973 1972 1970 1968 1966 1964 1961 1960 1958 1956 1953 1951 1950 1949 1947 1945 1944 1943 1941 1939 1938 1936 1935 1934 1933 1932 1932 1931 1930 1929 1928 1928 1927 1927 1925 1924 1924 1924 1924 1924 1924 1924 1924 1924 1924 1924 1925 1925 1925 1925 1925 1925 1925 1926 1927 1927 1927 1927 1928 1928 1928 1928 1928 1928 1928 1929 1929 1929 1929 1929 1929 1929 1928 1928 1928 1928 1928 1928 1928 1928 1928 1928 1928 1927 1927 1927 1926 1926 1926 1926 1926 1926 1926 1927 1928 1928 1929 1929 1929 1930 1931 1931 1932 1932 1933 1933 1934 1934 1935 1935 1935 1935 1935 1935 1934 1934 1934 1933 1933 1933 1933 1933 1934 1935 1936 1937 1938 1939 1939 1941 1941 1942 1943 1944 1947 1948 1951 1952 1954 1956 1959 1961 1964 1966 1968 1970 1974 1976 1979 1981 1983 1987 1990 1992 1993 1994 1994 1996 1998 1998 1998 2002 1995 1992 0 0 0 0 0 0 0 0 0 0 0 0 0 0 0 0 0 0 0 0 0 0 0 0 0 0 0 0 0 0 0 0 0 0 0 0 0 0 0 0 0 0 0 0 0 0 0 0 0 0 0 0 0 0 0 0 0 0 0 0 0 0 0 0 0 0 0 0 0 0 0 0 0 0 0 0 0 0 0 0 0 0 0 0 0 0 0 0 0 0 0 0 0 0 0 0 0 0 0 0 0 0 0 0 0 0 0 0 0 0 0 0 0 0 0
