3143 3143 3154 3186 3214 3222 3227 3240 3262 3262 3262 3262 3262 3266 3268 3271 3274 3282 3295 3295 3296 3317 3321 3321 3324 3336 3358 3385 3385 3386 3391 3391 3415 3420 3435 3445 3452 3454 3457 3459 3459 3467 3468 3469 3470 3469 3469 3467 3463 3463 3463 3472 3497 3521 3545 3556 3568 3574 3576 3576 3578 3581 3587 3593 3599 3607 3614 3616 3619 3622 3625 3631 3639 3646 3647 3653 3668 3673 3679 3685 3690 3698 3704 3711 3716 3720 3727 3732 3738 3745 3752 3763 3767 3775 3776 3777 3779 3780 3783 3783 3783 3784 3784 3784 3790 3793 3798 3804 3807 3807 3808 3811 3818 3823 3829 3831 3831 3831 3828 3792 3702 3612 3231 2636 0 0 0 0 0 0 0 0 0 0 0 0 0 0 0 0 0 0 0 0 0 0 0 0 0 0 0 0 0 0 0 0 0 0 0 0 0 0 0 0 0 0 0 0 0 0 0 0 0 0 0 0 0 0 0 0 0 0 0 0 0 0 0 0 0 0 0 0 0 0 0 0 0 0 0 0 0 0 0 0 0 0 0 0 0 0 0 0 0 0 0 0 0 0 0 0 0 0 1892 1898 1898 1934 1952 1979 2008 0 0 0 2636 3101 3376 3494 3526 3526 3526 3482 3455 3437 3437 3420 3388 3344 3315 3281 3243 3194 3152 3118 3072 3008 2929 2853 0 0 0 0 0 1635 1626 1620 1614 1614 1614 1614 1614 1613 1612 1612 1611 1611 1611 1610 1610 1610 1610 1609 1608 1608 1607 1606 1604 1602 1600 1598 1597 1597 1597 1596 1595 1594 1594 1594 1594 1594 1594 1593 1593 1592 1592 1592 1594 1594 1595 1595 1595 1595 1595 1595 1595 1595 1595 1595 1595 1595 1595 1594 1594 1592 1592 1591 1590 1589 1588 1586 1584 1583 1582 1582 1577 1575 1574 1573 1572 1572 1571 1570 1570 1570 1571 1571 1572 1572 1572 1572 1573 1573 1573 1573 1573 1574 1575 1575 1576 1576 1576 1576 1577 1577 1577 1577 1577 1577 1577 1577 1576 1576 1575 1575 1574 1573 1572 1571 1569 1568 1565 1562 1559 1557 1556 1555 1554 1553 1553 1553 1552 1551 1551 1551 1551 1551 1552 1552 1552 1552 1554 1557 1559 1560 1560 1561 1561 1562 1562 1562 1563 1563 1563 1563 1562 1562 1562 1562 1562 1562 1561 1560 1560 1560 1559 1558 1556 1554 1552 1549 1545 1543 1543 1541 1540 1538 1536 1535 1533 1531 1531 1530 1530 1530 1530 1530 1530 1530 1531 1532 1535 1537 1541 1543 1545 1546 1547 1548 1549 1549 1549 1549 1549 1549 1548 1548 1548 1548 1548 1547 1546 1546 1546 1544 1543 1541 1539 1537 1537 1537 1530 1528 1527 1523 1517 1514 1513 1509 1506 1506 1506 1506 1506 1507 1507 1507 1508 1509 1511 1515 1518 1522 1526 1527 1527 1528 1531 1532 1533 1534 1534 1534 1534 1533 1533 1533 1534 1534 1534 1534 1533 1533 1533 1533 1533 1533 1533 1533 1533 1533 1532 1531 1530 1530 1529 1529 1527 1527 1526 1525 1525 1524 1524 1524 1523 1523 1523 1523 1523 1524 1529 0 0 0 0 0 0 0 0 0 0 0 0 0 0 0 0 0 0 0 0 0 0 0 0 0 0 0 0 0 0 0 0 0 0 0 0 0 0 0 0 0 0 0 0 0 0 0 0 0 0 0 0 0 0 0 0 0 0 0 0 0 0 0 0 0 0 0 0 0 0 0 0 0 0 0 0 0 0 0 0 0 0 0 0 0 0 0 0 0 0 0
3105 3105 3143 3186 3214 3222 3227 3242 3262 3262 3262 3262 3262 3266 3268 3268 3274 3289 3301 3302 3307 3314 3320 3321 3324 3336 3348 3364 3375 3378 3378 3391 3415 3420 3436 3445 3453 3455 3459 3459 3459 3467 3468 3469 3470 3469 3469 3467 3463 3463 3463 3471 3493 3516 3535 3551 3564 3573 3576 3576 3577 3580 3585 3590 3599 3607 3614 3616 3619 3622 3625 3631 3639 3643 3644 3651 3662 3665 3671 3677 3686 3697 3704 3711 3716 3720 3728 3732 3738 3747 3760 3771 3784 3784 3784 3780 3780 3780 3783 3783 3783 3786 3786 3786 3791 3796 3798 3803 3807 3807 3808 3811 3818 3822 3824 3831 3831 3831 3829 3792 3712 3638 3497 2814 0 0 0 0 0 0 0 0 0 0 0 0 0 0 0 0 0 0 0 0 0 0 0 0 0 0 0 0 0 0 0 0 0 0 0 0 0 0 0 0 0 0 0 0 0 0 0 0 0 0 0 0 0 0 0 0 0 0 0 0 0 0 0 0 0 0 0 0 0 0 0 0 0 0 0 0 0 0 0 0 0 0 0 0 0 0 0 0 0 0 0 0 0 0 0 0 0 0 1892 1897 1905 1936 1952 1975 2007 2049 0 0 2605 3031 3345 3494 3527 3527 3527 3519 3490 3472 3458 3441 3418 3375 3324 3281 3234 3190 3152 3118 3081 3033 2944 2853 0 0 0 0 0 1633 1625 1621 1614 1613 1612 1612 1612 1612 1612 1611 1611 1610 1610 1610 1609 1609 1609 1608 1607 1607 1606 1605 1603 1602 1600 1598 1597 1597 1597 1596 1595 1594 1594 1594 1594 1594 1594 1594 1593 1592 1592 1592 1594 1594 1594 1594 1594 1594 1594 1594 1594 1594 1594 1594 1594 1594 1593 1593 1593 1592 1591 1590 1589 1588 1587 1586 1584 1583 1582 1582 1578 1576 1574 1573 1572 1572 1572 1570 1570 1570 1572 1572 1572 1572 1573 1573 1573 1573 1573 1573 1573 1574 1574 1575 1575 1575 1575 1576 1576 1576 1576 1576 1576 1576 1576 1576 1576 1576 1575 1575 1573 1572 1571 1571 1568 1566 1564 1561 1559 1557 1556 1554 1553 1553 1552 1552 1551 1551 1551 1551 1551 1551 1551 1552 1552 1552 1554 1557 1559 1560 1560 1560 1560 1561 1561 1562 1562 1562 1562 1562 1562 1561 1561 1561 1561 1561 1560 1560 1560 1559 1558 1558 1556 1554 1552 1549 1546 1543 1543 1541 1540 1538 1536 1535 1533 1531 1531 1530 1530 1530 1530 1529 1529 1529 1531 1531 1534 1537 1540 1543 1544 1546 1547 1547 1548 1548 1548 1548 1548 1548 1548 1548 1548 1548 1547 1547 1546 1546 1545 1543 1542 1540 1538 1536 1536 1534 1529 1526 1524 1519 1516 1513 1511 1509 1506 1505 1505 1505 1505 1505 1505 1505 1506 1507 1509 1512 1516 1519 1524 1526 1526 1527 1529 1532 1533 1534 1534 1534 1534 1534 1534 1534 1534 1534 1534 1534 1533 1533 1533 1533 1533 1533 1533 1532 1532 1531 1530 1529 1529 1528 1528 1527 1527 1525 1525 1524 1524 1524 1523 1523 1523 1523 1523 1522 1523 1524 1528 0 0 0 0 0 0 0 0 0 0 0 0 0 0 0 0 0 0 0 0 0 0 0 0 0 0 0 0 0 0 0 0 0 0 0 0 0 0 0 0 0 0 0 0 0 0 0 0 0 0 0 0 0 0 0 0 0 0 0 0 0 0 0 0 0 0 0 0 0 0 0 0 0 0 0 0 0 0 0 0 0 0 0 0 0 0 0 0 0 0 0
3105 3105 3135 3176 3214 3222 3227 3242 3257 3257 3257 3257 3257 3261 3265 3266 3273 3282 3290 3296 3307 3314 3320 3320 3324 3336 3346 3353 3364 3369 3376 3391 3415 3420 3436 3445 3453 3455 3459 3459 3459 3467 3468 3469 3470 3469 3469 3467 3461 3461 3461 3471 3491 3516 3525 3537 3549 3563 3572 3576 3577 3579 3584 3590 3599 3607 3614 3619 3620 3624 3627 3630 3638 3642 3644 3651 3662 3665 3671 3677 3686 3697 3704 3711 3717 3722 3728 3732 3738 3750 3763 3771 3784 3784 3784 3780 3780 3780 3785 3785 3785 3786 3786 3787 3793 3796 3798 3800 3806 3807 3808 3811 3813 3818 3822 3829 3833 3833 3833 3803 3761 3668 3606 3134 0 0 0 0 0 0 0 0 0 0 0 0 0 0 0 0 0 0 0 0 0 0 0 0 0 0 0 0 0 0 0 0 0 0 0 0 0 0 0 0 0 0 0 0 0 0 0 0 0 0 0 0 0 0 0 0 0 0 0 0 0 0 0 0 0 0 0 0 0 0 0 0 0 0 0 0 0 0 0 0 0 0 0 0 0 0 0 0 0 0 0 0 0 0 0 0 0 0 0 1895 1905 1939 1952 1971 2001 2033 0 0 0 2945 3235 3451 3527 3527 3527 3519 3490 3472 3458 3441 3418 3375 3324 3276 3221 3177 3145 3118 3081 3033 2944 2850 0 0 0 0 0 1633 1625 1622 1617 1613 1611 1611 1611 1610 1610 1610 1609 1609 1609 1609 1609 1608 1608 1607 1607 1606 1606 1605 1603 1602 1600 1599 1598 1597 1597 1597 1596 1594 1594 1594 1594 1594 1594 1594 1594 1592 1592 1592 1594 1594 1594 1594 1594 1593 1593 1593 1594 1594 1594 1593 1593 1593 1593 1593 1592 1591 1590 1590 1589 1588 1587 1586 1584 1583 1582 1582 1578 1576 1574 1573 1572 1572 1572 1572 1572 1572 1573 1574 1574 1574 1573 1573 1573 1573 1573 1573 1574 1574 1574 1574 1575 1575 1575 1575 1576 1576 1576 1576 1576 1576 1576 1576 1576 1576 1575 1574 1573 1572 1571 1570 1568 1566 1564 1561 1559 1557 1556 1554 1553 1553 1552 1552 1550 1550 1550 1550 1551 1551 1551 1551 1552 1553 1554 1556 1558 1559 1560 1560 1560 1560 1561 1561 1561 1561 1561 1561 1561 1561 1561 1560 1560 1560 1559 1559 1559 1558 1558 1557 1556 1554 1552 1549 1546 1543 1543 1541 1540 1539 1537 1535 1533 1531 1531 1531 1530 1530 1530 1529 1529 1529 1530 1531 1534 1537 1539 1541 1543 1545 1546 1547 1547 1548 1548 1548 1548 1548 1548 1548 1548 1548 1547 1547 1546 1545 1544 1543 1542 1540 1538 1536 1536 1534 1529 1526 1523 1518 1514 1511 1510 1507 1506 1505 1504 1504 1504 1504 1505 1505 1506 1507 1508 1511 1514 1518 1522 1524 1526 1527 1529 1531 1532 1533 1533 1534 1534 1534 1534 1534 1534 1534 1534 1534 1533 1533 1533 1533 1533 1532 1532 1532 1531 1530 1529 1529 1528 1528 1527 1526 1525 1525 1524 1524 1524 1523 1523 1523 1522 1522 1522 1522 1523 1524 1528 0 0 0 0 0 0 0 0 0 0 0 0 0 0 0 0 0 0 0 0 0 0 0 0 0 0 0 0 0 0 0 0 0 0 0 0 0 0 0 0 0 0 0 0 0 0 0 0 0 0 0 0 0 0 0 0 0 0 0 0 0 0 0 0 0 0 0 0 0 0 0 0 0 0 0 0 0 0 0 0 0 0 0 0 0 0 0 0 0 0 0
3105 3105 3135 3163 3190 3216 3218 3242 3257 3257 3260 3267 3267 3267 3268 3273 3273 3282 3296 3299 3307 3314 3319 3320 3325 3334 3345 3350 3361 3367 3372 3390 3412 3417 3435 3444 3452 3459 3459 3459 3454 3454 3454 3455 3460 3462 3462 3462 3461 3461 3461 3469 3483 3502 3510 3518 3540 3560 3569 3576 3577 3578 3580 3590 3601 3610 3614 3619 3620 3624 3627 3629 3637 3638 3643 3651 3659 3665 3671 3677 3686 3697 3710 3717 3719 3722 3727 3731 3737 3750 3763 3771 3784 3784 3784 3784 3784 3784 3786 3786 3786 3786 3786 3787 3793 3796 3797 3798 3801 3806 3808 3811 3813 3818 3821 3826 3834 3834 3834 3819 3785 3694 3624 3169 0 0 0 0 0 0 0 0 0 0 0 0 0 0 0 0 0 0 0 0 0 0 0 0 0 0 0 0 0 0 0 0 0 0 0 0 0 0 0 0 0 0 0 0 0 0 0 0 0 0 0 0 0 0 0 0 0 0 0 0 0 0 0 0 0 0 0 0 0 0 0 0 0 0 0 0 0 0 0 0 0 0 0 0 0 0 0 0 0 0 0 0 0 0 0 0 0 0 0 1888 1908 1928 1952 1966 1979 2011 0 0 0 2783 3168 3398 3503 3519 3519 3519 3490 3472 3458 3441 3418 3375 3324 3272 3215 3168 3138 3109 3081 3033 2944 2811 0 0 0 0 0 1629 1624 1622 1617 1614 1611 1610 1610 1610 1610 1609 1609 1609 1609 1608 1608 1607 1607 1606 1606 1605 1605 1603 1602 1602 1600 1599 1598 1598 1598 1597 1596 1595 1595 1595 1595 1595 1595 1595 1594 1594 1594 1594 1594 1594 1594 1594 1593 1593 1593 1593 1593 1593 1592 1592 1592 1592 1592 1591 1591 1591 1590 1589 1588 1587 1586 1586 1586 1585 1583 1581 1580 1577 1574 1573 1573 1572 1572 1572 1573 1573 1573 1574 1574 1574 1574 1573 1573 1573 1573 1573 1574 1574 1574 1574 1574 1574 1575 1575 1575 1575 1575 1575 1575 1575 1575 1575 1575 1575 1574 1573 1573 1572 1571 1569 1568 1566 1564 1562 1560 1558 1556 1554 1553 1553 1552 1552 1550 1550 1550 1550 1550 1550 1551 1551 1553 1553 1554 1555 1557 1559 1559 1560 1560 1560 1561 1561 1561 1561 1561 1560 1560 1560 1560 1560 1559 1559 1559 1558 1558 1558 1556 1556 1555 1553 1551 1549 1546 1545 1543 1541 1541 1540 1538 1536 1534 1532 1532 1531 1531 1530 1530 1529 1529 1529 1530 1531 1533 1537 1538 1541 1542 1544 1545 1546 1546 1547 1547 1547 1547 1547 1547 1547 1547 1546 1546 1545 1545 1544 1543 1542 1541 1539 1537 1536 1535 1532 1529 1525 1522 1517 1513 1509 1507 1506 1505 1504 1504 1504 1504 1504 1505 1505 1506 1507 1508 1510 1513 1517 1520 1524 1526 1527 1529 1530 1531 1533 1533 1533 1533 1534 1534 1534 1534 1534 1534 1534 1533 1533 1533 1533 1532 1532 1531 1531 1529 1529 1529 1528 1527 1526 1526 1525 1525 1524 1524 1523 1523 1523 1523 1522 1521 1521 1521 1520 1524 1524 1528 0 0 0 0 0 0 0 0 0 0 0 0 0 0 0 0 0 0 0 0 0 0 0 0 0 0 0 0 0 0 0 0 0 0 0 0 0 0 0 0 0 0 0 0 0 0 0 0 0 0 0 0 0 0 0 0 0 0 0 0 0 0 0 0 0 0 0 0 0 0 0 0 0 0 0 0 0 0 0 0 0 0 0 0 0 0 0 0 0 0 0
3102 3102 3129 3159 3176 3192 3196 3216 3254 3254 3256 3256 3256 3261 3265 3266 3269 3282 3290 3295 3296 3299 3304 3314 3325 3334 3342 3344 3353 3365 3372 3384 3406 3411 3431 3444 3450 3460 3460 3460 3440 3437 3436 3436 3436 3436 3436 3432 3423 3423 3423 3423 3425 3434 3474 3510 3535 3558 3561 3564 3568 3568 3578 3590 3601 3610 3614 3619 3620 3624 3627 3629 3632 3636 3640 3651 3656 3665 3671 3677 3685 3697 3710 3717 3719 3722 3725 3726 3735 3750 3763 3768 3772 3774 3775 3779 3780 3784 3786 3786 3786 3786 3786 3788 3793 3796 3797 3798 3801 3806 3808 3811 3813 3818 3820 3821 3826 3831 3831 3831 3801 3713 3624 3215 0 0 0 0 0 0 0 0 0 0 0 0 0 0 0 0 0 0 0 0 0 0 0 0 0 0 0 0 0 0 0 0 0 0 0 0 0 0 0 0 0 0 0 0 0 0 0 0 0 0 0 0 0 0 0 0 0 0 0 0 0 0 0 0 0 0 0 0 0 0 0 0 0 0 0 0 0 0 0 0 0 0 0 0 0 0 0 0 0 0 0 0 0 0 0 0 0 0 0 1888 1916 1928 1946 1949 1952 1964 0 0 0 2653 3006 3332 3463 3495 3495 3495 3481 3450 3419 3400 3381 3353 3323 3272 3215 3167 3135 3098 3072 3022 2928 2775 0 0 0 0 0 1628 1622 1620 1617 1614 1611 1610 1610 1610 1610 1609 1609 1608 1607 1607 1607 1606 1606 1606 1606 1605 1604 1603 1602 1601 1600 1599 1598 1598 1598 1597 1596 1595 1595 1595 1595 1595 1595 1595 1594 1594 1594 1594 1594 1594 1594 1594 1593 1593 1592 1592 1591 1591 1591 1591 1591 1591 1590 1590 1590 1590 1589 1588 1588 1587 1586 1586 1586 1585 1583 1581 1580 1578 1577 1575 1575 1575 1575 1575 1575 1575 1575 1575 1575 1574 1574 1573 1573 1573 1573 1573 1573 1573 1573 1573 1573 1574 1574 1574 1574 1574 1574 1574 1573 1573 1574 1574 1573 1573 1573 1572 1572 1571 1570 1569 1567 1566 1564 1562 1560 1559 1556 1556 1554 1553 1552 1551 1550 1550 1550 1550 1550 1550 1551 1552 1553 1553 1554 1554 1556 1558 1559 1559 1560 1560 1560 1560 1560 1560 1560 1560 1560 1559 1559 1559 1559 1559 1558 1558 1557 1556 1556 1555 1554 1552 1551 1549 1546 1545 1544 1542 1542 1541 1539 1537 1535 1534 1533 1533 1532 1532 1531 1531 1530 1530 1530 1531 1533 1536 1538 1540 1541 1542 1545 1545 1546 1546 1546 1547 1547 1547 1546 1546 1546 1546 1545 1545 1544 1543 1542 1541 1540 1539 1537 1535 1533 1531 1527 1524 1520 1516 1511 1508 1506 1505 1504 1504 1504 1504 1504 1505 1505 1506 1506 1507 1508 1510 1512 1515 1520 1524 1525 1527 1529 1529 1531 1532 1533 1533 1533 1533 1533 1534 1534 1534 1534 1534 1533 1533 1533 1532 1532 1531 1531 1530 1529 1529 1528 1528 1527 1526 1526 1525 1524 1523 1523 1522 1522 1522 1522 1522 1521 1521 1521 1520 1524 1524 1529 1549 0 0 0 0 0 0 0 0 0 0 0 0 0 0 0 0 0 0 0 0 0 0 0 0 0 0 0 0 0 0 0 0 0 0 0 0 0 0 0 0 0 0 0 0 0 0 0 0 0 0 0 0 0 0 0 0 0 0 0 0 0 0 0 0 0 0 0 0 0 0 0 0 0 0 0 0 0 0 0 0 0 0 0 0 0 0 0 0 0 0
3102 3102 3129 3142 3146 3150 3150 3174 3219 3236 3242 3242 3252 3255 3256 3261 3261 3275 3277 3281 3281 3288 3299 3314 3325 3325 3325 3334 3338 3353 3369 3370 3398 3403 3426 3441 3450 3460 3460 3460 3427 3419 3419 3416 3416 3408 3379 3379 3379 3394 3423 3423 3423 3425 3417 3417 3424 3431 3431 3460 3499 3537 3565 3586 3601 3606 3607 3608 3607 3607 3611 3612 3623 3630 3636 3646 3656 3665 3671 3677 3685 3697 3710 3716 3716 3718 3718 3721 3731 3747 3751 3751 3755 3758 3764 3773 3780 3784 3786 3786 3787 3787 3790 3792 3794 3796 3797 3798 3801 3805 3809 3814 3819 3819 3819 3820 3820 3829 3829 3829 3819 3728 3638 3225 2474 0 0 0 0 0 0 0 0 0 0 0 0 0 0 0 0 0 0 0 0 0 0 0 0 0 0 0 0 0 0 0 0 0 0 0 0 0 0 0 0 0 0 0 0 0 0 0 0 0 0 0 0 0 0 0 0 0 0 0 0 0 0 0 0 0 0 0 0 0 0 0 0 0 0 0 0 0 0 0 0 0 0 0 0 0 0 0 0 0 0 0 0 0 0 0 0 0 0 1889 1916 1916 1916 1926 1926 1926 1954 0 0 2590 2922 3206 3433 3480 3480 3480 3461 3429 3392 3366 3344 3329 3309 3264 3205 3167 3135 3095 3053 2988 2891 2747 0 0 0 0 1651 1626 1618 1617 1616 1613 1611 1610 1610 1609 1608 1608 1607 1607 1607 1606 1606 1606 1606 1605 1604 1604 1603 1601 1601 1601 1600 1599 1598 1598 1598 1597 1596 1595 1595 1595 1595 1595 1595 1595 1594 1594 1594 1594 1594 1594 1593 1593 1593 1592 1591 1591 1591 1590 1590 1590 1589 1589 1589 1589 1589 1589 1589 1588 1587 1587 1586 1586 1586 1585 1583 1580 1580 1578 1577 1577 1577 1576 1576 1576 1576 1576 1576 1575 1575 1575 1574 1573 1573 1573 1573 1573 1573 1573 1573 1573 1573 1573 1573 1573 1573 1573 1573 1573 1572 1572 1572 1572 1572 1572 1572 1572 1570 1570 1569 1569 1567 1565 1564 1562 1560 1559 1557 1556 1555 1553 1552 1551 1550 1550 1550 1550 1550 1551 1551 1552 1553 1553 1554 1554 1556 1558 1559 1559 1559 1559 1559 1560 1560 1559 1559 1559 1559 1558 1558 1558 1558 1558 1558 1557 1556 1556 1555 1555 1554 1552 1551 1550 1546 1546 1545 1543 1542 1541 1541 1539 1536 1535 1534 1534 1533 1532 1532 1532 1531 1531 1531 1531 1533 1535 1538 1540 1541 1542 1544 1544 1545 1545 1545 1546 1546 1546 1546 1546 1545 1545 1544 1544 1544 1543 1542 1541 1540 1539 1537 1535 1533 1529 1527 1523 1516 1512 1509 1507 1505 1505 1505 1505 1505 1505 1505 1505 1505 1506 1507 1507 1508 1510 1512 1514 1520 1524 1525 1527 1529 1529 1531 1531 1532 1533 1533 1533 1533 1533 1533 1533 1533 1533 1533 1533 1532 1532 1531 1531 1531 1530 1529 1528 1527 1527 1526 1526 1525 1525 1523 1523 1523 1522 1522 1522 1522 1521 1521 1521 1521 1520 1523 1524 1528 1548 0 0 0 0 0 0 0 0 0 0 0 0 0 0 0 0 0 0 0 0 0 0 0 0 0 0 0 0 0 0 0 0 0 0 0 0 0 0 0 0 0 0 0 0 0 0 0 0 0 0 0 0 0 0 0 0 0 0 0 0 0 0 0 0 0 0 0 0 0 0 0 0 0 0 0 0 0 0 0 0 0 0 0 0 0 0 0 0 0 0
3021 3021 3021 3021 2941 2941 2941 2979 2979 3002 3002 2983 2983 3002 3069 3107 3109 3115 3129 3133 3149 3155 3178 3181 3195 3222 3253 3259 3306 3335 3335 3353 3357 3388 3392 3410 3427 3453 3453 3453 3426 3417 3399 3399 3399 3399 3290 3290 3290 3394 3407 3409 3409 3409 3409 3409 3404 3392 3392 3392 3421 3467 3468 3508 3553 3589 3589 3589 3588 3588 3588 3597 3608 3619 3623 3635 3647 3659 3667 3672 3680 3694 3703 3703 3704 3707 3707 3714 3721 3729 3733 3736 3737 3741 3745 3751 3763 3776 3781 3785 3785 3788 3792 3794 3795 3796 3797 3798 3801 3805 3809 3814 3819 3819 3819 3819 3819 3820 3833 3833 3833 3738 3641 3282 2665 0 0 0 0 0 0 0 0 0 0 0 0 0 0 0 0 0 0 0 0 0 0 0 0 0 0 0 0 0 0 0 0 0 0 0 0 0 0 0 0 0 0 0 0 0 0 0 0 0 0 0 0 0 0 0 0 0 0 0 0 0 0 0 0 0 0 0 0 0 0 0 0 0 0 0 0 0 0 0 0 0 0 0 0 0 0 0 0 0 0 0 0 0 0 0 0 0 0 1889 1908 1908 1908 1888 1888 1888 1893 0 0 0 2809 3150 3392 3453 3453 3453 3442 3407 3370 3334 3314 3296 3273 3243 3205 3167 3135 3090 3031 2948 2856 2717 0 0 0 0 1651 1622 1614 1613 1613 1613 1611 1610 1610 1609 1608 1607 1607 1606 1606 1606 1606 1605 1605 1604 1604 1604 1603 1601 1600 1600 1600 1599 1598 1598 1597 1597 1596 1595 1595 1595 1595 1595 1595 1594 1594 1594 1594 1593 1592 1592 1592 1592 1592 1592 1591 1590 1590 1590 1589 1589 1588 1588 1588 1587 1587 1588 1587 1587 1587 1586 1586 1586 1585 1584 1582 1578 1578 1578 1577 1577 1577 1577 1577 1577 1577 1577 1577 1576 1575 1575 1574 1574 1574 1573 1573 1573 1572 1572 1572 1572 1572 1572 1572 1572 1572 1572 1572 1572 1572 1571 1571 1571 1571 1571 1571 1571 1570 1569 1568 1567 1566 1565 1564 1562 1560 1559 1558 1556 1555 1554 1553 1551 1550 1550 1550 1550 1551 1551 1551 1552 1553 1553 1554 1554 1555 1557 1557 1558 1558 1558 1558 1558 1558 1558 1558 1558 1558 1557 1557 1557 1557 1557 1557 1556 1556 1555 1555 1554 1554 1552 1551 1550 1546 1545 1545 1543 1542 1542 1541 1539 1538 1537 1535 1534 1533 1532 1532 1532 1532 1531 1531 1531 1532 1535 1537 1539 1541 1541 1543 1544 1544 1544 1545 1545 1545 1545 1545 1545 1545 1544 1544 1543 1542 1542 1542 1541 1540 1539 1537 1534 1532 1529 1527 1521 1514 1510 1508 1506 1505 1504 1504 1504 1505 1505 1505 1506 1506 1507 1507 1508 1508 1510 1512 1514 1521 1524 1525 1526 1527 1529 1530 1531 1531 1532 1532 1532 1532 1532 1532 1532 1533 1533 1533 1532 1531 1531 1531 1530 1530 1530 1528 1528 1527 1526 1526 1525 1524 1524 1523 1523 1522 1522 1522 1521 1521 1521 1521 1521 1521 1520 1523 1523 1528 1548 0 0 0 0 1950 1950 1950 0 0 0 0 0 0 0 0 0 0 0 0 0 0 0 0 0 0 0 0 0 0 0 0 0 0 0 0 0 0 0 0 0 0 0 0 0 0 0 0 0 0 0 0 0 0 0 0 0 0 0 0 0 0 0 0 0 0 0 0 0 0 0 0 0 0 0 0 0 0 0 0 0 0 0 0 0 0 0 0 0 0 0
2607 2607 2597 2597 2588 2588 2594 2594 2688 2708 2721 2721 2731 2773 2832 2899 2966 3014 3048 3050 3070 3070 3074 3093 3093 3096 3096 3167 3172 3230 3282 3303 3305 3306 3306 3370 3370 3370 3363 3363 3363 3363 3363 3198 3198 3198 3229 3247 3263 3303 3306 3353 3354 3374 3393 3393 3393 3341 3322 3287 3287 3287 3321 3453 3465 3540 3572 3573 3576 3577 3577 3589 3596 3600 3604 3617 3635 3649 3659 3663 3667 3675 3679 3680 3686 3693 3699 3704 3714 3725 3732 3734 3735 3737 3737 3739 3747 3761 3771 3779 3784 3788 3793 3794 3796 3796 3797 3798 3801 3805 3809 3814 3817 3817 3817 3817 3817 3817 3836 3836 3836 3795 3667 3412 2758 0 0 0 0 0 0 0 0 0 2401 2401 2401 2354 0 0 0 0 0 0 0 0 0 0 0 0 0 0 0 0 0 0 0 0 0 0 0 0 0 0 0 0 0 0 0 0 0 0 0 0 0 0 0 0 0 0 0 0 0 0 0 0 0 0 0 0 0 0 0 0 0 0 0 0 0 0 0 0 0 0 0 0 0 0 0 0 0 0 0 0 0 0 0 0 0 0 0 0 0 1889 1897 1897 1897 1879 1879 1879 1893 0 0 0 2687 3043 3322 3429 3429 3429 3423 3404 3370 3334 3314 3296 3269 3237 3200 3167 3135 3081 3018 2934 2836 2702 0 0 0 0 1640 1620 1612 1611 1611 1610 1610 1610 1608 1608 1607 1606 1606 1606 1605 1605 1605 1604 1604 1603 1603 1603 1602 1601 1600 1600 1599 1599 1598 1597 1597 1597 1596 1595 1595 1595 1595 1595 1595 1594 1593 1593 1593 1592 1592 1591 1591 1591 1591 1590 1590 1590 1589 1589 1589 1588 1588 1587 1586 1586 1586 1586 1586 1586 1586 1586 1585 1584 1583 1582 1580 1578 1577 1577 1577 1577 1577 1577 1577 1577 1577 1577 1577 1576 1575 1574 1574 1574 1574 1573 1572 1572 1572 1571 1572 1571 1571 1571 1571 1571 1571 1571 1571 1570 1570 1570 1570 1570 1570 1569 1569 1569 1569 1568 1567 1566 1565 1565 1564 1562 1559 1559 1558 1556 1556 1554 1553 1552 1550 1549 1549 1549 1550 1551 1551 1552 1552 1553 1553 1554 1554 1556 1556 1556 1556 1557 1557 1557 1557 1557 1557 1557 1557 1557 1557 1557 1557 1557 1556 1556 1555 1555 1554 1554 1552 1552 1551 1550 1546 1545 1545 1544 1542 1542 1541 1539 1538 1537 1536 1535 1533 1533 1533 1532 1532 1532 1532 1533 1533 1535 1536 1538 1539 1541 1542 1543 1543 1544 1544 1544 1544 1544 1544 1544 1544 1543 1542 1542 1542 1541 1541 1539 1538 1537 1536 1534 1531 1529 1527 1521 1514 1510 1506 1504 1504 1504 1504 1505 1505 1505 1505 1506 1506 1507 1508 1508 1510 1511 1512 1514 1521 1524 1525 1526 1527 1529 1530 1530 1531 1531 1532 1532 1532 1532 1532 1531 1531 1531 1531 1531 1531 1530 1530 1530 1529 1529 1528 1528 1527 1526 1526 1525 1524 1524 1523 1522 1522 1522 1521 1521 1521 1521 1520 1520 1520 1520 1520 1521 1525 1541 0 0 0 1939 1952 1952 1952 1950 0 0 0 0 0 0 0 0 0 0 0 0 0 0 0 0 0 0 0 0 0 0 0 0 0 0 0 0 0 0 0 0 0 0 0 0 0 0 0 0 0 0 0 0 0 0 0 0 0 0 0 0 0 0 0 0 0 0 0 0 0 0 0 0 0 0 0 0 0 0 0 0 0 0 0 0 0 0 0 0 0 0
0 0 0 0 0 0 0 0 0 0 0 2583 2617 2659 2716 2783 2841 2898 2951 2988 2988 2988 2982 2982 2982 3013 3066 3128 3149 3149 3149 3149 3124 3124 3124 3126 3158 3185 3200 3205 3208 3205 3200 3191 3191 3191 3228 3246 3254 3303 3306 3353 3354 3374 3374 3374 3355 3339 3295 3261 3261 3250 3250 3265 3391 3459 3550 3569 3575 3575 3577 3581 3582 3585 3592 3603 3622 3639 3653 3657 3657 3660 3667 3673 3673 3682 3690 3696 3705 3719 3732 3732 3734 3734 3734 3736 3741 3753 3765 3769 3779 3787 3793 3795 3796 3796 3797 3797 3801 3804 3809 3814 3814 3814 3812 3812 3812 3817 3829 3829 3829 3813 3683 3539 2964 0 0 0 0 0 0 0 0 2358 2401 2401 2401 2381 2341 2326 2320 0 0 0 0 0 0 0 0 0 0 0 0 0 0 0 0 0 0 0 0 0 0 0 0 0 0 0 0 0 0 0 0 0 0 0 0 0 0 0 0 0 0 0 0 0 0 0 0 0 0 0 0 0 0 0 0 0 0 0 0 0 0 0 0 0 0 0 0 0 0 0 0 0 0 0 0 0 0 0 0 0 0 1847 1872 1879 1879 1879 1879 1879 1893 0 0 0 2506 2951 3217 3372 3401 3401 3401 3399 3370 3334 3314 3279 3263 3232 3198 3167 3135 3071 2998 2913 2817 2661 0 0 0 0 1622 1619 1611 1608 1608 1608 1608 1608 1607 1606 1606 1606 1605 1604 1604 1604 1604 1603 1603 1602 1602 1601 1601 1600 1600 1599 1599 1597 1596 1596 1596 1596 1595 1595 1595 1595 1595 1595 1593 1593 1593 1592 1592 1592 1591 1590 1589 1589 1589 1589 1589 1588 1588 1587 1587 1587 1587 1587 1586 1586 1586 1586 1586 1586 1585 1584 1583 1583 1582 1580 1579 1578 1577 1577 1577 1577 1577 1577 1577 1577 1577 1577 1577 1576 1574 1574 1574 1573 1573 1573 1572 1572 1571 1571 1571 1571 1571 1571 1570 1570 1570 1570 1569 1569 1568 1568 1568 1568 1568 1569 1569 1569 1568 1567 1567 1565 1564 1564 1564 1562 1559 1558 1557 1556 1556 1554 1553 1552 1550 1549 1549 1549 1550 1551 1551 1551 1552 1552 1552 1553 1554 1554 1555 1555 1556 1556 1556 1556 1556 1556 1556 1556 1556 1556 1556 1556 1556 1556 1556 1556 1555 1554 1553 1553 1552 1551 1550 1549 1546 1545 1545 1543 1542 1542 1541 1539 1538 1537 1536 1535 1534 1533 1533 1532 1532 1532 1532 1533 1533 1535 1536 1538 1538 1539 1541 1542 1542 1543 1543 1543 1543 1543 1543 1543 1543 1542 1542 1541 1541 1540 1539 1539 1538 1536 1535 1532 1530 1529 1526 1521 1514 1509 1506 1504 1504 1504 1504 1505 1506 1506 1506 1506 1506 1507 1508 1508 1510 1511 1512 1515 1521 1523 1523 1525 1526 1528 1529 1529 1531 1531 1531 1531 1531 1531 1531 1531 1531 1531 1531 1531 1530 1530 1530 1529 1529 1529 1528 1528 1527 1526 1526 1525 1524 1523 1523 1522 1522 1521 1520 1520 1520 1520 1520 1520 1520 1520 1520 1521 1525 1541 0 0 0 1938 1961 1965 1965 1965 0 0 0 0 0 0 0 0 0 0 0 0 0 0 0 0 0 0 0 0 0 0 0 0 0 0 0 0 0 0 0 0 0 0 0 0 0 0 0 0 0 0 0 0 0 0 0 0 0 0 0 0 0 0 0 0 0 0 0 0 0 0 0 0 0 0 0 0 0 0 0 0 0 0 0 0 0 0 0 0 0 0
0 0 0 0 0 0 0 0 0 0 0 0 0 0 0 2552 2604 2676 2785 2846 2849 2879 2893 2897 2903 2958 3033 3126 3126 3126 3084 3064 3044 3013 3013 3013 3037 3069 3069 3069 3060 3025 3025 3025 3097 3161 3224 3246 3254 3303 3306 3332 3332 3345 3345 3339 3339 3339 3261 3243 3242 3232 3226 3223 3223 3223 3403 3451 3501 3544 3549 3556 3565 3567 3574 3585 3605 3624 3633 3650 3654 3654 3659 3662 3666 3677 3679 3686 3699 3717 3730 3730 3732 3732 3732 3732 3734 3746 3754 3765 3776 3786 3793 3794 3795 3795 3796 3797 3799 3804 3809 3813 3813 3813 3812 3812 3812 3817 3829 3829 3829 3819 3684 3573 3089 2568 0 0 0 0 0 0 0 2358 2412 2412 2412 2381 2345 2335 2333 2315 0 0 0 0 0 0 0 0 0 0 0 0 0 0 0 0 0 0 0 0 0 0 0 0 0 0 0 0 0 0 0 0 0 0 0 0 0 0 0 0 0 0 0 0 0 0 0 0 0 0 0 0 0 0 0 0 0 0 0 0 0 0 0 0 0 0 0 0 0 0 0 0 0 0 0 0 0 0 0 0 0 1804 1863 1879 1879 1879 1879 1879 1919 0 0 0 0 2842 3147 3301 3375 3398 3398 3398 3367 3334 3314 3279 3263 3232 3198 3166 3116 3041 2913 2809 2706 2575 0 0 0 0 1620 1617 1611 1606 1606 1606 1606 1606 1606 1606 1605 1605 1604 1604 1604 1604 1603 1603 1603 1602 1601 1600 1600 1600 1599 1598 1598 1596 1596 1596 1595 1595 1595 1595 1594 1593 1593 1593 1593 1593 1592 1592 1591 1590 1589 1589 1589 1589 1588 1587 1587 1586 1586 1586 1586 1586 1586 1585 1585 1585 1585 1585 1585 1585 1585 1583 1582 1580 1580 1580 1578 1577 1577 1577 1577 1577 1577 1577 1577 1577 1576 1575 1575 1574 1574 1574 1574 1573 1573 1573 1572 1571 1571 1571 1571 1570 1570 1569 1569 1569 1569 1568 1567 1567 1567 1567 1567 1567 1567 1567 1567 1567 1567 1566 1566 1565 1564 1563 1563 1561 1559 1558 1557 1556 1555 1554 1553 1552 1550 1550 1549 1549 1549 1549 1549 1549 1549 1549 1551 1552 1552 1553 1553 1553 1555 1555 1555 1555 1555 1555 1555 1555 1555 1555 1554 1554 1554 1554 1554 1554 1553 1553 1553 1553 1552 1551 1550 1548 1546 1545 1544 1543 1542 1542 1541 1539 1538 1537 1536 1535 1534 1534 1534 1533 1532 1532 1532 1533 1533 1535 1536 1537 1538 1539 1540 1540 1541 1542 1542 1542 1542 1542 1542 1542 1542 1541 1541 1540 1540 1539 1539 1538 1536 1535 1533 1532 1530 1529 1526 1521 1514 1509 1506 1504 1504 1504 1505 1505 1506 1506 1506 1506 1506 1507 1508 1508 1510 1511 1513 1515 1521 1522 1523 1524 1525 1527 1528 1529 1529 1529 1530 1530 1530 1530 1530 1530 1530 1530 1530 1530 1530 1530 1529 1529 1528 1528 1527 1527 1527 1525 1525 1525 1524 1523 1523 1522 1521 1520 1520 1519 1519 1520 1519 1519 1519 1519 1519 1521 1525 1541 0 0 0 0 1965 1972 1972 1972 0 0 0 0 0 0 0 0 0 0 0 0 0 0 0 0 0 0 0 0 0 0 0 0 0 0 0 0 0 0 0 0 0 0 0 0 0 0 0 0 0 0 0 0 0 0 0 0 0 0 0 0 0 0 0 0 0 0 0 0 0 0 0 0 0 0 0 0 0 0 0 0 0 0 0 0 0 0 0 0 0 0
0 0 0 0 0 0 0 0 0 0 0 0 0 0 0 0 0 0 0 2528 2534 2592 2659 2804 2849 2908 2998 3021 3021 3005 3005 2978 2974 2957 2957 2957 2981 2996 2996 2996 2919 2919 2919 2947 3062 3154 3163 3163 3163 3163 3163 3188 3224 3246 3252 3252 3252 3243 3242 3241 3226 3224 3168 3168 3168 3223 3311 3380 3477 3479 3482 3490 3526 3553 3568 3574 3577 3584 3614 3634 3645 3650 3655 3659 3663 3673 3677 3678 3694 3711 3725 3725 3725 3726 3726 3727 3732 3741 3747 3760 3771 3782 3789 3793 3795 3795 3795 3797 3799 3802 3807 3809 3811 3812 3812 3812 3814 3820 3829 3829 3829 3824 3705 3617 3163 2637 0 0 0 0 0 0 0 0 2412 2412 2412 2409 2348 2341 2334 2333 0 0 0 0 0 0 0 0 0 0 0 0 0 0 0 0 0 0 0 0 0 0 0 0 0 0 0 0 0 0 0 0 0 0 0 0 0 0 0 0 0 0 0 0 0 0 0 0 0 0 0 0 0 0 0 0 0 0 0 0 0 0 0 0 0 0 0 0 0 0 0 0 0 0 0 0 0 0 0 0 0 0 1831 1864 1877 1879 1883 1905 1950 0 0 0 0 2694 3019 3259 3375 3392 3392 3392 3367 3334 3314 3270 3205 3115 3045 2980 2905 2805 2682 2595 2542 2432 0 0 0 0 1619 1615 1611 1605 1605 1605 1605 1605 1605 1605 1604 1603 1603 1603 1603 1603 1602 1602 1602 1601 1601 1600 1599 1599 1598 1597 1596 1596 1595 1595 1595 1595 1595 1594 1594 1593 1593 1591 1591 1591 1591 1591 1591 1590 1589 1589 1588 1588 1586 1585 1585 1585 1585 1585 1585 1585 1583 1583 1583 1583 1583 1583 1583 1582 1582 1581 1580 1580 1579 1579 1578 1578 1577 1577 1577 1577 1576 1576 1576 1576 1575 1575 1574 1574 1574 1574 1574 1573 1573 1573 1571 1571 1571 1571 1571 1569 1568 1567 1567 1567 1567 1567 1566 1566 1566 1566 1566 1566 1566 1566 1566 1566 1566 1566 1566 1564 1564 1563 1563 1561 1559 1558 1557 1557 1556 1554 1553 1551 1550 1550 1550 1549 1549 1549 1549 1549 1549 1549 1549 1550 1551 1552 1552 1553 1553 1555 1555 1555 1555 1554 1554 1554 1554 1554 1553 1553 1553 1553 1553 1553 1552 1552 1552 1552 1551 1551 1549 1548 1546 1545 1544 1543 1542 1542 1541 1539 1538 1537 1536 1535 1535 1535 1534 1533 1533 1533 1533 1533 1533 1535 1535 1536 1538 1539 1539 1540 1541 1541 1541 1541 1541 1541 1541 1541 1541 1540 1540 1540 1539 1539 1538 1537 1536 1534 1533 1531 1530 1528 1523 1521 1514 1509 1505 1504 1504 1504 1505 1505 1507 1507 1507 1507 1507 1507 1508 1508 1510 1510 1513 1515 1521 1521 1521 1523 1525 1526 1528 1528 1528 1529 1529 1529 1529 1529 1529 1529 1529 1529 1529 1529 1529 1529 1528 1528 1528 1528 1527 1527 1526 1525 1524 1524 1524 1523 1522 1521 1520 1520 1519 1519 1519 1519 1519 1518 1518 1518 1518 1521 1529 1551 0 0 0 0 1967 1972 1972 1972 1952 0 0 0 0 0 0 0 0 0 0 0 0 0 0 0 0 0 0 0 0 0 0 0 0 0 0 0 0 0 0 0 0 0 0 0 0 0 0 0 0 0 0 0 0 0 0 0 0 0 0 0 0 0 0 0 0 0 0 0 0 0 0 0 0 0 0 0 0 0 0 0 0 0 0 0 0 0 0 0 0 0
0 0 0 0 0 0 0 0 0 0 0 0 0 0 0 0 0 0 0 0 0 0 0 0 0 2641 2746 2841 2920 2920 2920 2870 2836 2836 2836 2843 2902 2906 2906 2906 2880 2880 2880 2946 3051 3154 3160 3160 3160 3156 3149 3149 3149 3166 3166 3166 3147 3147 3143 3142 3142 3140 3140 3140 3154 3223 3311 3366 3411 3452 3457 3477 3505 3509 3509 3505 3509 3511 3531 3580 3616 3623 3627 3630 3630 3637 3640 3653 3675 3693 3710 3711 3712 3717 3723 3725 3732 3738 3747 3760 3770 3776 3785 3789 3791 3792 3794 3795 3797 3800 3803 3806 3809 3812 3815 3818 3826 3826 3829 3830 3830 3830 3768 3645 3370 2862 0 0 0 0 0 0 0 0 2412 2424 2424 2424 2380 2345 2341 2332 0 0 0 0 0 0 0 0 0 0 0 0 0 0 0 0 0 0 0 0 0 0 0 0 0 0 0 0 0 0 0 0 0 0 0 0 0 0 0 0 0 0 0 0 0 0 0 0 0 0 0 0 0 0 0 0 0 0 0 0 0 0 0 0 0 0 0 0 0 0 0 0 0 0 0 0 0 0 0 0 0 0 0 1852 1881 1882 1882 1905 1950 0 0 0 0 2521 2943 3231 3333 3333 3333 3274 3151 3086 3052 3021 3004 2973 2916 2800 2714 2643 2606 2578 2527 2336 0 0 0 0 1615 1608 1608 1604 1604 1604 1604 1604 1604 1604 1603 1603 1602 1602 1602 1601 1601 1600 1600 1600 1600 1599 1598 1598 1597 1597 1596 1595 1595 1595 1594 1594 1594 1593 1593 1592 1592 1591 1590 1590 1590 1589 1589 1588 1587 1587 1586 1586 1586 1584 1584 1584 1584 1584 1584 1583 1582 1582 1582 1582 1582 1582 1581 1581 1581 1581 1580 1579 1579 1579 1578 1577 1577 1577 1577 1577 1576 1576 1576 1576 1575 1575 1574 1574 1574 1573 1573 1572 1572 1572 1571 1569 1569 1569 1569 1569 1566 1565 1565 1564 1564 1564 1564 1564 1564 1564 1564 1564 1564 1564 1564 1564 1564 1564 1564 1564 1563 1563 1562 1560 1560 1559 1557 1557 1556 1554 1553 1551 1550 1550 1550 1550 1550 1549 1549 1549 1549 1548 1548 1548 1551 1551 1551 1552 1552 1553 1553 1553 1553 1553 1552 1552 1552 1551 1551 1551 1551 1551 1551 1551 1551 1551 1551 1551 1550 1550 1548 1547 1546 1545 1544 1543 1542 1541 1541 1539 1538 1537 1536 1535 1535 1535 1535 1534 1533 1533 1533 1533 1533 1533 1534 1536 1538 1538 1538 1539 1539 1539 1539 1540 1540 1540 1540 1539 1539 1538 1538 1538 1537 1537 1537 1535 1535 1533 1532 1531 1530 1528 1522 1520 1517 1510 1506 1506 1505 1505 1506 1506 1507 1507 1507 1506 1505 1505 1505 1505 1506 1509 1512 1515 1519 1521 1521 1522 1524 1526 1526 1527 1527 1527 1527 1527 1527 1527 1527 1528 1528 1528 1528 1528 1528 1528 1528 1528 1527 1527 1526 1526 1525 1525 1524 1523 1523 1522 1522 1521 1520 1520 1518 1518 1518 1518 1518 1518 1518 1518 1518 1521 1529 1551 0 0 0 0 1970 1978 1978 1978 1956 0 0 0 0 0 0 0 0 0 0 0 0 0 0 0 0 0 0 0 0 0 0 0 0 0 0 0 0 0 0 0 0 0 0 0 0 0 0 0 0 0 0 0 0 0 0 0 0 0 0 0 0 0 0 0 0 0 0 0 0 0 0 0 0 0 0 0 0 0 0 0 0 0 0 0 0 0 0 0 0 0
0 0 0 0 0 0 0 0 0 0 0 0 0 0 0 0 0 0 0 0 0 0 0 0 0 0 0 0 0 0 0 0 0 0 2608 2610 2707 2768 2768 2768 2769 2783 2842 2912 3033 3110 3121 3121 3121 3116 3105 3076 3076 3073 3073 3070 3057 3031 2974 2974 2974 3005 3056 3135 3137 3204 3237 3331 3357 3371 3372 3372 3372 3364 3364 3364 3371 3384 3398 3419 3469 3499 3502 3507 3507 3507 3511 3511 3511 3595 3618 3664 3674 3686 3710 3712 3724 3738 3747 3760 3770 3776 3782 3784 3788 3791 3794 3795 3797 3800 3802 3805 3808 3812 3819 3826 3829 3830 3832 3835 3835 3835 3795 3703 3557 3033 0 0 0 0 0 0 0 0 0 2424 2424 2424 2386 2345 2341 2332 0 0 0 0 0 0 0 0 0 0 0 0 0 0 0 0 0 0 0 0 0 0 0 0 0 0 0 0 0 0 0 0 0 0 0 0 0 0 0 0 0 0 0 0 0 0 0 0 0 0 0 0 0 0 0 0 0 0 0 0 0 0 0 0 0 0 0 0 0 0 0 0 0 0 0 0 0 0 0 0 0 0 0 0 1875 1882 1882 1905 1950 0 0 0 0 0 2806 3016 3102 3120 3143 3143 3143 3086 3052 3021 3004 2973 2916 2800 2701 2634 2606 2578 2527 2316 0 0 0 0 1611 1606 1603 1603 1603 1604 1604 1604 1604 1603 1603 1602 1602 1602 1601 1600 1600 1600 1599 1599 1598 1598 1598 1597 1597 1596 1595 1594 1594 1594 1594 1593 1593 1592 1591 1591 1591 1591 1590 1589 1589 1588 1587 1586 1586 1585 1584 1583 1583 1583 1583 1583 1583 1583 1583 1582 1581 1580 1580 1580 1580 1580 1580 1580 1580 1579 1579 1579 1578 1578 1578 1577 1577 1577 1577 1576 1576 1576 1576 1575 1575 1575 1574 1574 1574 1573 1572 1572 1572 1572 1571 1569 1568 1567 1567 1566 1565 1564 1563 1563 1563 1563 1562 1562 1561 1561 1561 1561 1561 1562 1562 1562 1563 1563 1563 1563 1563 1562 1562 1560 1560 1558 1557 1557 1556 1555 1553 1551 1551 1550 1550 1550 1550 1549 1549 1549 1549 1548 1548 1548 1550 1550 1550 1550 1550 1550 1550 1550 1550 1549 1549 1549 1549 1549 1550 1550 1550 1551 1551 1551 1551 1551 1551 1550 1549 1549 1548 1547 1545 1544 1543 1542 1541 1541 1540 1539 1538 1537 1537 1536 1536 1536 1535 1534 1533 1533 1533 1533 1533 1533 1534 1536 1537 1537 1537 1537 1537 1538 1538 1538 1538 1538 1538 1537 1537 1537 1537 1536 1536 1536 1536 1534 1534 1533 1531 1531 1529 1526 1521 1520 1517 1511 1507 1507 1507 1507 1508 1508 1508 1507 1507 1506 1505 1504 1504 1504 1505 1508 1511 1515 1519 1521 1521 1522 1523 1525 1525 1525 1525 1525 1525 1525 1526 1526 1526 1527 1527 1527 1527 1527 1527 1527 1527 1527 1526 1526 1526 1525 1525 1525 1524 1523 1523 1522 1521 1521 1519 1519 1518 1518 1518 1518 1517 1517 1517 1517 1517 1518 1529 1551 0 0 0 0 1971 1978 1978 1978 1958 0 0 0 0 0 0 0 0 0 0 0 0 0 0 0 0 0 0 0 0 0 0 0 0 0 0 0 0 0 0 0 0 0 0 0 0 0 0 0 0 0 0 0 0 0 0 0 0 0 0 0 0 0 0 0 0 0 0 0 0 0 0 0 0 0 0 0 0 0 0 0 0 0 0 0 0 0 0 0 0 0
0 0 0 0 0 0 0 0 0 0 0 0 0 0 0 0 0 0 0 0 0 0 0 0 0 0 0 0 0 0 0 0 0 0 0 0 0 0 2524 2606 2606 2623 2623 2824 2939 3012 3036 3038 3039 3046 3047 3047 3047 2913 2895 2872 2872 2859 2859 2859 2935 2998 3045 3090 3137 3204 3205 3224 3237 3255 3259 3259 3259 3248 3244 3244 3240 3240 3238 3205 3195 3185 3185 3185 3193 3197 3197 3197 3197 3200 3200 3331 3469 3547 3635 3641 3709 3738 3755 3762 3770 3776 3779 3781 3787 3788 3792 3795 3797 3800 3801 3804 3808 3812 3819 3828 3832 3838 3842 3844 3844 3844 3843 3759 3625 3144 2407 0 0 0 0 0 0 0 0 0 0 2424 2392 2356 2333 2327 0 0 0 0 0 0 0 0 0 0 0 0 0 0 0 0 0 0 0 0 0 0 0 0 0 0 0 0 0 0 0 0 0 0 0 0 0 0 0 0 0 0 0 0 0 0 0 0 0 0 0 0 0 0 0 0 0 0 0 0 0 0 0 0 0 0 0 0 0 0 0 0 0 0 0 0 0 0 0 0 0 0 0 0 0 1882 1882 1894 0 0 0 0 0 0 2614 2873 3060 3120 3143 3143 3143 3086 3052 3021 3004 2973 2869 2777 2679 2634 2606 2578 2527 2316 0 0 0 1628 1610 1604 1603 1603 1603 1603 1603 1603 1603 1602 1601 1601 1601 1601 1600 1599 1599 1598 1598 1598 1597 1597 1596 1595 1595 1595 1594 1594 1594 1593 1593 1592 1592 1591 1591 1590 1589 1589 1588 1588 1587 1587 1585 1585 1583 1583 1582 1581 1581 1580 1580 1580 1580 1579 1578 1576 1576 1576 1577 1577 1577 1577 1578 1579 1579 1579 1578 1578 1577 1577 1577 1577 1577 1576 1576 1576 1576 1575 1575 1575 1575 1574 1574 1574 1573 1573 1572 1572 1571 1571 1569 1567 1567 1567 1567 1565 1564 1563 1563 1563 1563 1561 1560 1558 1558 1558 1558 1558 1559 1559 1559 1561 1562 1562 1562 1562 1562 1561 1560 1559 1559 1559 1557 1557 1556 1555 1554 1552 1552 1552 1552 1551 1550 1550 1550 1549 1549 1548 1548 1548 1548 1548 1548 1548 1547 1547 1546 1546 1546 1546 1546 1546 1546 1546 1546 1547 1548 1549 1550 1550 1550 1550 1549 1549 1549 1548 1548 1547 1545 1543 1542 1541 1541 1540 1539 1538 1538 1537 1537 1536 1536 1536 1536 1535 1535 1534 1534 1533 1533 1533 1534 1535 1536 1536 1536 1536 1536 1536 1536 1536 1536 1536 1536 1536 1535 1535 1535 1535 1535 1535 1534 1533 1533 1533 1531 1530 1529 1526 1521 1520 1517 1513 1511 1509 1509 1509 1508 1509 1508 1508 1508 1507 1505 1504 1504 1504 1505 1508 1511 1515 1518 1521 1521 1522 1523 1523 1523 1523 1523 1524 1524 1523 1524 1524 1524 1524 1525 1526 1526 1526 1526 1526 1526 1526 1526 1525 1525 1525 1524 1524 1523 1523 1522 1521 1520 1519 1518 1518 1517 1517 1517 1517 1517 1517 1516 1515 1515 1515 1519 1541 0 0 0 0 1971 1978 1978 1978 1961 1951 0 0 0 0 0 0 0 0 0 0 0 0 0 0 0 0 0 0 0 0 0 0 0 0 0 0 0 0 0 0 0 0 0 0 0 0 0 0 0 0 0 0 0 0 0 0 0 0 0 0 0 0 0 0 0 0 0 0 0 0 0 0 0 0 0 0 0 0 0 0 0 0 0 0 0 0 0 0 0 0
0 0 0 0 0 0 0 0 0 0 0 0 0 0 0 0 0 0 0 0 0 0 0 0 0 0 0 0 0 0 0 0 0 0 0 0 0 0 0 0 0 0 0 0 0 0 2502 2607 2721 2795 2795 2803 2827 2803 2785 0 0 0 2525 2735 2853 2921 3007 3090 3113 3113 3113 3113 3113 3119 3126 3126 3126 3126 3126 3128 3141 3141 3141 3131 3096 3062 3057 3057 3057 3065 3065 3065 3010 3010 3010 3041 3115 3205 3380 3565 3654 3745 3763 3770 3779 3779 3781 3781 3787 3788 3790 3791 3794 3797 3801 3804 3808 3814 3819 3828 3837 3845 3852 3852 3852 3850 3843 3778 3626 3319 2727 0 0 0 0 0 0 0 0 0 0 0 2421 2356 2334 0 0 0 0 0 0 0 0 0 0 0 0 0 0 0 0 0 0 0 0 0 0 0 0 0 0 0 0 0 0 0 0 0 0 0 0 0 0 0 0 0 0 0 0 0 0 0 0 0 0 0 0 0 0 0 0 0 0 0 0 0 0 0 0 0 0 0 0 0 0 0 0 0 0 0 0 0 0 0 0 0 0 0 0 0 0 0 1859 1859 1853 1853 0 0 0 0 0 2843 3056 3120 3143 3145 3149 3149 3149 3136 3110 3036 2869 2731 2679 2643 2610 2593 2568 2316 0 0 0 1627 1610 1602 1602 1602 1602 1602 1602 1602 1601 1601 1601 1600 1600 1600 1599 1598 1598 1598 1597 1596 1596 1595 1595 1595 1594 1594 1593 1593 1593 1592 1592 1591 1591 1591 1590 1589 1588 1588 1587 1587 1586 1585 1584 1583 1583 1582 1581 1581 1580 1580 1578 1578 1576 1574 1574 1574 1574 1574 1574 1575 1575 1576 1576 1577 1577 1577 1577 1577 1577 1577 1576 1576 1576 1576 1576 1576 1575 1575 1575 1574 1574 1574 1573 1573 1573 1573 1572 1571 1570 1570 1568 1567 1567 1567 1566 1564 1563 1562 1562 1560 1558 1557 1557 1557 1557 1558 1558 1558 1558 1558 1559 1560 1562 1562 1562 1562 1560 1560 1559 1559 1559 1559 1557 1557 1556 1555 1554 1553 1553 1552 1552 1551 1550 1550 1550 1550 1549 1549 1548 1548 1546 1546 1546 1545 1544 1544 1544 1543 1543 1542 1542 1542 1542 1543 1543 1545 1546 1547 1548 1548 1548 1548 1548 1548 1548 1548 1547 1546 1545 1543 1542 1541 1540 1540 1539 1538 1538 1538 1538 1537 1538 1538 1537 1537 1537 1536 1535 1534 1534 1534 1534 1535 1535 1535 1535 1535 1535 1535 1535 1535 1535 1535 1535 1535 1534 1534 1533 1533 1533 1533 1532 1532 1532 1532 1531 1530 1529 1526 1521 1520 1518 1514 1514 1512 1512 1512 1510 1509 1509 1509 1508 1508 1506 1504 1504 1504 1505 1508 1511 1515 1518 1521 1521 1522 1522 1522 1522 1522 1522 1522 1521 1521 1521 1522 1522 1523 1523 1524 1525 1525 1525 1525 1525 1525 1525 1525 1525 1524 1524 1523 1523 1522 1521 1521 1520 1519 1518 1517 1517 1517 1516 1516 1516 1516 1516 1515 1515 1515 1517 1531 0 0 0 0 1967 1979 1979 1979 1970 1953 0 0 0 0 0 0 0 0 0 0 0 0 0 0 0 0 0 0 0 0 0 0 0 0 0 0 0 0 0 0 0 0 0 0 0 0 0 0 0 0 0 0 0 0 0 0 0 0 0 0 0 0 0 0 0 0 0 0 0 0 0 0 0 0 0 0 0 0 0 0 0 0 0 0 0 0 0 0 0 0
0 0 0 0 0 0 0 0 0 0 0 0 0 0 0 0 0 0 0 0 0 0 0 0 0 0 0 0 0 0 0 0 0 0 0 0 0 0 0 0 0 0 0 0 0 0 0 0 0 0 0 0 0 0 0 0 0 0 0 0 0 2566 2668 2841 2962 2962 2962 2941 2842 2842 2842 2845 2861 2861 2861 2847 2835 2830 2826 2799 2797 2797 2782 2782 2782 2801 2828 2832 2833 2853 2880 2922 3017 3125 3256 3546 3575 3745 3786 3786 3786 3781 3781 3781 3787 3788 3790 3791 3794 3797 3801 3804 3812 3817 3820 3826 3837 3845 3853 3853 3853 3850 3843 3780 3635 3394 2817 2177 0 0 0 0 0 0 0 0 0 0 0 0 0 0 0 0 0 0 0 0 0 0 0 0 0 0 0 0 0 0 0 0 0 0 0 0 0 0 0 0 0 0 0 0 0 0 0 0 0 0 0 0 0 0 0 0 0 0 0 0 0 0 0 0 0 0 0 0 0 0 0 0 0 0 0 0 0 0 0 0 0 0 0 0 0 0 0 0 0 0 0 0 0 0 0 0 0 0 0 1773 1817 1829 1841 1843 1851 0 0 0 0 2805 2975 3220 3260 3260 3260 3240 3206 3166 3116 3036 2869 2693 2690 2677 2675 2660 2613 2347 0 0 0 1626 1610 1602 1602 1602 1602 1602 1602 1601 1600 1600 1599 1599 1599 1598 1598 1597 1597 1597 1596 1596 1595 1595 1595 1594 1594 1593 1593 1593 1592 1591 1591 1590 1590 1589 1589 1588 1587 1586 1586 1586 1586 1584 1583 1583 1583 1581 1581 1580 1580 1579 1577 1575 1574 1572 1570 1570 1570 1571 1572 1573 1573 1573 1573 1574 1575 1575 1575 1575 1575 1575 1575 1575 1575 1575 1575 1575 1574 1574 1574 1574 1574 1573 1573 1572 1572 1571 1571 1571 1570 1568 1567 1567 1566 1566 1566 1563 1562 1561 1559 1557 1556 1556 1556 1556 1555 1555 1556 1556 1556 1557 1557 1559 1559 1560 1560 1560 1560 1560 1559 1559 1559 1558 1557 1556 1556 1555 1554 1553 1553 1552 1552 1551 1550 1550 1550 1550 1549 1549 1548 1548 1546 1545 1545 1544 1541 1540 1540 1540 1540 1540 1540 1539 1539 1539 1539 1541 1541 1541 1542 1544 1547 1547 1547 1548 1548 1548 1546 1544 1543 1542 1541 1541 1540 1540 1539 1538 1538 1538 1538 1538 1538 1538 1538 1538 1538 1538 1537 1537 1536 1535 1535 1535 1535 1535 1535 1535 1534 1533 1533 1533 1533 1533 1532 1532 1531 1531 1531 1531 1531 1531 1530 1530 1530 1530 1530 1529 1527 1526 1524 1521 1520 1515 1514 1513 1513 1512 1511 1511 1511 1511 1511 1511 1511 1508 1506 1506 1506 1508 1511 1515 1518 1519 1521 1521 1521 1521 1521 1521 1520 1519 1519 1519 1519 1520 1520 1521 1523 1523 1523 1524 1524 1523 1523 1524 1524 1524 1524 1524 1523 1522 1522 1522 1521 1520 1519 1518 1517 1517 1516 1516 1516 1515 1515 1515 1514 1514 1514 1514 1517 1528 0 0 0 0 1966 1978 1979 1979 1979 1974 1963 0 0 0 0 0 0 0 0 0 0 0 0 0 0 0 0 0 0 0 0 0 0 0 0 0 0 0 0 0 0 0 0 0 0 0 0 0 0 0 0 0 0 0 0 0 0 0 0 0 0 0 0 0 0 0 0 0 0 0 0 0 0 0 0 0 0 0 0 0 0 0 0 0 0 0 0 0 0 0
0 0 0 0 0 0 0 0 0 0 0 0 0 0 0 0 0 0 0 0 0 0 0 0 0 0 0 0 0 0 0 0 0 0 0 0 0 0 0 0 0 0 0 0 0 0 0 0 0 0 0 0 0 0 0 0 0 0 0 0 0 0 0 2666 2674 2674 2674 2674 2674 2696 2714 2716 2722 2722 2722 2704 2683 2682 2682 2682 2692 2711 2724 2732 2736 2736 2749 2759 2790 2805 2829 2856 2930 3087 3217 3510 3569 3745 3786 3786 3786 3783 3783 3783 3787 3790 3790 3791 3794 3797 3803 3808 3816 3819 3820 3825 3837 3845 3853 3853 3853 3850 3843 3786 3635 3498 2996 2434 0 0 0 0 0 0 0 0 0 0 0 0 0 0 0 0 0 0 0 0 0 0 0 0 0 0 0 0 0 0 0 0 0 0 0 0 0 0 0 0 0 0 0 0 0 0 0 0 0 0 0 0 0 0 0 0 0 0 0 0 0 0 0 0 0 0 0 0 0 0 0 0 0 0 0 0 0 0 0 0 0 0 0 0 0 0 0 0 0 0 0 0 0 0 0 0 0 0 0 0 1814 1829 1837 1838 1846 0 0 0 0 2745 2975 3220 3290 3290 3290 3250 3209 3171 3116 3036 2780 2745 2745 2745 2745 2745 2615 2361 0 0 0 1625 1609 1602 1602 1602 1602 1602 1601 1600 1599 1599 1598 1598 1598 1597 1597 1597 1596 1596 1596 1595 1595 1594 1593 1593 1593 1592 1591 1591 1591 1591 1590 1589 1589 1588 1588 1588 1587 1586 1585 1584 1584 1583 1582 1582 1582 1581 1580 1580 1579 1577 1576 1574 1573 1570 1567 1567 1567 1569 1570 1571 1572 1572 1572 1572 1573 1573 1575 1575 1575 1575 1574 1574 1574 1574 1574 1574 1574 1574 1573 1573 1572 1572 1572 1572 1571 1571 1570 1570 1569 1568 1567 1566 1566 1566 1566 1563 1562 1560 1559 1557 1556 1556 1555 1555 1555 1554 1554 1554 1556 1556 1556 1556 1557 1558 1558 1559 1559 1559 1559 1559 1558 1557 1557 1556 1556 1555 1554 1553 1553 1552 1552 1551 1550 1549 1549 1549 1549 1549 1548 1548 1545 1545 1544 1542 1539 1538 1537 1536 1536 1535 1535 1535 1535 1537 1539 1539 1539 1540 1540 1541 1541 1543 1544 1544 1544 1544 1544 1543 1543 1542 1541 1540 1540 1540 1540 1539 1539 1539 1539 1539 1539 1539 1539 1538 1538 1538 1537 1537 1536 1535 1535 1534 1534 1534 1534 1534 1532 1532 1531 1531 1528 1527 1527 1527 1527 1529 1529 1529 1530 1529 1529 1529 1529 1529 1529 1528 1526 1525 1525 1522 1521 1521 1519 1517 1516 1514 1514 1514 1515 1517 1518 1518 1517 1516 1514 1513 1513 1513 1513 1516 1518 1518 1520 1520 1520 1520 1520 1520 1518 1518 1518 1518 1518 1519 1520 1520 1521 1523 1523 1523 1522 1522 1522 1522 1523 1523 1522 1522 1522 1522 1522 1520 1520 1519 1519 1517 1516 1515 1514 1514 1514 1514 1514 1513 1513 1513 1513 1513 1517 1528 0 0 0 0 1958 1973 1976 1983 1983 1983 1965 0 0 0 0 0 0 0 0 0 0 0 0 0 0 0 0 0 0 0 0 0 0 0 0 0 0 0 0 0 0 0 0 0 0 0 0 0 0 0 0 0 0 0 0 0 0 0 0 0 0 0 0 0 0 0 0 0 0 0 0 0 0 0 0 0 0 0 0 0 0 0 0 0 0 0 0 0 0 0
0 0 0 0 0 0 0 0 0 0 0 0 0 0 0 0 0 0 0 0 0 0 0 0 0 0 0 0 0 0 0 0 0 0 0 0 0 0 0 0 0 0 0 0 0 0 0 0 0 0 0 0 0 0 0 0 0 0 0 0 0 0 0 0 2616 2645 2645 2653 2670 2670 2686 2689 2689 2689 2688 2676 2664 2664 2664 2681 2692 2711 2711 2711 2711 2711 2721 2750 2778 2803 2809 2830 2889 3064 3214 3510 3553 3729 3786 3786 3786 3783 3783 3783 3787 3790 3793 3793 3795 3797 3803 3808 3816 3819 3819 3823 3827 3840 3852 3852 3852 3850 3842 3786 3685 3593 3220 2599 0 0 0 0 0 0 0 0 0 0 0 0 0 0 0 0 0 0 0 0 0 0 0 0 0 0 0 0 0 0 0 0 0 0 0 0 0 0 0 0 0 0 0 0 0 0 0 0 0 0 0 0 0 0 0 0 0 0 0 0 0 0 0 0 0 0 0 0 0 0 0 0 0 0 0 0 0 0 0 0 0 0 0 0 0 0 0 0 0 0 0 0 0 0 0 0 0 0 0 1750 1814 1829 1837 1838 1839 1852 0 0 0 2634 2975 3220 3327 3327 3327 3260 3219 3175 3116 3033 2779 2779 2779 2768 2768 2768 2650 2370 0 0 0 1625 1607 1602 1601 1601 1601 1600 1600 1598 1598 1598 1598 1597 1597 1596 1596 1596 1595 1595 1595 1595 1594 1593 1593 1592 1592 1591 1591 1590 1590 1590 1589 1589 1588 1588 1587 1586 1585 1585 1584 1583 1583 1582 1582 1581 1581 1580 1580 1579 1577 1576 1574 1574 1573 1570 1567 1567 1567 1567 1569 1570 1571 1572 1572 1572 1572 1573 1574 1574 1574 1574 1574 1574 1574 1574 1573 1573 1573 1573 1573 1572 1572 1572 1571 1570 1570 1570 1570 1569 1569 1568 1567 1566 1566 1566 1564 1562 1560 1558 1557 1556 1555 1554 1554 1554 1554 1554 1554 1554 1554 1555 1555 1556 1556 1556 1556 1557 1557 1558 1558 1558 1558 1557 1556 1556 1556 1555 1554 1553 1553 1552 1551 1551 1550 1549 1549 1548 1548 1548 1548 1546 1544 1544 1544 1541 1538 1536 1536 1534 1532 1532 1532 1532 1532 1534 1536 1536 1536 1537 1537 1540 1540 1541 1542 1542 1543 1543 1543 1543 1542 1541 1541 1540 1540 1540 1540 1540 1540 1540 1540 1540 1539 1539 1539 1539 1538 1538 1538 1537 1536 1535 1534 1534 1532 1532 1531 1530 1528 1527 1527 1526 1526 1525 1524 1524 1524 1525 1525 1525 1525 1525 1525 1525 1525 1525 1525 1526 1526 1525 1524 1523 1523 1522 1522 1522 1519 1517 1517 1517 1518 1519 1519 1519 1519 1519 1518 1516 1515 1515 1515 1517 1517 1517 1517 1517 1517 1518 1518 1518 1516 1515 1515 1515 1517 1517 1518 1518 1518 1518 1519 1519 1519 1519 1520 1520 1520 1520 1520 1521 1521 1521 1521 1519 1518 1518 1517 1517 1516 1515 1513 1513 1513 1513 1513 1512 1512 1512 1512 1512 1516 1528 0 0 0 0 1953 1968 1974 1983 1983 1983 1965 0 0 0 0 0 0 0 0 0 0 0 0 0 0 0 0 0 0 0 0 0 0 0 0 0 0 0 0 0 0 0 0 0 0 0 0 0 0 0 0 0 0 0 0 0 0 0 0 0 0 0 0 0 0 0 0 0 0 0 0 0 0 0 0 0 0 0 0 0 0 0 0 0 0 0 0 0 0 0
0 0 0 0 0 0 0 0 0 0 0 0 0 0 0 0 0 0 0 0 0 0 0 0 0 0 0 0 0 0 0 0 0 0 0 0 0 0 0 0 0 0 0 0 0 0 0 0 0 0 0 0 0 0 0 0 0 0 0 0 0 0 0 0 2589 2645 2645 2653 2670 2670 2686 2689 2689 2689 2688 2676 2664 2664 2664 2681 2692 2711 2711 2711 2711 2711 2712 2740 2764 2789 2804 2827 2879 3039 3211 3510 3553 3691 3786 3786 3786 3780 3780 3780 3785 3790 3793 3794 3795 3797 3803 3808 3816 3819 3819 3822 3827 3836 3847 3850 3850 3850 3837 3780 3685 3603 3321 2718 0 0 0 0 0 0 0 0 0 0 0 0 0 0 0 0 0 0 0 0 0 0 0 0 0 0 0 0 0 0 0 0 0 0 0 0 0 0 0 0 0 0 0 0 0 0 0 0 0 0 0 0 0 0 0 0 0 0 0 0 0 0 0 0 0 0 0 0 0 0 0 0 0 0 0 0 0 0 0 0 0 0 0 0 0 0 0 0 0 0 0 0 0 0 0 0 0 0 0 1782 1814 1830 1830 1837 1838 1840 0 0 0 2542 2891 3189 3340 3340 3340 3262 3230 3184 3113 2975 2838 2838 2838 2838 2838 2768 2650 2370 0 0 0 1614 1605 1603 1601 1600 1599 1599 1598 1597 1597 1597 1597 1596 1596 1595 1595 1594 1594 1594 1594 1593 1593 1593 1592 1592 1591 1590 1590 1590 1589 1589 1588 1587 1587 1587 1586 1586 1585 1584 1584 1583 1583 1581 1581 1581 1579 1578 1577 1577 1575 1575 1573 1573 1572 1570 1567 1567 1567 1567 1569 1570 1571 1571 1571 1572 1572 1572 1573 1573 1573 1574 1574 1574 1573 1573 1573 1573 1573 1572 1572 1572 1571 1571 1571 1570 1570 1569 1569 1568 1568 1567 1566 1566 1566 1565 1563 1560 1558 1556 1555 1555 1554 1554 1553 1553 1553 1553 1553 1553 1553 1553 1554 1555 1555 1555 1556 1556 1556 1557 1557 1557 1557 1557 1556 1556 1555 1555 1554 1553 1553 1552 1551 1550 1550 1549 1548 1548 1548 1548 1547 1546 1544 1544 1541 1540 1538 1536 1535 1533 1532 1530 1530 1530 1531 1531 1533 1534 1535 1535 1536 1539 1540 1541 1541 1541 1542 1543 1543 1543 1542 1541 1541 1540 1540 1540 1540 1540 1540 1540 1540 1540 1540 1540 1540 1539 1539 1538 1538 1537 1536 1535 1534 1532 1532 1530 1529 1528 1526 1523 1521 1521 1521 1522 1522 1522 1521 1521 1521 1520 1520 1519 1519 1520 1520 1520 1522 1523 1524 1524 1524 1523 1523 1523 1523 1522 1521 1520 1520 1520 1520 1520 1520 1519 1519 1519 1518 1517 1516 1516 1516 1516 1516 1516 1516 1516 1515 1514 1514 1514 1514 1511 1511 1511 1511 1512 1513 1513 1514 1514 1514 1514 1514 1514 1514 1516 1516 1517 1518 1518 1518 1519 1519 1518 1517 1517 1516 1515 1515 1513 1512 1512 1511 1511 1511 1510 1510 1510 1510 1510 1516 1528 0 0 0 0 1947 1963 1971 1982 1982 1982 1965 0 0 0 0 0 0 0 0 0 0 0 0 0 0 0 0 0 0 0 0 0 0 0 0 0 0 0 0 0 0 0 0 0 0 0 0 0 0 0 0 0 0 0 0 0 0 0 0 0 0 0 0 0 0 0 0 0 0 0 0 0 0 0 0 0 0 0 0 0 0 0 0 0 0 0 0 0 0 0
0 0 0 0 0 0 0 0 0 0 0 0 0 0 0 0 0 0 0 0 0 0 0 0 0 0 0 0 0 0 0 0 0 0 0 0 0 0 0 0 0 0 0 0 0 0 0 0 0 0 0 0 0 0 0 0 0 0 0 0 0 0 0 0 2589 2645 2645 2653 2670 2670 2686 2689 2689 2689 2688 2676 2664 2664 2664 2718 2726 2749 2749 2749 2712 2712 2712 2740 2764 2787 2800 2826 2873 3005 3174 3401 3522 3673 3768 3778 3778 3778 3776 3776 3776 3786 3793 3793 3793 3792 3792 3792 3802 3812 3819 3820 3823 3834 3843 3843 3843 3841 3832 3780 3685 3603 3321 2811 0 0 0 0 0 0 0 0 0 0 0 0 0 0 0 0 0 0 0 0 0 0 0 0 0 0 0 0 0 0 0 0 0 0 0 0 0 0 0 0 0 0 0 0 0 0 0 0 0 0 0 0 0 0 0 0 0 0 0 0 0 0 0 0 0 0 0 0 0 0 0 0 0 0 0 0 0 0 0 0 0 0 0 0 0 0 0 0 0 0 0 0 0 0 0 0 0 0 0 1850 1857 1857 1857 1840 1840 1840 0 0 0 0 2826 3138 3340 3340 3340 3262 3230 3184 3112 2957 2838 2838 2838 2838 2838 2768 2650 2370 0 0 0 1611 1605 1603 1601 1599 1599 1597 1596 1596 1596 1595 1595 1595 1595 1594 1594 1594 1593 1593 1593 1593 1592 1591 1591 1591 1590 1589 1589 1589 1588 1588 1588 1587 1586 1586 1586 1585 1584 1584 1583 1582 1582 1580 1580 1579 1579 1578 1577 1575 1574 1573 1572 1571 1571 1570 1568 1567 1567 1567 1569 1570 1570 1571 1571 1571 1571 1571 1572 1572 1572 1572 1572 1572 1573 1573 1573 1572 1572 1572 1571 1571 1571 1570 1569 1569 1569 1568 1568 1567 1567 1567 1566 1565 1565 1564 1562 1559 1557 1556 1555 1555 1554 1553 1553 1553 1553 1553 1552 1552 1552 1552 1553 1554 1555 1555 1555 1556 1556 1556 1556 1556 1556 1556 1556 1555 1555 1555 1554 1553 1553 1552 1551 1550 1550 1549 1548 1548 1548 1547 1547 1544 1543 1542 1540 1540 1537 1536 1533 1532 1531 1529 1528 1528 1528 1530 1530 1532 1532 1533 1536 1538 1539 1540 1540 1540 1541 1542 1542 1542 1542 1541 1540 1540 1540 1540 1540 1540 1540 1540 1540 1540 1540 1540 1540 1539 1539 1538 1537 1537 1536 1535 1533 1532 1530 1529 1529 1525 1523 1521 1520 1520 1520 1520 1520 1520 1519 1518 1517 1517 1517 1518 1518 1518 1518 1518 1520 1522 1524 1524 1524 1523 1523 1523 1523 1523 1521 1521 1521 1521 1521 1521 1520 1520 1520 1520 1518 1518 1518 1517 1518 1517 1517 1516 1515 1514 1512 1506 1502 1502 1502 1502 1502 1501 1501 1501 1503 1505 1509 1513 1513 1513 1513 1513 1513 1513 1514 1516 1516 1516 1516 1517 1517 1517 1517 1516 1515 1515 1514 1512 1511 1511 1511 1510 1509 1509 1509 1509 1510 1510 1516 1528 0 0 0 0 1932 1956 1966 1969 1969 1969 0 0 0 0 0 0 0 0 0 0 0 0 0 0 0 0 0 0 0 0 0 0 0 0 0 0 0 0 0 0 0 0 0 0 0 0 0 0 0 0 0 0 0 0 0 0 0 0 0 0 0 0 0 0 0 0 0 0 0 0 0 0 0 0 0 0 0 0 0 0 0 0 0 0 0 0 0 0 0 0
0 0 0 0 0 0 0 0 0 0 0 0 0 0 0 0 0 0 0 0 0 0 0 0 0 0 0 0 0 0 0 0 0 0 0 0 0 0 0 0 0 0 0 0 0 0 0 0 0 2509 2543 2581 2585 2620 2647 2647 2647 2590 2543 2542 2536 2494 2494 2494 2589 2659 2683 2702 2708 2708 2708 2708 2711 2713 2714 2716 2779 2784 2812 2814 2812 2806 2806 2755 2720 2720 2720 2750 2779 2787 2800 2825 2867 2977 3131 3287 3522 3606 3736 3757 3757 3757 3757 3757 3764 3780 3780 3780 3778 3777 3777 3777 3792 3810 3818 3820 3821 3821 3821 3792 3783 3782 3780 3749 3648 3593 3322 2939 0 0 0 0 0 0 0 0 0 0 0 0 0 0 0 0 0 0 0 0 0 0 0 0 0 0 0 0 0 0 0 0 0 0 0 0 0 0 0 0 0 0 0 0 0 0 0 0 0 0 0 0 0 0 0 0 0 0 0 0 0 0 0 0 0 0 0 0 0 0 0 0 0 0 0 0 0 0 0 0 0 0 0 0 0 0 0 0 0 0 0 0 0 0 0 0 0 0 1825 1870 1874 1874 1874 1840 1840 1840 0 0 0 0 2738 3059 3317 3317 3317 3262 3230 3184 3110 2944 2838 2838 2819 2819 2819 2760 2626 2301 0 0 0 1610 1604 1603 1601 1598 1598 1597 1596 1595 1595 1595 1594 1594 1594 1594 1593 1593 1592 1592 1591 1591 1591 1591 1590 1590 1590 1589 1588 1588 1587 1587 1586 1586 1586 1585 1585 1584 1583 1583 1582 1581 1580 1579 1579 1579 1578 1578 1577 1575 1574 1573 1571 1570 1570 1570 1568 1568 1568 1568 1569 1570 1570 1570 1571 1571 1571 1571 1572 1572 1572 1572 1572 1572 1572 1572 1571 1571 1571 1570 1570 1570 1570 1569 1569 1568 1568 1568 1568 1566 1566 1565 1565 1564 1564 1563 1562 1558 1557 1555 1555 1554 1554 1553 1552 1552 1552 1552 1552 1552 1552 1552 1553 1553 1554 1554 1554 1555 1555 1555 1555 1555 1555 1555 1555 1555 1554 1554 1554 1553 1552 1552 1551 1550 1549 1549 1548 1548 1548 1547 1546 1544 1543 1541 1540 1538 1535 1534 1531 1529 1529 1527 1526 1526 1526 1528 1528 1529 1530 1531 1533 1535 1537 1538 1539 1539 1540 1540 1541 1541 1541 1541 1540 1540 1540 1540 1540 1540 1540 1540 1540 1540 1540 1540 1540 1539 1539 1538 1537 1537 1536 1535 1533 1531 1529 1529 1528 1525 1522 1521 1519 1519 1519 1519 1519 1519 1519 1516 1516 1516 1516 1516 1516 1516 1516 1516 1519 1522 1524 1524 1524 1523 1523 1523 1523 1523 1523 1522 1522 1522 1522 1521 1521 1520 1520 1520 1520 1519 1519 1519 1518 1517 1517 1516 1515 1513 1511 1503 1501 1501 1500 1499 1497 1497 1497 1498 1499 1501 1502 1503 1507 1510 1510 1510 1511 1511 1513 1515 1516 1516 1516 1516 1516 1516 1516 1515 1515 1514 1513 1511 1511 1510 1509 1509 1509 1509 1509 1509 1509 1509 1509 1524 0 0 0 0 0 1939 1939 1939 0 0 0 0 0 0 0 0 0 0 0 0 0 0 0 0 0 0 0 0 0 0 0 0 0 0 0 0 0 0 0 0 0 0 0 0 0 0 0 0 0 0 0 0 0 0 0 0 0 0 0 0 0 0 0 0 0 0 0 0 0 0 0 0 0 0 0 0 0 0 0 0 0 0 0 0 0 0 0 0 0 0
0 0 0 0 0 0 0 0 0 0 0 0 0 0 0 0 0 0 0 0 0 0 0 0 0 0 0 0 0 0 0 0 0 0 0 0 0 0 0 0 0 0 0 0 0 0 0 0 2526 2588 2619 2649 2706 2706 2706 2705 2676 2665 2635 2619 2618 2551 2551 2551 2589 2778 2796 2835 2849 2869 2896 2911 2924 2928 2936 2948 2948 2948 2931 2924 2920 2901 2890 2883 2852 2813 2753 2753 2753 2773 2783 2814 2858 2950 3087 3206 3522 3570 3680 3740 3740 3740 3744 3744 3755 3771 3771 3771 3766 3749 3749 3749 3767 3769 3769 3769 3748 3744 3716 3676 3647 3645 3643 3641 3637 3593 3323 2964 0 0 0 0 0 0 0 0 0 0 0 0 0 0 0 0 0 0 0 0 0 0 0 0 0 0 0 0 0 0 0 0 0 0 0 0 0 0 0 0 0 0 0 0 0 0 0 0 0 0 0 0 0 0 0 0 0 0 0 0 0 0 0 0 0 0 0 0 0 0 0 0 0 0 0 0 0 0 0 0 0 0 0 0 0 0 0 0 0 0 0 0 0 0 0 0 0 1825 1826 1878 1893 1893 1893 1883 1883 0 0 0 0 0 2633 2963 3137 3215 3215 3215 3211 3159 2994 2769 2769 2769 2773 2773 2773 2683 2554 2223 0 0 0 1601 1601 1599 1599 1597 1597 1596 1595 1595 1594 1593 1593 1593 1593 1592 1592 1592 1591 1591 1590 1590 1590 1590 1589 1589 1588 1588 1588 1587 1587 1586 1585 1585 1584 1584 1584 1583 1583 1582 1581 1581 1580 1579 1578 1577 1577 1577 1575 1575 1574 1571 1570 1570 1569 1569 1568 1568 1568 1568 1569 1570 1570 1570 1570 1570 1570 1570 1571 1571 1571 1571 1571 1571 1571 1571 1571 1570 1570 1570 1570 1569 1569 1568 1568 1568 1567 1567 1566 1566 1565 1564 1564 1563 1563 1562 1561 1558 1556 1555 1555 1554 1553 1551 1551 1551 1551 1551 1551 1551 1551 1552 1553 1553 1553 1553 1554 1554 1554 1554 1554 1554 1554 1554 1554 1554 1554 1554 1554 1553 1552 1551 1551 1550 1549 1549 1548 1548 1548 1547 1546 1543 1542 1541 1539 1537 1534 1531 1530 1528 1526 1526 1525 1525 1525 1526 1526 1527 1528 1529 1531 1533 1535 1537 1537 1538 1538 1539 1539 1540 1540 1540 1539 1539 1539 1540 1540 1540 1540 1540 1540 1540 1540 1540 1539 1539 1539 1538 1537 1537 1536 1534 1533 1530 1529 1529 1528 1524 1521 1520 1519 1518 1517 1516 1516 1516 1516 1515 1514 1514 1514 1514 1514 1514 1515 1516 1518 1522 1523 1523 1523 1523 1523 1524 1524 1524 1524 1523 1523 1523 1523 1522 1522 1521 1521 1521 1520 1520 1519 1519 1518 1517 1516 1515 1515 1513 1509 1501 1500 1498 1497 1495 1494 1494 1494 1494 1495 1497 1497 1500 1502 1506 1507 1507 1508 1508 1511 1513 1514 1514 1515 1515 1515 1515 1515 1514 1513 1513 1512 1511 1510 1510 1509 1509 1508 1508 1508 1508 1508 1508 1509 1518 0 0 0 0 0 0 0 0 0 0 0 0 0 0 0 0 0 0 0 0 0 0 0 0 0 0 0 0 0 0 0 0 0 0 0 0 0 0 0 0 0 0 0 0 0 0 0 0 0 0 0 0 0 0 0 0 0 0 0 0 0 0 0 0 0 0 0 0 0 0 0 0 0 0 0 0 0 0 0 0 0 0 0 0 0 0 0 0 0 0
0 0 0 0 0 0 0 0 0 0 0 0 0 0 0 0 0 0 0 0 0 0 0 0 0 0 0 0 0 0 0 0 0 0 0 0 0 0 0 0 0 0 0 0 0 0 0 2544 2624 2657 2690 2786 2791 2791 2791 2746 2737 2736 2734 2710 2699 2671 2671 2671 2738 2781 2850 2850 2862 2869 2896 2911 2924 2928 2936 2948 2948 2948 2931 2924 2920 2901 2890 2883 2852 2813 2753 2753 2739 2753 2765 2772 2828 2932 3033 3143 3522 3568 3663 3721 3726 3726 3726 3724 3724 3724 3725 3725 3725 3697 3690 3688 3688 3687 3686 3676 3654 3651 3647 3645 3645 3645 3643 3641 3637 3604 3361 3093 0 0 0 0 0 0 0 0 0 0 0 0 0 0 0 0 0 0 0 0 0 0 0 0 0 0 0 0 0 0 0 0 0 0 0 0 0 0 0 0 0 0 0 0 0 0 0 0 0 0 0 0 0 0 0 0 0 0 0 0 0 0 0 0 0 0 0 0 0 0 0 0 0 0 0 0 0 0 0 0 0 0 0 0 0 0 0 0 0 0 0 0 0 0 0 0 0 1844 1844 1891 1916 1916 1916 0 0 0 0 0 0 0 2515 2787 2924 2988 2988 2988 2970 2932 2807 2596 2596 2596 2634 2634 2634 2602 2409 2122 0 0 0 1601 1598 1598 1598 1597 1597 1595 1595 1594 1593 1593 1592 1592 1592 1592 1591 1591 1591 1590 1590 1589 1589 1588 1588 1588 1588 1587 1587 1586 1586 1585 1584 1584 1584 1583 1583 1582 1582 1581 1580 1580 1578 1578 1577 1576 1575 1574 1574 1573 1572 1570 1569 1569 1568 1568 1568 1568 1568 1568 1568 1569 1569 1569 1569 1569 1569 1569 1570 1570 1570 1570 1570 1570 1570 1570 1570 1569 1569 1569 1569 1568 1568 1568 1568 1567 1566 1566 1565 1565 1564 1564 1564 1561 1561 1561 1561 1557 1556 1555 1554 1553 1552 1551 1551 1551 1551 1551 1551 1551 1551 1552 1552 1552 1552 1552 1552 1553 1554 1554 1554 1554 1554 1553 1554 1554 1553 1553 1553 1553 1552 1551 1551 1550 1549 1549 1548 1547 1547 1546 1545 1543 1542 1540 1539 1536 1533 1530 1528 1526 1524 1523 1523 1523 1523 1524 1524 1525 1528 1529 1530 1531 1534 1535 1536 1537 1537 1538 1539 1539 1539 1539 1539 1539 1539 1540 1540 1540 1540 1540 1540 1539 1539 1539 1539 1538 1537 1537 1537 1536 1535 1534 1532 1530 1529 1528 1528 1523 1521 1519 1518 1517 1515 1514 1514 1514 1514 1514 1513 1513 1513 1513 1514 1514 1515 1516 1517 1520 1523 1523 1523 1523 1523 1524 1524 1524 1524 1524 1524 1523 1523 1523 1522 1522 1522 1521 1521 1520 1520 1520 1519 1517 1515 1514 1513 1511 1505 1501 1498 1496 1495 1494 1492 1491 1491 1491 1491 1493 1495 1498 1499 1500 1502 1504 1505 1507 1508 1512 1514 1514 1514 1514 1514 1514 1514 1513 1513 1512 1511 1510 1509 1509 1508 1508 1507 1507 1506 1504 1504 1504 1504 1518 0 0 0 0 0 0 0 0 0 0 0 0 0 0 0 0 0 0 0 0 0 0 0 0 0 0 0 0 0 0 0 0 0 0 0 0 0 0 0 0 0 0 0 0 0 0 0 0 0 0 0 0 0 0 0 0 0 0 0 0 0 0 0 0 0 0 0 0 0 0 0 0 0 0 0 0 0 0 0 0 0 0 0 0 0 0 0 0 0 0
0 0 0 0 0 0 0 0 0 0 0 0 0 0 0 0 0 0 0 0 0 0 0 0 0 0 0 0 0 0 0 0 0 0 0 0 0 0 0 0 0 0 0 0 0 0 0 2686 2710 2745 2760 2815 2880 2880 2880 2847 2830 2811 2765 2752 2717 2704 2704 2704 2738 2781 2850 2850 2862 2869 2896 2911 2924 2928 2936 2948 2948 2948 2931 2924 2920 2901 2890 2883 2852 2813 2739 2643 2643 2643 2650 2699 2778 2889 2988 3119 3439 3527 3609 3678 3678 3678 3656 3633 3621 3621 3611 3607 3598 3580 3580 3580 3594 3619 3648 3648 3648 3648 3647 3645 3645 3645 3643 3641 3637 3604 3602 3310 2887 0 0 0 0 0 0 0 0 0 0 0 0 0 0 0 0 0 0 0 0 0 0 0 0 0 0 0 0 0 0 0 0 0 0 0 0 0 0 0 0 0 0 0 0 0 0 0 0 0 0 0 0 0 0 0 0 0 0 0 0 0 0 0 0 0 0 0 0 0 0 0 0 0 0 0 0 0 0 0 0 0 0 0 0 0 0 0 0 0 0 0 0 0 0 1926 1909 1908 1908 1908 1966 0 0 0 0 0 0 0 0 0 2515 2734 2840 2882 2882 2882 2836 2775 2625 0 0 0 0 0 0 0 0 0 0 0 1608 1598 1598 1597 1597 1597 1597 1595 1595 1594 1593 1592 1591 1591 1591 1590 1590 1590 1590 1589 1589 1588 1588 1588 1588 1587 1587 1586 1586 1586 1584 1584 1583 1583 1583 1582 1582 1581 1581 1581 1579 1579 1578 1577 1577 1576 1575 1574 1573 1570 1569 1567 1567 1567 1567 1567 1567 1567 1567 1567 1567 1567 1567 1567 1567 1567 1567 1568 1568 1569 1569 1569 1569 1569 1569 1569 1569 1569 1569 1568 1568 1567 1567 1567 1566 1566 1566 1565 1564 1564 1564 1563 1562 1561 1560 1558 1557 1557 1556 1555 1554 1553 1552 1550 1550 1550 1550 1550 1551 1551 1551 1552 1552 1552 1552 1552 1552 1552 1552 1553 1553 1553 1553 1553 1553 1553 1553 1553 1552 1552 1552 1551 1550 1549 1548 1548 1548 1547 1547 1546 1544 1543 1542 1540 1538 1535 1532 1530 1528 1525 1523 1522 1522 1522 1522 1523 1523 1524 1526 1528 1530 1531 1532 1534 1534 1536 1537 1538 1538 1539 1539 1539 1539 1539 1539 1539 1539 1539 1539 1539 1539 1539 1539 1539 1539 1538 1537 1537 1536 1535 1535 1534 1531 1529 1528 1527 1526 1521 1518 1517 1516 1515 1515 1513 1513 1513 1513 1512 1512 1512 1512 1512 1512 1513 1514 1514 1516 1519 1521 1521 1522 1523 1523 1524 1524 1524 1524 1524 1524 1524 1523 1523 1522 1522 1522 1521 1521 1520 1520 1520 1519 1517 1515 1514 1512 1510 1502 1497 1494 1494 1492 1492 1491 1489 1489 1489 1489 1490 1493 1495 1495 1496 1498 1500 1502 1503 1505 1512 1512 1512 1513 1513 1513 1512 1512 1512 1512 1512 1511 1510 1508 1508 1507 1507 1507 1506 1505 1504 1504 1504 1504 1516 0 0 0 0 0 0 0 0 0 0 0 0 0 0 0 0 0 0 0 0 0 0 0 0 0 0 0 0 0 0 0 0 0 0 0 0 0 0 0 0 0 0 0 0 0 0 0 0 0 0 0 0 0 0 0 0 0 0 0 0 0 0 0 0 0 0 0 0 0 0 0 0 0 0 0 0 0 0 0 0 0 0 0 0 0 0 0 0 0 0
0 0 0 0 0 0 0 0 0 0 0 0 0 0 0 0 0 0 0 0 0 0 0 0 0 0 0 0 0 0 0 0 0 0 0 0 0 0 0 0 0 0 0 0 0 0 0 2686 2710 2745 2760 2815 2880 2880 2880 2847 2830 2811 2765 2752 2717 2704 2704 2704 2738 2778 2849 2849 2849 2682 2682 2682 2762 2762 2777 2789 2792 2850 2850 2850 2825 2787 2690 2682 2627 2567 0 0 0 0 0 2639 2776 2879 2961 3085 3341 3445 3574 3577 3579 3585 3590 3590 3590 3585 3585 3580 3580 3580 3580 3580 3594 3617 3648 3648 3648 3648 3648 3651 3657 3661 3661 3661 3647 3621 3620 3366 2899 2534 0 0 0 0 0 0 0 0 0 0 0 0 0 0 0 0 0 0 0 0 0 0 0 0 0 0 0 0 0 0 0 0 0 0 0 0 0 0 0 0 0 0 0 0 0 0 0 0 0 0 0 0 0 0 0 0 0 0 0 0 0 0 0 0 0 0 0 0 0 0 0 0 0 0 0 0 0 0 0 0 0 0 0 0 0 0 0 0 0 0 0 0 1936 1936 1936 1936 1945 1945 0 0 0 0 0 0 0 0 0 0 2515 2734 2840 2840 2840 2829 2784 2732 2588 0 0 0 0 0 0 0 0 0 0 0 1608 1598 1596 1596 1596 1595 1595 1595 1593 1593 1592 1591 1591 1590 1590 1590 1589 1589 1589 1588 1588 1588 1587 1587 1587 1587 1586 1586 1585 1584 1584 1583 1582 1582 1582 1582 1581 1581 1580 1580 1579 1579 1578 1577 1577 1576 1575 1574 1572 1570 1569 1567 1567 1567 1567 1567 1567 1567 1567 1567 1567 1567 1567 1567 1567 1567 1567 1567 1567 1567 1568 1568 1568 1568 1568 1568 1568 1568 1568 1568 1567 1567 1566 1566 1565 1565 1565 1564 1564 1563 1563 1562 1562 1560 1558 1557 1557 1557 1555 1554 1553 1552 1551 1550 1550 1549 1549 1549 1550 1551 1551 1552 1552 1552 1551 1551 1551 1551 1551 1552 1552 1552 1552 1552 1552 1552 1552 1551 1551 1551 1551 1550 1549 1549 1548 1548 1547 1547 1546 1545 1544 1542 1541 1540 1537 1534 1532 1530 1528 1524 1523 1522 1522 1522 1522 1522 1522 1523 1525 1528 1529 1529 1530 1531 1533 1534 1536 1537 1538 1538 1538 1538 1538 1539 1539 1539 1539 1539 1539 1539 1539 1539 1539 1538 1537 1537 1537 1536 1535 1534 1534 1534 1531 1528 1527 1525 1524 1520 1516 1514 1513 1513 1513 1513 1513 1513 1512 1512 1512 1512 1512 1512 1512 1512 1512 1513 1516 1518 1520 1520 1521 1522 1523 1524 1524 1524 1524 1524 1524 1523 1523 1523 1522 1522 1522 1521 1521 1521 1520 1520 1519 1517 1515 1513 1511 1506 1498 1492 1491 1491 1490 1489 1488 1487 1487 1487 1488 1489 1491 1492 1493 1493 1494 1496 1497 1498 1502 1510 1510 1511 1511 1511 1511 1511 1511 1511 1511 1510 1510 1509 1508 1508 1507 1507 1506 1506 1505 1504 1504 1504 1504 1507 1524 0 0 0 0 0 0 0 0 0 0 0 0 0 0 0 0 0 0 0 0 0 0 0 0 0 0 0 0 0 0 0 0 0 0 0 0 0 0 0 0 0 0 0 0 0 0 0 0 0 0 0 0 0 0 0 0 0 0 0 0 0 0 0 0 0 0 0 0 0 0 0 0 0 0 0 0 0 0 0 0 0 0 0 0 0 0 0 0 0
0 0 0 0 0 0 0 0 0 0 0 0 0 0 0 0 0 0 0 0 0 0 0 0 0 0 0 0 0 0 0 0 0 0 0 0 0 0 0 0 0 0 0 0 0 0 0 2686 2710 2745 2760 2815 2880 2880 2880 2847 2830 2811 2765 2752 2717 2704 2634 2582 2582 2582 2588 2592 2594 2594 2594 0 0 0 0 0 0 0 2534 2544 2544 2544 0 0 0 0 0 0 0 0 0 2615 2770 2871 2948 3082 3325 3442 3446 3571 3578 3584 3585 3585 3584 3582 3581 3579 3579 3579 3579 3579 3594 3608 3625 3639 3648 3651 3658 3661 3661 3661 3661 3661 3660 3626 3620 3383 2948 2625 0 0 0 0 0 0 0 0 0 0 0 0 0 0 0 0 0 0 0 0 0 0 0 0 0 0 0 0 0 0 0 0 0 0 0 0 0 0 0 0 0 0 0 0 0 0 0 0 0 0 0 0 0 0 0 0 0 0 0 0 0 0 0 0 0 0 0 0 0 0 0 0 0 0 0 0 0 0 0 0 0 0 0 0 0 0 0 0 0 0 0 1908 1926 1930 1936 1940 1951 1961 0 0 0 0 0 0 0 0 2745 2745 2784 2840 2840 2840 2840 2807 2758 2706 2553 0 0 0 0 0 0 0 0 0 0 1630 1602 1597 1596 1596 1596 1595 1595 1595 1593 1593 1591 1591 1590 1589 1589 1589 1588 1588 1588 1588 1588 1588 1587 1587 1586 1586 1585 1584 1584 1583 1583 1583 1582 1582 1581 1581 1580 1580 1580 1579 1579 1578 1577 1577 1576 1576 1575 1574 1572 1570 1569 1567 1567 1567 1567 1566 1566 1566 1566 1566 1566 1566 1566 1566 1566 1566 1566 1566 1566 1566 1567 1567 1567 1567 1568 1568 1568 1568 1567 1566 1566 1566 1566 1565 1564 1564 1564 1564 1563 1563 1562 1561 1560 1559 1558 1557 1557 1555 1554 1554 1552 1552 1550 1550 1549 1549 1549 1549 1550 1551 1551 1551 1551 1551 1550 1550 1550 1550 1551 1551 1551 1551 1551 1551 1551 1551 1551 1551 1551 1550 1550 1549 1549 1548 1548 1547 1547 1546 1545 1544 1544 1542 1540 1539 1537 1533 1532 1530 1528 1524 1523 1522 1522 1522 1522 1522 1522 1523 1523 1526 1528 1529 1529 1530 1531 1532 1534 1536 1537 1537 1538 1538 1538 1538 1538 1538 1538 1538 1538 1538 1538 1538 1537 1537 1537 1537 1536 1536 1535 1534 1533 1532 1529 1528 1526 1524 1523 1518 1514 1512 1512 1512 1512 1512 1512 1511 1511 1510 1510 1510 1510 1510 1510 1511 1511 1512 1515 1517 1517 1519 1521 1522 1522 1523 1523 1523 1524 1524 1524 1523 1523 1523 1522 1522 1522 1521 1520 1520 1520 1519 1519 1517 1514 1511 1509 1504 1498 1491 1487 1486 1486 1486 1485 1485 1485 1486 1487 1489 1490 1490 1491 1491 1492 1494 1494 1495 1499 1507 1507 1508 1510 1510 1510 1510 1510 1510 1510 1510 1509 1509 1508 1507 1507 1506 1506 1506 1505 1505 1505 1505 1506 1511 1524 0 0 0 0 0 0 0 0 0 0 0 0 0 0 0 0 0 0 0 0 0 0 0 0 0 0 0 0 0 0 0 0 0 0 0 0 0 0 0 0 0 0 0 0 0 0 0 0 0 0 0 0 0 0 0 0 0 0 0 0 0 0 0 0 0 0 0 0 0 0 0 0 0 0 0 0 0 0 0 0 0 0 0 0 0 0 0 0 0
0 0 0 0 0 0 0 0 0 0 0 0 0 0 0 0 0 0 0 0 0 0 0 0 0 0 0 0 0 0 0 0 0 0 0 0 0 0 0 0 0 0 0 0 0 0 0 0 2503 2503 2503 2698 2698 2698 2698 2698 2690 2617 2516 0 0 0 0 0 0 0 0 0 0 0 0 0 0 0 0 0 0 0 0 0 0 0 0 0 0 0 0 0 0 0 0 2615 2738 2827 2889 3070 3293 3439 3446 3544 3570 3573 3573 3573 3571 3571 3571 3579 3579 3580 3580 3585 3597 3608 3623 3636 3648 3651 3660 3661 3661 3661 3661 3661 3660 3626 3621 3417 2993 2681 0 0 0 0 0 0 0 0 0 0 0 0 0 0 0 0 0 0 0 0 0 0 0 0 0 0 0 0 0 0 0 0 0 0 0 0 0 0 0 0 0 0 0 0 0 0 0 0 0 0 0 0 0 0 0 0 0 0 0 0 0 0 0 0 0 0 0 0 0 0 0 0 0 0 0 0 0 0 0 0 0 0 0 0 0 0 0 0 0 0 1861 1869 1892 1913 1930 1940 1951 1986 0 0 0 0 0 0 0 2983 3150 3150 3150 3003 2856 2845 2833 2786 2718 2602 0 0 0 0 0 0 0 0 0 0 1681 1626 1601 1596 1595 1595 1595 1595 1595 1594 1593 1592 1591 1590 1589 1588 1588 1588 1587 1587 1587 1587 1587 1586 1586 1586 1586 1585 1585 1584 1583 1583 1582 1582 1581 1580 1580 1580 1579 1579 1579 1579 1578 1577 1577 1576 1576 1576 1574 1574 1572 1570 1570 1569 1568 1568 1567 1567 1567 1567 1566 1567 1566 1566 1566 1566 1566 1566 1566 1566 1566 1565 1566 1566 1566 1567 1567 1567 1567 1567 1567 1566 1565 1565 1565 1564 1564 1564 1563 1562 1562 1561 1561 1560 1559 1558 1557 1556 1555 1554 1554 1553 1552 1551 1550 1550 1549 1549 1549 1549 1551 1551 1551 1551 1551 1551 1550 1550 1550 1550 1550 1550 1550 1550 1550 1550 1550 1550 1550 1550 1550 1549 1549 1548 1548 1547 1547 1546 1546 1546 1545 1544 1543 1541 1540 1539 1536 1533 1531 1530 1528 1524 1523 1522 1522 1522 1522 1522 1522 1522 1523 1524 1526 1528 1529 1530 1531 1531 1533 1535 1536 1536 1537 1537 1537 1537 1537 1537 1537 1537 1537 1537 1537 1537 1536 1536 1535 1535 1534 1534 1534 1532 1532 1530 1529 1527 1526 1524 1522 1517 1514 1512 1512 1512 1512 1511 1510 1509 1509 1509 1508 1508 1508 1508 1509 1510 1511 1511 1513 1516 1516 1518 1520 1521 1522 1522 1523 1523 1523 1523 1523 1523 1523 1523 1522 1522 1522 1521 1520 1520 1519 1518 1517 1517 1514 1511 1509 1504 1498 1491 1487 1486 1486 1485 1485 1485 1485 1486 1487 1487 1488 1488 1489 1489 1490 1492 1492 1494 1498 1504 1504 1506 1509 1509 1510 1510 1510 1510 1509 1509 1508 1508 1508 1507 1506 1506 1506 1506 1506 1506 1506 1507 1508 1511 1519 0 0 0 0 0 0 0 0 0 0 0 0 0 0 0 0 0 0 0 0 0 0 0 0 0 0 0 0 0 0 0 0 0 0 0 0 0 0 0 0 0 0 0 0 0 0 0 0 0 0 0 0 0 0 0 0 0 0 0 0 0 0 0 0 0 0 0 0 0 0 0 0 0 0 0 0 0 0 0 0 0 0 0 0 0 0 0 0 0
0 0 0 0 0 0 0 0 0 0 0 0 0 0 0 0 0 0 0 0 0 0 0 0 0 0 0 0 0 0 0 0 0 0 0 0 0 0 0 0 0 0 0 0 0 0 0 0 0 0 0 0 0 0 0 0 0 0 0 0 0 0 0 0 0 0 0 0 0 0 0 0 2220 2223 2223 2223 2235 2237 2241 2237 0 0 0 2233 2223 2208 2208 2208 0 0 0 2615 2736 2766 2813 2978 3293 3399 3444 3523 3570 3570 3570 3559 3559 3559 3567 3579 3579 3580 3580 3586 3597 3606 3621 3636 3648 3651 3662 3662 3662 3661 3660 3660 3658 3633 3626 3426 3131 2722 0 0 0 0 0 0 0 0 0 0 0 0 0 0 0 0 0 0 0 0 0 0 0 0 0 0 0 0 0 0 0 0 0 0 0 0 0 0 0 0 0 0 0 0 0 0 0 0 0 0 0 0 0 0 0 0 0 0 0 0 0 0 0 0 0 0 0 0 0 0 0 0 0 0 0 0 0 0 0 0 0 0 0 0 0 0 0 0 0 0 1856 1858 1858 1869 1893 1940 1949 0 0 0 0 0 0 0 2879 2989 3170 3170 3170 3003 2852 2845 2794 2703 2582 0 0 0 0 0 0 0 0 0 0 0 1670 1626 1601 1595 1595 1594 1593 1593 1592 1592 1591 1591 1590 1589 1589 1588 1588 1587 1587 1587 1586 1586 1586 1585 1585 1585 1584 1584 1584 1583 1582 1582 1581 1581 1580 1580 1580 1580 1579 1578 1578 1577 1577 1577 1577 1576 1576 1575 1574 1574 1572 1570 1570 1569 1569 1569 1568 1567 1567 1567 1567 1567 1566 1566 1566 1566 1566 1566 1566 1566 1565 1565 1565 1566 1566 1566 1566 1566 1566 1566 1566 1565 1564 1564 1564 1564 1563 1563 1562 1561 1561 1561 1560 1560 1558 1558 1557 1556 1554 1554 1553 1553 1552 1551 1550 1550 1549 1549 1549 1549 1551 1551 1551 1551 1551 1550 1550 1549 1549 1549 1549 1549 1549 1549 1549 1549 1549 1549 1549 1549 1549 1549 1548 1548 1547 1547 1547 1546 1546 1545 1544 1543 1542 1541 1539 1538 1536 1533 1531 1530 1528 1526 1523 1522 1522 1522 1522 1522 1522 1522 1523 1524 1526 1528 1529 1529 1530 1530 1531 1533 1535 1536 1537 1537 1537 1537 1537 1537 1537 1537 1537 1536 1536 1536 1535 1535 1535 1534 1534 1533 1533 1532 1530 1529 1528 1527 1524 1523 1522 1516 1513 1512 1511 1510 1510 1509 1509 1507 1507 1507 1507 1507 1507 1507 1508 1510 1510 1511 1511 1514 1516 1517 1518 1521 1521 1522 1522 1523 1523 1523 1523 1523 1523 1523 1521 1521 1521 1521 1520 1519 1519 1518 1517 1516 1514 1511 1508 1504 1499 1491 1487 1486 1486 1485 1485 1485 1485 1486 1486 1486 1487 1487 1487 1489 1489 1490 1492 1494 1497 1501 1504 1506 1509 1509 1509 1509 1509 1509 1509 1509 1508 1508 1508 1506 1506 1506 1506 1506 1506 1506 1506 1506 1507 1508 1515 0 0 0 0 0 0 0 0 0 0 0 0 0 0 0 0 0 0 0 0 0 0 0 0 0 0 0 0 0 0 0 0 0 0 0 0 0 0 0 0 0 0 0 0 0 0 0 0 0 0 0 0 0 0 0 0 0 0 0 0 0 0 0 0 0 0 0 0 0 0 0 0 0 0 0 0 0 0 0 0 0 0 0 0 0 0 0 0 0
0 0 0 0 0 0 0 0 0 0 0 0 0 0 0 0 0 0 0 0 0 0 0 0 0 0 0 0 0 0 0 0 0 0 0 0 0 0 0 0 0 0 0 0 0 0 0 0 0 0 0 0 0 0 0 0 0 0 0 2167 2167 2167 2176 2179 2182 2183 2183 2193 2194 2200 2200 2200 2201 2204 2204 2204 2207 2215 2215 2215 2207 2200 2200 2198 2196 2196 2196 2196 2217 0 0 2608 2715 2737 2759 2860 3167 3335 3401 3469 3555 3555 3555 3555 3555 3556 3567 3573 3575 3578 3582 3588 3597 3604 3621 3635 3642 3650 3660 3660 3660 3651 3650 3650 3649 3633 3617 3578 3247 2734 0 0 0 0 0 0 0 0 0 0 0 0 0 0 0 0 0 0 0 0 0 0 0 0 0 0 0 0 0 0 0 0 0 0 0 0 0 0 0 0 0 0 0 0 0 0 0 0 0 0 0 0 0 0 0 0 0 0 0 0 0 0 0 0 0 0 0 0 0 0 0 0 0 0 0 0 0 0 0 0 0 0 0 0 0 0 0 0 0 0 1858 1859 1859 1859 1882 1925 1949 0 0 0 0 0 0 0 2879 2989 3170 3170 3170 3003 2845 2723 2680 2618 2530 0 0 0 0 0 0 0 0 0 0 0 1665 1626 1600 1594 1594 1593 1593 1593 1592 1591 1591 1590 1589 1589 1588 1587 1587 1586 1586 1585 1585 1585 1585 1585 1584 1584 1583 1583 1583 1582 1581 1581 1580 1580 1580 1579 1579 1578 1578 1577 1577 1576 1576 1576 1576 1576 1575 1575 1574 1573 1571 1570 1570 1570 1569 1569 1568 1567 1567 1567 1567 1567 1566 1566 1566 1566 1566 1566 1566 1565 1565 1565 1565 1565 1565 1565 1565 1566 1565 1565 1565 1564 1564 1563 1563 1563 1563 1561 1561 1560 1560 1560 1559 1558 1557 1556 1556 1556 1554 1553 1553 1553 1552 1551 1550 1550 1549 1549 1549 1549 1550 1550 1550 1550 1549 1549 1549 1549 1549 1549 1549 1549 1549 1549 1549 1549 1549 1549 1548 1548 1548 1548 1548 1548 1547 1546 1546 1546 1546 1545 1544 1543 1542 1540 1539 1537 1535 1533 1531 1529 1528 1526 1524 1522 1522 1522 1522 1522 1522 1522 1523 1524 1526 1526 1528 1529 1529 1529 1530 1533 1535 1535 1536 1536 1536 1536 1536 1536 1536 1536 1536 1535 1535 1535 1534 1534 1534 1534 1533 1533 1532 1531 1529 1529 1527 1526 1524 1522 1521 1513 1512 1510 1510 1510 1509 1509 1507 1507 1507 1507 1507 1507 1507 1507 1508 1508 1509 1509 1510 1513 1515 1517 1518 1520 1521 1522 1522 1522 1523 1523 1523 1523 1522 1522 1521 1521 1521 1521 1519 1519 1518 1518 1516 1515 1513 1510 1508 1505 1500 1493 1489 1487 1486 1485 1485 1484 1484 1485 1485 1486 1486 1487 1487 1487 1488 1490 1492 1494 1496 1499 1500 1505 1508 1508 1508 1509 1508 1509 1509 1508 1508 1507 1507 1506 1506 1506 1506 1506 1506 1506 1505 1506 1507 1511 1519 0 0 0 0 0 0 0 0 0 0 0 0 0 0 0 0 0 0 0 0 0 0 0 0 0 0 0 0 0 0 0 0 0 0 0 0 0 0 0 0 0 0 0 0 0 0 0 0 0 0 0 0 0 0 0 0 0 0 0 0 0 0 0 0 0 0 0 0 0 0 0 0 0 0 0 0 0 0 0 0 0 0 0 0 0 0 0 0 0
0 0 0 0 0 0 0 0 0 0 0 0 0 0 0 0 0 0 0 0 0 0 0 0 0 0 0 0 0 0 0 0 0 0 0 0 0 0 0 0 0 0 0 0 0 0 0 2070 2105 2121 2124 2137 2140 2140 2140 2153 2153 2154 2157 2157 2159 2161 2170 2174 2174 2174 2174 2177 2190 2191 2193 2194 2195 2199 2199 2197 2197 2196 2196 2194 2194 2194 2192 2188 2187 2177 2177 2177 2188 0 0 2608 2713 2737 2756 2830 3155 3290 3401 3469 3544 3544 3544 3544 3544 3556 3561 3566 3569 3573 3579 3586 3593 3601 3619 3633 3639 3648 3654 3654 3654 3643 3643 3641 3640 3636 3617 3598 3338 2826 0 0 0 0 0 0 0 0 0 0 0 0 0 0 0 0 0 0 0 0 0 0 0 0 0 0 0 0 0 0 0 0 0 0 0 0 0 0 0 0 0 0 0 0 0 0 0 0 0 0 0 0 0 0 0 0 0 0 0 0 0 0 0 0 0 0 0 0 0 0 0 0 0 0 0 0 0 0 0 0 0 0 0 0 0 0 0 0 0 0 0 1859 1859 1859 1882 1925 1949 0 0 0 0 0 0 0 2725 2989 3065 3065 3065 2803 2673 2645 2585 2517 0 0 0 0 0 0 0 0 0 0 0 0 1665 1612 1599 1594 1594 1593 1593 1593 1591 1590 1590 1589 1589 1588 1588 1587 1586 1586 1585 1585 1584 1584 1583 1583 1583 1582 1582 1581 1581 1580 1580 1580 1579 1579 1578 1578 1578 1577 1577 1576 1576 1576 1575 1575 1575 1575 1574 1574 1573 1572 1571 1571 1570 1570 1569 1569 1568 1568 1567 1567 1567 1566 1565 1565 1565 1565 1565 1565 1565 1564 1564 1564 1565 1565 1565 1564 1564 1564 1565 1565 1565 1564 1564 1563 1562 1562 1561 1561 1561 1560 1559 1559 1559 1558 1557 1556 1555 1554 1554 1553 1553 1553 1552 1552 1550 1550 1549 1549 1549 1549 1549 1549 1549 1549 1549 1549 1549 1549 1549 1549 1549 1548 1549 1549 1548 1548 1548 1548 1548 1548 1548 1547 1547 1547 1546 1546 1545 1545 1545 1544 1544 1542 1541 1540 1538 1537 1535 1533 1531 1529 1528 1526 1524 1523 1522 1522 1522 1522 1523 1524 1524 1525 1525 1526 1527 1528 1529 1529 1530 1533 1534 1535 1535 1535 1536 1536 1536 1536 1536 1536 1535 1535 1535 1534 1534 1533 1533 1532 1532 1532 1531 1531 1529 1528 1527 1525 1523 1521 1519 1513 1512 1510 1510 1509 1508 1508 1507 1507 1507 1507 1507 1507 1507 1507 1508 1508 1509 1509 1509 1512 1514 1515 1517 1519 1520 1521 1521 1522 1522 1522 1522 1522 1522 1522 1521 1521 1521 1520 1519 1519 1518 1517 1516 1515 1513 1510 1508 1505 1501 1495 1492 1489 1487 1486 1485 1485 1485 1485 1485 1486 1486 1487 1487 1487 1488 1490 1491 1494 1496 1498 1499 1505 1506 1506 1507 1508 1508 1508 1508 1508 1507 1507 1507 1506 1506 1506 1506 1506 1506 1506 1505 1506 1506 1512 1522 1545 0 0 0 0 0 0 0 0 0 0 0 0 0 0 0 0 0 0 0 0 0 0 0 0 0 0 0 0 0 0 0 0 0 0 0 0 0 0 0 0 0 0 0 0 0 0 0 0 0 0 0 0 0 0 0 0 0 0 0 0 0 0 0 0 0 0 0 0 0 0 0 0 0 0 0 0 0 0 0 0 0 0 0 0 0 0 0 0
0 0 0 0 0 0 0 0 0 0 0 0 0 0 0 0 0 0 0 0 0 0 0 0 0 0 0 0 0 0 0 0 0 0 0 0 0 0 0 0 0 0 0 0 0 0 2050 2070 2105 2121 2124 2137 2137 2137 2137 2137 2139 2143 2148 2156 2157 2159 2167 2172 2172 2173 2173 2177 2184 2186 2189 2191 2193 2194 2196 2196 2196 2183 2183 2183 2181 2181 2181 2177 2161 2130 2130 2130 2167 0 0 2593 2712 2733 2748 2803 2984 3248 3361 3450 3544 3544 3548 3548 3548 3550 3550 3553 3562 3572 3578 3585 3593 3598 3614 3629 3639 3647 3647 3647 3646 3635 3635 3635 3635 3635 3617 3599 3376 2977 0 0 0 0 0 0 0 0 0 0 0 0 0 0 0 0 0 0 0 0 0 0 0 0 0 0 0 0 0 0 0 0 0 0 0 0 0 0 0 0 0 0 0 0 0 0 0 0 0 0 0 0 0 0 0 0 0 0 0 0 0 0 0 0 0 0 0 0 0 0 0 0 0 0 0 0 0 0 0 0 0 0 0 0 0 0 0 0 0 0 0 0 0 1882 1882 1925 0 0 0 0 0 0 0 0 0 2522 2623 2623 2623 2505 0 0 0 0 0 0 0 0 0 0 0 0 0 0 0 0 1658 1609 1597 1593 1593 1592 1592 1591 1591 1590 1590 1588 1588 1587 1587 1586 1586 1585 1584 1584 1584 1583 1583 1583 1583 1582 1581 1581 1580 1580 1580 1579 1579 1578 1578 1577 1576 1576 1576 1575 1575 1575 1575 1574 1574 1574 1574 1573 1573 1572 1571 1571 1570 1570 1569 1569 1568 1568 1567 1567 1567 1565 1565 1565 1565 1565 1565 1565 1565 1564 1564 1564 1564 1564 1564 1563 1563 1563 1564 1564 1564 1562 1562 1562 1562 1561 1561 1560 1559 1559 1559 1559 1558 1557 1556 1556 1554 1554 1553 1553 1553 1552 1552 1552 1550 1550 1549 1548 1548 1548 1548 1548 1547 1547 1547 1547 1547 1547 1548 1548 1548 1548 1548 1548 1547 1547 1547 1547 1547 1546 1546 1546 1546 1546 1545 1545 1545 1544 1544 1544 1543 1542 1541 1539 1538 1537 1535 1533 1531 1529 1528 1526 1525 1523 1522 1522 1522 1522 1523 1524 1524 1525 1525 1526 1527 1528 1528 1529 1529 1532 1534 1534 1534 1534 1535 1535 1535 1535 1535 1535 1535 1535 1534 1533 1533 1533 1532 1532 1532 1531 1530 1529 1529 1526 1526 1525 1523 1521 1519 1513 1512 1510 1509 1509 1508 1507 1507 1507 1507 1507 1507 1507 1507 1507 1508 1508 1508 1509 1509 1510 1513 1515 1517 1518 1520 1520 1521 1521 1521 1522 1522 1521 1521 1521 1521 1520 1520 1520 1519 1518 1518 1517 1516 1515 1513 1510 1508 1505 1501 1498 1493 1491 1489 1489 1487 1486 1485 1485 1485 1486 1487 1487 1487 1488 1488 1490 1491 1494 1495 1498 1498 1503 1504 1506 1507 1507 1507 1507 1507 1507 1507 1507 1507 1506 1506 1506 1506 1506 1505 1502 1502 1502 1504 1512 1522 1545 0 0 0 0 0 0 0 0 0 0 0 0 0 0 0 0 0 0 0 0 0 0 0 0 0 0 0 0 0 0 0 0 0 0 0 0 0 0 0 0 0 0 0 0 0 0 0 0 0 0 0 0 0 0 0 0 0 0 0 0 0 0 0 0 0 0 0 0 0 0 0 0 0 0 0 0 0 0 0 0 0 0 0 0 0 0 0 0
0 0 0 0 0 0 0 0 0 0 0 0 0 0 0 0 0 0 0 0 0 0 0 0 0 0 0 0 0 0 0 0 0 0 0 0 0 0 0 0 0 0 0 0 0 1998 2050 2070 2105 2122 2125 2134 2134 2134 2132 2132 2132 2138 2147 2151 2156 2158 2162 2171 2171 2171 2172 2176 2184 2186 2189 2191 2191 2191 2192 2192 2192 2183 2183 2183 2180 2180 2180 2162 2141 2130 2130 2130 2134 0 0 2587 2703 2732 2747 2791 2982 3196 3301 3407 3544 3544 3548 3548 3544 3548 3549 3549 3561 3572 3578 3584 3588 3594 3611 3623 3635 3646 3646 3646 3635 3635 3635 3635 3635 3635 3617 3599 3476 3113 2687 0 0 0 0 0 0 0 0 0 0 0 0 0 0 0 0 0 0 0 0 0 0 0 0 0 0 0 0 0 0 0 0 0 0 0 0 0 0 0 0 0 0 0 0 0 0 0 0 0 0 0 0 0 0 0 0 0 0 0 0 0 0 0 0 0 0 0 0 0 0 0 0 0 0 0 0 0 0 0 0 0 0 0 0 0 0 0 0 0 0 0 0 0 0 0 0 0 0 0 0 0 0 0 0 0 0 0 0 0 0 0 0 0 0 0 0 0 0 0 0 0 0 0 0 0 1639 1604 1594 1592 1590 1590 1590 1590 1589 1589 1588 1588 1587 1586 1586 1585 1585 1584 1584 1583 1583 1582 1582 1582 1582 1581 1581 1580 1580 1579 1579 1579 1578 1577 1576 1575 1575 1575 1575 1574 1573 1573 1573 1573 1573 1573 1573 1573 1572 1572 1571 1570 1570 1570 1569 1569 1568 1568 1567 1567 1567 1565 1564 1564 1564 1565 1565 1565 1563 1563 1563 1563 1563 1563 1563 1563 1563 1563 1563 1563 1562 1561 1561 1561 1561 1560 1559 1559 1559 1558 1558 1558 1557 1557 1556 1555 1554 1554 1552 1552 1552 1552 1552 1552 1550 1549 1549 1548 1548 1547 1546 1546 1545 1545 1545 1545 1546 1547 1547 1547 1547 1547 1547 1547 1547 1546 1546 1546 1546 1545 1545 1545 1545 1544 1544 1544 1544 1544 1543 1543 1543 1542 1541 1539 1538 1537 1535 1533 1531 1529 1529 1528 1526 1525 1525 1524 1524 1524 1524 1524 1524 1525 1525 1525 1526 1527 1528 1529 1530 1531 1532 1533 1534 1534 1534 1534 1534 1534 1534 1534 1533 1533 1533 1533 1533 1532 1532 1532 1531 1530 1529 1528 1528 1525 1524 1523 1522 1521 1519 1514 1511 1510 1509 1509 1508 1507 1507 1506 1506 1506 1507 1507 1507 1507 1507 1507 1507 1508 1508 1510 1513 1515 1516 1517 1520 1520 1521 1521 1521 1521 1521 1521 1521 1521 1520 1520 1520 1519 1518 1518 1517 1517 1516 1514 1512 1510 1508 1505 1501 1498 1496 1492 1491 1491 1489 1487 1486 1486 1486 1486 1487 1488 1488 1488 1488 1490 1491 1493 1495 1496 1498 1501 1504 1506 1507 1507 1507 1507 1507 1507 1507 1506 1506 1506 1505 1505 1505 1505 1505 1502 1502 1502 1504 1512 1522 1545 0 0 0 0 0 0 0 0 0 0 0 0 0 0 0 0 0 0 0 0 0 0 0 0 0 0 0 0 0 0 0 0 0 0 0 0 0 0 0 0 0 0 0 0 0 0 0 0 0 0 0 0 0 0 0 0 0 0 0 0 0 0 0 0 0 0 0 0 0 0 0 0 0 0 0 0 0 0 0 0 0 0 0 0 0 0 0 0
0 0 0 0 0 0 0 0 0 0 0 0 0 0 0 0 0 0 0 0 0 0 0 0 0 0 0 0 0 0 0 0 0 0 0 0 0 0 0 0 0 0 0 0 0 2019 2063 2096 2098 2114 2118 2133 2133 2133 2130 2127 2127 2130 2134 2142 2152 2156 2162 2168 2168 2170 2171 2176 2184 2186 2187 2189 2191 2191 2191 2191 2191 2183 2174 2174 2167 2167 2167 2162 2141 2130 2130 2130 2134 0 0 2570 2675 2725 2740 2777 2914 3118 3186 3365 3455 3535 3539 3544 3543 3544 3548 3549 3561 3572 3576 3578 3586 3594 3611 3623 3628 3638 3638 3638 3635 3635 3635 3635 3635 3635 3619 3617 3476 3117 2729 0 0 0 0 0 0 0 0 0 0 0 0 0 0 0 0 0 0 0 0 0 0 0 0 0 0 0 0 0 0 0 0 0 0 0 0 0 0 0 0 0 0 0 0 0 0 0 0 0 0 0 0 0 0 0 0 0 0 0 0 0 0 0 0 0 0 0 0 0 0 0 0 0 0 0 0 0 0 0 0 0 0 0 0 0 0 0 0 0 0 0 0 0 0 0 0 0 0 0 0 0 0 0 0 0 0 0 2391 2443 2461 2461 0 0 0 0 0 0 0 0 0 0 0 0 0 0 1612 1601 1593 1591 1589 1589 1588 1588 1587 1587 1587 1586 1586 1586 1585 1585 1585 1584 1583 1583 1583 1582 1582 1582 1582 1580 1580 1579 1578 1578 1578 1577 1577 1576 1574 1574 1574 1574 1574 1574 1573 1572 1572 1572 1572 1572 1572 1572 1572 1571 1571 1570 1570 1570 1569 1569 1568 1568 1567 1566 1566 1565 1564 1564 1564 1564 1564 1564 1563 1563 1563 1562 1562 1563 1563 1562 1562 1562 1561 1561 1561 1561 1560 1560 1560 1559 1559 1558 1558 1558 1557 1557 1556 1556 1555 1555 1553 1553 1552 1552 1552 1552 1551 1551 1550 1549 1547 1547 1547 1547 1546 1545 1545 1545 1545 1545 1546 1546 1546 1546 1546 1546 1546 1546 1546 1546 1545 1545 1544 1544 1544 1544 1544 1543 1543 1543 1542 1542 1542 1542 1541 1541 1540 1539 1538 1537 1535 1534 1531 1530 1530 1529 1528 1527 1526 1525 1525 1525 1525 1524 1524 1525 1525 1525 1526 1527 1528 1529 1530 1531 1532 1532 1534 1534 1534 1534 1534 1534 1533 1533 1533 1533 1532 1531 1531 1530 1530 1530 1529 1529 1528 1527 1526 1525 1524 1522 1522 1521 1519 1514 1512 1510 1509 1509 1508 1507 1507 1506 1506 1506 1507 1507 1507 1507 1507 1507 1507 1508 1508 1510 1513 1514 1516 1517 1519 1520 1521 1521 1521 1521 1520 1520 1520 1520 1520 1520 1519 1519 1518 1518 1516 1516 1515 1513 1511 1510 1508 1503 1499 1498 1496 1494 1492 1491 1489 1487 1487 1487 1487 1487 1487 1488 1488 1488 1489 1490 1491 1492 1494 1495 1498 1501 1504 1505 1506 1506 1506 1506 1506 1506 1506 1506 1506 1505 1504 1504 1504 1504 1504 1502 1502 1502 1504 1513 1522 1545 0 0 0 0 0 0 0 0 0 0 0 0 0 0 0 0 0 0 0 0 0 0 0 0 0 0 0 0 0 0 0 0 0 0 0 0 0 0 0 0 0 0 0 0 0 0 0 0 0 0 0 0 0 0 0 0 0 0 0 0 0 0 0 0 0 0 0 0 0 0 0 0 0 0 0 0 0 0 0 0 0 0 0 0 0 0 0 0
