2445 2445 2452 2469 2483 2495 2513 2515 2550 2603 2640 2665 2688 2729 2729 2729 2744 2744 2761 2797 2803 2824 2838 2853 2856 2857 2883 2908 2916 2916 2916 2916 2903 2902 2879 2818 2686 0 0 0 0 0 0 0 0 0 0 0 0 0 0 0 0 0 0 0 0 0 0 0 0 0 0 0 0 0 0 0 0 0 0 0 0 0 0 0 0 0 0 0 0 0 0 0 0 0 0 0 0 0 0 0 0 0 0 0 0 0 0 0 0 0 0 0 0 0 0 0 0 0 0 0 0 0 0 0 0 0 0 0 0 0 0 0 0 0 0 0 0 0 0 0 0 0 0 0 0 0 0 0 0 0 0 0 0 0 0 0 0 0 0 0 0 0 0 0 0 0 0 0 0 0 0 2662 2687 2822 3032 3053 3069 3150 3188 3219 3219 3219 3209 3152 3026 2885 2724 2724 2724 2968 3113 3188 3188 3188 3163 3163 3163 3199 3264 3270 3270 3270 3258 3235 3235 3235 3237 3237 3237 3208 3168 3122 3075 3055 3055 3055 3072 3072 3072 3028 3028 3028 3036 3105 3107 3125 3149 3166 3189 3220 3251 3264 3264 3251 3251 3264 3267 3346 3400 3400 3400 3264 3189 3134 3057 2978 2897 2623 0 0 0 2139 2113 2105 2080 2069 2060 2051 2043 2042 2039 2034 2030 2028 2025 2022 2018 2015 2012 2010 2008 2005 2003 1999 1995 1991 1989 1985 1983 1981 1980 1978 1977 1974 1972 1968 1964 1962 1960 1959 1958 1956 1954 1952 1951 1949 1948 1946 1945 1943 1940 1938 1935 1934 1932 1931 1929 1926 1923 1922 1921 1919 1917 1915 1914 1910 1908 1907 1905 1902 1901 1898 1896 1895 1893 1891 1890 1888 1887 1885 1883 1881 1879 1878 1876 1874 1872 1871 1869 1867 1865 1864 1862 1859 1858 1856 1855 1854 1854 1852 1851 1849 1847 1845 1844 1844 1843 1842 1842 1841 1840 1840 1840 1839 1838 1838 1838 1838 1838 1838 1838 1838 1838 1838 1841 1843 1844 1844 1845 1845 1845 1845 1845 1845 1844 1844 1845 1845 1845 1846 1846 1846 1845 1844 1844 1844 1844 1843 1843 1843 1843 1842 1841 1841 1841 1841 1841 1841 1841 1841 1842 1843 1843 1844 1845 1845 1845 1843 1843 1843 1842 1842 1842 1842 1842 1842 1842 1843 1843 1844 1844 1844 1842 1842 1842 1843 1843 1843 1844 1844 1844 1844 1845 1846 1848 1848 1848 1849 1850 1850 1850 1850 1850 1850 1850 1852 1853 1853 1854 1854 1856 1856 1857 1858 1858 1858 1859 1860 1860 1860 1861 1862 1864 1866 1868 1869 1873 1874 1874 1875 1875 1876 1879 1881 1883 1884 1886 1889 1893 1897 1904 1909 1916 1921 1922 1925 1929 1932 1937 1938 1946 1951 1954 1959 1964 1967 1967 1967 0 0 0 0 0 0 0 0 0 0 0 0 0 0 0 0 0 0 0 0 0 0 0 0 0 0 0 0 0 0 0 0 0 0 0 0 0 0 0 0 0 0 0 0 0 0 0 0 0 0 0 0 0 0 0 0 0 0 0 0 0 0 0 0 0 0 0 0 0 0 0 0 0 0 0 0 0 0 0 0 0 0 0 0 0 0 0 0 0 0 0 0 0 0 0 0 0 0 0 0 0 0 0 0 0 0 0 0 0 0 0 0 0 0 0 0 0 0 0 0 0 0 0 0 0 0 0 0 0 0 0 0 1143 1143 1129 1127 1121 1084 1058 1058
2445 2445 2452 2469 2483 2497 2522 2534 2561 2608 2641 2665 2688 2731 2731 2731 2745 2745 2761 2806 2811 2841 2857 2871 2881 2882 2884 2908 2916 2916 2916 2916 2909 2902 2885 2830 2698 2504 0 0 0 0 0 0 0 0 0 0 0 0 0 0 0 0 0 0 0 0 0 0 0 0 0 0 0 0 0 0 0 0 0 0 0 0 0 0 0 0 0 0 0 0 0 0 0 0 0 0 0 0 0 0 0 0 0 0 0 0 0 0 0 0 0 0 0 0 0 0 0 0 0 0 0 0 0 0 0 0 0 0 0 0 0 0 0 0 0 0 0 0 0 0 0 0 0 0 0 0 0 0 0 0 0 0 0 0 0 0 0 0 0 0 0 0 0 0 0 0 0 0 0 0 2950 3107 3176 3277 3277 3277 3211 3190 3190 3190 3190 3190 3176 3099 3001 2839 2704 2704 2704 2789 2963 3083 3094 3113 3129 3129 3149 3203 3258 3264 3264 3264 3258 3226 3195 3195 3195 3195 3195 3188 3166 3112 3060 3015 3005 3005 2999 2999 2999 2978 2945 2945 2945 2980 3014 3061 3070 3070 3070 3068 3062 3062 3062 3057 3057 3102 3102 3131 3223 3223 3223 3170 3096 3025 2901 2821 2719 2592 0 0 2139 2130 2113 2105 2080 2069 2060 2051 2045 2041 2039 2033 2030 2027 2024 2022 2018 2015 2013 2010 2008 2005 2003 2000 1996 1992 1989 1986 1983 1981 1980 1979 1977 1975 1972 1970 1967 1964 1962 1960 1960 1957 1956 1954 1952 1951 1950 1947 1945 1943 1941 1938 1937 1935 1933 1931 1929 1926 1924 1923 1921 1920 1918 1915 1914 1913 1911 1908 1906 1904 1902 1900 1898 1897 1895 1894 1891 1890 1888 1886 1884 1882 1880 1878 1876 1874 1873 1871 1869 1867 1866 1864 1862 1860 1859 1856 1856 1854 1854 1853 1852 1849 1847 1845 1845 1844 1844 1843 1843 1841 1840 1840 1840 1840 1840 1840 1840 1839 1839 1838 1838 1838 1840 1840 1843 1843 1845 1847 1847 1847 1847 1847 1847 1846 1846 1846 1846 1846 1847 1847 1847 1846 1846 1846 1845 1845 1844 1844 1844 1844 1844 1844 1843 1842 1841 1841 1842 1842 1842 1843 1843 1844 1845 1846 1846 1846 1845 1845 1845 1846 1847 1847 1847 1846 1844 1843 1843 1843 1844 1845 1845 1845 1845 1844 1844 1844 1845 1845 1845 1845 1845 1845 1846 1847 1848 1849 1849 1849 1851 1851 1851 1851 1851 1851 1852 1853 1855 1856 1856 1857 1858 1858 1858 1859 1860 1861 1862 1864 1864 1864 1864 1866 1868 1871 1872 1874 1876 1878 1878 1879 1880 1882 1884 1886 1887 1888 1890 1894 1899 1902 1906 1911 1918 1924 1926 1928 1929 1934 1937 1943 1948 1951 1954 1961 1965 1967 1967 1967 1964 0 0 0 0 0 0 0 0 0 0 0 0 0 0 0 0 0 0 0 0 0 0 0 0 0 0 0 0 0 0 0 0 0 0 0 0 0 0 0 0 0 0 0 0 0 0 0 0 0 0 0 0 0 0 0 0 0 0 0 0 0 0 0 0 0 0 0 0 0 0 0 0 0 0 0 0 0 0 0 0 0 0 0 0 0 0 0 0 0 0 0 0 0 0 0 0 0 0 0 0 0 0 0 0 0 0 0 0 0 0 0 0 0 0 0 0 0 0 0 0 0 0 0 0 0 0 0 0 0 0 0 1149 1143 1135 1132 1121 1084 1059 1059
2445 2445 2464 2474 2485 2501 2522 2539 2561 2608 2641 2665 2688 2729 2729 2729 2744 2744 2761 2811 2813 2841 2857 2881 2884 2894 2895 2908 2916 2922 2930 2930 2930 2902 2887 2856 2743 2582 0 0 0 0 0 0 0 0 0 0 0 0 0 0 0 0 0 0 0 0 0 0 0 0 0 0 0 0 0 0 0 0 0 0 0 0 0 0 0 0 0 0 0 0 0 0 0 0 0 0 0 0 0 0 0 0 0 0 0 0 0 0 0 0 0 0 0 0 0 0 0 0 0 0 0 0 0 0 0 0 0 0 0 0 0 0 0 0 0 0 0 0 0 0 0 0 0 0 0 0 0 0 0 0 0 0 0 0 0 0 0 0 0 0 0 0 0 0 0 0 0 0 0 0 2950 3107 3176 3277 3277 3277 3211 3150 3150 3150 3150 3150 3108 3043 2894 2827 2717 2709 2709 2709 2760 2904 3030 3049 3094 3113 3149 3203 3252 3258 3258 3258 3242 3208 3183 3173 3169 3164 3151 3149 3141 3106 3053 3009 3005 2992 2987 2985 2982 2956 2921 2921 2921 2934 2966 2999 3013 3016 3062 3062 3062 3043 3036 3036 3039 3043 3039 3039 3029 3002 2987 2912 2857 2815 2758 2649 2545 0 0 2159 2138 2121 2112 2105 2081 2071 2060 2051 2045 2041 2036 2033 2030 2026 2024 2021 2018 2016 2013 2011 2008 2005 2003 2000 1996 1992 1989 1986 1983 1981 1980 1979 1977 1975 1972 1970 1967 1965 1962 1961 1960 1959 1957 1955 1953 1952 1950 1948 1946 1944 1941 1939 1938 1936 1934 1933 1930 1928 1926 1924 1922 1920 1919 1918 1916 1914 1911 1909 1908 1906 1903 1901 1899 1897 1895 1894 1892 1890 1888 1886 1884 1883 1881 1878 1876 1874 1873 1872 1870 1867 1867 1864 1863 1861 1860 1857 1856 1855 1854 1853 1852 1850 1849 1847 1846 1845 1844 1844 1844 1843 1843 1843 1843 1842 1842 1842 1842 1842 1841 1842 1842 1842 1842 1843 1843 1846 1848 1850 1850 1850 1850 1849 1849 1848 1848 1848 1848 1848 1848 1848 1848 1848 1847 1847 1845 1845 1845 1845 1845 1846 1846 1846 1845 1845 1845 1843 1844 1844 1844 1848 1848 1848 1848 1848 1848 1850 1850 1851 1851 1852 1853 1853 1853 1852 1852 1850 1848 1848 1848 1848 1849 1849 1848 1848 1848 1848 1848 1848 1848 1849 1849 1849 1851 1853 1853 1853 1853 1853 1855 1855 1855 1856 1857 1858 1858 1858 1858 1860 1860 1861 1862 1862 1863 1863 1863 1865 1866 1867 1867 1867 1868 1870 1872 1873 1874 1875 1876 1878 1880 1881 1881 1883 1885 1887 1889 1891 1894 1897 1899 1902 1906 1911 1918 1924 1926 1928 1930 1935 1938 1945 1948 1951 1955 1962 1967 1972 1972 1972 1970 0 0 0 0 0 0 0 0 0 0 0 0 0 0 0 0 0 0 0 0 0 0 0 0 0 0 0 0 0 0 0 0 0 0 0 0 0 0 0 0 0 0 0 0 0 0 0 0 0 0 0 0 0 0 0 0 0 0 0 0 0 0 0 0 0 0 0 0 0 0 0 0 0 0 0 0 0 0 0 0 0 0 0 0 0 0 0 0 0 0 0 0 0 0 0 0 0 0 0 0 0 0 0 0 0 0 0 0 0 0 0 0 0 0 0 0 0 0 0 0 0 0 0 0 0 0 0 0 0 0 1161 1161 1161 1139 1136 1121 1084 1069 1069
2445 2445 2464 2474 2483 2501 2522 2539 2561 2608 2641 2659 2683 2729 2729 2729 2752 2752 2762 2811 2813 2841 2857 2881 2884 2899 2916 2921 2924 2929 2934 2934 2934 2924 2904 2889 2751 2609 0 0 0 0 0 0 0 0 0 0 0 0 0 0 0 0 0 0 0 0 0 0 0 0 0 0 0 0 0 0 0 0 0 0 0 0 0 0 0 0 0 0 0 0 0 0 0 0 0 0 0 0 0 0 0 0 0 0 0 0 0 0 0 0 0 0 0 0 0 0 0 0 0 0 0 0 0 0 0 0 0 0 0 0 0 0 0 0 0 0 0 0 0 0 0 0 0 0 0 0 0 0 0 0 0 0 0 0 0 0 0 0 0 0 0 0 0 0 0 0 0 0 0 0 2950 3107 3176 3277 3277 3277 3211 3095 3068 3060 3046 3045 3018 2935 2894 2823 2717 2669 2669 2669 2760 2904 2983 3049 3094 3113 3150 3203 3214 3225 3242 3242 3242 3208 3183 3157 3151 3128 3104 3094 3089 3072 3042 3006 2999 2992 2985 2985 2973 2939 2908 2908 2908 2911 2919 2941 2955 3005 3062 3062 3062 3043 3036 3036 3039 3043 3039 3039 3029 3002 2987 2912 2857 2779 2624 2553 0 0 0 2159 2138 2120 2109 2092 2082 2073 2061 2052 2046 2041 2036 2033 2030 2026 2024 2021 2019 2016 2013 2011 2008 2005 2003 2000 1996 1992 1989 1986 1983 1981 1980 1979 1977 1975 1972 1970 1968 1965 1964 1962 1960 1959 1957 1955 1954 1953 1950 1949 1947 1944 1942 1940 1938 1937 1934 1933 1931 1928 1927 1924 1923 1922 1921 1919 1916 1914 1912 1910 1908 1907 1905 1902 1899 1898 1897 1895 1892 1891 1888 1886 1884 1883 1882 1880 1878 1876 1874 1872 1871 1869 1867 1865 1863 1862 1860 1858 1858 1857 1856 1854 1853 1851 1849 1848 1847 1847 1845 1845 1845 1844 1844 1844 1844 1844 1844 1843 1843 1843 1843 1843 1845 1846 1847 1848 1849 1850 1850 1853 1853 1853 1853 1854 1854 1854 1852 1852 1852 1852 1852 1851 1851 1851 1851 1851 1851 1850 1850 1850 1851 1851 1851 1851 1851 1851 1851 1852 1852 1853 1853 1854 1856 1856 1857 1857 1858 1858 1858 1858 1858 1858 1858 1857 1857 1857 1856 1856 1854 1853 1853 1853 1853 1853 1853 1853 1852 1852 1852 1853 1855 1856 1856 1857 1858 1859 1859 1859 1859 1858 1858 1858 1858 1859 1861 1861 1861 1861 1863 1863 1864 1865 1866 1866 1867 1867 1867 1869 1870 1870 1870 1870 1872 1873 1874 1874 1874 1875 1876 1878 1880 1881 1881 1884 1885 1887 1889 1891 1894 1897 1899 1902 1906 1911 1918 1924 1926 1928 1930 1935 1945 1947 1950 1951 1955 1962 1967 1972 1972 1972 1970 0 0 0 0 0 0 0 0 0 0 0 0 0 0 0 0 0 0 0 0 0 0 0 0 0 0 0 0 0 0 0 0 0 0 0 0 0 0 0 0 0 0 0 0 0 0 0 0 0 0 0 0 0 0 0 0 0 0 0 0 0 0 0 0 0 0 0 0 0 0 0 0 0 0 0 0 0 0 0 0 0 0 0 0 0 0 0 0 0 0 0 0 0 0 0 0 0 0 0 0 0 0 0 0 0 0 0 0 0 0 0 0 0 0 0 0 0 0 0 0 0 0 0 0 0 0 0 0 0 0 1161 1161 1161 1140 1137 1121 1084 1069 1069
0 0 0 2469 2477 2501 2519 2539 2545 2580 2612 2654 2683 2731 2731 2738 2752 2752 2762 2799 2803 2813 2818 2850 2884 2899 2933 2933 2935 2936 2936 2949 2949 2949 2909 2889 2794 2618 0 0 0 0 0 0 0 0 0 0 0 0 0 0 0 0 0 0 0 0 0 0 0 0 0 0 0 0 0 0 0 0 0 0 0 0 0 0 0 0 0 0 0 0 0 0 0 0 0 0 0 0 0 0 0 0 0 0 0 0 0 0 0 0 0 0 0 0 0 0 0 0 0 0 0 0 0 0 0 0 0 0 0 0 0 0 0 0 0 0 0 0 0 0 0 0 0 0 0 0 0 0 0 0 0 0 0 0 0 0 0 0 0 0 0 0 0 0 0 0 0 0 0 0 2750 2889 3106 3106 3106 3061 2949 2949 2941 2948 2948 2931 2877 2876 2872 2797 2717 2668 2668 2668 2739 2896 2974 3049 3102 3143 3156 3178 3179 3179 3207 3207 3207 3207 3183 3151 3116 3089 3059 3037 3020 3016 3010 3006 3001 2994 2984 2982 2941 2908 2876 2876 2876 2877 2893 2898 2910 3005 3070 3070 3070 3049 3043 3039 3039 3043 3039 3039 3029 3002 2987 2912 2857 2779 2624 2553 0 0 0 2158 2132 2120 2107 2092 2082 2073 2065 2057 2049 2043 2036 2033 2030 2026 2024 2021 2018 2016 2013 2011 2008 2005 2002 1998 1995 1992 1989 1986 1983 1981 1980 1978 1977 1975 1972 1970 1968 1966 1964 1963 1961 1959 1957 1956 1954 1953 1950 1949 1947 1945 1943 1941 1940 1938 1936 1933 1931 1929 1927 1925 1924 1923 1922 1920 1917 1915 1912 1910 1909 1907 1905 1902 1900 1898 1897 1896 1894 1892 1890 1887 1886 1884 1882 1880 1879 1877 1875 1872 1871 1869 1867 1866 1864 1863 1861 1859 1858 1858 1858 1856 1855 1852 1851 1851 1851 1850 1848 1848 1848 1846 1846 1846 1846 1847 1847 1847 1847 1848 1849 1850 1851 1852 1853 1853 1853 1854 1855 1856 1857 1857 1858 1858 1858 1858 1858 1856 1856 1856 1856 1857 1857 1857 1857 1857 1856 1856 1854 1854 1854 1854 1854 1856 1857 1857 1857 1858 1861 1861 1861 1861 1862 1862 1862 1862 1862 1863 1864 1865 1865 1865 1864 1863 1861 1860 1859 1859 1859 1858 1858 1859 1858 1858 1858 1858 1858 1857 1857 1857 1859 1861 1861 1861 1861 1862 1862 1863 1863 1863 1862 1862 1862 1862 1862 1863 1863 1865 1867 1867 1869 1870 1870 1870 1870 1870 1870 1870 1870 1870 1871 1871 1872 1873 1874 1874 1874 1875 1876 1878 1880 1881 1882 1884 1885 1887 1889 1891 1894 1897 1899 1902 1906 1911 1916 1922 1923 1926 1930 1941 1947 1948 1950 1955 1960 1968 1970 1976 1976 1976 1970 0 0 0 0 0 0 0 0 0 0 0 0 0 0 0 0 0 0 0 0 0 0 0 0 0 0 0 0 0 0 0 0 0 0 0 0 0 0 0 0 0 0 0 0 0 0 0 0 0 0 0 0 0 0 0 0 0 0 0 0 0 0 0 0 0 0 0 0 0 0 0 0 0 0 0 0 0 0 0 0 0 0 0 0 0 0 0 0 0 0 0 0 0 0 0 0 0 0 0 0 0 0 0 0 0 0 0 0 0 0 0 0 0 0 0 0 0 0 0 0 0 0 0 0 0 0 0 0 0 1166 1166 1166 1161 1152 1137 1112 1083 1069 1069
0 0 0 0 0 2483 2500 2521 2542 2557 2612 2654 2683 2759 2759 2759 2761 2761 2761 2788 2788 2799 2803 2812 2854 2899 2939 2939 2939 2952 2952 2969 2969 2969 2951 2889 2856 2680 0 0 0 0 0 0 0 0 0 0 0 0 0 0 0 0 0 0 0 0 0 0 0 0 0 0 0 0 0 0 0 0 0 0 0 0 0 0 0 0 0 0 0 0 0 0 0 0 0 0 0 0 0 0 0 0 0 0 0 0 0 0 0 0 0 0 0 0 0 0 0 0 0 0 0 0 0 0 0 0 0 0 0 0 0 0 0 0 0 0 0 0 0 0 0 0 0 0 0 0 0 0 0 0 0 0 0 0 0 0 0 0 0 0 0 0 0 0 0 0 0 0 0 0 0 2701 2850 2850 2850 2841 2787 2787 2787 2828 2828 2828 2828 2825 2796 2796 2717 2637 2637 2637 2735 2896 2961 3045 3102 3143 3154 3154 3156 3166 3166 3166 3166 3160 3135 3097 3086 3067 3048 3022 3019 3009 3003 3001 2996 2994 2981 2957 2904 2847 2796 2796 2796 2805 2830 2851 2910 3005 3123 3195 3195 3195 3170 3149 3135 3135 3135 3149 3149 3149 3099 3002 2886 2779 2624 2553 0 0 0 2157 2124 2111 2103 2091 2082 2074 2067 2060 2051 2045 2038 2034 2031 2027 2025 2021 2018 2016 2013 2010 2007 2004 2001 1998 1995 1991 1987 1986 1983 1981 1980 1978 1977 1975 1972 1970 1968 1966 1964 1963 1961 1959 1958 1956 1954 1953 1950 1949 1947 1945 1943 1941 1940 1938 1936 1934 1932 1930 1927 1926 1925 1924 1923 1920 1918 1915 1913 1911 1909 1908 1905 1903 1901 1900 1898 1898 1896 1895 1892 1889 1887 1886 1884 1882 1880 1877 1876 1875 1873 1871 1870 1868 1866 1864 1863 1862 1860 1858 1858 1857 1855 1854 1853 1852 1852 1850 1850 1850 1850 1850 1849 1849 1849 1849 1849 1850 1850 1850 1850 1852 1853 1854 1855 1855 1856 1857 1860 1861 1862 1862 1862 1863 1865 1865 1865 1865 1864 1864 1864 1864 1863 1863 1862 1862 1862 1862 1862 1862 1862 1862 1864 1864 1865 1866 1866 1867 1868 1868 1869 1869 1869 1869 1869 1869 1869 1869 1869 1868 1868 1868 1867 1866 1865 1864 1863 1863 1863 1862 1861 1861 1861 1862 1862 1862 1862 1861 1861 1861 1864 1864 1865 1865 1865 1865 1865 1865 1865 1865 1866 1866 1866 1866 1866 1866 1866 1867 1868 1868 1869 1870 1870 1870 1870 1870 1870 1870 1870 1870 1871 1871 1872 1873 1874 1874 1874 1875 1876 1878 1879 1880 1882 1883 1885 1887 1889 1891 1893 1897 1899 1902 1906 1911 1916 1919 1923 1926 1935 1941 1947 1952 1957 1962 1967 1973 1974 1980 1980 1980 0 0 0 0 0 0 0 0 0 0 0 0 0 0 0 0 0 0 0 0 0 0 0 0 0 0 0 0 0 0 0 0 0 0 0 0 0 0 0 0 0 0 0 0 0 0 0 0 0 0 0 0 0 0 0 0 0 0 0 0 0 0 0 0 0 0 0 0 0 0 0 0 0 0 0 0 0 0 0 0 0 0 0 0 0 0 0 0 0 0 0 0 0 0 0 0 0 0 0 0 0 0 0 0 0 0 0 0 0 0 0 0 0 0 0 0 0 0 0 0 0 0 0 0 0 0 0 0 0 0 1170 1170 1170 1161 1154 1137 1110 1080 1069 1069
0 0 0 0 0 0 0 2494 2525 2549 2612 2654 2709 2761 2771 2771 2771 2767 2761 2752 2752 2748 2752 2757 2830 2899 2954 2954 2954 2969 2969 2969 2969 2969 2951 2911 2868 2712 2595 0 0 0 0 0 0 0 0 0 0 0 0 0 0 0 0 0 0 0 0 0 0 0 0 0 0 0 0 0 0 0 0 0 0 0 0 0 0 0 0 0 0 0 0 0 0 0 0 0 0 0 0 0 0 0 0 0 0 0 0 0 0 0 0 0 0 0 0 0 0 0 0 0 0 0 0 0 0 0 0 0 0 0 0 0 0 0 0 0 0 0 0 0 0 0 0 0 0 0 0 0 0 0 0 0 0 0 0 0 0 0 0 0 0 0 0 0 0 0 0 0 0 0 0 0 0 0 2495 2541 2629 2715 2787 2828 2828 2828 2806 2792 2729 2675 2665 0 2584 2584 2721 2847 2949 3045 3102 3142 3142 3142 3142 3142 3151 3151 3151 3133 3073 3071 3066 3065 3048 3011 2993 2993 2993 2993 2993 2993 2956 2902 2839 2759 2685 2683 2683 2683 2830 2851 2910 3016 3242 3299 3317 3317 3317 3262 3135 3135 3135 3149 3149 3149 3099 3002 2940 2914 2830 2522 0 0 0 2142 2114 2108 2102 2090 2083 2074 2067 2060 2051 2045 2040 2035 2031 2027 2025 2021 2018 2016 2013 2010 2007 2003 2001 1997 1994 1991 1987 1985 1983 1981 1980 1978 1977 1975 1972 1970 1968 1965 1964 1963 1961 1959 1958 1956 1954 1952 1950 1949 1947 1945 1943 1941 1940 1938 1936 1934 1932 1931 1929 1928 1926 1924 1923 1921 1918 1915 1913 1911 1910 1908 1906 1903 1901 1901 1899 1898 1896 1895 1893 1891 1889 1887 1885 1882 1880 1879 1877 1875 1874 1872 1871 1870 1868 1866 1865 1864 1862 1861 1860 1859 1857 1856 1855 1854 1853 1853 1853 1853 1853 1853 1853 1853 1852 1852 1852 1852 1852 1852 1853 1854 1856 1856 1858 1860 1862 1863 1863 1864 1866 1866 1867 1868 1870 1870 1870 1870 1870 1870 1870 1870 1869 1869 1869 1868 1868 1868 1867 1866 1866 1866 1867 1867 1868 1868 1870 1870 1870 1870 1870 1870 1870 1871 1872 1872 1872 1871 1871 1871 1870 1870 1868 1868 1867 1866 1866 1866 1866 1866 1866 1867 1867 1867 1865 1864 1864 1864 1864 1864 1865 1865 1865 1865 1866 1866 1866 1866 1866 1866 1866 1866 1866 1867 1867 1867 1867 1867 1868 1868 1869 1870 1870 1870 1870 1870 1870 1870 1870 1870 1871 1871 1871 1873 1873 1874 1874 1875 1876 1877 1879 1880 1881 1883 1885 1887 1888 1891 1893 1897 1900 1903 1907 1911 1916 1918 1923 1926 1936 1942 1948 1956 1963 1967 1973 1976 1976 1984 1984 1984 0 0 0 0 0 0 0 0 0 0 0 0 0 0 0 0 0 0 0 0 0 0 0 0 0 0 0 0 0 0 0 0 0 0 0 0 0 0 0 0 0 0 0 0 0 0 0 0 0 0 0 0 0 0 0 0 0 0 0 0 0 0 0 0 0 0 0 0 0 0 0 0 0 0 0 0 0 0 0 0 0 0 0 0 0 0 0 0 0 0 0 0 0 0 0 0 0 0 0 0 0 0 0 0 0 0 0 0 0 0 0 0 0 0 0 0 0 0 0 0 0 0 0 0 0 0 0 0 0 0 1188 1170 1170 1161 1154 1136 1105 1080 1068 1068
0 0 0 0 0 0 0 0 2523 2549 2614 2691 2765 2807 2807 2807 2788 2770 2741 2690 2648 2648 2648 2694 2827 2884 2974 2974 2974 2969 2969 2969 2969 2969 2951 2868 2867 2712 2595 0 0 0 0 0 0 0 0 0 0 0 0 0 0 0 0 0 0 0 0 0 0 0 0 0 0 0 0 0 0 0 0 0 0 0 0 0 0 0 0 0 0 0 0 0 0 0 0 0 0 0 0 0 0 0 0 0 0 0 0 0 0 0 0 0 0 0 0 0 0 0 0 0 0 0 0 0 0 0 0 0 0 0 0 0 0 0 0 0 0 0 0 0 0 0 0 0 0 0 0 0 0 0 0 0 0 0 0 0 0 0 0 0 0 0 0 0 0 0 0 0 0 0 0 0 0 0 2495 2541 2629 2715 2787 2828 2828 2828 2803 2792 2729 2651 2602 2537 2537 2537 2649 2757 2851 2933 3044 3097 3097 3097 3097 3097 3096 3096 3096 3058 3057 3057 3042 3042 3034 3004 2987 2987 2983 2980 2980 2953 2904 2839 2753 2695 2614 2614 2614 2683 2830 2851 2978 3117 3242 3299 3317 3317 3317 3262 3135 3135 3135 3149 3149 3149 3099 3002 2940 2914 2830 0 0 0 0 2132 2110 2106 2099 2090 2083 2074 2067 2060 2051 2045 2041 2035 2031 2027 2025 2021 2018 2015 2012 2009 2007 2003 2001 1997 1994 1990 1987 1985 1982 1981 1980 1978 1977 1974 1972 1970 1968 1965 1964 1962 1961 1959 1958 1955 1954 1952 1950 1948 1946 1944 1943 1941 1940 1938 1936 1934 1933 1931 1929 1928 1926 1924 1923 1921 1918 1915 1913 1912 1910 1908 1906 1904 1902 1901 1899 1899 1897 1895 1894 1891 1890 1887 1885 1883 1881 1879 1877 1876 1875 1874 1871 1870 1869 1868 1866 1864 1863 1862 1860 1860 1859 1857 1856 1855 1854 1854 1854 1854 1854 1854 1854 1853 1853 1853 1853 1854 1854 1854 1855 1855 1857 1859 1860 1862 1864 1864 1865 1867 1869 1870 1870 1871 1873 1873 1873 1873 1872 1871 1871 1871 1871 1871 1871 1871 1871 1870 1869 1868 1868 1868 1868 1869 1870 1870 1870 1870 1870 1870 1871 1871 1873 1874 1875 1875 1875 1874 1873 1872 1872 1872 1872 1871 1869 1868 1868 1868 1869 1869 1869 1869 1869 1868 1866 1866 1866 1867 1867 1867 1866 1866 1866 1866 1866 1867 1867 1867 1866 1866 1866 1866 1866 1867 1867 1867 1867 1867 1868 1868 1868 1868 1868 1868 1868 1868 1869 1869 1869 1869 1870 1870 1871 1871 1872 1873 1874 1875 1876 1877 1879 1880 1881 1883 1885 1886 1888 1891 1893 1897 1901 1906 1907 1911 1914 1918 1924 1929 1938 1942 1948 1956 1965 1971 1976 1979 1984 1987 1987 1987 0 0 0 0 0 0 0 0 0 0 0 0 0 0 0 0 0 0 0 0 0 0 0 0 0 0 0 0 0 0 0 0 0 0 0 0 0 0 0 0 0 0 0 0 0 0 0 0 0 0 0 0 0 0 0 0 0 0 0 0 0 0 0 0 0 0 0 0 0 0 0 0 0 0 0 0 0 0 0 0 0 0 0 0 0 0 0 0 0 0 0 0 0 0 0 0 0 0 0 0 0 0 0 0 0 0 0 0 0 0 0 0 0 0 0 0 0 0 0 0 0 0 0 0 0 0 0 0 0 1196 1196 1183 1166 1157 1152 1128 1101 1080 1068 1068
0 0 0 0 0 0 0 0 0 2536 2614 2692 2765 2807 2807 2807 2806 2770 2736 2661 2612 2612 2612 2628 2737 2882 2974 2974 2974 2961 2961 2961 2961 2961 2928 2868 2866 2712 2595 0 0 0 0 0 0 0 0 0 0 0 0 0 0 0 0 0 0 0 0 0 0 0 0 0 0 0 0 0 0 0 0 0 0 0 0 0 0 0 0 0 0 0 0 0 0 0 0 0 0 0 0 0 0 0 0 0 0 0 0 0 0 0 0 0 0 0 0 0 0 0 0 0 0 0 0 0 0 0 0 0 0 0 0 0 0 0 0 0 0 0 0 0 0 0 0 0 0 0 0 0 0 0 0 0 0 0 0 0 0 0 0 0 0 0 0 0 0 0 0 0 0 0 0 0 0 0 2495 2541 2629 2723 2800 2828 2828 2828 2806 2774 2728 2651 2595 2537 2537 2537 2617 2709 2778 2849 2924 2993 3026 3027 3029 3029 3029 3029 3027 2998 2998 2998 3011 3011 3011 3001 2978 2978 2978 2977 2950 2909 2835 2776 2719 2625 2578 2578 2578 2683 2799 2869 2978 3117 3242 3299 3317 3317 3317 3262 3074 2974 2970 2955 2955 2963 2955 2946 2940 2914 2830 0 0 0 2158 2126 2108 2106 2098 2090 2083 2074 2065 2056 2048 2045 2042 2036 2031 2028 2025 2021 2018 2015 2011 2009 2006 2003 2001 1997 1994 1990 1987 1984 1982 1981 1979 1978 1977 1974 1972 1970 1968 1965 1963 1962 1960 1959 1957 1955 1953 1951 1948 1947 1944 1943 1942 1940 1939 1937 1936 1934 1933 1931 1929 1928 1926 1924 1922 1921 1918 1915 1913 1912 1910 1908 1906 1904 1902 1901 1900 1899 1897 1895 1895 1893 1890 1888 1886 1884 1881 1879 1878 1877 1875 1874 1872 1871 1870 1869 1867 1866 1864 1862 1861 1861 1860 1858 1857 1857 1857 1856 1855 1855 1855 1855 1855 1855 1855 1855 1855 1855 1856 1856 1857 1858 1858 1860 1861 1863 1865 1867 1867 1870 1872 1873 1873 1874 1874 1874 1874 1874 1874 1874 1873 1872 1872 1872 1872 1872 1872 1872 1872 1871 1871 1871 1871 1871 1871 1871 1871 1871 1871 1871 1872 1873 1875 1876 1877 1877 1877 1876 1875 1874 1874 1873 1873 1871 1870 1870 1870 1870 1870 1870 1870 1870 1870 1869 1869 1869 1869 1869 1869 1869 1868 1867 1866 1866 1866 1867 1867 1867 1866 1866 1866 1866 1866 1867 1867 1867 1867 1867 1867 1867 1867 1867 1868 1868 1868 1868 1868 1868 1868 1868 1868 1868 1869 1870 1870 1873 1873 1874 1876 1877 1878 1880 1881 1883 1885 1887 1889 1892 1896 1897 1901 1906 1907 1911 1913 1918 1925 1932 1938 1942 1948 1956 1965 1972 1976 1979 1986 1992 1992 1992 0 0 0 0 0 0 0 0 0 0 0 0 0 0 0 0 0 0 0 0 0 0 0 0 0 0 0 0 0 0 0 0 0 0 0 0 0 0 0 0 0 0 0 0 0 0 0 0 0 0 0 0 0 0 0 0 0 0 0 0 0 0 0 0 0 0 0 0 0 0 0 0 0 0 0 0 0 0 0 0 0 0 0 0 0 0 0 0 0 0 0 0 0 0 0 0 0 0 0 0 0 0 0 0 0 0 0 0 0 0 0 0 0 0 0 0 0 0 0 0 0 0 0 0 0 0 0 0 0 1196 1196 1183 1160 1154 1143 1117 1099 1080 1068 1068
0 0 0 0 0 0 0 0 0 2525 2614 2692 2765 2807 2811 2811 2811 2770 2730 2650 2612 2612 2612 2624 2711 2858 2924 2924 2924 2897 2893 2887 2887 2886 2825 2824 2824 2712 0 0 0 0 0 0 0 0 0 0 0 0 0 0 0 0 0 0 0 0 0 0 0 0 0 0 0 0 0 0 0 0 0 0 0 0 0 0 0 0 0 0 0 0 0 0 0 0 0 0 0 0 0 0 0 0 0 0 0 0 0 0 0 0 0 0 0 0 0 0 0 0 0 0 0 0 0 0 0 0 0 0 0 0 0 0 0 0 0 0 0 0 0 0 0 0 0 0 0 0 0 0 0 0 0 0 0 0 0 0 0 0 0 0 0 0 0 0 0 0 0 0 0 0 0 0 2575 2601 2606 2607 2636 2723 2800 2828 2828 2828 2806 2774 2722 2650 2588 2537 2537 2537 2613 2692 2744 2788 2827 2893 2907 2916 2917 2932 2944 2944 2944 2932 2932 2932 2946 2946 2946 2930 2928 2922 2921 2916 2896 2847 2783 2714 2635 2582 2582 2582 2606 2714 2799 2869 2978 3117 3215 3218 3218 3215 3209 3083 2958 2919 2897 2859 2802 2785 2762 2734 2693 2655 0 0 0 2170 2151 2126 2103 2103 2095 2090 2080 2071 2061 2055 2048 2045 2042 2038 2032 2028 2025 2021 2018 2015 2011 2009 2006 2003 2000 1997 1994 1990 1987 1984 1982 1980 1978 1977 1976 1973 1972 1970 1967 1965 1963 1961 1960 1958 1956 1953 1952 1950 1948 1945 1943 1942 1940 1939 1938 1937 1936 1934 1933 1931 1929 1927 1925 1922 1920 1919 1917 1915 1913 1912 1909 1908 1906 1904 1903 1902 1900 1899 1897 1897 1895 1893 1891 1889 1886 1884 1882 1880 1879 1877 1876 1874 1873 1872 1870 1870 1868 1866 1865 1864 1863 1861 1861 1859 1858 1858 1858 1857 1857 1856 1856 1856 1856 1856 1856 1856 1856 1857 1857 1857 1858 1859 1860 1862 1864 1865 1866 1868 1870 1873 1873 1875 1876 1876 1876 1876 1876 1876 1875 1875 1875 1874 1874 1874 1874 1874 1874 1874 1874 1874 1873 1873 1873 1873 1873 1873 1873 1873 1873 1873 1873 1876 1877 1878 1878 1878 1878 1878 1877 1877 1877 1875 1874 1873 1873 1873 1873 1873 1872 1872 1871 1871 1871 1870 1869 1869 1869 1869 1869 1869 1868 1868 1867 1867 1867 1867 1867 1867 1866 1866 1866 1866 1865 1865 1865 1865 1866 1866 1866 1866 1866 1866 1866 1866 1867 1867 1867 1867 1867 1867 1867 1868 1869 1869 1870 1870 1872 1873 1874 1876 1877 1879 1880 1883 1885 1887 1890 1893 1896 1897 1901 1906 1907 1908 1913 1918 1927 1933 1941 1944 1948 1954 1965 1972 1976 1979 1989 1992 1992 1992 0 0 0 0 0 0 0 0 0 0 0 0 0 0 0 0 0 0 0 0 0 0 0 0 0 0 0 0 0 0 0 0 0 0 0 0 0 0 0 0 0 0 0 0 0 0 0 0 0 0 0 0 0 0 0 0 0 0 0 0 0 0 0 0 0 0 0 0 0 0 0 0 0 0 0 0 0 0 0 0 0 0 0 0 0 0 0 0 0 0 0 0 0 0 0 0 0 0 0 0 0 0 0 0 0 0 0 0 0 0 0 0 0 0 0 0 0 0 0 0 0 0 0 0 0 0 0 0 0 1188 1188 1183 1160 1154 1131 1113 1099 1084 1070 1070
0 0 0 0 0 0 0 0 0 0 2541 2692 2746 2785 2811 2811 2811 2770 2702 2619 2595 2595 2595 2615 2709 2849 2924 2924 2924 2736 2725 2690 2657 2636 2594 2504 0 0 0 0 0 0 0 0 0 0 0 0 0 0 0 0 0 0 0 0 0 0 0 0 0 0 0 0 0 0 0 0 0 0 0 0 0 0 0 0 0 0 0 0 0 0 0 0 0 0 0 0 0 0 0 0 0 0 0 0 0 0 0 0 0 0 0 0 0 0 0 0 0 0 0 0 0 0 0 0 0 0 0 0 0 0 0 0 0 0 0 0 0 0 0 0 0 0 0 0 0 0 0 0 0 0 0 0 0 0 0 0 0 0 0 0 0 0 0 0 0 0 0 0 0 0 0 2541 2575 2601 2606 2607 2636 2723 2800 2827 2827 2827 2806 2774 2722 2650 2588 2566 2566 2566 2612 2680 2716 2732 2750 2791 2799 2799 2810 2810 2815 2849 2851 2851 2856 2854 2854 2854 2846 2846 2844 2845 2845 2844 2825 2788 2730 2637 2590 2590 2590 2609 2681 2714 2799 2869 2917 2981 3043 3080 3080 3080 3070 3014 2958 2919 2897 2859 2802 2785 2751 2661 2578 0 0 0 2186 2168 2151 2126 2103 2096 2094 2087 2077 2065 2060 2055 2048 2045 2042 2038 2034 2030 2026 2022 2018 2014 2011 2008 2005 2002 2000 1996 1992 1990 1987 1984 1982 1980 1978 1977 1975 1973 1972 1970 1967 1965 1963 1961 1959 1958 1955 1953 1950 1949 1948 1945 1943 1941 1939 1938 1937 1936 1935 1934 1932 1931 1929 1926 1923 1921 1919 1918 1915 1914 1913 1910 1909 1907 1906 1904 1903 1902 1901 1900 1898 1897 1895 1894 1892 1889 1888 1885 1883 1882 1880 1878 1878 1875 1874 1873 1872 1870 1869 1867 1866 1864 1864 1863 1863 1861 1860 1860 1859 1859 1858 1858 1857 1857 1857 1857 1857 1858 1858 1858 1859 1859 1859 1860 1861 1863 1865 1867 1869 1871 1872 1876 1877 1877 1878 1878 1878 1878 1878 1878 1878 1877 1877 1876 1875 1875 1875 1875 1876 1876 1876 1876 1876 1876 1875 1875 1875 1875 1875 1875 1875 1875 1876 1878 1879 1879 1880 1880 1880 1880 1880 1880 1880 1880 1879 1878 1876 1876 1875 1874 1874 1873 1872 1872 1871 1870 1869 1869 1869 1869 1869 1869 1868 1868 1867 1866 1866 1866 1866 1866 1866 1866 1866 1865 1865 1865 1865 1865 1865 1865 1865 1865 1865 1865 1865 1865 1865 1865 1866 1866 1866 1866 1866 1866 1867 1868 1869 1869 1871 1871 1873 1876 1877 1879 1880 1883 1885 1887 1891 1893 1896 1898 1900 1903 1904 1907 1913 1920 1929 1936 1941 1946 1948 1953 1964 1972 1976 1980 1990 1992 1992 1992 0 0 0 0 0 0 0 0 0 0 0 0 0 0 0 0 0 0 0 0 0 0 0 0 0 0 0 0 0 0 0 0 0 0 0 0 0 0 0 0 0 0 0 0 0 0 0 0 0 0 0 0 0 0 0 0 0 0 0 0 0 0 0 0 0 0 0 0 0 0 0 0 0 0 0 0 0 0 0 0 0 0 0 0 0 0 0 0 0 0 0 0 0 0 0 0 0 0 0 0 0 0 0 0 0 0 0 0 0 0 0 0 0 0 0 0 0 0 0 0 0 0 0 0 0 0 0 0 1184 1184 1184 1164 1157 1137 1123 1111 1099 1088 1077 1077
0 0 0 0 0 0 0 0 0 0 0 2633 2690 2745 2789 2789 2789 2765 2676 2605 2595 2595 2595 2597 2706 2761 2775 2775 2775 2735 2521 2512 0 0 0 0 0 0 0 0 0 0 0 0 0 0 0 0 0 0 0 0 0 0 0 0 0 0 0 0 0 0 0 0 0 0 0 0 0 0 0 0 0 0 0 0 0 0 0 0 0 0 0 0 0 0 0 0 0 0 0 0 0 0 0 0 0 0 0 0 0 0 0 0 0 0 0 0 0 0 0 0 0 0 0 0 0 0 0 0 0 0 0 0 0 0 0 0 0 0 0 0 0 0 0 0 0 0 0 0 0 0 0 0 0 0 0 0 0 0 0 0 0 0 0 0 0 0 0 0 0 0 0 2541 2575 2601 2606 2607 2636 2690 2738 2750 2759 2759 2758 2758 2713 2651 2588 2583 2583 2583 2612 2654 2666 2671 2680 2685 2702 2702 2710 2710 2722 2763 2773 2777 2777 2776 2776 2758 2758 2758 2763 2763 2763 2752 2731 2699 2679 2637 2592 2592 2592 2643 2697 2742 2745 2748 2765 2846 2910 2950 2980 3010 3010 3010 2958 2927 2897 2859 2802 2785 2751 2623 0 0 0 2209 2185 2167 2151 2127 2103 2096 2089 2079 2070 2064 2057 2055 2051 2048 2042 2038 2034 2031 2028 2024 2018 2014 2011 2008 2005 2002 1999 1996 1992 1990 1987 1984 1982 1980 1978 1977 1975 1973 1971 1969 1967 1965 1963 1961 1959 1957 1954 1952 1949 1948 1947 1944 1943 1939 1938 1936 1935 1935 1934 1933 1931 1929 1927 1924 1921 1919 1917 1916 1914 1913 1912 1910 1909 1907 1906 1904 1903 1902 1901 1900 1899 1897 1895 1894 1892 1890 1888 1886 1884 1882 1881 1879 1878 1877 1876 1875 1873 1871 1869 1868 1867 1866 1865 1864 1864 1862 1862 1861 1861 1860 1859 1859 1859 1858 1858 1858 1859 1859 1859 1859 1860 1860 1861 1862 1863 1865 1867 1868 1870 1872 1874 1877 1878 1880 1880 1880 1880 1881 1881 1881 1880 1879 1878 1878 1877 1877 1877 1877 1877 1877 1877 1877 1877 1877 1877 1877 1876 1876 1876 1876 1877 1877 1878 1879 1882 1883 1884 1884 1884 1884 1884 1884 1883 1883 1882 1880 1878 1878 1876 1875 1874 1874 1872 1872 1871 1870 1869 1869 1869 1869 1869 1868 1868 1867 1867 1866 1866 1866 1866 1865 1865 1865 1865 1865 1864 1864 1864 1864 1864 1864 1864 1864 1864 1864 1864 1864 1864 1864 1864 1864 1864 1864 1865 1865 1865 1866 1867 1868 1869 1870 1871 1874 1876 1879 1880 1883 1885 1887 1891 1893 1896 1898 1900 1903 1904 1907 1914 1923 1930 1937 1942 1946 1948 1953 1963 1971 1972 1980 1990 1990 1990 1988 0 0 0 0 0 0 0 0 0 0 0 0 0 0 0 0 0 0 0 0 0 0 0 0 0 0 0 0 0 0 0 0 0 0 0 0 0 0 0 0 0 0 0 0 0 0 0 0 0 0 0 0 0 0 0 0 0 0 0 0 0 0 0 0 0 0 0 0 0 0 0 0 0 0 0 0 0 0 0 0 0 0 0 0 0 0 0 0 0 0 0 0 0 0 0 0 0 0 0 0 0 0 0 0 0 0 0 0 0 0 0 0 0 0 0 0 0 0 0 0 0 0 0 0 0 0 0 0 1172 1172 1164 1135 1132 1123 1119 1110 1099 1089 1081 1081
0 0 0 0 0 0 0 0 0 0 0 0 2581 2708 2730 2730 2730 2700 2594 2549 0 0 0 2576 2579 2678 2678 2678 2625 2546 2509 0 0 0 0 0 0 0 0 0 0 0 0 0 0 0 0 0 0 0 0 0 0 0 0 0 0 0 0 0 0 0 0 0 0 0 0 0 0 0 0 0 0 0 0 0 0 0 0 0 0 0 0 0 0 0 0 0 0 0 0 0 0 0 0 0 0 0 0 0 0 0 0 0 0 0 0 0 0 0 0 0 0 0 0 0 0 0 0 0 0 0 0 0 0 0 0 0 0 0 0 0 0 0 0 0 0 0 0 0 0 0 0 0 0 0 0 0 0 0 0 0 0 0 0 0 0 0 0 0 0 0 0 2529 2549 2558 2566 2582 2622 2664 2693 2704 2707 2723 2723 2723 2710 2656 2612 2591 2591 2591 2612 2645 2662 2662 2662 2645 2635 2627 2618 2618 2618 2634 2641 2659 2665 2679 2680 2680 2680 2680 2690 2695 2696 2699 2699 2699 2679 2637 2627 2627 2627 2673 2700 2742 2745 2748 2765 2844 2857 2924 2980 3010 3010 3010 2987 2951 2938 2922 2858 2843 2751 2623 0 0 2207 2202 2181 2166 2149 2127 2105 2096 2085 2075 2070 2063 2057 2055 2052 2048 2043 2038 2034 2031 2028 2024 2019 2014 2011 2008 2005 2002 1999 1996 1992 1990 1987 1984 1983 1981 1979 1977 1975 1973 1971 1969 1967 1965 1963 1961 1958 1956 1953 1951 1949 1947 1945 1942 1941 1939 1937 1936 1935 1934 1933 1932 1929 1927 1925 1922 1919 1918 1917 1915 1914 1913 1912 1910 1909 1907 1906 1904 1903 1902 1901 1900 1899 1897 1895 1894 1892 1890 1888 1886 1885 1883 1882 1881 1880 1878 1878 1877 1874 1873 1871 1870 1868 1868 1866 1866 1864 1863 1863 1861 1861 1860 1860 1860 1860 1860 1860 1860 1860 1860 1861 1861 1861 1862 1863 1864 1864 1866 1867 1869 1871 1874 1874 1878 1880 1882 1883 1883 1883 1883 1883 1882 1881 1880 1879 1879 1879 1879 1879 1879 1879 1879 1879 1879 1879 1879 1878 1878 1878 1877 1877 1877 1879 1879 1880 1882 1884 1886 1886 1886 1886 1885 1885 1885 1885 1884 1884 1883 1880 1878 1876 1875 1874 1874 1872 1872 1871 1870 1869 1869 1869 1869 1869 1867 1867 1867 1866 1866 1866 1865 1865 1865 1864 1864 1864 1864 1863 1863 1863 1863 1863 1863 1863 1863 1863 1862 1862 1862 1862 1862 1863 1863 1863 1863 1863 1863 1863 1865 1866 1867 1869 1870 1871 1873 1876 1878 1880 1883 1885 1888 1891 1893 1896 1898 1900 1903 1904 1907 1914 1924 1931 1938 1943 1947 1948 1953 1962 1969 1972 1980 1991 1991 1991 1968 0 0 0 0 0 0 0 0 0 0 0 0 0 0 0 0 0 0 0 0 0 0 0 0 0 0 0 0 0 0 0 0 0 0 0 0 0 0 0 0 0 0 0 0 0 0 0 0 0 0 0 0 0 0 0 0 0 0 0 0 0 0 0 0 0 0 0 0 0 0 0 0 0 0 0 0 0 0 0 0 0 0 0 0 0 0 0 0 0 0 0 0 0 0 0 0 0 0 0 0 0 0 0 0 0 0 0 0 0 0 0 0 0 0 0 0 0 0 0 0 0 0 0 0 0 0 0 1167 1167 1160 1139 1125 1121 1119 1116 1108 1099 1091 1081 1081
0 0 0 0 0 0 0 0 0 0 0 0 0 2637 2706 2706 2706 2602 2591 0 0 0 0 0 0 0 0 0 0 0 0 0 0 0 0 0 0 0 0 0 0 0 0 0 0 0 0 0 0 0 0 0 0 0 0 0 0 0 0 0 0 0 0 0 0 0 0 0 0 0 0 0 0 0 0 0 0 0 0 0 0 0 0 0 0 0 0 0 0 0 0 0 0 0 0 0 0 0 0 0 0 0 0 0 0 0 0 0 0 0 0 0 0 0 0 0 0 0 0 0 0 0 0 0 0 0 0 0 0 0 0 0 0 0 0 0 0 0 0 0 0 0 0 0 0 0 0 0 0 0 0 0 0 0 0 0 0 0 0 0 0 0 2491 2524 2545 2547 2559 2577 2617 2662 2682 2684 2695 2718 2718 2718 2710 2664 2629 2599 2599 2599 2612 2645 2662 2662 2662 2645 2635 2596 2566 2566 2554 2554 2566 2573 2583 2625 2634 2644 2644 2644 2675 2690 2695 2699 2699 2699 2679 2666 2666 2666 2683 2717 2742 2745 2748 2748 2765 2844 2857 2924 2980 3014 3014 3014 3005 3002 2995 2992 2962 2908 2796 2623 0 0 2190 2177 2169 2154 2139 2127 2112 2097 2084 2075 2070 2063 2059 2055 2052 2048 2043 2038 2034 2031 2028 2024 2019 2014 2011 2008 2005 2002 1999 1996 1992 1991 1988 1985 1983 1981 1979 1977 1975 1973 1971 1969 1967 1965 1962 1960 1958 1955 1953 1950 1948 1946 1943 1941 1939 1938 1936 1936 1934 1933 1932 1929 1928 1926 1924 1922 1919 1917 1915 1913 1913 1911 1909 1909 1907 1906 1906 1904 1903 1902 1901 1900 1899 1897 1896 1894 1892 1890 1889 1887 1885 1883 1882 1881 1880 1879 1878 1877 1876 1874 1871 1870 1870 1868 1868 1866 1865 1863 1863 1861 1861 1861 1862 1862 1862 1861 1861 1861 1861 1861 1861 1862 1862 1863 1863 1865 1866 1868 1870 1870 1873 1875 1877 1879 1883 1884 1884 1884 1884 1884 1884 1884 1883 1882 1881 1881 1881 1881 1881 1881 1881 1882 1882 1881 1881 1881 1881 1880 1880 1880 1880 1880 1881 1883 1884 1885 1886 1887 1887 1887 1887 1887 1886 1885 1885 1885 1884 1883 1881 1879 1877 1875 1874 1874 1872 1872 1871 1870 1869 1868 1868 1868 1867 1867 1866 1866 1865 1864 1864 1864 1863 1863 1863 1862 1862 1862 1861 1861 1861 1861 1861 1861 1861 1861 1861 1860 1860 1860 1859 1859 1860 1861 1861 1861 1862 1862 1863 1864 1866 1867 1869 1869 1871 1873 1875 1878 1880 1883 1886 1889 1891 1893 1896 1898 1901 1903 1905 1910 1918 1926 1932 1938 1943 1948 1949 1954 1962 1968 1971 1980 1982 1982 1982 0 0 0 0 0 0 0 0 0 0 0 0 0 0 0 0 0 0 0 0 0 0 0 0 0 0 0 0 0 0 0 0 0 0 0 0 0 0 0 0 0 0 0 0 0 0 0 0 0 0 0 0 0 0 0 0 0 0 0 0 0 0 0 0 0 0 0 0 0 0 0 0 0 0 0 0 0 0 0 0 0 0 0 0 0 0 0 0 0 0 0 0 0 0 0 0 0 0 0 0 0 0 0 0 0 0 0 0 0 0 0 0 0 0 0 0 0 0 0 0 0 0 0 0 0 0 0 0 1166 1166 1151 1126 1118 1115 1113 1111 1106 1098 1091 1081 1081
0 0 0 0 0 0 0 0 0 0 0 0 0 0 0 0 0 0 0 0 0 0 0 0 0 0 0 0 0 0 0 0 0 0 0 0 0 0 0 0 0 0 0 0 0 0 0 0 0 0 0 0 0 0 0 0 0 0 0 0 0 0 0 0 0 0 0 0 0 0 0 0 0 0 0 0 0 0 0 0 0 0 0 0 0 0 0 0 0 0 0 0 0 0 0 0 0 0 0 0 0 0 0 0 0 0 0 0 0 0 0 0 0 0 0 0 0 0 0 0 0 0 0 0 0 0 0 0 0 0 0 0 0 0 0 0 0 0 0 0 0 0 0 0 0 0 0 0 0 0 0 0 0 0 0 0 0 0 0 0 0 0 2488 2509 2527 2541 2547 2576 2611 2650 2681 2682 2692 2715 2715 2715 2710 2674 2641 2618 2618 2618 2621 2639 2662 2662 2662 2645 2635 2596 2566 2566 2554 2554 2566 2573 2583 2625 2634 2644 2644 2644 2675 2690 2695 2708 2748 2748 2748 2741 2741 2741 2763 2799 2828 2845 2845 2845 2845 2845 2857 2924 2988 3018 3024 3029 3035 3035 3035 3035 3032 2971 2829 2628 0 0 2184 2165 2149 2140 2131 2124 2112 2097 2083 2074 2070 2062 2057 2055 2052 2048 2043 2038 2034 2031 2028 2024 2019 2015 2011 2008 2005 2002 1999 1996 1993 1991 1989 1985 1983 1981 1979 1977 1975 1973 1971 1969 1967 1964 1962 1960 1958 1955 1953 1950 1948 1946 1943 1941 1939 1938 1936 1935 1934 1932 1930 1928 1926 1924 1923 1920 1918 1917 1914 1913 1912 1910 1909 1907 1906 1905 1905 1904 1903 1902 1901 1900 1898 1897 1896 1894 1893 1890 1889 1887 1885 1884 1883 1881 1880 1879 1878 1877 1876 1874 1873 1872 1870 1870 1868 1868 1867 1865 1864 1863 1863 1863 1863 1863 1864 1864 1864 1863 1863 1863 1863 1863 1863 1864 1866 1867 1869 1871 1872 1873 1875 1879 1880 1882 1883 1885 1885 1885 1885 1885 1885 1885 1885 1883 1883 1883 1883 1883 1883 1883 1883 1883 1883 1883 1883 1882 1882 1882 1882 1882 1883 1884 1884 1885 1885 1886 1886 1887 1888 1888 1888 1888 1887 1886 1885 1885 1884 1883 1881 1879 1877 1876 1875 1874 1872 1872 1870 1870 1869 1868 1867 1867 1866 1866 1865 1864 1863 1862 1862 1862 1862 1861 1861 1861 1860 1860 1860 1859 1859 1859 1859 1858 1859 1858 1858 1858 1858 1858 1857 1857 1858 1859 1859 1860 1861 1861 1862 1864 1866 1867 1869 1869 1871 1873 1875 1878 1881 1883 1886 1889 1891 1893 1896 1899 1902 1903 1909 1917 1923 1928 1932 1938 1944 1951 1953 1958 1964 1968 1971 1980 1982 1982 1982 0 0 0 0 0 0 0 0 0 0 0 0 0 0 0 0 0 0 0 0 0 0 0 0 0 0 0 0 0 0 0 0 0 0 0 0 0 0 0 0 0 0 0 0 0 0 0 0 0 0 0 0 0 0 0 0 0 0 0 0 0 0 0 0 0 0 0 0 0 0 0 0 0 0 0 0 0 0 0 0 0 0 0 0 0 0 0 0 0 0 0 0 0 0 0 0 0 0 0 0 0 0 0 0 0 0 0 0 0 0 0 0 0 0 0 0 0 0 0 0 0 0 0 0 0 0 0 1156 1156 1156 1131 1112 1110 1107 1106 1101 1100 1095 1091 1081 1081
0 0 0 0 0 0 0 0 0 0 0 0 0 0 0 0 0 0 0 0 0 0 0 0 0 0 0 0 0 0 0 0 0 0 0 0 0 0 0 0 0 0 0 0 0 0 0 0 0 0 0 0 0 0 0 0 0 0 2542 2623 2718 2829 2860 2860 2860 2758 0 0 0 0 0 0 0 0 0 0 0 0 0 0 0 0 0 0 0 0 0 0 0 0 0 0 0 0 0 0 0 0 0 0 0 0 0 0 0 0 0 0 0 0 0 0 0 0 0 0 0 0 0 0 0 0 0 0 0 0 0 0 0 0 0 0 0 0 0 0 0 0 0 0 0 0 0 0 0 0 0 0 0 0 0 0 0 0 0 0 0 0 0 0 0 0 2462 2494 2511 2529 2535 2566 2611 2650 2680 2682 2691 2713 2713 2713 2710 2683 2657 2638 2637 2637 2637 2645 2663 2674 2674 2674 2636 2596 2566 2566 2554 2554 2566 2573 2583 2625 2634 2644 2644 2644 2675 2723 2781 2816 2848 2876 2876 2876 2864 2864 2864 2888 2933 2962 2962 2962 2962 2962 2981 3041 3068 3095 3096 3098 3127 3134 3134 3134 3078 2971 2849 2655 0 0 2182 2145 2136 2134 2131 2123 2112 2097 2083 2074 2067 2061 2057 2055 2052 2048 2043 2038 2034 2031 2028 2023 2019 2015 2011 2008 2005 2002 1999 1996 1994 1991 1989 1985 1983 1981 1979 1978 1975 1973 1971 1969 1966 1964 1962 1960 1957 1955 1952 1950 1947 1945 1943 1940 1939 1937 1936 1934 1932 1931 1929 1927 1924 1922 1921 1918 1917 1915 1914 1912 1911 1910 1909 1907 1906 1905 1904 1904 1903 1902 1901 1899 1898 1897 1896 1895 1893 1891 1890 1888 1886 1885 1883 1882 1881 1880 1878 1877 1876 1874 1874 1873 1871 1870 1869 1869 1868 1867 1866 1865 1865 1865 1865 1865 1866 1866 1866 1866 1865 1865 1865 1865 1866 1867 1867 1869 1870 1872 1874 1875 1877 1880 1883 1884 1886 1886 1886 1887 1887 1887 1887 1887 1887 1886 1884 1884 1884 1884 1884 1884 1885 1885 1885 1885 1885 1885 1885 1885 1885 1885 1885 1885 1885 1885 1886 1887 1887 1888 1888 1888 1888 1888 1888 1887 1885 1885 1884 1883 1881 1879 1877 1876 1875 1874 1872 1871 1870 1869 1868 1867 1866 1865 1865 1864 1864 1863 1862 1861 1861 1861 1860 1860 1859 1859 1858 1858 1858 1858 1858 1857 1857 1857 1856 1856 1856 1856 1856 1856 1856 1856 1856 1857 1858 1859 1860 1861 1862 1864 1865 1867 1869 1869 1871 1873 1875 1878 1881 1883 1886 1889 1891 1893 1896 1899 1903 1906 1912 1919 1923 1928 1932 1938 1944 1951 1956 1960 1963 1968 1971 1979 1979 1979 1977 0 0 0 0 0 0 0 0 0 0 0 0 0 0 0 0 0 0 0 0 0 0 0 0 0 0 0 0 0 0 0 0 0 0 0 0 0 0 0 0 0 0 0 0 0 0 0 0 0 0 0 0 0 0 0 0 0 0 0 0 0 0 0 0 0 0 0 0 0 0 0 0 0 0 0 0 0 0 0 0 0 0 0 0 0 0 0 0 0 0 0 0 0 0 0 0 0 0 0 0 0 0 0 0 0 0 0 0 0 0 0 0 0 0 0 0 0 0 0 0 0 0 0 0 0 0 0 1143 1143 1143 1118 1110 1107 1098 1088 1088 1088 1088 1088 1079 1079
0 0 0 0 0 0 0 0 0 0 0 0 0 0 0 0 0 0 0 0 0 0 0 0 0 0 0 0 0 0 0 0 0 0 0 0 0 0 0 0 0 0 0 0 0 0 0 0 0 0 0 0 0 2591 2595 2672 2707 2711 2733 2818 2919 2942 2958 2958 2958 2872 2707 0 0 0 0 0 0 0 0 0 0 0 0 0 0 0 0 0 0 0 0 0 0 0 0 0 0 0 0 0 0 0 0 0 0 0 0 0 0 0 0 0 0 0 0 0 0 0 0 0 0 0 0 0 0 0 0 0 0 0 0 0 0 0 0 0 0 0 0 0 0 0 0 0 0 0 0 0 0 0 0 0 0 0 0 0 0 0 0 0 0 0 0 0 0 0 2456 2489 2493 2529 2535 2566 2611 2650 2680 2683 2692 2713 2713 2713 2710 2686 2658 2645 2645 2645 2645 2648 2675 2679 2701 2701 2701 2637 2637 2637 2639 2639 2639 2639 2639 2673 2711 2719 2723 2731 2780 2849 2887 2914 2941 2975 2986 2986 2997 2998 2998 3093 3108 3113 3113 3108 3105 3100 3095 3095 3095 3112 3121 3123 3127 3134 3134 3134 3078 2971 2849 2655 0 0 2175 2145 2136 2134 2131 2123 2111 2097 2083 2074 2067 2061 2057 2055 2052 2048 2043 2038 2034 2030 2028 2023 2017 2014 2011 2007 2004 2002 1999 1996 1994 1992 1989 1985 1983 1981 1979 1978 1976 1973 1971 1969 1966 1963 1962 1959 1957 1955 1952 1950 1947 1945 1943 1940 1939 1937 1936 1934 1932 1930 1929 1926 1923 1921 1920 1918 1916 1915 1913 1912 1911 1910 1908 1907 1906 1905 1904 1904 1902 1902 1901 1899 1898 1897 1896 1895 1894 1892 1890 1888 1886 1885 1883 1882 1881 1880 1878 1877 1876 1875 1874 1873 1872 1871 1871 1870 1869 1869 1868 1868 1868 1868 1868 1868 1868 1868 1868 1867 1867 1867 1868 1868 1870 1870 1870 1871 1874 1875 1876 1879 1879 1882 1885 1886 1888 1888 1889 1889 1889 1889 1889 1888 1888 1888 1887 1886 1886 1886 1886 1887 1887 1887 1887 1887 1888 1888 1889 1889 1888 1888 1887 1887 1887 1887 1887 1888 1888 1888 1888 1888 1888 1888 1888 1887 1885 1884 1883 1882 1880 1879 1877 1876 1875 1873 1872 1871 1869 1869 1867 1866 1866 1865 1865 1863 1862 1862 1861 1860 1859 1858 1858 1857 1857 1857 1856 1856 1856 1856 1856 1856 1856 1856 1855 1855 1855 1855 1855 1855 1855 1855 1856 1857 1858 1859 1860 1861 1862 1864 1865 1867 1869 1869 1871 1872 1875 1877 1881 1883 1886 1888 1890 1892 1896 1900 1904 1910 1916 1919 1923 1928 1932 1938 1944 1951 1956 1960 1964 1968 1971 1977 1977 1977 1976 0 0 0 0 0 0 0 0 0 0 0 0 0 0 0 0 0 0 0 0 0 0 0 0 0 0 0 0 0 0 0 0 0 0 0 0 0 0 0 0 0 0 0 0 0 0 0 0 0 0 0 0 0 0 0 0 0 0 0 0 0 0 0 0 0 0 0 0 0 0 0 0 0 0 0 0 0 0 0 0 0 0 0 0 0 0 0 0 0 0 0 0 0 0 0 0 0 0 0 0 0 0 0 0 0 0 0 0 0 0 0 0 0 0 0 0 0 0 0 0 0 0 0 0 0 0 0 1136 1136 1136 1117 1108 1099 1079 1072 1072 1072 1072 1072 1069 1069
0 0 0 0 0 0 0 0 0 0 0 0 0 0 0 0 0 0 0 0 0 0 0 0 0 0 0 0 0 0 0 0 0 0 0 0 0 0 0 0 0 0 0 0 0 0 0 0 0 0 0 0 2693 2752 2787 2790 2821 2847 2880 2897 2919 2942 2958 2958 2958 2872 2712 2608 0 0 0 0 0 0 0 0 0 0 0 0 0 0 0 0 0 0 0 0 0 0 0 0 0 0 0 0 0 0 0 0 0 0 0 0 0 0 0 0 0 0 0 0 0 0 0 0 0 0 0 0 0 0 0 0 0 0 0 0 0 0 0 0 0 0 0 0 0 0 0 0 0 0 0 0 0 0 0 0 0 0 0 0 0 0 0 0 0 0 0 0 0 0 0 2489 2493 2529 2535 2566 2613 2661 2680 2687 2692 2716 2727 2727 2727 2688 2658 2656 2655 2655 2655 2659 2675 2704 2750 2750 2750 2743 2743 2743 2746 2766 2766 2768 2775 2789 2835 2870 2897 2934 3010 3039 3062 3071 3072 3075 3076 3081 3085 3088 3093 3104 3108 3113 3113 3108 3105 3100 3095 3095 3095 3112 3121 3123 3127 3134 3134 3134 3078 2962 2849 2628 0 0 2169 2145 2136 2134 2134 2123 2110 2097 2084 2075 2067 2061 2057 2054 2049 2045 2042 2037 2034 2029 2026 2020 2016 2014 2010 2006 2002 2000 1998 1996 1994 1992 1989 1985 1982 1981 1979 1978 1976 1973 1971 1968 1966 1963 1961 1959 1957 1955 1952 1949 1947 1944 1943 1940 1939 1937 1936 1934 1932 1930 1929 1926 1923 1921 1920 1918 1916 1915 1913 1912 1911 1909 1907 1906 1906 1905 1904 1903 1902 1901 1899 1899 1898 1897 1896 1895 1894 1893 1890 1889 1887 1885 1884 1882 1882 1880 1879 1877 1876 1875 1874 1873 1873 1872 1872 1871 1871 1871 1871 1871 1872 1872 1872 1870 1869 1869 1869 1869 1873 1873 1873 1875 1876 1877 1877 1877 1878 1878 1880 1882 1883 1886 1887 1889 1891 1891 1891 1891 1891 1891 1891 1891 1890 1890 1890 1890 1889 1889 1889 1889 1889 1889 1889 1889 1890 1890 1890 1890 1890 1889 1888 1888 1888 1890 1890 1890 1889 1889 1889 1889 1889 1888 1888 1887 1885 1884 1883 1881 1879 1878 1877 1876 1875 1873 1871 1870 1869 1867 1866 1866 1865 1864 1863 1863 1861 1861 1859 1859 1858 1857 1857 1857 1855 1855 1855 1855 1855 1855 1855 1855 1854 1854 1853 1853 1853 1853 1854 1854 1854 1854 1855 1857 1857 1858 1859 1861 1862 1864 1865 1867 1868 1869 1871 1872 1875 1877 1880 1883 1886 1887 1889 1892 1896 1900 1904 1910 1916 1919 1922 1925 1931 1937 1944 1950 1956 1960 1964 1968 1971 1976 1976 1976 1946 0 0 0 0 0 0 0 0 0 0 0 0 0 0 0 0 0 0 0 0 0 0 0 0 0 0 0 0 0 0 0 0 0 0 0 0 0 0 0 0 0 0 0 0 0 0 0 0 0 0 0 0 0 0 0 0 0 0 0 0 0 0 0 0 0 0 0 0 0 0 0 0 0 0 0 0 0 0 0 0 0 0 0 0 0 0 0 0 0 0 0 0 0 0 0 0 0 0 0 0 0 0 0 0 0 0 0 0 0 0 0 0 0 0 0 0 0 0 0 0 0 0 0 0 0 0 1102 1133 1133 1133 1112 1101 1086 1066 1063 1063 1063 1063 1063 1055 1055
1705 1705 0 0 0 0 0 0 0 0 0 0 0 0 0 0 0 0 0 0 0 0 0 0 0 0 0 0 0 0 0 0 0 0 0 0 0 0 0 0 0 0 0 0 0 0 0 0 0 0 0 2696 2776 2810 2815 2819 2829 2847 2880 2897 2919 2942 2958 2958 2958 2872 2712 2608 0 0 0 0 0 0 0 0 0 0 0 0 0 0 0 0 0 0 0 0 0 0 0 0 0 0 0 0 0 0 0 0 0 0 0 0 0 0 0 0 0 0 0 0 0 0 0 0 0 0 0 0 0 0 0 0 0 0 0 0 0 0 0 0 0 0 0 0 0 0 0 0 0 0 0 0 0 0 0 0 0 0 0 0 0 0 0 0 0 0 0 0 0 0 0 2489 2493 2536 2573 2605 2644 2674 2693 2693 2695 2716 2728 2728 2728 2698 2698 2698 2699 2699 2710 2714 2716 2753 2786 2808 2821 2841 2857 2877 2894 2912 2933 2944 2960 2969 2999 3046 3062 3062 3071 3075 3071 3071 3072 3075 3076 3081 3085 3088 3093 3104 3108 3113 3113 3108 3105 3100 3095 3095 3095 3112 3121 3121 3121 3113 3111 3055 2994 2848 2695 2569 0 0 2168 2147 2144 2142 2134 2123 2109 2097 2088 2078 2067 2061 2057 2054 2048 2043 2037 2035 2030 2027 2023 2018 2015 2012 2009 2005 2002 2000 1997 1996 1994 1992 1989 1985 1982 1980 1979 1978 1976 1973 1971 1968 1966 1963 1961 1958 1957 1955 1952 1949 1947 1944 1943 1941 1939 1937 1936 1934 1932 1930 1929 1926 1923 1921 1920 1918 1916 1915 1913 1912 1911 1909 1907 1906 1905 1905 1904 1903 1902 1901 1899 1899 1898 1897 1896 1895 1894 1893 1892 1891 1889 1886 1885 1883 1882 1881 1880 1878 1878 1877 1875 1874 1874 1873 1873 1873 1873 1873 1873 1873 1873 1873 1873 1871 1870 1870 1870 1873 1875 1875 1877 1878 1879 1880 1881 1882 1883 1884 1884 1885 1887 1889 1890 1892 1893 1893 1894 1894 1894 1893 1893 1893 1893 1894 1894 1894 1893 1893 1893 1892 1892 1892 1892 1891 1891 1891 1891 1891 1891 1889 1889 1889 1890 1890 1890 1890 1889 1889 1889 1889 1889 1888 1888 1886 1885 1884 1883 1881 1879 1878 1876 1875 1873 1872 1871 1870 1868 1867 1866 1865 1864 1864 1863 1861 1861 1860 1859 1858 1857 1856 1856 1856 1855 1853 1853 1853 1853 1854 1854 1853 1853 1853 1853 1853 1852 1852 1852 1852 1853 1854 1855 1856 1856 1857 1859 1861 1862 1863 1865 1867 1868 1869 1871 1872 1875 1877 1880 1883 1886 1886 1887 1891 1896 1900 1904 1910 1916 1919 1921 1925 1930 1937 1943 1950 1956 1960 1963 1968 1971 1971 1971 1965 1946 0 0 0 0 0 0 0 0 0 0 0 0 0 0 0 0 0 0 0 0 0 0 0 0 0 0 0 0 0 0 0 0 0 0 0 0 0 0 0 0 0 0 0 0 0 0 0 0 0 0 0 0 0 0 0 0 0 0 0 0 0 0 0 0 0 0 0 0 0 0 0 0 0 0 0 0 0 0 0 0 0 0 0 0 0 0 0 0 0 0 0 0 0 0 0 0 0 0 0 0 0 0 0 0 0 0 0 0 0 0 0 0 0 0 0 0 0 0 0 0 0 0 0 0 0 0 1099 1111 1111 1111 1087 1085 1065 1054 1054 1054 1056 1056 1056 1047 1047
1705 1705 1657 0 0 0 0 0 0 0 0 0 0 0 0 0 0 0 0 0 0 0 0 0 0 0 0 0 0 0 0 0 0 0 0 0 0 0 0 0 0 0 0 0 0 0 0 0 0 0 2658 2728 2776 2810 2815 2819 2829 2847 2880 2897 2902 2938 2938 2938 2914 2818 2712 2555 0 0 0 0 0 0 0 0 0 0 0 0 0 0 0 0 0 0 0 0 0 0 0 0 0 0 0 0 0 0 0 0 0 0 0 0 0 0 0 0 0 0 0 0 0 0 0 0 0 0 0 0 0 0 0 0 0 0 0 0 0 0 0 0 0 0 0 0 0 0 0 0 0 0 0 0 0 0 0 0 0 0 0 0 0 0 0 0 0 0 0 0 0 0 0 2542 2619 2620 2659 2686 2707 2753 2762 2764 2765 2771 2771 2772 2779 2779 2808 2812 2821 2830 2858 2882 2891 2931 2974 2986 3031 3042 3042 3044 3044 3051 3052 3055 3052 3052 3055 3055 3062 3062 3071 3075 3071 3071 3072 3075 3076 3081 3085 3085 3085 3060 3058 3024 2987 2987 2987 2988 2988 2988 2974 2972 2969 2965 2965 2963 2963 2960 2943 2810 2652 0 0 0 2162 2147 2146 2142 2134 2123 2109 2097 2088 2080 2069 2062 2058 2054 2048 2043 2036 2032 2027 2023 2020 2016 2014 2011 2008 2004 2001 1999 1997 1996 1994 1992 1988 1985 1982 1980 1978 1977 1975 1973 1971 1968 1966 1963 1961 1958 1957 1955 1952 1949 1947 1945 1943 1941 1939 1937 1936 1934 1932 1930 1929 1926 1924 1922 1920 1918 1916 1915 1913 1912 1911 1909 1907 1906 1905 1905 1904 1903 1902 1901 1899 1899 1898 1897 1895 1895 1894 1893 1892 1891 1890 1888 1886 1883 1882 1882 1881 1881 1879 1878 1877 1876 1874 1874 1874 1874 1873 1874 1874 1874 1875 1875 1875 1875 1875 1876 1877 1877 1877 1877 1877 1879 1880 1880 1881 1884 1886 1888 1888 1888 1890 1892 1893 1895 1896 1896 1897 1898 1898 1898 1899 1899 1900 1900 1900 1898 1897 1896 1896 1896 1894 1894 1893 1893 1892 1892 1892 1892 1892 1892 1892 1892 1892 1891 1891 1891 1890 1890 1889 1889 1889 1889 1888 1887 1885 1884 1882 1881 1879 1877 1876 1875 1873 1872 1871 1870 1868 1867 1866 1865 1864 1863 1862 1861 1860 1859 1858 1857 1856 1855 1854 1853 1853 1851 1851 1851 1851 1852 1852 1852 1852 1852 1852 1852 1852 1852 1852 1852 1852 1853 1853 1855 1855 1857 1859 1861 1862 1863 1865 1867 1868 1869 1870 1872 1874 1877 1880 1882 1883 1885 1886 1890 1895 1899 1903 1909 1913 1918 1921 1924 1929 1937 1943 1949 1953 1958 1963 1967 1968 1968 1968 1965 1946 0 0 0 0 0 0 0 0 0 0 0 0 0 0 0 0 0 0 0 0 0 0 0 0 0 0 0 0 0 0 0 0 0 0 0 0 0 0 0 0 0 0 0 0 0 0 0 0 0 0 0 0 0 0 0 0 0 0 0 0 0 0 0 0 0 0 0 0 0 0 0 0 0 0 0 0 0 0 0 0 0 0 0 0 0 0 0 0 0 0 0 0 0 0 0 0 0 0 0 0 0 0 0 0 0 0 0 0 0 0 0 0 0 0 0 0 0 0 0 0 0 0 0 0 0 0 1108 1098 1098 1098 1073 1064 1050 1050 1050 1051 1054 1054 1054 1045 1045
1705 1705 1657 0 0 0 0 0 0 0 0 0 0 0 0 0 0 0 0 0 0 0 0 0 0 0 0 0 0 0 0 0 0 0 0 0 0 0 0 0 0 0 0 0 0 0 0 0 0 0 2658 2728 2776 2810 2815 2819 2829 2838 2838 2841 2846 2855 2855 2855 2807 2797 2574 0 0 0 0 0 0 0 0 0 0 0 0 0 0 0 0 0 0 0 0 0 0 0 0 0 0 0 0 0 0 0 0 0 0 0 0 0 0 0 0 0 0 0 0 0 0 0 0 0 0 0 0 0 0 0 0 0 0 0 0 0 0 0 0 0 0 0 0 0 0 0 0 0 0 0 0 0 0 0 0 0 0 0 0 0 0 0 0 0 0 0 0 0 0 0 2547 2658 2726 2728 2764 2782 2812 2859 2888 2917 2917 2920 2934 2944 2953 2955 2970 2979 2986 2987 2993 3018 3033 3041 3044 3051 3062 3062 3062 3056 3056 3051 3052 3055 3052 3052 3055 3055 3062 3062 3062 3061 3022 2997 2971 2952 2952 2952 2969 2972 2972 2972 2938 2922 2913 2913 2913 2945 2950 2950 2950 2935 2920 2914 2914 2913 2913 2913 2868 2755 2620 0 0 0 2155 2147 2146 2142 2129 2117 2107 2097 2088 2080 2072 2064 2059 2054 2048 2043 2036 2032 2025 2022 2019 2015 2012 2010 2007 2004 2000 1999 1997 1995 1994 1991 1988 1985 1982 1980 1978 1976 1975 1973 1971 1968 1966 1963 1961 1958 1957 1955 1952 1949 1947 1945 1943 1941 1939 1938 1936 1935 1933 1931 1929 1927 1926 1923 1922 1919 1918 1916 1913 1912 1911 1909 1908 1906 1906 1906 1905 1903 1902 1901 1901 1899 1898 1897 1895 1895 1895 1894 1893 1892 1891 1890 1888 1886 1884 1883 1883 1883 1883 1881 1879 1878 1877 1876 1875 1874 1874 1875 1876 1876 1877 1879 1879 1880 1880 1880 1881 1881 1881 1882 1882 1884 1886 1888 1890 1890 1891 1892 1893 1893 1894 1895 1896 1899 1900 1900 1900 1900 1902 1903 1903 1903 1903 1903 1902 1901 1899 1899 1897 1897 1896 1896 1896 1895 1895 1895 1895 1894 1894 1893 1893 1893 1892 1892 1891 1891 1891 1891 1890 1890 1889 1889 1888 1887 1885 1884 1883 1881 1879 1877 1876 1875 1873 1872 1871 1870 1868 1867 1866 1865 1864 1863 1862 1861 1859 1857 1857 1856 1855 1854 1853 1852 1851 1851 1850 1850 1850 1850 1850 1850 1850 1851 1851 1850 1850 1851 1851 1851 1851 1852 1853 1854 1855 1856 1858 1860 1862 1863 1865 1867 1868 1869 1870 1872 1874 1876 1879 1881 1883 1883 1886 1889 1893 1899 1902 1907 1911 1916 1920 1924 1929 1936 1943 1949 1953 1958 1960 1964 1968 1968 1968 1958 1950 0 0 0 0 0 0 0 0 0 0 0 0 0 0 0 0 0 0 0 0 0 0 0 0 0 0 0 0 0 0 0 0 0 0 0 0 0 0 0 0 0 0 0 0 0 0 0 0 0 0 0 0 0 0 0 0 0 0 0 0 0 0 0 0 0 0 0 0 0 0 0 0 0 0 0 0 0 0 0 0 0 0 0 0 0 0 0 0 0 0 0 0 0 0 0 0 0 0 0 0 0 0 0 0 0 0 0 0 0 0 0 0 0 0 0 0 0 0 0 0 0 0 0 0 0 1097 1101 1097 1088 1077 1066 1050 1044 1044 1044 1044 1052 1052 1052 1045 1045
1705 1705 1687 0 0 0 0 0 0 0 0 0 0 0 0 0 0 0 0 0 0 0 0 0 0 0 0 0 0 0 0 0 0 0 0 0 0 0 0 0 0 0 0 0 0 0 0 0 0 0 2658 2728 2737 2737 2737 2731 2730 2724 2724 2704 2704 2690 2655 2627 0 0 0 0 0 0 0 0 0 0 0 0 0 0 0 0 0 0 0 0 0 0 0 0 0 0 0 0 0 0 0 0 0 0 0 0 0 0 0 0 0 0 0 0 0 0 0 0 0 0 0 0 0 0 0 0 0 0 0 0 0 0 0 0 0 0 0 0 0 0 0 0 0 0 0 0 0 0 0 0 0 0 0 0 0 0 0 0 0 0 0 0 2545 2546 2571 2613 2643 2700 2804 2874 2916 2921 2931 2935 2936 2940 3016 3032 3042 3051 3051 3051 3048 3046 3046 3042 3045 3046 3046 3045 3045 3048 3048 3051 3063 3063 3063 3056 3056 3051 3056 3057 3063 3063 3063 3061 3055 3053 3024 3012 2997 2986 2971 2952 2932 2932 2932 2928 2928 2928 2911 2894 2882 2882 2882 2895 2895 2895 2887 2864 2845 2832 2829 2820 2816 2796 2761 2703 2534 0 0 2188 2155 2147 2146 2138 2121 2109 2097 2088 2086 2080 2073 2067 2059 2054 2048 2043 2036 2029 2024 2021 2018 2015 2011 2008 2006 2002 2000 1997 1996 1994 1992 1990 1988 1985 1982 1980 1977 1976 1974 1973 1971 1968 1966 1963 1962 1959 1957 1955 1953 1950 1947 1945 1943 1941 1940 1938 1936 1935 1934 1931 1930 1927 1927 1925 1922 1921 1918 1916 1914 1913 1911 1910 1910 1909 1908 1908 1906 1905 1904 1903 1903 1901 1898 1897 1895 1895 1895 1895 1894 1894 1892 1892 1891 1889 1886 1886 1886 1885 1885 1884 1883 1880 1879 1877 1876 1876 1876 1877 1878 1878 1880 1881 1882 1882 1882 1883 1885 1887 1887 1887 1887 1887 1890 1891 1892 1893 1895 1896 1896 1897 1900 1901 1903 1904 1904 1904 1905 1905 1906 1906 1906 1905 1905 1905 1902 1901 1901 1900 1900 1899 1898 1897 1897 1897 1897 1896 1895 1895 1894 1894 1893 1893 1893 1892 1892 1891 1891 1891 1890 1890 1889 1889 1888 1887 1885 1884 1883 1881 1879 1877 1876 1875 1873 1872 1871 1870 1868 1867 1866 1865 1864 1863 1862 1861 1859 1857 1856 1855 1854 1852 1851 1851 1849 1849 1848 1848 1848 1848 1848 1849 1849 1849 1849 1849 1849 1849 1849 1850 1851 1852 1853 1854 1855 1856 1858 1860 1862 1863 1865 1867 1868 1869 1871 1872 1874 1876 1878 1879 1881 1883 1886 1888 1891 1896 1900 1905 1909 1915 1920 1923 1929 1935 1943 1948 1953 1956 1960 1964 1968 1968 1968 1958 1950 0 0 0 0 0 0 0 0 0 0 0 0 0 0 0 0 0 0 0 0 0 0 0 0 0 0 0 0 0 0 0 0 0 0 0 0 0 0 0 0 0 0 0 0 0 0 0 0 0 0 0 0 0 0 0 0 0 0 0 0 0 0 0 0 0 0 0 0 0 0 0 0 0 0 0 0 0 0 0 0 0 0 0 0 0 0 0 0 0 0 0 0 0 0 0 0 0 0 0 0 0 0 0 0 0 0 0 0 0 0 0 0 0 0 0 0 0 0 0 0 0 0 0 0 0 1097 1097 1087 1073 1061 1058 1047 1038 1036 1036 1036 1046 1046 1046 1044 1044
1705 1705 1687 0 0 0 0 0 0 0 0 0 0 0 0 0 0 0 0 0 0 0 0 0 0 0 0 0 0 0 0 0 0 0 0 0 0 0 0 0 0 0 0 0 0 0 0 0 0 0 0 2617 2636 2648 2648 2648 2548 2545 0 0 0 0 0 0 0 0 0 0 0 0 0 0 0 0 0 0 0 0 0 0 0 0 0 0 0 0 0 0 0 0 0 0 0 0 0 0 0 0 0 0 0 0 0 0 0 0 0 0 0 0 0 0 0 0 0 0 0 0 0 0 0 0 0 0 0 0 0 0 0 0 0 0 0 0 0 0 0 0 0 0 0 0 0 0 0 0 0 0 0 0 0 0 0 0 2528 2541 2546 2550 2800 2825 2859 2902 2945 2993 3002 3002 3002 3002 3019 3032 3056 3057 3057 3056 3057 3056 3055 3046 3046 3044 3046 3046 3046 3046 3046 3050 3050 3051 3069 3069 3069 3060 3053 3052 3052 3053 3063 3063 3063 3061 3055 3053 3024 3012 2997 2986 2971 2952 2932 2932 2928 2926 2916 2906 2889 2879 2849 2849 2846 2835 2827 2820 2818 2777 2754 2752 2747 2723 2703 2667 2646 2565 0 0 0 2188 2155 2147 2139 2126 2106 2099 2090 2085 2082 2079 2073 2067 2059 2053 2048 2043 2036 2029 2024 2020 2018 2014 2010 2007 2005 2001 1999 1996 1995 1993 1991 1989 1986 1983 1981 1980 1977 1975 1974 1972 1971 1968 1966 1964 1962 1960 1957 1955 1953 1950 1947 1945 1943 1941 1940 1938 1937 1936 1934 1933 1932 1930 1928 1926 1924 1922 1919 1919 1917 1913 1913 1911 1910 1910 1910 1909 1909 1908 1907 1906 1905 1902 1901 1900 1899 1898 1898 1896 1896 1895 1895 1894 1892 1890 1890 1889 1888 1888 1888 1886 1884 1882 1880 1878 1878 1878 1879 1881 1881 1881 1882 1882 1882 1885 1885 1887 1889 1890 1890 1890 1890 1890 1892 1894 1895 1897 1897 1897 1900 1903 1904 1906 1907 1907 1907 1908 1908 1908 1908 1908 1908 1908 1907 1905 1902 1901 1901 1901 1901 1899 1899 1898 1898 1897 1897 1896 1896 1895 1895 1894 1894 1893 1893 1893 1893 1893 1893 1891 1891 1890 1889 1889 1888 1887 1885 1884 1883 1881 1879 1877 1876 1875 1874 1873 1872 1871 1870 1868 1867 1865 1864 1863 1862 1861 1859 1857 1856 1854 1853 1851 1851 1850 1849 1848 1848 1848 1848 1847 1847 1848 1848 1848 1848 1848 1848 1848 1849 1850 1851 1852 1852 1854 1855 1856 1858 1860 1862 1863 1865 1867 1868 1870 1871 1873 1874 1876 1877 1879 1881 1882 1885 1887 1888 1893 1899 1902 1906 1912 1919 1922 1928 1933 1941 1946 1951 1955 1960 1964 1967 1967 1967 1958 1950 0 0 0 0 0 0 0 0 0 0 0 0 0 0 0 0 0 0 0 0 0 0 0 0 0 0 0 0 0 0 0 0 0 0 0 0 0 0 0 0 0 0 0 0 0 0 0 0 0 0 0 0 0 0 0 0 0 0 0 0 0 0 0 0 0 0 0 0 0 0 0 0 0 0 0 0 0 0 0 0 0 0 0 0 0 0 0 0 0 0 0 0 0 0 0 0 0 0 0 0 0 0 0 0 0 0 0 0 0 0 0 0 0 0 0 0 0 0 0 0 0 0 0 0 0 1097 1097 1083 1066 1060 1054 1044 1035 1030 1030 1030 1042 1043 1043 1043 1043
1689 1689 0 0 0 0 0 0 0 0 0 0 0 0 0 0 0 0 0 0 0 0 0 0 0 0 0 0 0 0 0 0 0 0 0 0 0 0 0 0 0 0 0 0 0 0 0 0 0 0 0 0 0 0 0 0 0 0 0 0 0 0 0 0 0 0 0 0 0 0 0 0 0 0 0 0 0 0 0 0 0 0 0 0 0 0 0 0 0 0 0 0 0 0 0 0 0 0 0 0 0 0 0 0 0 0 0 0 0 0 0 0 0 0 0 0 0 0 0 0 0 0 0 0 0 0 0 0 0 0 0 0 0 0 0 0 0 0 0 0 0 0 0 0 0 0 0 0 0 0 0 0 2513 2649 2683 2690 2709 2766 2803 2958 2984 3015 3023 3024 3027 3027 3027 3027 3028 3032 3056 3057 3057 3056 3057 3056 3055 3046 3046 3046 3046 3053 3053 3056 3056 3056 3057 3061 3069 3069 3069 3066 3053 3052 3052 3053 3066 3066 3066 3061 3055 3053 3024 3012 2997 2986 2982 2982 2962 2956 2935 2928 2916 2906 2889 2879 2849 2849 2845 2835 2827 2785 2740 2686 2680 2680 2674 2625 2577 2537 2499 0 0 0 0 2189 2163 2157 2138 2119 2103 2095 2087 2082 2081 2079 2073 2067 2059 2051 2047 2042 2036 2029 2025 2020 2017 2014 2010 2007 2003 2001 1997 1995 1992 1991 1989 1987 1984 1982 1980 1978 1976 1974 1973 1971 1970 1968 1966 1964 1962 1960 1957 1955 1953 1950 1947 1945 1943 1942 1940 1939 1937 1936 1935 1934 1932 1930 1928 1927 1924 1922 1921 1919 1917 1915 1914 1912 1912 1912 1911 1911 1910 1910 1910 1909 1907 1907 1905 1904 1904 1903 1903 1901 1899 1897 1897 1896 1894 1893 1893 1892 1891 1891 1890 1888 1886 1884 1882 1881 1881 1881 1882 1884 1885 1885 1885 1885 1885 1886 1889 1891 1893 1896 1896 1897 1897 1897 1899 1901 1904 1904 1905 1905 1906 1909 1909 1910 1911 1911 1911 1911 1911 1911 1911 1911 1910 1910 1907 1907 1904 1902 1902 1901 1901 1901 1900 1899 1899 1899 1899 1898 1897 1897 1897 1895 1895 1895 1895 1895 1895 1894 1894 1892 1891 1891 1890 1889 1888 1887 1886 1885 1884 1883 1881 1879 1877 1875 1874 1874 1873 1872 1871 1868 1867 1865 1864 1863 1862 1861 1859 1857 1856 1854 1852 1851 1851 1850 1849 1848 1848 1848 1847 1847 1847 1847 1847 1848 1848 1848 1848 1848 1849 1850 1851 1851 1852 1854 1855 1856 1858 1860 1862 1863 1865 1867 1868 1870 1871 1873 1874 1875 1877 1879 1881 1882 1885 1886 1888 1893 1899 1902 1906 1912 1918 1922 1926 1931 1937 1942 1949 1953 1958 1962 1966 1966 1966 1963 1944 0 0 0 0 0 0 0 0 0 0 0 0 0 0 0 0 0 0 0 0 0 0 0 0 0 0 0 0 0 0 0 0 0 0 0 0 0 0 0 0 0 0 0 0 0 0 0 0 0 0 0 0 0 0 0 0 0 0 0 0 0 0 0 0 0 0 0 0 0 0 0 0 0 0 0 0 0 0 0 0 0 0 0 0 0 0 0 0 0 0 0 0 0 0 0 0 0 0 0 0 0 0 0 0 0 0 0 0 0 0 0 0 0 0 0 0 0 0 0 0 0 0 0 0 1097 1097 1097 1081 1062 1057 1052 1040 1029 1025 1025 1025 1037 1040 1040 1040 1040
0 0 0 0 0 0 0 0 0 0 0 0 0 0 0 0 0 0 0 0 0 0 0 0 0 0 0 0 0 0 0 0 0 0 0 0 0 0 0 0 0 0 0 0 0 0 0 0 0 0 0 0 0 0 0 0 0 0 0 0 0 0 0 0 0 0 0 0 0 0 0 0 0 0 0 0 0 0 0 0 0 0 0 0 0 0 0 0 0 0 0 0 0 0 0 0 0 0 0 0 0 0 0 0 0 0 0 0 0 0 0 0 0 0 0 0 0 0 0 0 0 0 0 0 0 0 0 0 0 0 0 0 0 0 0 0 0 0 0 0 0 0 0 0 0 0 0 0 0 0 2508 2603 2729 2841 2856 2862 2884 2901 2931 2961 2989 3016 3023 3024 3027 3027 3027 3027 3028 3032 3056 3057 3057 3056 3057 3056 3053 3044 3044 3041 3041 3045 3052 3052 3053 3053 3054 3056 3078 3080 3080 3080 3070 3057 3057 3057 3081 3102 3102 3102 3065 3057 3052 3040 3031 3022 3009 2995 2989 2985 2961 2941 2916 2906 2889 2879 2847 2847 2845 2835 2827 2785 2740 2686 2680 2680 2674 2619 2536 2503 2467 0 0 0 0 2193 2167 2159 2138 2119 2103 2095 2087 2081 2081 2078 2073 2067 2058 2050 2046 2041 2034 2030 2025 2020 2017 2014 2010 2006 2003 2000 1997 1994 1992 1990 1988 1986 1983 1981 1979 1976 1974 1973 1972 1971 1969 1968 1966 1964 1962 1959 1956 1955 1953 1950 1947 1945 1943 1942 1940 1940 1938 1937 1936 1934 1933 1931 1929 1927 1925 1923 1922 1920 1918 1917 1915 1915 1915 1914 1914 1913 1912 1911 1911 1910 1908 1907 1907 1907 1907 1907 1906 1904 1902 1901 1899 1899 1898 1897 1896 1895 1895 1893 1892 1890 1888 1886 1882 1882 1882 1883 1885 1887 1888 1888 1888 1889 1890 1890 1892 1894 1897 1898 1902 1902 1903 1904 1906 1907 1908 1908 1910 1911 1911 1912 1913 1915 1915 1915 1913 1913 1913 1913 1913 1913 1912 1910 1908 1907 1905 1904 1904 1903 1903 1902 1901 1901 1901 1900 1900 1899 1899 1898 1898 1897 1897 1896 1896 1896 1896 1895 1895 1893 1891 1891 1890 1889 1888 1888 1886 1886 1885 1884 1882 1880 1878 1877 1877 1876 1875 1874 1872 1871 1869 1868 1866 1865 1862 1861 1859 1858 1856 1854 1852 1851 1851 1850 1849 1848 1848 1847 1847 1847 1847 1847 1847 1847 1847 1848 1848 1848 1849 1850 1851 1851 1852 1853 1855 1856 1858 1860 1862 1863 1865 1867 1868 1870 1871 1873 1874 1875 1876 1879 1880 1882 1882 1885 1888 1893 1898 1901 1906 1911 1917 1922 1926 1930 1935 1941 1947 1951 1955 1960 1964 1964 1964 1958 1939 0 0 0 0 0 0 0 0 0 0 0 0 0 0 0 0 0 0 0 0 0 0 0 0 0 0 0 0 0 0 0 0 0 0 0 0 0 0 0 0 0 0 0 0 0 0 0 0 0 0 0 0 0 0 0 0 0 0 0 0 0 0 0 0 0 0 0 0 0 0 0 0 0 0 0 0 0 0 0 0 0 0 0 0 0 0 0 0 0 0 0 0 0 0 0 0 0 0 0 0 0 0 0 0 0 0 0 0 0 0 0 0 0 0 0 0 0 0 0 0 0 0 0 0 1094 1094 1094 1079 1062 1057 1044 1023 1013 1013 1013 1021 1031 1039 1039 1039 1039
0 0 0 0 0 0 0 0 0 0 0 0 0 0 0 0 0 0 0 0 0 0 0 0 0 0 0 0 0 0 0 0 0 0 0 0 0 0 0 0 0 0 0 0 0 0 0 0 0 0 0 0 0 0 0 0 0 0 0 0 0 0 0 0 0 0 0 0 0 0 0 0 0 0 0 0 0 0 0 0 0 0 0 0 0 0 0 0 0 0 0 0 0 0 0 0 0 0 0 0 0 0 0 0 0 0 0 0 0 0 0 0 0 0 0 0 0 0 0 0 0 0 0 0 0 0 0 0 0 0 0 0 0 0 0 0 0 0 0 0 0 0 0 0 0 0 0 0 2604 2699 2761 2799 2841 2891 2915 2924 2933 2946 2973 3004 3008 3016 3023 3024 3025 3025 3027 3027 3028 3032 3041 3043 3045 3050 3051 3051 3051 3043 3037 3037 3037 3039 3045 3045 3045 3049 3050 3050 3078 3080 3080 3080 3070 3057 3057 3057 3081 3102 3102 3102 3065 3057 3052 3040 3031 3022 3015 3015 3005 2994 2986 2973 2961 2953 2912 2884 2849 2849 2846 2842 2830 2785 2740 2686 2680 2680 2674 2619 2536 2503 2467 0 0 0 0 2194 2171 2161 2138 2119 2103 2095 2086 2081 2078 2075 2070 2065 2057 2048 2044 2039 2034 2030 2025 2021 2018 2014 2010 2006 2002 1999 1996 1993 1991 1990 1987 1984 1983 1980 1978 1976 1974 1973 1972 1971 1969 1968 1965 1963 1960 1958 1956 1954 1951 1950 1947 1945 1943 1942 1941 1940 1939 1937 1936 1935 1934 1932 1930 1928 1927 1924 1922 1922 1921 1920 1918 1917 1916 1916 1916 1915 1913 1913 1912 1910 1910 1910 1910 1910 1911 1911 1911 1910 1909 1907 1905 1903 1903 1903 1902 1901 1900 1898 1897 1894 1893 1889 1887 1885 1885 1885 1887 1889 1890 1890 1891 1892 1895 1897 1897 1898 1900 1901 1903 1904 1906 1906 1908 1910 1911 1912 1913 1913 1913 1916 1918 1919 1919 1919 1917 1916 1916 1915 1914 1913 1913 1911 1908 1907 1906 1906 1906 1905 1905 1904 1904 1904 1903 1903 1902 1902 1901 1901 1901 1901 1900 1898 1898 1898 1898 1897 1896 1895 1894 1892 1890 1889 1888 1887 1887 1886 1886 1885 1883 1881 1880 1878 1877 1876 1875 1874 1872 1871 1870 1868 1866 1865 1862 1861 1859 1858 1856 1854 1852 1852 1851 1850 1849 1848 1847 1847 1847 1847 1847 1847 1847 1847 1847 1847 1847 1848 1849 1850 1851 1851 1852 1854 1855 1856 1858 1860 1862 1863 1865 1867 1868 1870 1871 1873 1873 1875 1875 1877 1880 1882 1882 1885 1888 1892 1897 1900 1905 1911 1916 1921 1925 1930 1935 1941 1945 1951 1953 1958 1963 1963 1963 1957 1939 0 0 0 0 0 0 0 0 0 0 0 0 0 0 0 0 0 0 0 0 0 0 0 0 0 0 0 0 0 2509 2565 2623 2647 2647 2647 2647 2647 2693 2781 2781 2781 2708 0 0 0 0 0 0 0 0 0 0 0 0 0 0 0 0 0 0 0 0 0 0 0 0 0 0 0 0 0 0 0 0 0 0 0 0 0 0 0 0 0 0 0 0 0 0 0 0 0 0 0 0 0 0 0 0 0 0 0 0 0 0 0 0 0 0 0 0 0 0 0 0 0 0 0 0 0 0 0 0 0 0 1092 1092 1092 1077 1062 1057 1040 1021 1009 1009 1009 1015 1028 1035 1035 1035 1035
0 0 0 0 0 0 0 0 0 0 0 0 0 0 0 0 0 0 0 0 0 0 0 2007 2006 2006 2006 2004 0 0 0 0 0 0 0 0 0 0 0 0 0 0 0 0 0 0 0 0 0 0 0 0 0 0 0 0 0 0 0 0 0 0 0 0 0 0 0 0 0 0 0 0 0 0 0 0 0 0 0 0 0 0 0 0 0 0 0 0 0 0 0 0 0 0 0 0 0 0 0 0 0 0 0 0 0 0 0 0 0 0 0 0 0 0 0 0 0 0 0 0 0 0 0 0 0 0 0 0 0 0 0 0 0 0 0 0 0 0 0 0 0 0 0 0 0 2547 2683 2758 2817 2822 2835 2874 2898 2929 2947 2947 2961 2972 2998 3008 3011 3016 3020 3021 3021 3020 3018 3018 3018 3018 3031 3031 3031 3020 3011 3007 3007 3007 3012 3020 3030 3035 3043 3043 3043 3048 3050 3050 3078 3080 3080 3080 3070 3057 3057 3057 3081 3102 3102 3102 3065 3057 3052 3040 3031 3022 3015 3015 3015 3014 3012 3012 2995 2965 2928 2887 2880 2866 2866 2872 2880 2872 2872 2837 2805 2733 2682 2619 2536 2503 2467 0 0 0 0 0 2181 2168 2151 2124 2109 2097 2085 2081 2076 2071 2066 2061 2055 2047 2042 2038 2034 2030 2025 2021 2018 2015 2010 2006 2002 1999 1996 1993 1991 1988 1986 1984 1982 1980 1977 1975 1974 1973 1972 1970 1969 1967 1965 1963 1960 1958 1956 1953 1951 1949 1947 1945 1943 1942 1941 1940 1939 1938 1936 1935 1934 1933 1932 1931 1930 1930 1928 1927 1926 1924 1922 1920 1919 1918 1917 1916 1915 1915 1914 1913 1912 1912 1912 1914 1914 1914 1914 1912 1911 1909 1907 1906 1904 1904 1903 1903 1902 1900 1898 1897 1896 1894 1891 1888 1888 1888 1888 1891 1892 1893 1894 1897 1899 1901 1902 1903 1904 1905 1906 1909 1910 1910 1911 1913 1914 1915 1915 1916 1918 1920 1921 1921 1921 1921 1921 1920 1918 1916 1915 1914 1914 1914 1913 1911 1909 1908 1907 1907 1907 1907 1907 1906 1906 1906 1906 1905 1905 1905 1904 1904 1903 1903 1902 1901 1900 1898 1897 1897 1896 1895 1893 1890 1889 1888 1887 1886 1886 1885 1884 1882 1880 1879 1878 1876 1875 1874 1873 1871 1870 1868 1866 1865 1863 1861 1859 1858 1856 1854 1852 1852 1851 1850 1849 1848 1847 1847 1847 1847 1846 1846 1846 1847 1847 1847 1847 1848 1849 1850 1851 1852 1852 1854 1855 1857 1858 1860 1862 1863 1865 1867 1868 1870 1871 1872 1873 1875 1875 1877 1879 1882 1882 1884 1888 1891 1896 1900 1904 1910 1914 1918 1923 1929 1934 1938 1943 1945 1951 1956 1957 1957 1957 1957 1939 0 0 0 0 0 0 0 0 0 0 0 0 0 0 0 0 0 0 0 0 0 0 0 0 0 0 2557 2631 2763 2905 2915 2915 2915 2913 2882 2832 2832 2832 2889 2967 2967 2967 2837 2763 2552 0 0 0 0 0 0 0 0 0 0 0 0 0 0 0 0 0 0 0 0 0 0 0 0 0 0 0 0 0 0 0 0 0 0 0 0 0 0 0 0 0 0 0 0 0 0 0 0 0 0 0 0 0 0 0 0 0 0 0 0 0 0 0 0 0 0 0 0 0 0 0 0 0 0 0 0 0 0 0 1092 1092 1092 1076 1072 1057 1039 1021 1009 1009 1009 1013 1027 1027 1027 1026 1026
0 0 0 0 0 0 0 0 0 0 0 0 0 0 0 0 0 0 0 0 0 0 1978 1999 1999 1999 1987 1963 1962 1962 0 0 0 0 0 0 0 0 0 0 0 0 0 0 0 0 0 0 0 0 0 0 0 0 0 0 0 0 0 0 0 0 0 0 0 0 0 0 0 0 0 0 0 0 0 0 0 0 0 0 0 0 0 0 0 0 0 0 0 0 0 0 0 0 0 0 0 0 0 0 0 0 0 0 0 0 0 0 0 0 0 0 0 0 0 0 0 0 0 0 0 0 0 0 0 0 0 0 0 0 0 0 0 0 0 0 0 0 0 0 0 0 2596 2672 2714 2786 2788 2817 2861 2877 2888 2908 2929 2941 2951 2954 2979 2993 3005 3007 3008 3010 3010 3010 3010 3002 2995 2995 2994 2989 2988 2986 2985 2975 2958 2954 2954 2954 2963 2972 2980 2983 2995 2998 2999 3000 3010 3030 3044 3044 3046 3046 3046 3050 3050 3050 3047 3047 3044 3026 3024 3021 3021 3021 3015 3015 3005 3014 3015 3014 3012 3012 2995 2986 2968 2918 2891 2888 2876 2888 2891 2919 2922 2945 2945 2945 2937 2929 2847 2773 2725 2691 2590 0 0 0 2195 2179 2158 2129 2113 2098 2084 2077 2074 2069 2062 2058 2051 2044 2041 2037 2034 2030 2025 2021 2018 2015 2010 2006 2002 1999 1996 1994 1991 1988 1986 1984 1982 1979 1977 1975 1974 1973 1972 1970 1968 1967 1964 1963 1960 1958 1956 1953 1951 1949 1946 1945 1943 1942 1941 1940 1939 1939 1938 1936 1936 1934 1933 1931 1931 1930 1929 1928 1926 1924 1922 1921 1920 1919 1918 1918 1917 1916 1915 1915 1915 1915 1916 1916 1916 1916 1915 1913 1911 1911 1909 1908 1907 1907 1906 1905 1905 1903 1900 1897 1896 1896 1893 1890 1890 1890 1891 1893 1895 1896 1897 1901 1902 1904 1905 1905 1906 1907 1909 1912 1913 1913 1915 1916 1916 1919 1919 1922 1923 1923 1923 1925 1925 1925 1923 1920 1919 1917 1917 1917 1917 1917 1917 1914 1911 1910 1909 1909 1908 1908 1908 1908 1907 1907 1907 1907 1907 1907 1907 1906 1906 1905 1904 1903 1901 1900 1897 1897 1896 1895 1893 1891 1889 1888 1887 1886 1886 1885 1884 1882 1880 1879 1878 1876 1875 1874 1873 1871 1870 1868 1866 1865 1863 1861 1859 1858 1856 1854 1852 1852 1850 1848 1848 1847 1847 1845 1845 1845 1845 1845 1846 1846 1847 1847 1847 1848 1849 1850 1851 1852 1852 1854 1855 1856 1858 1859 1861 1862 1864 1866 1869 1870 1871 1872 1873 1874 1875 1877 1879 1882 1883 1884 1886 1891 1896 1900 1904 1908 1912 1917 1922 1927 1933 1937 1939 1944 1950 1951 1953 1953 1953 1950 0 0 0 0 0 0 0 0 0 0 0 0 0 0 0 0 0 0 0 0 0 0 0 0 2592 2674 2729 2769 2825 2913 2920 2920 2915 2915 2913 2882 2832 2832 2832 2889 2967 3021 3021 3021 3014 2937 2808 2610 0 0 0 0 0 0 0 0 0 0 0 0 0 0 0 0 0 0 0 0 0 0 0 0 0 0 0 0 0 0 0 0 0 0 0 0 0 0 0 0 0 0 0 0 0 0 0 0 0 0 0 0 0 0 0 0 0 0 0 0 0 0 0 0 0 0 0 0 0 0 0 0 0 0 0 0 0 1092 1092 1092 1077 1072 1056 1038 1020 1008 1007 1007 1007 1023 1024 1024 1024 1024
0 0 0 0 0 0 0 0 0 1708 1722 1722 1722 1735 1735 1761 1763 1772 1814 1822 0 0 1903 1934 1957 1961 1961 1961 1947 1947 1947 1947 1991 0 0 0 0 0 0 0 0 0 0 0 0 0 0 0 0 0 0 0 0 0 0 0 0 0 0 0 0 0 0 0 0 0 0 0 0 0 0 0 0 0 0 0 0 0 0 0 0 0 0 0 0 0 0 0 0 0 0 0 0 0 0 0 0 0 0 0 0 0 0 0 0 0 0 0 0 0 0 0 0 0 0 0 0 0 0 0 0 0 0 0 0 0 0 0 0 0 0 0 0 0 0 0 0 2523 2582 2641 2667 2702 2755 2796 2833 2838 2841 2863 2881 2883 2888 2908 2929 2941 2951 2954 2979 2993 3002 3003 3005 3005 3003 3003 2999 2997 2992 2966 2937 2909 2907 2907 2900 2894 2890 2866 2866 2866 2883 2883 2884 2885 2885 2894 2908 2912 2930 2948 2949 2957 2958 2978 2984 2984 2984 2965 2946 2946 2946 2946 2963 2979 2979 2979 2967 2967 2967 2981 2997 3012 3012 3012 2995 2986 2968 2944 2933 2891 2890 2890 2891 2919 2922 2960 2981 3001 3001 3001 2985 2944 2913 2851 2721 2564 0 0 2204 2188 2165 2138 2114 2098 2083 2076 2073 2068 2062 2057 2050 2042 2038 2035 2031 2028 2025 2021 2018 2014 2010 2006 2003 2000 1997 1994 1991 1988 1985 1984 1981 1979 1977 1975 1973 1973 1971 1970 1968 1966 1964 1962 1960 1958 1955 1953 1950 1948 1947 1945 1943 1942 1941 1940 1939 1939 1938 1937 1936 1934 1933 1932 1931 1930 1929 1928 1926 1925 1923 1921 1921 1921 1920 1920 1919 1918 1917 1917 1917 1917 1918 1918 1918 1917 1916 1914 1913 1912 1911 1911 1910 1910 1909 1909 1907 1906 1904 1900 1898 1898 1897 1895 1893 1893 1893 1896 1898 1901 1901 1904 1907 1908 1909 1909 1911 1912 1914 1917 1917 1918 1921 1921 1922 1923 1927 1929 1929 1929 1929 1929 1929 1929 1926 1923 1922 1921 1921 1921 1921 1921 1919 1915 1912 1912 1912 1912 1913 1913 1913 1912 1912 1912 1912 1912 1912 1911 1910 1908 1908 1907 1906 1904 1902 1900 1898 1897 1896 1895 1893 1891 1889 1887 1887 1886 1885 1885 1884 1882 1880 1879 1878 1876 1875 1874 1872 1871 1869 1868 1866 1865 1862 1861 1859 1857 1856 1854 1852 1851 1850 1848 1847 1847 1847 1845 1845 1845 1845 1845 1845 1845 1846 1846 1847 1848 1849 1850 1852 1852 1853 1854 1855 1856 1858 1859 1861 1862 1864 1866 1868 1870 1870 1872 1873 1874 1875 1877 1879 1882 1883 1884 1886 1891 1896 1900 1904 1908 1912 1917 1922 1927 1931 1935 1938 1941 1945 1947 1953 1953 1953 1947 0 0 0 0 0 0 0 0 0 0 0 0 0 0 0 0 0 0 0 0 0 0 0 2537 2653 2738 2800 2890 2913 2917 2920 2920 2915 2915 2913 2882 2832 2832 2832 2889 2967 3021 3021 3021 3014 2966 2936 2895 2805 2550 0 0 0 0 0 0 0 0 0 0 0 0 0 0 0 0 0 0 0 0 0 0 0 0 0 0 0 0 0 0 0 0 0 0 0 0 0 0 0 0 0 0 0 0 0 0 0 0 0 0 0 0 0 0 0 0 0 0 0 0 0 0 0 0 0 0 0 0 0 0 0 0 0 0 1104 1104 1101 1096 1079 1072 1048 1033 1017 1008 1002 1002 1002 1017 1024 1024 1024 1024
0 0 0 0 0 0 0 0 1694 1708 1722 1722 1722 1735 1735 1761 1763 1772 1814 1822 1838 1864 1878 1902 1944 1946 1946 1946 1946 1943 1943 1943 1961 2028 2034 2037 2037 0 0 0 0 0 0 0 0 0 0 0 0 0 0 0 0 0 0 0 0 0 0 0 0 0 0 0 0 0 0 0 0 0 0 0 0 0 0 0 0 0 0 0 0 0 0 0 0 0 0 0 0 0 0 0 0 0 0 0 0 0 0 0 0 0 0 0 0 0 0 0 0 0 0 0 0 0 0 0 0 0 0 0 0 0 0 0 0 0 0 0 0 0 0 0 0 0 0 2540 2618 2699 2723 2729 2745 2760 2769 2803 2836 2846 2855 2863 2881 2883 2888 2908 2929 2941 2951 2954 2979 2993 2993 2993 2988 2988 2987 2988 2987 2986 2986 2962 2842 2827 2827 2827 2829 2840 2840 2840 2844 2844 2862 2862 2862 2840 2836 2836 2836 2845 2846 2846 2849 2852 2857 2857 2857 2836 2808 2779 2770 2770 2770 2776 2795 2807 2812 2813 2813 2820 2824 2854 2864 2880 2914 2963 2968 2968 2968 2944 2933 2890 2881 2861 2861 2861 2898 2960 2981 3003 3003 3003 3000 2980 2967 2938 2837 2677 0 0 2222 2192 2171 2145 2115 2101 2083 2075 2073 2068 2062 2056 2049 2042 2036 2032 2028 2025 2024 2021 2018 2014 2010 2006 2003 2000 1997 1994 1990 1987 1985 1982 1981 1978 1977 1975 1973 1972 1970 1969 1967 1965 1963 1962 1960 1958 1954 1952 1950 1948 1946 1945 1944 1942 1941 1940 1939 1939 1938 1937 1936 1935 1933 1933 1932 1931 1929 1929 1927 1925 1923 1923 1922 1922 1922 1921 1920 1920 1920 1920 1920 1920 1921 1921 1921 1920 1918 1917 1916 1915 1915 1915 1915 1914 1913 1912 1910 1908 1906 1904 1901 1899 1898 1898 1898 1896 1896 1896 1898 1903 1907 1910 1911 1912 1912 1913 1914 1917 1920 1924 1926 1927 1929 1930 1932 1932 1934 1935 1935 1935 1935 1935 1935 1935 1929 1926 1926 1924 1924 1923 1923 1922 1922 1917 1917 1917 1917 1919 1921 1921 1921 1918 1916 1916 1915 1915 1915 1913 1912 1911 1910 1908 1907 1905 1903 1900 1898 1897 1896 1895 1893 1891 1889 1887 1887 1886 1885 1885 1884 1882 1880 1878 1877 1876 1874 1873 1871 1870 1869 1868 1866 1864 1862 1860 1859 1857 1855 1854 1852 1850 1850 1848 1847 1847 1846 1845 1845 1844 1844 1844 1844 1845 1846 1846 1847 1848 1849 1850 1852 1852 1853 1854 1855 1857 1858 1860 1861 1863 1864 1866 1868 1870 1870 1872 1873 1874 1875 1877 1879 1882 1883 1884 1886 1891 1896 1900 1903 1907 1911 1915 1920 1924 1930 1933 1937 1940 1941 1946 1947 1947 1947 1947 0 0 0 0 0 0 0 0 0 0 0 0 0 0 0 0 0 0 0 0 0 0 2519 2594 2700 2773 2880 2892 2913 2913 2913 2863 2849 2844 2841 2827 2809 2809 2809 2833 2874 2943 3014 3014 3014 2966 2936 2895 2852 2792 2621 0 0 0 0 0 0 0 0 0 0 0 0 0 0 0 0 0 0 0 0 0 0 0 0 0 0 0 0 0 0 0 0 0 0 0 0 0 0 0 0 0 0 0 0 0 0 0 0 0 0 0 0 0 0 0 0 0 0 0 0 0 0 0 0 0 0 0 0 0 0 0 0 0 1105 1105 1102 1096 1079 1067 1047 1030 1015 1005 1001 1001 1001 1015 1023 1023 1023 1023
0 0 0 0 0 0 0 0 1708 1735 1735 1748 1748 1748 1759 1762 1765 1826 1826 1833 1838 1864 1878 1902 1931 1936 1936 1931 1927 1926 1926 1927 1957 2006 2037 2048 2049 2051 0 0 0 0 0 0 0 0 0 0 0 0 0 0 0 0 0 0 0 0 0 0 0 0 0 0 0 0 0 0 0 0 0 0 0 0 0 0 0 0 0 0 0 0 0 0 0 0 0 0 0 0 0 0 0 0 0 0 0 0 0 0 0 0 0 0 0 0 0 0 0 0 0 0 0 0 0 0 0 0 0 0 0 0 0 0 0 0 0 0 0 0 0 0 0 0 2639 2659 2663 2699 2723 2729 2745 2760 2769 2803 2836 2846 2855 2863 2881 2883 2885 2904 2928 2928 2936 2938 2940 2956 2957 2957 2956 2954 2938 2913 2905 2903 2886 2849 2842 2826 2826 2826 2829 2840 2840 2840 2844 2844 2844 2844 2844 2834 2834 2834 2834 2837 2840 2844 2846 2846 2844 2839 2815 2791 2739 2695 2614 2592 2592 2592 2592 2592 2578 2562 2562 2562 2609 2640 2694 2730 2785 2854 2886 2898 2921 2921 2921 2890 2880 2847 2830 2830 2830 2881 2971 3003 3003 3003 3000 2980 2967 2938 2877 2707 2536 0 2239 2194 2171 2148 2132 2107 2083 2073 2070 2066 2062 2055 2047 2041 2036 2032 2028 2025 2024 2021 2018 2014 2010 2007 2003 2000 1997 1994 1990 1986 1984 1982 1980 1978 1976 1975 1973 1972 1970 1969 1966 1964 1963 1960 1958 1957 1953 1952 1949 1948 1946 1945 1944 1943 1941 1940 1940 1939 1938 1937 1936 1935 1934 1933 1932 1931 1930 1929 1927 1925 1925 1924 1924 1923 1923 1922 1921 1921 1921 1922 1922 1923 1923 1923 1923 1922 1922 1920 1920 1920 1920 1920 1920 1918 1915 1914 1913 1912 1911 1908 1906 1904 1901 1901 1901 1900 1900 1901 1901 1907 1913 1916 1918 1918 1919 1919 1919 1923 1927 1931 1933 1937 1941 1941 1941 1941 1941 1941 1941 1939 1941 1941 1939 1939 1936 1931 1929 1929 1929 1926 1926 1926 1926 1926 1924 1924 1924 1926 1926 1926 1926 1925 1925 1924 1922 1919 1916 1915 1914 1912 1910 1909 1908 1906 1903 1900 1898 1897 1895 1894 1892 1890 1888 1887 1886 1885 1885 1884 1883 1880 1879 1878 1876 1875 1873 1873 1870 1870 1868 1868 1866 1864 1862 1860 1858 1857 1855 1853 1852 1850 1849 1848 1847 1846 1845 1845 1844 1844 1844 1844 1844 1845 1845 1846 1847 1848 1849 1850 1851 1852 1853 1854 1856 1857 1859 1860 1861 1863 1864 1866 1868 1870 1871 1872 1873 1874 1875 1877 1879 1880 1883 1885 1887 1891 1896 1900 1903 1906 1910 1912 1918 1923 1929 1931 1936 1939 1941 1946 1946 1947 1947 1946 0 0 0 0 0 0 0 0 0 0 0 0 0 0 0 0 0 0 0 0 0 2587 2643 2701 2806 2881 2892 2892 2888 2888 2869 2828 2821 2810 2809 2807 2807 2807 2809 2833 2874 2899 2939 2966 2966 2966 2936 2895 2852 2798 2792 2753 0 0 0 0 0 0 0 0 0 0 0 0 0 0 0 0 0 0 0 0 0 0 0 0 0 0 0 0 0 0 0 0 0 0 0 0 0 0 0 0 0 0 0 0 0 0 0 0 0 0 0 0 0 0 0 0 0 0 0 0 0 0 0 0 0 0 0 0 0 0 0 0 1117 1105 1102 1096 1079 1062 1046 1029 1012 1003 998 998 998 1010 1020 1020 1021 1021
0 0 0 0 0 0 0 0 0 0 1809 1815 1828 1828 1828 1826 1826 1826 0 0 0 0 0 1902 1902 1902 1899 1846 1846 1846 1887 1889 1945 1996 2037 2047 2057 2057 2057 2055 2029 0 0 0 0 0 0 0 0 0 0 0 0 0 0 0 0 0 0 0 0 0 0 0 0 0 0 0 0 0 0 0 0 0 0 0 0 0 0 0 0 0 0 0 0 0 0 0 0 0 0 0 0 0 0 0 0 0 0 0 0 0 0 0 0 0 0 0 0 0 0 0 0 0 0 0 0 0 0 0 0 0 0 0 0 0 0 0 0 0 2413 2490 2506 2574 2639 2659 2663 2699 2723 2729 2745 2760 2769 2803 2836 2846 2853 2855 2855 2857 2857 2858 2871 2880 2880 2880 2883 2886 2885 2885 2885 2883 2875 2856 2825 2825 2825 2826 2826 2826 2826 2826 2829 2840 2840 2840 2843 2841 2838 2838 2835 2821 2821 2821 2833 2833 2833 2826 2811 2799 2780 2753 0 0 0 0 0 0 0 0 2492 2533 2535 2549 2555 2562 2603 2626 2641 2648 2654 2674 2737 2777 2795 2809 2809 2809 2798 2797 2786 2786 2786 2815 2914 3001 3001 3001 3000 2980 2967 2938 2892 2808 2597 0 0 2196 2171 2152 2137 2108 2083 2073 2070 2064 2062 2054 2046 2040 2036 2032 2028 2025 2023 2021 2018 2014 2010 2007 2003 2001 1997 1994 1990 1986 1984 1982 1980 1978 1976 1975 1973 1972 1970 1968 1966 1964 1962 1960 1958 1956 1953 1951 1949 1947 1946 1945 1944 1943 1942 1941 1940 1939 1938 1937 1936 1935 1933 1933 1932 1931 1930 1930 1929 1927 1926 1925 1924 1924 1923 1923 1922 1922 1922 1923 1923 1925 1926 1926 1926 1926 1926 1924 1924 1924 1923 1923 1923 1921 1918 1917 1916 1915 1915 1913 1911 1910 1907 1906 1903 1903 1903 1904 1909 1915 1919 1922 1923 1923 1924 1926 1930 1936 1939 1939 1941 1941 1944 1945 1945 1945 1945 1945 1945 1945 1945 1945 1945 1945 1945 1940 1937 1934 1934 1934 1937 1938 1938 1938 1936 1935 1935 1935 1935 1931 1929 1928 1928 1927 1925 1924 1921 1919 1916 1912 1910 1910 1908 1906 1903 1900 1898 1897 1895 1893 1892 1890 1888 1885 1884 1883 1882 1882 1881 1880 1878 1876 1875 1873 1873 1872 1870 1869 1868 1867 1865 1863 1862 1859 1858 1856 1855 1852 1851 1850 1849 1848 1847 1846 1845 1844 1844 1844 1844 1844 1844 1845 1845 1846 1847 1848 1849 1850 1851 1852 1853 1854 1857 1858 1860 1861 1862 1863 1864 1866 1869 1870 1871 1872 1873 1874 1875 1877 1879 1880 1882 1885 1888 1891 1895 1899 1902 1905 1908 1911 1916 1922 1927 1930 1933 1935 1940 1945 1945 1946 1946 1945 0 0 0 0 0 0 0 0 0 0 0 0 0 0 0 0 0 2444 2544 2602 2676 2747 2831 2867 2881 2881 2881 2881 2860 2848 2839 2828 2821 2810 2809 2807 2807 2807 2809 2833 2874 2896 2913 2914 2923 2923 2923 2884 2852 2798 2792 2753 2680 2440 0 0 0 0 0 0 0 0 0 0 0 0 0 0 0 0 0 0 0 0 0 0 0 0 0 0 0 0 0 0 0 0 0 0 0 0 0 0 0 0 0 0 0 0 0 0 0 0 0 0 0 0 0 0 0 0 0 0 0 0 0 0 0 0 0 0 0 0 0 1117 1117 1104 1101 1085 1079 1061 1044 1028 1010 998 997 997 997 1009 1017 1017 1019 1019
0 0 0 0 0 0 0 0 0 0 0 1815 1828 1828 1828 1826 1826 0 0 0 0 0 0 0 1949 1927 1899 1846 1846 1846 1887 1889 1950 1991 2029 2047 2057 2071 2077 2079 2079 0 0 0 0 0 0 0 0 0 0 0 0 0 0 0 0 0 0 0 0 0 0 0 0 0 0 0 0 0 0 0 0 0 0 0 0 0 0 0 0 0 0 0 0 0 0 0 0 0 0 0 0 0 0 0 0 0 0 0 0 0 0 0 0 0 0 0 0 0 0 0 0 0 0 0 0 0 0 0 0 0 0 0 0 0 0 0 0 0 2466 2494 2506 2574 2639 2659 2660 2663 2674 2678 2699 2717 2736 2756 2796 2813 2813 2813 2791 2788 2788 2788 2793 2805 2816 2816 2816 2807 2801 2792 2792 2798 2801 2803 2812 2818 2825 2845 2848 2848 2848 2848 2848 2843 2843 2843 2843 2838 2836 2836 2803 2786 2774 2771 2770 2770 2761 2745 2715 2683 2611 2545 0 0 0 0 0 0 0 0 2492 2533 2535 2549 2555 2562 2603 2626 2641 2648 2654 2674 2700 2704 2704 2700 2691 2691 2691 2688 2686 2700 2700 2734 2844 2938 2975 2975 2975 2964 2949 2928 2892 2819 2683 0 0 2197 2171 2152 2142 2116 2084 2073 2070 2064 2058 2051 2046 2040 2036 2032 2028 2025 2023 2021 2018 2015 2012 2008 2004 2001 1997 1994 1990 1986 1984 1982 1980 1978 1976 1974 1973 1972 1970 1968 1966 1964 1962 1960 1958 1956 1953 1951 1949 1947 1946 1944 1943 1943 1942 1941 1940 1939 1938 1937 1936 1935 1934 1933 1932 1931 1930 1930 1929 1927 1927 1925 1924 1924 1924 1924 1924 1924 1924 1924 1924 1925 1926 1927 1927 1928 1928 1928 1927 1927 1927 1926 1926 1923 1921 1920 1919 1919 1918 1917 1916 1915 1915 1914 1912 1909 1909 1909 1915 1921 1925 1927 1928 1931 1932 1935 1940 1946 1949 1952 1952 1956 1956 1956 1956 1956 1956 1956 1956 1951 1951 1951 1951 1951 1947 1941 1939 1939 1939 1939 1941 1943 1943 1943 1943 1942 1940 1938 1937 1935 1933 1933 1932 1931 1929 1927 1924 1921 1918 1916 1913 1912 1910 1907 1904 1902 1899 1897 1895 1893 1892 1890 1887 1885 1883 1882 1881 1881 1880 1878 1877 1875 1874 1873 1871 1871 1870 1868 1866 1864 1864 1862 1861 1858 1857 1856 1854 1852 1851 1849 1849 1847 1847 1846 1845 1844 1844 1844 1844 1844 1844 1845 1845 1846 1847 1848 1849 1850 1852 1853 1854 1855 1857 1859 1860 1861 1862 1863 1866 1867 1869 1870 1871 1873 1873 1875 1875 1877 1879 1880 1882 1885 1888 1891 1895 1898 1901 1904 1908 1911 1916 1921 1924 1928 1929 1933 1939 1943 1943 1945 1945 1945 0 0 0 0 0 0 0 0 0 0 0 0 0 0 0 0 2439 2549 2624 2726 2806 2867 2878 2881 2881 2881 2881 2867 2860 2848 2839 2828 2821 2810 2809 2807 2807 2807 2821 2850 2877 2878 2882 2882 2882 2882 2855 2826 2798 2773 2753 2736 2680 0 0 0 0 0 0 0 0 0 0 0 0 0 0 0 0 0 0 0 0 0 0 0 0 0 0 0 0 0 0 0 0 0 0 0 0 0 0 0 0 0 0 0 0 0 0 0 0 0 0 0 0 0 0 0 0 0 0 0 0 0 0 0 0 0 0 0 0 0 0 1103 1103 1095 1088 1083 1068 1055 1044 1028 1010 994 994 994 997 1007 1015 1016 1017 1017
0 0 0 0 0 0 0 0 0 0 0 0 0 0 0 0 0 0 0 0 0 0 0 0 0 0 0 1846 1846 1846 1887 1889 1950 1956 1967 2014 2052 2074 2082 2098 2113 2113 0 0 0 0 0 0 0 0 0 0 0 0 0 0 0 0 0 0 0 0 0 0 0 0 0 0 0 0 0 0 0 0 0 0 0 0 0 0 0 0 0 0 0 0 0 0 0 0 0 0 0 0 0 0 0 0 0 0 0 0 0 0 0 0 0 0 0 0 0 0 0 0 0 0 0 0 0 0 0 0 0 0 0 0 0 0 2448 2450 2474 2504 2516 2530 2545 2569 2599 2620 2621 2628 2641 2662 2701 2721 2723 2723 2723 2718 2718 2718 2718 2725 2727 2730 2739 2739 2739 2738 2738 2738 2778 2792 2798 2800 2812 2818 2825 2845 2852 2852 2852 2852 2852 2848 2843 2843 2839 2838 2822 2819 2790 2746 2686 2637 2606 2574 2556 2548 2534 2507 2424 2328 0 0 0 0 0 0 0 0 2492 2533 2549 2571 2583 2587 2603 2626 2641 2648 2654 2674 2687 2687 2687 2667 2643 2643 2643 2644 2646 2646 2647 2647 2733 2809 2891 2927 2928 2928 2928 2919 2892 2821 2691 0 0 0 2171 2158 2143 2124 2088 2077 2075 2064 2058 2051 2046 2040 2036 2032 2029 2025 2022 2021 2018 2016 2012 2008 2004 2000 1997 1994 1990 1987 1984 1982 1980 1978 1976 1974 1973 1972 1970 1968 1966 1963 1961 1960 1958 1955 1952 1951 1949 1947 1946 1944 1942 1942 1941 1941 1939 1939 1938 1937 1936 1935 1934 1933 1932 1931 1930 1930 1929 1928 1927 1926 1925 1925 1925 1925 1926 1926 1926 1926 1926 1927 1927 1928 1929 1929 1930 1930 1930 1930 1930 1929 1928 1927 1924 1923 1923 1923 1923 1922 1920 1920 1920 1919 1919 1916 1916 1916 1919 1924 1928 1930 1933 1936 1938 1942 1948 1950 1953 1956 1960 1964 1970 1973 1973 1979 1979 1979 1971 1965 1960 1957 1956 1955 1947 1946 1946 1946 1948 1948 1948 1948 1947 1946 1945 1942 1941 1939 1939 1939 1939 1939 1936 1934 1933 1932 1932 1927 1925 1922 1917 1913 1911 1908 1905 1903 1901 1898 1895 1893 1892 1890 1887 1885 1882 1881 1880 1879 1878 1877 1876 1874 1872 1871 1869 1869 1868 1865 1864 1862 1862 1861 1859 1857 1856 1854 1853 1851 1850 1849 1847 1847 1846 1845 1844 1844 1844 1844 1844 1844 1844 1845 1846 1846 1848 1848 1850 1851 1852 1853 1855 1856 1857 1859 1861 1863 1864 1864 1866 1868 1870 1871 1872 1873 1874 1875 1876 1877 1879 1880 1882 1885 1888 1890 1894 1896 1900 1903 1907 1911 1916 1921 1924 1928 1929 1933 1939 1939 1941 1942 1952 1952 1952 0 0 0 0 0 0 0 0 0 0 0 0 0 0 2440 2541 2627 2705 2799 2867 2867 2878 2878 2867 2856 2856 2855 2848 2848 2839 2837 2837 2837 2833 2834 2842 2842 2842 2864 2867 2867 2867 2862 2847 2812 2767 2733 2732 2722 2722 2704 2680 0 0 0 0 0 0 0 0 0 0 0 0 0 0 0 0 0 0 0 0 0 0 0 0 0 0 0 0 0 0 0 0 0 0 0 0 0 0 0 0 0 0 0 0 0 0 0 0 0 0 0 0 0 0 0 0 0 0 0 0 0 0 0 0 0 0 0 0 0 0 1120 1095 1086 1074 1070 1067 1055 1044 1028 1009 994 994 994 996 1006 1012 1014 1015 1015
0 0 0 0 0 0 0 0 0 0 0 0 0 0 0 0 0 0 0 0 0 0 0 0 0 0 0 0 0 1923 1931 1932 1949 1950 1955 1975 2035 2074 2082 2098 2113 2113 0 0 0 0 0 0 0 0 0 0 0 0 0 0 0 0 0 0 0 0 0 0 0 0 0 0 0 0 0 0 0 0 0 0 0 0 0 0 0 0 0 0 0 0 0 0 0 0 0 0 0 0 0 0 0 0 0 0 0 0 0 0 0 0 0 0 0 0 0 0 0 0 0 0 0 0 0 0 0 0 0 0 0 0 0 0 2480 2490 2492 2504 2516 2518 2522 2524 2542 2562 2586 2596 2611 2639 2642 2662 2662 2662 2662 2662 2669 2687 2704 2716 2716 2729 2729 2729 2727 2727 2727 2738 2778 2792 2798 2800 2828 2842 2849 2851 2852 2852 2852 2852 2852 2848 2840 2840 2769 2753 2730 2702 2680 2645 2599 0 0 0 0 0 0 0 0 0 0 0 0 0 0 0 2505 2537 2582 2601 2625 2625 2625 2625 2625 2650 2670 2682 2684 2684 2683 2683 2659 2646 2639 2639 2635 2635 2635 2635 2635 2644 2665 2705 2777 2823 2860 2906 2906 2906 2880 2821 2691 2501 0 0 2173 2160 2145 2126 2104 2082 2075 2067 2058 2051 2046 2041 2036 2032 2029 2025 2022 2021 2018 2016 2012 2008 2004 2000 1996 1994 1990 1988 1985 1982 1980 1978 1976 1974 1973 1971 1969 1967 1965 1963 1961 1959 1957 1955 1953 1951 1949 1947 1946 1944 1942 1941 1941 1940 1939 1938 1938 1937 1936 1935 1934 1933 1932 1931 1930 1930 1929 1928 1927 1926 1926 1926 1926 1926 1926 1927 1927 1927 1927 1928 1928 1930 1930 1931 1931 1931 1931 1931 1930 1930 1930 1929 1927 1927 1927 1927 1927 1927 1925 1924 1924 1924 1923 1922 1922 1922 1924 1929 1930 1934 1939 1941 1946 1954 1957 1959 1960 1964 1969 1975 1979 1983 1985 1988 1992 1993 1993 1993 1980 1970 1965 1958 1957 1957 1957 1957 1956 1956 1954 1952 1949 1947 1945 1943 1943 1943 1944 1944 1944 1942 1940 1938 1938 1937 1937 1932 1929 1924 1921 1917 1914 1910 1906 1903 1901 1898 1896 1893 1892 1890 1887 1884 1882 1880 1878 1876 1876 1875 1874 1872 1871 1868 1867 1866 1865 1864 1863 1861 1860 1858 1857 1857 1855 1853 1852 1850 1850 1848 1847 1847 1846 1845 1844 1844 1843 1843 1843 1844 1844 1845 1846 1847 1848 1849 1850 1851 1853 1855 1856 1857 1859 1861 1862 1863 1865 1866 1867 1869 1870 1871 1872 1873 1874 1875 1876 1877 1879 1880 1882 1884 1887 1890 1892 1896 1899 1903 1907 1911 1916 1921 1924 1927 1929 1933 1937 1937 1938 1941 1955 1960 1960 1960 0 0 0 0 0 0 0 0 0 0 0 0 2427 2526 2629 2728 2792 2847 2867 2867 2867 2861 2844 2844 2844 2855 2859 2870 2870 2870 2869 2869 2869 2867 2867 2864 2864 2864 2864 2864 2814 2775 2691 2664 2640 2592 2579 2524 2524 2518 0 0 0 0 0 0 0 0 0 0 0 0 0 0 0 0 0 0 0 0 0 0 0 0 0 0 0 0 0 0 0 0 0 0 0 0 0 0 0 0 0 0 0 0 0 0 0 0 0 0 0 0 0 0 0 0 0 0 0 0 0 0 0 0 0 0 0 0 0 0 1112 1112 1091 1077 1068 1067 1065 1055 1044 1028 1009 994 994 994 996 1002 1009 1013 1013 1013
