2698 2698 2711 2727 2745 2766 2766 2766 2754 2725 2672 2668 0 0 0 0 0 0 0 0 0 0 0 1407 1410 1424 1426 1426 1430 1431 1447 1465 1465 1465 1453 1450 1450 1450 1453 1455 1460 1466 1468 1469 1469 1469 1470 1470 1473 1474 1475 1478 1480 1481 1483 1484 1486 1487 1488 1489 1490 1491 1492 1492 1493 1493 1493 1493 1493 1493 1493 1492 1491 1489 1487 1486 1486 1484 1484 1484 1484 1484 1484 1487 1489 1492 1494 1497 1499 1499 1502 1504 1507 1509 1511 1511 1513 1517 1521 1524 1524 1524 1524 1524 1525 1525 1527 1528 1529 1529 1529 1526 1526 1526 1528 1530 1533 1535 1536 1538 1539 1542 1544 1550 1550 1551 1555 1558 1559 1561 1564 1565 1567 1567 1570 1571 1573 1575 1576 1578 1580 1581 1582 1582 1583 1584 1586 1586 1588 1589 1589 1589 1587 1586 1586 1585 1584 1584 1583 1583 1583 1583 1583 1584 1585 1588 1590 1592 1593 1595 1598 1600 1604 1610 1612 1619 1622 1627 1630 1631 1633 1635 1637 1638 1641 1642 1645 1647 1648 1650 1651 1652 1653 1654 1654 1654 1654 1654 1654 1653 1651 1648 1648 1648 1649 1650 1650 1650 1651 1652 1654 1655 1658 1658 1660 1663 1666 1668 1677 1683 1690 1692 1695 1698 1699 1701 1703 1704 1706 1708 1709 1712 1714 1716 1718 1719 1721 1722 1725 1726 1728 1730 1731 1733 1735 1737 1739 1741 1742 1743 1745 1746 1748 1752 1759 1760 0 0 1927 1941 1951 1952 1952 1952 1949 1949 1949 1949 1949 1947 1945 1942 1941 1939 1937 1936 1934 1933 1931 1930 1928 1927 1925 1924 1923 1921 1920 1919 1917 1916 1915 1914 1912 1912 1911 1909 1908 1906 1905 1904 1903 1902 1900 1899 1897 1896 1894 1892 1892 1890 1889 1888 1886 1885 1884 1882 1881 1880 1878 1876 1874 1874 1872 1871 1870 1869 1867 1866 1865 1863 1862 1861 1859 1859 1858 1857 1856 1856 1855 1855 1854 1853 1853 1851 1851 1850 1849 1848 1847 1847 1846 1846 1846 1846 1846 1847 1847 1848 1848 1849 1850 1851 1851 1852 1852 1852 1853 1853 1853 1853 1854 1855 1856 1857 1857 1858 1858 1859 1859 1859 1860 1861 1861 1861 1862 1863 1863 1864 1865 1866 1867 1867 1868 1868 1869 1869 1870 1871 1872 1872 1872 1873 1873 1874 1874 1874 1874 1875 1876 1876 1877 1877 1878 1878 1879 1879 1879 1880 1881 1881 1882 1882 1882 1883 1884 1884 1886 1886 1886 1887 1887 1888 1888 1889 1890 1890 1892 1892 1894 1895 1896 1898 1899 1901 1902 1903 1904 1905 1906 1907 1908 1910 1911 1912 1914 1916 1918 1920 1922 1924 1926 1928 1931 1933 1935 1938 1940 1944 1947 1950 1953 1956 1958 1961 1963 1969 1969 1969 1965 1955 0 0 0 0 0 0 0 0 0 0 0 0 0 0 0 0 0 0 0 0 0 0 0 0 0 0 0 0 0 0 0 0 0 0 0 0 0 0 0 0 0 0 0 0 0 0 0 0 0 0 0 0 0 0 0 0 0 0 0 0 0 0 0 0 0 0 0 0 0 0 0 0 0 0 0 0 0 0 0 0 0 0 0 0 0 0 0 0 0 0 0 0 0 0 0 0 0 0 0 0 0 0 0 0 0 0 0 0 0 0 0 0 0 0 0 0 1095 1095 1058 1051 1045 1040 1013 981 948 920 905 905 905 911 919 919 919 918 912 907 905 899 893 884 874 859 839 820 807 801 796 795 795 795 799 800 800 805 815 830 848 848 869 0
2694 2694 2711 2727 2736 2757 2757 2757 2754 2735 2672 2669 0 0 0 0 0 0 0 0 0 0 0 1420 1423 1435 1438 1439 1439 1451 1464 1465 1465 1465 1458 1450 1450 1450 1453 1455 1460 1466 1469 1470 1470 1472 1473 1473 1474 1474 1475 1478 1480 1481 1483 1485 1486 1487 1489 1489 1490 1491 1492 1493 1493 1493 1493 1493 1492 1492 1491 1491 1490 1488 1487 1486 1486 1484 1481 1479 1479 1479 1482 1487 1489 1491 1494 1495 1497 1498 1500 1503 1505 1506 1506 1507 1511 1516 1521 1524 1526 1527 1527 1527 1528 1531 1531 1531 1531 1531 1531 1532 1534 1536 1537 1539 1540 1540 1540 1541 1545 1548 1549 1550 1551 1553 1555 1557 1559 1560 1562 1563 1564 1566 1567 1569 1570 1573 1575 1577 1578 1579 1579 1579 1581 1582 1583 1585 1586 1587 1587 1587 1588 1588 1587 1587 1587 1587 1586 1586 1586 1586 1586 1586 1587 1589 1594 1597 1598 1599 1599 1601 1605 1612 1615 1619 1623 1626 1630 1631 1633 1634 1636 1638 1639 1642 1643 1645 1648 1649 1651 1652 1653 1653 1653 1654 1654 1654 1654 1653 1651 1649 1649 1649 1650 1650 1651 1651 1652 1653 1655 1656 1659 1660 1661 1663 1666 1669 1677 1683 1687 1691 1695 1698 1699 1700 1702 1704 1706 1708 1710 1712 1714 1716 1718 1720 1721 1723 1725 1727 1728 1730 1731 1733 1735 1737 1739 1741 1742 1743 1745 1746 1748 1752 1754 1761 0 0 1927 1944 1951 1951 1951 1949 1949 1949 1949 1949 1948 1947 1944 1942 1940 1939 1937 1935 1934 1932 1931 1929 1928 1927 1924 1923 1921 1920 1919 1918 1916 1916 1914 1913 1912 1911 1910 1909 1908 1906 1905 1904 1903 1901 1900 1899 1897 1895 1893 1892 1891 1890 1889 1887 1886 1885 1884 1882 1881 1879 1878 1875 1874 1872 1871 1870 1869 1868 1867 1865 1864 1862 1861 1860 1858 1858 1857 1856 1856 1855 1854 1854 1853 1853 1852 1851 1851 1850 1849 1847 1847 1846 1846 1845 1845 1845 1846 1846 1847 1847 1848 1849 1849 1850 1851 1851 1852 1852 1852 1853 1853 1853 1854 1855 1856 1857 1857 1857 1858 1859 1859 1859 1860 1860 1861 1861 1861 1862 1863 1863 1865 1866 1866 1867 1868 1868 1869 1869 1870 1871 1872 1872 1872 1873 1873 1874 1874 1874 1874 1875 1875 1876 1877 1877 1877 1878 1878 1879 1879 1880 1881 1881 1882 1882 1882 1883 1884 1884 1885 1886 1886 1887 1887 1888 1888 1889 1890 1890 1892 1892 1894 1894 1896 1898 1899 1901 1902 1903 1905 1905 1906 1907 1908 1910 1911 1912 1914 1916 1918 1920 1922 1923 1925 1928 1930 1932 1935 1937 1939 1942 1947 1950 1953 1956 1958 1962 1964 1969 1972 1975 1975 1975 0 0 0 0 0 0 0 0 0 0 0 0 0 0 0 0 0 0 0 0 0 0 0 0 0 0 0 0 0 0 0 0 0 0 0 0 0 0 0 0 0 0 0 0 0 0 0 0 0 0 0 0 0 0 0 0 0 0 0 0 0 0 0 0 0 0 0 0 0 0 0 0 0 0 0 0 0 0 0 0 0 0 0 0 0 0 0 0 0 0 0 0 0 0 0 0 0 0 0 0 0 0 0 0 0 0 0 0 0 0 0 0 0 0 0 0 1136 1085 1057 1048 1044 1037 1016 984 953 920 905 905 905 911 916 916 916 915 910 905 903 897 891 883 870 855 833 817 806 800 795 793 792 792 793 794 795 801 808 823 841 841 863 0
2686 2686 2711 2727 2736 2757 2763 2763 2763 2743 2683 2672 0 0 0 0 0 0 0 0 0 0 0 1431 1438 1441 1445 1448 1450 1455 1468 1468 1468 1465 1458 1453 1453 1453 1453 1455 1461 1466 1469 1470 1470 1474 1474 1474 1475 1475 1475 1478 1480 1482 1483 1485 1486 1487 1488 1489 1490 1491 1492 1493 1493 1493 1493 1492 1492 1490 1490 1489 1488 1485 1482 1482 1481 1480 1479 1478 1478 1478 1482 1485 1488 1491 1493 1495 1497 1498 1500 1502 1503 1504 1506 1506 1511 1516 1521 1526 1528 1528 1529 1529 1533 1535 1535 1535 1535 1535 1535 1535 1538 1542 1542 1543 1543 1543 1544 1546 1547 1550 1551 1552 1553 1553 1554 1555 1557 1560 1560 1561 1562 1564 1566 1566 1567 1569 1573 1575 1577 1577 1577 1577 1578 1581 1583 1584 1585 1587 1587 1587 1587 1587 1589 1590 1590 1590 1590 1590 1590 1589 1589 1590 1592 1594 1598 1600 1601 1601 1601 1601 1606 1614 1617 1619 1623 1625 1629 1630 1632 1634 1635 1637 1638 1640 1642 1644 1646 1648 1650 1651 1652 1653 1653 1654 1654 1654 1654 1654 1650 1650 1650 1650 1651 1651 1652 1652 1652 1653 1655 1657 1659 1661 1661 1663 1666 1669 1677 1680 1687 1691 1695 1698 1699 1700 1701 1703 1706 1708 1710 1712 1714 1716 1718 1720 1721 1723 1725 1727 1728 1730 1731 1733 1735 1737 1739 1741 1742 1744 1746 1747 1748 1752 1754 1761 0 0 1930 1945 1951 1951 1951 1949 1949 1949 1949 1949 1948 1946 1944 1942 1940 1938 1936 1935 1934 1932 1931 1929 1928 1925 1924 1923 1921 1920 1918 1917 1916 1914 1913 1913 1912 1911 1910 1908 1907 1906 1905 1904 1903 1901 1900 1897 1896 1894 1893 1892 1891 1889 1888 1886 1885 1884 1883 1881 1879 1878 1875 1874 1873 1872 1871 1869 1869 1868 1866 1864 1862 1862 1860 1858 1858 1857 1856 1855 1855 1854 1854 1853 1853 1852 1852 1850 1849 1848 1847 1847 1846 1845 1845 1844 1844 1844 1845 1846 1847 1847 1848 1848 1849 1849 1850 1851 1851 1852 1852 1852 1853 1854 1854 1855 1856 1857 1857 1857 1858 1859 1859 1859 1860 1860 1860 1861 1861 1862 1863 1863 1864 1865 1865 1866 1867 1868 1868 1868 1870 1871 1871 1872 1872 1872 1873 1873 1874 1874 1874 1875 1875 1876 1876 1877 1877 1877 1878 1878 1879 1879 1880 1881 1882 1882 1882 1883 1884 1884 1885 1886 1887 1887 1887 1888 1888 1889 1890 1890 1892 1892 1894 1894 1896 1899 1900 1901 1902 1904 1905 1906 1907 1908 1909 1910 1911 1913 1914 1916 1917 1919 1921 1923 1925 1927 1930 1932 1934 1936 1939 1942 1946 1950 1953 1954 1959 1962 1964 1969 1972 1975 1975 1975 0 0 0 0 0 0 0 0 0 0 0 0 0 0 0 0 0 0 0 0 0 0 0 0 0 0 0 0 0 0 0 0 0 0 0 0 0 0 0 0 0 0 0 0 0 0 0 0 0 0 0 0 0 0 0 0 0 0 0 0 0 0 0 0 0 0 0 0 0 0 0 0 0 0 0 0 0 0 0 0 0 0 0 0 0 0 0 0 0 0 0 0 0 0 0 0 0 0 0 0 0 0 0 0 0 0 0 0 0 0 0 0 0 0 0 1123 1123 1082 1056 1048 1040 1035 1017 986 957 925 906 906 906 909 911 911 911 911 908 904 901 895 889 881 869 853 832 815 805 799 794 792 791 790 790 790 793 798 808 821 839 839 860 0
2676 2676 2705 2727 2736 2754 2772 2772 2772 2752 2691 2551 2501 0 0 0 0 0 0 0 0 0 0 1446 1456 1456 1458 1458 1461 1461 1468 1468 1468 1458 1457 1454 1453 1453 1453 1457 1463 1466 1469 1470 1470 1474 1474 1474 1476 1476 1476 1479 1480 1482 1483 1485 1486 1487 1488 1489 1491 1491 1492 1493 1493 1493 1493 1492 1491 1490 1488 1487 1486 1481 1478 1477 1477 1476 1475 1475 1475 1476 1481 1483 1487 1490 1491 1492 1494 1496 1499 1501 1503 1504 1506 1506 1511 1516 1521 1527 1530 1530 1531 1532 1534 1535 1536 1537 1537 1539 1539 1540 1542 1544 1546 1547 1548 1549 1549 1550 1550 1551 1553 1553 1553 1553 1554 1555 1557 1557 1558 1558 1560 1561 1564 1564 1564 1566 1572 1575 1575 1575 1576 1576 1576 1580 1582 1582 1584 1585 1586 1586 1587 1587 1591 1591 1591 1592 1591 1591 1592 1592 1593 1595 1597 1598 1600 1601 1602 1602 1603 1603 1609 1614 1617 1620 1623 1625 1627 1628 1632 1633 1634 1636 1638 1639 1640 1643 1646 1647 1649 1651 1652 1652 1653 1654 1655 1655 1655 1655 1651 1651 1651 1652 1653 1653 1653 1653 1653 1654 1655 1658 1659 1661 1661 1663 1666 1669 1676 1679 1685 1692 1696 1698 1699 1700 1701 1703 1706 1708 1710 1712 1714 1716 1718 1720 1721 1723 1725 1727 1728 1730 1731 1733 1735 1736 1739 1741 1742 1745 1746 1748 1750 1752 1754 1763 0 0 1930 1945 1951 1951 1951 1950 1950 1949 1949 1949 1948 1946 1944 1942 1940 1938 1936 1935 1933 1932 1931 1928 1927 1925 1923 1922 1920 1919 1917 1916 1916 1914 1913 1913 1911 1911 1910 1908 1907 1906 1905 1902 1902 1900 1898 1897 1895 1894 1892 1891 1890 1889 1887 1886 1885 1883 1881 1880 1878 1876 1875 1874 1872 1871 1870 1869 1869 1866 1865 1863 1861 1860 1860 1858 1858 1856 1856 1855 1854 1854 1853 1852 1852 1851 1851 1850 1849 1848 1847 1846 1845 1845 1844 1844 1844 1844 1845 1846 1847 1847 1847 1848 1849 1849 1850 1850 1851 1852 1852 1852 1853 1854 1855 1855 1856 1857 1857 1857 1858 1859 1859 1859 1860 1860 1860 1860 1861 1862 1862 1863 1864 1864 1865 1866 1867 1867 1868 1868 1869 1870 1870 1871 1872 1872 1872 1873 1873 1873 1874 1874 1875 1875 1876 1876 1877 1877 1878 1878 1879 1879 1880 1881 1882 1882 1882 1883 1884 1884 1885 1886 1887 1887 1887 1888 1888 1889 1890 1891 1892 1893 1894 1894 1896 1899 1900 1902 1902 1904 1905 1906 1907 1908 1909 1910 1911 1913 1914 1915 1917 1919 1921 1923 1925 1927 1929 1930 1934 1936 1938 1942 1945 1948 1951 1954 1959 1962 1964 1969 1972 1975 1975 1975 1966 0 0 0 0 0 0 0 0 0 0 0 0 0 0 0 0 0 0 0 0 0 0 0 0 0 0 0 0 0 0 0 0 0 0 0 0 0 0 0 0 0 0 0 0 0 0 0 0 0 0 0 0 0 0 0 0 0 0 0 0 0 0 0 0 0 0 0 0 0 0 0 0 0 0 0 0 0 0 0 0 0 0 0 0 0 0 0 0 0 0 0 0 0 0 0 0 0 0 0 0 0 0 0 0 0 0 0 0 0 0 0 0 0 0 1100 1100 1079 1056 1048 1040 1035 1019 988 962 929 907 904 904 904 906 909 909 909 907 904 898 893 886 880 868 852 830 814 803 797 792 790 789 788 788 788 790 798 807 820 837 837 860 0
2676 2676 2700 2727 2734 2749 2772 2772 2772 2752 2698 2551 2523 0 0 0 0 0 0 0 0 0 0 1446 1465 1468 1468 1468 1468 1468 1467 1467 1467 1457 1456 1455 1455 1455 1455 1459 1463 1465 1466 1467 1470 1474 1475 1475 1476 1476 1476 1479 1480 1482 1484 1485 1487 1487 1489 1489 1491 1492 1492 1492 1492 1492 1492 1492 1491 1490 1487 1486 1485 1481 1478 1476 1475 1473 1473 1473 1474 1475 1479 1481 1484 1488 1489 1492 1494 1496 1498 1499 1502 1504 1506 1506 1513 1519 1522 1527 1531 1533 1533 1534 1536 1537 1537 1539 1539 1540 1541 1541 1543 1545 1547 1549 1550 1551 1551 1552 1553 1553 1554 1554 1554 1554 1554 1554 1554 1555 1556 1556 1556 1556 1558 1562 1564 1564 1568 1570 1570 1570 1572 1572 1573 1576 1577 1579 1582 1583 1584 1587 1589 1592 1593 1593 1593 1592 1592 1592 1592 1592 1594 1599 1602 1603 1603 1603 1604 1605 1605 1608 1611 1614 1617 1620 1623 1625 1626 1628 1630 1632 1633 1634 1636 1638 1639 1642 1644 1646 1647 1649 1651 1652 1653 1654 1656 1656 1656 1655 1652 1652 1652 1653 1653 1653 1653 1653 1654 1655 1656 1658 1659 1661 1661 1663 1666 1669 1676 1679 1684 1691 1696 1698 1699 1700 1701 1703 1706 1708 1710 1712 1714 1716 1718 1720 1721 1723 1725 1726 1728 1730 1731 1733 1734 1736 1739 1740 1742 1745 1746 1748 1752 1753 1754 1764 0 0 1930 1948 1951 1951 1951 1951 1951 1950 1950 1949 1948 1946 1944 1942 1940 1938 1936 1935 1933 1931 1930 1928 1927 1924 1923 1921 1920 1918 1917 1916 1915 1914 1912 1911 1911 1910 1910 1908 1907 1905 1904 1902 1901 1899 1897 1896 1895 1893 1892 1890 1889 1888 1887 1886 1884 1882 1880 1878 1877 1876 1875 1873 1871 1871 1870 1869 1868 1866 1864 1862 1860 1859 1859 1858 1857 1856 1855 1853 1853 1852 1852 1852 1851 1850 1850 1849 1848 1848 1847 1846 1845 1844 1844 1844 1844 1844 1845 1846 1846 1847 1847 1848 1849 1849 1850 1850 1851 1851 1852 1852 1853 1854 1855 1856 1857 1857 1857 1858 1859 1859 1859 1859 1860 1860 1860 1860 1861 1862 1862 1863 1864 1864 1865 1866 1867 1867 1868 1868 1869 1869 1870 1871 1872 1872 1872 1873 1873 1873 1873 1874 1874 1875 1876 1876 1877 1877 1878 1878 1879 1879 1880 1881 1882 1882 1883 1883 1884 1884 1885 1886 1887 1887 1888 1889 1889 1890 1890 1891 1892 1893 1894 1896 1898 1899 1900 1902 1903 1904 1905 1907 1907 1908 1909 1910 1912 1913 1914 1915 1916 1918 1920 1922 1925 1926 1928 1929 1932 1935 1938 1942 1944 1947 1950 1953 1958 1962 1963 1969 1971 1975 1981 1981 1981 0 0 0 0 0 0 0 0 0 0 0 0 0 0 0 0 0 0 0 0 0 0 0 0 0 0 0 0 0 0 0 0 0 0 0 0 0 0 0 0 0 0 0 0 0 0 0 0 0 0 0 0 0 0 0 0 0 0 0 0 0 0 0 0 0 0 0 0 0 0 0 0 0 0 0 0 0 0 0 0 0 0 0 0 0 0 0 0 0 0 0 0 0 0 0 0 0 0 0 0 0 0 0 0 0 0 0 0 0 0 0 0 0 0 1092 1092 1079 1056 1052 1040 1034 1019 993 965 931 907 899 899 899 901 906 906 906 906 904 898 891 885 878 868 848 827 814 803 795 789 788 787 787 787 788 788 798 806 816 836 836 858 0
2676 2676 2700 2718 2730 2744 2757 2757 2757 2752 2699 2554 2551 0 0 0 0 0 0 0 0 0 0 1446 1465 1468 1468 1468 1465 1465 1463 1463 1463 1454 1454 1454 1454 1454 1462 1463 1463 1463 1464 1466 1468 1471 1475 1475 1476 1476 1476 1479 1481 1483 1484 1485 1487 1488 1489 1490 1491 1492 1492 1492 1492 1492 1492 1491 1491 1490 1487 1485 1484 1481 1478 1475 1474 1473 1473 1473 1474 1475 1477 1479 1483 1485 1487 1490 1491 1494 1496 1498 1501 1504 1506 1507 1514 1520 1524 1528 1531 1533 1535 1536 1537 1539 1539 1540 1541 1542 1543 1545 1545 1547 1549 1549 1551 1552 1552 1553 1553 1554 1554 1554 1554 1553 1551 1550 1550 1550 1551 1552 1553 1553 1554 1555 1557 1561 1562 1564 1565 1565 1568 1570 1570 1571 1572 1576 1578 1581 1584 1587 1590 1592 1593 1596 1596 1596 1597 1597 1597 1597 1597 1605 1605 1605 1605 1605 1605 1606 1607 1610 1612 1615 1617 1620 1623 1625 1626 1627 1629 1631 1632 1633 1635 1635 1638 1639 1642 1645 1645 1647 1649 1651 1653 1654 1656 1656 1656 1656 1653 1653 1653 1654 1654 1654 1654 1654 1655 1656 1656 1658 1660 1661 1661 1663 1666 1669 1676 1680 1685 1692 1695 1698 1699 1700 1702 1704 1706 1708 1710 1712 1714 1716 1718 1719 1721 1723 1724 1726 1728 1730 1731 1733 1734 1736 1738 1740 1742 1745 1746 1748 1752 1754 1754 1766 0 0 1932 1952 1952 1952 1951 1951 1951 1951 1950 1949 1948 1946 1944 1942 1940 1939 1936 1935 1933 1931 1930 1928 1926 1924 1921 1920 1919 1918 1916 1915 1914 1913 1912 1911 1911 1910 1908 1907 1906 1905 1903 1901 1901 1899 1896 1894 1894 1892 1891 1890 1889 1888 1887 1885 1884 1881 1880 1878 1876 1876 1874 1873 1871 1870 1870 1868 1867 1865 1864 1861 1860 1858 1858 1856 1856 1855 1854 1853 1852 1852 1852 1851 1851 1850 1849 1849 1848 1847 1846 1845 1844 1844 1844 1844 1844 1844 1845 1846 1846 1847 1847 1848 1849 1850 1850 1850 1851 1851 1852 1853 1853 1854 1855 1856 1857 1857 1857 1858 1859 1859 1859 1860 1860 1860 1860 1861 1861 1862 1862 1863 1864 1864 1865 1866 1866 1867 1867 1868 1868 1868 1869 1870 1871 1871 1872 1872 1872 1873 1874 1874 1874 1875 1876 1876 1876 1877 1877 1877 1879 1879 1880 1881 1881 1882 1883 1883 1884 1884 1885 1886 1887 1887 1888 1889 1889 1890 1891 1891 1892 1893 1894 1896 1898 1899 1900 1902 1903 1904 1905 1907 1907 1908 1909 1910 1912 1913 1914 1915 1916 1918 1920 1922 1924 1926 1928 1929 1931 1934 1937 1941 1944 1947 1950 1953 1957 1960 1960 1963 1971 1975 1980 1980 1980 0 0 0 0 0 0 0 0 0 0 0 0 0 0 0 0 0 0 0 0 0 0 0 0 0 0 0 0 0 0 0 0 0 0 0 0 0 0 0 0 0 0 0 0 0 0 0 0 0 0 0 0 0 0 0 0 0 0 0 0 0 0 0 0 0 0 0 0 0 0 0 0 0 0 0 0 0 0 0 0 0 0 0 0 0 0 0 0 0 0 0 0 0 0 0 0 0 0 0 0 0 0 0 0 0 0 0 0 0 0 0 0 0 0 1124 1092 1079 1062 1060 1050 1034 1019 993 965 931 906 896 896 896 898 905 905 905 905 903 898 891 884 876 865 846 826 813 802 794 787 787 786 785 785 787 787 795 805 815 831 831 850 0
2684 2684 2700 2718 2725 2730 2742 2742 2742 2734 2702 2564 2554 0 0 0 0 0 0 0 0 0 0 1398 1465 1468 1468 1468 1454 1454 1454 1454 1454 1454 1453 1453 1454 1457 1464 1464 1464 1463 1463 1463 1467 1471 1476 1476 1476 1477 1477 1480 1481 1483 1484 1486 1487 1488 1489 1490 1491 1492 1493 1493 1493 1492 1492 1491 1491 1490 1488 1484 1483 1480 1478 1475 1473 1473 1473 1473 1473 1474 1475 1477 1481 1484 1486 1487 1490 1491 1495 1496 1500 1503 1506 1508 1515 1520 1527 1531 1532 1533 1535 1537 1538 1540 1541 1542 1543 1544 1545 1546 1547 1548 1550 1551 1551 1552 1554 1554 1555 1555 1555 1555 1555 1552 1549 1549 1549 1549 1550 1550 1550 1552 1553 1555 1555 1558 1558 1559 1559 1559 1560 1563 1563 1564 1566 1571 1578 1581 1584 1588 1591 1595 1595 1596 1597 1599 1600 1602 1603 1604 1604 1605 1608 1608 1609 1609 1609 1609 1612 1614 1615 1616 1616 1619 1623 1624 1626 1626 1626 1628 1629 1631 1633 1634 1635 1636 1639 1641 1643 1646 1647 1650 1652 1653 1656 1657 1657 1657 1657 1657 1657 1657 1657 1657 1657 1657 1657 1658 1659 1660 1661 1662 1663 1663 1666 1671 1679 1682 1688 1692 1695 1698 1699 1701 1702 1704 1706 1708 1710 1712 1714 1716 1717 1719 1720 1722 1724 1726 1728 1729 1731 1733 1734 1736 1738 1739 1742 1744 1746 1748 1752 1753 1759 1780 0 0 1939 1952 1952 1952 1952 1952 1951 1951 1950 1950 1948 1946 1944 1942 1940 1939 1936 1935 1933 1931 1930 1928 1925 1923 1921 1919 1919 1917 1916 1914 1913 1912 1911 1910 1909 1908 1907 1906 1905 1905 1903 1901 1899 1898 1895 1894 1892 1892 1891 1889 1888 1887 1885 1884 1883 1880 1879 1877 1876 1874 1873 1872 1870 1869 1869 1867 1866 1865 1863 1861 1859 1858 1857 1855 1855 1854 1853 1852 1852 1852 1851 1850 1850 1849 1849 1847 1847 1846 1846 1845 1844 1844 1844 1844 1844 1844 1845 1845 1846 1847 1847 1848 1849 1850 1850 1850 1851 1851 1852 1853 1853 1855 1855 1856 1857 1858 1858 1859 1859 1859 1859 1860 1860 1861 1861 1861 1861 1862 1862 1863 1864 1864 1865 1866 1866 1867 1867 1867 1868 1868 1869 1869 1870 1871 1872 1872 1872 1873 1873 1874 1874 1874 1876 1876 1876 1877 1877 1877 1878 1879 1880 1881 1881 1882 1883 1883 1883 1884 1885 1886 1887 1887 1888 1889 1889 1890 1891 1891 1892 1892 1894 1896 1898 1899 1900 1901 1903 1904 1905 1906 1907 1908 1909 1910 1912 1913 1914 1916 1917 1918 1920 1922 1924 1926 1927 1929 1931 1933 1936 1939 1944 1946 1950 1953 1956 1960 1960 1963 1970 1975 1980 1980 1980 1960 0 0 0 0 0 0 0 0 0 0 0 0 0 0 0 0 0 0 0 0 0 0 0 0 0 0 0 0 0 0 0 0 0 0 0 0 0 0 0 0 0 0 0 0 0 0 0 0 0 0 0 0 0 0 0 0 0 0 0 0 0 0 0 0 0 0 0 0 0 0 0 0 0 0 0 0 0 0 0 0 0 0 0 0 0 0 0 0 0 0 0 0 0 0 0 0 0 0 0 0 0 0 0 0 0 0 0 0 0 0 0 0 1115 1115 1088 1080 1077 1069 1050 1034 1019 993 965 931 905 894 894 894 897 905 905 905 905 903 897 890 882 871 858 844 826 813 801 794 787 784 784 784 784 785 787 795 804 811 821 821 846 0
2703 2703 2707 2718 2725 2730 2742 2742 2742 2734 2702 2593 2554 0 0 0 0 0 0 0 0 0 0 0 1435 1436 1436 1436 1430 1430 1430 1444 1449 1449 1452 1453 1454 1457 1464 1464 1464 1463 1463 1463 1467 1471 1476 1476 1477 1478 1478 1480 1483 1484 1485 1486 1487 1488 1489 1490 1491 1492 1493 1493 1493 1492 1492 1491 1491 1490 1488 1484 1480 1479 1477 1475 1473 1473 1473 1473 1473 1473 1474 1477 1479 1483 1484 1486 1488 1491 1493 1495 1499 1502 1506 1508 1515 1521 1527 1531 1533 1535 1536 1538 1540 1541 1542 1544 1545 1546 1546 1547 1548 1550 1551 1551 1553 1553 1554 1555 1556 1556 1556 1556 1556 1552 1549 1549 1549 1548 1548 1549 1549 1550 1551 1552 1553 1556 1556 1556 1555 1555 1555 1557 1559 1562 1565 1571 1577 1581 1586 1588 1593 1598 1599 1600 1601 1602 1604 1605 1606 1607 1609 1610 1612 1613 1613 1614 1615 1615 1615 1616 1616 1617 1618 1619 1619 1623 1623 1625 1625 1626 1626 1627 1629 1632 1634 1635 1638 1640 1641 1643 1646 1649 1652 1653 1655 1656 1658 1658 1658 1658 1658 1658 1658 1658 1658 1658 1658 1659 1661 1663 1664 1664 1664 1664 1667 1674 1682 1686 1690 1692 1695 1698 1699 1701 1702 1704 1706 1708 1710 1712 1714 1716 1717 1718 1720 1722 1724 1726 1727 1729 1731 1732 1734 1735 1738 1739 1742 1744 1746 1748 1752 1753 1766 1790 0 1922 1945 1952 1952 1952 1952 1952 1951 1951 1950 1950 1949 1946 1944 1942 1941 1939 1936 1934 1933 1931 1930 1928 1925 1923 1921 1919 1918 1917 1915 1914 1912 1912 1910 1909 1908 1908 1906 1905 1904 1904 1902 1901 1899 1898 1895 1893 1892 1891 1890 1889 1887 1886 1884 1883 1881 1880 1879 1877 1876 1873 1872 1871 1870 1869 1867 1866 1865 1864 1862 1861 1859 1858 1857 1855 1854 1853 1853 1852 1851 1850 1850 1849 1849 1849 1848 1847 1847 1846 1846 1845 1844 1844 1844 1844 1844 1844 1845 1845 1846 1847 1848 1848 1849 1850 1850 1850 1851 1852 1853 1853 1854 1855 1856 1857 1858 1858 1859 1859 1859 1860 1860 1860 1860 1861 1861 1861 1861 1862 1863 1863 1864 1864 1866 1866 1866 1867 1867 1867 1868 1868 1869 1869 1870 1871 1871 1871 1872 1873 1873 1873 1874 1874 1876 1876 1876 1877 1877 1877 1878 1879 1879 1880 1881 1882 1883 1883 1883 1884 1885 1886 1887 1887 1888 1889 1889 1890 1890 1891 1892 1892 1894 1896 1897 1899 1900 1901 1903 1903 1904 1905 1906 1908 1909 1910 1912 1913 1914 1915 1917 1918 1920 1921 1923 1925 1927 1929 1931 1933 1936 1939 1943 1946 1949 1952 1955 1958 1960 1963 1970 1975 1980 1982 1982 1982 0 0 0 0 0 0 0 0 0 0 0 0 0 0 0 0 0 0 0 0 0 0 0 0 0 0 0 0 0 0 0 0 0 0 0 0 0 0 0 0 0 0 0 0 0 0 0 0 0 0 0 0 0 0 0 0 0 0 0 0 0 0 0 0 0 0 0 0 0 0 0 0 0 0 0 0 0 0 0 0 0 0 0 0 0 0 0 0 0 0 0 0 0 0 0 0 0 0 0 0 0 0 0 0 0 0 0 0 0 0 0 0 1083 1083 1080 1079 1077 1069 1050 1032 1014 983 953 925 902 891 891 891 895 904 905 905 905 902 897 888 879 868 854 840 824 809 799 791 785 783 782 782 782 784 786 793 801 805 816 816 836 0
2722 2722 2722 2724 2725 2729 2742 2742 2742 2734 2710 2594 2510 0 0 0 0 0 0 0 0 0 0 0 1395 1399 1404 1405 1416 1416 1421 1421 1430 1433 1435 1436 1439 1453 1459 1460 1460 1459 1459 1460 1465 1468 1472 1476 1476 1477 1478 1481 1483 1485 1486 1486 1487 1489 1489 1491 1491 1492 1493 1493 1493 1492 1491 1491 1491 1490 1488 1483 1479 1478 1475 1473 1472 1472 1472 1472 1472 1472 1473 1474 1477 1480 1482 1484 1486 1489 1492 1494 1496 1501 1506 1509 1515 1521 1527 1532 1534 1536 1538 1539 1541 1542 1543 1545 1546 1546 1548 1548 1549 1551 1552 1553 1553 1554 1555 1556 1556 1556 1556 1556 1556 1552 1549 1549 1549 1548 1548 1548 1548 1548 1548 1550 1552 1552 1552 1552 1553 1553 1553 1555 1557 1561 1565 1571 1577 1581 1587 1591 1594 1598 1600 1600 1603 1604 1606 1608 1609 1610 1611 1612 1613 1614 1615 1616 1616 1616 1617 1618 1618 1619 1619 1618 1617 1618 1618 1620 1624 1624 1624 1625 1626 1628 1631 1635 1637 1637 1637 1640 1644 1648 1650 1652 1653 1655 1658 1658 1658 1659 1660 1660 1659 1659 1659 1659 1662 1663 1665 1666 1667 1667 1667 1668 1669 1678 1682 1686 1690 1692 1695 1697 1699 1701 1702 1704 1706 1708 1710 1712 1713 1714 1716 1717 1720 1722 1723 1725 1727 1729 1731 1732 1734 1735 1738 1739 1741 1744 1746 1748 1749 1750 1769 1806 1867 1931 1949 1953 1953 1953 1952 1952 1951 1951 1950 1950 1949 1947 1945 1943 1941 1939 1937 1934 1933 1932 1930 1928 1925 1923 1921 1919 1918 1917 1915 1913 1912 1911 1909 1908 1907 1906 1906 1904 1903 1902 1902 1900 1899 1897 1895 1893 1892 1890 1889 1887 1886 1885 1883 1881 1881 1879 1878 1876 1875 1873 1872 1870 1869 1868 1867 1865 1864 1863 1862 1860 1859 1858 1856 1855 1854 1853 1851 1851 1850 1850 1849 1849 1849 1848 1847 1847 1847 1846 1846 1845 1844 1844 1844 1844 1844 1844 1845 1845 1846 1847 1848 1848 1849 1850 1850 1851 1851 1853 1853 1854 1854 1855 1856 1857 1858 1859 1859 1860 1860 1860 1860 1860 1861 1861 1861 1861 1861 1862 1863 1863 1864 1864 1866 1866 1866 1867 1867 1867 1868 1868 1869 1869 1869 1870 1871 1871 1872 1872 1873 1873 1874 1874 1875 1876 1876 1876 1877 1877 1877 1878 1879 1880 1881 1882 1882 1883 1883 1884 1885 1886 1887 1887 1888 1889 1889 1890 1890 1891 1892 1892 1894 1896 1897 1898 1899 1901 1901 1903 1903 1904 1906 1908 1909 1909 1912 1913 1914 1915 1917 1918 1919 1921 1923 1925 1926 1928 1930 1932 1935 1939 1942 1945 1948 1951 1955 1957 1962 1967 1970 1975 1979 1980 1980 1980 0 0 0 0 0 0 0 0 0 0 0 0 0 0 0 0 0 0 0 0 0 0 0 0 0 0 0 0 0 0 0 0 0 0 0 0 0 0 0 0 0 0 0 0 0 0 0 0 0 0 0 0 0 0 0 0 0 0 0 0 0 0 0 0 0 0 0 0 0 0 0 0 0 0 0 0 0 0 0 0 0 0 0 0 0 0 0 0 0 0 0 0 0 0 0 0 0 0 0 0 0 0 0 0 0 0 0 0 0 0 0 0 1083 1085 1083 1079 1077 1069 1050 1029 1004 974 946 919 898 888 888 888 891 897 903 903 903 899 893 887 876 866 852 839 822 808 796 790 785 782 782 782 782 784 786 791 795 803 812 812 823 0
2722 2722 2722 2724 2725 2729 2742 2742 2742 2733 2710 2604 2510 0 0 0 0 0 0 0 0 0 0 0 0 1392 1399 1404 1416 1416 1416 1417 1417 1418 1420 1421 1422 1425 1435 1453 1453 1453 1457 1460 1467 1471 1473 1475 1477 1479 1479 1482 1483 1485 1486 1487 1488 1489 1490 1491 1492 1492 1493 1493 1493 1492 1491 1491 1490 1489 1488 1482 1479 1476 1474 1471 1470 1470 1470 1470 1470 1470 1471 1472 1476 1478 1481 1483 1484 1487 1490 1493 1496 1501 1507 1512 1518 1523 1527 1532 1534 1536 1538 1539 1542 1543 1544 1545 1547 1548 1549 1549 1550 1552 1553 1554 1554 1555 1556 1556 1556 1557 1557 1556 1556 1551 1550 1550 1549 1549 1548 1548 1548 1548 1548 1549 1550 1551 1551 1552 1552 1552 1553 1555 1557 1561 1565 1571 1575 1582 1587 1592 1596 1599 1600 1601 1603 1606 1608 1609 1610 1610 1612 1613 1614 1614 1616 1616 1617 1617 1617 1618 1618 1618 1618 1617 1616 1614 1614 1614 1617 1619 1620 1621 1621 1622 1627 1631 1632 1633 1633 1638 1642 1645 1648 1649 1649 1653 1657 1658 1659 1660 1660 1661 1662 1662 1663 1666 1666 1667 1668 1669 1672 1672 1673 1676 1679 1681 1683 1687 1690 1692 1693 1695 1697 1698 1700 1703 1705 1707 1709 1710 1713 1714 1714 1716 1718 1720 1722 1725 1727 1729 1731 1732 1734 1736 1738 1739 1741 1744 1746 1748 1749 1750 1772 1819 1902 1935 1949 1953 1953 1953 1951 1951 1951 1951 1950 1949 1948 1947 1945 1943 1941 1939 1937 1935 1933 1932 1931 1928 1925 1923 1921 1919 1918 1917 1914 1913 1912 1911 1909 1908 1907 1905 1905 1903 1903 1902 1900 1899 1899 1896 1894 1893 1891 1890 1888 1887 1886 1884 1882 1881 1879 1878 1876 1875 1873 1872 1871 1870 1868 1867 1866 1865 1864 1862 1861 1860 1859 1857 1856 1854 1853 1852 1851 1850 1850 1849 1849 1849 1848 1848 1847 1847 1847 1846 1846 1845 1844 1844 1844 1844 1845 1845 1845 1845 1846 1847 1848 1849 1849 1850 1850 1851 1852 1853 1853 1854 1855 1855 1856 1858 1858 1859 1860 1860 1860 1860 1861 1861 1861 1861 1861 1862 1862 1862 1863 1863 1864 1864 1865 1866 1866 1867 1867 1867 1867 1868 1869 1869 1869 1870 1871 1871 1872 1872 1873 1873 1874 1874 1874 1875 1875 1876 1876 1877 1877 1877 1879 1880 1880 1881 1881 1882 1883 1884 1885 1886 1887 1887 1887 1888 1889 1889 1890 1890 1891 1892 1894 1895 1897 1898 1899 1900 1900 1901 1903 1903 1905 1907 1909 1909 1910 1912 1914 1914 1917 1917 1919 1921 1923 1923 1924 1926 1929 1931 1935 1938 1941 1943 1947 1951 1955 1958 1962 1967 1970 1974 1978 1980 1987 1987 1987 0 0 0 0 0 0 0 0 0 0 0 0 0 0 0 0 0 0 0 0 0 0 0 0 0 0 0 0 0 0 0 0 0 0 0 0 0 0 0 0 0 0 0 0 0 0 0 0 0 0 0 0 0 0 0 0 0 0 0 0 0 0 0 0 0 0 0 0 0 0 0 0 0 0 0 0 0 0 0 0 0 0 0 0 0 0 0 0 0 0 0 0 0 0 0 0 0 0 0 0 0 0 0 0 0 0 0 0 0 0 0 1083 1089 1083 1079 1074 1058 1042 1021 997 971 945 919 898 887 887 887 887 894 901 901 901 897 892 884 876 865 852 838 822 807 796 788 784 782 782 782 782 784 786 788 792 802 809 809 817 0
2722 2722 2722 2724 2725 2729 2742 2742 2742 2733 2710 2604 2501 0 0 0 0 0 0 0 0 0 0 0 0 0 1399 1402 1416 1416 1416 1416 1415 1414 1414 1413 1409 1409 1409 1412 1423 1447 1451 1460 1467 1471 1475 1476 1477 1479 1481 1484 1485 1486 1487 1488 1489 1490 1491 1492 1492 1493 1493 1493 1493 1492 1491 1491 1491 1489 1486 1481 1477 1473 1471 1469 1468 1468 1468 1469 1469 1469 1470 1472 1474 1477 1479 1481 1483 1486 1490 1493 1496 1501 1509 1516 1519 1523 1528 1532 1534 1536 1539 1541 1542 1544 1545 1546 1547 1548 1549 1550 1551 1552 1554 1554 1555 1556 1556 1557 1557 1557 1557 1557 1556 1551 1550 1550 1549 1548 1548 1547 1547 1547 1548 1548 1550 1551 1551 1551 1552 1552 1553 1555 1557 1561 1565 1572 1577 1583 1588 1592 1596 1600 1601 1603 1604 1606 1608 1609 1610 1611 1612 1613 1614 1615 1616 1617 1617 1617 1618 1618 1618 1618 1618 1618 1616 1614 1614 1614 1615 1616 1616 1617 1618 1621 1624 1626 1629 1629 1631 1636 1638 1643 1645 1647 1648 1653 1657 1660 1661 1661 1665 1666 1666 1666 1668 1668 1668 1670 1671 1676 1676 1677 1677 1678 1682 1684 1685 1687 1690 1691 1693 1695 1697 1697 1698 1701 1703 1705 1708 1709 1710 1711 1713 1715 1718 1720 1721 1724 1727 1729 1731 1732 1734 1737 1738 1740 1741 1745 1748 1749 1750 1750 1777 1830 1915 1940 1952 1953 1953 1953 1951 1951 1951 1951 1950 1949 1948 1947 1946 1944 1942 1940 1937 1935 1933 1932 1931 1929 1925 1923 1921 1920 1918 1917 1914 1913 1911 1910 1908 1907 1906 1905 1904 1903 1902 1900 1899 1899 1897 1895 1894 1892 1890 1888 1887 1886 1884 1883 1881 1879 1878 1877 1876 1874 1873 1870 1870 1869 1867 1866 1865 1863 1863 1861 1861 1858 1858 1856 1855 1853 1852 1851 1850 1850 1849 1849 1848 1848 1848 1848 1847 1847 1846 1846 1846 1845 1845 1844 1844 1845 1845 1845 1845 1846 1846 1847 1848 1849 1849 1850 1851 1851 1852 1853 1854 1855 1855 1856 1857 1858 1858 1859 1860 1860 1861 1861 1861 1861 1861 1861 1862 1862 1862 1862 1863 1863 1864 1864 1865 1865 1866 1866 1866 1866 1867 1868 1868 1869 1869 1870 1871 1871 1872 1872 1873 1873 1873 1874 1874 1874 1875 1875 1875 1876 1876 1877 1878 1879 1879 1880 1881 1882 1883 1884 1885 1885 1887 1887 1887 1887 1887 1888 1889 1890 1891 1892 1894 1895 1896 1897 1898 1899 1899 1901 1901 1903 1904 1906 1908 1909 1910 1911 1913 1914 1915 1917 1918 1920 1922 1923 1923 1926 1928 1931 1934 1936 1940 1943 1947 1951 1955 1958 1962 1967 1970 1973 1976 1980 1986 1986 1986 1963 0 0 0 0 0 0 0 0 0 0 0 0 0 0 0 0 0 0 0 0 0 0 0 0 0 0 0 0 0 0 0 0 0 0 0 0 0 0 0 0 0 0 0 0 0 0 0 0 0 0 0 0 0 0 0 0 0 0 0 0 0 0 0 0 0 0 0 0 0 0 0 0 0 0 0 0 0 0 0 0 0 0 0 0 0 0 0 0 0 0 0 0 0 0 0 0 0 0 0 0 0 0 0 0 0 0 0 0 0 1082 1082 1082 1080 1070 1064 1051 1034 1017 996 970 944 918 897 884 884 884 884 894 899 899 899 894 889 883 874 864 852 838 822 807 796 788 784 781 781 781 781 782 784 785 791 797 802 802 811 0
2715 2715 2713 2715 2718 2723 2735 2735 2735 2728 2707 2602 2501 0 0 0 0 0 0 0 0 0 0 0 0 0 1393 1402 1418 1418 1418 1417 1415 1410 1408 1403 1395 1395 1395 1412 1423 1447 1451 1460 1468 1469 1473 1475 1477 1479 1482 1485 1486 1487 1488 1489 1489 1490 1491 1492 1492 1493 1493 1493 1493 1493 1491 1491 1491 1489 1483 1480 1476 1473 1469 1468 1466 1466 1466 1467 1468 1469 1470 1472 1474 1477 1479 1481 1482 1485 1490 1493 1497 1504 1510 1516 1519 1523 1528 1532 1534 1536 1539 1541 1542 1544 1545 1546 1548 1549 1549 1550 1552 1553 1554 1555 1555 1556 1557 1557 1557 1557 1557 1557 1556 1552 1550 1550 1549 1548 1548 1547 1547 1547 1547 1548 1549 1551 1551 1551 1551 1552 1553 1555 1558 1561 1566 1574 1577 1583 1590 1594 1597 1600 1602 1604 1606 1607 1608 1610 1611 1612 1613 1614 1614 1616 1617 1617 1617 1618 1618 1620 1620 1620 1619 1618 1616 1613 1613 1613 1614 1614 1615 1616 1618 1621 1623 1625 1626 1628 1631 1634 1638 1639 1644 1646 1648 1653 1657 1661 1662 1665 1666 1667 1669 1670 1670 1671 1671 1673 1675 1677 1677 1679 1681 1683 1685 1685 1686 1688 1690 1691 1692 1694 1695 1696 1698 1699 1701 1704 1707 1709 1709 1711 1712 1715 1716 1720 1721 1723 1727 1729 1731 1733 1735 1737 1739 1740 1743 1746 1750 1750 1752 1752 1778 1832 1916 1942 1954 1954 1954 1953 1951 1951 1951 1951 1950 1949 1948 1947 1946 1944 1942 1940 1937 1935 1934 1932 1930 1928 1925 1923 1921 1920 1918 1916 1914 1912 1910 1909 1908 1906 1905 1905 1904 1902 1901 1900 1899 1897 1896 1895 1893 1891 1889 1888 1886 1884 1883 1882 1881 1879 1878 1876 1875 1873 1871 1870 1869 1868 1867 1866 1863 1863 1862 1861 1859 1858 1857 1856 1854 1853 1852 1851 1850 1850 1848 1848 1848 1848 1848 1847 1847 1847 1846 1846 1845 1845 1845 1845 1845 1845 1845 1845 1846 1847 1847 1848 1848 1849 1850 1850 1851 1851 1852 1853 1854 1855 1856 1857 1857 1858 1859 1859 1860 1860 1861 1861 1861 1861 1861 1862 1862 1862 1862 1863 1863 1863 1864 1864 1864 1865 1865 1866 1866 1866 1867 1868 1868 1869 1869 1870 1871 1871 1872 1872 1872 1872 1873 1873 1874 1874 1874 1874 1874 1874 1875 1876 1877 1878 1879 1880 1880 1881 1882 1884 1884 1885 1885 1886 1886 1886 1887 1887 1889 1889 1891 1892 1894 1895 1896 1897 1897 1898 1899 1900 1901 1902 1902 1904 1906 1908 1910 1911 1911 1913 1914 1916 1918 1918 1921 1922 1923 1925 1928 1930 1933 1936 1940 1943 1947 1951 1954 1958 1962 1965 1968 1972 1976 1979 1986 1986 1986 1977 0 0 0 0 0 0 0 0 0 0 0 0 0 0 0 0 0 0 0 0 0 0 0 0 0 0 0 0 0 0 0 0 0 0 0 0 0 0 0 0 0 0 0 0 0 0 0 0 0 0 0 0 0 0 0 0 0 0 0 0 0 0 0 0 0 0 0 0 0 0 0 0 0 0 0 0 0 0 0 0 0 0 0 0 0 0 0 0 0 0 0 0 0 0 0 0 0 0 0 0 0 0 0 0 0 0 0 0 0 1082 1082 1082 1073 1064 1052 1029 1014 1004 991 969 943 917 895 879 879 879 884 892 896 896 896 893 888 881 874 864 852 838 822 807 797 788 783 780 779 779 779 780 780 781 787 790 796 796 810 0
2703 2703 2705 2709 2715 2709 2706 2706 2691 2678 2671 2602 2501 0 0 0 0 0 0 0 0 0 0 0 0 0 1388 1402 1418 1420 1420 1418 1415 1406 1404 1388 1388 1388 1394 1412 1423 1447 1451 1467 1470 1470 1473 1475 1476 1479 1483 1485 1486 1487 1488 1489 1489 1490 1491 1492 1493 1493 1493 1493 1493 1493 1493 1492 1491 1489 1483 1479 1476 1472 1469 1467 1466 1466 1466 1466 1468 1469 1470 1472 1474 1477 1479 1481 1482 1485 1490 1493 1503 1507 1511 1516 1519 1524 1529 1533 1534 1537 1539 1541 1542 1544 1545 1546 1548 1549 1550 1550 1552 1553 1554 1555 1556 1556 1557 1557 1557 1557 1557 1557 1557 1552 1550 1550 1549 1548 1548 1547 1547 1547 1548 1548 1549 1551 1551 1551 1552 1552 1554 1556 1558 1561 1566 1575 1580 1586 1591 1595 1599 1601 1603 1604 1606 1608 1609 1611 1612 1614 1614 1616 1616 1617 1618 1619 1619 1619 1620 1620 1620 1620 1618 1617 1611 1611 1611 1611 1613 1613 1613 1614 1617 1620 1623 1624 1626 1627 1630 1634 1636 1639 1644 1646 1648 1655 1660 1664 1666 1667 1669 1669 1671 1672 1673 1675 1676 1677 1677 1678 1679 1680 1683 1685 1685 1686 1687 1688 1689 1690 1691 1692 1693 1696 1697 1697 1698 1702 1706 1709 1709 1710 1712 1714 1716 1719 1721 1723 1726 1729 1730 1733 1735 1737 1739 1741 1744 1748 1750 1750 1752 1755 1787 1842 1919 1942 1954 1954 1954 1953 1951 1951 1951 1950 1950 1949 1948 1947 1946 1944 1942 1940 1938 1935 1934 1932 1930 1928 1926 1923 1922 1920 1918 1916 1914 1912 1910 1908 1907 1906 1905 1904 1903 1902 1901 1899 1898 1897 1896 1894 1893 1891 1888 1887 1886 1884 1883 1882 1880 1879 1878 1876 1874 1873 1871 1870 1869 1868 1867 1865 1863 1862 1862 1861 1859 1858 1857 1855 1854 1853 1851 1851 1850 1849 1848 1848 1848 1847 1847 1847 1847 1846 1846 1846 1845 1845 1845 1845 1845 1845 1846 1846 1846 1847 1848 1849 1849 1849 1850 1851 1851 1852 1852 1853 1854 1855 1856 1857 1858 1858 1859 1859 1860 1861 1861 1861 1861 1861 1862 1862 1862 1862 1862 1863 1863 1863 1864 1864 1864 1865 1865 1865 1865 1866 1866 1867 1868 1868 1868 1869 1870 1870 1871 1872 1872 1872 1872 1873 1873 1873 1873 1873 1873 1874 1874 1876 1877 1877 1879 1879 1880 1880 1882 1883 1883 1884 1884 1885 1885 1886 1886 1887 1888 1888 1890 1891 1893 1894 1895 1896 1896 1897 1898 1899 1899 1901 1902 1903 1905 1907 1908 1909 1911 1911 1913 1915 1916 1917 1919 1920 1922 1924 1928 1930 1933 1935 1939 1943 1947 1950 1954 1957 1961 1964 1967 1971 1974 1979 1980 1980 1980 1977 0 0 0 0 0 0 0 0 0 0 0 0 0 0 0 0 0 0 0 0 0 0 0 0 0 0 0 0 0 0 0 0 0 0 0 0 0 0 0 0 0 0 0 0 0 0 0 0 0 0 0 0 0 0 0 0 0 0 0 0 0 0 0 0 0 0 0 0 0 0 0 0 0 0 0 0 0 0 0 0 0 0 0 0 0 0 0 0 0 0 0 0 0 0 0 0 0 0 0 0 0 0 0 0 0 0 0 0 0 1086 1086 1082 1049 1043 1028 1016 1007 998 988 969 937 910 889 873 873 873 879 885 892 892 892 890 887 881 872 863 852 838 822 807 797 788 783 780 778 778 777 777 778 779 784 789 796 796 809 0
2695 2695 2695 2695 2690 2682 2678 2661 2637 2628 2615 2534 0 0 0 0 0 0 0 0 0 0 0 0 0 0 1388 1390 1418 1420 1420 1418 1415 1406 1387 1366 1366 1366 1379 1409 1436 1451 1455 1467 1471 1475 1475 1475 1476 1480 1483 1485 1486 1487 1488 1489 1489 1490 1491 1492 1493 1493 1493 1493 1493 1493 1493 1493 1492 1489 1483 1479 1476 1472 1469 1467 1466 1466 1466 1466 1468 1470 1471 1473 1476 1478 1479 1481 1482 1485 1490 1494 1504 1511 1511 1516 1519 1525 1531 1533 1535 1537 1539 1541 1542 1544 1545 1547 1548 1549 1550 1551 1553 1554 1555 1555 1556 1557 1557 1557 1558 1558 1558 1558 1557 1552 1550 1550 1549 1548 1548 1547 1547 1547 1548 1548 1548 1550 1551 1552 1553 1553 1556 1558 1564 1568 1573 1579 1582 1586 1591 1597 1600 1602 1604 1606 1607 1608 1610 1612 1613 1615 1615 1616 1617 1618 1619 1620 1620 1620 1620 1620 1620 1620 1618 1614 1611 1611 1611 1611 1613 1613 1613 1614 1616 1620 1622 1624 1626 1627 1630 1632 1635 1639 1645 1647 1649 1656 1662 1664 1667 1669 1670 1670 1672 1673 1674 1676 1677 1678 1680 1681 1682 1683 1685 1685 1686 1687 1687 1688 1689 1689 1691 1691 1693 1694 1694 1695 1697 1701 1706 1708 1709 1709 1711 1713 1716 1718 1721 1723 1725 1729 1730 1733 1735 1737 1739 1741 1744 1748 1750 1751 1754 1757 0 0 1922 1942 1954 1954 1954 1954 1952 1951 1950 1950 1950 1949 1948 1946 1945 1944 1942 1940 1938 1936 1934 1932 1930 1928 1926 1923 1922 1919 1918 1916 1914 1911 1909 1908 1907 1906 1905 1904 1903 1901 1900 1899 1897 1896 1895 1894 1891 1890 1888 1887 1885 1883 1883 1882 1880 1879 1877 1876 1874 1872 1870 1870 1868 1868 1866 1864 1863 1862 1861 1860 1858 1857 1856 1854 1854 1852 1851 1850 1849 1849 1848 1848 1848 1847 1847 1847 1847 1846 1846 1846 1845 1845 1845 1846 1846 1846 1846 1846 1847 1848 1849 1849 1849 1850 1850 1851 1852 1852 1853 1853 1854 1855 1856 1857 1858 1858 1859 1860 1860 1861 1861 1861 1861 1861 1862 1862 1862 1862 1862 1863 1863 1863 1864 1864 1864 1865 1865 1865 1865 1866 1866 1866 1867 1868 1868 1869 1869 1870 1871 1871 1871 1871 1871 1872 1872 1872 1873 1873 1873 1873 1874 1875 1876 1877 1878 1878 1879 1879 1880 1881 1882 1884 1884 1884 1884 1885 1886 1887 1887 1887 1889 1890 1892 1893 1894 1895 1896 1896 1897 1898 1899 1900 1901 1902 1904 1906 1906 1908 1909 1910 1912 1913 1914 1916 1918 1920 1921 1924 1926 1930 1933 1935 1939 1943 1947 1950 1954 1957 1959 1962 1964 1968 1971 1974 1977 1977 1977 1977 1949 0 0 0 0 0 0 0 0 0 0 0 0 0 0 0 0 0 0 0 0 0 0 0 0 0 0 0 0 0 0 0 0 0 0 0 0 0 0 0 0 0 0 0 0 0 0 0 0 0 0 0 0 0 0 0 0 0 0 0 0 0 0 0 0 0 0 0 0 0 0 0 0 0 0 0 0 0 0 0 0 0 0 0 0 0 0 0 0 0 0 0 0 0 0 0 0 0 0 0 0 0 0 0 0 0 0 0 1094 1094 1094 1059 1049 1038 1022 1013 1006 993 978 955 918 902 886 873 873 873 874 881 887 889 889 887 885 880 871 861 851 837 822 807 797 788 782 780 776 773 773 773 773 778 784 788 796 796 806 0
2608 2608 2608 2608 2603 2586 2565 2531 0 0 0 0 0 0 0 0 0 0 0 0 0 0 0 0 0 0 1369 1375 1378 1403 1415 1415 1415 1406 1379 1338 1338 1338 1357 1412 1437 1451 1460 1467 1472 1476 1476 1478 1478 1480 1483 1485 1486 1487 1488 1489 1489 1491 1492 1492 1493 1493 1493 1493 1493 1494 1494 1493 1492 1489 1484 1479 1476 1472 1469 1467 1466 1466 1466 1466 1468 1470 1473 1475 1478 1480 1481 1481 1482 1485 1490 1495 1506 1511 1511 1516 1521 1527 1531 1533 1535 1537 1539 1541 1542 1544 1546 1547 1548 1550 1551 1552 1553 1554 1555 1556 1557 1557 1558 1558 1558 1559 1559 1558 1557 1552 1550 1550 1550 1548 1548 1548 1548 1548 1548 1548 1548 1550 1551 1552 1555 1557 1561 1565 1568 1571 1576 1579 1583 1588 1592 1597 1601 1603 1605 1606 1608 1609 1612 1612 1614 1615 1615 1617 1618 1619 1619 1620 1621 1621 1621 1620 1620 1620 1618 1613 1611 1611 1611 1611 1613 1613 1613 1614 1616 1620 1621 1624 1626 1627 1630 1632 1635 1639 1648 1652 1652 1659 1662 1665 1668 1670 1671 1672 1673 1674 1676 1677 1679 1680 1682 1683 1684 1685 1685 1686 1687 1687 1688 1688 1688 1689 1690 1691 1693 1694 1694 1695 1697 1700 1705 1708 1708 1709 1709 1710 1713 1717 1721 1722 1725 1729 1730 1733 1735 1737 1739 1742 1745 1748 1750 1751 1754 1769 0 0 1926 1947 1954 1954 1954 1954 1952 1951 1950 1950 1950 1949 1948 1946 1945 1943 1942 1940 1938 1936 1934 1932 1930 1928 1926 1923 1922 1919 1917 1915 1913 1911 1909 1908 1907 1906 1905 1903 1902 1901 1900 1898 1897 1896 1895 1893 1891 1889 1888 1886 1885 1883 1882 1881 1880 1879 1877 1875 1874 1872 1870 1870 1868 1867 1866 1864 1863 1861 1861 1860 1858 1857 1856 1854 1853 1852 1851 1850 1850 1849 1848 1848 1848 1847 1847 1847 1847 1846 1846 1846 1846 1846 1846 1846 1846 1846 1847 1848 1848 1848 1849 1849 1850 1850 1850 1851 1852 1852 1853 1854 1854 1856 1857 1858 1858 1859 1859 1860 1860 1861 1861 1861 1861 1862 1862 1862 1862 1862 1862 1863 1863 1863 1864 1864 1865 1865 1865 1865 1865 1865 1866 1866 1867 1868 1868 1869 1869 1870 1870 1871 1871 1871 1871 1871 1871 1871 1872 1873 1873 1873 1874 1874 1874 1876 1877 1877 1877 1879 1879 1881 1882 1883 1883 1883 1883 1885 1885 1886 1886 1887 1888 1890 1891 1892 1893 1894 1895 1895 1896 1896 1898 1898 1900 1902 1903 1904 1905 1906 1907 1909 1910 1911 1912 1913 1915 1918 1919 1922 1925 1927 1932 1935 1939 1943 1946 1949 1951 1954 1957 1959 1961 1963 1966 1969 1974 1977 1977 1977 1977 0 0 0 0 0 0 0 0 0 0 0 0 0 0 0 0 0 0 0 0 0 0 0 0 0 0 0 0 0 0 0 0 0 0 0 0 0 0 0 0 0 0 0 0 0 0 0 0 0 0 0 0 0 0 0 0 0 0 0 0 0 0 0 0 0 0 0 0 0 0 0 0 0 0 0 0 0 0 0 0 0 0 0 0 0 0 0 0 0 0 0 0 0 0 0 0 0 0 0 0 0 0 0 0 0 0 0 1097 1097 1089 1052 1046 1032 1018 1012 1001 987 969 943 916 898 885 872 872 872 873 879 883 883 883 883 881 876 868 860 850 837 822 807 797 788 782 780 776 773 772 772 772 778 783 788 793 793 806 0
0 0 0 0 0 0 0 0 0 0 0 0 0 0 0 0 0 0 0 0 0 0 0 0 0 0 1357 1371 1372 1399 1415 1415 1415 1405 1377 1323 1323 1323 1357 1412 1437 1451 1460 1466 1474 1476 1476 1476 1479 1481 1482 1484 1485 1486 1487 1489 1489 1491 1492 1492 1493 1493 1493 1493 1493 1494 1494 1493 1492 1490 1485 1479 1476 1473 1471 1469 1467 1467 1467 1468 1470 1471 1473 1475 1478 1481 1482 1484 1485 1488 1490 1496 1507 1513 1513 1516 1522 1528 1531 1533 1535 1537 1539 1541 1542 1544 1546 1548 1549 1550 1551 1552 1554 1554 1555 1556 1557 1558 1558 1558 1559 1559 1559 1558 1558 1552 1551 1550 1550 1550 1549 1548 1548 1548 1549 1549 1549 1550 1551 1553 1558 1563 1565 1568 1570 1573 1576 1580 1583 1589 1596 1598 1601 1604 1606 1607 1609 1610 1612 1613 1614 1616 1617 1618 1618 1620 1621 1621 1622 1622 1622 1620 1620 1619 1616 1613 1612 1612 1612 1612 1613 1614 1614 1614 1616 1620 1621 1623 1626 1628 1631 1632 1635 1640 1648 1653 1655 1659 1662 1665 1669 1671 1672 1673 1675 1676 1677 1678 1680 1682 1683 1685 1686 1687 1687 1687 1688 1688 1688 1688 1688 1690 1690 1690 1692 1693 1693 1695 1696 1700 1702 1704 1706 1707 1708 1710 1713 1717 1721 1722 1725 1729 1730 1733 1735 1737 1739 1742 1745 1748 1750 1751 1755 1770 0 0 1938 1950 1954 1954 1954 1954 1952 1950 1950 1950 1950 1949 1948 1947 1945 1943 1942 1941 1938 1936 1934 1932 1930 1927 1925 1923 1921 1919 1917 1915 1913 1911 1909 1908 1907 1906 1905 1903 1902 1901 1899 1898 1897 1896 1894 1892 1891 1889 1887 1886 1884 1883 1882 1881 1880 1878 1877 1875 1874 1872 1870 1869 1868 1867 1866 1864 1862 1861 1860 1859 1858 1856 1855 1854 1852 1852 1851 1850 1849 1849 1848 1848 1848 1847 1847 1847 1847 1847 1847 1846 1846 1846 1846 1846 1847 1848 1848 1848 1848 1848 1850 1850 1850 1850 1851 1852 1852 1853 1854 1854 1855 1856 1857 1858 1859 1859 1860 1860 1860 1861 1861 1861 1861 1861 1862 1862 1862 1862 1862 1863 1863 1863 1863 1864 1864 1865 1865 1865 1865 1865 1866 1866 1866 1867 1868 1868 1869 1869 1869 1869 1870 1870 1870 1871 1871 1871 1871 1872 1872 1872 1873 1873 1874 1875 1875 1876 1877 1878 1879 1880 1881 1882 1882 1882 1883 1884 1885 1885 1885 1887 1887 1889 1890 1891 1891 1892 1893 1893 1894 1896 1896 1898 1899 1899 1902 1902 1903 1904 1905 1908 1909 1910 1911 1912 1914 1916 1919 1921 1923 1926 1930 1934 1938 1941 1945 1947 1949 1951 1954 1957 1958 1961 1964 1968 1972 1976 1977 1977 1976 0 0 0 0 0 0 0 0 0 0 0 0 0 0 0 0 0 0 0 0 0 0 0 0 0 0 0 0 0 0 0 0 0 0 0 0 0 0 0 0 0 0 0 0 0 0 0 0 0 0 0 0 0 0 0 0 0 0 0 0 0 0 0 0 0 0 0 0 0 0 0 0 0 0 0 0 0 0 0 0 0 0 0 0 0 0 0 0 0 0 0 0 0 0 0 0 0 0 0 0 0 0 0 0 0 0 0 1107 1107 1082 1052 1046 1027 1017 1009 1000 985 965 935 912 897 882 869 869 869 871 873 876 877 877 877 875 870 863 858 846 835 819 807 796 789 782 780 776 773 770 770 770 774 782 788 793 793 804 0
0 0 0 0 0 0 2238 2244 2244 0 0 0 0 0 0 0 0 0 0 0 0 0 0 0 0 0 1355 1369 1371 1394 1400 1405 1405 1405 0 0 0 0 0 1406 1437 1446 1460 1464 1474 1475 1476 1476 1478 1481 1482 1484 1485 1486 1487 1489 1490 1491 1492 1492 1493 1494 1494 1494 1494 1494 1494 1493 1492 1490 1487 1482 1476 1474 1473 1471 1471 1471 1471 1472 1472 1473 1473 1475 1478 1482 1486 1488 1490 1493 1496 1503 1509 1513 1513 1516 1522 1528 1531 1533 1536 1538 1539 1541 1543 1544 1546 1548 1549 1551 1551 1552 1554 1555 1556 1557 1558 1559 1559 1559 1559 1559 1559 1559 1557 1552 1551 1551 1551 1551 1550 1550 1549 1549 1549 1550 1550 1551 1554 1558 1563 1568 1571 1572 1574 1577 1580 1581 1589 1596 1597 1599 1603 1604 1607 1608 1610 1611 1613 1613 1615 1617 1618 1618 1619 1621 1621 1622 1622 1622 1622 1622 1620 1619 1616 1613 1612 1612 1612 1614 1615 1616 1617 1617 1618 1620 1621 1623 1626 1628 1631 1635 1637 1642 1648 1654 1656 1659 1663 1666 1669 1671 1673 1675 1676 1677 1679 1680 1681 1683 1684 1686 1687 1688 1688 1689 1689 1689 1688 1688 1688 1690 1690 1690 1690 1692 1693 1695 1696 1698 1700 1703 1705 1706 1708 1710 1713 1717 1722 1722 1725 1729 1730 1733 1736 1738 1739 1742 1745 1748 1751 1753 1755 1773 0 0 1939 1951 1951 1951 1951 1950 1950 1950 1950 1950 1950 1949 1948 1947 1945 1944 1942 1941 1938 1936 1934 1932 1930 1927 1925 1923 1921 1919 1917 1915 1912 1911 1909 1908 1907 1906 1905 1903 1902 1901 1899 1899 1897 1895 1894 1892 1890 1889 1887 1885 1884 1883 1881 1880 1879 1878 1877 1875 1874 1873 1870 1869 1868 1867 1866 1864 1862 1861 1860 1859 1857 1856 1855 1854 1852 1851 1851 1850 1849 1849 1849 1848 1848 1847 1847 1847 1847 1847 1847 1847 1847 1847 1847 1847 1847 1848 1848 1848 1849 1849 1850 1851 1851 1851 1852 1852 1853 1854 1854 1855 1856 1857 1857 1858 1859 1859 1860 1860 1860 1861 1861 1861 1861 1861 1861 1861 1862 1862 1862 1863 1863 1863 1864 1864 1864 1865 1865 1865 1865 1865 1865 1866 1866 1867 1867 1868 1868 1869 1869 1869 1869 1869 1869 1870 1870 1870 1871 1871 1871 1872 1873 1873 1873 1874 1874 1876 1877 1878 1878 1879 1881 1881 1881 1882 1883 1884 1884 1885 1885 1885 1886 1888 1888 1889 1890 1891 1892 1892 1893 1894 1895 1895 1896 1898 1899 1900 1901 1901 1903 1906 1906 1908 1908 1910 1912 1915 1918 1920 1922 1926 1930 1933 1936 1940 1942 1944 1946 1948 1951 1956 1958 1961 1963 1966 1971 1976 1979 1979 1976 0 0 0 0 0 0 0 0 0 0 0 0 0 0 0 0 0 0 0 0 0 0 0 0 0 0 0 0 0 0 0 0 0 0 0 0 0 0 0 0 0 0 0 0 0 0 0 0 0 0 0 0 0 0 0 0 0 0 0 0 0 0 0 0 0 0 0 0 0 0 0 0 0 0 0 0 0 0 0 0 0 0 0 0 0 0 0 0 0 0 0 0 0 0 0 0 0 0 0 0 0 0 0 0 0 0 0 1107 1107 1082 1052 1046 1027 1014 1004 993 980 959 930 912 897 882 869 866 866 866 869 870 871 871 871 868 867 862 853 843 832 817 806 796 789 782 780 776 773 769 769 769 772 781 788 792 792 798 0
2175 2175 2177 2188 2198 2214 2238 2244 2244 2244 0 0 0 0 0 0 0 0 0 0 0 0 0 0 0 1333 1354 1366 1366 1380 1388 1404 1404 1404 1368 1301 0 0 0 1406 1431 1446 1461 1464 1474 1474 1476 1476 1478 1481 1482 1484 1485 1486 1488 1489 1490 1491 1492 1493 1494 1494 1494 1494 1494 1494 1494 1493 1492 1491 1487 1483 1480 1477 1476 1474 1473 1473 1473 1473 1473 1474 1475 1475 1479 1482 1488 1492 1495 1499 1503 1507 1510 1513 1515 1522 1527 1529 1532 1534 1536 1538 1539 1541 1543 1545 1546 1548 1549 1551 1552 1553 1554 1556 1557 1557 1558 1559 1560 1560 1560 1559 1559 1559 1556 1553 1552 1552 1551 1551 1551 1551 1550 1550 1550 1552 1554 1558 1560 1562 1567 1573 1576 1577 1578 1581 1584 1590 1593 1597 1600 1601 1604 1606 1607 1609 1610 1612 1613 1614 1615 1617 1618 1619 1620 1621 1622 1622 1623 1623 1623 1623 1620 1619 1616 1614 1613 1613 1613 1616 1616 1617 1619 1620 1620 1622 1622 1623 1626 1629 1632 1636 1640 1642 1648 1655 1657 1660 1665 1667 1669 1671 1674 1676 1677 1679 1680 1681 1682 1684 1685 1687 1688 1688 1689 1690 1690 1690 1690 1690 1689 1689 1689 1690 1690 1691 1693 1694 1695 1696 1699 1702 1704 1706 1708 1710 1715 1719 1722 1725 1726 1730 1733 1735 1736 1739 1741 1743 1745 1749 1751 1753 1755 1774 0 0 1940 1951 1951 1951 1951 1950 1950 1950 1950 1950 1950 1950 1948 1947 1945 1944 1942 1941 1938 1936 1934 1932 1930 1927 1925 1923 1921 1920 1917 1915 1912 1911 1910 1908 1907 1906 1905 1903 1902 1901 1899 1899 1897 1895 1894 1892 1890 1889 1887 1885 1884 1883 1881 1880 1879 1878 1877 1875 1874 1872 1871 1870 1868 1867 1865 1864 1862 1861 1860 1858 1857 1856 1855 1854 1852 1851 1851 1850 1850 1849 1849 1848 1848 1848 1848 1847 1847 1847 1847 1847 1847 1847 1847 1847 1848 1848 1849 1849 1849 1849 1850 1851 1851 1851 1852 1853 1853 1854 1855 1856 1856 1857 1857 1858 1859 1859 1860 1860 1860 1861 1861 1861 1861 1861 1861 1861 1862 1862 1862 1862 1863 1863 1864 1864 1864 1864 1865 1865 1865 1865 1865 1866 1866 1867 1867 1867 1868 1868 1868 1868 1868 1868 1868 1869 1869 1869 1870 1870 1871 1871 1871 1872 1872 1873 1874 1874 1876 1876 1877 1878 1879 1880 1880 1881 1882 1883 1883 1883 1884 1885 1885 1886 1887 1887 1888 1889 1889 1891 1891 1893 1893 1894 1896 1897 1898 1898 1899 1899 1901 1903 1905 1906 1906 1908 1911 1914 1917 1919 1922 1926 1929 1932 1935 1938 1942 1943 1945 1947 1951 1955 1958 1960 1963 1966 1968 1971 1976 1976 1976 1959 0 0 0 0 0 0 0 0 0 0 0 0 0 0 0 0 0 0 0 0 0 0 0 0 0 0 0 0 0 0 0 0 0 0 0 0 0 0 0 0 0 0 0 0 0 0 0 0 0 0 0 0 0 0 0 0 0 0 0 0 0 0 0 0 0 0 0 0 0 0 0 0 0 0 0 0 0 0 0 0 0 0 0 0 0 0 0 0 0 0 0 0 0 0 0 0 0 0 0 0 0 0 0 0 0 1107 1107 1107 1076 1052 1041 1023 1011 992 984 971 951 930 912 897 882 868 858 858 858 864 865 866 866 866 866 861 856 848 840 828 817 806 796 790 785 781 777 773 769 769 769 771 777 784 789 789 798 0
2175 2175 2177 2188 2198 2214 2238 2263 2278 2286 2286 0 0 0 0 0 0 0 0 0 0 0 0 0 0 1318 1348 1356 1358 1369 1381 1381 1381 1377 1334 1324 1324 0 0 1412 1431 1446 1462 1464 1473 1474 1476 1476 1479 1481 1482 1484 1485 1486 1488 1489 1490 1491 1492 1493 1494 1494 1494 1494 1494 1494 1494 1493 1493 1492 1487 1485 1481 1479 1478 1476 1476 1476 1475 1475 1475 1475 1475 1476 1479 1483 1490 1495 1498 1501 1503 1507 1510 1515 1521 1524 1527 1530 1532 1535 1536 1538 1540 1542 1544 1545 1546 1548 1549 1551 1552 1553 1554 1556 1557 1558 1558 1559 1560 1560 1560 1559 1559 1559 1557 1553 1553 1553 1552 1552 1552 1552 1552 1552 1554 1556 1559 1561 1564 1566 1570 1574 1576 1579 1581 1584 1586 1592 1596 1598 1600 1602 1604 1607 1608 1609 1611 1612 1614 1615 1616 1617 1618 1620 1621 1622 1622 1623 1623 1623 1623 1623 1621 1620 1619 1617 1614 1614 1614 1616 1617 1620 1621 1622 1622 1623 1624 1625 1628 1631 1634 1638 1641 1645 1648 1655 1660 1663 1665 1667 1669 1672 1674 1676 1678 1680 1681 1682 1683 1685 1687 1687 1689 1689 1689 1690 1690 1690 1690 1690 1689 1689 1689 1689 1689 1690 1693 1694 1695 1696 1699 1701 1704 1706 1708 1711 1718 1722 1722 1725 1727 1730 1733 1735 1737 1739 1741 1743 1747 1749 1751 1753 1763 1775 0 0 1941 1951 1951 1951 1951 1950 1950 1950 1950 1950 1950 1950 1948 1948 1945 1944 1943 1941 1939 1936 1934 1932 1930 1928 1925 1924 1921 1920 1917 1915 1913 1911 1910 1908 1907 1906 1905 1903 1902 1901 1899 1899 1897 1895 1894 1892 1891 1889 1887 1885 1884 1883 1881 1880 1879 1878 1877 1875 1874 1873 1871 1870 1868 1867 1865 1864 1862 1861 1860 1858 1857 1856 1855 1854 1852 1851 1851 1850 1850 1849 1849 1849 1848 1848 1848 1848 1847 1847 1847 1847 1847 1847 1848 1848 1848 1849 1849 1850 1850 1851 1851 1851 1851 1851 1852 1853 1853 1854 1855 1856 1856 1857 1857 1858 1859 1859 1859 1860 1860 1860 1860 1861 1861 1861 1861 1861 1861 1862 1862 1862 1863 1863 1863 1864 1864 1864 1864 1864 1865 1865 1865 1866 1866 1866 1866 1867 1867 1867 1867 1867 1867 1868 1868 1868 1868 1869 1869 1869 1870 1870 1871 1871 1872 1872 1873 1874 1875 1876 1876 1877 1878 1879 1880 1881 1881 1882 1883 1883 1883 1884 1884 1885 1885 1886 1887 1888 1889 1889 1890 1891 1892 1893 1894 1894 1896 1897 1898 1898 1900 1901 1904 1905 1906 1906 1909 1911 1914 1918 1921 1925 1928 1932 1935 1937 1941 1943 1944 1946 1949 1952 1956 1958 1960 1964 1968 1971 1976 1976 1976 1972 0 0 0 0 0 0 0 0 0 0 0 0 0 0 0 0 0 0 0 0 0 0 0 0 0 0 0 0 0 0 0 0 0 0 0 0 0 0 0 0 0 0 0 0 0 0 0 0 0 0 0 0 0 0 0 0 0 0 0 0 0 0 0 0 0 0 0 0 0 0 0 0 0 0 0 0 0 0 0 0 0 0 0 0 0 0 0 0 0 0 0 0 0 0 0 0 0 0 0 0 0 0 0 0 0 1089 1089 1072 1054 1049 1032 1017 1001 986 977 967 948 929 912 897 882 867 855 855 855 856 856 862 862 862 861 857 851 843 835 826 817 806 798 791 786 781 777 773 769 768 768 768 771 779 789 789 798 0
2206 2206 2222 2224 2230 2239 2266 2290 2311 2321 2321 0 0 0 0 0 0 0 0 0 0 0 0 0 0 1315 1345 1346 1349 1350 1360 1360 1360 1341 1322 1322 1322 1325 0 1416 1431 1455 1466 1470 1473 1473 1476 1476 1479 1481 1482 1484 1485 1486 1488 1489 1490 1491 1492 1493 1494 1494 1495 1495 1495 1495 1494 1494 1493 1493 1488 1485 1482 1481 1481 1480 1479 1479 1479 1476 1475 1475 1475 1476 1480 1485 1490 1495 1499 1501 1504 1508 1510 1517 1522 1525 1527 1530 1532 1535 1537 1539 1540 1542 1544 1546 1547 1548 1549 1551 1552 1553 1555 1556 1557 1558 1558 1559 1560 1560 1560 1560 1559 1559 1557 1555 1555 1554 1554 1554 1554 1554 1554 1554 1555 1557 1559 1561 1564 1567 1570 1574 1577 1579 1583 1586 1588 1592 1596 1599 1601 1604 1605 1607 1609 1611 1612 1612 1614 1615 1616 1618 1619 1620 1621 1622 1623 1623 1623 1624 1624 1624 1621 1621 1620 1617 1616 1616 1616 1617 1618 1621 1623 1624 1624 1625 1627 1629 1631 1634 1636 1640 1644 1647 1648 1656 1661 1663 1665 1667 1670 1672 1674 1677 1678 1680 1681 1683 1685 1687 1688 1688 1689 1689 1690 1690 1690 1691 1691 1690 1689 1689 1689 1689 1689 1690 1693 1694 1695 1696 1699 1701 1704 1707 1710 1714 1718 1723 1724 1726 1728 1731 1734 1736 1738 1739 1742 1744 1747 1749 1751 1753 1766 1784 0 0 1943 1953 1953 1953 1952 1952 1952 1952 1952 1951 1951 1950 1949 1948 1945 1944 1944 1942 1940 1937 1935 1933 1930 1928 1926 1924 1922 1920 1918 1915 1913 1912 1911 1910 1908 1906 1905 1904 1902 1901 1900 1899 1897 1896 1894 1893 1891 1889 1887 1886 1885 1883 1882 1881 1879 1878 1877 1875 1874 1873 1871 1870 1869 1867 1865 1864 1862 1861 1860 1858 1857 1856 1855 1854 1853 1851 1851 1851 1850 1850 1849 1849 1848 1848 1848 1848 1848 1848 1848 1848 1848 1848 1848 1849 1849 1849 1850 1850 1850 1851 1851 1851 1851 1851 1852 1853 1854 1855 1855 1856 1857 1857 1857 1858 1859 1859 1859 1859 1860 1860 1860 1860 1860 1860 1860 1861 1861 1861 1861 1862 1862 1862 1863 1863 1864 1864 1864 1864 1864 1864 1865 1865 1865 1866 1866 1866 1866 1866 1867 1867 1867 1867 1867 1867 1867 1868 1868 1868 1868 1869 1869 1870 1871 1871 1871 1873 1874 1875 1875 1877 1878 1878 1879 1879 1880 1881 1882 1882 1882 1883 1883 1883 1885 1886 1886 1887 1888 1889 1889 1890 1891 1892 1893 1893 1895 1897 1898 1898 1899 1901 1902 1904 1905 1906 1907 1910 1912 1916 1920 1924 1928 1931 1934 1937 1940 1943 1944 1946 1949 1951 1953 1956 1958 1962 1966 1971 1976 1980 1980 1980 1951 0 0 0 0 0 0 0 0 0 0 0 0 0 0 0 0 0 0 0 0 0 0 0 0 0 0 0 0 0 0 0 0 0 0 0 0 0 0 0 0 0 0 0 0 0 0 0 0 0 0 0 0 0 0 0 0 0 0 0 0 0 0 0 0 0 0 0 0 0 0 0 0 0 0 0 0 0 0 0 0 0 0 0 0 0 0 0 0 0 0 0 0 0 0 0 0 0 0 0 0 0 0 0 0 1059 1059 1046 1028 1026 1012 1010 998 982 975 965 947 928 912 897 882 865 850 845 845 845 848 860 860 860 858 851 848 841 833 825 817 809 800 791 786 781 777 773 769 767 767 767 771 778 789 789 796 0
2230 2230 2244 2246 2256 2266 2278 2295 2311 2325 2325 2325 0 0 0 0 0 0 0 0 0 0 0 0 0 0 1329 1335 1342 1342 1342 1339 1314 1303 1301 1301 1303 0 0 1416 1453 1460 1466 1470 1472 1473 1475 1477 1479 1480 1482 1484 1485 1486 1488 1489 1490 1491 1492 1493 1494 1494 1495 1495 1495 1495 1495 1494 1494 1493 1488 1486 1484 1484 1484 1483 1483 1483 1483 1478 1477 1477 1477 1478 1484 1488 1492 1497 1501 1502 1505 1508 1510 1518 1522 1525 1528 1531 1533 1536 1537 1539 1541 1542 1544 1546 1547 1549 1550 1551 1552 1554 1555 1556 1557 1558 1558 1559 1560 1560 1561 1562 1562 1561 1557 1556 1556 1556 1556 1556 1554 1554 1554 1555 1556 1558 1560 1563 1565 1567 1571 1574 1577 1579 1585 1591 1593 1594 1596 1599 1602 1604 1606 1608 1609 1611 1612 1614 1614 1616 1617 1618 1619 1621 1622 1622 1623 1624 1624 1624 1624 1624 1622 1621 1620 1618 1618 1618 1618 1618 1619 1622 1623 1625 1626 1629 1631 1633 1635 1636 1639 1643 1647 1649 1650 1656 1661 1664 1666 1668 1671 1673 1675 1677 1679 1681 1682 1683 1685 1687 1688 1688 1690 1690 1690 1691 1691 1691 1691 1691 1689 1689 1689 1689 1690 1690 1693 1694 1695 1696 1699 1702 1705 1709 1713 1717 1720 1724 1725 1727 1729 1732 1734 1736 1738 1740 1742 1745 1748 1750 1751 1753 1772 0 0 0 1950 1956 1956 1956 1955 1953 1953 1952 1952 1952 1951 1950 1949 1948 1946 1945 1944 1942 1940 1937 1935 1933 1931 1928 1927 1925 1923 1921 1919 1916 1914 1912 1912 1911 1909 1908 1906 1904 1903 1902 1900 1899 1897 1896 1894 1893 1891 1889 1888 1886 1885 1883 1882 1881 1880 1879 1878 1875 1875 1873 1872 1870 1869 1867 1865 1863 1862 1860 1859 1858 1857 1856 1855 1854 1853 1852 1851 1851 1851 1850 1849 1849 1849 1848 1848 1848 1848 1848 1848 1848 1848 1848 1849 1849 1849 1850 1850 1850 1851 1851 1851 1851 1851 1852 1853 1853 1854 1855 1855 1856 1857 1857 1857 1858 1859 1859 1859 1859 1859 1860 1860 1860 1860 1860 1860 1860 1861 1861 1861 1861 1862 1862 1863 1863 1864 1864 1864 1864 1864 1864 1864 1864 1864 1865 1865 1865 1865 1865 1866 1866 1866 1867 1867 1867 1867 1867 1867 1868 1868 1868 1869 1870 1870 1870 1871 1873 1874 1874 1875 1876 1876 1877 1878 1879 1880 1880 1880 1881 1881 1882 1882 1883 1884 1884 1885 1886 1887 1888 1888 1889 1890 1891 1892 1893 1894 1896 1897 1898 1899 1901 1902 1903 1905 1905 1907 1910 1912 1915 1918 1921 1925 1930 1931 1936 1940 1943 1944 1946 1949 1951 1953 1956 1958 1962 1966 1971 1977 1980 1980 1980 1951 0 0 0 0 0 0 0 0 0 0 0 0 0 0 0 0 0 0 0 0 0 0 0 0 0 0 0 0 0 0 0 0 0 0 0 0 0 0 0 0 0 0 0 0 0 0 0 0 0 0 0 0 0 0 0 0 0 0 0 0 0 0 0 0 0 0 0 0 0 0 0 0 0 0 0 0 0 0 0 0 0 0 0 0 0 0 0 0 0 0 0 0 0 0 0 0 0 0 0 0 0 0 0 0 1058 1058 1032 1024 1019 1009 1005 992 980 973 962 946 927 911 897 880 859 847 842 842 842 846 852 853 853 853 848 844 838 832 825 817 809 800 791 787 781 777 772 769 767 767 767 769 778 788 788 796 0
2230 2230 2244 2246 2257 2270 2290 2296 2315 2328 2328 2328 0 0 0 0 0 0 0 0 0 0 0 0 0 0 1319 1328 1330 1330 1330 1320 1304 1302 1302 1302 1302 0 0 1447 1454 1460 1466 1470 1470 1472 1473 1477 1479 1480 1482 1484 1485 1486 1488 1489 1490 1491 1492 1493 1494 1495 1495 1495 1495 1495 1495 1495 1495 1493 1489 1486 1485 1485 1485 1487 1487 1487 1487 1486 1486 1486 1486 1486 1490 1492 1494 1498 1501 1503 1505 1508 1513 1518 1522 1526 1529 1531 1534 1537 1538 1540 1541 1543 1545 1546 1548 1549 1550 1551 1552 1554 1555 1556 1557 1558 1559 1560 1560 1561 1562 1562 1562 1562 1559 1558 1558 1558 1557 1557 1556 1556 1556 1558 1558 1558 1560 1563 1566 1568 1571 1574 1577 1580 1586 1592 1594 1597 1598 1600 1602 1605 1607 1608 1610 1611 1613 1614 1615 1616 1617 1618 1620 1621 1622 1623 1623 1624 1624 1624 1624 1624 1623 1621 1620 1618 1618 1618 1618 1619 1620 1622 1624 1626 1629 1631 1633 1634 1636 1638 1640 1643 1648 1656 1658 1659 1661 1664 1666 1669 1672 1673 1675 1677 1680 1681 1682 1684 1685 1687 1688 1689 1690 1690 1691 1691 1691 1691 1691 1691 1689 1689 1689 1690 1691 1692 1694 1695 1696 1697 1699 1702 1705 1710 1714 1718 1722 1724 1725 1728 1730 1732 1735 1736 1738 1740 1743 1745 1748 1750 1751 1758 1780 0 0 0 1959 1959 1959 1959 1958 1954 1953 1953 1953 1952 1952 1951 1949 1949 1947 1947 1945 1943 1940 1937 1936 1934 1932 1929 1928 1926 1924 1922 1920 1917 1915 1914 1912 1911 1910 1908 1906 1905 1903 1902 1901 1899 1898 1896 1894 1893 1891 1889 1889 1887 1886 1884 1883 1882 1880 1879 1878 1876 1875 1874 1872 1871 1869 1868 1865 1864 1862 1860 1860 1858 1857 1856 1855 1854 1853 1852 1851 1851 1851 1850 1849 1849 1849 1849 1848 1848 1848 1848 1848 1849 1849 1849 1849 1849 1850 1850 1850 1851 1851 1851 1852 1852 1852 1853 1854 1854 1855 1855 1856 1856 1857 1857 1858 1858 1859 1859 1859 1859 1859 1859 1859 1860 1860 1860 1860 1860 1860 1861 1861 1861 1861 1862 1863 1863 1864 1864 1864 1864 1864 1864 1864 1864 1864 1864 1864 1865 1865 1865 1865 1865 1866 1866 1866 1866 1867 1867 1867 1867 1868 1868 1869 1869 1869 1870 1870 1871 1873 1874 1875 1876 1876 1876 1878 1879 1879 1880 1880 1881 1881 1882 1882 1882 1883 1883 1885 1885 1886 1886 1887 1888 1890 1891 1891 1893 1894 1896 1897 1898 1899 1900 1902 1903 1904 1905 1907 1910 1912 1914 1918 1921 1924 1928 1931 1936 1940 1943 1945 1945 1949 1951 1953 1956 1958 1962 1964 1971 1976 1977 1977 1976 0 0 0 0 0 0 0 0 0 0 0 0 0 0 0 0 0 0 0 0 0 0 0 0 0 0 0 0 0 0 0 0 0 0 0 0 0 0 0 0 0 0 0 0 0 0 0 0 0 0 0 0 0 0 0 0 0 0 0 0 0 0 0 0 0 0 0 0 0 0 0 0 0 0 0 0 0 0 0 0 0 0 0 0 0 0 0 0 0 0 0 0 0 0 0 0 0 0 0 0 0 0 0 0 0 1053 1053 1032 1024 1019 1009 995 989 976 970 960 943 920 907 895 880 857 844 838 838 838 840 845 849 849 849 846 842 836 831 823 817 809 800 791 787 781 777 772 769 767 767 767 769 778 783 783 793 0
2230 2230 2244 2246 2258 2270 2291 2296 2315 2333 2333 2333 2297 0 0 0 0 0 0 0 0 0 0 0 0 0 0 1296 1298 1309 1309 1309 1297 1297 1297 1304 1312 0 0 1457 1460 1461 1466 1470 1470 1472 1473 1477 1479 1480 1481 1483 1485 1487 1488 1489 1489 1491 1492 1493 1494 1495 1496 1496 1496 1496 1496 1496 1495 1495 1494 1492 1492 1491 1491 1491 1491 1491 1492 1492 1492 1494 1498 1498 1498 1501 1502 1502 1502 1503 1506 1513 1521 1521 1522 1526 1529 1532 1536 1538 1539 1541 1542 1543 1545 1546 1548 1549 1550 1552 1552 1554 1555 1556 1557 1558 1559 1560 1561 1561 1562 1563 1563 1563 1560 1558 1558 1558 1558 1559 1559 1559 1560 1560 1560 1561 1564 1567 1568 1569 1572 1575 1577 1581 1587 1592 1596 1598 1598 1601 1603 1605 1607 1608 1610 1612 1613 1614 1616 1617 1617 1619 1620 1621 1623 1624 1624 1624 1625 1625 1625 1625 1625 1623 1620 1619 1619 1619 1619 1621 1622 1623 1625 1627 1631 1632 1634 1635 1636 1638 1640 1644 1651 1658 1659 1660 1663 1667 1668 1671 1672 1675 1677 1678 1680 1681 1682 1684 1685 1687 1688 1689 1690 1690 1691 1691 1691 1692 1692 1692 1690 1690 1690 1691 1692 1693 1696 1697 1698 1699 1701 1704 1706 1710 1714 1718 1722 1724 1725 1729 1730 1732 1735 1736 1738 1740 1743 1746 1750 1750 1751 1762 1786 0 0 0 1959 1960 1960 1960 1960 1955 1954 1953 1953 1953 1952 1951 1950 1949 1948 1947 1945 1943 1940 1938 1937 1935 1933 1930 1928 1927 1925 1923 1920 1918 1916 1915 1914 1912 1911 1910 1908 1906 1905 1903 1902 1900 1898 1896 1894 1893 1891 1890 1889 1888 1887 1885 1883 1883 1881 1880 1879 1876 1875 1874 1873 1871 1869 1868 1866 1864 1862 1861 1860 1858 1858 1857 1856 1854 1854 1852 1852 1852 1851 1850 1850 1849 1849 1849 1849 1848 1848 1848 1848 1849 1849 1850 1850 1850 1851 1851 1851 1851 1852 1852 1852 1852 1853 1853 1854 1855 1855 1855 1856 1857 1858 1858 1858 1859 1859 1859 1859 1859 1859 1859 1859 1860 1860 1860 1860 1860 1860 1861 1861 1861 1861 1861 1863 1863 1864 1864 1864 1864 1864 1864 1864 1864 1864 1864 1864 1864 1865 1865 1865 1865 1865 1866 1866 1866 1866 1866 1867 1867 1867 1868 1868 1869 1869 1869 1870 1871 1872 1874 1874 1876 1876 1876 1878 1878 1879 1880 1880 1881 1881 1881 1882 1882 1883 1883 1884 1885 1885 1885 1887 1888 1888 1890 1891 1893 1894 1896 1897 1898 1899 1900 1902 1903 1905 1905 1907 1910 1911 1914 1917 1920 1923 1927 1931 1935 1940 1943 1945 1945 1949 1951 1953 1956 1960 1964 1966 1969 1969 1969 1949 0 0 0 0 0 0 0 0 0 0 0 0 0 0 0 0 0 0 0 0 0 0 0 0 0 0 0 0 0 0 0 0 0 0 0 0 0 0 0 0 0 0 0 0 0 0 0 0 0 0 0 0 0 0 0 0 0 0 0 0 0 0 0 0 0 0 0 0 0 0 0 0 0 0 0 0 0 0 0 0 0 0 0 0 0 0 0 0 0 0 0 0 0 0 0 0 0 0 0 0 0 0 0 0 0 0 1053 1053 1032 1024 1019 1009 994 984 973 966 957 940 917 906 895 879 857 840 835 834 834 834 841 843 843 843 842 837 833 828 822 816 808 801 796 788 782 777 773 770 768 767 767 767 776 782 787 789 789
2230 2230 2245 2249 2260 2272 2293 2312 2316 2333 2333 2333 2308 0 0 0 0 0 0 0 0 0 0 0 0 0 0 0 1298 1309 1309 1309 1297 1297 1297 1311 1338 0 0 1456 1456 1457 1461 1466 1470 1472 1473 1477 1479 1480 1481 1483 1485 1487 1488 1489 1489 1491 1492 1493 1494 1495 1496 1496 1497 1497 1497 1497 1497 1497 1497 1497 1498 1500 1500 1500 1498 1497 1496 1496 1496 1498 1500 1503 1505 1508 1509 1510 1511 1513 1517 1522 1524 1525 1526 1530 1533 1535 1537 1538 1539 1541 1543 1544 1546 1547 1548 1549 1550 1552 1553 1554 1555 1556 1557 1559 1559 1561 1562 1562 1563 1563 1563 1563 1561 1559 1559 1559 1559 1560 1561 1562 1563 1563 1563 1563 1565 1568 1570 1572 1574 1575 1578 1583 1590 1593 1597 1599 1601 1602 1605 1606 1607 1609 1611 1612 1613 1615 1616 1617 1618 1620 1620 1622 1623 1624 1624 1625 1626 1626 1626 1626 1626 1625 1620 1620 1620 1621 1621 1623 1624 1626 1627 1629 1633 1634 1634 1635 1636 1639 1641 1645 1652 1659 1659 1661 1664 1668 1669 1671 1673 1675 1677 1679 1680 1681 1683 1684 1685 1687 1688 1689 1690 1690 1691 1691 1691 1692 1692 1692 1691 1691 1691 1692 1694 1695 1699 1699 1701 1701 1703 1704 1708 1710 1714 1718 1722 1724 1725 1728 1730 1733 1735 1736 1738 1740 1744 1746 1750 1751 1751 1764 1788 0 0 0 1959 1962 1962 1962 1962 1955 1955 1955 1955 1954 1952 1952 1951 1949 1948 1947 1946 1945 1941 1939 1937 1936 1934 1932 1929 1928 1926 1924 1922 1920 1918 1916 1915 1913 1912 1910 1909 1907 1906 1905 1903 1901 1899 1897 1895 1894 1892 1891 1890 1889 1888 1886 1885 1883 1882 1880 1879 1878 1877 1874 1873 1872 1870 1868 1866 1864 1863 1861 1860 1859 1858 1857 1856 1855 1855 1854 1853 1852 1851 1850 1850 1849 1849 1849 1849 1849 1848 1848 1849 1849 1850 1851 1851 1851 1851 1851 1851 1852 1852 1853 1853 1853 1853 1854 1855 1855 1856 1857 1857 1857 1858 1859 1859 1859 1859 1859 1859 1859 1859 1859 1859 1860 1860 1860 1860 1860 1860 1861 1861 1861 1861 1861 1862 1863 1864 1864 1864 1864 1864 1864 1864 1864 1864 1864 1864 1864 1864 1865 1865 1865 1865 1866 1866 1866 1866 1866 1866 1867 1867 1868 1868 1868 1869 1869 1870 1871 1872 1874 1874 1876 1876 1876 1878 1878 1879 1880 1880 1881 1881 1881 1882 1882 1883 1883 1884 1885 1885 1885 1887 1888 1888 1889 1891 1892 1894 1896 1897 1898 1899 1900 1902 1903 1905 1905 1909 1911 1912 1914 1917 1919 1922 1926 1931 1935 1940 1942 1945 1946 1949 1951 1954 1959 1965 1968 1970 1970 1970 0 0 0 0 0 0 0 0 0 0 0 0 0 0 0 0 0 0 0 0 0 0 0 0 0 0 0 0 0 0 0 0 0 0 0 0 0 0 0 0 0 0 0 0 0 0 0 0 0 0 0 0 0 0 0 0 0 0 0 0 0 0 0 0 0 0 0 0 0 0 0 0 0 0 0 0 0 0 0 0 0 0 0 0 0 0 0 0 0 0 0 0 0 0 0 0 0 0 0 0 0 0 0 0 0 0 0 0 1053 1053 1037 1034 1024 1010 994 978 970 965 957 937 916 904 894 879 857 838 830 830 830 830 837 837 837 837 837 833 829 825 820 814 808 801 797 789 783 777 774 770 768 767 767 767 775 782 786 789 789
2230 2230 2245 2257 2260 2272 2293 2317 2335 2339 2339 2339 2317 0 0 0 0 0 0 0 0 0 0 0 0 0 0 0 0 1309 1309 1309 1297 1297 1297 1339 1370 1398 1432 1456 1456 1457 1462 1466 1470 1472 1473 1476 1479 1480 1481 1483 1485 1486 1488 1489 1489 1491 1492 1493 1494 1495 1496 1497 1497 1498 1498 1500 1500 1500 1501 1501 1501 1502 1503 1503 1503 1500 1500 1500 1503 1504 1506 1508 1510 1513 1514 1514 1515 1520 1523 1524 1525 1525 1529 1532 1535 1538 1538 1539 1540 1541 1543 1545 1546 1547 1548 1550 1551 1552 1553 1554 1555 1556 1558 1559 1560 1562 1562 1564 1564 1564 1564 1564 1564 1562 1562 1562 1562 1563 1564 1565 1566 1566 1566 1567 1567 1569 1572 1575 1576 1578 1581 1586 1590 1593 1597 1600 1602 1604 1605 1607 1608 1610 1611 1612 1614 1615 1616 1617 1618 1620 1621 1622 1623 1624 1625 1626 1626 1628 1628 1628 1627 1626 1624 1623 1623 1623 1626 1626 1627 1628 1628 1630 1633 1636 1636 1637 1639 1641 1643 1645 1653 1659 1659 1661 1665 1669 1670 1671 1673 1675 1677 1679 1681 1682 1683 1684 1685 1687 1688 1689 1690 1690 1691 1691 1692 1692 1692 1692 1692 1692 1692 1692 1694 1695 1699 1701 1703 1703 1705 1705 1708 1711 1714 1718 1722 1724 1725 1727 1730 1733 1735 1737 1738 1741 1744 1747 1750 1751 1751 1765 1792 0 0 1943 1959 1963 1965 1965 1965 1959 1959 1958 1958 1958 1955 1952 1951 1950 1948 1948 1947 1945 1943 1941 1939 1937 1934 1933 1930 1929 1927 1925 1922 1921 1919 1917 1915 1914 1913 1911 1910 1909 1907 1905 1903 1901 1899 1898 1896 1895 1893 1893 1891 1889 1889 1887 1885 1885 1883 1880 1879 1878 1877 1875 1874 1872 1870 1869 1866 1864 1863 1861 1861 1859 1859 1858 1856 1855 1855 1854 1853 1852 1852 1851 1850 1850 1850 1850 1850 1849 1849 1849 1849 1850 1851 1851 1851 1852 1852 1852 1852 1853 1853 1853 1853 1853 1853 1854 1855 1856 1857 1857 1857 1857 1858 1859 1859 1859 1859 1859 1859 1859 1859 1859 1859 1860 1860 1860 1860 1861 1861 1861 1861 1861 1861 1861 1862 1863 1864 1864 1864 1864 1864 1864 1864 1864 1864 1864 1864 1864 1864 1865 1865 1865 1865 1866 1866 1866 1866 1866 1866 1867 1867 1868 1868 1868 1869 1869 1870 1871 1872 1873 1874 1876 1876 1877 1878 1879 1880 1880 1880 1881 1881 1881 1882 1883 1883 1883 1884 1884 1885 1885 1886 1888 1888 1889 1891 1892 1894 1896 1897 1898 1900 1900 1902 1903 1905 1905 1909 1911 1912 1914 1917 1919 1922 1926 1931 1936 1940 1943 1945 1947 1949 1954 1958 1960 1966 1966 1966 0 0 0 0 0 0 0 0 0 0 0 0 0 0 0 0 0 0 0 0 0 0 0 0 0 0 0 0 0 0 0 0 0 0 0 0 0 0 0 0 0 0 0 0 0 0 0 0 0 0 0 0 0 0 0 0 0 0 0 0 0 0 0 0 0 0 0 0 0 0 0 0 0 0 0 0 0 0 0 0 0 0 0 0 0 0 0 0 0 0 0 0 0 0 0 0 0 0 0 0 0 0 0 0 0 0 0 0 0 0 1057 1057 1057 1040 1026 1013 994 978 970 963 957 936 914 904 894 879 857 837 830 823 823 823 827 831 833 833 833 829 826 821 817 813 807 801 797 792 786 780 775 772 769 766 766 766 774 778 780 788 788
2240 2240 2264 2277 2278 2292 2317 2331 2335 2339 2339 2339 2334 0 0 0 0 0 0 0 0 0 0 0 0 0 0 0 0 1309 1309 1309 1297 1297 1297 1339 1379 1409 1436 1446 1455 1456 1462 1467 1472 1473 1473 1476 1479 1480 1482 1484 1485 1486 1488 1489 1490 1491 1492 1493 1494 1495 1497 1498 1499 1499 1500 1501 1502 1502 1503 1503 1504 1505 1505 1505 1504 1504 1504 1506 1508 1508 1509 1510 1512 1513 1515 1518 1519 1521 1524 1526 1526 1528 1529 1533 1536 1538 1539 1539 1541 1542 1544 1546 1546 1548 1549 1550 1551 1552 1553 1554 1556 1556 1558 1559 1560 1562 1563 1564 1564 1564 1564 1565 1566 1566 1566 1566 1566 1567 1567 1569 1569 1569 1569 1569 1570 1573 1575 1578 1578 1580 1584 1587 1594 1597 1598 1600 1602 1604 1606 1608 1609 1610 1612 1613 1614 1615 1616 1618 1619 1620 1621 1622 1624 1625 1625 1626 1627 1629 1629 1629 1628 1627 1627 1627 1627 1627 1628 1629 1629 1630 1630 1632 1634 1636 1637 1639 1640 1643 1644 1646 1653 1659 1660 1662 1665 1669 1670 1671 1673 1675 1677 1679 1681 1682 1683 1684 1686 1687 1688 1689 1690 1691 1691 1691 1692 1692 1692 1692 1692 1692 1692 1693 1694 1696 1699 1701 1703 1705 1706 1707 1708 1712 1715 1718 1722 1724 1726 1728 1730 1733 1735 1737 1738 1741 1744 1748 1751 1753 1755 1766 0 0 1932 1944 1959 1964 1965 1965 1965 1964 1963 1961 1960 1960 1957 1955 1953 1951 1949 1948 1947 1946 1943 1941 1940 1939 1936 1934 1932 1930 1929 1926 1924 1922 1920 1919 1917 1914 1914 1913 1911 1909 1908 1907 1905 1903 1901 1899 1898 1897 1894 1893 1892 1891 1890 1888 1886 1885 1883 1882 1880 1879 1877 1876 1875 1872 1871 1869 1867 1866 1864 1863 1862 1860 1859 1858 1857 1857 1855 1854 1853 1852 1852 1851 1851 1851 1851 1850 1850 1850 1850 1850 1850 1851 1853 1853 1853 1853 1853 1853 1853 1854 1854 1854 1854 1854 1854 1854 1856 1857 1857 1857 1857 1858 1858 1859 1859 1859 1859 1859 1859 1859 1859 1859 1859 1860 1860 1860 1861 1861 1861 1861 1861 1861 1862 1862 1862 1863 1864 1864 1864 1864 1864 1864 1865 1864 1864 1864 1864 1864 1864 1865 1865 1866 1866 1866 1866 1866 1866 1866 1866 1867 1868 1868 1868 1869 1869 1869 1870 1871 1873 1874 1875 1876 1877 1878 1878 1879 1880 1881 1881 1882 1882 1882 1883 1883 1883 1884 1884 1885 1885 1885 1887 1888 1889 1889 1891 1893 1895 1896 1899 1900 1900 1902 1903 1904 1906 1907 1910 1912 1915 1917 1918 1920 1923 1927 1931 1937 1941 1943 1945 1947 1955 1961 1986 1990 1990 1990 1972 0 0 0 0 0 0 0 0 0 0 0 0 0 0 0 0 0 0 0 0 0 0 0 0 0 0 0 0 0 0 0 0 0 0 0 0 0 0 0 0 0 0 0 0 0 0 0 0 0 0 0 0 0 0 0 0 0 0 0 0 0 0 0 0 0 0 0 0 0 0 0 0 0 0 0 0 0 0 0 0 0 0 0 0 0 0 0 0 0 0 0 0 0 0 0 0 0 0 0 0 0 0 0 0 0 0 0 0 0 0 1061 1061 1061 1052 1029 1015 994 978 970 963 955 934 912 902 893 879 856 834 827 821 821 821 821 825 830 830 830 827 822 818 814 810 806 801 797 792 787 782 777 774 770 767 767 767 771 773 776 786 786
2240 2240 2283 2294 2294 2308 2317 2335 2336 2339 2348 2348 2348 0 0 0 0 0 0 0 0 0 0 0 0 0 0 0 0 1309 1309 1309 1294 1294 1294 1340 1387 1410 1437 1446 1462 1462 1464 1468 1473 1474 1475 1476 1479 1481 1483 1484 1485 1486 1488 1489 1490 1491 1492 1493 1495 1495 1497 1498 1499 1500 1501 1501 1503 1503 1504 1505 1506 1506 1507 1508 1509 1509 1510 1512 1513 1514 1514 1514 1515 1515 1519 1520 1522 1524 1527 1528 1529 1531 1533 1534 1536 1538 1539 1541 1541 1544 1545 1546 1547 1548 1549 1550 1551 1552 1553 1555 1556 1557 1558 1559 1561 1562 1563 1564 1565 1565 1566 1567 1567 1569 1570 1571 1571 1570 1569 1569 1569 1570 1570 1574 1576 1576 1577 1580 1582 1586 1588 1591 1594 1597 1600 1601 1603 1605 1607 1608 1610 1611 1612 1613 1614 1615 1616 1618 1619 1620 1621 1622 1624 1625 1626 1627 1628 1629 1629 1629 1629 1629 1629 1629 1629 1629 1629 1631 1631 1632 1632 1633 1636 1636 1638 1640 1641 1643 1645 1648 1655 1659 1661 1663 1666 1669 1670 1671 1673 1675 1677 1679 1681 1682 1683 1684 1686 1687 1688 1689 1690 1691 1691 1691 1692 1692 1692 1692 1692 1692 1692 1693 1694 1696 1699 1701 1703 1705 1707 1707 1710 1713 1716 1719 1722 1725 1727 1728 1730 1733 1735 1737 1738 1741 1744 1748 1752 1753 1760 1766 0 0 1937 1946 1964 1966 1966 1966 1965 1964 1964 1964 1961 1961 1958 1957 1954 1952 1951 1949 1948 1946 1944 1942 1941 1940 1938 1936 1934 1932 1931 1928 1926 1923 1921 1919 1917 1916 1915 1914 1912 1910 1909 1907 1905 1903 1901 1899 1899 1897 1896 1894 1893 1891 1890 1888 1888 1886 1884 1882 1881 1880 1878 1877 1875 1873 1871 1870 1868 1866 1865 1863 1863 1861 1860 1859 1858 1857 1856 1855 1854 1853 1852 1851 1851 1851 1851 1851 1851 1851 1851 1851 1852 1852 1854 1854 1854 1855 1855 1855 1855 1855 1855 1855 1855 1855 1855 1855 1856 1858 1858 1858 1858 1858 1858 1859 1860 1860 1860 1860 1859 1859 1859 1859 1860 1860 1860 1860 1861 1861 1862 1862 1862 1862 1862 1862 1862 1862 1864 1864 1865 1865 1865 1865 1865 1865 1865 1865 1865 1865 1865 1865 1866 1866 1866 1867 1867 1867 1866 1866 1866 1867 1868 1868 1868 1869 1870 1870 1871 1872 1873 1874 1875 1876 1877 1878 1878 1880 1880 1882 1882 1882 1882 1882 1883 1883 1884 1884 1885 1885 1885 1886 1887 1888 1889 1890 1891 1893 1895 1897 1901 1902 1903 1903 1904 1905 1907 1909 1911 1914 1919 1922 1923 1924 1925 1931 1937 1943 1949 1951 1955 1961 1966 1986 1993 1998 1998 1993 0 0 0 0 0 0 0 0 0 0 0 0 0 0 0 0 0 0 0 0 0 0 0 0 0 0 0 0 0 0 0 0 0 0 0 0 0 0 0 0 0 0 0 0 0 0 0 0 0 0 0 0 0 0 0 0 0 0 0 0 0 0 0 0 0 0 0 0 0 0 0 0 0 0 0 0 0 0 0 0 0 0 0 0 0 0 0 0 0 0 0 0 0 0 0 0 0 0 0 0 0 0 0 0 0 0 0 0 0 0 1066 1066 1065 1062 1056 1043 1017 994 979 970 963 953 930 911 901 892 879 856 833 827 817 816 816 816 821 827 827 827 824 820 815 810 809 804 800 797 792 787 783 780 776 771 767 767 767 768 771 776 776 776
2240 2240 2283 2309 2310 2313 2330 2335 2336 2337 2349 2349 2349 0 0 0 0 0 0 0 0 0 0 0 0 0 0 0 0 1294 1294 1292 1292 1294 1294 0 1389 1411 1438 1446 1464 1470 1472 1473 1475 1476 1476 1477 1479 1481 1483 1484 1485 1486 1488 1489 1491 1491 1492 1494 1495 1496 1497 1498 1499 1500 1501 1502 1503 1505 1506 1506 1507 1507 1508 1510 1510 1511 1513 1514 1515 1517 1518 1519 1520 1522 1523 1523 1525 1526 1527 1528 1531 1533 1534 1535 1536 1538 1539 1541 1542 1544 1545 1546 1548 1548 1549 1550 1551 1552 1554 1555 1556 1558 1558 1560 1561 1562 1563 1564 1566 1566 1568 1569 1569 1570 1571 1572 1572 1573 1573 1574 1574 1575 1576 1578 1581 1581 1582 1583 1585 1588 1591 1592 1594 1598 1600 1602 1603 1605 1607 1608 1610 1611 1612 1613 1614 1615 1617 1618 1619 1620 1621 1622 1624 1625 1626 1627 1629 1629 1629 1629 1629 1629 1629 1630 1630 1630 1631 1633 1634 1634 1634 1635 1636 1638 1639 1640 1642 1644 1647 1649 1655 1660 1661 1663 1667 1669 1670 1671 1673 1675 1677 1679 1681 1682 1683 1684 1686 1687 1689 1690 1690 1691 1691 1692 1692 1692 1693 1693 1693 1693 1693 1693 1695 1697 1699 1701 1703 1705 1707 1708 1711 1714 1716 1719 1721 1725 1727 1728 1730 1734 1735 1737 1739 1741 1744 1750 1753 1754 1760 1768 0 0 1939 1961 1968 1968 1968 1966 1966 1965 1964 1964 1962 1961 1960 1957 1954 1954 1952 1950 1948 1947 1945 1944 1942 1941 1939 1938 1937 1934 1932 1930 1928 1925 1923 1921 1918 1918 1917 1914 1912 1912 1909 1908 1906 1905 1902 1901 1899 1898 1897 1896 1894 1892 1891 1889 1888 1886 1885 1883 1881 1880 1878 1877 1875 1874 1872 1870 1869 1867 1865 1865 1863 1862 1860 1859 1859 1858 1857 1855 1854 1854 1852 1852 1852 1851 1851 1851 1852 1852 1852 1852 1852 1853 1856 1856 1856 1856 1856 1856 1856 1856 1856 1857 1857 1857 1857 1857 1858 1858 1859 1859 1859 1859 1860 1860 1861 1861 1861 1861 1860 1860 1860 1860 1860 1860 1860 1860 1861 1861 1862 1862 1862 1863 1863 1863 1863 1863 1864 1865 1865 1865 1865 1865 1865 1865 1865 1865 1865 1865 1865 1865 1866 1867 1867 1868 1868 1868 1868 1868 1868 1869 1869 1869 1870 1870 1871 1872 1872 1874 1875 1875 1876 1877 1878 1879 1879 1880 1881 1882 1882 1882 1882 1883 1884 1884 1885 1885 1885 1885 1885 1886 1887 1888 1889 1891 1892 1894 1896 1899 1903 1905 1906 1906 1909 1911 1914 1914 1918 1919 1922 1925 1927 1927 1930 1935 1942 1948 1954 1960 1962 1967 1974 1992 1993 1998 1998 1993 0 0 0 0 0 0 0 0 0 0 0 0 0 0 0 0 0 0 0 0 0 0 0 0 0 0 0 0 0 0 0 0 0 0 0 0 0 0 0 0 0 0 0 0 0 0 0 0 0 0 0 0 0 0 0 0 0 0 0 0 0 0 0 0 0 0 0 0 0 0 0 0 0 0 0 0 0 0 0 0 0 0 0 0 0 0 0 0 0 0 0 0 0 0 0 0 0 0 0 0 0 0 0 0 0 0 0 0 0 0 1084 1084 1083 1065 1058 1043 1017 993 979 971 963 950 928 907 897 885 875 856 833 830 817 812 812 812 816 823 823 823 821 817 813 810 806 804 800 797 793 787 783 780 776 771 767 767 767 767 769 775 775 776
2231 2231 2283 2320 2334 2334 2334 2334 2334 2336 2348 2348 2348 0 0 0 0 0 0 0 0 0 0 0 0 0 0 0 0 1292 1292 1291 1291 1291 0 0 1398 1436 1446 1455 1470 1472 1472 1472 1475 1476 1478 1480 1480 1482 1484 1484 1485 1487 1488 1489 1491 1492 1492 1494 1495 1496 1497 1498 1500 1501 1502 1503 1504 1505 1507 1507 1508 1509 1510 1511 1512 1512 1514 1515 1516 1517 1519 1521 1522 1523 1525 1525 1526 1527 1529 1530 1532 1534 1535 1536 1537 1539 1540 1542 1543 1544 1546 1546 1548 1549 1550 1550 1551 1553 1554 1555 1557 1558 1558 1560 1561 1562 1564 1565 1566 1567 1568 1569 1570 1571 1571 1572 1573 1575 1575 1576 1576 1577 1578 1580 1582 1583 1584 1586 1589 1590 1592 1594 1596 1598 1600 1602 1604 1605 1607 1608 1610 1611 1612 1613 1614 1615 1617 1618 1619 1620 1621 1622 1624 1625 1626 1627 1629 1629 1630 1630 1630 1630 1630 1630 1631 1631 1632 1634 1634 1634 1635 1636 1637 1638 1641 1643 1645 1647 1648 1651 1656 1660 1662 1665 1667 1669 1670 1672 1674 1675 1677 1679 1681 1682 1683 1684 1686 1688 1689 1690 1691 1691 1692 1692 1692 1693 1694 1694 1694 1694 1694 1695 1697 1699 1700 1701 1703 1705 1707 1710 1712 1715 1718 1720 1721 1724 1727 1729 1731 1734 1736 1738 1740 1742 1744 1750 1753 1754 1761 1771 0 0 1958 1973 1973 1973 1969 1968 1968 1967 1967 1966 1965 1963 1961 1959 1957 1955 1953 1952 1950 1947 1946 1945 1943 1943 1941 1939 1937 1935 1933 1932 1929 1926 1923 1922 1920 1918 1917 1915 1914 1912 1911 1910 1909 1907 1904 1901 1900 1899 1898 1897 1895 1893 1891 1889 1888 1886 1885 1884 1882 1880 1879 1877 1876 1874 1873 1871 1869 1868 1866 1865 1863 1862 1861 1859 1859 1858 1858 1857 1855 1854 1853 1852 1852 1852 1852 1852 1852 1852 1853 1853 1853 1854 1856 1857 1857 1858 1858 1858 1858 1858 1858 1858 1859 1859 1859 1858 1858 1858 1859 1860 1860 1860 1860 1861 1862 1862 1862 1862 1861 1860 1860 1860 1860 1860 1860 1861 1861 1862 1862 1862 1863 1863 1863 1863 1863 1864 1864 1865 1865 1866 1866 1866 1866 1866 1866 1866 1866 1865 1865 1865 1866 1867 1868 1868 1868 1868 1868 1869 1869 1869 1870 1870 1870 1870 1872 1873 1873 1874 1876 1876 1877 1877 1879 1879 1879 1881 1881 1882 1882 1882 1882 1883 1884 1884 1885 1886 1888 1889 1889 1889 1890 1890 1891 1891 1892 1896 1898 1902 1905 1906 1909 1910 1913 1915 1918 1919 1921 1924 1926 1931 1933 1937 1940 1944 1948 1954 1961 1966 1968 1974 1984 1992 1999 1999 1999 1999 0 0 0 0 0 0 0 0 0 0 0 0 0 0 0 0 0 0 0 0 0 0 0 0 0 0 0 0 0 0 0 0 0 0 0 0 0 0 0 0 0 0 0 0 0 0 0 0 0 0 0 0 0 0 0 0 0 0 0 0 0 0 0 0 0 0 0 0 0 0 0 0 0 0 0 0 0 0 0 0 0 0 0 0 0 0 0 0 0 0 0 0 0 0 0 0 0 0 0 0 0 0 0 0 0 0 0 0 0 0 1084 1084 1083 1078 1073 1043 1017 992 979 971 961 949 925 904 891 881 871 856 833 830 817 811 810 810 810 814 818 818 818 815 812 809 806 803 800 797 794 790 785 781 776 771 767 764 764 764 766 774 774 775
2228 2228 2281 2320 2334 2334 2334 2333 2333 2333 2342 2342 2342 0 0 0 0 0 0 0 0 0 0 0 0 0 0 0 0 1290 1290 1290 1290 1294 0 0 1442 1471 1474 1474 1472 1472 1472 1472 1475 1476 1481 1482 1483 1483 1484 1484 1486 1487 1488 1489 1491 1492 1493 1494 1495 1496 1498 1499 1500 1502 1503 1504 1506 1506 1508 1509 1509 1510 1511 1512 1513 1515 1515 1517 1517 1520 1521 1522 1523 1524 1526 1526 1527 1529 1530 1532 1533 1535 1536 1537 1538 1540 1541 1542 1543 1544 1546 1547 1548 1549 1550 1551 1552 1553 1554 1555 1557 1558 1559 1560 1561 1562 1564 1565 1566 1567 1568 1569 1570 1572 1572 1574 1575 1575 1576 1576 1578 1579 1581 1582 1583 1584 1586 1588 1590 1591 1593 1595 1597 1600 1601 1602 1604 1605 1607 1608 1610 1611 1612 1613 1614 1615 1617 1618 1619 1620 1621 1623 1624 1625 1627 1628 1629 1629 1630 1630 1631 1631 1632 1632 1633 1633 1634 1634 1635 1636 1637 1637 1637 1639 1641 1645 1649 1649 1650 1652 1656 1660 1663 1665 1667 1669 1671 1672 1674 1675 1677 1679 1681 1682 1683 1685 1686 1688 1689 1690 1691 1692 1693 1693 1693 1693 1695 1696 1696 1696 1696 1696 1697 1699 1700 1702 1703 1705 1707 1711 1714 1716 1718 1721 1721 1725 1728 1730 1732 1734 1737 1739 1741 1742 1744 1750 1754 1754 1763 1775 0 0 1965 1974 1974 1974 1974 1971 1970 1968 1967 1966 1965 1963 1962 1960 1959 1957 1955 1953 1951 1950 1948 1947 1945 1944 1943 1941 1939 1936 1935 1932 1931 1928 1926 1924 1921 1919 1917 1916 1915 1914 1912 1911 1910 1907 1906 1904 1901 1900 1899 1898 1896 1894 1892 1890 1889 1887 1886 1885 1882 1881 1879 1878 1876 1875 1873 1871 1870 1868 1867 1865 1865 1863 1862 1860 1860 1859 1858 1857 1855 1855 1854 1854 1853 1853 1853 1853 1853 1854 1854 1854 1856 1857 1857 1857 1858 1858 1859 1859 1860 1861 1861 1861 1861 1861 1861 1859 1859 1859 1860 1860 1860 1862 1862 1863 1864 1864 1864 1862 1862 1860 1860 1860 1860 1861 1861 1863 1863 1863 1863 1863 1863 1864 1864 1864 1865 1865 1866 1866 1867 1867 1867 1867 1867 1867 1867 1867 1867 1867 1867 1867 1867 1869 1869 1869 1869 1871 1871 1871 1871 1871 1871 1871 1872 1873 1874 1874 1874 1876 1876 1877 1879 1880 1880 1881 1882 1882 1882 1883 1883 1884 1884 1885 1885 1886 1886 1888 1889 1890 1891 1891 1892 1893 1894 1894 1896 1898 1902 1905 1908 1910 1911 1912 1915 1918 1921 1925 1927 1929 1931 1933 1937 1942 1946 1948 1952 1958 1965 1967 1973 1986 1994 1997 1999 2000 2000 2000 0 0 0 0 0 0 0 0 0 0 0 0 0 0 0 0 0 0 0 0 0 0 0 0 0 0 0 0 0 0 0 0 0 0 0 0 0 0 0 0 0 0 0 0 0 0 0 0 0 0 0 0 0 0 0 0 0 0 0 0 0 0 0 0 0 0 0 0 0 0 0 0 0 0 0 0 0 0 0 0 0 0 0 0 0 0 0 0 0 0 0 0 0 0 0 0 0 0 0 0 0 0 0 0 0 0 0 0 0 0 1085 1085 1085 1078 1073 1043 1015 987 977 971 961 948 921 900 889 880 870 858 836 833 817 811 808 808 808 809 815 815 815 813 810 807 805 803 802 799 796 792 788 783 778 772 768 764 764 764 766 769 769 769
0 0 0 2320 2334 2334 2334 2333 2333 2333 2329 2329 0 0 0 0 0 0 0 0 0 0 0 0 0 0 0 0 0 1283 1284 1284 1284 1294 0 0 1442 1471 1474 1474 1472 1471 1470 1470 1470 1477 1481 1482 1483 1484 1484 1485 1486 1488 1489 1490 1491 1492 1493 1494 1495 1497 1498 1499 1501 1502 1504 1505 1506 1507 1508 1509 1509 1510 1512 1512 1515 1516 1517 1519 1519 1520 1521 1523 1524 1525 1526 1527 1529 1529 1531 1533 1534 1535 1536 1538 1539 1540 1542 1543 1544 1545 1546 1547 1548 1549 1550 1551 1552 1553 1554 1555 1557 1558 1559 1560 1562 1563 1564 1566 1567 1568 1569 1570 1571 1572 1574 1574 1575 1576 1577 1578 1578 1580 1581 1583 1585 1586 1588 1589 1590 1592 1594 1596 1598 1600 1601 1602 1604 1605 1607 1608 1610 1611 1612 1613 1615 1616 1617 1618 1619 1621 1621 1623 1624 1626 1627 1628 1629 1629 1630 1631 1632 1632 1632 1634 1634 1634 1634 1635 1636 1637 1639 1641 1641 1643 1643 1648 1652 1653 1653 1655 1657 1660 1664 1665 1667 1669 1671 1672 1674 1675 1677 1679 1681 1682 1683 1685 1686 1688 1689 1690 1691 1692 1693 1693 1693 1694 1696 1696 1696 1696 1696 1698 1698 1700 1701 1703 1703 1705 1708 1712 1715 1719 1720 1722 1723 1725 1728 1730 1733 1735 1737 1739 1741 1742 1744 1750 1755 1757 1763 0 0 0 1969 1974 1974 1974 1974 1971 1970 1969 1967 1966 1965 1963 1962 1960 1959 1957 1955 1953 1952 1950 1949 1947 1946 1945 1944 1943 1940 1939 1936 1934 1932 1930 1927 1926 1924 1921 1920 1917 1916 1915 1913 1911 1910 1908 1906 1905 1904 1901 1900 1899 1897 1895 1893 1892 1889 1887 1886 1885 1884 1882 1880 1878 1877 1875 1873 1872 1871 1870 1868 1868 1866 1865 1863 1862 1862 1862 1861 1859 1859 1858 1858 1856 1853 1853 1853 1854 1855 1855 1856 1857 1858 1860 1860 1860 1860 1860 1861 1862 1862 1862 1862 1862 1862 1862 1862 1861 1861 1860 1860 1861 1861 1863 1863 1864 1864 1865 1865 1865 1865 1862 1862 1862 1862 1862 1864 1865 1865 1867 1867 1869 1869 1869 1869 1869 1869 1869 1869 1869 1869 1870 1870 1870 1870 1869 1869 1869 1869 1870 1871 1872 1872 1872 1872 1872 1872 1873 1875 1877 1878 1878 1878 1877 1877 1877 1878 1878 1879 1879 1881 1882 1882 1883 1885 1885 1885 1885 1886 1886 1886 1887 1887 1888 1888 1889 1889 1890 1891 1892 1894 1895 1896 1898 1899 1900 1901 1903 1905 1907 1908 1911 1912 1913 1916 1918 1921 1925 1929 1931 1934 1937 1940 1944 1947 1952 1957 1961 1965 1971 1981 1991 1994 1997 1999 2000 2000 2000 0 0 0 0 0 0 0 0 0 0 0 0 0 0 0 0 0 0 0 0 0 0 0 0 0 0 0 0 0 0 0 0 0 0 0 0 0 0 0 0 0 0 0 0 0 0 0 0 0 0 0 0 0 0 0 0 0 0 0 0 0 0 0 0 0 0 0 0 0 0 0 0 0 0 0 0 0 0 0 0 0 0 0 0 0 0 0 0 0 0 0 0 0 0 0 0 0 0 0 0 0 0 0 0 0 0 0 0 0 0 1087 1087 1087 1078 1073 1047 1009 987 977 970 960 943 917 898 889 878 869 859 854 835 819 811 806 804 804 804 810 810 810 809 806 805 805 803 802 800 797 793 788 784 779 773 768 765 765 765 765 765 767 767
0 0 0 2301 2301 2301 2298 2291 0 0 0 0 0 0 0 0 0 0 0 0 0 0 0 0 0 0 0 0 0 1302 1282 1282 1282 1294 0 0 1442 1471 1474 1474 1472 1471 1467 1467 1467 1476 1481 1483 1484 1484 1485 1485 1486 1488 1489 1490 1491 1492 1493 1494 1495 1497 1498 1499 1501 1502 1504 1505 1507 1508 1508 1509 1510 1511 1513 1514 1515 1516 1518 1519 1520 1520 1522 1524 1525 1526 1527 1528 1529 1531 1532 1534 1535 1537 1537 1539 1540 1541 1542 1543 1544 1545 1546 1547 1548 1549 1550 1551 1552 1553 1554 1556 1557 1558 1559 1560 1562 1563 1565 1566 1567 1569 1569 1570 1572 1572 1574 1575 1576 1577 1578 1579 1579 1581 1582 1585 1586 1587 1588 1590 1591 1593 1594 1596 1598 1600 1601 1602 1604 1605 1607 1608 1610 1611 1613 1614 1615 1616 1617 1618 1619 1621 1621 1623 1624 1626 1627 1628 1629 1629 1630 1632 1632 1633 1634 1634 1635 1636 1636 1637 1638 1639 1641 1642 1644 1646 1648 1649 1652 1653 1654 1656 1659 1661 1664 1666 1668 1669 1671 1673 1674 1676 1677 1679 1681 1682 1683 1685 1686 1688 1689 1691 1692 1692 1693 1694 1694 1694 1697 1697 1697 1697 1697 1698 1700 1701 1703 1704 1704 1705 1710 1714 1716 1719 1721 1722 1723 1725 1728 1730 1733 1735 1737 1740 1741 1742 1744 1750 1755 1758 1766 0 0 1937 1971 1973 1973 1973 1973 1971 1970 1969 1967 1965 1964 1963 1962 1960 1959 1957 1955 1953 1952 1951 1949 1947 1946 1945 1944 1943 1941 1940 1937 1935 1933 1931 1928 1926 1924 1922 1920 1917 1916 1915 1914 1911 1910 1908 1907 1905 1904 1903 1901 1899 1898 1895 1894 1893 1891 1890 1889 1887 1885 1883 1881 1880 1878 1876 1874 1872 1872 1871 1871 1869 1868 1867 1866 1865 1865 1865 1864 1863 1862 1860 1860 1860 1858 1858 1858 1858 1858 1859 1860 1860 1861 1862 1864 1865 1867 1867 1868 1868 1868 1867 1865 1865 1865 1864 1865 1866 1866 1866 1866 1867 1869 1871 1871 1871 1871 1872 1872 1872 1872 1872 1870 1868 1868 1868 1872 1873 1874 1874 1875 1875 1875 1875 1875 1875 1874 1874 1874 1874 1874 1873 1873 1873 1873 1873 1874 1874 1874 1875 1877 1879 1879 1879 1879 1880 1881 1881 1881 1881 1881 1881 1881 1882 1883 1883 1883 1883 1883 1883 1885 1885 1885 1888 1889 1891 1891 1892 1892 1892 1892 1892 1892 1891 1891 1891 1891 1891 1892 1894 1895 1896 1897 1898 1899 1900 1901 1903 1905 1907 1908 1911 1913 1914 1916 1918 1922 1925 1929 1932 1935 1937 1942 1944 1950 1956 1959 1962 1966 1972 1983 1991 1994 1997 2002 2007 2007 2007 0 0 0 0 0 0 0 0 0 0 0 0 0 0 0 0 0 0 0 0 0 0 0 0 0 0 0 0 0 0 0 0 0 0 0 0 0 0 0 0 0 0 0 0 0 0 0 0 0 0 0 0 0 0 0 0 0 0 0 0 0 0 0 0 0 0 0 0 0 0 0 0 0 0 0 0 0 0 0 0 0 0 0 0 0 0 0 0 0 0 0 0 0 0 0 0 0 0 0 0 0 0 0 0 0 0 0 0 0 0 1082 1082 1082 1076 1068 1046 1009 987 976 967 956 937 914 896 886 878 868 859 855 840 825 812 804 800 800 800 802 806 806 806 804 803 803 802 802 801 797 793 790 785 779 773 769 765 765 764 764 765 766 766
0 0 0 0 2296 2296 2296 0 0 0 0 0 0 0 0 0 0 0 0 0 0 0 0 0 0 0 0 0 1324 1302 1273 1273 1273 1283 0 0 1438 1465 1470 1472 1470 1465 1467 1467 1467 1474 1481 1483 1484 1484 1486 1486 1487 1488 1489 1491 1492 1492 1494 1494 1496 1497 1498 1500 1501 1503 1504 1505 1507 1508 1509 1510 1511 1512 1514 1515 1516 1518 1519 1519 1520 1521 1523 1524 1526 1527 1528 1529 1530 1532 1533 1535 1536 1537 1538 1539 1540 1541 1542 1543 1544 1545 1546 1547 1548 1549 1551 1551 1553 1553 1555 1556 1557 1558 1559 1561 1562 1563 1565 1566 1567 1569 1570 1571 1572 1573 1574 1576 1577 1577 1579 1580 1580 1582 1583 1585 1586 1588 1590 1590 1592 1593 1595 1596 1598 1600 1601 1602 1604 1605 1607 1608 1610 1611 1613 1614 1616 1616 1617 1618 1619 1621 1621 1623 1625 1626 1627 1628 1629 1629 1631 1632 1633 1633 1634 1635 1637 1638 1639 1640 1641 1643 1644 1645 1647 1647 1649 1650 1652 1654 1656 1657 1660 1663 1664 1666 1668 1669 1672 1673 1674 1676 1678 1679 1681 1682 1684 1685 1687 1688 1690 1691 1692 1692 1694 1694 1695 1696 1697 1697 1697 1697 1697 1699 1701 1702 1704 1705 1708 1711 1712 1715 1718 1720 1721 1723 1724 1726 1729 1731 1734 1736 1738 1740 1742 1742 1746 1752 1757 1759 1771 0 0 1948 1972 1972 1972 1972 1970 1969 1969 1968 1967 1965 1963 1963 1961 1960 1958 1957 1955 1953 1952 1951 1949 1948 1946 1945 1944 1943 1941 1940 1937 1935 1933 1931 1929 1927 1925 1923 1920 1918 1917 1916 1914 1913 1910 1908 1908 1906 1906 1905 1902 1900 1898 1896 1894 1894 1892 1891 1889 1887 1885 1883 1882 1880 1879 1877 1875 1873 1873 1872 1872 1871 1870 1868 1868 1867 1867 1867 1866 1865 1865 1863 1862 1862 1860 1860 1860 1860 1860 1860 1862 1864 1868 1871 1872 1873 1874 1875 1875 1877 1877 1877 1875 1875 1875 1876 1876 1876 1876 1873 1873 1873 1874 1876 1876 1876 1876 1876 1876 1876 1876 1875 1876 1876 1876 1877 1880 1882 1883 1883 1883 1883 1883 1883 1884 1884 1884 1882 1882 1882 1882 1882 1882 1882 1883 1883 1883 1882 1882 1882 1882 1882 1882 1883 1883 1883 1885 1885 1885 1885 1885 1885 1885 1887 1888 1888 1888 1889 1889 1889 1890 1891 1891 1892 1892 1892 1892 1892 1892 1894 1894 1894 1893 1892 1892 1892 1892 1893 1894 1895 1895 1896 1897 1898 1899 1900 1901 1903 1905 1907 1908 1911 1913 1914 1916 1918 1922 1925 1929 1933 1935 1939 1943 1946 1951 1956 1960 1964 1967 1974 1984 1991 1994 1999 2003 2009 2009 2009 0 0 0 0 0 0 0 0 0 0 0 0 0 0 0 0 0 0 0 0 0 0 0 0 0 0 0 0 0 0 0 0 0 0 0 0 0 0 0 0 0 0 0 0 0 0 0 0 0 0 0 0 0 0 0 0 0 0 0 0 0 0 0 0 0 0 0 0 0 0 0 0 0 0 0 0 0 0 0 0 0 0 0 0 0 0 0 0 0 0 0 0 0 0 0 0 0 0 0 0 0 0 0 0 0 0 0 0 0 1046 1073 1075 1075 1075 1068 1046 1009 986 973 964 951 929 906 889 881 875 867 859 855 844 827 813 804 799 799 799 799 803 803 803 803 802 802 802 801 801 798 795 791 786 780 774 769 766 764 764 764 764 764 764
0 0 0 0 0 0 0 0 0 0 0 0 0 0 0 0 0 0 0 0 0 0 0 0 0 0 0 0 1324 1300 1273 1273 1273 1283 0 0 1417 1446 1465 1470 1470 1465 1468 1468 1468 1477 1481 1483 1484 1486 1486 1486 1488 1489 1490 1491 1492 1493 1494 1495 1496 1497 1498 1500 1501 1503 1504 1506 1507 1508 1509 1510 1512 1512 1514 1515 1517 1518 1519 1520 1521 1522 1524 1524 1526 1527 1528 1529 1531 1532 1534 1535 1536 1537 1538 1539 1540 1542 1542 1543 1544 1545 1546 1547 1549 1550 1551 1552 1553 1554 1555 1556 1557 1558 1559 1561 1562 1563 1565 1566 1567 1569 1570 1571 1572 1573 1574 1576 1577 1578 1579 1580 1582 1583 1584 1586 1588 1589 1590 1592 1593 1593 1595 1597 1599 1600 1601 1602 1604 1605 1607 1608 1610 1611 1613 1614 1616 1617 1617 1619 1620 1621 1622 1623 1625 1626 1627 1628 1629 1630 1631 1632 1633 1634 1635 1637 1638 1639 1640 1641 1643 1643 1645 1647 1648 1650 1651 1653 1654 1656 1657 1658 1660 1663 1665 1667 1668 1670 1672 1674 1675 1676 1678 1679 1681 1682 1684 1686 1687 1688 1690 1691 1692 1693 1694 1696 1696 1697 1698 1699 1701 1701 1702 1702 1703 1704 1704 1706 1711 1713 1715 1715 1718 1721 1722 1724 1727 1728 1729 1732 1735 1737 1739 1740 1742 1743 1747 1753 1757 1759 1771 0 0 1954 1972 1972 1972 1971 1970 1969 1968 1967 1966 1965 1963 1962 1961 1959 1957 1955 1954 1953 1952 1951 1949 1948 1946 1945 1943 1943 1941 1940 1937 1935 1933 1931 1929 1927 1925 1923 1921 1919 1918 1916 1914 1913 1911 1909 1908 1907 1906 1905 1903 1902 1899 1897 1896 1895 1893 1892 1889 1888 1886 1884 1882 1881 1879 1878 1876 1875 1874 1873 1873 1873 1872 1871 1870 1869 1868 1868 1868 1867 1867 1866 1866 1864 1864 1863 1863 1864 1864 1864 1864 1867 1870 1872 1873 1874 1875 1876 1877 1880 1880 1881 1882 1883 1883 1883 1883 1882 1882 1882 1882 1883 1883 1884 1885 1885 1885 1884 1883 1882 1882 1882 1882 1883 1884 1884 1888 1888 1889 1890 1890 1890 1890 1890 1890 1889 1887 1886 1886 1885 1885 1885 1885 1886 1886 1886 1886 1886 1886 1887 1887 1887 1887 1886 1886 1886 1888 1889 1889 1890 1889 1889 1889 1889 1889 1889 1889 1889 1889 1890 1890 1891 1891 1892 1892 1892 1892 1892 1892 1894 1894 1894 1893 1892 1892 1892 1892 1893 1894 1895 1896 1896 1897 1898 1899 1900 1902 1904 1905 1907 1908 1911 1913 1914 1916 1919 1922 1926 1930 1933 1935 1940 1944 1948 1952 1957 1960 1965 1970 1980 1985 1991 1994 1999 2004 2012 2012 2012 0 0 0 0 0 0 0 0 0 0 0 0 0 0 0 0 0 0 0 0 0 0 0 0 0 0 0 0 0 0 0 0 0 0 0 0 0 0 0 0 0 0 0 0 0 0 0 0 0 0 0 0 0 0 0 0 0 0 0 0 0 0 0 0 0 0 0 0 0 0 0 0 0 0 0 0 0 0 0 0 0 0 0 0 0 0 0 0 0 0 0 0 0 0 0 0 0 0 0 0 0 0 0 0 0 0 0 0 0 1046 1076 1076 1076 1075 1068 1046 1009 985 971 958 943 921 898 880 873 867 862 859 855 847 832 816 804 798 796 796 796 800 801 801 801 801 801 801 800 800 799 797 793 788 782 776 771 767 765 765 764 764 764 764
