0 0 0 0 0 0 0 0 0 0 0 0 0 0 0 914 926 926 926 928 929 929 939 0 941 941 932 932 932 959 960 985 986 1001 1009 1031 1031 1037 1043 1057 1062 1064 1065 1065 1067 1082 1085 1089 1089 1089 1086 1086 1086 1107 1131 1140 1149 1152 1152 1153 1157 1157 1157 1152 1140 1140 1140 1140 1145 1146 1156 1168 1172 1172 1172 1172 1172 1182 1182 1184 1187 1188 1188 1188 1188 1185 1182 1179 1177 1177 1175 1175 1175 1175 1178 1189 1201 1201 1201 1194 1194 1194 1197 1205 1211 1211 1211 1206 1206 1206 1207 1211 1211 1211 1208 1205 1192 1176 1176 1176 1182 1185 1187 1188 1188 1192 1193 1196 1201 1214 1225 1244 1244 1244 1237 1225 1225 1225 0 0 0 0 0 2849 3075 3125 3140 3153 3164 3170 3175 3182 3182 3182 3171 3158 3140 3136 3132 3125 3109 3097 3081 3066 3056 3054 3053 3042 3033 3017 3012 2992 2974 2958 2945 2937 2916 2890 2866 2856 2836 2818 2794 2767 2741 2714 2691 2653 2631 2615 0 0 0 0 1466 1432 1406 1405 1405 1403 1398 1393 1384 1380 1375 1371 1365 1362 1360 1356 1352 1348 1346 1342 1340 1336 1333 1331 1331 1330 1328 1328 1328 1328 1328 1329 1331 1332 1334 1339 1342 1346 1347 1351 1357 1374 1385 1396 1414 1418 1421 1421 1421 1401 1386 1375 1369 1361 1353 1346 1341 1338 1337 1336 1333 1329 1329 1327 1325 1325 1324 1324 1323 1323 1321 1319 1317 1316 1315 1314 1313 1311 1310 1310 1310 1309 1308 1307 1307 1307 1306 1306 1305 1305 1304 1304 1304 1303 1303 1303 1303 1302 1301 1300 1300 1299 1298 1297 1296 1295 1295 1294 1294 1294 1293 1293 1293 1293 1293 1293 1293 1293 1293 1294 1294 1294 1295 1295 1296 1296 1297 1298 1298 1299 1299 1299 1299 1299 1299 1299 1299 1299 1299 1298 1297 1296 1296 1296 1295 1295 1295 1294 1293 1293 1293 1292 1292 1292 1291 1291 1291 1291 1291 1291 1291 1291 1291 1291 1291 1291 1291 1292 1292 1292 1292 1293 1293 1293 1293 1293 1294 1294 1294 1294 1294 1294 1293 1293 1293 1292 1292 1291 1291 1291 1290 1289 1287 1287 1287 1285 1284 1284 1282 1281 1281 1281 1281 1280 1280 1280 1280 1281 1281 1281 1281 1281 1282 1283 1283 1284 1284 1284 1284 1285 1287 1288 1288 1289 1289 1290 1290 1290 1290 1291 1291 1291 1291 1291 1291 1291 1290 1290 1290 1290 1290 1289 1289 1288 1288 1287 1286 1285 1284 1284 1283 1282 1280 1278 1277 1276 1276 1275 1274 1274 1273 1273 1273 1272 1272 1272 1272 1272 1272 1273 1273 1273 1273 1274 1276 1277 1278 1279 1279 1279 1280 1281 1282 1282 1282 1282 1282 1283 1283 1283 1283 1283 1283 1283 1283 1283 1283 1283 1283 1283 1281 1279 1278 1278 1275 1275 1274 1273 1270 1268 1268 1266 1266 1265 1264 1264 1263 1263 1263 1262 1262 1262 1264 1264 1265 1266 1267 1267 1268 1270 1271 1273 1274 1275 1277 1277 1278 1278 1278 1278 1278 1278 1277 1277 1276 1276 1275 1275 1274 1274 1274 1273 1273 1272 1272 1271 1271 1271 1270 1269 1268 1268 1268 1268 1268 1268 1268 1269 1270 1270 1270 1273 1274 1274 1275 1277 1277 1277 1278 1279 1280 1280 1280 1281 1281 1282 1282 1282 1282 1282 1282 1282 1281 1280 1279 1277 1276 1275 1273 1268 1259 1258 1256 1256 1256 1255 1255 1255 1251 1246 1244 1241 1240 1238 1232 1229 1224 1218 1211 1204 1202 1152 1139 1121 1087 0 0 0 0 0 0 0 0 0 0 0 0 0 0 0 0 0 0 0 0 0
0 0 0 0 0 0 0 0 0 0 0 0 0 0 913 914 926 914 914 907 900 898 893 0 896 896 916 919 925 940 942 983 986 994 998 1026 1027 1029 1039 1072 1072 1072 1070 1070 1070 1074 1077 1082 1084 1084 1085 1085 1086 1100 1122 1140 1142 1142 1147 1150 1157 1157 1157 1152 1140 1140 1140 1140 1140 1144 1145 1152 1152 1152 1166 1166 1167 1179 1182 1184 1184 1184 1187 1187 1187 1184 1181 1175 1172 1171 1168 1168 1168 1171 1177 1186 1199 1199 1199 1194 1194 1194 1197 1203 1210 1210 1210 1206 1206 1206 1218 1218 1218 1211 1208 1205 1192 1177 1177 1177 1181 1185 1187 1187 1188 1189 1191 1192 1199 1212 1225 1244 1244 1244 1229 1209 1209 1209 0 0 0 0 0 2771 3065 3112 3126 3137 3152 3160 3165 3165 3165 3164 3156 3147 3140 3133 3127 3117 3105 3094 3076 3060 3045 3038 3034 3034 3029 3017 3012 2992 2983 2968 2944 2927 2905 2887 2870 2860 2842 2819 2796 2767 2741 2714 2691 2653 2631 2615 0 0 0 0 1466 1426 1410 1405 1405 1405 1397 1392 1384 1380 1375 1371 1366 1363 1361 1358 1354 1350 1346 1343 1340 1338 1333 1332 1331 1330 1328 1328 1328 1328 1328 1329 1331 1332 1334 1337 1340 1343 1347 1350 1356 1369 1384 1396 1414 1418 1418 1418 1415 1401 1387 1375 1369 1362 1353 1346 1338 1336 1336 1335 1332 1329 1329 1327 1326 1326 1325 1324 1324 1323 1321 1319 1318 1316 1315 1314 1313 1312 1311 1310 1310 1309 1308 1308 1307 1307 1307 1307 1306 1305 1305 1305 1305 1304 1304 1303 1303 1302 1301 1301 1300 1299 1298 1297 1297 1295 1295 1294 1294 1293 1293 1293 1293 1293 1293 1293 1293 1293 1293 1293 1294 1294 1295 1295 1296 1296 1297 1297 1298 1299 1299 1299 1299 1299 1299 1299 1299 1299 1299 1298 1298 1297 1297 1296 1296 1295 1295 1295 1294 1294 1293 1293 1293 1292 1292 1292 1291 1291 1291 1291 1291 1291 1291 1291 1291 1291 1291 1291 1291 1292 1292 1292 1292 1292 1293 1293 1293 1294 1294 1294 1294 1294 1293 1293 1293 1292 1292 1292 1291 1291 1290 1289 1288 1288 1287 1286 1285 1284 1283 1282 1282 1282 1282 1281 1281 1281 1281 1281 1281 1281 1281 1281 1282 1283 1284 1284 1284 1284 1284 1286 1287 1288 1288 1289 1290 1290 1290 1290 1291 1291 1291 1291 1291 1291 1291 1291 1290 1290 1290 1290 1290 1289 1289 1288 1288 1287 1286 1286 1285 1284 1283 1282 1280 1278 1277 1276 1276 1275 1274 1274 1273 1273 1273 1272 1272 1272 1273 1273 1273 1273 1273 1274 1274 1274 1276 1277 1278 1279 1280 1280 1281 1281 1282 1282 1283 1283 1283 1283 1283 1283 1284 1284 1284 1283 1283 1283 1283 1283 1283 1283 1282 1281 1280 1279 1277 1276 1276 1275 1273 1270 1268 1267 1266 1265 1264 1264 1263 1263 1262 1262 1262 1262 1262 1263 1264 1266 1266 1266 1268 1269 1271 1273 1274 1275 1276 1277 1278 1278 1278 1278 1278 1278 1278 1277 1276 1276 1276 1276 1275 1275 1274 1274 1274 1274 1274 1274 1272 1272 1272 1271 1271 1269 1269 1269 1269 1269 1270 1271 1272 1272 1273 1274 1276 1276 1277 1277 1279 1279 1279 1280 1281 1281 1281 1281 1282 1282 1282 1283 1283 1283 1282 1282 1281 1280 1279 1277 1276 1274 1272 1269 1261 1254 1248 1248 1248 1250 1250 1250 1247 1246 1240 1238 1236 1231 1227 1224 1217 1208 1205 1195 1193 1143 1139 1122 1089 0 0 0 0 0 0 0 0 0 0 0 0 0 0 0 0 0 0 0 0 0
0 0 0 0 0 0 0 0 0 0 0 0 0 870 887 888 895 899 899 899 889 874 863 863 863 876 0 885 0 0 0 962 971 973 985 1023 1027 1029 1037 1072 1072 1072 1070 1067 1067 1067 1069 1074 1076 1076 1084 1085 1086 1092 1113 1137 1138 1139 1140 1146 1150 1150 1150 1146 1140 1139 1139 1139 1138 1139 1140 1140 1150 1150 1163 1163 1167 1179 1182 1184 1184 1184 1187 1187 1187 1184 1181 1175 1171 1171 1168 1168 1168 1170 1174 1185 1190 1192 1192 1194 1195 1195 1197 1202 1207 1208 1208 1209 1209 1209 1218 1218 1218 1210 1207 1205 1192 1175 1174 1174 1174 1175 1178 1179 1180 1180 1184 1189 1196 1210 1224 1232 1232 1232 1216 1205 1205 1205 0 0 0 0 0 2743 3043 3106 3117 3131 3143 3152 3153 3154 3154 3154 3153 3147 3139 3131 3124 3111 3104 3093 3076 3060 3045 3038 3034 3025 3019 3015 3012 2992 2983 2968 2944 2918 2898 2887 2878 2868 2843 2824 2804 2782 2755 2728 2699 2653 2631 2615 0 0 0 0 0 1417 1412 1411 1404 1404 1397 1391 1384 1380 1378 1374 1367 1364 1363 1361 1358 1351 1346 1343 1340 1339 1335 1332 1332 1330 1328 1328 1328 1328 1328 1328 1330 1332 1332 1334 1337 1342 1346 1350 1352 1363 1379 1393 1408 1418 1418 1418 1404 1394 1386 1374 1370 1362 1353 1346 1336 1335 1335 1334 1332 1330 1329 1327 1327 1326 1326 1324 1324 1323 1322 1320 1318 1317 1316 1314 1314 1312 1311 1311 1310 1310 1309 1309 1308 1307 1307 1307 1307 1306 1306 1305 1305 1304 1304 1304 1303 1302 1302 1301 1301 1299 1298 1297 1297 1295 1295 1294 1294 1293 1293 1293 1293 1293 1293 1293 1293 1293 1293 1293 1294 1294 1295 1295 1296 1296 1297 1297 1297 1298 1299 1299 1299 1299 1299 1299 1299 1299 1299 1298 1298 1298 1297 1297 1296 1296 1295 1295 1295 1294 1294 1294 1293 1293 1292 1292 1292 1292 1292 1292 1291 1291 1291 1291 1291 1291 1291 1291 1291 1291 1291 1291 1291 1291 1291 1292 1292 1293 1294 1294 1294 1293 1293 1293 1293 1292 1292 1292 1292 1291 1291 1291 1289 1288 1287 1287 1287 1286 1284 1284 1283 1282 1282 1281 1281 1281 1281 1281 1281 1281 1281 1281 1282 1283 1284 1284 1284 1284 1284 1286 1287 1288 1288 1289 1290 1290 1290 1290 1291 1291 1291 1291 1291 1291 1291 1291 1290 1290 1290 1290 1290 1289 1289 1288 1288 1287 1286 1286 1285 1285 1283 1282 1280 1279 1277 1276 1276 1275 1274 1274 1273 1273 1273 1272 1272 1272 1273 1273 1273 1274 1274 1274 1274 1275 1276 1277 1278 1279 1280 1281 1281 1281 1282 1282 1283 1283 1283 1283 1283 1284 1284 1284 1284 1284 1284 1284 1284 1283 1283 1283 1282 1282 1282 1281 1279 1278 1278 1276 1273 1272 1270 1270 1267 1266 1264 1264 1263 1262 1262 1261 1261 1261 1262 1263 1264 1265 1266 1266 1268 1268 1270 1273 1274 1275 1276 1277 1277 1278 1278 1278 1278 1278 1278 1278 1277 1277 1277 1277 1277 1276 1276 1276 1276 1276 1275 1275 1275 1274 1273 1273 1272 1272 1272 1272 1272 1272 1272 1273 1274 1275 1275 1276 1278 1279 1279 1280 1280 1280 1280 1281 1281 1282 1282 1282 1282 1282 1282 1283 1283 1283 1283 1282 1281 1280 1279 1277 1276 1274 1272 1269 1261 1249 1243 1233 1233 1233 1238 1243 1243 1243 1237 1236 1232 1230 1226 1223 1216 1205 1192 1181 1160 1143 1140 1127 1115 0 0 0 0 0 0 0 0 0 0 0 0 0 0 0 0 0 0 0 0 0
0 0 0 0 0 0 0 0 0 0 0 0 0 870 878 879 895 899 899 899 889 874 863 863 863 876 883 885 892 913 916 951 964 969 976 1003 1021 1024 1034 1072 1072 1072 1070 1067 1067 1067 1069 1074 1076 1076 1085 1089 1089 1091 1108 1126 1130 1134 1135 1145 1150 1150 1150 1146 1140 1139 1139 1138 1134 1134 1134 1140 1150 1150 1163 1163 1167 1179 1182 1184 1184 1187 1187 1187 1185 1185 1181 1175 1170 1170 1167 1167 1167 1170 1173 1180 1182 1184 1185 1189 1192 1195 1197 1200 1207 1213 1213 1213 1214 1214 1217 1217 1217 1209 1206 1200 1190 1175 1174 1174 1173 1173 1174 1175 1178 1179 1184 1189 1194 1207 1216 1225 1225 1225 1215 1202 1202 1202 0 0 0 0 0 2700 3015 3100 3111 3128 3141 3149 3150 3151 3153 3153 3153 3147 3138 3127 3115 3103 3099 3090 3076 3060 3045 3038 3034 3025 3017 3002 2994 2989 2983 2968 2936 2916 2898 2887 2880 2873 2851 2836 2818 2794 2766 2736 2705 2680 2639 2619 0 0 0 0 0 1411 1411 1405 1404 1404 1397 1391 1384 1380 1378 1375 1371 1367 1365 1362 1358 1354 1349 1345 1341 1339 1337 1334 1333 1330 1329 1328 1328 1328 1328 1328 1329 1330 1331 1332 1335 1342 1346 1349 1352 1362 1375 1388 1403 1417 1417 1417 1404 1393 1384 1374 1371 1364 1352 1343 1336 1335 1335 1334 1332 1330 1329 1328 1327 1327 1326 1325 1324 1323 1322 1320 1319 1317 1317 1316 1314 1313 1312 1311 1311 1310 1310 1310 1309 1308 1307 1307 1307 1306 1306 1306 1305 1305 1304 1304 1304 1303 1302 1302 1301 1299 1299 1298 1297 1297 1295 1295 1294 1293 1293 1293 1293 1292 1292 1292 1292 1292 1293 1293 1294 1294 1295 1295 1296 1296 1296 1297 1298 1298 1299 1299 1299 1299 1299 1299 1299 1299 1299 1299 1299 1299 1298 1298 1297 1296 1296 1295 1295 1295 1295 1294 1294 1293 1292 1292 1292 1292 1292 1291 1291 1291 1291 1291 1291 1291 1291 1291 1291 1291 1291 1291 1291 1291 1291 1291 1292 1292 1293 1293 1293 1293 1293 1293 1293 1293 1292 1292 1292 1292 1292 1291 1290 1290 1289 1288 1287 1286 1285 1285 1284 1283 1283 1282 1282 1282 1281 1281 1281 1281 1281 1281 1282 1283 1284 1284 1284 1285 1285 1286 1287 1288 1288 1289 1290 1290 1290 1290 1290 1291 1291 1291 1291 1291 1291 1291 1291 1290 1290 1290 1290 1289 1289 1288 1288 1287 1287 1286 1286 1285 1283 1282 1280 1280 1278 1277 1276 1275 1275 1274 1273 1273 1272 1272 1272 1272 1273 1273 1274 1274 1274 1274 1275 1276 1277 1278 1279 1279 1280 1281 1281 1281 1282 1282 1283 1283 1283 1283 1284 1284 1284 1284 1284 1284 1284 1284 1284 1284 1284 1284 1283 1282 1282 1281 1279 1279 1278 1276 1275 1272 1272 1271 1269 1267 1265 1264 1263 1262 1262 1261 1261 1261 1261 1262 1263 1264 1264 1266 1268 1268 1269 1272 1274 1274 1275 1277 1277 1277 1278 1278 1278 1278 1278 1278 1278 1278 1278 1278 1278 1278 1278 1277 1277 1277 1277 1277 1276 1276 1275 1275 1274 1274 1274 1274 1275 1275 1276 1276 1276 1276 1277 1278 1280 1280 1281 1281 1281 1282 1282 1282 1282 1283 1283 1283 1283 1283 1283 1283 1283 1283 1283 1282 1281 1280 1279 1277 1276 1274 1272 1269 1261 1249 1243 1226 1218 1218 1218 1228 1236 1236 1236 1235 1231 1228 1226 1223 1215 1200 1186 1173 1158 1143 1141 1127 1120 0 0 0 0 0 0 0 0 0 0 0 0 0 0 0 0 0 0 0 0 0
0 0 0 0 0 0 0 0 0 0 0 0 0 878 879 893 895 899 899 899 889 874 863 863 863 876 883 885 892 906 907 948 958 964 975 975 988 991 994 1042 1061 1061 1061 1061 1061 1067 1069 1074 1076 1076 1089 1090 1090 1092 1093 1111 1124 1126 1131 1142 1147 1147 1147 1146 1140 1139 1138 1131 1127 1127 1127 1140 1163 1163 1165 1168 1171 1179 1182 1184 1184 1187 1187 1187 1185 1185 1182 1175 1168 1168 1165 1165 1165 1165 1170 1174 1176 1176 1177 1181 1188 1195 1197 1200 1207 1219 1221 1222 1225 1222 1221 1220 1208 1198 1195 1192 1183 1175 1174 1174 1173 1173 1174 1175 1178 1179 1184 1189 1191 1194 1199 1213 1214 1214 1214 1202 1202 1202 0 0 0 0 0 2644 2975 3083 3111 3128 3140 3147 3148 3150 3151 3151 3151 3145 3129 3121 3107 3092 3091 3085 3073 3060 3053 3041 3032 3024 3009 2994 2980 2975 2973 2959 2932 2916 2898 2894 2884 2875 2860 2849 2833 2810 2774 2739 2709 2682 2662 2629 2475 1918 0 0 0 1411 1411 1404 1404 1404 1397 1391 1384 1380 1378 1376 1374 1370 1366 1362 1361 1355 1350 1348 1344 1340 1338 1335 1333 1331 1329 1329 1328 1328 1328 1328 1329 1330 1331 1331 1332 1338 1343 1347 1352 1360 1368 1382 1397 1410 1410 1410 1404 1391 1384 1375 1372 1364 1352 1337 1336 1335 1335 1334 1332 1330 1329 1328 1327 1327 1326 1325 1324 1323 1322 1320 1319 1318 1317 1316 1315 1314 1312 1312 1311 1310 1310 1310 1309 1309 1308 1308 1307 1307 1307 1306 1306 1306 1305 1304 1304 1303 1302 1302 1301 1300 1299 1298 1298 1297 1296 1295 1294 1293 1293 1293 1292 1292 1292 1292 1292 1292 1293 1293 1294 1294 1295 1295 1296 1296 1296 1297 1297 1298 1299 1299 1299 1299 1299 1299 1299 1300 1299 1299 1299 1299 1299 1298 1298 1297 1297 1297 1296 1295 1295 1295 1294 1293 1292 1292 1292 1292 1292 1291 1291 1291 1291 1291 1291 1291 1290 1291 1291 1291 1290 1290 1290 1290 1290 1290 1292 1292 1292 1292 1292 1292 1293 1293 1293 1293 1293 1293 1293 1293 1292 1291 1291 1291 1289 1289 1287 1286 1286 1286 1285 1285 1283 1283 1283 1282 1282 1281 1281 1281 1281 1281 1282 1283 1284 1285 1285 1285 1285 1286 1287 1288 1288 1289 1289 1290 1290 1290 1290 1290 1291 1291 1291 1291 1291 1291 1291 1291 1290 1290 1290 1290 1289 1288 1288 1288 1287 1286 1286 1285 1283 1282 1281 1280 1279 1278 1277 1276 1275 1274 1273 1273 1272 1272 1272 1272 1273 1273 1274 1274 1275 1275 1275 1276 1277 1278 1279 1280 1280 1281 1281 1282 1282 1282 1283 1283 1283 1284 1284 1284 1284 1284 1285 1285 1285 1285 1284 1284 1284 1284 1284 1283 1282 1281 1279 1279 1278 1277 1276 1274 1272 1271 1269 1268 1266 1264 1264 1262 1262 1261 1261 1261 1261 1261 1262 1262 1263 1265 1267 1268 1269 1271 1272 1272 1274 1276 1277 1277 1277 1278 1278 1278 1278 1278 1278 1278 1278 1278 1279 1279 1279 1279 1279 1279 1279 1279 1279 1279 1279 1279 1278 1277 1277 1277 1277 1277 1278 1278 1278 1279 1279 1281 1281 1281 1282 1282 1282 1283 1283 1284 1284 1284 1284 1284 1284 1284 1284 1283 1283 1283 1283 1282 1281 1280 1279 1277 1276 1274 1273 1270 1262 1249 1243 1226 1209 1204 1204 1204 1217 1217 1217 1212 1211 1207 1201 1201 1199 1197 1186 1173 1158 1147 1144 1128 1120 1117 0 0 0 0 0 0 0 0 0 0 0 0 0 0 0 0 0 0 0 0
0 0 0 0 0 0 0 0 0 0 0 0 0 878 879 891 891 901 901 901 890 882 881 881 881 885 892 897 905 906 907 947 957 959 974 974 974 982 988 1005 1052 1052 1054 1054 1054 1066 1068 1080 1084 1085 1089 1089 1089 1089 1089 1102 1111 1118 1127 1136 1139 1139 1139 1138 1138 1137 1129 1121 1121 1121 1127 1147 1163 1163 1165 1168 1171 1179 1182 1184 1184 1184 1184 1184 1182 1182 1182 1174 1168 1167 1164 1164 1163 1164 1165 1165 1170 1170 1171 1172 1180 1186 1194 1200 1209 1221 1223 1223 1224 1223 1222 1212 1208 1194 1182 1171 1168 1168 1168 1176 1176 1176 1180 1180 1180 1182 1189 1189 1189 1189 1189 1203 1210 1210 1210 1202 1202 1202 0 0 0 0 0 2506 2921 3067 3111 3128 3140 3145 3147 3150 3150 3150 3146 3133 3127 3116 3103 3092 3079 3072 3070 3060 3053 3041 3032 3020 3003 2990 2978 2966 2960 2949 2931 2912 2906 2900 2891 2879 2862 2849 2833 2810 2775 2746 2717 2690 2662 2634 2503 1929 0 0 0 1412 1412 1400 1399 1399 1394 1391 1383 1380 1378 1376 1374 1371 1367 1366 1363 1357 1354 1350 1348 1343 1340 1336 1334 1331 1330 1329 1329 1328 1328 1328 1328 1329 1330 1331 1331 1333 1338 1342 1348 1357 1363 1370 1387 1399 1407 1407 1407 1391 1384 1380 1372 1364 1351 1337 1336 1336 1335 1334 1332 1330 1329 1328 1327 1327 1326 1325 1324 1323 1322 1320 1319 1318 1317 1316 1315 1314 1313 1312 1311 1311 1311 1310 1310 1309 1309 1308 1308 1307 1307 1307 1307 1306 1306 1305 1304 1303 1303 1302 1302 1301 1299 1299 1298 1297 1296 1295 1295 1293 1293 1292 1292 1292 1292 1292 1292 1292 1292 1293 1294 1294 1295 1295 1296 1296 1296 1296 1297 1298 1298 1299 1299 1299 1299 1300 1300 1300 1300 1300 1300 1300 1299 1299 1299 1298 1298 1298 1296 1296 1295 1295 1295 1294 1293 1292 1292 1292 1292 1291 1291 1291 1290 1290 1290 1290 1290 1290 1290 1290 1290 1290 1289 1289 1289 1290 1290 1291 1291 1292 1292 1292 1293 1293 1293 1293 1293 1293 1293 1293 1293 1292 1292 1291 1290 1289 1287 1287 1287 1286 1285 1285 1284 1284 1283 1283 1282 1282 1281 1281 1281 1281 1282 1283 1284 1285 1285 1285 1286 1286 1287 1288 1288 1289 1289 1290 1290 1290 1290 1290 1291 1291 1291 1291 1291 1291 1291 1291 1291 1290 1290 1290 1290 1289 1288 1288 1287 1286 1286 1285 1283 1282 1281 1280 1279 1278 1277 1277 1276 1275 1274 1273 1272 1272 1272 1272 1273 1273 1274 1274 1275 1275 1276 1276 1277 1278 1279 1280 1280 1281 1282 1282 1282 1283 1283 1283 1283 1284 1284 1284 1284 1284 1285 1285 1285 1285 1285 1285 1285 1284 1284 1283 1282 1281 1280 1279 1278 1278 1276 1275 1273 1272 1270 1269 1267 1266 1264 1263 1262 1261 1261 1261 1261 1261 1261 1262 1262 1264 1265 1265 1268 1269 1269 1271 1273 1276 1276 1276 1277 1277 1278 1278 1278 1278 1278 1280 1280 1280 1280 1280 1280 1280 1281 1281 1281 1281 1281 1281 1281 1281 1280 1280 1280 1280 1280 1280 1280 1281 1281 1281 1282 1283 1283 1283 1283 1283 1284 1284 1284 1284 1284 1284 1284 1284 1284 1284 1284 1284 1284 1284 1283 1282 1281 1281 1279 1278 1277 1275 1275 1270 1264 1251 1243 1226 1209 1192 1181 1175 1175 1175 1178 1187 1201 1201 1201 1201 1199 1197 1186 1173 1158 1152 1149 1132 1123 1120 0 0 0 0 0 0 0 0 0 0 0 0 0 0 0 0 0 0 0 0
0 0 0 0 0 0 0 0 0 0 0 0 0 888 893 897 897 901 901 901 890 890 888 888 889 893 901 905 906 906 907 926 940 952 967 967 972 981 981 1005 1029 1040 1041 1043 1052 1066 1072 1087 1088 1089 1089 1087 1087 1087 1087 1099 1107 1117 1122 1128 1136 1138 1138 1138 1138 1137 1129 1121 1121 1121 1125 1147 1163 1163 1165 1168 1171 1171 1175 1175 1175 1172 1172 1172 1173 1173 1173 1172 1157 1156 1156 1157 1157 1157 1157 1157 1157 1157 1159 1162 1169 1179 1193 1205 1218 1221 1223 1223 1223 1222 1217 1209 1202 1191 1171 1156 1156 1156 1170 1183 1186 1187 1188 1190 1195 1195 1195 1191 1189 1189 1189 1193 1196 1196 1196 1188 1188 1188 0 0 0 0 0 0 2780 3043 3119 3130 3140 3142 3143 3143 3143 3141 3135 3126 3124 3116 3103 3090 3071 3066 3061 3057 3053 3041 3025 3007 2995 2989 2977 2963 2952 2937 2928 2912 2906 2900 2891 2879 2862 2849 2833 2810 2776 2752 2721 2691 2663 2642 2539 1993 0 0 0 1413 1412 1400 1393 1393 1391 1390 1383 1380 1378 1376 1374 1371 1369 1368 1364 1360 1357 1355 1352 1347 1343 1339 1334 1331 1331 1330 1329 1329 1328 1328 1328 1329 1330 1331 1331 1332 1335 1338 1344 1355 1360 1367 1374 1389 1398 1398 1398 1391 1384 1382 1372 1362 1348 1337 1337 1336 1335 1335 1332 1330 1329 1327 1327 1326 1326 1325 1324 1323 1321 1320 1319 1318 1317 1316 1315 1314 1313 1313 1312 1311 1311 1311 1310 1310 1309 1309 1308 1308 1307 1307 1307 1306 1306 1305 1305 1304 1303 1303 1302 1301 1299 1299 1298 1297 1296 1295 1295 1294 1293 1292 1292 1292 1291 1291 1291 1291 1292 1292 1292 1292 1293 1295 1295 1296 1296 1296 1297 1298 1298 1298 1299 1299 1299 1300 1300 1300 1300 1300 1300 1300 1300 1300 1299 1299 1299 1298 1298 1298 1296 1296 1295 1295 1294 1293 1292 1292 1292 1291 1291 1290 1290 1290 1290 1290 1290 1290 1290 1289 1289 1289 1289 1289 1289 1289 1290 1290 1291 1291 1291 1291 1291 1293 1293 1293 1293 1293 1293 1293 1293 1292 1292 1292 1291 1291 1290 1289 1288 1287 1286 1286 1285 1285 1284 1284 1284 1283 1282 1282 1282 1282 1282 1283 1284 1285 1285 1285 1286 1286 1287 1287 1288 1289 1289 1289 1289 1290 1290 1290 1290 1291 1291 1291 1291 1290 1290 1290 1291 1290 1290 1290 1290 1289 1289 1288 1287 1286 1286 1286 1283 1282 1282 1280 1279 1278 1278 1277 1277 1276 1275 1274 1273 1272 1272 1273 1273 1273 1274 1274 1275 1275 1276 1277 1277 1278 1279 1280 1281 1281 1282 1282 1283 1283 1283 1283 1283 1284 1284 1284 1284 1285 1285 1285 1285 1285 1285 1285 1285 1284 1284 1283 1283 1282 1280 1279 1278 1278 1276 1275 1274 1272 1271 1269 1269 1267 1266 1264 1262 1261 1260 1260 1260 1260 1261 1262 1262 1263 1263 1264 1266 1266 1268 1270 1273 1275 1275 1275 1276 1277 1278 1278 1279 1279 1279 1280 1280 1280 1281 1281 1281 1281 1281 1281 1281 1281 1282 1282 1282 1283 1283 1283 1282 1282 1282 1282 1282 1282 1282 1283 1284 1284 1284 1284 1284 1285 1285 1285 1285 1285 1285 1285 1285 1285 1284 1284 1284 1284 1284 1284 1283 1282 1281 1281 1279 1278 1278 1277 1275 1271 1268 1252 1250 1235 1209 1192 1178 1161 1161 1161 1164 1183 1201 1201 1201 1201 1199 1197 1186 1176 1159 1156 1150 1134 1123 1118 0 0 0 0 0 0 0 0 0 0 0 0 0 0 0 0 0 0 0 0
0 0 0 0 0 0 0 0 0 0 0 0 0 880 889 897 897 901 901 901 890 890 890 900 900 900 906 910 913 914 914 926 936 940 948 965 968 972 972 1005 1029 1030 1037 1043 1055 1070 1078 1089 1089 1089 1075 1064 1064 1064 1077 1096 1106 1116 1121 1122 1131 1136 1137 1137 1137 1136 1129 1121 1121 1121 1125 1148 1164 1164 1166 1167 1167 1167 1167 1166 1160 1159 1159 1159 1164 1164 1164 1156 1150 1150 1150 1152 1152 1152 1153 1153 1153 1154 1154 1159 1166 1178 1191 1205 1218 1221 1223 1223 1223 1222 1210 1206 1199 1185 1162 1156 1156 1156 1171 1184 1186 1187 1188 1190 1195 1195 1195 1191 1186 1181 1181 1181 1187 1187 1187 1178 1178 1178 1211 0 0 0 0 0 2754 3038 3119 3130 3132 3134 3134 3134 3132 3129 3126 3123 3121 3116 3103 3090 3071 3057 3045 3042 3040 3027 3012 3000 2994 2988 2977 2960 2946 2928 2916 2912 2906 2901 2891 2879 2862 2837 2816 2795 2776 2755 2729 2695 2671 2646 2545 2024 0 0 0 1417 1416 1412 1394 1390 1388 1388 1381 1380 1378 1376 1374 1371 1370 1368 1366 1364 1358 1355 1353 1350 1343 1339 1335 1332 1331 1330 1329 1329 1328 1328 1328 1328 1328 1330 1331 1332 1333 1336 1341 1346 1353 1362 1373 1383 1396 1396 1396 1391 1384 1382 1369 1359 1348 1336 1336 1336 1335 1335 1332 1330 1328 1327 1327 1326 1325 1325 1324 1323 1321 1320 1319 1318 1317 1316 1315 1314 1313 1313 1312 1312 1312 1311 1311 1310 1310 1309 1309 1308 1308 1307 1307 1307 1306 1305 1305 1304 1303 1303 1302 1301 1300 1299 1299 1298 1297 1295 1295 1294 1294 1292 1292 1292 1291 1291 1291 1290 1291 1291 1291 1292 1292 1293 1294 1295 1295 1296 1297 1297 1297 1298 1299 1299 1299 1299 1299 1300 1300 1300 1300 1300 1300 1300 1299 1299 1299 1299 1298 1298 1297 1296 1296 1295 1294 1293 1292 1292 1292 1291 1291 1290 1290 1290 1290 1290 1290 1289 1289 1288 1288 1288 1288 1288 1288 1288 1289 1289 1289 1290 1290 1290 1290 1291 1293 1293 1293 1293 1293 1293 1293 1293 1292 1292 1292 1291 1290 1290 1289 1289 1287 1287 1287 1287 1286 1285 1284 1284 1283 1283 1283 1283 1283 1283 1284 1285 1285 1285 1286 1286 1287 1287 1287 1288 1288 1288 1289 1289 1289 1289 1290 1290 1290 1290 1290 1290 1290 1290 1290 1290 1290 1290 1290 1289 1289 1289 1287 1287 1286 1286 1284 1283 1282 1282 1281 1279 1278 1277 1277 1276 1276 1274 1273 1273 1273 1273 1273 1273 1274 1274 1275 1275 1276 1278 1278 1278 1279 1280 1280 1281 1282 1282 1283 1283 1283 1283 1283 1284 1284 1284 1284 1285 1285 1285 1285 1285 1285 1285 1285 1284 1284 1283 1283 1282 1280 1279 1278 1278 1276 1275 1274 1272 1271 1269 1269 1267 1266 1264 1263 1261 1260 1260 1260 1260 1260 1260 1260 1261 1262 1264 1265 1266 1268 1270 1273 1274 1275 1275 1276 1277 1278 1278 1279 1279 1280 1281 1281 1281 1281 1281 1282 1282 1282 1283 1283 1283 1283 1283 1283 1284 1284 1284 1284 1284 1284 1284 1284 1284 1284 1285 1285 1285 1286 1286 1286 1286 1286 1286 1286 1286 1286 1286 1286 1286 1286 1285 1284 1284 1284 1284 1283 1282 1281 1280 1279 1278 1278 1277 1275 1271 1271 1261 1250 1235 1209 1199 1178 1160 1150 1150 1150 1182 1192 1205 1205 1205 1205 1204 1197 1176 1159 1156 1150 1134 1123 1117 0 0 0 0 0 0 0 0 0 0 0 0 0 0 0 0 0 0 0 0
0 0 0 0 0 0 0 0 0 0 0 0 0 880 889 897 897 897 897 881 881 881 888 904 914 921 921 921 914 914 914 926 933 936 940 945 962 966 975 1007 1029 1030 1037 1043 1055 1075 1092 1092 1092 1091 1075 1062 1062 1062 1075 1093 1105 1116 1121 1122 1126 1134 1137 1137 1137 1136 1130 1123 1123 1123 1125 1148 1164 1164 1166 1167 1167 1166 1166 1157 1147 1146 1146 1147 1147 1146 1143 1143 1143 1150 1150 1152 1152 1152 1153 1153 1153 1154 1154 1159 1166 1175 1190 1205 1218 1218 1218 1216 1202 1202 1201 1201 1192 1182 1162 1156 1156 1156 1173 1184 1186 1187 1188 1190 1195 1195 1195 1190 1181 1179 1177 1175 1175 1175 1175 1175 1175 1178 1204 0 0 0 0 0 2692 3016 3119 3130 3132 3132 3132 3131 3126 3123 3122 3120 3119 3116 3103 3092 3071 3057 3045 3031 3018 3011 3001 2995 2994 2986 2973 2959 2937 2923 2916 2911 2906 2901 2892 2879 2855 2825 2800 2785 2775 2755 2734 2703 2674 2642 2545 2132 0 0 0 1420 1418 1412 1395 1389 1388 1387 1381 1380 1378 1376 1374 1373 1370 1369 1366 1364 1361 1358 1354 1351 1347 1341 1337 1335 1333 1330 1330 1329 1328 1328 1328 1328 1328 1329 1330 1331 1333 1335 1336 1341 1348 1357 1370 1378 1387 1391 1391 1391 1384 1380 1368 1357 1348 1337 1337 1336 1335 1335 1332 1330 1328 1327 1327 1326 1325 1324 1324 1323 1321 1320 1319 1318 1317 1316 1315 1314 1314 1313 1312 1312 1312 1312 1311 1310 1310 1310 1310 1309 1308 1308 1307 1307 1306 1305 1305 1305 1304 1303 1302 1301 1300 1299 1299 1298 1297 1296 1295 1294 1294 1292 1292 1292 1291 1290 1290 1290 1290 1290 1290 1291 1292 1292 1293 1295 1295 1296 1296 1297 1297 1297 1298 1299 1299 1299 1299 1300 1300 1300 1300 1300 1300 1300 1300 1300 1300 1300 1299 1299 1298 1298 1297 1296 1295 1294 1293 1292 1292 1291 1291 1291 1290 1289 1289 1289 1289 1289 1289 1288 1288 1288 1288 1288 1288 1288 1288 1288 1289 1289 1289 1289 1290 1291 1293 1293 1293 1293 1293 1293 1293 1293 1293 1293 1293 1292 1292 1291 1291 1289 1289 1288 1288 1287 1286 1286 1285 1284 1284 1283 1283 1283 1283 1283 1284 1284 1284 1284 1285 1285 1286 1287 1287 1288 1288 1288 1288 1288 1289 1289 1289 1290 1290 1290 1290 1290 1290 1290 1290 1291 1291 1290 1290 1289 1289 1289 1288 1287 1287 1286 1285 1284 1282 1282 1281 1279 1279 1279 1278 1277 1276 1274 1274 1274 1273 1273 1273 1273 1274 1274 1275 1276 1277 1278 1278 1278 1279 1280 1281 1281 1282 1282 1283 1283 1283 1284 1284 1284 1284 1285 1285 1285 1285 1285 1285 1285 1285 1285 1285 1284 1284 1283 1283 1282 1280 1279 1278 1278 1276 1275 1274 1272 1271 1269 1269 1267 1266 1264 1263 1261 1260 1260 1260 1260 1260 1260 1260 1260 1261 1262 1264 1266 1268 1270 1273 1273 1275 1275 1276 1277 1278 1278 1279 1279 1280 1281 1281 1282 1282 1282 1282 1283 1283 1283 1284 1283 1284 1284 1285 1285 1285 1285 1285 1285 1286 1286 1286 1286 1286 1286 1287 1287 1287 1287 1287 1287 1287 1287 1287 1287 1287 1287 1287 1287 1286 1286 1285 1285 1284 1283 1283 1281 1280 1279 1279 1279 1278 1277 1274 1272 1271 1270 1253 1235 1209 1199 1181 1160 1148 1148 1148 1166 1186 1201 1204 1205 1205 1204 1197 1176 1159 1156 1149 1134 1117 1102 0 0 0 0 0 0 0 0 0 0 0 0 0 0 0 0 0 0 0 0
0 0 0 0 0 0 0 0 0 0 0 0 0 880 889 894 894 894 886 879 879 879 889 910 925 925 925 924 924 924 935 936 936 937 945 945 962 975 995 1033 1033 1037 1051 1051 1059 1075 1093 1093 1093 1092 1075 1062 1062 1062 1075 1093 1105 1116 1121 1122 1126 1132 1137 1137 1137 1136 1130 1130 1127 1127 1127 1148 1164 1164 1167 1169 1167 1166 1166 1156 1137 1135 1134 1133 1132 1129 1129 1129 1143 1150 1150 1152 1152 1152 1153 1153 1153 1154 1154 1160 1166 1175 1183 1199 1210 1210 1210 1202 1190 1190 1190 1188 1184 1182 1162 1162 1162 1169 1173 1184 1184 1184 1182 1182 1182 1182 1182 1172 1172 1172 1170 1170 1170 1170 1170 1170 1170 1178 1204 1237 0 0 0 0 2614 2925 3094 3115 3124 3131 3131 3131 3122 3122 3120 3118 3116 3116 3108 3093 3078 3057 3045 3031 3017 3001 2993 2990 2989 2986 2972 2958 2936 2917 2914 2910 2906 2903 2893 2872 2849 2821 2791 2773 2769 2755 2734 2703 2674 2634 2545 2132 0 0 0 1423 1418 1412 1395 1389 1387 1387 1381 1379 1378 1376 1375 1373 1372 1369 1367 1365 1362 1360 1357 1351 1348 1345 1340 1336 1333 1331 1330 1330 1328 1328 1328 1328 1328 1328 1329 1331 1332 1333 1335 1340 1345 1349 1358 1365 1379 1388 1388 1388 1382 1378 1366 1354 1348 1341 1337 1336 1336 1335 1332 1330 1328 1327 1327 1326 1324 1324 1323 1322 1321 1319 1318 1318 1317 1316 1315 1314 1314 1313 1312 1312 1312 1312 1311 1311 1311 1310 1310 1309 1309 1309 1308 1308 1307 1306 1305 1305 1304 1303 1302 1301 1300 1299 1299 1298 1298 1296 1296 1294 1294 1292 1292 1291 1291 1290 1290 1290 1290 1290 1290 1291 1292 1292 1293 1294 1294 1295 1295 1296 1296 1297 1298 1298 1298 1299 1299 1300 1300 1300 1300 1301 1301 1301 1301 1301 1300 1300 1300 1299 1298 1298 1298 1297 1296 1295 1294 1293 1293 1292 1292 1291 1290 1289 1289 1289 1289 1288 1288 1287 1287 1287 1287 1287 1287 1287 1287 1287 1287 1287 1288 1289 1290 1291 1292 1293 1293 1293 1293 1294 1294 1295 1295 1294 1293 1293 1292 1292 1292 1291 1290 1290 1289 1288 1286 1286 1285 1285 1284 1284 1283 1283 1283 1283 1283 1283 1284 1284 1285 1285 1285 1285 1286 1287 1287 1287 1288 1288 1288 1288 1289 1289 1289 1289 1289 1289 1289 1290 1290 1291 1291 1290 1290 1290 1289 1289 1288 1288 1287 1287 1286 1285 1283 1282 1281 1280 1280 1279 1278 1278 1277 1276 1275 1275 1274 1274 1274 1274 1274 1275 1275 1276 1278 1278 1278 1278 1279 1280 1281 1281 1282 1282 1282 1283 1283 1284 1284 1284 1284 1285 1285 1285 1285 1285 1285 1285 1285 1285 1285 1285 1284 1284 1283 1282 1281 1279 1278 1278 1277 1275 1274 1272 1271 1269 1268 1267 1266 1264 1263 1261 1260 1260 1260 1260 1260 1260 1260 1260 1261 1262 1263 1266 1268 1270 1272 1273 1274 1275 1276 1277 1278 1278 1279 1279 1281 1281 1281 1282 1282 1283 1283 1284 1284 1285 1285 1285 1285 1285 1285 1286 1286 1286 1286 1286 1287 1287 1287 1287 1287 1288 1288 1288 1288 1288 1288 1288 1288 1288 1288 1288 1287 1287 1287 1287 1286 1286 1286 1285 1284 1283 1282 1280 1279 1279 1279 1279 1277 1275 1273 1272 1271 1270 1253 1234 1206 1199 1185 1160 1148 1147 1147 1148 1158 1190 1204 1205 1205 1204 1197 1171 1159 1137 1135 1134 1116 0 0 0 0 0 0 0 0 0 0 0 0 0 0 0 0 0 0 0 0 0
0 0 0 0 0 0 0 0 0 0 0 0 0 889 893 893 893 893 879 879 879 879 889 919 931 931 931 929 929 929 957 957 957 945 945 945 962 986 1013 1046 1063 1068 1072 1076 1078 1096 1099 1099 1099 1091 1078 1062 1062 1062 1075 1093 1106 1116 1122 1126 1129 1132 1132 1132 1132 1131 1131 1131 1131 1133 1142 1155 1169 1176 1178 1178 1176 1173 1164 1155 1137 1126 1125 1125 1125 1126 1126 1126 1141 1153 1155 1155 1157 1158 1158 1158 1159 1162 1162 1168 1168 1169 1176 1186 1196 1202 1202 1202 1190 1190 1189 1188 1186 1184 1182 1179 1174 1174 1174 1175 1175 1175 1175 1173 1173 1168 1167 1165 1165 1165 1170 1170 1170 1164 1164 1164 1170 1180 1204 1231 0 0 0 0 0 2890 3067 3099 3117 3128 3128 3128 3119 3117 3117 3116 3115 3115 3108 3097 3084 3073 3058 3030 3016 2999 2986 2978 2977 2975 2969 2953 2930 2917 2912 2909 2906 2903 2890 2871 2848 2816 2787 2765 2751 2734 2733 2703 2674 2626 2542 2132 0 0 0 1428 1418 1402 1400 1389 1387 1382 1381 1379 1378 1376 1375 1373 1372 1370 1367 1366 1363 1361 1360 1354 1349 1345 1341 1337 1333 1331 1330 1330 1328 1327 1327 1327 1327 1327 1328 1329 1329 1332 1334 1339 1342 1345 1349 1359 1370 1380 1380 1380 1379 1371 1364 1354 1348 1342 1336 1336 1336 1335 1332 1330 1329 1327 1327 1326 1324 1324 1322 1322 1320 1319 1318 1317 1316 1316 1315 1314 1314 1313 1312 1312 1312 1312 1312 1311 1311 1311 1310 1310 1310 1309 1308 1308 1307 1306 1306 1305 1304 1303 1302 1301 1300 1299 1299 1299 1298 1297 1296 1294 1294 1292 1292 1291 1291 1289 1289 1289 1289 1289 1290 1291 1291 1292 1293 1294 1294 1295 1295 1296 1296 1297 1298 1298 1298 1299 1299 1300 1300 1300 1301 1301 1301 1301 1301 1301 1300 1300 1300 1299 1299 1298 1298 1297 1297 1295 1295 1294 1294 1293 1292 1291 1290 1289 1289 1289 1288 1287 1287 1286 1286 1286 1285 1286 1286 1286 1286 1286 1286 1287 1287 1288 1288 1289 1291 1292 1292 1293 1294 1295 1295 1295 1295 1295 1295 1294 1294 1294 1293 1292 1291 1290 1289 1289 1288 1286 1285 1285 1284 1284 1284 1283 1283 1283 1283 1283 1283 1283 1284 1284 1284 1285 1285 1285 1286 1286 1287 1287 1287 1287 1288 1288 1288 1288 1288 1289 1289 1290 1291 1291 1291 1291 1290 1290 1289 1289 1289 1288 1288 1288 1286 1285 1284 1283 1283 1282 1281 1280 1279 1279 1277 1276 1275 1275 1275 1275 1275 1275 1275 1275 1276 1277 1278 1278 1278 1278 1279 1280 1281 1281 1281 1282 1282 1283 1283 1284 1284 1284 1284 1284 1284 1285 1285 1285 1285 1285 1285 1285 1285 1284 1284 1284 1283 1282 1281 1279 1279 1278 1277 1275 1274 1272 1271 1269 1268 1267 1266 1264 1263 1261 1261 1260 1260 1260 1260 1260 1260 1260 1261 1262 1263 1266 1268 1270 1272 1273 1274 1275 1276 1277 1278 1278 1279 1280 1281 1281 1282 1282 1283 1283 1284 1285 1285 1285 1285 1286 1286 1286 1286 1286 1286 1286 1287 1287 1287 1287 1288 1288 1289 1289 1290 1290 1290 1289 1289 1289 1289 1289 1288 1288 1288 1288 1287 1287 1287 1286 1286 1285 1284 1283 1282 1279 1278 1278 1277 1277 1277 1275 1272 1272 1271 1261 1249 1233 1202 1199 1193 1185 1180 1162 1148 1148 1148 1156 1160 1179 1179 1179 1170 1157 1144 1135 1126 1123 0 0 0 0 0 0 0 0 0 0 0 0 0 0 0 0 0 0 0 0 0 0
0 0 0 0 0 0 0 0 0 0 0 0 0 884 884 884 881 880 878 878 878 902 928 934 937 937 934 939 942 950 958 958 958 958 958 961 989 1008 1027 1048 1064 1073 1074 1083 1098 1099 1101 1101 1099 1089 1079 1079 1079 1079 1087 1096 1106 1116 1126 1133 1133 1133 1133 1128 1128 1128 1129 1131 1136 1140 1150 1160 1172 1182 1191 1191 1191 1177 1167 1155 1137 1123 1123 1123 1122 1123 1124 1125 1141 1153 1155 1156 1157 1159 1159 1164 1166 1167 1171 1171 1171 1168 1168 1168 1180 1185 1188 1190 1190 1188 1188 1186 1186 1182 1182 1179 1174 1174 1170 1173 1173 1173 1170 1170 1170 1161 1160 1160 1161 1164 1170 1170 1170 1164 1164 1164 1168 1180 1204 1230 0 0 0 0 0 2837 3046 3088 3108 3127 3127 3127 3115 3113 3108 3108 3108 3108 3108 3097 3084 3073 3058 3030 3012 2994 2974 2960 2959 2957 2955 2938 2922 2911 2909 2907 2906 2903 2889 2866 2833 2786 2742 2706 2672 2635 2612 2549 0 0 0 0 0 0 0 1428 1420 1416 1400 1389 1388 1382 1381 1377 1377 1376 1375 1373 1372 1370 1369 1366 1364 1361 1360 1357 1350 1346 1342 1338 1333 1332 1330 1330 1329 1328 1327 1327 1327 1327 1327 1328 1329 1329 1333 1335 1339 1340 1341 1350 1360 1368 1369 1370 1370 1370 1359 1353 1348 1343 1339 1336 1336 1334 1332 1331 1329 1327 1327 1326 1324 1324 1322 1321 1320 1319 1317 1317 1316 1315 1315 1314 1314 1313 1312 1312 1312 1312 1312 1311 1311 1311 1310 1310 1310 1310 1309 1308 1308 1307 1306 1305 1305 1304 1303 1301 1300 1300 1299 1299 1298 1297 1296 1294 1294 1292 1291 1290 1290 1289 1289 1289 1289 1289 1290 1291 1291 1292 1292 1294 1294 1295 1295 1295 1296 1297 1297 1298 1298 1299 1299 1300 1300 1301 1301 1301 1301 1301 1301 1301 1301 1301 1300 1300 1300 1299 1298 1298 1297 1296 1295 1295 1294 1293 1292 1291 1290 1289 1289 1288 1288 1287 1287 1286 1285 1285 1285 1285 1285 1284 1285 1285 1285 1285 1286 1287 1288 1289 1291 1292 1292 1293 1294 1295 1295 1295 1295 1295 1295 1295 1295 1294 1294 1292 1291 1291 1289 1289 1288 1287 1287 1286 1285 1285 1284 1284 1284 1283 1283 1283 1283 1283 1284 1284 1284 1284 1284 1284 1284 1286 1286 1286 1286 1286 1286 1287 1287 1288 1288 1289 1289 1290 1291 1291 1291 1291 1290 1290 1289 1289 1289 1289 1289 1288 1287 1285 1284 1284 1283 1282 1282 1281 1281 1280 1279 1278 1277 1276 1276 1276 1276 1276 1276 1276 1277 1277 1278 1278 1278 1278 1279 1280 1280 1281 1281 1281 1282 1282 1283 1283 1284 1284 1284 1284 1284 1284 1284 1285 1284 1285 1285 1285 1284 1284 1284 1284 1283 1282 1281 1280 1279 1278 1277 1275 1274 1272 1271 1269 1268 1268 1267 1265 1265 1261 1261 1260 1260 1260 1260 1260 1260 1260 1261 1262 1263 1266 1269 1270 1271 1273 1274 1275 1277 1277 1278 1279 1280 1280 1281 1281 1282 1283 1284 1284 1285 1285 1285 1285 1286 1287 1287 1287 1287 1288 1288 1288 1288 1288 1288 1289 1289 1289 1290 1290 1290 1290 1290 1290 1289 1289 1289 1289 1288 1288 1288 1288 1287 1287 1287 1287 1286 1285 1284 1283 1282 1278 1278 1278 1277 1277 1277 1275 1268 1266 1265 1260 1246 1216 1202 1200 1199 1199 1199 1178 1154 1154 1154 1147 1147 1147 1147 1147 1141 1141 1138 1131 1119 0 0 0 0 0 0 0 0 0 0 0 0 0 0 0 0 0 0 0 0 0 0 0
0 0 0 0 0 0 0 0 0 0 0 0 0 867 867 863 863 863 870 873 878 902 928 934 937 937 942 943 947 955 963 963 964 965 965 980 999 1015 1029 1053 1070 1076 1082 1089 1098 1099 1099 1099 1099 1085 1085 1085 1085 1094 1101 1105 1114 1116 1129 1133 1136 1136 1133 1128 1128 1128 1129 1135 1138 1144 1150 1160 1172 1182 1191 1191 1191 1178 1168 1157 1139 1123 1122 1121 1121 1121 1121 1125 1132 1153 1155 1156 1159 1159 1164 1169 1170 1172 1173 1172 1172 1164 1161 1161 1161 1174 1179 1185 1188 1188 1188 1182 1182 1182 1181 1179 1179 1174 1171 1171 1171 1169 1168 1164 1156 1156 1155 1155 1156 1162 1172 1173 1173 1173 1168 1168 1168 1180 1204 1230 0 0 0 0 0 2788 3021 3083 3104 3123 3123 3123 3111 3110 3105 3105 3105 3105 3105 3097 3084 3073 3058 3030 2995 2968 2945 2923 2897 2861 2843 2839 2814 2769 2718 2690 2642 2618 2617 2617 2618 2629 2629 2629 2613 2605 2593 2549 0 0 0 0 0 0 0 1428 1420 1412 1400 1389 1388 1382 1381 1377 1377 1376 1375 1373 1372 1370 1369 1367 1366 1363 1361 1358 1352 1347 1343 1340 1336 1332 1331 1330 1329 1328 1327 1326 1326 1326 1326 1326 1326 1327 1330 1333 1335 1337 1340 1343 1348 1359 1359 1361 1361 1361 1358 1352 1347 1343 1339 1336 1336 1334 1332 1331 1329 1328 1327 1326 1324 1323 1321 1320 1320 1318 1317 1316 1316 1315 1314 1314 1314 1312 1312 1312 1312 1312 1312 1311 1311 1311 1311 1310 1310 1310 1310 1309 1308 1307 1306 1306 1305 1304 1303 1302 1300 1300 1300 1299 1298 1298 1296 1295 1294 1292 1291 1290 1290 1288 1287 1287 1287 1289 1289 1290 1291 1292 1292 1294 1295 1295 1295 1295 1296 1297 1297 1298 1299 1299 1299 1300 1301 1301 1301 1301 1301 1301 1301 1301 1301 1301 1301 1300 1300 1299 1299 1299 1298 1296 1296 1295 1294 1293 1292 1291 1290 1289 1289 1288 1288 1287 1286 1286 1285 1285 1284 1284 1284 1284 1284 1284 1284 1285 1286 1287 1287 1289 1290 1292 1292 1293 1295 1295 1296 1296 1296 1296 1295 1295 1295 1295 1294 1293 1293 1291 1291 1289 1289 1288 1287 1287 1286 1286 1286 1285 1284 1283 1283 1283 1283 1283 1284 1284 1284 1284 1284 1284 1284 1284 1284 1284 1284 1285 1285 1286 1287 1287 1288 1289 1289 1290 1290 1291 1291 1291 1291 1291 1290 1290 1289 1289 1289 1288 1287 1287 1286 1285 1284 1283 1283 1283 1282 1281 1281 1280 1280 1279 1278 1278 1277 1277 1277 1277 1277 1277 1278 1278 1278 1278 1279 1280 1280 1280 1281 1281 1282 1282 1282 1283 1283 1284 1284 1284 1284 1284 1284 1284 1284 1285 1285 1285 1284 1284 1284 1284 1283 1282 1281 1280 1279 1278 1276 1275 1274 1272 1271 1270 1268 1268 1267 1266 1265 1262 1261 1260 1259 1259 1259 1260 1260 1261 1262 1263 1264 1267 1268 1270 1271 1273 1274 1275 1277 1277 1278 1279 1280 1281 1281 1282 1282 1283 1284 1285 1285 1286 1286 1286 1287 1287 1287 1288 1288 1288 1288 1289 1289 1289 1289 1290 1290 1290 1290 1290 1290 1290 1290 1290 1289 1289 1289 1289 1289 1289 1288 1288 1288 1287 1287 1287 1286 1285 1284 1283 1280 1277 1276 1275 1275 1275 1273 1265 1251 1248 1246 1246 1226 1216 1204 1204 1202 1202 1199 1178 1159 1159 1156 1147 1147 1147 1132 1123 1123 1120 1120 1115 1112 0 0 0 0 0 0 0 0 0 0 0 0 0 0 0 0 0 0 0 0 0 0 0
0 0 0 0 0 0 0 0 0 0 0 0 0 863 863 863 844 844 844 873 878 902 928 932 937 939 948 953 964 965 965 965 965 967 967 985 1008 1022 1031 1053 1072 1079 1082 1089 1098 1099 1099 1099 1091 1082 1082 1082 1095 1105 1116 1116 1117 1117 1129 1144 1144 1144 1137 1128 1128 1128 1129 1135 1140 1144 1151 1161 1172 1182 1191 1191 1191 1185 1182 1180 1154 1140 1122 1121 1121 1121 1121 1125 1132 1145 1149 1154 1158 1158 1164 1177 1177 1177 1177 1176 1174 1162 1161 1161 1161 1174 1179 1183 1187 1187 1187 1182 1173 1171 1166 1166 1166 1171 1171 1171 1159 1155 1151 1151 1151 1153 1153 1154 1154 1162 1167 1177 1177 1177 1174 1174 1174 1179 1195 1215 0 0 0 0 0 2707 2971 3062 3079 3082 3082 3082 3038 3012 3009 2998 2978 2942 2897 2857 2827 2787 2736 2718 2718 2718 2738 2766 2771 2780 2782 2782 2782 2769 2718 2690 2642 2618 2617 2617 2618 2629 2629 2629 2613 2605 2593 2549 0 0 0 0 0 0 0 1436 1420 1410 1400 1391 1388 1384 1381 1377 1377 1376 1375 1373 1372 1370 1370 1369 1367 1365 1362 1359 1353 1348 1345 1344 1340 1335 1333 1332 1329 1328 1327 1326 1325 1325 1325 1325 1326 1327 1328 1330 1333 1337 1337 1338 1341 1348 1350 1351 1351 1350 1350 1349 1346 1343 1339 1336 1335 1333 1332 1331 1330 1328 1327 1325 1324 1323 1321 1320 1318 1317 1317 1315 1315 1315 1314 1313 1313 1312 1312 1311 1311 1311 1311 1311 1311 1311 1311 1311 1310 1310 1310 1309 1308 1308 1307 1307 1306 1305 1303 1302 1301 1300 1300 1299 1298 1298 1296 1295 1294 1292 1291 1290 1290 1288 1287 1287 1287 1287 1289 1289 1291 1291 1292 1294 1295 1295 1295 1295 1296 1297 1297 1298 1299 1299 1300 1300 1301 1301 1301 1301 1301 1301 1302 1302 1302 1301 1301 1301 1300 1300 1299 1299 1298 1297 1296 1295 1294 1293 1292 1291 1290 1289 1289 1288 1288 1286 1286 1286 1284 1284 1284 1284 1283 1283 1283 1283 1284 1285 1285 1286 1287 1289 1290 1292 1292 1293 1295 1295 1296 1296 1296 1296 1296 1295 1295 1295 1295 1295 1294 1292 1291 1291 1290 1289 1288 1288 1287 1286 1286 1286 1285 1285 1284 1283 1283 1283 1283 1283 1283 1283 1283 1283 1283 1283 1283 1284 1284 1284 1285 1285 1287 1287 1287 1288 1289 1290 1290 1291 1291 1291 1291 1291 1291 1290 1290 1290 1289 1288 1287 1287 1287 1287 1285 1285 1284 1283 1283 1283 1283 1282 1281 1281 1280 1279 1278 1278 1278 1278 1278 1278 1278 1278 1278 1278 1278 1279 1280 1280 1280 1281 1282 1282 1282 1282 1283 1283 1283 1283 1284 1284 1284 1284 1284 1284 1285 1285 1284 1284 1284 1284 1283 1282 1281 1280 1279 1278 1276 1275 1274 1272 1271 1270 1269 1268 1267 1266 1265 1263 1261 1260 1260 1260 1260 1260 1260 1261 1262 1263 1266 1267 1268 1270 1271 1273 1274 1275 1277 1277 1278 1279 1280 1281 1281 1282 1283 1284 1284 1285 1285 1286 1286 1287 1287 1288 1288 1288 1288 1289 1289 1289 1290 1290 1290 1291 1291 1291 1291 1291 1291 1291 1291 1290 1290 1289 1289 1289 1289 1289 1289 1288 1288 1287 1287 1287 1286 1285 1283 1281 1280 1276 1274 1273 1264 1263 1260 1252 1246 1245 1241 1235 1221 1216 1208 1207 1206 1206 1199 1178 1162 1159 1157 1149 1149 1147 1127 1109 1104 1103 1098 1087 0 0 0 0 0 0 0 0 0 0 0 0 0 0 0 0 0 0 0 0 0 0 0 0
0 0 0 0 0 0 0 0 0 0 0 0 0 863 863 863 844 844 844 860 876 878 894 915 931 931 954 976 977 980 980 977 976 976 976 992 1013 1022 1034 1053 1072 1079 1082 1088 1089 1089 1089 1089 1087 1085 1085 1085 1100 1117 1117 1117 1126 1126 1129 1144 1164 1164 1164 1146 1138 1135 1135 1135 1141 1147 1155 1162 1165 1173 1186 1192 1193 1195 1195 1195 1194 1160 1130 1122 1122 1122 1130 1132 1132 1145 1149 1154 1158 1158 1167 1177 1177 1177 1177 1176 1170 1162 1161 1161 1161 1174 1179 1182 1182 1182 1177 1166 1159 1158 1158 1159 1162 1171 1171 1171 1152 1151 1151 1151 1151 1152 1152 1152 1152 1152 1160 1172 1179 1179 1179 1166 1166 1166 1167 0 0 0 0 0 0 0 2662 2747 2752 2754 2782 2817 2832 2843 2881 2930 2930 2930 2897 2857 2827 2787 2736 2718 2718 2718 2738 2766 2771 2780 2782 2782 2782 2769 2718 2690 2642 2618 2617 2617 2618 2629 2629 2629 2613 2605 2593 2574 2561 0 0 0 0 0 0 1436 1408 1403 1398 1391 1390 1388 1384 1378 1377 1376 1375 1373 1372 1370 1370 1370 1368 1366 1364 1361 1358 1352 1348 1346 1340 1336 1334 1332 1330 1328 1327 1326 1325 1325 1325 1325 1325 1326 1328 1329 1332 1335 1336 1337 1339 1344 1348 1348 1348 1347 1345 1345 1344 1342 1338 1336 1334 1333 1332 1330 1330 1328 1326 1325 1324 1322 1321 1319 1318 1317 1315 1315 1314 1313 1313 1313 1312 1312 1311 1311 1311 1311 1311 1311 1311 1311 1311 1311 1311 1310 1310 1310 1308 1308 1308 1307 1306 1305 1303 1302 1302 1302 1301 1299 1299 1298 1297 1296 1294 1293 1292 1291 1290 1288 1287 1287 1287 1287 1288 1289 1291 1291 1292 1293 1295 1295 1295 1295 1296 1297 1297 1298 1299 1299 1300 1300 1301 1301 1301 1301 1301 1302 1302 1302 1302 1302 1302 1301 1300 1300 1300 1299 1298 1297 1296 1295 1294 1293 1292 1291 1290 1289 1289 1288 1287 1286 1285 1285 1284 1283 1283 1283 1283 1283 1283 1283 1283 1285 1285 1286 1287 1289 1290 1292 1292 1293 1294 1295 1295 1295 1296 1296 1296 1296 1296 1295 1295 1295 1294 1293 1293 1292 1291 1290 1289 1288 1287 1287 1286 1286 1286 1286 1284 1284 1284 1283 1283 1283 1283 1283 1282 1282 1282 1282 1282 1282 1282 1284 1284 1284 1285 1286 1287 1288 1289 1289 1290 1290 1291 1291 1291 1291 1291 1290 1290 1290 1289 1289 1288 1287 1287 1287 1286 1285 1285 1285 1284 1283 1283 1283 1282 1281 1281 1279 1279 1279 1279 1278 1278 1278 1278 1278 1278 1278 1278 1279 1279 1280 1280 1281 1281 1281 1282 1282 1283 1283 1283 1283 1283 1284 1284 1284 1284 1284 1284 1284 1284 1284 1284 1284 1283 1282 1281 1280 1279 1278 1276 1274 1274 1272 1271 1270 1269 1268 1267 1266 1265 1263 1261 1260 1260 1260 1260 1260 1260 1261 1262 1263 1266 1268 1268 1270 1271 1273 1274 1275 1277 1277 1279 1279 1280 1281 1282 1282 1283 1284 1284 1285 1286 1286 1287 1287 1287 1288 1288 1288 1289 1289 1289 1290 1290 1290 1291 1291 1291 1291 1291 1291 1291 1291 1291 1290 1290 1289 1289 1289 1289 1289 1289 1288 1288 1287 1287 1287 1285 1284 1283 1281 1279 1276 1273 1268 1242 1242 1239 1241 1239 1234 1230 1221 1219 1216 1216 1213 1210 1206 1197 1180 1170 1170 1170 1171 1171 1171 1127 1096 1084 1079 1078 0 0 0 0 0 0 0 0 0 0 0 0 0 0 0 0 0 0 0 0 0 0 0 0 0
0 0 0 0 0 0 0 0 0 0 0 0 0 858 858 858 844 842 842 840 840 842 0 890 907 931 954 976 988 1000 1000 1000 995 995 995 1008 1014 1022 1034 1053 1072 1079 1079 1079 1070 1068 1068 1068 1071 1075 1076 1087 1105 1117 1119 1119 1126 1126 1126 1143 1167 1167 1167 1159 1140 1138 1138 1138 1150 1162 1163 1164 1164 1164 1172 1187 1192 1195 1197 1197 1197 1192 1149 1138 1138 1138 1145 1145 1146 1146 1149 1154 1158 1158 1168 1177 1177 1177 1177 1176 1170 1167 1167 1167 1174 1182 1182 1182 1177 1173 1160 1159 1158 1156 1158 1159 1162 1174 1174 1174 1152 1149 1149 1149 1151 1151 1151 1151 1151 1151 1157 1172 1186 1186 1186 1166 1151 1151 1151 0 0 0 0 0 0 0 2630 2747 2752 2754 2782 2817 2832 2843 2881 2930 2930 2930 2897 2857 2827 2738 2695 2686 2678 2644 2639 2603 2603 2603 2773 2796 2802 2824 2824 2824 2818 2818 2814 2807 2807 2788 2768 2752 2734 2712 2684 2652 2618 2555 0 0 0 0 1456 1436 1410 1407 1398 1392 1391 1388 1385 1380 1378 1376 1375 1373 1372 1370 1370 1370 1369 1366 1364 1361 1359 1355 1351 1347 1342 1339 1334 1332 1330 1329 1327 1326 1325 1324 1324 1324 1324 1324 1325 1329 1331 1332 1335 1336 1336 1336 1343 1343 1343 1343 1342 1342 1341 1340 1337 1335 1334 1333 1332 1330 1329 1328 1325 1324 1323 1322 1320 1318 1318 1316 1315 1314 1313 1312 1312 1312 1312 1311 1310 1310 1310 1310 1310 1310 1311 1311 1310 1311 1311 1310 1310 1310 1309 1309 1308 1308 1306 1306 1304 1303 1302 1302 1301 1300 1299 1298 1298 1296 1295 1293 1293 1292 1290 1289 1287 1287 1287 1287 1288 1289 1291 1291 1291 1293 1295 1295 1295 1295 1296 1297 1298 1298 1299 1299 1300 1300 1301 1301 1301 1301 1301 1302 1302 1302 1302 1302 1302 1301 1301 1300 1300 1299 1299 1297 1296 1295 1294 1293 1292 1291 1290 1289 1289 1288 1287 1286 1285 1284 1284 1283 1283 1282 1282 1282 1282 1283 1283 1283 1285 1286 1287 1289 1290 1292 1292 1293 1294 1294 1295 1295 1296 1296 1296 1296 1296 1296 1295 1295 1294 1294 1293 1292 1291 1290 1289 1289 1288 1287 1287 1286 1286 1286 1285 1284 1284 1283 1283 1283 1283 1283 1282 1282 1282 1282 1282 1282 1282 1283 1283 1283 1284 1285 1286 1288 1289 1289 1289 1289 1290 1290 1290 1291 1290 1290 1290 1290 1289 1289 1288 1288 1288 1288 1287 1286 1286 1286 1285 1285 1284 1284 1283 1283 1281 1281 1281 1281 1281 1279 1278 1278 1278 1278 1278 1278 1278 1279 1279 1279 1280 1280 1280 1281 1281 1281 1282 1282 1282 1283 1283 1283 1284 1284 1284 1284 1284 1284 1284 1284 1284 1284 1283 1281 1281 1280 1279 1278 1276 1274 1274 1272 1271 1270 1269 1268 1267 1266 1265 1263 1261 1260 1260 1260 1260 1260 1261 1261 1262 1264 1266 1268 1269 1270 1272 1273 1275 1276 1277 1278 1279 1280 1280 1282 1282 1282 1283 1284 1284 1285 1286 1286 1287 1287 1288 1288 1288 1288 1289 1289 1289 1290 1290 1290 1291 1291 1291 1291 1291 1291 1291 1291 1291 1290 1290 1290 1290 1289 1289 1289 1289 1288 1288 1287 1287 1286 1285 1282 1282 1281 1278 1276 1273 1264 1239 1232 1232 1232 1232 1232 1228 1217 1217 1217 1216 1213 1210 1205 1192 1180 1180 1180 1183 1183 1183 1171 1132 1096 1079 1072 0 0 0 0 0 0 0 0 0 0 0 0 0 0 0 0 0 0 0 0 0 0 0 0 0 0
0 0 0 0 0 0 0 0 0 0 0 0 0 0 857 857 857 844 831 812 812 812 0 0 887 913 954 976 988 1004 1014 1015 1015 1015 1015 1015 1015 1021 1034 1036 1043 1045 1045 1045 1051 1052 1062 1068 1071 1075 1077 1091 1108 1121 1121 1121 1126 1126 1126 1143 1167 1167 1167 1159 1140 1140 1140 1140 1155 1163 1163 1164 1164 1164 1172 1183 1191 1195 1197 1198 1201 1201 1201 1163 1163 1163 1169 1175 1175 1175 1162 1162 1162 1165 1169 1176 1177 1177 1177 1176 1170 1167 1167 1167 1174 1182 1182 1182 1177 1173 1160 1157 1157 1156 1157 1158 1162 1174 1174 1174 1152 1152 1152 1153 1153 1153 1152 1151 1151 1151 1153 1167 1186 1186 1186 1166 1150 1150 1150 0 0 0 0 0 0 0 2601 2747 2752 2754 2782 2817 2832 2843 2881 2930 2934 2934 2934 2837 2678 2668 2668 2673 2666 2658 2658 2603 2603 2603 2773 2798 2862 2869 2869 2869 2864 2852 2838 2835 2812 2796 2775 2765 2753 2730 2708 2678 2640 2557 0 0 0 0 1450 1437 1411 1410 1398 1393 1388 1385 1385 1380 1378 1376 1375 1373 1372 1371 1370 1369 1369 1366 1365 1362 1360 1355 1352 1349 1345 1340 1336 1332 1330 1329 1327 1326 1325 1324 1323 1323 1323 1323 1325 1326 1328 1331 1333 1335 1335 1336 1337 1340 1340 1340 1340 1340 1338 1338 1335 1334 1334 1332 1331 1330 1329 1328 1325 1323 1322 1320 1319 1317 1317 1315 1315 1313 1312 1311 1311 1311 1310 1310 1310 1310 1310 1310 1310 1310 1310 1310 1310 1311 1311 1310 1310 1310 1309 1309 1308 1308 1307 1306 1304 1303 1302 1302 1301 1300 1300 1299 1298 1296 1295 1295 1293 1292 1292 1290 1289 1287 1287 1287 1288 1290 1291 1291 1291 1293 1295 1295 1295 1296 1296 1298 1298 1298 1299 1299 1300 1300 1301 1301 1301 1302 1302 1302 1302 1302 1302 1302 1302 1302 1302 1301 1300 1300 1299 1298 1296 1296 1294 1293 1292 1291 1290 1289 1288 1288 1287 1285 1284 1283 1282 1282 1282 1282 1282 1282 1282 1282 1283 1283 1285 1286 1287 1289 1290 1291 1292 1293 1294 1294 1295 1295 1296 1296 1296 1296 1296 1296 1296 1295 1295 1295 1293 1293 1291 1291 1290 1290 1289 1288 1288 1286 1286 1286 1286 1284 1284 1283 1283 1283 1282 1282 1282 1282 1282 1281 1281 1281 1282 1282 1283 1283 1284 1284 1285 1287 1288 1288 1289 1289 1289 1290 1290 1290 1290 1290 1290 1290 1290 1289 1289 1288 1288 1288 1287 1286 1286 1286 1286 1286 1286 1284 1284 1283 1283 1283 1282 1282 1282 1280 1279 1279 1279 1278 1277 1277 1277 1277 1278 1278 1279 1279 1280 1280 1280 1281 1281 1281 1282 1282 1282 1282 1283 1283 1284 1284 1284 1284 1284 1284 1284 1284 1283 1282 1281 1280 1280 1279 1276 1274 1274 1272 1271 1270 1269 1268 1267 1266 1264 1263 1261 1261 1260 1260 1260 1260 1261 1261 1262 1264 1266 1268 1268 1270 1272 1273 1275 1276 1277 1278 1279 1280 1280 1282 1282 1282 1283 1284 1284 1285 1286 1286 1286 1287 1287 1288 1288 1288 1289 1289 1289 1290 1290 1291 1291 1291 1291 1291 1291 1291 1291 1291 1291 1291 1290 1290 1290 1289 1289 1289 1289 1288 1288 1287 1286 1285 1284 1282 1282 1279 1278 1276 1272 1260 1229 1223 1223 1223 1228 1228 1228 1216 1216 1216 1212 1212 1212 1205 1192 1187 1187 1187 1193 1193 1193 1171 1132 1096 1079 0 0 0 0 0 0 0 0 0 0 0 0 0 0 0 0 0 0 0 0 0 0 0 0 0 0 0
0 0 0 0 0 0 0 0 0 0 0 0 0 0 857 857 857 844 821 789 789 789 0 0 0 897 934 961 986 1004 1024 1032 1032 1032 1028 1021 1018 1013 1013 1013 1034 1045 1045 1045 1046 1046 1062 1068 1075 1078 1083 1109 1119 1127 1127 1127 1126 1126 1126 1143 1161 1161 1161 1159 1147 1147 1147 1149 1166 1167 1167 1167 1167 1167 1172 1180 1183 1183 1185 1193 1201 1209 1209 1209 1196 1196 1196 1196 1196 1182 1172 1172 1172 1173 1174 1176 1176 1176 1176 1176 1170 1167 1167 1167 1174 1182 1182 1182 1177 1173 1160 1158 1158 1157 1158 1164 1164 1175 1175 1175 1163 1155 1155 1154 1154 1154 1145 1145 1145 1145 1147 1159 1178 1178 1178 1166 1150 1150 1150 0 0 0 0 0 0 0 2566 2887 2967 3005 3009 3009 3013 3013 3009 3005 3005 2945 2934 2837 2678 2678 2678 2686 2701 2718 2718 2718 2738 2766 2773 2798 2862 2875 2878 2878 2875 2875 2854 2840 2823 2796 2786 2778 2767 2752 2729 2693 2656 2557 0 0 0 0 1448 1437 1407 1405 1400 1394 1386 1385 1383 1381 1378 1376 1374 1373 1372 1370 1369 1369 1369 1367 1365 1363 1360 1357 1354 1350 1346 1341 1337 1333 1330 1329 1327 1326 1325 1323 1323 1323 1323 1323 1323 1324 1326 1328 1331 1332 1333 1334 1334 1336 1336 1337 1337 1337 1337 1337 1335 1333 1333 1332 1330 1329 1328 1326 1325 1323 1321 1319 1318 1317 1316 1315 1314 1312 1311 1311 1311 1310 1310 1310 1310 1310 1310 1310 1310 1310 1310 1310 1310 1310 1310 1310 1310 1310 1309 1309 1309 1308 1307 1306 1305 1303 1302 1302 1301 1300 1300 1299 1298 1297 1296 1295 1293 1293 1292 1291 1290 1289 1288 1288 1288 1290 1291 1291 1292 1294 1294 1295 1296 1296 1297 1298 1298 1298 1299 1299 1300 1300 1301 1301 1301 1302 1302 1302 1302 1302 1302 1302 1302 1302 1302 1301 1301 1300 1299 1298 1296 1296 1295 1293 1292 1290 1290 1289 1288 1287 1286 1285 1284 1283 1282 1282 1282 1282 1282 1282 1282 1282 1283 1283 1284 1286 1287 1289 1290 1291 1292 1293 1294 1294 1295 1295 1296 1296 1296 1296 1296 1296 1296 1296 1295 1295 1294 1293 1293 1292 1291 1290 1290 1289 1288 1287 1287 1287 1286 1285 1284 1283 1283 1283 1282 1282 1281 1281 1281 1281 1281 1281 1281 1282 1282 1282 1283 1283 1284 1286 1287 1287 1288 1288 1289 1290 1290 1290 1290 1290 1290 1290 1290 1290 1289 1288 1288 1288 1288 1287 1287 1287 1287 1286 1286 1286 1285 1284 1284 1283 1283 1283 1282 1281 1280 1279 1279 1278 1277 1277 1277 1277 1277 1277 1277 1277 1278 1279 1279 1280 1280 1280 1281 1281 1282 1282 1282 1282 1283 1283 1283 1284 1284 1284 1284 1284 1283 1282 1281 1280 1280 1279 1278 1275 1274 1272 1271 1270 1269 1268 1267 1265 1263 1263 1262 1262 1261 1261 1261 1261 1261 1261 1262 1264 1266 1267 1269 1270 1272 1273 1275 1276 1277 1277 1279 1279 1280 1282 1282 1282 1283 1283 1284 1284 1285 1286 1286 1287 1287 1287 1288 1288 1289 1289 1290 1290 1290 1291 1291 1291 1291 1291 1291 1291 1291 1291 1291 1291 1290 1290 1290 1290 1289 1289 1289 1288 1288 1287 1286 1285 1283 1282 1280 1278 1275 1274 1266 1248 1229 1223 1223 1223 1227 1227 1227 1209 1209 1209 1211 1211 1211 1205 1192 1189 1189 1189 1193 1193 1193 1170 1130 1099 1099 0 0 0 0 0 0 0 0 0 0 0 0 0 0 0 0 0 0 0 0 0 0 0 0 0 0 0
0 0 0 0 0 0 0 0 0 0 0 0 0 0 857 857 857 803 801 775 775 775 0 0 875 888 910 941 966 995 1028 1037 1037 1037 1030 1024 1018 1013 1013 1013 1034 1045 1045 1045 1046 1046 1062 1086 1088 1100 1112 1116 1123 1129 1130 1133 1134 1134 1134 1147 1153 1153 1153 1143 1143 1143 1163 1166 1183 1183 1183 1173 1173 1173 1177 1177 1177 1178 1178 1179 1193 1209 1214 1214 1214 1204 1204 1201 1196 1189 1179 1178 1174 1174 1174 1174 1175 1179 1179 1179 1176 1166 1163 1163 1163 1167 1181 1181 1181 1176 1165 1158 1158 1158 1159 1164 1165 1176 1176 1176 1163 1156 1156 1155 1155 1155 1145 1145 1143 1143 1143 1154 1169 1169 1169 1166 1152 1152 1152 1180 0 0 0 0 0 0 2566 2887 3015 3042 3042 3042 3029 3025 3024 3023 3005 2945 2934 2837 2666 2666 2666 2741 2745 2761 2761 2761 2587 2587 2587 2798 2862 2875 2878 2878 2875 2875 2861 2856 2839 2821 2809 2793 2775 2758 2729 2695 2657 2557 0 0 0 0 1440 1437 1408 1407 1402 1396 1388 1385 1383 1381 1377 1376 1373 1373 1372 1370 1369 1369 1368 1367 1366 1364 1361 1359 1355 1351 1347 1342 1338 1335 1331 1329 1327 1326 1325 1323 1323 1323 1323 1323 1323 1324 1325 1326 1328 1330 1331 1331 1331 1332 1333 1334 1334 1334 1334 1334 1334 1332 1330 1330 1329 1328 1326 1326 1324 1322 1321 1318 1317 1315 1315 1314 1313 1312 1311 1311 1309 1309 1309 1309 1309 1309 1309 1309 1310 1310 1310 1310 1310 1310 1310 1310 1310 1310 1309 1309 1309 1308 1307 1306 1305 1303 1303 1302 1301 1301 1301 1300 1299 1297 1297 1295 1295 1294 1293 1293 1292 1291 1291 1291 1291 1292 1292 1292 1293 1294 1294 1295 1296 1297 1297 1297 1298 1298 1299 1300 1300 1300 1301 1301 1302 1302 1302 1302 1302 1302 1302 1302 1302 1302 1302 1301 1301 1300 1299 1298 1297 1296 1295 1293 1292 1290 1290 1289 1288 1287 1286 1285 1284 1283 1282 1282 1282 1282 1282 1282 1282 1282 1283 1283 1285 1285 1288 1289 1290 1292 1292 1294 1294 1294 1295 1295 1296 1296 1296 1296 1296 1296 1296 1296 1296 1295 1295 1294 1293 1293 1292 1292 1290 1290 1288 1288 1288 1287 1286 1285 1284 1283 1283 1283 1283 1282 1281 1281 1280 1280 1280 1281 1281 1281 1282 1282 1283 1283 1284 1285 1285 1286 1287 1288 1289 1289 1289 1289 1289 1290 1290 1290 1290 1290 1289 1289 1289 1288 1288 1288 1288 1287 1287 1287 1287 1286 1286 1286 1285 1285 1284 1284 1283 1282 1280 1280 1279 1278 1277 1277 1277 1277 1277 1277 1277 1277 1277 1278 1278 1279 1279 1280 1280 1280 1281 1281 1281 1281 1282 1282 1282 1283 1284 1284 1284 1284 1283 1283 1283 1282 1282 1280 1279 1278 1276 1273 1273 1273 1270 1268 1267 1265 1263 1263 1263 1263 1262 1262 1261 1261 1261 1262 1263 1264 1266 1267 1269 1270 1272 1273 1274 1276 1276 1277 1279 1279 1280 1281 1281 1282 1282 1283 1284 1284 1285 1285 1286 1286 1287 1287 1288 1288 1289 1289 1290 1290 1290 1290 1291 1291 1291 1291 1291 1291 1291 1291 1291 1291 1290 1290 1290 1290 1289 1289 1289 1288 1288 1287 1286 1284 1283 1281 1279 1276 1275 1271 1258 1248 1229 1223 1223 1223 1220 1220 1220 1209 1203 1203 1203 1205 1205 1205 1205 1200 1198 1192 1188 1187 1185 1158 1130 1102 1101 1081 0 0 0 0 0 0 0 0 0 0 0 0 0 0 0 0 0 0 0 0 0 0 0 0 0 0
0 0 0 0 0 0 0 0 0 0 0 0 0 0 844 844 844 803 801 772 772 772 0 855 873 885 891 916 0 0 1028 1037 1037 1037 1030 1024 1018 1013 1013 1013 1034 1046 1046 1052 1052 1052 1070 1086 1089 1100 1112 1116 1123 1129 1132 1136 1139 1141 1145 1149 1153 1153 1153 1151 1151 1151 1181 1184 1187 1187 1187 1178 1178 1178 1178 1178 1178 1178 1178 1179 1193 1206 1214 1214 1214 1204 1204 1201 1196 1189 1179 1178 1174 1174 1173 1173 1173 1179 1179 1179 1178 1170 1163 1163 1163 1165 1178 1193 1193 1193 1186 1171 1164 1160 1160 1164 1165 1176 1176 1176 1175 1161 1159 1158 1155 1155 1145 1145 1143 1143 1143 1151 1156 1163 1163 1163 1157 1157 1157 1180 1195 0 0 0 0 0 2566 2887 3015 3042 3042 3042 3029 3025 3024 3023 3005 2945 2780 2657 2657 2657 2666 2880 2895 2895 2895 2768 2587 2587 2587 2600 2832 2875 2878 2878 2875 2875 2861 2856 2845 2843 2830 2800 2775 2758 2729 2696 2666 2537 0 0 0 0 1439 1435 1411 1407 1402 1396 1388 1387 1383 1381 1377 1375 1373 1373 1371 1370 1369 1369 1368 1367 1366 1365 1362 1361 1358 1352 1349 1344 1339 1337 1334 1331 1328 1326 1325 1323 1323 1322 1322 1322 1322 1323 1323 1325 1327 1328 1329 1329 1329 1330 1330 1331 1331 1332 1332 1332 1331 1329 1329 1329 1328 1327 1325 1324 1323 1321 1319 1318 1317 1315 1314 1313 1312 1311 1310 1310 1309 1309 1308 1308 1308 1308 1309 1309 1309 1309 1310 1310 1310 1310 1310 1310 1310 1309 1309 1309 1308 1308 1307 1306 1305 1304 1303 1302 1302 1301 1301 1300 1299 1298 1297 1296 1295 1295 1294 1293 1293 1292 1292 1292 1292 1292 1293 1293 1293 1294 1295 1296 1296 1297 1297 1297 1298 1298 1299 1300 1300 1300 1301 1301 1302 1302 1302 1302 1302 1302 1302 1302 1302 1302 1302 1301 1301 1300 1299 1298 1297 1296 1295 1293 1292 1290 1290 1289 1288 1287 1287 1285 1284 1283 1282 1282 1282 1282 1282 1282 1282 1283 1283 1284 1285 1285 1288 1289 1290 1292 1292 1294 1294 1294 1295 1295 1296 1296 1296 1296 1296 1296 1296 1296 1296 1295 1295 1294 1294 1293 1293 1292 1292 1291 1290 1290 1289 1288 1287 1286 1285 1284 1283 1283 1283 1282 1281 1281 1280 1280 1280 1281 1281 1281 1281 1281 1282 1282 1283 1284 1285 1286 1286 1286 1287 1287 1288 1288 1289 1289 1289 1290 1290 1290 1290 1289 1289 1289 1289 1289 1288 1288 1288 1288 1288 1288 1288 1287 1286 1285 1285 1285 1284 1282 1281 1280 1279 1278 1277 1277 1277 1277 1277 1277 1277 1277 1277 1277 1277 1278 1278 1279 1279 1280 1280 1281 1281 1281 1282 1282 1282 1283 1283 1284 1284 1284 1284 1284 1283 1282 1282 1281 1280 1278 1276 1276 1276 1276 1274 1272 1268 1265 1264 1264 1264 1264 1264 1263 1262 1262 1262 1262 1264 1264 1266 1267 1269 1270 1271 1272 1273 1274 1276 1276 1278 1278 1279 1280 1281 1281 1281 1283 1283 1284 1285 1285 1285 1286 1286 1287 1288 1288 1289 1289 1290 1290 1290 1290 1290 1291 1291 1291 1291 1291 1291 1291 1291 1290 1290 1290 1290 1290 1289 1289 1289 1288 1288 1287 1285 1284 1282 1280 1279 1276 1274 1270 1257 1246 1229 1225 1221 1220 1217 1217 1215 1208 1202 1202 1202 1207 1207 1210 1207 1207 1192 1186 1185 1178 1174 1156 1130 1110 1102 1095 0 0 0 0 0 0 0 0 0 0 0 0 0 0 0 0 0 0 0 0 0 0 0 0 0 0
0 0 0 0 0 0 0 0 0 0 0 0 0 0 0 843 843 779 777 772 772 772 0 855 873 885 891 916 0 0 1028 1037 1037 1037 1030 1024 1019 1019 1019 1031 1071 1071 1071 1064 1064 1064 1070 1092 1095 1101 1112 1116 1123 1129 1132 1139 1141 1142 1145 1149 1153 1153 1153 1153 1153 1163 1188 1190 1190 1190 1187 1179 1179 1179 1179 1179 1178 1178 1178 1179 1191 1205 1214 1214 1214 1201 1196 1194 1194 1189 1179 1178 1174 1172 1172 1172 1172 1172 1178 1178 1178 1176 1170 1165 1165 1165 1177 1193 1193 1193 1186 1177 1162 1159 1159 1159 1165 1165 1172 1172 1172 1166 1161 1158 1157 1157 1151 1145 1145 1145 1145 1151 1156 1163 1166 1170 1170 1175 1175 1180 1193 0 0 0 0 0 0 2854 3015 3042 3042 3042 3029 3024 3023 3018 2986 2879 2611 2611 2611 2657 2918 2973 2973 2973 2935 2901 2818 2586 2586 2586 2744 2862 2869 2869 2869 2867 2861 2856 2845 2843 2830 2802 2777 2758 2727 2699 2668 2515 0 0 0 1464 1435 1430 1411 1403 1402 1396 1389 1388 1383 1381 1377 1375 1373 1372 1371 1370 1369 1369 1368 1367 1366 1365 1364 1362 1359 1354 1351 1347 1342 1338 1335 1332 1329 1326 1325 1323 1323 1322 1322 1322 1322 1322 1323 1323 1324 1326 1327 1328 1328 1328 1328 1328 1329 1330 1330 1330 1328 1328 1328 1327 1326 1325 1323 1323 1321 1320 1318 1317 1316 1314 1313 1312 1311 1311 1309 1309 1308 1307 1307 1307 1307 1308 1308 1308 1308 1309 1309 1309 1309 1309 1309 1309 1309 1309 1309 1308 1308 1308 1307 1306 1306 1304 1304 1303 1303 1302 1302 1301 1299 1299 1298 1297 1296 1296 1295 1295 1294 1293 1293 1293 1293 1293 1294 1294 1294 1294 1295 1296 1296 1297 1297 1297 1298 1298 1299 1300 1300 1301 1301 1301 1302 1302 1302 1302 1302 1302 1302 1302 1302 1302 1302 1301 1301 1300 1300 1298 1297 1296 1295 1294 1292 1291 1290 1289 1288 1288 1287 1286 1284 1284 1283 1282 1282 1282 1282 1282 1282 1283 1283 1284 1285 1285 1288 1289 1291 1292 1292 1294 1294 1294 1295 1295 1296 1296 1296 1297 1297 1297 1297 1296 1296 1296 1295 1295 1294 1294 1294 1292 1292 1291 1291 1290 1289 1288 1287 1286 1286 1285 1284 1284 1283 1283 1282 1281 1280 1280 1280 1281 1281 1281 1281 1281 1282 1282 1282 1282 1284 1284 1285 1286 1286 1287 1287 1288 1288 1289 1289 1289 1289 1289 1289 1289 1289 1289 1289 1289 1289 1289 1289 1289 1289 1289 1289 1288 1287 1286 1285 1285 1284 1282 1281 1280 1279 1278 1277 1277 1277 1277 1277 1276 1276 1276 1276 1276 1277 1277 1278 1278 1279 1279 1280 1280 1281 1281 1281 1282 1282 1283 1283 1284 1284 1284 1284 1284 1283 1283 1282 1282 1280 1278 1278 1278 1278 1278 1276 1273 1271 1269 1268 1268 1267 1267 1266 1264 1264 1263 1263 1263 1265 1265 1266 1267 1268 1270 1271 1271 1272 1274 1274 1275 1276 1277 1278 1279 1280 1280 1281 1281 1283 1283 1284 1284 1285 1285 1286 1287 1287 1288 1288 1289 1290 1290 1290 1290 1291 1291 1291 1291 1291 1291 1291 1291 1290 1290 1290 1290 1290 1290 1289 1289 1289 1288 1288 1287 1285 1284 1282 1280 1279 1276 1274 1267 1250 1246 1233 1228 1216 1213 1210 1207 1199 1199 1199 1199 1202 1210 1212 1212 1212 1211 1192 1184 1183 1178 1170 1156 1130 1127 1124 1119 0 0 0 0 0 0 0 0 0 0 0 0 0 0 0 0 0 0 0 0 0 0 0 0 0 0
0 0 0 0 0 0 0 0 0 0 0 0 0 0 0 0 0 778 776 772 772 0 0 862 876 885 891 916 922 0 1021 1024 1024 1024 1022 1019 1019 1019 1024 1047 1071 1071 1071 1064 1064 1064 1070 1092 1095 1101 1104 1107 1112 1125 1132 1139 1141 1142 1145 1149 1150 1153 1153 1156 1156 1163 1188 1190 1190 1190 1187 1179 1179 1179 1182 1183 1184 1184 1186 1187 1191 1199 1199 1199 1197 1186 1186 1185 1185 1183 1174 1174 1169 1164 1164 1164 1170 1172 1174 1176 1178 1176 1176 1166 1166 1166 1177 1193 1193 1193 1186 1177 1162 1150 1150 1150 1162 1165 1171 1171 1171 1166 1161 1160 1160 1161 1163 1163 1163 1157 1156 1156 1156 1163 1179 1181 1184 1187 1191 1193 1196 1209 0 0 0 0 0 2730 2982 3039 3039 3039 3023 3012 3007 2994 2949 2801 2571 2571 2571 2822 2967 2973 2973 2973 2935 2903 2818 2600 2600 2600 2684 2847 2862 2862 2862 2856 2847 2845 2843 2843 2830 2804 2777 2758 2727 2700 2668 0 0 0 1508 1464 1435 1425 1411 1403 1402 1392 1389 1387 1383 1381 1377 1375 1373 1372 1371 1370 1369 1368 1368 1367 1366 1366 1365 1363 1361 1358 1353 1350 1344 1339 1335 1332 1330 1327 1325 1324 1323 1322 1322 1322 1322 1322 1322 1323 1324 1324 1325 1326 1328 1328 1328 1328 1328 1328 1328 1328 1327 1326 1326 1325 1325 1324 1323 1321 1320 1319 1318 1316 1316 1314 1313 1311 1310 1309 1308 1308 1307 1306 1306 1306 1306 1306 1307 1307 1308 1308 1308 1309 1309 1309 1309 1309 1308 1308 1308 1308 1308 1308 1307 1307 1306 1305 1304 1304 1303 1302 1302 1301 1301 1299 1298 1298 1298 1297 1296 1296 1295 1295 1295 1295 1295 1295 1295 1295 1295 1296 1296 1296 1296 1297 1297 1297 1298 1298 1299 1300 1300 1301 1301 1302 1302 1303 1303 1303 1303 1303 1303 1302 1302 1302 1302 1301 1301 1301 1300 1298 1298 1296 1296 1294 1293 1291 1290 1290 1289 1288 1287 1286 1285 1284 1284 1283 1283 1282 1282 1282 1283 1283 1284 1285 1285 1286 1288 1289 1291 1292 1292 1294 1294 1294 1295 1295 1296 1296 1297 1297 1297 1297 1297 1296 1296 1296 1295 1295 1295 1294 1294 1293 1293 1292 1291 1290 1289 1288 1287 1287 1286 1285 1285 1285 1284 1283 1282 1281 1280 1280 1280 1280 1280 1281 1281 1281 1282 1282 1282 1282 1282 1283 1283 1284 1285 1285 1286 1288 1288 1288 1288 1289 1289 1289 1289 1289 1289 1289 1289 1289 1289 1289 1289 1289 1289 1289 1289 1288 1287 1286 1286 1286 1284 1283 1282 1281 1280 1278 1278 1277 1277 1276 1276 1276 1275 1275 1275 1275 1276 1276 1276 1277 1278 1278 1279 1279 1279 1280 1281 1282 1282 1282 1283 1283 1284 1284 1284 1284 1284 1283 1283 1282 1281 1280 1279 1279 1278 1278 1277 1276 1274 1273 1273 1272 1270 1269 1268 1267 1266 1266 1266 1265 1265 1266 1266 1267 1268 1270 1270 1270 1270 1271 1273 1275 1276 1276 1277 1278 1278 1280 1280 1281 1281 1282 1282 1283 1284 1285 1286 1287 1287 1288 1288 1289 1290 1290 1290 1290 1291 1291 1291 1291 1291 1291 1291 1291 1290 1290 1290 1290 1290 1290 1289 1289 1289 1289 1288 1287 1285 1284 1283 1281 1279 1276 1273 1267 1247 1246 1233 1228 1216 1207 1203 1195 1195 1195 1195 1197 1202 1202 1206 1211 1211 1211 1187 1183 1180 1175 1170 1155 1155 1144 1144 1144 0 0 0 0 0 0 0 0 0 0 0 0 0 0 0 0 0 0 0 0 0 0 0 0 0 0
0 0 0 0 0 0 0 0 0 0 0 0 0 0 0 0 0 0 0 0 0 0 0 870 881 898 921 922 927 966 999 1013 1016 1017 1017 1017 1017 1017 1024 1047 1071 1071 1071 1064 1064 1064 1067 1088 1092 1096 1100 1101 1101 1112 1128 1135 1135 1139 1141 1141 1150 1158 1158 1161 1162 1163 1188 1188 1188 1188 1183 1179 1179 1179 1179 1180 1182 1183 1186 1187 1188 1194 1194 1194 1186 1179 1177 1177 1177 1177 1174 1165 1165 1162 1162 1162 1168 1171 1171 1172 1172 1176 1176 1176 1176 1176 1177 1183 1183 1183 1183 1177 1162 1149 1149 1149 1161 1165 1171 1171 1171 1166 1159 1159 1159 1160 1169 1169 1169 1165 1160 1160 1160 1166 1179 1194 1199 1199 1199 1199 1199 1209 0 0 0 0 0 2689 2947 3030 3030 3030 3009 2997 2982 2969 2909 2747 2635 2635 2635 2850 2967 2973 2973 2973 2935 2903 2818 2600 2600 2600 2684 2845 2860 2860 2860 2849 2834 2834 2833 2827 2827 2804 2778 2758 2727 2700 2668 0 0 0 1508 1475 1435 1423 1411 1403 1398 1392 1389 1385 1382 1381 1377 1375 1373 1372 1370 1370 1369 1368 1368 1368 1367 1366 1366 1366 1363 1361 1356 1351 1346 1339 1336 1332 1330 1328 1327 1325 1323 1322 1322 1321 1321 1321 1322 1322 1322 1322 1323 1325 1326 1326 1326 1325 1325 1325 1325 1325 1325 1324 1324 1323 1323 1322 1321 1320 1319 1318 1317 1316 1315 1314 1312 1311 1309 1309 1308 1306 1306 1306 1306 1306 1306 1306 1306 1307 1307 1307 1307 1308 1308 1308 1308 1308 1308 1308 1308 1308 1308 1308 1307 1307 1307 1306 1306 1305 1303 1303 1302 1302 1302 1302 1300 1300 1299 1299 1298 1297 1297 1296 1296 1296 1296 1296 1296 1296 1296 1296 1296 1296 1296 1297 1297 1297 1298 1298 1299 1300 1300 1301 1301 1302 1302 1303 1303 1303 1303 1303 1302 1302 1302 1302 1302 1301 1301 1301 1300 1299 1298 1297 1296 1294 1293 1292 1291 1290 1289 1288 1287 1286 1285 1284 1284 1284 1283 1283 1283 1283 1283 1284 1284 1285 1285 1286 1288 1289 1291 1292 1292 1294 1294 1295 1295 1295 1296 1297 1297 1297 1297 1297 1297 1297 1297 1297 1296 1296 1296 1295 1295 1293 1293 1292 1291 1291 1289 1289 1288 1287 1286 1286 1285 1285 1284 1283 1282 1281 1281 1281 1281 1280 1280 1281 1281 1281 1281 1281 1282 1282 1282 1282 1282 1283 1284 1285 1285 1287 1288 1288 1288 1288 1289 1289 1289 1289 1289 1289 1290 1289 1289 1290 1290 1290 1290 1290 1289 1289 1288 1287 1286 1286 1285 1284 1283 1282 1280 1278 1278 1278 1277 1277 1276 1276 1275 1275 1275 1275 1275 1276 1276 1276 1277 1278 1278 1278 1278 1280 1280 1281 1282 1282 1283 1283 1284 1285 1285 1285 1285 1283 1283 1282 1282 1281 1280 1279 1279 1278 1278 1277 1277 1276 1275 1273 1271 1270 1269 1268 1268 1267 1267 1266 1266 1266 1266 1267 1268 1269 1269 1270 1270 1271 1273 1275 1276 1276 1277 1277 1277 1278 1278 1279 1281 1281 1282 1283 1284 1284 1285 1286 1286 1288 1288 1289 1290 1290 1290 1290 1290 1290 1290 1291 1291 1291 1291 1291 1290 1290 1290 1290 1290 1290 1290 1289 1289 1289 1288 1287 1285 1284 1283 1280 1279 1276 1273 1267 1247 1241 1233 1228 1215 1207 1202 1191 1190 1190 1190 1190 1202 1202 1206 1206 1206 1202 1179 1167 1167 1165 1165 1154 1154 1144 1144 1144 0 0 0 0 0 0 0 0 0 0 0 0 0 0 0 0 0 0 0 0 0 0 0 0 0 0
0 0 0 0 0 0 0 0 0 0 0 0 0 0 0 0 0 0 0 0 0 0 0 871 900 915 922 937 937 964 988 1012 1014 1014 1014 1012 1012 1012 1024 1047 1062 1062 1062 1060 1060 1060 1066 1086 1089 1089 1092 1095 1095 1110 1128 1128 1129 1129 1129 1135 1145 1158 1158 1161 1162 1163 1168 1170 1178 1179 1179 1179 1179 1179 1179 1180 1183 1183 1183 1186 1187 1183 1182 1182 1176 1176 1175 1176 1176 1173 1172 1165 1164 1162 1162 1162 1166 1168 1170 1170 1171 1176 1179 1180 1183 1183 1183 1183 1172 1168 1160 1157 1145 1145 1145 1146 1158 1168 1168 1168 1167 1166 1159 1159 1159 1166 1169 1169 1169 1166 1161 1161 1161 1166 1182 1196 1199 1199 1200 1200 1204 1221 0 0 0 0 0 2611 2898 3012 3012 3012 2991 2978 2957 2931 2860 2631 2631 2631 2688 2887 2967 2967 2967 2954 2934 2903 2808 2600 2600 2600 2684 2841 2860 2860 2860 2839 2824 2819 2815 2814 2814 2804 2778 2752 2728 2700 2664 0 0 0 1507 1476 1475 1421 1411 1403 1397 1392 1387 1385 1382 1381 1377 1375 1373 1372 1370 1369 1369 1369 1368 1368 1368 1367 1367 1366 1365 1364 1359 1352 1348 1342 1338 1334 1331 1329 1327 1325 1324 1322 1322 1321 1321 1321 1321 1321 1321 1322 1323 1324 1324 1324 1324 1323 1323 1323 1323 1323 1323 1322 1322 1321 1321 1321 1320 1319 1318 1318 1316 1315 1315 1313 1312 1311 1309 1308 1307 1306 1306 1305 1305 1305 1305 1306 1306 1306 1306 1306 1306 1307 1307 1307 1308 1308 1308 1308 1308 1307 1307 1307 1307 1307 1307 1306 1306 1305 1304 1303 1303 1303 1303 1303 1303 1302 1302 1300 1299 1299 1299 1298 1297 1297 1297 1297 1297 1297 1297 1297 1296 1296 1296 1297 1297 1297 1298 1298 1299 1299 1300 1301 1301 1302 1302 1302 1302 1302 1302 1302 1302 1302 1302 1302 1302 1301 1301 1301 1300 1299 1298 1297 1296 1294 1293 1292 1291 1290 1289 1289 1288 1286 1285 1284 1284 1284 1284 1283 1283 1283 1283 1284 1284 1285 1285 1287 1289 1290 1291 1292 1292 1294 1294 1295 1296 1296 1296 1297 1297 1297 1297 1297 1297 1297 1297 1297 1297 1296 1296 1295 1295 1295 1294 1293 1292 1291 1290 1290 1289 1288 1287 1286 1286 1285 1284 1283 1283 1282 1281 1281 1280 1280 1280 1280 1280 1280 1281 1281 1282 1282 1282 1282 1282 1283 1284 1285 1285 1286 1287 1287 1288 1288 1289 1289 1289 1289 1290 1290 1290 1290 1290 1290 1290 1290 1290 1290 1289 1289 1288 1288 1287 1286 1286 1285 1283 1282 1280 1279 1279 1278 1278 1277 1277 1276 1275 1275 1275 1275 1275 1276 1276 1276 1277 1277 1278 1278 1278 1279 1280 1281 1281 1281 1282 1283 1284 1285 1285 1285 1285 1284 1284 1283 1283 1283 1282 1281 1281 1280 1280 1279 1279 1277 1276 1275 1272 1272 1271 1270 1269 1268 1267 1267 1266 1266 1267 1268 1268 1269 1269 1270 1270 1270 1273 1274 1275 1276 1276 1276 1277 1277 1277 1278 1280 1280 1281 1282 1283 1283 1284 1286 1286 1287 1288 1288 1289 1290 1290 1290 1290 1290 1290 1291 1291 1291 1291 1290 1290 1290 1290 1290 1290 1290 1290 1289 1289 1289 1288 1287 1285 1284 1283 1281 1279 1276 1274 1268 1247 1237 1223 1218 1209 1207 1193 1187 1178 1169 1169 1169 1186 1196 1201 1201 1201 1188 1161 1145 1145 1145 1145 1143 1145 1144 1144 1144 0 0 0 0 0 0 0 0 0 0 0 0 0 0 0 0 0 0 0 0 0 0 0 0 0 0
0 0 0 0 0 0 0 0 0 0 0 0 0 0 0 0 0 0 0 0 0 0 0 900 901 916 941 953 958 962 984 1011 1013 1013 1013 1011 1011 1011 1019 1038 1048 1048 1048 1047 1047 1047 1047 1047 1058 1061 1071 1079 1093 1107 1128 1128 1129 1129 1129 1135 1145 1146 1160 1161 1163 1163 1164 1165 1167 1172 1173 1174 1177 1179 1179 1180 1183 1183 1183 1173 1170 1168 1165 1165 1165 1171 1172 1172 1172 1170 1167 1158 1158 1148 1148 1148 1161 1167 1167 1167 1167 1167 1179 1180 1188 1188 1188 1183 1172 1165 1150 1139 1135 1135 1135 1144 1158 1168 1168 1168 1167 1166 1157 1157 1157 1166 1169 1169 1169 1166 1166 1166 1171 1179 1189 1196 1200 1200 1208 1210 1215 1240 0 0 0 0 0 0 2697 2853 2885 2890 2899 2899 2899 2892 2768 2536 2536 2536 2688 2887 2944 2944 2944 2929 2914 2879 2763 2553 2553 2553 2735 2841 2852 2852 2852 2838 2824 2814 2802 2798 2795 2791 2778 2750 2728 2700 2646 0 0 0 1507 1476 1475 1421 1411 1403 1398 1398 1387 1385 1382 1381 1377 1374 1372 1371 1370 1369 1369 1369 1368 1368 1368 1368 1368 1367 1367 1365 1361 1356 1351 1343 1338 1335 1332 1330 1327 1325 1324 1323 1322 1321 1321 1321 1321 1321 1321 1321 1321 1322 1322 1322 1322 1322 1322 1322 1322 1321 1321 1321 1320 1320 1320 1319 1319 1318 1317 1317 1316 1314 1314 1313 1311 1310 1309 1307 1306 1306 1305 1305 1305 1304 1304 1304 1304 1305 1305 1305 1306 1306 1306 1306 1307 1307 1307 1307 1307 1307 1307 1307 1307 1307 1307 1307 1306 1306 1306 1305 1305 1305 1304 1304 1303 1303 1303 1301 1301 1300 1299 1299 1299 1299 1299 1299 1298 1298 1298 1298 1297 1296 1296 1296 1297 1297 1298 1298 1299 1299 1300 1301 1301 1302 1302 1302 1302 1302 1302 1302 1302 1302 1302 1302 1302 1302 1301 1301 1300 1299 1299 1298 1296 1295 1293 1292 1291 1290 1289 1289 1288 1286 1285 1285 1285 1284 1284 1283 1283 1283 1284 1284 1285 1285 1285 1287 1289 1290 1292 1292 1293 1294 1294 1295 1296 1296 1297 1297 1297 1297 1297 1297 1297 1297 1297 1297 1297 1297 1297 1296 1295 1295 1294 1294 1292 1291 1290 1290 1289 1288 1287 1287 1286 1285 1284 1283 1283 1282 1281 1281 1280 1280 1280 1280 1280 1280 1281 1281 1281 1282 1282 1282 1282 1283 1284 1285 1285 1286 1286 1287 1288 1288 1289 1289 1289 1289 1289 1290 1290 1290 1290 1290 1291 1291 1291 1290 1290 1289 1289 1289 1288 1287 1286 1285 1284 1282 1281 1280 1280 1279 1278 1278 1277 1276 1275 1275 1275 1275 1275 1275 1275 1275 1276 1277 1277 1278 1278 1279 1279 1279 1280 1280 1282 1283 1284 1284 1285 1285 1285 1285 1284 1284 1284 1284 1283 1283 1282 1282 1281 1281 1280 1279 1278 1276 1274 1274 1273 1272 1270 1269 1268 1268 1267 1267 1267 1268 1270 1270 1270 1269 1269 1269 1269 1270 1271 1272 1274 1275 1275 1276 1277 1277 1277 1278 1281 1281 1282 1282 1284 1285 1285 1286 1287 1288 1289 1289 1290 1290 1290 1290 1290 1290 1291 1291 1291 1290 1290 1290 1290 1290 1290 1290 1290 1290 1290 1289 1288 1287 1286 1284 1283 1281 1279 1277 1274 1269 1247 1230 1223 1218 1209 1207 1193 1182 1166 1161 1161 1161 1170 1178 1187 1187 1187 1164 1139 1120 1106 0 0 1128 1128 1128 1112 0 0 0 0 0 0 0 0 0 0 0 0 0 0 0 0 0 0 0 0 0 0 0 0 0 0 0
0 0 0 0 0 0 0 0 0 0 0 0 0 0 0 0 0 0 0 0 0 0 0 921 924 931 946 953 961 962 976 993 1008 1008 1008 1008 1008 1008 1009 1028 1039 1042 1042 1043 1043 1043 1043 1043 1043 1047 1056 1076 1092 1103 1119 1128 1129 1129 1129 1135 1145 1146 1158 1159 1160 1161 1161 1165 1167 1168 1172 1177 1184 1186 1186 1186 1183 1183 1181 1172 1164 1160 1158 1158 1160 1171 1171 1171 1168 1162 1160 1158 1158 1148 1148 1141 1141 1148 1148 1153 1156 1157 1167 1180 1188 1197 1197 1197 1172 1162 1149 1128 1119 1119 1119 1139 1158 1168 1168 1168 1166 1161 1157 1157 1157 1165 1165 1166 1165 1165 1165 1166 1171 1179 1189 1197 1203 1206 1210 1214 1222 0 0 0 0 0 0 0 0 2579 2632 2659 2685 2685 2685 2638 2537 0 0 0 2688 2887 2912 2912 2912 2898 2881 2855 2692 2481 2481 2481 2735 2841 2849 2849 2849 2836 2814 2809 2799 2783 2778 2775 2767 2750 2728 2692 2639 0 0 0 1490 1482 1471 1421 1406 1402 1398 1398 1387 1387 1381 1381 1376 1373 1372 1370 1369 1369 1369 1368 1368 1368 1368 1369 1369 1369 1369 1366 1363 1358 1355 1349 1339 1335 1332 1331 1329 1326 1324 1323 1322 1321 1321 1320 1320 1320 1320 1320 1321 1321 1321 1321 1321 1321 1321 1321 1320 1320 1320 1320 1319 1319 1319 1318 1318 1317 1317 1316 1315 1314 1314 1312 1311 1309 1308 1307 1306 1305 1305 1305 1304 1304 1304 1304 1304 1304 1304 1305 1305 1305 1305 1305 1305 1306 1306 1306 1306 1306 1307 1307 1307 1307 1307 1307 1307 1306 1306 1305 1305 1305 1305 1304 1304 1304 1303 1303 1302 1301 1301 1301 1301 1301 1301 1301 1300 1299 1299 1298 1297 1296 1296 1296 1297 1297 1298 1298 1298 1299 1300 1301 1301 1302 1302 1302 1302 1302 1302 1302 1302 1302 1302 1302 1302 1302 1301 1301 1301 1300 1299 1298 1297 1295 1293 1292 1291 1290 1289 1288 1288 1286 1285 1285 1285 1285 1284 1284 1284 1284 1284 1285 1285 1285 1286 1288 1289 1291 1292 1292 1293 1294 1294 1295 1296 1296 1297 1297 1297 1297 1297 1298 1298 1298 1298 1297 1297 1297 1297 1297 1296 1296 1294 1294 1293 1292 1290 1290 1289 1289 1288 1287 1286 1285 1284 1283 1283 1282 1281 1281 1281 1280 1280 1280 1280 1281 1281 1281 1281 1281 1281 1282 1282 1282 1284 1284 1285 1286 1286 1287 1288 1288 1289 1289 1290 1290 1290 1290 1290 1290 1291 1291 1291 1291 1291 1290 1290 1290 1290 1289 1289 1287 1286 1286 1284 1282 1282 1280 1280 1279 1278 1278 1277 1276 1275 1275 1275 1275 1275 1275 1275 1275 1275 1276 1276 1277 1277 1278 1278 1278 1279 1280 1282 1283 1284 1284 1285 1285 1285 1285 1285 1284 1284 1284 1284 1283 1283 1283 1282 1282 1281 1281 1280 1279 1278 1276 1275 1274 1274 1272 1271 1269 1268 1268 1268 1269 1270 1270 1270 1269 1269 1269 1269 1269 1269 1270 1270 1270 1272 1273 1274 1275 1275 1276 1277 1278 1279 1281 1283 1284 1285 1285 1286 1287 1288 1288 1289 1289 1290 1290 1290 1290 1290 1290 1290 1290 1290 1290 1290 1290 1290 1290 1290 1290 1290 1289 1288 1287 1286 1284 1283 1281 1279 1277 1274 1269 1247 1230 1223 1218 1209 1207 1193 1182 1166 1161 1161 1161 1167 1172 1172 1172 1167 1140 1120 1087 1071 1071 1071 0 0 0 0 0 0 0 0 0 0 0 0 0 0 0 0 0 0 0 0 0 0 0 0 0 0 0 0 0 0 0
0 0 0 0 0 0 0 0 0 0 0 0 0 0 0 0 0 0 0 0 0 0 0 929 935 946 946 953 961 961 962 966 983 986 996 999 999 1002 1003 1021 1035 1042 1042 1043 1043 1043 1043 1043 1041 1041 1041 1062 1075 1099 1119 1139 1143 1143 1143 1143 1145 1145 1156 1159 1160 1160 1160 1160 1160 1167 1168 1177 1184 1192 1192 1192 1183 1178 1172 1166 1164 1160 1158 1158 1160 1171 1171 1171 1168 1161 1158 1157 1155 1148 1148 1139 1136 1136 1136 1141 1146 1149 1155 1162 1173 1197 1197 1197 1172 1160 1138 1118 1113 1113 1113 1130 1141 1151 1155 1161 1161 1161 1155 1147 1146 1146 1146 1147 1151 1152 1153 1162 1171 1179 1194 1199 1213 0 0 0 0 0 0 0 0 0 0 0 0 2481 2510 2510 2510 2502 0 0 0 0 0 0 0 2664 2725 2756 2757 2757 2756 2722 0 0 0 0 2735 2820 2834 2834 2834 2829 2813 2805 2791 2783 2767 2764 2745 2734 2711 2682 2634 0 0 0 0 1482 1470 1421 1402 1401 1398 1398 1387 1387 1382 1381 1375 1373 1372 1370 1369 1369 1369 1368 1368 1368 1369 1369 1369 1369 1369 1369 1365 1361 1356 1351 1345 1337 1333 1331 1329 1326 1324 1323 1322 1321 1321 1320 1320 1320 1320 1320 1320 1320 1320 1320 1320 1320 1320 1319 1319 1319 1319 1319 1319 1318 1318 1317 1317 1316 1316 1315 1315 1314 1313 1312 1310 1309 1308 1307 1306 1305 1304 1304 1304 1304 1303 1303 1303 1303 1303 1303 1304 1304 1304 1304 1304 1304 1305 1305 1305 1305 1306 1307 1307 1307 1308 1308 1308 1307 1306 1306 1306 1305 1305 1305 1305 1304 1304 1303 1303 1303 1303 1302 1302 1302 1301 1301 1301 1300 1300 1298 1298 1296 1296 1296 1296 1297 1297 1297 1297 1298 1299 1300 1301 1301 1301 1301 1301 1302 1302 1302 1302 1302 1302 1302 1302 1302 1301 1301 1301 1300 1299 1298 1297 1295 1294 1292 1292 1291 1289 1288 1288 1287 1286 1286 1285 1285 1284 1284 1284 1285 1286 1286 1286 1287 1288 1290 1291 1291 1292 1292 1293 1294 1295 1295 1296 1296 1297 1297 1297 1298 1298 1298 1298 1298 1298 1297 1297 1297 1297 1297 1296 1296 1295 1295 1293 1292 1291 1290 1289 1289 1288 1287 1286 1285 1285 1284 1283 1282 1282 1281 1281 1281 1280 1280 1281 1281 1281 1281 1281 1282 1281 1282 1282 1283 1283 1284 1284 1286 1286 1287 1288 1288 1289 1289 1290 1290 1290 1290 1290 1290 1291 1291 1291 1291 1291 1291 1291 1291 1291 1290 1289 1288 1287 1287 1285 1284 1282 1281 1280 1279 1278 1278 1277 1276 1275 1275 1275 1275 1275 1275 1275 1275 1275 1275 1276 1277 1277 1277 1278 1278 1278 1279 1282 1284 1284 1284 1284 1285 1285 1285 1285 1285 1285 1285 1285 1284 1284 1284 1284 1283 1283 1281 1281 1281 1280 1279 1279 1278 1276 1275 1274 1271 1269 1269 1269 1269 1270 1270 1270 1269 1268 1268 1268 1268 1268 1268 1269 1269 1270 1272 1273 1274 1275 1276 1277 1277 1279 1280 1281 1282 1284 1285 1286 1287 1287 1288 1289 1289 1289 1290 1290 1290 1290 1290 1290 1290 1290 1290 1290 1290 1290 1290 1290 1290 1290 1289 1288 1287 1286 1285 1283 1281 1279 1277 1274 1269 1248 1230 1225 1219 1211 1201 1193 1182 1166 1161 1161 1161 1164 1164 1164 1154 1143 1124 1106 1077 1070 1059 1041 1041 0 0 0 0 0 0 0 0 0 0 0 0 0 0 0 0 0 0 0 0 0 0 0 0 0 0 0 0 0 0
0 0 0 0 0 0 0 0 0 0 0 0 0 0 0 0 0 0 0 0 0 0 0 929 935 946 946 953 959 960 960 960 963 964 975 998 999 1001 1003 1009 1028 1042 1042 1044 1047 1048 1048 1048 1041 1041 1041 1041 1075 1099 1117 1139 1143 1143 1143 1143 1145 1145 1153 1159 1159 1159 1147 1147 1147 1154 1163 1176 1184 1192 1192 1192 1183 1173 1168 1166 1164 1160 1158 1158 1160 1171 1171 1171 1166 1156 1154 1153 1153 1147 1147 1144 1135 1131 1131 1131 1135 1135 1136 1136 1156 1171 1172 1172 1172 1151 1135 1111 1109 1104 1104 1109 1110 1121 1130 1140 0 0 0 0 0 0 0 0 1122 1123 1136 1143 1150 1165 0 0 0 0 0 0 0 0 0 0 0 0 0 0 0 2458 2479 2479 2479 2467 0 0 0 0 0 0 0 0 0 0 0 0 0 0 0 0 0 0 0 2703 2738 2745 2747 2783 2783 2783 2768 2756 2751 2737 2711 2695 2673 2597 0 0 0 0 0 0 1455 1413 1401 1400 1398 1398 1387 1387 1384 1378 1374 1372 1371 1370 1369 1369 1368 1368 1368 1368 1369 1369 1369 1370 1370 1370 1367 1364 1358 1355 1349 1341 1336 1332 1329 1326 1325 1323 1322 1322 1321 1320 1320 1320 1319 1319 1319 1319 1319 1319 1319 1319 1318 1318 1318 1318 1318 1317 1317 1317 1317 1317 1317 1316 1316 1315 1315 1313 1313 1311 1310 1309 1308 1307 1306 1305 1304 1304 1303 1303 1303 1302 1302 1302 1302 1302 1303 1303 1303 1303 1304 1304 1304 1304 1304 1305 1306 1307 1307 1307 1307 1307 1307 1307 1307 1307 1306 1306 1306 1305 1305 1305 1305 1305 1304 1303 1303 1303 1303 1303 1303 1303 1302 1301 1300 1299 1298 1296 1296 1296 1296 1297 1297 1297 1297 1298 1298 1299 1301 1301 1301 1301 1301 1301 1301 1301 1301 1301 1302 1302 1302 1301 1301 1301 1301 1300 1299 1299 1298 1296 1295 1293 1292 1291 1290 1289 1288 1287 1287 1287 1286 1286 1286 1286 1286 1286 1287 1287 1287 1287 1288 1290 1291 1292 1293 1293 1293 1294 1295 1295 1296 1296 1297 1297 1297 1298 1298 1298 1298 1298 1298 1298 1298 1298 1297 1297 1297 1296 1295 1295 1294 1293 1292 1291 1290 1289 1288 1287 1286 1285 1285 1284 1283 1282 1282 1281 1281 1281 1281 1281 1281 1281 1281 1281 1281 1282 1281 1282 1282 1283 1283 1284 1284 1286 1286 1287 1288 1288 1289 1289 1290 1290 1290 1290 1291 1291 1291 1291 1291 1291 1291 1291 1291 1291 1291 1290 1289 1288 1288 1287 1286 1285 1282 1281 1280 1279 1278 1278 1277 1276 1275 1275 1275 1275 1275 1275 1275 1274 1274 1274 1275 1275 1276 1276 1277 1277 1278 1279 1282 1284 1284 1284 1284 1284 1284 1285 1285 1285 1285 1285 1285 1285 1285 1285 1285 1285 1285 1284 1283 1282 1282 1281 1281 1279 1277 1277 1275 1275 1275 1273 1272 1271 1271 1271 1270 1268 1268 1268 1268 1268 1268 1268 1268 1269 1270 1271 1272 1273 1274 1274 1275 1276 1277 1279 1280 1281 1282 1284 1285 1286 1287 1287 1288 1288 1289 1289 1289 1289 1289 1289 1289 1289 1290 1290 1290 1290 1290 1290 1290 1290 1290 1290 1288 1288 1286 1285 1283 1282 1280 1278 1277 1267 1251 1246 1242 1231 1211 1199 1188 1181 1172 1169 1166 1161 1156 1156 1154 1130 1121 1108 1096 1077 1070 1059 1041 1035 0 0 0 0 0 0 0 0 0 0 0 0 0 0 0 0 0 0 0 0 0 0 0 0 0 0 0 0 0 0
0 0 0 0 0 0 0 0 0 0 0 0 0 0 0 0 0 0 0 0 0 0 925 929 935 941 941 953 956 959 960 960 963 964 975 998 998 998 1004 1004 1021 1042 1042 1047 1055 1055 1055 1051 1046 1045 1045 1046 1075 1099 1117 1139 1143 1143 1143 1143 1145 1143 1143 1139 1137 1133 1130 1130 1130 1135 1150 1169 1180 1190 1190 1190 1177 1170 1166 1166 1166 1168 1168 1168 1167 1164 1158 1153 1153 1153 1153 1153 1153 1147 1147 1144 1126 1117 1117 1117 1114 1114 1114 1114 0 0 0 0 0 1123 1112 1099 1094 1093 0 0 0 0 0 0 0 0 0 0 0 0 0 0 1085 1100 1100 1100 1111 0 0 0 0 0 0 0 0 0 0 0 0 0 0 0 0 2430 2449 2449 2449 2427 0 0 0 0 0 0 0 0 0 0 0 0 0 0 0 0 0 0 0 0 0 0 2548 2576 2593 2624 2630 2630 2630 2612 2559 0 0 0 0 0 0 0 0 0 1428 1403 1401 1400 1398 1398 1386 1385 1382 1376 1374 1372 1371 1370 1369 1368 1368 1368 1368 1368 1369 1369 1369 1370 1370 1370 1367 1365 1361 1356 1351 1342 1338 1333 1330 1326 1325 1324 1322 1322 1321 1320 1320 1319 1319 1319 1319 1319 1319 1319 1319 1318 1318 1318 1318 1317 1317 1317 1317 1317 1317 1316 1316 1316 1316 1315 1315 1313 1313 1311 1310 1310 1308 1306 1305 1305 1304 1304 1303 1302 1301 1301 1301 1301 1301 1301 1301 1301 1301 1301 1301 1301 1301 1302 1303 1304 1305 1306 1306 1307 1307 1307 1308 1308 1307 1307 1307 1307 1306 1306 1306 1306 1306 1305 1305 1305 1305 1304 1304 1304 1304 1304 1302 1301 1300 1300 1298 1297 1296 1296 1297 1297 1297 1297 1297 1297 1298 1299 1300 1300 1300 1301 1301 1301 1301 1301 1301 1301 1302 1302 1302 1301 1301 1301 1301 1300 1299 1299 1298 1297 1295 1294 1293 1292 1291 1290 1290 1289 1288 1288 1288 1287 1287 1287 1287 1287 1287 1287 1287 1287 1289 1291 1292 1292 1293 1293 1293 1294 1295 1295 1296 1296 1297 1297 1297 1298 1298 1298 1298 1298 1298 1298 1298 1298 1298 1297 1297 1296 1295 1295 1294 1294 1294 1292 1290 1289 1289 1288 1286 1286 1285 1284 1283 1282 1282 1282 1282 1282 1282 1282 1282 1282 1282 1282 1282 1282 1282 1282 1283 1283 1283 1284 1284 1286 1286 1287 1288 1288 1289 1289 1290 1290 1290 1291 1291 1291 1291 1291 1292 1292 1292 1292 1292 1291 1291 1290 1289 1288 1288 1287 1286 1285 1282 1281 1281 1279 1278 1278 1277 1276 1276 1276 1275 1275 1275 1275 1275 1274 1274 1274 1274 1275 1275 1276 1276 1276 1276 1278 1282 1282 1283 1283 1283 1284 1284 1285 1285 1285 1285 1285 1285 1285 1285 1286 1286 1286 1285 1285 1284 1284 1283 1282 1282 1280 1279 1279 1278 1276 1276 1275 1272 1271 1271 1271 1270 1268 1268 1268 1268 1268 1267 1267 1267 1268 1269 1269 1271 1271 1272 1273 1273 1275 1276 1277 1278 1280 1282 1282 1284 1285 1286 1286 1287 1287 1288 1288 1289 1289 1289 1289 1289 1289 1290 1290 1290 1290 1290 1290 1290 1290 1290 1290 1288 1288 1287 1285 1283 1282 1280 1278 1277 1267 1251 1246 1242 1231 1211 1197 1184 1179 1172 1169 1166 1161 1156 1142 1129 1126 1118 1108 1093 1077 1071 1059 1041 1035 0 0 0 0 0 0 0 0 0 0 0 0 0 0 0 0 0 0 0 0 0 0 0 0 0 0 0 0 0 0
0 0 0 0 0 0 0 0 0 0 0 0 0 0 0 0 0 0 0 0 0 0 912 920 921 924 933 945 947 954 960 960 963 964 975 999 999 999 1004 1004 1016 1042 1042 1047 1055 1055 1055 1051 1050 1045 1045 1050 1076 1089 1115 1120 1125 1128 1129 1133 1131 1131 1131 1128 1124 1120 1117 1117 1117 1122 1131 1148 1160 1172 1172 1172 1172 1166 1166 1166 1166 1168 1168 1168 1158 1143 0 0 0 0 0 0 1125 1125 1126 1126 1126 1111 1093 1092 1092 1087 1084 1084 0 0 0 0 0 0 0 0 0 0 0 0 0 0 0 0 0 0 0 986 986 986 1007 1029 1045 1064 1065 1067 0 0 0 0 0 0 0 0 0 0 0 0 0 0 0 0 2367 2407 2414 2414 2414 2393 0 0 0 0 0 0 0 0 0 0 0 0 0 0 0 0 0 0 2382 2382 2382 0 0 0 0 0 0 0 0 0 0 0 0 0 0 0 0 0 0 0 1424 1410 1402 1400 1400 1398 1386 1386 1382 1376 1374 1372 1371 1370 1368 1368 1368 1368 1368 1368 1369 1369 1369 1369 1369 1369 1369 1368 1364 1357 1353 1345 1338 1334 1331 1330 1327 1324 1323 1322 1321 1321 1320 1319 1318 1318 1318 1318 1318 1318 1318 1318 1317 1317 1317 1317 1317 1317 1317 1317 1316 1316 1316 1316 1315 1315 1314 1313 1313 1311 1311 1310 1308 1306 1305 1304 1303 1303 1302 1301 1301 1300 1300 1300 1300 1299 1299 1299 1300 1300 1300 1300 1300 1301 1303 1303 1305 1306 1306 1306 1307 1307 1308 1308 1307 1307 1307 1307 1307 1307 1307 1307 1307 1307 1306 1306 1306 1306 1305 1305 1305 1304 1303 1301 1301 1300 1298 1298 1297 1297 1297 1297 1297 1297 1297 1297 1297 1299 1299 1299 1300 1300 1300 1300 1300 1300 1301 1301 1301 1301 1301 1301 1301 1301 1301 1300 1300 1299 1298 1297 1296 1296 1296 1293 1293 1292 1291 1291 1290 1289 1289 1288 1288 1288 1288 1288 1288 1288 1288 1288 1290 1292 1292 1292 1293 1293 1294 1294 1295 1295 1296 1296 1296 1297 1297 1297 1297 1297 1297 1298 1298 1298 1298 1298 1298 1297 1297 1296 1296 1295 1295 1294 1294 1292 1290 1290 1289 1288 1287 1287 1285 1284 1283 1283 1283 1283 1283 1283 1283 1283 1283 1283 1282 1282 1282 1282 1283 1283 1283 1284 1284 1284 1285 1286 1287 1288 1288 1289 1289 1290 1290 1291 1291 1291 1291 1291 1291 1292 1292 1292 1292 1292 1292 1292 1291 1291 1290 1289 1288 1287 1286 1285 1283 1282 1281 1280 1279 1278 1277 1277 1276 1276 1276 1276 1275 1275 1275 1274 1274 1274 1274 1275 1275 1275 1275 1275 1276 1278 1281 1282 1282 1283 1283 1284 1284 1285 1285 1285 1285 1286 1286 1286 1286 1286 1286 1286 1286 1286 1286 1285 1284 1284 1283 1282 1281 1281 1280 1279 1277 1275 1272 1272 1272 1271 1270 1268 1268 1268 1268 1267 1267 1267 1267 1267 1267 1268 1268 1269 1270 1271 1272 1274 1275 1276 1277 1279 1279 1280 1283 1284 1284 1285 1286 1286 1287 1287 1288 1288 1288 1289 1289 1289 1289 1289 1289 1289 1289 1289 1289 1289 1289 1289 1288 1288 1287 1285 1283 1282 1280 1278 1275 1264 1251 1246 1242 1231 1211 1192 1180 1177 1172 1169 1166 1156 1146 1127 1126 1124 1118 1108 1093 1085 1080 1079 1068 1035 1012 0 0 0 0 0 0 0 0 0 0 0 0 0 0 0 0 0 0 0 0 0 0 0 0 0 0 0 0 0
0 0 0 0 0 0 0 0 0 0 0 0 0 0 0 0 0 0 0 0 0 0 899 899 902 905 913 926 937 952 956 958 960 961 975 999 999 999 1004 1004 1011 1033 1038 1043 1055 1055 1055 1050 1047 1045 1045 1050 1076 1088 1109 1113 1114 1114 1114 1115 1123 1126 1126 1126 1120 1118 1108 1095 1095 1095 1105 1121 1149 1157 1161 1161 1161 1160 1160 1160 1166 1168 1168 1168 1132 1098 0 0 0 0 0 0 1080 1081 1081 1081 1081 1069 1063 1062 1057 1057 1057 1042 0 0 0 0 0 0 0 0 0 0 0 0 0 0 0 0 0 0 962 962 962 962 993 1008 1016 1028 1029 1040 1057 0 0 0 0 0 0 0 0 0 0 0 0 0 0 0 2391 2391 2391 2391 2376 2343 0 0 0 0 0 0 0 0 0 0 0 0 0 0 0 0 0 2364 2382 2382 2382 2356 0 0 0 0 0 0 0 0 0 0 0 0 0 0 0 0 0 0 1424 1410 1408 1402 1402 1395 1386 1386 1382 1376 1375 1373 1371 1370 1368 1368 1368 1368 1368 1368 1369 1369 1369 1369 1369 1369 1369 1369 1364 1358 1353 1348 1339 1335 1331 1331 1328 1326 1323 1323 1321 1321 1320 1319 1318 1318 1318 1318 1318 1317 1317 1317 1317 1317 1317 1317 1317 1317 1316 1316 1316 1316 1316 1316 1315 1315 1315 1313 1313 1312 1311 1311 1308 1306 1305 1303 1303 1302 1301 1301 1300 1299 1298 1298 1298 1298 1298 1299 1299 1299 1299 1300 1300 1301 1302 1303 1303 1306 1306 1307 1307 1307 1307 1307 1307 1307 1308 1307 1308 1308 1308 1307 1307 1307 1307 1307 1307 1307 1306 1306 1305 1304 1303 1302 1301 1300 1300 1298 1298 1297 1297 1297 1297 1297 1297 1297 1297 1298 1299 1299 1299 1300 1300 1300 1300 1300 1300 1300 1300 1300 1301 1301 1301 1301 1301 1301 1301 1300 1300 1298 1297 1297 1296 1295 1293 1293 1292 1291 1291 1291 1290 1289 1289 1289 1288 1288 1288 1288 1288 1289 1290 1292 1293 1293 1293 1294 1294 1295 1295 1295 1296 1296 1296 1296 1297 1297 1297 1297 1297 1298 1298 1298 1298 1298 1298 1297 1297 1297 1297 1296 1295 1295 1294 1293 1292 1290 1290 1289 1287 1287 1285 1284 1284 1284 1283 1283 1283 1283 1283 1283 1283 1283 1283 1283 1283 1283 1284 1284 1284 1284 1284 1285 1286 1286 1287 1288 1288 1289 1290 1291 1291 1291 1291 1291 1291 1291 1291 1292 1292 1292 1292 1292 1292 1292 1292 1291 1290 1289 1289 1287 1286 1285 1284 1282 1281 1280 1279 1278 1278 1277 1276 1276 1276 1276 1276 1275 1275 1274 1274 1274 1274 1274 1275 1275 1275 1275 1276 1278 1280 1281 1282 1282 1282 1284 1284 1285 1285 1285 1285 1286 1286 1287 1287 1287 1287 1287 1287 1287 1287 1286 1286 1285 1285 1284 1284 1283 1282 1282 1280 1278 1276 1274 1273 1271 1271 1269 1269 1268 1268 1267 1267 1266 1265 1265 1265 1266 1267 1269 1270 1270 1271 1273 1274 1274 1277 1277 1277 1279 1281 1283 1283 1284 1285 1286 1286 1287 1287 1287 1287 1288 1288 1288 1288 1288 1288 1288 1289 1289 1289 1289 1289 1289 1288 1288 1287 1285 1283 1282 1280 1277 1275 1264 1248 1237 1233 1222 1206 1192 1180 1177 1172 1164 1155 1141 1129 1127 1126 1121 1116 1105 1093 1093 1091 1089 1075 1035 1014 0 0 0 0 0 0 0 0 0 0 0 0 0 0 0 0 0 0 0 0 0 0 0 0 0 0 0 0 0
