849 849 871 873 897 930 967 999 1026 1062 1097 1129 1160 1195 1231 1255 1258 1273 1287 1302 1316 1328 1343 1343 0 0 0 0 0 0 0 0 0 0 0 0 0 0 892 896 916 939 940 950 952 973 976 999 1028 1047 1060 1071 1077 1082 1092 1092 1092 1092 1089 1069 1052 1042 1042 1042 1044 1052 1058 1061 1065 1069 1074 1077 1078 1080 1083 1086 1088 1088 1088 1088 1090 1093 1098 1104 1111 1114 1117 1119 1121 1123 1123 1124 1124 1125 1125 1125 1125 1125 1125 1125 1124 1124 1124 1124 1123 1123 1123 1122 1122 1121 1121 1121 1121 1113 1108 1101 0 0 0 881 879 874 872 872 872 876 880 886 0 0 0 0 0 0 0 0 1051 1071 1081 1094 1096 1098 1098 1098 1099 1098 1097 1096 1090 0 0 0 931 921 909 899 899 899 900 900 900 896 891 891 891 894 899 902 903 904 906 909 910 910 913 920 933 940 943 968 990 1004 1037 1073 1084 1086 1090 1091 1091 1092 1093 1093 1093 1090 1088 1084 1082 1081 1080 1079 0 0 0 0 0 0 1013 997 997 990 989 988 988 988 992 1010 1032 1049 1064 1075 1078 1079 1079 1080 1081 1082 1084 1085 1086 1087 1087 1087 1087 1088 1088 1087 1087 1087 1087 1087 1086 1085 1085 1084 1083 1082 1081 1080 1077 1076 1072 1069 1067 1060 1047 1034 1023 1020 1020 1017 1017 1015 1015 1015 1018 1028 1035 1042 1049 1050 1050 1054 1057 1059 1059 1059 1061 1063 1063 1063 1063 1063 1062 1062 1062 1061 1060 1059 1058 1056 1055 1050 1043 1036 1030 1027 1025 1023 1023 1023 1023 1019 1016 1012 1010 1010 1007 1001 995 992 992 991 990 988 988 988 991 992 992 992 992 994 997 1001 1003 1003 1010 1023 1031 1037 1039 1042 1043 1043 1043 1043 1043 1043 1043 1042 1040 1038 1035 1032 1030 1030 1027 1027 1024 1021 1017 1003 1000 999 997 997 997 997 999 1000 1001 1005 1008 1008 1008 1010 1013 1017 1021 1025 1027 1027 1029 1029 1029 1030 1030 1030 1030 1030 1030 1029 1029 1029 1029 1029 1028 1028 1028 1028 1028 1027 1027 1027 1026 1026 1025 1025 1023 1021 1020 1019 1017 1015 1014 1012 1010 1007 1004 1001 997 988 978 976 976 976 976 977 978 984 984 985 986 989 992 993 993 993 995 997 998 998 999 999 1002 1003 1004 1005 1005 1005 1006 1005 1005 1005 1005 1003 1002 1000 998 995 991 986 981 977 975 974 972 968 965 963 962 961 960 959 956 952 949 945 942 939 937 934 933 933 932 932 932 932 932 934 935 937 939 942 945 948 951 952 953 953 957 958 964 972 979 985 985 985 986 988 990 990 990 991 991 991 991 991 990 989 989 989 988 988 987 986 986 986 986 985 985 985 985 984 984 983 982 981 981 979 978 976 973 972 969 969 962 945 917 914 889 887 887 889 0 0 0 0 0 956 927 893 880 880 880 896 896 0 0 0 0 0 642 642 653 653 653 648 0 0 593 589 589 589 628 637 664 664 664 0 0 0 0 536 550 589 589 0 0 0 0 0 0 0 0 0 0 0 0 0 0 0 0 0 0 0 0 0 0 0 0 0 0 0 482 482 476 476 473 467 467 466 0 0 0 0 0 0 0 0 0 0 0 0 0 0 0 0 0 0
841 841 861 864 887 0 0 993 1026 1062 1097 1129 1160 1195 1231 1255 1258 1273 1287 1292 1300 1309 0 0 0 0 0 0 0 0 0 0 0 0 0 0 877 877 890 896 916 939 960 984 1005 1010 1012 1023 1040 1059 1064 1071 1077 1082 1087 1087 1087 1086 1082 1067 1047 1047 1047 1049 1051 1056 1061 1066 1071 1074 1077 1078 1080 1083 1085 1087 1089 1089 1089 1090 1091 1095 1098 1102 1107 1112 1114 1117 1119 1120 1122 1122 1123 1123 1124 1124 1124 1124 1124 1124 1123 1123 1123 1123 1122 1122 1122 1121 1121 1121 1120 1120 1119 1113 1109 1102 0 0 0 0 883 878 877 877 878 880 892 909 0 0 0 0 0 0 1060 1074 1082 1093 1103 1103 1103 1103 1101 1101 1099 1099 1099 1098 1097 1079 0 0 936 921 909 899 899 899 900 900 900 896 891 891 891 894 898 902 903 905 908 908 909 910 911 920 929 936 948 965 983 1004 1031 1060 1073 1081 1087 1089 1090 1090 1091 1091 1091 1089 1085 1081 1075 1067 1060 1054 0 0 0 0 975 969 969 969 976 978 978 978 978 978 987 1003 1028 1044 1061 1073 1076 1076 1077 1079 1080 1081 1082 1084 1085 1085 1086 1086 1086 1087 1087 1087 1087 1087 1087 1086 1085 1084 1084 1083 1082 1082 1079 1079 1077 1075 1072 1069 1068 1063 1051 1034 1023 1017 1017 1017 1018 1020 1026 1030 1038 1046 1046 1047 1054 1054 1056 1058 1059 1061 1063 1064 1064 1064 1064 1064 1064 1063 1063 1062 1062 1062 1061 1060 1058 1056 1055 1050 1046 1046 1036 1027 1025 1022 1020 1019 1018 1016 1012 1009 1008 1005 1002 997 995 992 991 990 990 990 990 991 992 992 992 993 993 996 999 1001 1003 1003 1010 1019 1027 1033 1037 1039 1041 1041 1041 1041 1041 1040 1039 1037 1036 1035 1030 1026 1024 1023 1022 1010 999 988 987 987 987 989 990 990 992 995 997 1000 1001 1004 1008 1008 1008 1010 1010 1016 1019 1022 1026 1027 1028 1029 1029 1029 1029 1029 1029 1029 1029 1029 1029 1028 1028 1027 1027 1027 1027 1027 1026 1026 1026 1026 1025 1024 1024 1023 1022 1021 1020 1019 1016 1015 1014 1012 1010 1007 1004 1002 998 993 986 986 986 986 988 988 988 994 994 994 993 993 993 993 997 998 999 1000 1000 1000 1001 1002 1002 1004 1005 1005 1006 1006 1006 1006 1006 1005 1005 1003 1002 1000 999 995 992 991 983 979 976 971 964 960 960 960 960 960 960 959 956 952 948 943 939 936 934 933 932 932 932 931 932 932 932 934 935 937 938 940 944 946 949 950 951 952 954 957 960 963 975 981 983 983 985 986 988 989 990 990 990 990 990 989 989 988 988 987 987 987 986 985 985 985 984 984 984 983 983 983 983 981 980 980 979 978 978 976 975 973 973 969 962 950 926 924 906 905 887 887 0 0 0 0 930 930 907 893 880 880 880 896 896 0 0 0 0 0 653 653 658 660 660 660 0 595 595 593 593 595 597 607 632 635 635 0 0 0 0 0 0 0 0 0 0 0 0 0 0 0 0 0 0 0 0 0 0 0 0 0 0 0 0 0 0 0 0 0 0 0 0 470 476 476 470 467 467 0 0 0 0 0 0 0 0 0 0 0 0 0 0 0 0 0 0 0
835 835 858 859 879 0 0 988 1023 1062 1096 1129 1160 1184 1208 1229 1232 1249 1256 0 0 0 0 0 0 0 0 0 0 0 0 0 0 0 838 860 872 877 890 907 925 948 975 1009 1033 1037 1038 1041 1045 1059 1064 1071 1077 1081 1082 1082 1082 1073 1061 1053 1047 1047 1047 1057 1057 1061 1066 1072 1075 1076 1079 1081 1084 1087 1089 1089 1089 1089 1089 1091 1094 1096 1098 1100 1105 1109 1111 1114 1116 1119 1119 1120 1121 1122 1122 1122 1122 1122 1122 1122 1122 1122 1122 1122 1121 1121 1121 1121 1121 1120 1120 1120 1119 1112 1109 1102 1082 0 0 0 0 900 900 900 900 0 0 0 0 0 0 1050 1062 1073 1086 1098 1102 1103 1104 1105 1105 1105 1103 1101 1099 1099 1099 1098 1097 1081 0 0 941 922 909 900 900 900 900 900 900 896 893 893 893 894 898 901 903 905 908 908 908 909 909 915 924 935 948 965 980 997 1029 1058 1072 1079 1084 1086 1088 1088 1088 1088 1087 1083 1081 1078 1071 1057 1041 0 0 969 966 961 960 961 961 961 965 969 969 970 970 974 982 991 1017 1038 1050 1063 1072 1073 1076 1076 1078 1080 1081 1082 1084 1084 1085 1085 1085 1085 1085 1085 1085 1085 1085 1085 1084 1083 1083 1082 1082 1080 1078 1076 1075 1074 1072 1071 1068 1065 1057 1043 1023 1017 1017 1017 1025 1029 1032 1037 1042 1047 1050 1050 1055 1058 1060 1061 1061 1062 1064 1064 1064 1064 1064 1064 1064 1063 1063 1063 1062 1062 1061 1060 1058 1056 1055 1052 1049 1048 1038 1031 1025 1022 1020 1017 1015 1012 1009 1007 1006 1004 1002 997 995 992 991 990 990 990 990 991 992 992 992 993 993 997 999 1002 1004 1006 1010 1017 1024 1028 1033 1034 1038 1039 1039 1039 1037 1036 1034 1032 1032 1030 1024 1020 1013 1013 1012 1000 994 988 985 983 979 976 976 976 983 989 997 999 1000 1004 1006 1006 1006 1006 1006 1009 1015 1019 1022 1025 1026 1027 1028 1028 1028 1028 1028 1028 1028 1028 1027 1027 1027 1026 1026 1026 1025 1025 1025 1025 1025 1024 1024 1023 1023 1022 1022 1020 1018 1017 1016 1015 1014 1012 1010 1007 1005 1003 1001 996 992 992 991 991 992 992 996 996 996 996 995 995 995 997 1001 1001 1001 1002 1002 1002 1002 1003 1003 1005 1005 1005 1006 1006 1006 1006 1006 1005 1005 1003 1002 1000 999 996 993 991 987 980 977 971 964 960 960 958 958 959 959 958 956 952 947 941 937 934 932 932 932 932 932 932 932 932 932 933 935 937 938 940 942 945 947 948 949 951 952 957 957 960 972 977 978 982 984 986 987 988 988 988 989 989 989 989 988 987 987 986 986 985 985 984 984 983 983 983 982 982 982 982 981 980 979 978 977 977 977 976 975 975 973 969 965 953 929 928 921 910 885 870 0 0 0 0 895 895 895 893 880 880 880 896 896 0 0 0 0 0 0 664 664 660 660 660 0 601 599 595 595 595 597 607 619 635 635 635 0 0 0 0 0 0 0 0 0 0 0 0 0 0 0 0 0 0 0 0 0 0 0 0 0 0 0 0 0 0 0 0 0 0 0 0 0 0 0 0 0 0 0 0 0 0 0 0 0 0 0 0 0 0 0 0 0 0 0 0
824 824 853 854 878 0 0 988 1022 1054 1086 1116 1142 1160 1180 1182 1204 1219 0 0 0 0 0 0 0 0 0 0 0 0 0 0 808 818 838 860 872 892 907 917 929 949 976 1009 1033 1038 1038 1041 1045 1059 1064 1066 1069 1073 1073 1073 1068 1060 1050 1050 1050 1050 1054 1057 1058 1063 1070 1074 1076 1076 1079 1083 1086 1089 1090 1091 1091 1091 1092 1092 1095 1096 1098 1099 1103 1108 1110 1112 1114 1116 1117 1118 1119 1120 1120 1120 1120 1121 1121 1120 1120 1120 1120 1120 1120 1120 1120 1120 1119 1119 1118 1118 1116 1112 1108 1102 1085 0 0 0 0 0 0 0 0 0 0 0 1026 1050 1069 1078 1086 1098 1103 1104 1104 1104 1104 1105 1106 1106 1105 1105 1103 1101 1100 1099 1097 1081 0 0 0 922 911 904 901 901 901 900 898 896 893 893 893 894 897 900 902 905 908 908 908 909 909 915 924 935 948 965 980 997 1027 1054 1071 1077 1078 1081 1081 1081 1076 1076 1075 1072 1067 1061 0 0 0 0 948 948 948 957 957 957 957 957 959 960 961 961 965 973 981 986 1001 1028 1047 1061 1070 1073 1073 1075 1077 1079 1080 1082 1083 1083 1084 1084 1084 1084 1084 1085 1085 1085 1084 1083 1083 1083 1082 1081 1080 1079 1078 1076 1074 1073 1071 1070 1068 1065 1059 1048 1023 1017 1017 1017 1026 1033 1036 1039 1043 1049 1052 1054 1056 1058 1061 1062 1062 1063 1064 1065 1065 1065 1064 1064 1064 1064 1063 1063 1062 1062 1061 1060 1058 1056 1055 1052 1052 1048 1040 1032 1029 1025 1020 1017 1013 1011 1009 1007 1005 1004 1002 998 997 994 991 990 990 990 990 991 992 992 992 993 995 998 999 1002 1004 1006 1010 1017 1021 1028 1032 1033 1035 1035 1035 1035 1035 1035 1033 1029 1024 1019 1014 1006 1002 1002 1001 997 992 988 985 983 979 969 969 969 975 983 990 993 996 999 1001 1001 1001 998 998 998 1008 1016 1020 1023 1025 1026 1026 1026 1026 1027 1027 1027 1027 1027 1026 1026 1026 1025 1025 1025 1024 1024 1024 1024 1023 1023 1022 1022 1021 1021 1020 1019 1018 1016 1015 1013 1012 1010 1008 1007 1005 1003 1001 998 992 992 992 994 994 994 998 998 998 999 999 999 999 1000 1003 1003 1003 1003 1003 1003 1004 1004 1005 1005 1005 1005 1005 1005 1005 1005 1005 1004 1004 1003 1001 1000 999 996 993 991 987 985 981 971 964 960 957 957 957 956 955 955 952 951 946 941 937 934 932 931 931 931 931 931 932 932 932 933 935 937 938 940 942 944 946 947 948 948 952 956 957 960 971 977 977 981 983 984 985 986 987 987 987 987 987 987 987 986 986 985 984 984 983 983 982 982 981 981 981 980 980 980 979 979 978 978 977 977 976 976 975 975 973 969 965 957 948 945 930 923 899 0 0 0 0 854 870 889 889 889 880 880 880 877 877 869 0 0 0 0 0 671 671 661 660 660 0 607 606 600 596 596 596 597 613 622 622 622 0 0 0 0 0 0 0 0 0 0 0 0 0 0 0 0 0 0 0 0 0 0 0 0 0 0 0 0 0 0 0 0 0 0 0 0 0 0 0 0 0 0 0 0 0 0 0 0 0 0 0 0 0 0 0 0 0 0 0 0
822 822 842 843 868 0 0 0 1018 1048 1075 1102 1121 1140 0 0 0 0 0 0 0 0 0 0 0 0 0 0 0 781 794 807 808 818 838 863 883 905 920 931 937 950 978 1009 1033 1038 1038 1041 1045 1049 1054 1058 1061 1068 1068 1068 1058 1053 1052 1051 1051 1052 1054 1059 1061 1067 1073 1077 1078 1079 1082 1087 1089 1090 1091 1093 1094 1094 1094 1094 1095 1096 1098 1098 1102 1105 1107 1110 1113 1115 1116 1117 1118 1118 1118 1118 1119 1119 1119 1119 1119 1119 1119 1119 1119 1119 1119 1118 1118 1117 1115 1113 1111 1110 1110 1104 1087 1063 0 0 0 0 0 0 0 0 0 0 1064 1080 1090 1093 1099 1105 1105 1105 1104 1104 1104 1105 1105 1105 1105 1105 1103 1101 1101 1101 1094 1081 1061 0 0 924 915 907 902 901 901 900 898 895 893 893 893 893 897 900 901 904 906 906 906 907 908 915 924 935 948 961 976 997 1013 1037 1060 1070 1075 1075 1075 1075 1069 1066 1061 1046 0 0 0 0 0 929 929 929 939 948 951 951 952 953 953 954 954 955 962 972 978 982 997 1025 1045 1060 1069 1072 1072 1074 1075 1077 1079 1080 1081 1082 1082 1082 1083 1083 1084 1084 1084 1083 1083 1083 1081 1081 1080 1079 1079 1077 1076 1075 1074 1072 1071 1070 1068 1066 1060 1049 1028 1022 1022 1022 1034 1041 1044 1045 1047 1050 1054 1056 1058 1060 1062 1062 1062 1063 1064 1065 1065 1065 1064 1064 1064 1064 1063 1063 1062 1062 1061 1060 1058 1056 1055 1053 1052 1048 1040 1035 1032 1029 1023 1017 1013 1011 1008 1007 1005 1003 1002 1000 999 996 993 991 991 991 991 991 992 992 993 994 1000 1001 1002 1002 1005 1008 1012 1017 1020 1026 1028 1029 1030 1030 1030 1030 1030 1030 1030 1023 1014 1006 1004 1001 1000 999 999 993 986 985 985 982 979 969 969 969 972 977 980 983 985 989 994 994 994 994 994 998 1002 1012 1019 1021 1024 1026 1026 1026 1026 1026 1026 1026 1025 1025 1025 1025 1025 1024 1024 1023 1023 1023 1022 1022 1022 1021 1021 1021 1020 1019 1019 1018 1016 1015 1015 1013 1011 1009 1008 1006 1005 1003 1001 1001 999 997 996 995 995 997 998 999 1000 1000 1000 1001 1001 1003 1003 1003 1003 1003 1003 1004 1004 1004 1005 1005 1005 1005 1005 1005 1005 1004 1004 1004 1003 1002 1001 1000 998 996 993 991 988 985 981 974 968 964 958 957 956 953 951 949 948 946 944 940 937 934 932 930 930 930 931 932 932 933 933 934 935 937 938 940 942 944 946 947 947 948 952 956 957 961 971 977 977 980 982 984 984 986 986 986 986 986 986 986 986 986 985 984 983 983 982 981 981 980 980 980 980 979 979 979 978 978 978 978 977 976 975 975 975 975 973 969 965 961 955 950 942 935 0 0 0 0 826 834 855 877 880 880 880 880 878 869 860 841 833 809 0 0 0 0 671 665 657 0 633 610 610 610 609 602 602 602 608 621 621 0 0 0 0 0 0 0 0 0 0 0 0 0 0 0 0 0 0 0 0 0 0 0 0 0 0 0 0 0 0 0 0 0 0 0 0 0 0 0 0 0 0 0 0 0 0 0 0 0 0 0 0 0 0 0 0 0 0 0 0 0
815 815 832 832 860 0 0 0 0 0 0 0 0 0 0 0 0 0 0 0 0 0 0 0 0 0 766 772 773 781 794 808 827 845 863 878 896 914 929 938 945 955 980 1008 1028 1030 1035 1038 1041 1041 1048 1058 1061 1064 1064 1064 1057 1051 1051 1051 1052 1053 1057 1065 1066 1070 1075 1080 1082 1083 1087 1089 1090 1092 1093 1093 1094 1094 1094 1095 1095 1096 1097 1098 1101 1104 1106 1109 1111 1113 1114 1115 1116 1116 1117 1117 1117 1117 1118 1118 1118 1118 1118 1118 1118 1117 1117 1117 1117 1116 1115 1113 1111 1110 1109 1104 1092 1076 0 0 0 0 0 0 0 0 1071 1081 1087 1090 1093 1098 1103 1105 1105 1105 1104 1104 1104 1105 1105 1105 1105 1105 1103 1101 1101 1100 1092 1083 1062 0 0 929 917 910 903 902 901 900 898 895 892 892 892 892 897 899 900 900 901 902 904 906 909 916 925 935 949 961 976 997 1013 1022 1031 1057 1071 1071 1071 1070 1063 1051 0 0 0 0 948 939 935 929 929 929 933 941 943 944 945 948 948 950 950 950 959 967 970 970 983 1023 1042 1059 1068 1070 1071 1072 1074 1076 1078 1079 1080 1080 1081 1081 1081 1081 1082 1082 1082 1082 1081 1080 1080 1079 1078 1078 1077 1076 1076 1074 1072 1071 1071 1070 1068 1066 1060 1051 1038 1038 1038 1042 1045 1045 1050 1050 1053 1055 1057 1058 1059 1061 1062 1062 1062 1063 1064 1065 1065 1065 1064 1064 1064 1063 1063 1062 1062 1062 1060 1059 1058 1056 1054 1053 1052 1047 1042 1038 1033 1031 1026 1019 1013 1011 1008 1006 1004 1003 1002 1001 999 997 994 992 991 991 991 991 992 992 993 997 1002 1006 1006 1007 1007 1009 1012 1017 1020 1021 1024 1028 1028 1028 1028 1027 1024 1021 1018 1010 989 989 989 991 997 997 997 989 983 982 981 981 980 969 969 969 971 975 976 979 979 979 983 985 987 988 991 992 992 999 1014 1020 1021 1022 1024 1024 1024 1024 1024 1024 1025 1025 1025 1025 1024 1024 1023 1023 1023 1022 1022 1021 1021 1021 1020 1019 1018 1018 1017 1016 1015 1014 1013 1012 1010 1008 1007 1005 1003 1002 1001 1000 1000 997 997 997 998 998 998 1001 1001 1001 1001 1001 1002 1003 1004 1004 1004 1004 1004 1004 1004 1004 1004 1005 1005 1005 1005 1005 1004 1004 1003 1003 1002 1002 1001 999 998 996 993 991 989 986 984 980 973 966 958 957 954 952 949 946 946 944 942 940 938 935 932 930 930 930 931 933 933 933 933 935 937 938 938 941 942 944 945 947 947 948 952 956 959 965 971 976 977 979 981 982 984 984 984 985 985 985 985 985 984 984 984 983 982 982 981 981 980 979 979 979 978 977 977 977 977 977 977 977 976 975 975 975 973 973 972 969 965 963 960 959 947 935 0 0 0 0 822 822 836 856 867 867 874 877 867 867 860 841 833 827 824 0 0 0 0 0 0 0 632 615 615 615 615 615 597 597 597 0 0 0 0 0 0 0 0 0 0 0 0 0 0 0 0 0 0 0 0 0 0 0 0 0 0 0 0 0 0 0 0 0 0 0 0 0 0 0 0 0 0 0 0 0 0 0 0 0 0 0 0 0 0 0 0 0 0 0 0 0 0 0
812 812 825 825 848 0 0 0 0 0 0 0 0 0 0 0 0 0 0 0 0 0 0 739 739 751 760 772 773 781 794 815 838 857 875 891 906 922 933 938 949 966 984 1004 1019 1022 1027 1029 1031 1040 1048 1058 1061 1061 1061 1059 1055 1050 1050 1050 1052 1053 1060 1066 1068 1070 1075 1080 1082 1085 1087 1089 1091 1092 1093 1093 1094 1095 1095 1095 1095 1096 1096 1097 1099 1103 1105 1108 1110 1111 1112 1114 1114 1115 1115 1116 1116 1116 1116 1117 1117 1117 1117 1117 1117 1117 1116 1116 1116 1116 1114 1112 1111 1109 1109 1108 1099 1089 1080 1069 1069 1069 1069 1069 1075 1081 1086 1090 1096 1101 1102 1103 1103 1105 1105 1105 1104 1104 1104 1104 1104 1104 1104 1102 1101 1101 1101 1098 1091 1083 1065 0 0 0 924 912 906 906 905 905 900 895 892 890 890 890 894 899 900 900 901 902 904 907 916 924 929 935 949 961 976 997 1013 1022 1031 1048 1058 1058 1058 1052 1032 1001 0 0 0 937 932 931 930 929 927 927 927 933 936 938 940 944 945 945 947 947 957 965 967 969 981 1011 1030 1051 1064 1067 1068 1071 1072 1074 1076 1077 1079 1079 1079 1080 1080 1080 1080 1080 1080 1080 1080 1079 1079 1078 1077 1077 1076 1076 1074 1073 1072 1070 1070 1069 1068 1065 1059 1050 1048 1048 1048 1048 1048 1051 1055 1056 1056 1057 1057 1058 1059 1061 1062 1062 1062 1063 1064 1064 1064 1064 1064 1063 1063 1063 1063 1062 1062 1061 1060 1059 1057 1056 1053 1052 1050 1047 1043 1038 1033 1031 1026 1021 1016 1012 1009 1006 1004 1004 1002 1001 999 998 997 995 994 993 993 993 996 998 999 1001 1004 1007 1009 1010 1011 1011 1014 1017 1020 1021 1024 1027 1028 1028 1028 1025 1022 1010 1002 996 988 986 986 986 992 992 992 988 983 981 980 979 979 976 970 970 970 975 975 975 976 976 976 980 982 985 986 990 991 993 1006 1016 1018 1019 1021 1022 1022 1022 1023 1023 1023 1023 1023 1023 1023 1022 1022 1022 1021 1021 1020 1020 1019 1019 1018 1018 1016 1016 1015 1014 1013 1012 1011 1009 1007 1006 1003 1001 1001 1001 1000 1000 1000 997 997 997 998 998 999 1000 1001 1001 1001 1002 1003 1003 1004 1004 1004 1004 1004 1004 1004 1004 1004 1004 1004 1004 1004 1004 1003 1003 1003 1002 1001 1000 999 998 997 996 994 991 990 987 984 982 974 966 960 957 953 951 949 946 946 944 942 940 938 936 934 932 931 931 931 933 933 933 935 936 938 938 939 941 943 944 945 947 947 953 959 963 966 971 975 977 977 978 980 982 983 984 984 984 984 984 984 983 983 983 983 982 982 981 980 980 979 978 978 978 977 977 976 976 976 976 976 976 976 975 973 973 972 971 971 970 965 963 961 959 957 950 0 0 0 0 822 822 822 839 853 857 860 867 867 867 860 841 841 841 858 858 0 0 0 0 0 0 625 615 615 615 615 615 599 0 0 0 0 0 0 0 0 0 0 0 0 0 0 0 0 0 0 0 0 0 0 0 0 0 0 0 0 0 0 0 0 0 0 0 0 0 0 0 0 0 0 0 0 0 0 0 0 0 0 0 0 0 0 0 0 0 0 0 0 0 0 0 0 0
812 812 816 820 836 0 0 0 0 0 0 0 0 0 0 0 0 0 0 0 0 0 718 730 739 751 760 773 786 788 804 822 841 858 876 897 918 931 933 938 950 967 987 1004 1015 1018 1022 1026 1031 1040 1048 1056 1063 1063 1063 1058 1053 1044 1044 1044 1050 1052 1060 1066 1068 1070 1075 1080 1082 1085 1087 1089 1091 1092 1093 1094 1095 1095 1095 1095 1095 1095 1096 1097 1098 1101 1104 1105 1108 1109 1111 1112 1113 1114 1114 1114 1115 1115 1115 1115 1115 1115 1115 1115 1115 1115 1115 1115 1114 1114 1113 1111 1110 1109 1109 1108 1101 1091 1089 1089 1089 1092 1092 1092 1092 1093 1094 1098 1103 1103 1103 1104 1104 1105 1105 1105 1105 1104 1104 1104 1104 1103 1103 1102 1101 1100 1099 1096 1091 1083 1079 0 0 0 924 914 906 906 906 905 905 899 892 890 890 890 894 899 900 900 901 902 904 915 922 933 940 954 966 977 993 1006 1015 1022 1031 1038 1038 1038 0 0 0 959 955 950 940 931 931 931 930 930 925 925 925 929 934 935 937 943 943 945 945 946 954 961 962 962 980 1009 1026 1044 1058 1062 1066 1069 1071 1073 1075 1077 1077 1077 1078 1078 1078 1079 1079 1079 1079 1079 1079 1077 1077 1077 1077 1077 1076 1074 1073 1072 1070 1070 1070 1069 1068 1065 1058 1051 1050 1050 1050 1050 1052 1057 1057 1057 1057 1057 1057 1058 1060 1061 1062 1062 1062 1063 1063 1064 1064 1064 1064 1063 1063 1062 1062 1062 1062 1061 1060 1058 1057 1056 1053 1052 1050 1047 1043 1039 1034 1031 1026 1022 1018 1014 1010 1006 1004 1004 1002 1000 999 998 998 998 997 998 998 998 1000 1002 1003 1005 1006 1009 1012 1016 1016 1017 1018 1018 1020 1021 1024 1026 1026 1026 1026 1023 1013 1003 997 992 986 984 984 984 989 989 989 986 981 980 980 979 979 976 967 967 967 974 974 974 973 973 973 975 977 980 983 986 990 992 1003 1013 1017 1017 1018 1019 1020 1020 1021 1021 1022 1022 1022 1022 1022 1021 1021 1020 1020 1020 1019 1019 1018 1018 1017 1016 1014 1013 1012 1011 1011 1010 1009 1005 1002 1002 1001 1001 1000 998 998 997 997 997 997 997 998 999 999 1000 1001 1002 1002 1003 1003 1003 1003 1003 1003 1004 1004 1004 1004 1004 1004 1004 1003 1003 1003 1003 1003 1002 1002 1001 1001 1000 999 998 996 995 994 992 990 987 985 982 975 968 961 958 953 951 949 946 946 944 942 940 939 936 935 934 934 934 933 933 933 934 935 938 939 939 939 941 944 944 945 948 954 958 962 967 971 974 975 977 977 978 980 981 982 983 983 983 983 983 983 983 983 982 981 981 980 980 979 978 978 977 977 976 976 976 976 975 975 975 975 975 975 974 973 973 971 971 971 970 966 964 963 961 960 953 936 912 0 0 0 823 823 823 838 848 855 867 867 867 862 842 842 842 858 858 858 0 0 0 0 0 632 615 615 615 615 0 0 0 0 0 0 0 0 0 0 0 0 0 0 0 0 0 0 0 0 0 0 0 0 0 0 0 0 0 0 0 0 0 0 0 0 0 0 0 0 0 0 0 0 0 0 0 0 0 0 0 0 0 0 0 0 0 0 0 0 0 0 0 0 0 0 0
812 812 812 816 826 0 0 0 0 0 0 0 0 0 0 0 0 0 0 683 690 704 718 730 739 751 769 786 799 801 817 830 842 859 877 898 918 931 933 933 950 970 989 1004 1011 1015 1022 1026 1031 1040 1049 1056 1063 1063 1063 1055 1046 1041 1041 1041 1047 1052 1060 1066 1068 1070 1073 1078 1082 1085 1087 1089 1091 1092 1093 1094 1094 1095 1095 1095 1095 1095 1096 1096 1097 1100 1102 1104 1105 1108 1110 1111 1112 1113 1113 1113 1114 1114 1114 1114 1114 1114 1114 1114 1114 1114 1114 1114 1113 1113 1112 1111 1110 1109 1109 1108 1105 1097 1097 1097 1098 1100 1101 1101 1101 1102 1102 1102 1103 1103 1103 1104 1104 1105 1105 1105 1105 1104 1104 1103 1103 1103 1102 1101 1100 1100 1098 1096 1091 1088 1082 1060 0 0 924 914 906 906 906 906 906 902 899 893 893 893 894 902 905 906 906 914 923 930 940 952 956 963 984 1007 1020 1028 1031 1033 1033 1033 1033 996 0 956 954 949 944 937 932 931 931 931 930 930 926 926 926 929 932 934 936 939 939 939 941 942 948 953 955 958 977 1004 1017 1032 1048 1060 1066 1068 1069 1072 1073 1074 1075 1076 1076 1076 1077 1077 1077 1077 1077 1077 1077 1077 1076 1076 1076 1075 1074 1071 1070 1070 1069 1068 1067 1067 1063 1060 1056 1051 1051 1051 1051 1053 1055 1057 1057 1057 1057 1057 1058 1058 1060 1061 1062 1062 1062 1062 1063 1063 1063 1063 1062 1062 1062 1062 1061 1061 1061 1060 1059 1057 1055 1054 1053 1051 1049 1047 1043 1039 1034 1031 1026 1022 1019 1016 1013 1008 1006 1004 1002 1000 998 998 998 998 1000 1001 1001 1002 1003 1005 1006 1009 1011 1011 1014 1018 1019 1019 1020 1020 1020 1022 1024 1025 1025 1025 1022 1020 1008 1002 997 992 986 981 981 981 983 983 983 981 979 979 979 978 978 976 967 967 967 972 972 972 972 972 972 974 977 979 979 981 982 986 1000 1009 1011 1014 1017 1017 1018 1018 1018 1020 1020 1020 1020 1020 1020 1020 1018 1018 1018 1018 1018 1018 1017 1016 1015 1013 1012 1011 1009 1009 1008 1008 1006 1001 999 997 995 994 993 991 991 991 993 995 996 997 998 999 999 1000 1001 1002 1002 1003 1003 1003 1003 1003 1003 1003 1003 1003 1003 1003 1003 1002 1002 1002 1002 1002 1002 1001 1001 1001 999 999 998 998 996 995 994 992 990 988 986 982 978 973 967 958 953 951 949 947 946 945 943 943 942 939 937 935 935 935 935 935 935 936 937 939 939 942 945 948 951 952 952 954 959 962 966 968 972 974 976 977 977 978 979 980 981 982 982 982 982 982 982 981 981 981 980 980 980 979 978 977 977 976 975 975 975 975 975 975 975 975 974 974 974 974 973 972 971 971 971 970 968 966 964 962 961 955 937 930 927 0 0 807 807 807 825 840 851 871 871 871 862 842 842 842 858 858 858 822 0 0 0 0 0 611 593 593 0 0 0 0 0 0 0 563 594 594 0 0 0 0 0 0 0 0 0 0 0 0 0 0 0 0 0 0 0 0 0 0 0 0 0 0 0 0 0 0 0 0 0 0 0 0 0 0 0 0 0 0 0 0 0 0 0 0 0 0 0 0 0 0 0 0 0 0
811 811 811 812 0 0 0 0 0 0 0 0 0 0 0 0 0 668 671 676 690 704 718 730 745 761 779 794 808 811 826 840 848 859 877 898 918 924 931 933 952 972 992 1003 1011 1015 1022 1026 1032 1041 1050 1058 1063 1063 1063 1053 1041 1033 1033 1033 1043 1051 1056 1061 1064 1067 1071 1075 1079 1084 1086 1087 1089 1092 1093 1094 1094 1094 1094 1094 1094 1095 1095 1095 1096 1099 1102 1102 1104 1105 1107 1109 1110 1111 1111 1111 1112 1113 1113 1113 1113 1113 1112 1112 1113 1113 1113 1113 1112 1112 1111 1110 1110 1109 1109 1108 1105 1102 1101 1101 1101 1103 1103 1103 1102 1102 1102 1102 1103 1103 1103 1104 1104 1104 1104 1104 1104 1103 1103 1103 1103 1102 1102 1101 1100 1099 1098 1096 1091 1088 1084 1065 0 0 917 914 907 907 907 907 907 907 907 903 900 900 900 903 909 917 922 935 941 952 970 979 981 998 1025 1039 1044 1051 1055 1055 1055 1049 1032 0 960 956 949 944 936 930 930 930 930 931 931 931 928 928 928 928 931 933 934 936 937 937 937 938 943 944 944 950 963 985 1001 1023 1039 1054 1063 1065 1067 1068 1070 1072 1074 1074 1074 1075 1075 1075 1075 1075 1075 1075 1075 1075 1074 1073 1073 1072 1071 1069 1068 1066 1065 1064 1064 1057 1054 1052 1051 1050 1050 1051 1051 1055 1056 1057 1057 1057 1057 1057 1058 1058 1060 1061 1061 1061 1062 1062 1062 1062 1061 1061 1061 1061 1061 1061 1060 1060 1060 1059 1057 1056 1055 1054 1052 1051 1049 1047 1043 1039 1036 1031 1026 1022 1020 1018 1015 1013 1008 1007 1003 1000 998 998 998 998 1000 1002 1004 1004 1005 1007 1011 1012 1014 1014 1017 1021 1023 1023 1024 1025 1025 1025 1025 1025 1025 1025 1021 1014 1005 1001 997 992 986 984 980 977 976 976 975 975 975 976 976 976 976 974 967 967 967 968 968 968 969 969 970 974 977 977 978 979 979 986 997 1003 1008 1013 1013 1014 1015 1016 1017 1018 1019 1019 1019 1019 1018 1017 1017 1017 1016 1016 1016 1016 1015 1015 1013 1012 1011 1010 1008 1007 1005 1003 1001 997 994 988 988 987 983 981 986 986 986 992 995 996 997 998 999 1001 1001 1002 1002 1003 1003 1003 1003 1003 1003 1003 1003 1003 1003 1003 1002 1002 1002 1002 1001 1001 1000 1000 999 999 999 999 998 997 996 995 993 992 990 988 986 982 978 973 968 960 955 954 951 951 950 950 949 948 946 943 940 938 937 937 937 937 937 938 939 940 944 947 950 952 955 956 957 960 964 967 970 972 974 976 976 977 978 978 979 979 980 981 981 981 981 981 981 981 980 980 979 979 978 978 978 977 976 975 975 975 974 974 974 974 974 974 974 973 973 973 972 972 971 971 971 970 968 966 964 964 963 957 942 935 932 0 0 0 803 803 803 824 851 871 871 871 862 842 833 833 833 833 833 832 0 0 0 0 0 0 0 0 0 0 0 0 0 0 575 575 594 595 595 0 0 0 0 0 0 0 0 0 0 0 0 0 0 0 0 0 0 0 0 0 0 0 0 0 0 0 0 0 0 0 0 0 0 0 0 0 0 0 0 0 0 0 0 0 0 0 0 0 0 0 0 0 0 0 0 0
811 811 804 0 0 0 0 0 0 0 0 0 0 0 635 636 652 660 664 675 690 709 724 742 756 770 785 800 817 820 834 845 853 862 876 898 913 916 924 933 955 972 992 1003 1011 1014 1022 1030 1037 1043 1050 1058 1061 1061 1061 1052 1037 1024 1024 1024 1041 1047 1050 1056 1059 1064 1068 1072 1077 1081 1083 1085 1087 1090 1092 1094 1094 1094 1094 1094 1094 1094 1094 1095 1095 1097 1100 1102 1103 1104 1106 1107 1108 1109 1110 1110 1111 1111 1111 1111 1111 1111 1111 1111 1112 1112 1112 1111 1111 1111 1110 1110 1110 1109 1109 1107 1105 1104 1104 1104 1104 1104 1104 1103 1102 1102 1102 1102 1103 1103 1103 1103 1103 1103 1103 1103 1103 1103 1103 1103 1102 1101 1101 1100 1099 1097 1097 1096 1091 1088 1085 1069 0 0 917 914 907 906 906 906 908 910 910 910 903 903 903 903 914 927 935 945 959 976 1002 1014 1015 1026 1049 1059 1063 1065 1065 1065 1061 1053 1032 0 959 951 943 943 935 929 929 929 930 931 931 931 928 928 928 928 930 931 933 934 936 937 937 938 940 940 944 949 961 983 1001 1023 1038 1044 1054 1061 1065 1067 1069 1070 1071 1072 1073 1073 1073 1073 1073 1073 1073 1073 1073 1073 1072 1070 1069 1066 1066 1065 1063 1061 1060 1059 1054 1044 1044 1044 1047 1048 1049 1050 1051 1055 1056 1057 1057 1057 1057 1057 1058 1058 1060 1060 1060 1060 1061 1061 1060 1060 1060 1060 1060 1060 1059 1059 1059 1059 1058 1057 1056 1055 1054 1053 1051 1051 1049 1047 1043 1038 1036 1031 1026 1022 1020 1019 1017 1015 1012 1009 1004 1000 998 998 998 1000 1002 1004 1006 1010 1013 1014 1014 1016 1018 1019 1022 1023 1025 1025 1025 1025 1025 1025 1025 1025 1025 1024 1021 1014 1005 1001 997 994 992 987 981 977 975 972 972 972 972 974 975 975 975 974 967 967 967 968 968 968 968 968 969 973 978 978 978 979 979 982 991 998 1005 1010 1012 1013 1013 1013 1015 1016 1017 1017 1017 1017 1017 1016 1015 1015 1015 1014 1014 1013 1013 1012 1010 1009 1009 1008 1006 1001 998 996 994 991 988 986 981 977 976 976 976 976 984 991 993 995 997 998 999 1000 1001 1002 1002 1002 1002 1002 1002 1002 1002 1002 1002 1002 1002 1002 1001 1001 1001 1000 1000 1000 1000 999 999 999 998 997 997 996 995 994 993 992 990 988 987 982 979 973 969 962 956 956 955 955 954 954 952 951 951 947 943 940 940 940 940 940 941 942 944 948 949 949 954 959 960 961 962 966 970 972 973 974 975 976 976 977 978 978 979 979 979 980 980 980 980 980 980 979 979 979 978 978 978 977 977 975 975 974 974 974 974 974 974 973 973 973 973 973 972 972 972 971 971 970 970 969 968 966 964 964 963 957 950 947 941 0 0 0 0 0 0 0 0 871 871 871 839 822 801 801 801 832 832 832 0 0 0 0 0 0 0 0 0 0 0 0 0 0 0 594 594 595 628 628 0 0 0 0 0 0 0 0 0 0 0 0 0 0 0 0 0 0 0 0 0 0 0 0 0 0 0 0 0 0 0 0 0 0 0 0 0 0 0 0 0 0 0 0 0 0 0 0 0 0 0 0 0 0 0 0
0 0 0 0 0 0 0 0 0 0 0 0 596 607 622 623 639 652 663 674 691 709 725 742 758 775 790 805 823 826 843 854 861 867 876 889 900 914 924 939 955 972 992 1002 1010 1014 1024 1034 1041 1048 1052 1056 1059 1059 1059 1051 1036 1022 1022 1022 1038 1044 1047 1051 1054 1060 1066 1070 1075 1079 1081 1083 1085 1087 1090 1092 1092 1093 1093 1093 1093 1093 1093 1093 1094 1094 1097 1101 1102 1103 1104 1105 1106 1107 1109 1109 1109 1110 1110 1110 1110 1111 1110 1110 1111 1111 1110 1110 1110 1110 1110 1109 1109 1109 1107 1106 1106 1105 1105 1105 1105 1104 1104 1103 1102 1102 1102 1102 1102 1102 1102 1102 1102 1102 1102 1102 1102 1103 1102 1102 1102 1101 1101 1099 1098 1097 1097 1096 1092 1089 1085 1075 0 0 0 914 907 906 906 906 908 914 914 914 906 906 906 912 926 933 936 967 992 1003 1020 1040 1048 1051 1059 1067 1067 1068 1068 1068 1066 1053 1033 0 959 949 943 936 929 929 929 929 929 930 930 929 928 928 927 927 928 928 930 932 936 937 937 938 940 940 944 948 961 981 999 1022 1031 1044 1052 1060 1064 1067 1068 1069 1069 1071 1071 1072 1072 1072 1071 1071 1071 1071 1070 1069 1067 1066 1063 1062 1062 1060 1058 1053 1049 1043 1037 1033 1033 1033 1043 1046 1046 1049 1049 1055 1056 1056 1056 1056 1056 1057 1058 1058 1059 1059 1059 1059 1059 1059 1059 1059 1059 1059 1059 1058 1058 1058 1057 1057 1057 1056 1055 1055 1053 1052 1051 1050 1048 1046 1043 1039 1036 1034 1026 1022 1020 1019 1018 1017 1014 1011 1007 1002 1002 1002 1004 1006 1006 1007 1009 1013 1016 1017 1018 1020 1020 1021 1023 1024 1025 1026 1027 1027 1027 1026 1026 1025 1025 1023 1020 1014 1005 1001 997 994 992 988 982 977 975 972 972 972 972 972 974 974 974 973 971 968 968 968 968 968 968 968 969 973 978 978 978 979 979 981 984 986 998 1008 1011 1012 1012 1012 1014 1014 1015 1015 1015 1015 1015 1014 1013 1013 1012 1012 1011 1010 1010 1010 1007 1005 1005 1004 999 996 992 987 984 981 975 975 975 973 972 971 971 971 976 983 991 994 997 998 999 1000 1001 1001 1001 1001 1001 1002 1002 1002 1002 1001 1001 1001 1001 1001 1000 1000 1000 1000 1000 999 998 997 997 997 997 996 996 995 994 993 992 991 990 988 987 984 979 977 973 968 960 958 958 957 956 956 954 953 953 950 945 943 943 943 943 944 947 949 951 953 953 955 959 963 963 964 965 968 971 972 973 974 975 976 977 977 978 978 978 979 979 979 979 979 979 979 979 979 979 978 977 977 976 976 976 975 974 974 973 973 973 973 973 973 972 972 972 972 972 971 971 971 970 969 968 968 967 965 964 964 963 961 960 951 945 0 0 0 0 0 0 0 0 0 0 850 838 822 801 801 801 832 832 832 0 0 0 0 0 0 0 0 0 0 0 0 0 0 0 0 603 603 639 0 0 0 0 0 0 0 0 0 0 0 0 0 0 0 0 0 0 0 0 0 0 0 0 0 0 0 0 0 0 0 0 0 0 0 0 0 0 0 0 0 0 0 0 0 0 0 0 0 0 0 0 0 0 0 0 0
0 0 0 0 0 0 0 0 546 546 558 572 594 602 612 614 629 646 662 674 691 709 725 742 758 775 790 805 823 826 847 867 869 871 874 878 893 913 926 939 955 970 985 996 1009 1013 1025 1034 1041 1048 1052 1056 1056 1056 1050 1045 1034 1020 1020 1020 1027 1038 1044 1047 1050 1055 1061 1067 1073 1077 1079 1081 1084 1086 1088 1089 1091 1092 1092 1092 1091 1091 1091 1091 1091 1092 1093 1095 1096 1100 1102 1102 1104 1106 1106 1108 1108 1109 1109 1109 1109 1109 1109 1109 1109 1109 1110 1110 1109 1109 1109 1108 1108 1108 1107 1106 1105 1105 1105 1105 1105 1104 1103 1103 1103 1102 1102 1102 1102 1102 1101 1101 1101 1102 1102 1102 1102 1102 1101 1101 1101 1100 1099 1098 1097 1097 1097 1096 1092 1090 1085 1075 0 0 0 916 908 906 906 906 909 917 917 917 919 919 935 947 0 0 0 986 1017 1031 1047 1063 1068 1069 1069 1069 1069 1069 1069 1069 1066 1059 1047 0 960 949 943 936 929 928 928 928 928 928 928 927 927 927 927 927 927 927 930 932 936 938 939 940 940 940 944 948 957 969 994 1013 1030 1042 1050 1060 1064 1066 1067 1069 1069 1069 1070 1070 1070 1069 1069 1068 1067 1065 1064 1063 1062 1059 1058 1057 1056 1054 1046 1037 1024 1012 1012 1011 1011 1013 1018 1037 1041 1043 1048 1050 1052 1054 1054 1055 1055 1057 1057 1058 1058 1058 1058 1058 1058 1058 1058 1058 1057 1057 1057 1057 1056 1056 1056 1056 1056 1055 1054 1054 1053 1051 1050 1049 1048 1046 1042 1038 1036 1034 1026 1022 1020 1020 1019 1018 1016 1013 1010 1010 1010 1010 1010 1010 1010 1012 1012 1015 1017 1019 1019 1021 1023 1024 1026 1026 1026 1027 1027 1027 1027 1026 1026 1025 1025 1023 1020 1015 1008 1002 997 994 992 988 982 977 975 972 972 972 972 972 972 972 972 972 971 969 969 969 969 969 968 968 969 973 976 977 977 977 977 980 984 986 992 1003 1008 1010 1010 1011 1012 1012 1013 1013 1013 1013 1013 1012 1011 1011 1011 1009 1008 1007 1007 1007 1006 1002 1001 1001 999 993 984 975 972 972 971 969 968 968 966 966 966 966 969 977 986 988 990 994 998 1000 1000 1000 1001 1001 1001 1001 1001 1001 1001 1001 1000 1000 1000 1000 999 999 999 999 998 997 997 996 996 996 995 995 995 994 993 992 991 991 990 988 987 984 980 977 973 972 969 959 959 959 957 956 954 953 953 953 948 945 945 945 948 951 955 956 959 960 962 963 965 966 966 967 968 971 973 973 973 975 976 976 977 977 978 978 978 979 979 979 979 979 979 978 978 978 977 977 976 976 976 976 975 974 974 974 973 972 972 972 972 972 972 972 972 971 971 970 970 970 970 969 968 968 966 965 965 964 963 963 963 956 951 948 0 0 0 0 0 0 0 0 0 813 813 813 801 801 801 861 861 861 0 0 0 0 0 0 0 0 0 0 0 0 0 0 0 0 0 0 0 0 0 0 0 0 0 0 0 0 0 0 0 0 0 0 0 0 0 0 0 0 0 0 0 0 0 0 0 0 0 0 0 0 0 0 0 0 0 0 0 0 0 0 0 0 0 0 0 0 0 0 0 0 0 0 0 0
0 0 0 0 0 0 528 528 528 534 551 566 594 602 612 614 629 643 662 673 691 711 727 742 758 775 790 805 823 826 847 867 871 874 878 878 893 913 926 939 951 964 976 991 1009 1012 1025 1034 1041 1048 1052 1053 1053 1053 1048 1042 1031 1019 1019 1019 1021 1031 1040 1045 1048 1053 1058 1063 1068 1074 1078 1080 1082 1084 1086 1087 1089 1089 1089 1089 1089 1088 1088 1088 1088 1090 1090 1093 1095 1098 1100 1101 1102 1104 1105 1106 1107 1108 1108 1108 1109 1108 1109 1109 1109 1109 1109 1109 1109 1109 1108 1108 1108 1108 1106 1106 1105 1105 1105 1105 1105 1104 1103 1103 1103 1102 1102 1102 1102 1102 1101 1101 1101 1101 1101 1101 1101 1101 1101 1100 1099 1099 1098 1097 1096 1095 1095 1095 1092 1090 1085 1075 1056 0 0 921 908 906 906 906 909 917 917 918 923 933 951 0 1015 1025 1031 1033 1036 1049 1052 1066 1070 1070 1071 1071 1071 1072 1072 1072 1067 1059 1053 0 0 949 943 936 929 925 924 923 923 922 922 922 922 923 923 924 925 927 930 932 936 938 939 940 941 942 944 949 955 962 977 1003 1019 1030 1045 1058 1063 1066 1067 1067 1067 1068 1068 1068 1068 1068 1068 1067 1065 1064 1063 1060 1055 1053 1050 1048 1047 1041 1017 1010 1004 1004 1004 1004 1004 1004 1006 1008 1021 1033 1038 1042 1047 1052 1052 1053 1054 1055 1056 1056 1056 1057 1057 1057 1057 1057 1057 1057 1057 1056 1056 1056 1055 1055 1055 1055 1055 1054 1053 1053 1052 1050 1049 1047 1047 1045 1042 1038 1036 1034 1026 1022 1020 1020 1019 1018 1018 1016 1012 1011 1011 1011 1011 1011 1011 1013 1014 1015 1020 1020 1022 1025 1026 1027 1027 1027 1028 1028 1028 1028 1028 1027 1026 1025 1024 1023 1019 1016 1011 1002 997 993 991 988 982 978 975 972 972 972 972 972 972 972 972 972 971 969 969 969 969 969 969 969 969 971 975 976 977 977 977 980 983 984 987 997 1003 1006 1007 1008 1009 1011 1011 1011 1011 1011 1010 1009 1009 1008 1008 1006 1005 1005 1005 1005 1004 999 993 987 987 982 972 969 967 966 965 964 961 959 959 959 960 962 965 976 984 985 987 992 996 997 998 999 1000 1000 1000 1000 1000 1000 1000 1000 1000 999 999 999 999 998 998 997 997 996 996 995 995 995 994 994 994 993 992 992 991 990 989 988 987 985 980 977 975 974 974 967 965 960 959 956 955 955 953 953 953 953 953 953 953 954 955 958 962 963 966 967 968 969 970 970 970 972 973 973 975 976 976 977 977 977 978 978 978 978 978 978 978 978 977 977 977 977 976 976 976 976 975 975 974 974 973 973 973 972 972 972 971 971 971 971 971 971 970 970 970 969 969 968 968 967 965 965 965 964 963 963 963 956 956 955 951 0 0 0 0 0 0 767 792 811 811 811 811 811 812 861 861 861 0 0 0 0 0 0 0 0 0 0 0 591 0 0 0 0 0 0 0 0 0 0 0 0 0 0 0 0 0 0 0 0 0 0 0 0 0 0 0 0 0 0 0 0 0 0 0 0 0 0 0 0 0 0 0 0 0 0 0 0 0 0 0 0 0 0 0 0 0 0 0 0 0 0 0 0
0 0 0 522 522 523 524 524 525 528 544 565 592 602 612 614 629 643 662 674 691 711 727 742 756 773 790 803 819 823 847 867 871 878 881 881 893 913 927 938 950 961 971 989 1008 1011 1025 1032 1036 1040 1045 1047 1047 1047 1046 1039 1027 1017 1017 1017 1017 1025 1037 1043 1045 1051 1057 1059 1062 1068 1073 1078 1080 1082 1082 1084 1086 1087 1087 1087 1086 1085 1085 1085 1085 1086 1089 1090 1093 1095 1097 1099 1100 1102 1103 1105 1106 1107 1107 1107 1108 1108 1108 1108 1108 1108 1108 1108 1108 1108 1108 1107 1107 1107 1106 1106 1105 1105 1105 1105 1105 1103 1103 1103 1102 1102 1102 1102 1101 1101 1101 1101 1101 1101 1100 1100 1100 1100 1100 1099 1098 1097 1097 1096 1095 1094 1094 1092 1091 1090 1083 1074 1059 0 0 0 909 906 906 906 910 929 937 941 942 957 0 986 1023 1030 1036 1039 1053 1061 1070 1075 1075 1075 1074 1073 1073 1073 1073 1073 1068 1059 1054 0 0 953 946 938 931 925 923 922 921 921 921 921 921 921 921 922 925 927 930 932 936 938 939 940 941 944 946 949 955 960 970 992 1008 1020 1041 1056 1062 1063 1064 1065 1066 1066 1066 1065 1065 1065 1065 1064 1062 1062 1057 1054 1051 1043 1032 1028 1023 1019 1012 1009 1003 1003 1003 1001 1000 997 997 997 1008 1023 1030 1037 1045 1050 1051 1052 1054 1054 1055 1055 1056 1056 1056 1056 1056 1056 1055 1055 1055 1055 1055 1055 1054 1054 1054 1054 1054 1053 1052 1052 1051 1050 1048 1047 1045 1043 1042 1038 1036 1032 1028 1022 1021 1020 1020 1019 1019 1018 1017 1016 1016 1016 1016 1017 1017 1017 1019 1021 1022 1024 1025 1026 1027 1027 1028 1028 1028 1028 1028 1028 1028 1027 1026 1025 1024 1022 1019 1017 1013 1005 997 993 991 987 982 978 975 973 973 973 973 972 972 972 972 972 971 970 970 969 969 969 969 969 969 969 970 974 975 976 976 977 979 984 986 991 997 1003 1006 1007 1007 1008 1009 1009 1009 1009 1008 1006 1006 1005 1005 1003 1002 1002 1002 1002 997 989 980 975 975 970 967 963 962 961 959 959 956 956 956 959 959 961 963 972 982 983 987 991 993 995 995 997 998 999 999 999 999 999 999 999 998 998 998 997 997 997 997 996 995 995 994 994 993 993 993 993 993 992 991 990 989 989 989 988 987 985 982 978 976 976 974 972 970 961 960 957 955 955 955 955 956 957 959 959 959 960 961 962 963 964 966 970 970 970 971 971 972 973 974 975 975 976 976 977 977 977 977 977 977 977 977 977 977 977 976 976 976 976 976 975 975 974 974 974 973 973 973 973 972 971 971 971 971 971 971 970 970 970 970 969 969 969 969 968 967 967 965 965 965 964 963 963 963 957 956 955 951 0 0 0 0 0 763 767 792 811 811 811 811 811 812 861 861 861 821 769 769 769 769 0 0 0 0 0 591 591 0 0 0 0 0 0 0 0 0 0 0 0 0 0 0 0 0 0 0 0 0 0 0 0 0 0 0 0 0 0 0 0 0 0 0 0 0 0 0 0 0 0 0 0 0 0 0 0 0 0 0 0 0 0 0 0 0 0 0 0 0 0 0 0
495 495 495 507 515 517 519 524 525 528 544 564 592 606 619 622 632 643 662 674 691 710 725 742 756 769 782 792 814 818 839 864 876 881 882 895 897 914 927 938 949 959 968 985 1003 1005 1019 1023 1025 1028 1033 1038 1043 1043 1043 1031 1019 1014 1007 1007 1007 1020 1031 1039 1041 1048 1054 1056 1058 1062 1066 1072 1076 1079 1080 1082 1082 1082 1082 1081 1079 1079 1079 1079 1080 1081 1084 1085 1090 1094 1096 1098 1098 1100 1102 1104 1104 1106 1106 1106 1106 1107 1107 1107 1107 1107 1107 1107 1107 1107 1107 1106 1106 1106 1106 1105 1105 1104 1104 1104 1104 1103 1103 1103 1102 1102 1102 1102 1101 1101 1100 1100 1100 1099 1099 1099 1099 1098 1098 1098 1097 1097 1096 1095 1093 1092 1091 1090 1090 1089 1083 1073 1062 0 0 0 909 906 906 906 913 932 941 0 0 0 993 1020 1038 1042 1053 1067 1072 1074 1076 1076 1076 1076 1075 1074 1074 1074 1074 1073 1068 1065 1058 1043 0 957 948 941 932 926 923 922 921 921 921 920 919 919 919 922 925 927 931 932 934 936 937 938 941 944 948 952 955 958 967 990 1007 1020 1036 1049 1058 1061 1063 1064 1064 1064 1063 1062 1062 1061 1058 1056 1055 1053 1047 1041 1036 1021 1006 1004 999 999 998 999 999 1000 1000 1000 1000 997 997 997 1006 1023 1030 1033 1040 1046 1049 1051 1052 1052 1053 1054 1054 1055 1055 1055 1055 1054 1054 1054 1054 1054 1054 1053 1053 1053 1052 1052 1052 1052 1052 1051 1050 1049 1048 1046 1044 1043 1040 1038 1035 1032 1028 1023 1021 1020 1020 1020 1020 1021 1021 1021 1021 1021 1021 1022 1023 1023 1025 1026 1026 1027 1027 1027 1028 1028 1028 1028 1029 1029 1029 1028 1028 1028 1027 1026 1024 1022 1019 1017 1013 1007 1000 993 991 986 982 978 975 974 974 973 973 972 972 972 972 972 971 970 970 970 970 969 969 967 966 966 966 966 967 969 969 975 979 984 986 990 992 1000 1003 1003 1004 1005 1006 1006 1006 1006 1005 1005 1003 1003 1003 1003 999 996 995 991 986 980 975 973 972 970 966 962 960 958 957 956 954 954 954 957 958 959 963 965 976 981 984 987 992 994 995 995 997 997 997 998 998 998 998 997 997 997 997 996 996 996 995 995 994 994 994 993 992 992 992 992 992 991 990 990 989 989 988 988 987 985 982 978 977 976 974 973 971 965 960 957 957 957 957 959 959 963 963 963 964 964 964 966 967 967 970 971 971 972 972 972 972 973 975 975 976 976 976 977 977 977 977 977 977 977 976 976 976 976 976 975 975 975 975 974 974 973 973 973 973 972 972 971 971 971 970 970 970 970 970 970 969 969 969 968 968 968 968 967 967 966 965 965 964 964 962 961 960 957 956 955 951 937 0 0 0 0 787 787 802 811 811 811 811 811 812 814 814 814 807 769 769 769 780 780 780 0 0 0 589 589 0 0 0 0 0 0 0 0 0 0 0 0 0 0 0 0 0 0 0 0 0 0 0 0 0 0 0 0 0 0 0 0 0 0 0 0 0 0 0 0 0 0 0 0 0 0 0 0 0 0 0 0 0 0 0 0 0 0 0 0 0 0 0 0
485 485 487 502 512 513 519 524 525 528 544 564 592 609 623 626 635 650 664 676 690 709 725 742 756 765 777 792 811 816 839 863 882 893 895 896 904 917 926 937 946 953 965 977 995 998 1008 1011 1012 1015 1021 1030 1035 1035 1035 1022 1006 997 997 997 1001 1014 1023 1034 1036 1046 1052 1055 1055 1057 1059 1064 1071 1075 1078 1080 1080 1080 1079 1077 1075 1073 1073 1073 1074 1076 1079 1080 1084 1089 1092 1095 1097 1099 1100 1102 1103 1104 1105 1105 1105 1106 1106 1106 1106 1106 1106 1106 1106 1106 1106 1106 1105 1105 1105 1105 1104 1104 1104 1104 1103 1103 1103 1103 1102 1101 1101 1101 1101 1100 1099 1099 1099 1099 1098 1098 1098 1098 1097 1096 1096 1096 1095 1094 1093 1091 1090 1089 1088 1086 1078 1072 1062 0 0 0 0 909 909 915 0 0 0 0 0 0 1027 1050 1063 1069 1077 1077 1077 1077 1077 1077 1076 1076 1076 1076 1075 1074 1073 1072 1068 1066 1061 1051 0 968 948 941 934 926 923 923 921 921 921 920 919 919 919 922 925 928 931 932 933 936 937 938 939 944 949 953 956 958 962 989 1007 1020 1035 1047 1053 1058 1061 1061 1061 1060 1060 1059 1057 1057 1049 1048 1047 1043 1033 1015 997 980 980 980 986 989 992 993 998 1000 1000 1000 997 997 997 997 1001 1019 1028 1031 1038 1043 1048 1051 1051 1051 1052 1053 1053 1053 1054 1053 1053 1053 1053 1053 1053 1053 1053 1052 1052 1052 1051 1051 1051 1051 1051 1050 1049 1049 1047 1045 1043 1042 1039 1036 1035 1032 1030 1027 1021 1021 1021 1023 1023 1023 1023 1023 1024 1024 1024 1025 1026 1026 1028 1028 1029 1029 1029 1028 1028 1028 1029 1029 1029 1029 1029 1029 1028 1028 1027 1026 1024 1022 1020 1017 1014 1009 1004 993 991 986 982 979 975 975 975 975 975 975 973 972 972 972 971 970 970 970 970 969 968 966 964 964 964 965 966 966 969 975 979 984 986 990 991 995 998 1000 1003 1004 1004 1004 1004 1004 1004 1002 1001 1001 999 997 995 990 984 984 982 977 973 968 968 966 963 960 958 956 955 953 953 953 953 956 957 959 960 961 964 968 978 983 991 994 994 995 996 996 997 997 997 997 996 996 996 996 996 995 994 994 994 994 994 993 993 992 992 991 991 991 991 990 990 989 989 988 987 986 985 984 982 978 977 975 973 973 971 966 960 960 960 961 962 963 964 964 965 965 965 965 967 967 969 969 971 972 972 972 972 972 972 974 975 976 976 976 976 976 977 977 977 977 976 976 976 975 975 974 974 974 974 974 974 974 973 973 972 972 972 972 971 970 970 970 970 970 970 969 969 969 969 968 968 968 968 967 967 966 966 966 965 964 963 963 962 961 958 957 955 951 946 939 937 0 0 817 817 817 817 817 817 811 782 782 782 795 807 807 807 778 778 778 780 780 780 777 0 0 589 589 0 0 0 0 0 0 0 0 0 0 0 0 0 0 0 0 0 0 0 0 0 0 0 0 0 0 0 0 0 0 0 0 0 0 0 0 0 0 0 0 0 0 0 0 0 0 0 0 0 0 0 0 0 0 0 0 0 0 0 0 0 0 0 0
485 485 487 499 508 512 519 529 536 540 549 564 592 610 624 627 643 655 665 676 685 702 725 742 756 765 777 792 809 814 839 860 880 895 901 905 911 917 926 934 941 948 955 969 982 985 994 996 999 1000 1010 1020 1020 1020 1019 995 974 972 972 974 979 995 1007 1016 1020 1036 1047 1049 1052 1055 1057 1061 1064 1070 1073 1075 1075 1075 1074 1073 1069 1066 1066 1066 1067 1071 1074 1077 1079 1085 1090 1093 1095 1097 1099 1101 1102 1103 1103 1104 1105 1105 1105 1105 1105 1105 1105 1105 1105 1105 1104 1104 1104 1104 1104 1104 1103 1103 1103 1103 1103 1103 1102 1102 1102 1100 1100 1100 1100 1099 1099 1098 1098 1098 1097 1097 1097 1097 1096 1096 1095 1094 1094 1093 1092 1091 1090 1089 1088 1086 1078 1073 1063 0 0 0 0 0 0 0 0 1007 1023 1036 1044 1048 1052 1063 1072 1075 1077 1077 1077 1077 1077 1077 1076 1076 1076 1076 1075 1074 1072 1069 1068 1066 1066 1052 0 0 948 942 937 930 926 925 925 923 921 920 919 919 919 922 926 929 931 932 933 936 937 938 939 945 952 957 958 958 959 982 1006 1020 1035 1043 1050 1054 1057 1059 1059 1059 1059 1057 1055 1046 1041 1040 1037 1021 1008 993 980 978 978 980 980 983 988 993 995 997 997 997 997 997 994 993 993 993 1017 1031 1037 1040 1046 1049 1050 1051 1052 1052 1052 1052 1052 1052 1052 1052 1052 1052 1052 1051 1051 1051 1051 1051 1050 1050 1050 1050 1050 1049 1049 1047 1046 1045 1042 1041 1038 1036 1035 1033 1031 1027 1026 1026 1026 1026 1027 1027 1027 1026 1026 1026 1026 1028 1029 1029 1029 1029 1029 1029 1029 1029 1029 1029 1029 1029 1029 1029 1029 1029 1028 1028 1027 1026 1024 1022 1021 1017 1014 1010 1004 996 991 986 982 979 975 975 975 975 975 975 974 972 972 970 970 970 970 970 970 968 966 966 964 964 964 965 966 966 969 975 980 985 989 989 990 993 997 998 1001 1002 1002 1002 1001 1000 1000 999 997 992 988 988 987 984 984 982 978 973 969 964 962 960 959 958 956 955 953 952 952 952 952 954 956 958 959 959 961 966 972 978 983 988 991 992 994 994 995 995 995 995 995 995 995 995 994 994 993 993 993 992 992 992 992 991 991 991 990 990 989 989 988 988 987 987 986 985 984 983 980 977 977 974 973 973 971 968 965 963 963 963 965 965 966 966 967 968 968 968 968 968 969 970 971 972 973 973 973 973 973 974 975 975 976 976 976 976 976 976 976 976 976 975 975 974 974 974 973 973 972 972 972 972 972 972 971 971 971 970 970 970 969 969 969 969 969 968 968 968 968 968 968 968 968 967 967 966 965 965 964 964 963 962 961 961 958 957 955 950 946 939 938 929 0 836 829 829 829 829 829 813 782 782 782 795 807 807 807 778 778 777 777 777 777 777 0 0 569 569 0 0 0 0 0 0 0 0 0 0 0 0 0 0 0 0 0 0 0 0 0 0 0 0 0 0 0 0 0 0 0 0 0 0 0 0 0 0 0 0 0 0 0 0 0 0 0 0 0 0 0 0 0 0 0 0 0 0 0 0 0 0 0 0
485 485 487 499 505 512 520 532 542 553 560 568 592 610 628 632 646 656 666 677 684 693 717 741 757 765 777 793 809 814 835 856 876 894 901 905 911 917 924 930 935 942 952 964 976 979 987 989 990 992 1000 1002 1002 1002 983 959 959 959 966 968 979 988 995 1003 1007 1024 1040 1045 1046 1051 1057 1060 1063 1064 1064 1064 1064 1064 1064 1062 1061 1061 1061 1061 1063 1068 1072 1074 1078 1083 1089 1093 1095 1096 1097 1099 1101 1101 1102 1103 1104 1104 1104 1104 1104 1104 1104 1104 1104 1104 1104 1104 1104 1104 1103 1103 1103 1103 1103 1103 1102 1102 1102 1101 1100 1100 1100 1099 1098 1098 1098 1098 1097 1097 1096 1096 1095 1095 1095 1094 1094 1093 1093 1092 1091 1090 1090 1088 1087 1086 1078 1073 1066 1056 0 0 970 970 980 992 1009 1031 1046 1054 1060 1066 1070 1071 1074 1076 1077 1077 1078 1078 1077 1078 1077 1077 1077 1076 1075 1074 1072 1069 1067 1067 1066 1055 0 0 950 944 937 930 926 925 925 925 921 916 916 916 918 922 926 929 931 932 933 938 939 940 940 945 952 957 959 959 960 971 1006 1020 1035 1035 1037 1046 1052 1052 1052 1052 1048 1044 1039 1030 1026 1022 1006 990 984 978 977 977 977 977 978 982 988 992 993 996 997 997 997 997 994 993 993 993 1011 1029 1036 1038 1039 1047 1050 1050 1050 1051 1051 1051 1051 1051 1051 1051 1051 1051 1051 1050 1050 1050 1050 1050 1049 1049 1049 1049 1049 1049 1048 1047 1044 1043 1042 1039 1038 1036 1035 1033 1031 1028 1027 1027 1027 1027 1029 1029 1030 1029 1029 1029 1030 1030 1030 1030 1030 1030 1030 1030 1029 1029 1029 1029 1029 1029 1029 1029 1029 1029 1028 1028 1027 1026 1024 1023 1021 1017 1015 1010 1005 997 993 991 986 984 978 975 975 975 975 975 974 972 971 970 970 970 970 970 970 968 966 966 964 964 964 965 965 967 970 975 980 987 989 989 990 992 995 998 999 1000 1000 1000 999 998 996 995 992 986 985 983 982 982 979 976 974 969 964 961 958 956 956 956 954 953 953 951 951 951 951 953 955 956 956 958 961 966 971 973 977 983 985 989 992 992 993 993 993 993 994 994 994 994 993 993 993 992 992 991 991 991 991 990 989 989 988 988 988 987 987 986 985 985 984 984 982 981 979 976 975 974 972 971 970 968 967 966 966 966 967 968 968 969 969 969 970 970 970 970 970 971 972 973 973 973 973 974 974 974 975 975 975 975 975 976 976 976 976 975 975 974 974 973 972 972 972 972 971 971 971 971 971 971 971 971 970 970 969 969 969 968 968 968 968 968 968 968 968 967 967 967 967 966 966 966 965 965 964 964 962 961 961 960 958 956 954 950 946 941 938 932 890 883 846 846 845 837 837 826 794 794 794 795 817 817 817 807 784 781 781 784 784 776 0 0 0 546 0 0 0 0 0 0 0 0 0 0 0 0 0 0 0 0 0 0 0 0 0 0 0 0 0 0 0 0 0 0 0 0 0 0 0 0 0 0 0 0 0 0 0 0 0 0 0 0 0 0 0 0 0 0 0 0 0 0 0 0 0 0 0 0
490 490 492 499 505 512 524 537 550 562 569 576 596 617 634 639 650 657 667 678 684 693 714 739 757 773 786 796 811 816 831 851 873 890 901 905 911 916 920 925 934 942 951 963 976 978 985 988 988 990 991 991 990 983 958 955 955 955 963 968 979 988 995 1002 1005 1016 1028 1037 1042 1046 1053 1057 1060 1060 1060 1059 1058 1057 1056 1052 1052 1052 1052 1056 1059 1063 1068 1071 1076 1083 1088 1090 1093 1095 1096 1098 1100 1101 1102 1102 1103 1103 1103 1103 1103 1103 1103 1103 1103 1103 1103 1103 1102 1102 1102 1102 1102 1101 1101 1101 1101 1101 1101 1100 1100 1099 1099 1098 1097 1097 1096 1096 1096 1095 1095 1095 1095 1094 1094 1093 1092 1092 1091 1091 1091 1090 1090 1087 1086 1085 1078 1072 1066 1057 1029 999 999 999 1008 1020 1034 1049 1060 1065 1066 1069 1073 1074 1075 1076 1076 1077 1077 1077 1077 1077 1077 1077 1077 1076 1075 1074 1072 1069 1067 1067 1066 1059 1042 0 954 944 937 930 926 925 925 924 921 916 916 916 917 922 925 929 930 932 935 939 944 946 946 949 955 957 959 960 963 971 1006 1023 1035 1035 1035 1041 1042 1042 1042 1037 1033 1027 1015 1000 997 997 983 973 973 973 973 974 975 976 976 982 988 990 991 991 993 994 994 994 994 993 993 993 1010 1022 1035 1036 1038 1045 1049 1049 1049 1049 1049 1049 1050 1050 1050 1050 1050 1050 1050 1049 1049 1049 1049 1048 1048 1048 1048 1048 1048 1047 1046 1045 1044 1042 1040 1038 1037 1036 1035 1033 1031 1028 1028 1028 1028 1030 1030 1030 1031 1031 1031 1031 1031 1031 1031 1031 1031 1030 1030 1030 1030 1029 1029 1029 1029 1029 1029 1029 1028 1028 1027 1027 1026 1026 1024 1023 1021 1017 1015 1010 1005 999 994 991 986 984 979 975 975 975 974 974 974 971 969 969 969 969 969 969 969 967 966 966 965 965 965 965 966 967 970 975 980 987 988 989 990 992 995 996 996 997 998 998 997 996 991 989 988 985 982 982 981 980 976 971 969 965 961 959 957 956 955 954 953 951 950 949 949 949 950 951 954 954 955 957 961 963 969 972 975 979 982 985 989 991 991 991 992 992 992 992 992 992 992 991 991 991 991 990 990 990 990 989 989 987 987 987 987 986 985 983 983 982 982 981 980 978 976 975 974 971 970 968 968 967 967 967 967 967 968 968 968 970 970 970 971 971 972 972 972 972 973 973 973 974 974 974 974 974 975 975 975 975 975 975 975 975 975 974 974 973 973 973 972 971 971 971 971 970 970 970 970 970 970 970 969 969 968 968 968 968 968 968 967 967 967 967 967 967 967 966 966 966 965 965 964 964 963 962 962 961 959 959 957 956 953 950 946 943 942 932 906 885 848 848 845 838 838 826 795 795 795 795 819 837 846 846 846 805 787 785 784 0 0 0 0 0 0 0 0 0 0 0 0 0 0 0 0 0 0 519 539 542 0 0 0 0 0 0 0 0 0 0 0 0 0 0 0 0 0 0 0 0 0 0 0 0 0 0 0 0 0 0 0 0 0 0 0 0 0 0 0 0 0 0 0 0 0 0 0 0
497 497 499 503 505 516 530 546 556 570 576 582 603 624 639 644 651 659 669 678 684 693 711 733 757 773 792 801 811 816 827 847 867 881 890 896 903 910 915 925 933 942 950 963 973 976 984 984 984 981 981 978 977 969 944 944 944 948 962 968 980 988 995 1002 1005 1010 1017 1023 1028 1039 1047 1054 1056 1057 1057 1057 1050 1045 1045 1045 1042 1042 1042 1049 1054 1059 1062 1065 1074 1080 1086 1089 1092 1094 1095 1097 1098 1100 1100 1101 1101 1102 1102 1102 1102 1102 1102 1102 1102 1102 1102 1102 1101 1101 1101 1101 1101 1101 1100 1100 1100 1100 1099 1099 1099 1098 1098 1098 1097 1096 1096 1096 1095 1094 1094 1094 1093 1092 1091 1091 1091 1091 1091 1091 1091 1090 1089 1087 1085 1083 1076 1072 1066 1057 1047 1035 1035 1035 1048 1050 1056 1067 1069 1070 1072 1072 1075 1076 1076 1076 1076 1077 1077 1077 1077 1077 1077 1077 1077 1076 1075 1074 1072 1070 1067 1066 1066 1060 1046 0 956 946 933 925 925 924 924 923 921 916 916 916 916 917 923 926 929 932 935 939 944 951 954 955 958 961 963 966 966 971 1008 1023 1034 1035 1035 1039 1039 1039 1033 1023 1013 1002 992 986 986 983 982 973 965 965 965 971 974 975 975 982 985 986 986 988 990 992 993 993 994 993 993 995 1003 1009 1020 1030 1033 1041 1046 1046 1047 1047 1047 1048 1048 1049 1049 1049 1049 1048 1048 1048 1048 1047 1047 1047 1047 1046 1046 1046 1046 1046 1045 1044 1043 1040 1039 1037 1036 1036 1035 1032 1030 1029 1029 1029 1029 1030 1030 1031 1031 1031 1032 1032 1032 1031 1031 1031 1031 1031 1030 1030 1030 1029 1029 1029 1029 1029 1028 1028 1028 1028 1027 1027 1026 1025 1024 1023 1020 1017 1015 1010 1005 1000 994 991 986 984 979 974 974 974 973 973 973 971 969 969 969 969 969 969 968 967 966 966 965 965 965 965 965 967 971 975 980 987 987 988 988 992 994 996 996 996 996 995 994 991 988 986 986 984 981 980 979 976 972 968 965 962 959 956 955 954 953 953 952 950 948 947 947 947 949 951 951 952 954 956 959 962 963 966 972 976 978 984 987 989 989 991 991 991 991 991 991 991 991 990 990 989 989 989 989 988 988 988 987 986 985 985 985 984 983 982 982 980 979 978 977 977 973 973 971 970 969 968 967 967 967 967 967 967 968 968 969 970 971 972 972 972 972 973 973 973 973 973 973 974 974 974 974 974 974 974 974 974 974 974 974 974 973 973 973 973 972 971 971 971 970 970 970 969 969 969 969 969 968 968 968 968 967 967 967 967 967 967 967 966 966 966 966 966 966 965 965 965 965 964 964 963 962 962 961 961 959 958 957 956 953 951 946 944 944 942 936 922 888 848 846 845 838 826 807 795 795 795 822 837 846 846 846 805 804 802 784 0 0 0 0 0 0 0 0 0 0 0 0 0 0 0 0 0 503 504 512 520 520 0 0 0 0 0 0 0 0 0 0 0 0 0 0 0 0 0 0 0 0 0 0 0 0 0 0 0 0 0 0 0 0 0 0 0 0 0 0 0 0 0 0 0 0 0 0 0
497 497 499 505 515 523 537 547 558 570 580 588 609 630 639 644 655 663 678 694 699 700 711 729 748 773 792 801 808 813 826 842 857 865 872 880 890 902 912 922 932 941 949 960 969 971 976 976 976 969 965 964 963 932 932 932 944 948 959 977 988 995 998 1002 1005 1008 1009 1014 1023 1029 1038 1042 1044 1047 1047 1047 1039 1032 1030 1027 1027 1027 1030 1040 1051 1056 1058 1061 1072 1079 1085 1089 1091 1093 1094 1096 1098 1098 1100 1100 1101 1101 1101 1101 1101 1101 1101 1101 1101 1101 1101 1100 1100 1100 1100 1099 1099 1099 1099 1099 1099 1099 1099 1098 1098 1097 1097 1097 1096 1096 1095 1094 1094 1093 1092 1092 1092 1091 1090 1090 1090 1090 1090 1090 1088 1087 1085 1083 1079 1076 1070 1063 1062 1056 1048 1048 1048 1050 1061 1064 1064 1070 1072 1073 1073 1074 1075 1077 1077 1077 1077 1077 1077 1077 1077 1077 1077 1077 1077 1075 1075 1074 1072 1070 1068 1066 1065 1061 1050 0 982 947 933 924 922 922 922 922 920 919 918 915 915 915 923 926 929 931 935 939 944 953 961 967 968 968 970 975 980 991 1009 1027 1035 1036 1036 1036 1035 1028 1015 1004 991 984 981 981 980 978 977 971 965 965 965 967 970 972 974 976 978 980 981 984 986 989 992 992 992 993 993 995 1000 1005 1012 1021 1031 1041 1044 1044 1045 1045 1046 1047 1048 1048 1048 1048 1048 1047 1047 1046 1046 1046 1046 1046 1045 1045 1045 1045 1044 1044 1043 1043 1041 1038 1037 1036 1034 1033 1033 1032 1029 1028 1028 1029 1029 1030 1030 1030 1031 1031 1032 1032 1032 1032 1031 1031 1031 1031 1030 1030 1030 1029 1029 1029 1028 1028 1028 1028 1027 1026 1026 1026 1026 1025 1024 1022 1020 1017 1014 1012 1006 1001 994 990 983 983 979 974 972 972 972 972 972 971 968 968 968 968 968 968 968 968 966 966 965 965 965 965 965 968 971 975 979 983 986 988 989 991 992 993 995 995 995 993 989 987 986 985 985 983 980 978 975 972 969 965 964 961 958 955 954 953 952 952 950 949 947 946 946 946 947 948 950 952 953 955 959 960 962 963 969 976 977 983 985 986 987 988 989 989 989 989 989 989 989 989 989 988 988 988 987 987 986 986 986 985 985 984 983 982 982 980 979 979 977 976 975 973 972 970 970 969 967 966 966 966 966 967 967 967 968 968 969 971 971 972 972 972 973 973 973 973 973 973 973 973 974 974 974 974 974 974 973 973 973 973 973 973 972 972 972 971 971 971 970 970 969 969 969 969 968 968 968 968 968 967 967 967 967 966 966 966 966 966 965 965 966 966 965 965 965 965 965 964 963 963 963 962 962 961 961 960 959 957 956 954 953 952 951 949 946 943 941 926 908 883 851 848 845 831 813 796 796 796 822 837 846 854 854 854 832 815 0 0 0 0 0 0 0 0 0 0 0 0 0 0 0 0 0 0 492 496 503 519 519 519 0 0 0 0 0 0 0 0 0 0 0 0 0 0 0 0 0 0 0 0 0 0 0 0 0 0 0 0 0 0 0 0 0 0 0 0 0 0 0 0 0 0 0 0 0 0
497 497 499 506 519 530 539 547 558 570 580 593 612 630 639 644 655 668 686 705 709 711 713 729 748 771 792 801 808 812 821 830 840 847 855 866 879 896 909 921 932 940 947 953 964 965 966 966 966 957 947 936 920 920 920 929 944 948 955 977 988 1000 1005 1007 1008 1008 1009 1009 1013 1023 1028 1030 1039 1039 1039 1038 1026 1017 1017 1017 1021 1023 1027 1037 1049 1054 1056 1060 1070 1077 1084 1088 1091 1092 1093 1095 1096 1098 1099 1099 1099 1100 1100 1100 1100 1100 1100 1100 1100 1100 1099 1099 1098 1098 1098 1098 1098 1098 1098 1098 1097 1097 1097 1097 1097 1096 1096 1095 1095 1094 1093 1093 1092 1092 1091 1090 1090 1089 1088 1087 1086 1086 1086 1086 1086 1083 1078 1076 1070 1065 1063 1053 1052 1051 1051 1052 1059 1059 1063 1066 1070 1072 1073 1073 1073 1074 1075 1077 1077 1077 1077 1077 1077 1077 1077 1077 1077 1077 1076 1075 1074 1073 1072 1070 1069 1067 1065 1060 1052 1035 994 960 933 924 922 920 920 920 920 920 918 915 915 915 923 926 929 931 936 940 946 954 965 975 981 986 991 993 998 1006 1017 1027 1038 1038 1038 1038 1024 1005 998 993 988 979 975 974 974 973 973 970 965 965 965 966 969 969 969 970 970 971 977 981 983 985 988 991 992 992 992 993 995 1000 1011 1020 1031 1038 1041 1042 1043 1045 1045 1045 1046 1046 1046 1046 1046 1046 1045 1045 1044 1044 1044 1044 1044 1044 1044 1043 1041 1041 1040 1040 1038 1036 1034 1034 1033 1030 1028 1028 1028 1028 1028 1029 1029 1029 1029 1030 1031 1031 1032 1032 1032 1032 1031 1031 1031 1031 1030 1030 1029 1029 1028 1027 1027 1027 1027 1027 1026 1026 1025 1025 1025 1024 1023 1021 1019 1017 1015 1012 1008 1001 995 990 983 983 979 974 972 972 972 972 972 969 968 968 968 968 968 968 968 968 967 967 966 966 966 966 966 968 971 976 979 983 986 988 990 992 992 993 994 994 994 991 989 986 984 984 984 982 979 974 971 968 967 963 961 959 956 955 954 953 952 950 948 948 947 945 945 945 945 946 948 949 951 954 958 960 961 962 969 975 977 979 980 981 984 985 986 987 987 988 988 988 988 987 987 987 987 986 986 985 985 985 984 983 982 982 981 981 981 979 977 975 974 974 973 971 968 965 964 963 963 960 960 960 964 965 966 967 968 968 970 971 971 972 972 972 973 973 973 973 973 973 973 973 973 973 973 973 973 973 973 973 973 972 972 972 971 971 971 970 970 970 970 969 969 968 968 967 967 967 967 967 967 967 966 966 966 966 966 965 965 965 965 965 965 965 965 964 964 964 963 963 963 963 961 961 961 960 959 959 958 957 955 953 953 952 951 949 947 944 941 935 923 895 858 857 845 835 820 817 817 817 819 828 832 850 850 0 0 0 0 0 0 0 0 0 0 0 0 0 0 0 0 0 0 0 0 0 491 495 503 516 519 519 0 0 0 0 0 0 0 0 0 0 0 0 0 0 0 0 0 0 0 0 0 0 0 0 0 0 0 0 0 0 0 0 0 0 0 0 0 0 0 0 0 0 0 0 0 0
495 495 496 506 524 535 540 548 558 570 583 597 614 630 639 644 655 672 692 714 719 723 725 729 748 768 787 800 807 811 816 828 840 847 852 865 877 890 904 917 928 934 940 945 951 952 952 952 946 931 921 915 915 915 918 927 936 937 941 977 988 1000 1005 1007 1008 1008 1009 1009 1011 1021 1027 1028 1037 1037 1037 1035 1024 1013 1010 1010 1010 1014 1017 1027 1043 1049 1050 1055 1066 1076 1084 1087 1090 1091 1093 1094 1095 1096 1097 1098 1098 1098 1099 1099 1099 1099 1099 1099 1099 1098 1098 1098 1097 1097 1097 1097 1097 1097 1097 1097 1096 1096 1096 1095 1095 1095 1095 1094 1093 1093 1093 1091 1090 1090 1089 1089 1088 1087 1085 1085 1085 1083 1081 1080 1080 1076 1072 1067 1062 1058 1055 1045 1035 1035 1035 1047 1059 1059 1063 1066 1070 1072 1073 1073 1073 1074 1075 1077 1077 1077 1077 1077 1077 1077 1077 1077 1076 1076 1076 1075 1074 1073 1071 1070 1069 1067 1064 1060 1053 1036 1001 960 940 929 922 915 915 915 919 919 919 915 915 915 926 931 932 932 936 941 947 964 965 982 994 1003 1008 1009 1016 1025 1028 1033 1039 1039 1039 1036 1019 1005 992 990 986 979 975 970 970 969 969 969 966 964 964 964 968 968 968 969 969 969 973 976 979 981 984 988 991 991 991 991 991 999 1008 1017 1025 1031 1037 1039 1041 1042 1043 1044 1045 1045 1045 1045 1045 1044 1044 1043 1043 1042 1042 1042 1042 1042 1042 1041 1039 1039 1037 1037 1036 1035 1031 1028 1028 1026 1025 1025 1025 1025 1028 1028 1028 1028 1028 1030 1031 1031 1032 1032 1032 1032 1031 1031 1031 1031 1030 1029 1029 1028 1027 1027 1027 1027 1026 1026 1026 1025 1025 1025 1023 1023 1022 1021 1019 1017 1014 1012 1008 1001 995 990 983 983 978 974 972 972 971 971 971 969 968 968 968 968 969 969 969 968 968 968 968 968 967 967 967 971 976 977 979 983 986 989 990 992 992 993 993 993 993 991 988 986 983 982 981 979 975 972 969 967 965 962 960 958 956 954 954 953 951 949 948 948 946 945 944 944 944 944 945 947 950 953 956 958 960 961 961 962 968 973 975 978 980 983 983 985 986 986 986 986 986 986 985 985 985 985 984 983 983 983 982 982 981 980 980 980 979 978 976 971 970 970 969 963 959 955 951 951 951 954 954 957 961 965 965 966 966 968 970 971 971 971 972 972 973 973 973 973 973 973 973 973 973 972 972 972 972 972 972 972 972 971 971 971 970 970 970 970 969 968 968 968 968 967 967 967 966 966 966 966 966 966 966 965 965 965 965 965 965 964 964 964 964 964 964 964 964 963 963 963 962 961 961 961 961 959 959 958 957 955 955 953 952 952 951 949 948 944 941 940 939 923 887 858 849 849 845 840 831 809 809 797 0 0 0 0 0 0 0 0 0 0 0 0 0 0 0 0 0 0 0 0 0 0 0 0 491 495 503 516 519 519 0 0 0 0 0 0 0 0 0 0 0 0 0 0 0 0 0 0 0 0 0 0 0 0 0 0 0 0 0 0 0 0 0 0 0 0 0 0 0 0 0 0 0 0 0 0
495 495 496 506 524 536 543 548 557 569 583 599 615 626 635 639 653 673 694 714 727 733 737 740 748 765 781 793 801 806 816 828 840 847 852 865 875 889 903 916 926 932 938 943 950 952 952 952 944 930 921 915 915 915 918 927 936 937 941 960 986 1000 1005 1007 1008 1008 1009 1009 1011 1013 1016 1020 1029 1029 1029 1029 1018 1006 1006 1006 1006 1007 1009 1015 1025 1037 1044 1048 1064 1074 1081 1087 1088 1090 1091 1093 1094 1095 1096 1097 1097 1097 1097 1098 1098 1098 1098 1097 1097 1097 1096 1096 1096 1096 1096 1095 1095 1095 1095 1095 1095 1095 1095 1094 1094 1094 1094 1093 1092 1091 1090 1089 1088 1088 1088 1087 1087 1085 1085 1083 1082 1082 1081 1076 1074 1066 1055 1050 1045 0 0 0 1011 1011 1031 1047 1059 1059 1063 1066 1070 1072 1073 1073 1073 1074 1075 1076 1076 1077 1077 1076 1076 1076 1076 1076 1076 1076 1075 1075 1074 1072 1071 1070 1069 1067 1063 1060 1055 1038 1018 973 941 936 924 915 915 915 919 919 919 919 919 920 930 940 943 944 948 962 971 971 977 985 1003 1016 1019 1022 1029 1035 1036 1037 1040 1040 1040 1038 1019 1005 992 990 986 979 975 970 968 968 968 968 966 963 963 963 965 966 966 968 968 968 971 973 976 978 981 985 988 988 988 988 988 996 1005 1015 1023 1031 1036 1038 1039 1040 1042 1042 1043 1043 1043 1043 1043 1042 1042 1042 1042 1042 1042 1041 1041 1041 1041 1039 1038 1036 1034 1032 1031 1031 1028 1022 1021 1021 1020 1019 1021 1021 1025 1027 1028 1028 1028 1029 1030 1031 1032 1032 1032 1032 1031 1031 1030 1030 1029 1028 1028 1027 1026 1026 1026 1025 1025 1024 1024 1024 1024 1024 1023 1022 1021 1019 1018 1016 1014 1012 1008 1004 1002 997 988 985 978 971 971 971 970 970 970 969 968 968 968 968 969 969 970 970 970 970 970 971 973 975 976 979 981 983 985 986 988 989 990 992 994 994 994 994 993 991 988 985 981 980 979 976 972 970 968 967 965 962 960 957 955 953 952 952 950 949 947 946 945 944 944 942 942 942 942 944 949 951 953 955 957 959 960 961 967 972 973 974 977 980 982 983 984 984 984 984 984 984 984 984 983 983 982 981 981 980 980 980 980 979 978 978 977 975 972 967 966 965 960 950 946 946 946 946 946 949 950 954 961 964 965 965 965 967 969 970 971 971 971 972 972 972 973 973 973 973 972 972 972 971 971 971 971 971 971 971 971 970 970 970 969 969 969 968 968 968 967 967 966 966 966 965 965 965 965 965 965 964 964 964 964 964 964 963 963 963 963 963 963 963 963 963 963 963 962 961 961 960 960 960 959 958 958 957 956 955 954 953 952 952 950 949 947 944 943 943 940 931 909 890 878 856 852 842 831 797 776 752 752 752 784 784 0 0 0 0 0 0 0 642 0 0 0 0 0 0 0 0 0 0 0 0 0 495 507 519 519 519 0 0 0 0 0 0 0 0 0 0 0 0 0 0 0 0 0 0 0 0 0 0 0 0 0 0 0 0 0 0 0 0 0 0 0 0 0 0 0 0 0 0 0 0 0 0
494 494 496 506 524 536 543 548 556 567 583 599 615 626 635 639 653 673 694 714 727 733 738 740 748 765 781 793 801 805 816 828 841 850 852 862 874 884 895 908 918 925 927 928 929 930 930 930 928 924 921 915 915 915 918 927 936 937 941 952 964 982 991 993 1003 1007 1008 1009 1011 1013 1016 1020 1024 1024 1024 1023 1016 1006 1006 1006 1006 1007 1009 1013 1019 1027 1036 1041 1058 1073 1078 1084 1087 1089 1090 1092 1093 1094 1094 1095 1096 1096 1096 1096 1096 1096 1096 1096 1096 1096 1095 1095 1094 1094 1094 1094 1094 1094 1094 1094 1093 1094 1094 1093 1093 1093 1093 1092 1091 1090 1089 1088 1087 1087 1086 1086 1086 1085 1082 1082 1081 1080 1080 1072 1065 1052 0 0 0 0 0 0 0 987 1017 1040 1051 1057 1063 1066 1068 1070 1073 1073 1073 1074 1075 1075 1075 1075 1076 1076 1075 1075 1075 1075 1075 1075 1074 1074 1072 1072 1070 1069 1068 1065 1062 1060 1055 1045 1024 976 956 945 932 915 915 915 919 920 920 923 923 924 938 949 959 967 970 974 980 982 983 999 1013 1020 1027 1031 1036 1037 1039 1039 1041 1041 1041 1039 1024 1005 992 990 986 980 975 970 968 968 968 967 966 963 963 963 964 966 966 967 968 968 969 972 974 977 980 984 985 985 985 985 985 992 1001 1010 1021 1030 1035 1035 1036 1038 1040 1040 1041 1041 1041 1041 1041 1041 1041 1041 1041 1041 1040 1040 1039 1038 1038 1036 1035 1033 1031 1028 1025 1022 1016 1012 1010 1010 1010 1014 1014 1017 1021 1025 1026 1026 1026 1028 1029 1030 1031 1031 1031 1031 1031 1030 1030 1030 1028 1028 1027 1027 1026 1025 1025 1024 1024 1024 1024 1023 1023 1023 1023 1021 1020 1018 1018 1015 1014 1012 1009 1004 1003 998 989 986 978 970 970 970 970 970 970 969 969 969 971 971 971 971 971 972 973 973 974 975 975 976 981 985 987 988 990 991 992 993 993 994 994 994 994 994 993 990 988 985 981 980 979 975 972 970 968 967 965 962 960 957 954 951 951 950 949 947 946 945 945 944 942 940 940 940 941 942 946 949 950 952 953 956 957 958 966 971 971 972 975 977 979 980 982 982 982 982 983 983 983 983 982 981 981 979 979 978 978 978 978 978 976 975 974 971 968 963 958 955 953 949 942 942 942 944 946 948 949 950 957 963 963 963 964 965 966 969 970 971 971 971 972 972 972 972 972 971 971 971 971 971 971 971 971 971 970 970 970 969 969 969 969 969 968 967 967 967 966 966 966 965 965 965 965 964 964 964 964 964 964 963 963 963 963 963 963 963 963 963 962 962 962 962 961 961 961 961 960 960 959 959 958 957 957 956 956 954 953 953 952 951 950 949 947 944 943 943 941 936 915 897 879 858 856 854 831 781 776 752 752 752 775 775 775 0 0 0 0 0 644 650 665 0 0 0 0 0 0 0 0 0 0 0 0 533 533 530 530 530 0 0 0 0 0 0 0 0 0 0 0 0 0 0 0 0 0 0 0 0 0 0 0 0 0 0 0 0 0 0 0 0 0 0 0 0 0 0 0 0 0 0 0 0 0 0
494 494 496 506 524 538 543 545 554 567 584 602 615 626 634 638 651 673 694 713 727 733 738 742 748 762 774 786 799 803 817 832 846 853 855 862 872 878 886 898 908 911 915 921 921 922 924 928 928 927 927 928 935 942 946 946 946 948 948 952 964 982 991 993 1003 1010 1013 1013 1015 1016 1016 1020 1024 1024 1024 1022 1016 1006 1006 1006 1006 1007 1009 1013 1018 1025 1035 1040 1056 1071 1077 1083 1085 1087 1089 1090 1092 1093 1094 1094 1094 1095 1095 1095 1095 1095 1095 1095 1094 1094 1094 1094 1094 1094 1093 1093 1093 1092 1092 1092 1092 1092 1092 1092 1092 1092 1090 1090 1089 1089 1088 1088 1086 1085 1084 1084 1082 1080 1078 1077 1076 1075 1068 1053 0 0 0 0 0 0 0 0 0 0 1001 1028 1042 1056 1062 1066 1068 1070 1071 1072 1073 1074 1074 1074 1074 1075 1075 1075 1075 1074 1074 1074 1073 1073 1073 1072 1071 1070 1069 1068 1066 1064 1061 1059 1055 1048 1029 998 973 954 938 924 923 923 923 931 932 934 935 938 949 965 972 981 987 994 1002 1012 1020 1024 1029 1031 1035 1037 1038 1041 1041 1042 1043 1042 1042 1039 1035 1024 1001 994 986 981 976 972 969 967 967 966 965 963 961 961 961 965 965 965 965 967 968 970 972 974 978 981 984 984 984 984 984 986 1001 1009 1017 1025 1029 1033 1035 1037 1038 1039 1039 1039 1039 1039 1039 1039 1039 1039 1039 1038 1037 1037 1037 1036 1036 1033 1032 1031 1029 1023 1021 1015 1007 1005 1005 1005 1004 1005 1007 1008 1017 1023 1025 1025 1026 1026 1028 1028 1029 1029 1029 1030 1029 1029 1029 1028 1028 1026 1026 1026 1025 1025 1024 1023 1023 1023 1023 1023 1022 1022 1021 1020 1019 1017 1016 1015 1013 1012 1009 1004 1003 999 995 989 978 970 970 970 969 969 969 969 969 970 971 972 972 972 972 975 979 980 980 981 982 983 987 988 990 991 992 993 993 994 994 994 994 994 994 994 993 991 988 985 981 980 978 975 971 970 968 966 964 961 959 957 954 950 949 948 946 945 945 945 944 944 941 940 940 940 941 942 945 946 948 949 950 951 952 954 956 959 963 966 971 975 976 978 979 980 980 980 980 981 981 981 980 979 978 978 978 978 978 977 976 974 973 971 969 966 961 955 954 940 935 935 935 938 940 942 945 947 949 949 949 952 958 960 962 963 965 967 969 970 970 971 971 971 971 971 971 971 971 971 970 970 970 970 970 969 969 969 969 968 968 968 968 968 967 967 967 967 966 965 965 964 964 964 964 963 963 963 963 963 963 963 963 962 963 962 962 962 962 962 962 962 961 961 961 960 960 960 960 959 958 957 956 956 955 955 955 954 953 952 951 950 949 948 947 945 943 943 942 938 926 910 893 874 859 851 0 781 775 762 762 762 762 762 757 727 0 0 0 644 644 664 693 698 0 0 0 0 0 0 0 0 0 0 0 0 533 530 530 0 0 0 0 0 0 0 0 0 0 0 0 0 0 0 0 0 0 0 0 0 0 0 0 0 0 0 0 0 0 0 0 0 0 0 0 0 0 0 0 0 0 0 0 0 0 0
493 493 494 506 524 538 543 544 554 569 585 602 615 625 633 637 649 670 693 709 724 733 737 744 749 758 768 781 797 801 818 832 846 853 855 862 866 872 885 893 902 908 914 918 921 922 924 928 928 932 933 935 941 950 956 956 956 956 956 956 964 982 991 993 1003 1013 1020 1020 1021 1021 1022 1023 1024 1024 1024 1022 1016 1012 1012 1012 1011 1013 1014 1014 1018 1025 1035 1040 1056 1069 1076 1081 1084 1085 1087 1089 1090 1091 1092 1093 1093 1093 1093 1093 1094 1094 1093 1093 1093 1093 1093 1092 1092 1092 1092 1092 1091 1091 1091 1091 1091 1091 1091 1091 1090 1090 1090 1089 1089 1088 1088 1086 1085 1083 1081 1077 1074 1073 1073 1069 1059 0 0 0 0 0 0 0 901 900 900 902 0 0 0 1023 1041 1052 1061 1065 1068 1070 1071 1071 1071 1072 1073 1073 1073 1073 1073 1073 1073 1073 1073 1073 1072 1072 1072 1071 1070 1069 1069 1067 1066 1062 1061 1058 1056 1051 1038 1022 987 955 944 933 930 930 930 936 942 944 946 948 961 975 986 998 1004 1012 1019 1026 1028 1029 1034 1039 1041 1041 1042 1042 1042 1043 1043 1043 1042 1042 1035 1024 1007 997 987 981 976 973 969 967 967 966 964 963 961 961 961 962 963 963 964 966 967 968 969 972 975 978 980 982 983 983 984 986 1001 1006 1017 1019 1027 1031 1035 1036 1037 1037 1037 1037 1037 1037 1037 1037 1037 1035 1035 1034 1034 1033 1031 1031 1030 1029 1024 1019 1014 1010 1004 1003 1003 1002 1001 1001 1001 1003 1003 1004 1013 1018 1022 1023 1023 1024 1026 1027 1028 1028 1028 1028 1028 1028 1028 1027 1026 1026 1025 1025 1024 1024 1023 1023 1022 1022 1022 1022 1022 1020 1020 1019 1017 1016 1014 1013 1012 1010 1009 1005 1004 1001 997 991 980 971 970 969 969 969 969 969 970 970 972 974 974 974 977 982 984 984 984 986 988 990 992 993 993 994 994 994 994 995 995 995 995 994 994 994 993 991 988 986 982 980 978 974 971 970 968 965 963 960 958 956 953 950 949 947 946 945 944 944 944 943 941 940 940 940 941 942 943 944 946 947 948 949 950 950 951 957 960 965 968 970 973 976 977 977 977 978 978 978 978 978 978 978 977 977 977 976 974 971 971 970 969 965 960 953 945 942 939 936 930 930 930 933 936 940 944 946 947 948 948 948 955 959 961 963 963 965 967 969 970 971 971 971 971 970 970 970 970 970 969 969 969 968 968 968 968 968 968 968 968 967 967 967 966 966 966 965 965 965 964 964 963 963 963 963 963 962 962 962 962 962 962 961 961 961 961 961 961 961 961 960 960 960 959 959 959 959 959 958 957 956 956 956 955 954 953 953 953 952 951 950 948 947 946 945 944 943 942 939 934 928 925 920 865 0 0 781 765 762 762 757 757 754 714 707 707 706 705 666 666 666 718 718 0 0 0 0 0 0 0 0 0 0 0 0 0 0 0 0 0 0 0 0 0 0 0 0 0 0 0 0 0 0 0 0 0 0 0 0 0 0 0 0 0 0 0 0 0 0 0 0 0 0 0 0 0 0 0 0 0 0 0 0 0 0
486 486 487 506 524 538 540 543 554 569 583 602 615 624 630 634 644 663 686 705 717 726 735 744 752 758 768 781 797 801 818 832 846 853 854 855 860 869 880 891 897 905 913 918 921 922 928 932 933 936 941 944 947 951 956 959 960 960 964 968 973 983 992 995 1011 1020 1024 1027 1027 1027 1027 1027 1027 1027 1025 1022 1020 1020 1019 1017 1017 1017 1017 1017 1018 1025 1035 1040 1054 1063 1073 1078 1081 1082 1085 1087 1088 1089 1090 1091 1092 1092 1092 1092 1092 1092 1092 1092 1092 1092 1091 1091 1091 1091 1091 1090 1090 1090 1089 1089 1089 1089 1089 1089 1089 1089 1088 1088 1087 1087 1086 1085 1083 1079 1075 1069 1067 1066 1056 0 0 0 0 0 0 0 887 886 886 886 888 889 907 0 0 1011 1037 1051 1061 1064 1067 1069 1069 1070 1070 1070 1071 1071 1072 1072 1072 1072 1072 1072 1071 1071 1071 1070 1070 1070 1069 1069 1068 1065 1063 1062 1061 1058 1055 1051 1044 1024 990 959 952 946 944 944 944 950 958 967 968 972 986 1004 1017 1019 1020 1028 1035 1036 1036 1037 1039 1044 1044 1044 1044 1043 1043 1043 1044 1044 1044 1042 1035 1024 1009 997 987 981 976 973 970 967 965 964 964 963 962 962 962 962 962 963 964 966 967 968 969 971 972 974 976 979 983 984 985 986 990 1004 1016 1017 1020 1028 1032 1034 1035 1035 1035 1035 1035 1035 1034 1033 1033 1032 1030 1030 1029 1028 1022 1014 1014 1012 1011 1004 1000 999 999 999 999 999 998 998 998 1002 1003 1004 1004 1016 1021 1021 1022 1022 1025 1026 1027 1027 1027 1027 1027 1027 1026 1026 1025 1025 1024 1024 1023 1023 1022 1022 1022 1022 1021 1021 1020 1020 1019 1017 1017 1015 1014 1012 1011 1010 1008 1004 1004 1001 997 992 982 972 971 970 970 969 969 969 970 972 973 975 979 980 983 985 987 987 988 989 991 992 993 994 994 995 996 996 996 996 996 996 996 995 995 994 993 991 989 986 983 980 976 974 971 970 968 965 960 957 956 953 951 949 948 947 945 944 944 944 943 943 941 940 940 940 940 941 941 943 943 944 946 948 949 949 951 952 956 963 967 968 971 973 974 975 976 976 976 976 976 976 976 976 975 975 974 974 968 968 967 965 963 956 948 938 936 934 934 934 930 930 930 930 934 938 943 945 946 947 948 948 954 959 960 960 960 962 965 966 967 969 969 969 969 969 969 969 969 969 969 969 968 968 968 967 967 967 967 966 966 966 966 966 966 965 965 965 964 964 963 963 963 963 962 962 961 961 961 961 961 961 961 961 961 961 961 961 961 960 960 960 960 959 959 958 958 957 957 956 956 955 955 955 954 954 953 952 952 951 950 949 948 947 946 945 944 943 942 941 938 933 930 924 877 0 0 781 765 765 757 753 748 712 707 705 705 705 705 693 693 693 718 718 0 0 0 0 0 0 0 0 0 0 0 0 0 0 0 0 0 0 0 0 0 0 0 0 0 0 0 0 0 0 0 0 0 0 0 0 0 0 0 0 0 0 0 0 0 0 0 0 0 0 0 0 0 0 0 0 0 0 0 0 0 0
471 471 473 493 512 526 534 541 554 569 583 598 607 616 621 623 625 642 670 686 702 719 733 744 753 758 768 781 796 801 818 830 840 846 848 851 858 866 880 883 897 905 914 921 921 923 932 942 945 946 947 948 948 952 960 963 965 973 984 988 992 1003 1013 1016 1022 1026 1027 1030 1030 1030 1030 1029 1028 1027 1025 1022 1022 1020 1020 1018 1017 1017 1017 1019 1021 1029 1038 1042 1054 1062 1070 1075 1078 1080 1083 1085 1087 1088 1088 1089 1090 1090 1090 1090 1091 1091 1091 1090 1090 1090 1090 1090 1090 1090 1090 1089 1089 1089 1089 1088 1088 1088 1088 1088 1088 1088 1087 1085 1084 1082 1081 1081 1077 1074 1071 1065 1057 0 0 0 0 0 0 0 0 892 881 881 881 881 883 887 894 0 0 1011 1036 1051 1058 1063 1065 1066 1068 1069 1069 1070 1070 1070 1071 1071 1071 1070 1070 1070 1070 1070 1069 1069 1069 1068 1068 1067 1066 1064 1063 1061 1060 1057 1055 1051 1045 1027 996 965 963 963 963 969 976 986 987 987 1000 1013 1014 1018 1029 1033 1033 1039 1043 1043 1044 1044 1045 1045 1045 1045 1045 1044 1044 1044 1044 1044 1044 1042 1035 1024 1010 997 987 980 976 973 970 967 965 964 964 963 962 962 961 961 961 963 964 966 967 968 969 971 972 974 976 979 983 984 985 985 989 1000 1012 1016 1020 1027 1030 1032 1033 1033 1033 1033 1033 1032 1030 1030 1030 1029 1026 1025 1024 1022 1016 1013 1007 1006 1003 994 994 994 995 995 995 995 995 996 997 1001 1002 1003 1003 1011 1019 1020 1021 1022 1023 1024 1025 1026 1026 1026 1025 1025 1025 1025 1024 1023 1023 1023 1022 1022 1022 1022 1021 1021 1021 1020 1019 1018 1018 1016 1015 1015 1013 1012 1011 1009 1007 1004 1003 1001 997 993 983 973 971 970 970 970 970 971 972 973 974 981 982 983 984 985 987 987 989 991 994 994 995 995 995 996 997 997 997 997 997 996 996 995 995 995 993 992 989 986 984 979 973 973 969 969 966 963 958 956 953 950 949 948 947 945 945 944 943 943 943 943 942 941 941 941 941 941 941 941 941 942 944 946 949 949 951 951 954 959 965 967 969 970 972 974 974 974 974 974 974 974 974 972 971 971 970 968 960 957 957 953 948 944 933 932 932 932 932 932 928 928 928 929 932 937 943 945 945 945 946 946 949 957 959 959 960 960 962 964 965 966 967 967 968 968 968 968 968 968 967 967 967 967 967 966 966 966 966 966 966 966 965 965 965 964 964 964 963 963 962 962 962 961 961 961 961 961 960 960 960 960 959 959 959 959 959 959 959 959 959 959 958 958 958 958 957 957 957 956 955 955 954 954 953 952 952 951 951 950 950 948 948 947 946 945 944 943 942 941 938 936 933 925 916 0 0 784 757 757 757 753 748 712 707 705 705 707 717 717 718 718 717 0 0 0 0 0 0 0 0 0 0 0 0 0 0 0 0 0 0 0 0 0 0 0 0 0 0 0 0 0 0 0 0 0 0 0 0 0 0 0 0 0 0 0 0 0 0 0 0 0 0 0 0 0 0 0 0 0 0 0 0 0 0 0
457 457 460 482 500 515 529 538 550 569 583 592 601 608 608 608 611 614 631 657 682 707 732 749 761 766 775 786 789 792 814 824 832 837 842 847 854 864 867 883 897 905 915 922 933 936 938 942 948 950 950 952 952 962 967 967 971 979 999 1002 1006 1016 1023 1025 1025 1026 1029 1031 1034 1034 1034 1034 1031 1029 1026 1023 1022 1021 1021 1018 1018 1018 1018 1022 1026 1033 1041 1045 1054 1062 1070 1075 1077 1080 1081 1083 1084 1085 1086 1088 1088 1088 1088 1089 1089 1089 1089 1089 1089 1089 1089 1089 1089 1089 1088 1088 1088 1088 1088 1088 1088 1087 1087 1087 1086 1085 1083 1081 1081 1078 1074 1073 1072 1067 0 0 0 0 0 0 0 0 882 882 882 882 877 876 876 876 877 878 892 0 0 1004 1035 1049 1053 1058 1061 1064 1067 1068 1068 1069 1069 1069 1069 1069 1069 1069 1069 1068 1068 1068 1068 1068 1068 1067 1066 1066 1065 1063 1062 1061 1059 1057 1055 1051 1046 1029 1008 987 978 978 978 985 996 1010 1013 1014 1024 1031 1031 1031 1036 1041 1044 1045 1045 1046 1046 1046 1046 1046 1046 1046 1046 1045 1045 1044 1044 1044 1044 1039 1035 1024 1014 997 987 979 972 972 970 967 965 964 964 963 962 962 961 961 961 963 965 966 968 968 969 971 972 974 976 979 983 984 984 985 988 996 1006 1016 1020 1025 1029 1030 1031 1031 1031 1029 1029 1029 1029 1027 1026 1026 1023 1017 1017 1015 1009 1007 1003 1003 996 991 991 991 991 993 994 994 995 995 997 1000 1000 1002 1003 1010 1015 1016 1017 1019 1019 1022 1022 1024 1024 1024 1024 1024 1024 1024 1023 1022 1022 1022 1022 1021 1021 1021 1020 1020 1020 1019 1018 1018 1017 1016 1015 1013 1013 1011 1009 1008 1006 1004 1002 1001 997 993 985 974 973 972 972 972 975 976 979 980 980 984 985 986 986 988 989 990 993 995 995 995 995 995 996 997 998 998 998 998 997 996 996 995 995 995 993 992 989 987 985 979 973 970 965 964 964 961 958 956 953 950 947 947 945 945 943 943 943 943 943 943 942 941 941 940 940 940 940 940 940 940 943 946 948 950 951 951 953 958 960 963 966 968 970 971 971 971 971 971 970 970 970 969 967 966 965 964 959 954 949 942 936 931 928 928 928 929 929 929 928 927 927 927 931 936 942 942 942 943 944 944 946 952 956 956 956 956 959 961 963 965 966 966 966 966 966 966 966 966 966 966 966 966 966 966 966 966 966 965 965 965 964 964 964 964 963 963 962 962 962 962 961 961 960 960 960 959 959 959 959 959 959 958 958 958 958 958 958 958 958 958 957 957 957 956 956 955 955 954 954 953 953 952 952 951 951 950 949 949 949 948 948 947 946 945 944 943 942 941 940 937 935 932 922 0 0 0 754 754 748 748 748 712 707 705 705 707 727 727 727 691 0 0 0 0 0 0 0 0 0 0 0 0 0 0 0 0 0 0 0 0 0 0 0 0 0 0 0 0 0 0 0 0 0 0 0 0 0 0 0 0 0 0 0 0 0 0 0 0 0 0 0 0 0 0 0 0 0 0 0 0 0 0 0 0
452 452 455 469 489 508 524 533 545 565 578 584 594 601 601 602 604 606 630 648 675 702 731 749 761 770 775 786 789 792 809 818 825 832 837 844 852 858 867 883 898 912 924 935 941 944 945 947 955 961 964 966 970 974 976 980 989 997 1007 1013 1020 1024 1028 1031 1032 1032 1033 1034 1037 1037 1037 1035 1032 1030 1028 1026 1025 1023 1022 1019 1019 1019 1019 1025 1030 1034 1041 1045 1054 1061 1070 1074 1077 1078 1079 1081 1082 1083 1084 1085 1086 1086 1086 1087 1087 1087 1087 1088 1088 1088 1087 1087 1087 1087 1087 1087 1087 1087 1087 1087 1087 1087 1086 1085 1084 1082 1080 1078 1076 1070 1068 1066 0 0 0 0 0 0 0 885 882 879 879 878 877 876 876 876 875 875 876 876 888 0 0 999 1026 1035 1049 1058 1061 1064 1066 1067 1067 1067 1067 1067 1067 1067 1067 1067 1067 1067 1067 1066 1066 1066 1066 1065 1065 1064 1062 1061 1061 1059 1058 1056 1052 1050 1046 1040 1021 998 998 998 1003 1012 1013 1016 1020 1021 1030 1037 1037 1041 1042 1044 1045 1046 1046 1046 1046 1046 1046 1046 1046 1046 1046 1046 1045 1044 1044 1043 1042 1039 1037 1032 1022 997 987 979 972 971 970 968 966 964 964 963 962 962 961 961 961 963 965 966 968 969 970 971 973 976 978 981 981 983 984 985 988 996 1006 1014 1020 1024 1025 1026 1027 1027 1027 1027 1027 1026 1026 1020 1016 1014 1012 1012 1003 1000 1000 998 998 995 993 990 988 988 988 991 993 993 994 994 996 999 999 1000 1003 1003 1009 1010 1013 1016 1018 1021 1021 1022 1022 1023 1023 1023 1022 1021 1021 1021 1021 1021 1021 1020 1020 1020 1020 1019 1019 1018 1018 1017 1016 1015 1014 1013 1011 1010 1009 1007 1006 1003 1001 999 997 993 988 980 976 976 976 977 981 981 982 982 982 985 987 988 990 991 991 993 994 995 995 996 996 996 997 997 998 998 998 998 998 996 996 995 995 994 993 993 989 986 984 978 973 970 965 963 961 960 958 956 953 949 947 946 945 944 943 943 943 943 943 942 942 941 940 940 940 940 939 939 939 940 942 945 948 950 951 951 952 956 959 963 965 968 968 968 968 968 968 968 968 967 967 966 964 961 955 953 950 949 946 942 936 931 928 927 927 927 927 927 927 926 926 926 930 933 937 938 940 940 940 941 944 946 950 950 950 952 954 959 962 963 963 964 965 965 965 965 965 965 965 966 966 966 966 965 965 965 965 965 964 964 964 963 963 963 962 962 962 961 960 960 960 960 960 959 959 958 958 958 958 958 958 958 958 957 957 957 957 957 957 957 957 956 956 956 955 955 954 954 952 952 952 951 951 950 950 950 949 949 948 948 947 947 946 945 944 943 942 941 940 939 938 937 928 0 0 0 746 746 739 739 739 717 707 705 705 707 734 734 734 682 0 0 0 0 0 0 0 0 0 0 0 0 0 0 0 0 0 0 0 0 0 0 0 0 0 0 0 0 0 0 0 0 0 0 0 0 0 0 0 0 0 0 0 0 0 0 0 0 0 0 0 0 0 0 0 0 0 0 0 0 0 0 0 0
452 452 455 463 482 500 515 526 545 562 565 571 583 591 593 595 596 604 630 648 675 702 728 749 761 770 775 786 789 792 797 807 820 829 834 842 843 854 866 883 903 922 929 941 943 947 955 963 968 975 982 986 987 988 989 993 1000 1006 1014 1020 1027 1032 1035 1037 1040 1043 1043 1043 1043 1042 1041 1039 1033 1031 1028 1028 1027 1025 1023 1019 1019 1019 1021 1028 1032 1038 1042 1045 1053 1060 1068 1071 1075 1076 1077 1079 1080 1081 1083 1084 1084 1084 1085 1085 1086 1086 1086 1086 1086 1086 1086 1086 1085 1085 1085 1085 1085 1085 1085 1084 1084 1084 1081 1080 1080 1079 1079 1078 1073 1061 1050 0 0 0 0 0 904 893 886 882 881 879 878 878 877 876 876 876 875 875 876 876 879 0 0 999 1016 1033 1046 1056 1060 1063 1065 1066 1066 1066 1066 1065 1065 1065 1065 1065 1065 1065 1065 1064 1064 1064 1064 1063 1062 1061 1061 1060 1059 1058 1057 1055 1052 1049 1046 1040 1029 1017 1017 1017 1017 1024 1024 1025 1025 1025 1032 1037 1039 1042 1045 1045 1045 1046 1046 1046 1046 1046 1046 1046 1046 1046 1046 1046 1045 1044 1043 1043 1042 1039 1037 1034 1022 1005 989 979 972 971 970 970 967 965 965 964 962 962 961 961 961 963 965 967 968 970 970 971 974 978 980 983 983 983 984 985 988 996 1005 1013 1017 1021 1023 1025 1025 1025 1025 1026 1025 1024 1022 1012 1007 1006 1005 1003 999 997 996 995 993 991 990 990 988 986 986 986 992 992 992 993 993 997 997 998 999 999 1007 1008 1012 1016 1018 1019 1020 1020 1021 1021 1021 1021 1021 1021 1021 1020 1020 1020 1020 1020 1020 1019 1019 1019 1017 1017 1016 1016 1015 1014 1014 1012 1010 1008 1008 1006 1005 1003 1001 998 995 993 988 985 985 984 982 982 982 983 983 984 986 987 988 989 991 993 994 994 995 996 997 997 997 997 997 998 998 998 998 998 998 996 996 995 994 994 993 993 990 986 984 978 973 970 965 963 960 960 960 957 952 949 947 945 944 943 943 943 943 942 942 941 941 940 940 940 940 939 939 939 939 940 941 944 947 950 951 951 952 954 958 963 965 968 968 968 968 966 966 966 966 965 961 959 957 954 950 947 946 945 945 942 936 931 928 927 927 927 927 927 927 926 926 926 927 929 932 933 934 934 935 935 938 942 943 943 947 950 952 956 958 959 961 962 962 963 964 964 964 965 965 965 965 965 965 964 964 964 964 964 963 963 963 962 962 962 962 961 960 960 960 959 959 959 959 958 958 958 957 957 957 956 956 956 956 956 956 957 956 956 956 956 956 955 954 954 954 953 953 952 951 951 950 950 949 949 949 948 948 947 947 947 946 945 945 944 944 943 942 941 940 938 937 934 928 0 0 0 0 738 738 739 739 739 732 729 729 732 738 738 738 682 0 0 0 0 0 0 0 0 0 0 0 0 0 0 0 0 0 0 0 0 0 0 0 0 0 0 0 0 0 0 0 0 0 0 0 0 0 0 0 0 0 0 0 0 0 0 0 0 0 0 0 0 0 0 0 0 0 0 0 0 0 0 0 0
452 452 455 459 469 483 498 515 538 551 553 556 570 583 589 590 592 612 630 648 675 702 728 747 760 770 775 776 777 780 786 801 815 825 830 836 843 849 858 883 907 926 930 942 949 952 959 970 978 985 990 992 994 997 1000 1003 1008 1013 1020 1027 1034 1037 1041 1042 1045 1048 1048 1048 1048 1046 1046 1041 1037 1033 1031 1029 1027 1025 1023 1021 1021 1021 1024 1030 1035 1039 1042 1045 1051 1058 1065 1070 1073 1075 1076 1078 1079 1080 1081 1082 1082 1083 1084 1084 1084 1084 1084 1084 1084 1084 1084 1084 1084 1084 1084 1084 1083 1083 1082 1082 1080 1079 1077 1075 1071 1071 1070 1069 0 0 0 0 0 0 889 888 888 886 883 881 878 878 878 877 877 877 877 877 877 877 879 879 879 0 0 980 1009 1029 1043 1052 1060 1062 1063 1064 1064 1064 1064 1064 1064 1064 1064 1064 1064 1063 1063 1063 1063 1063 1062 1061 1061 1059 1059 1058 1057 1056 1056 1055 1051 1048 1045 1040 1030 1024 1020 1020 1020 1026 1030 1034 1036 1038 1039 1040 1043 1045 1045 1046 1046 1046 1046 1046 1046 1046 1046 1046 1046 1046 1046 1046 1045 1044 1043 1043 1041 1039 1037 1034 1022 1008 990 982 975 971 970 970 968 966 965 964 963 962 962 962 962 963 965 967 968 970 971 973 976 979 983 985 985 985 986 986 992 996 1005 1013 1016 1020 1022 1022 1022 1023 1022 1022 1022 1018 1015 1010 1000 998 994 993 993 993 993 992 990 987 987 987 983 983 983 983 988 988 989 990 990 991 992 993 993 998 1006 1007 1012 1014 1017 1019 1019 1019 1019 1020 1020 1020 1020 1020 1020 1019 1019 1019 1019 1019 1019 1018 1018 1017 1016 1015 1015 1014 1014 1013 1011 1010 1009 1008 1006 1005 1004 1002 1000 997 995 992 988 987 985 984 984 984 984 984 985 988 989 989 991 992 993 994 994 996 996 997 997 997 998 998 998 998 998 998 998 998 998 996 996 995 994 994 993 993 991 986 982 979 973 967 966 963 960 960 960 957 952 948 946 945 943 943 942 942 942 942 942 941 941 940 940 940 940 939 939 939 939 940 940 942 945 948 949 949 950 952 953 957 962 968 968 968 968 965 962 960 960 957 951 950 950 946 944 943 942 942 942 939 936 933 929 927 926 926 926 926 926 926 926 926 927 928 928 929 930 930 931 932 933 938 938 940 941 947 951 954 954 954 956 959 960 960 962 962 963 964 964 965 965 965 964 964 964 963 963 962 962 962 962 962 961 961 960 960 960 959 958 958 958 958 957 957 957 957 956 956 956 956 956 955 955 955 955 955 955 955 955 955 955 954 954 953 953 953 952 951 951 950 950 949 948 948 948 948 948 947 946 946 946 945 944 944 943 942 942 941 940 938 935 934 928 918 0 0 0 0 723 723 725 726 727 739 739 741 741 739 0 0 0 0 0 0 0 0 0 0 0 0 679 679 689 0 0 0 0 0 0 0 0 0 0 0 0 0 0 0 0 0 0 0 0 0 0 0 0 0 0 0 0 0 0 0 0 0 0 0 0 0 0 0 0 0 0 0 0 0 0 0 0 0 0 0
457 457 459 459 469 483 484 499 521 536 537 542 554 569 581 584 590 612 630 648 675 702 728 741 752 758 764 768 771 774 785 801 811 818 824 836 843 849 864 886 915 926 936 942 955 958 966 976 984 989 993 996 997 1000 1005 1011 1018 1026 1030 1033 1038 1041 1045 1045 1047 1048 1049 1049 1049 1048 1046 1045 1041 1035 1031 1030 1028 1026 1023 1023 1023 1023 1025 1030 1035 1039 1042 1044 1050 1057 1064 1068 1071 1073 1074 1076 1077 1078 1079 1081 1081 1082 1082 1082 1083 1083 1083 1083 1083 1083 1083 1083 1083 1083 1082 1081 1081 1081 1080 1079 1079 1076 1074 1073 1067 1058 1048 1032 0 0 0 0 908 894 884 881 881 880 880 878 878 877 878 878 878 880 881 883 883 883 882 882 882 899 927 967 1000 1025 1038 1048 1058 1061 1061 1062 1062 1062 1062 1062 1062 1062 1062 1062 1062 1061 1061 1061 1061 1061 1061 1060 1059 1057 1057 1056 1055 1055 1052 1051 1048 1044 1042 1038 1030 1026 1026 1026 1032 1034 1035 1038 1041 1042 1043 1045 1045 1046 1046 1046 1046 1046 1046 1046 1046 1046 1046 1046 1046 1046 1046 1046 1045 1044 1043 1043 1041 1039 1036 1032 1027 1013 998 982 975 972 971 971 969 967 966 964 963 963 963 964 964 965 966 967 969 971 973 975 979 981 984 987 991 991 992 993 993 999 1006 1014 1017 1019 1019 1020 1020 1020 1020 1019 1015 1009 1006 999 994 991 989 989 989 988 988 987 986 984 982 980 979 979 980 980 985 985 985 985 985 987 990 991 992 997 1004 1006 1007 1010 1013 1016 1016 1016 1018 1018 1018 1018 1018 1019 1019 1018 1019 1018 1018 1018 1018 1017 1017 1017 1015 1014 1013 1013 1013 1010 1009 1009 1008 1005 1005 1003 1002 1000 999 997 994 990 988 987 986 986 986 987 988 989 989 991 991 992 993 994 994 995 995 996 996 997 997 998 998 998 998 998 997 997 997 997 997 996 996 995 994 994 993 993 990 986 982 979 973 968 966 963 960 960 960 957 952 948 945 944 943 941 941 941 941 941 941 941 940 940 940 940 940 939 939 939 939 939 940 940 943 945 949 949 950 951 952 954 962 969 969 969 967 965 960 952 952 951 946 945 943 943 942 940 939 939 937 936 936 933 930 928 927 926 926 925 925 925 925 926 927 928 928 928 927 927 927 929 931 934 934 936 936 943 950 952 953 954 954 957 959 960 960 961 962 963 963 964 964 964 964 964 963 963 962 961 961 961 961 961 961 960 960 959 959 958 958 957 957 957 956 956 956 955 955 955 955 955 955 955 954 954 954 954 954 954 954 954 953 953 952 952 952 951 951 951 950 949 948 948 948 948 947 947 946 946 946 945 945 944 944 944 943 942 942 941 940 938 936 934 932 923 906 0 0 0 0 720 723 726 727 739 739 741 741 739 0 0 682 0 0 0 0 0 0 0 0 701 701 701 707 707 0 0 0 0 0 0 0 0 0 0 0 0 0 0 0 0 0 0 0 0 0 0 0 0 0 0 0 0 0 0 0 0 0 0 0 0 0 0 0 0 0 0 0 0 0 0 0 0 0 0
469 469 469 469 470 483 484 497 503 515 518 524 537 553 568 571 590 612 630 648 675 702 724 735 738 746 754 762 770 773 785 800 809 810 824 836 843 855 864 886 916 929 939 944 959 963 975 981 986 991 995 998 1001 1003 1008 1016 1026 1029 1032 1035 1040 1044 1046 1048 1048 1049 1050 1051 1051 1051 1047 1046 1042 1038 1033 1031 1029 1026 1024 1023 1023 1023 1025 1030 1035 1039 1040 1043 1048 1055 1061 1066 1070 1071 1073 1074 1076 1077 1079 1079 1079 1080 1081 1081 1082 1082 1082 1082 1082 1082 1082 1081 1081 1080 1080 1080 1080 1080 1079 1078 1077 1075 1072 1070 1061 1039 0 0 0 0 0 883 882 879 878 871 871 871 873 876 876 877 878 878 878 880 881 883 883 883 882 882 882 897 919 945 982 1013 1035 1047 1055 1059 1059 1060 1060 1060 1060 1060 1061 1061 1061 1061 1060 1060 1059 1059 1059 1059 1059 1058 1056 1055 1054 1054 1054 1052 1047 1045 1044 1040 1037 1033 1030 1030 1030 1035 1037 1037 1037 1040 1041 1042 1044 1045 1046 1046 1046 1046 1046 1046 1046 1046 1046 1046 1046 1046 1046 1046 1045 1045 1045 1044 1043 1041 1041 1039 1034 1030 1028 1022 999 983 977 972 972 971 969 968 968 967 967 967 967 967 967 967 967 968 971 974 977 981 982 984 986 988 992 993 995 997 998 1002 1008 1014 1017 1018 1018 1018 1018 1017 1011 1007 1006 1004 999 994 990 987 986 985 983 983 983 983 983 982 981 979 977 977 977 980 980 980 981 981 981 985 987 988 989 990 995 998 1002 1007 1010 1013 1013 1014 1015 1016 1017 1017 1017 1017 1017 1017 1018 1018 1018 1018 1017 1017 1016 1015 1015 1014 1013 1011 1010 1009 1007 1007 1005 1004 1003 1001 998 996 996 996 994 989 988 986 986 987 987 988 988 989 990 992 993 994 994 995 995 995 996 996 996 997 997 998 998 998 998 997 997 996 996 996 996 996 996 995 994 993 993 993 990 985 982 977 972 970 969 963 960 958 957 954 950 947 945 944 943 941 941 941 941 941 941 940 940 940 940 939 939 939 939 939 939 939 939 940 941 945 949 949 950 951 952 954 961 969 969 969 966 965 960 950 944 944 941 940 939 939 939 939 939 937 935 934 934 933 930 928 927 926 926 925 925 925 925 926 927 927 927 927 927 927 927 927 927 927 927 927 929 932 944 948 948 951 953 954 956 957 957 958 960 960 962 963 963 963 963 962 962 962 961 961 961 961 961 961 960 959 959 959 958 957 957 956 956 956 956 955 955 954 954 954 954 953 953 953 953 953 953 953 953 953 953 953 953 952 952 951 951 950 950 950 949 949 948 948 948 947 946 945 945 945 945 944 944 944 943 943 942 941 941 941 939 938 936 935 934 934 922 906 0 0 0 0 716 716 716 718 739 741 741 0 0 0 682 682 688 688 692 0 0 0 0 725 725 725 710 710 0 0 0 0 0 0 0 0 0 0 0 0 0 0 0 0 0 0 0 0 0 0 0 0 0 0 0 0 0 0 0 0 0 0 0 0 0 0 0 0 0 0 0 0 0 0 0 0 0 0
