593 593 606 631 631 665 684 694 709 728 743 762 773 783 796 816 838 842 869 899 932 966 994 1017 1035 1056 1079 1099 1112 1125 1141 1146 1165 1180 1191 1206 1221 1236 1251 1266 1286 1298 1312 1328 1339 1349 1350 1355 1356 1362 1369 1377 1383 1390 1396 1400 1404 1410 1415 1418 1421 1423 1426 1427 1430 1434 1436 1437 1438 1439 1439 1439 1440 1442 1442 1442 1440 1438 1430 1402 0 0 0 0 0 0 900 895 882 874 874 874 879 881 884 884 884 886 887 889 891 892 894 895 897 898 900 901 902 904 906 907 908 910 911 913 915 917 918 920 921 922 924 924 924 924 924 924 924 924 924 920 916 907 890 867 860 860 860 862 867 873 873 873 873 873 880 885 889 893 899 901 902 908 912 916 916 917 918 922 939 948 949 949 951 951 951 947 937 927 927 924 922 920 900 900 900 901 903 903 903 901 901 901 905 909 915 918 918 918 919 920 926 932 952 982 1005 1025 1038 1048 1054 1059 1062 1064 1066 1070 1072 1075 1077 1078 1081 1083 1085 1088 1090 1091 1093 1094 1095 1095 1095 1094 1093 1087 1081 1078 1061 1036 1006 987 987 987 989 995 999 999 1001 1002 1002 1006 1010 1013 1019 1024 1042 1056 1062 1077 1096 1129 1155 1165 1172 1179 1188 1191 1194 1197 1199 1201 1203 1206 1210 1214 1215 1217 1219 1221 1224 1227 1228 1228 1228 1228 1221 1209 1196 1196 1195 1194 1196 1197 1203 1204 1206 1211 1226 1255 1255 1255 1251 1251 1243 1240 1239 1237 1237 1228 1208 1200 1198 1198 1198 1208 1211 1211 1222 1235 1239 1241 1257 1297 1335 1358 1375 1389 1394 1400 1402 1405 1405 1405 1405 1406 1408 1408 1408 1406 1400 1392 1381 1368 1334 1302 1277 1262 1256 1251 1251 1251 1257 1259 1271 1289 1308 0 0 1449 1477 1499 1510 1514 1519 1524 1527 1532 1536 1540 1544 1549 1553 1557 1561 1563 1566 1568 1569 1570 1573 1577 1582 1582 1582 1585 1585 1582 1581 0 0 0 0 0 1619 1621 1622 1623 1623 1624 1624 1630 1630 1630 1630 1630 1628 1625 1623 1619 1613 1609 1606 1605 1602 1600 1598 1597 1596 1596 1594 1593 1593 1592 1592 1591 1591 1590 1590 1590 1590 1589 1589 1588 1587 1586 1586 1583 1582 1580 1579 1579 1577 1576 1575 1574 1573 1572 1571 1571 1571 1570 1570 1570 1569 1568 1564 1559 1555 1553 1547 1543 1523 1504 1496 1477 1451 1421 1405 1387 0 0 0 0 0 0 0 0 0 0 1470 1472 1472 1472 1462 1452 1444 1425 1425 1425 1425 1425 1425 1413 1382 1353 1333 1319 1315 1313 1310 1292 1292 1292 1312 1318 1318 1318 1318 1318 1318 1334 1344 1352 0 0 0 0 0 0 0 1802 1802 1802 1803 1803 1803 1835 1842 1842 1842 1834 1821 1809 1809 1809 1820 1820 1820 1807 1783 1753 1724 0 0 0 0 0 0 0 0 0 0 0 0 0 0 1912 1887 1847 1804 1769 1766 1766 1757 1757 1741 1705 1705 1705 1717 1719 1719 1717 1716 1716 1716 1729 1729 1731 1729 1728 1726 1723 1711 1684 1641 1606 0 0 0 0 0 0 0 0 876 870 865 870 870 865 864 0 0 0 0 0 0 0 0 0 0 0 1080 1084 1087 1087 1111 1125 1125 1125 0 0 0 0 0 0 0 0 640 599 599 599 606 606 606 0 0 0 0 0 0 0 0 0 0 0 0 0 0 0
593 593 606 629 631 665 684 694 713 733 750 767 779 790 804 823 847 851 876 902 933 972 1004 1026 1044 1063 1086 1103 1116 1131 1148 1153 1172 1185 1195 1207 1220 1235 1247 1261 1279 1295 1312 1328 1339 1349 1354 1358 1361 1367 1374 1382 1387 1393 1398 1403 1408 1412 1417 1420 1423 1425 1427 1429 1432 1434 1436 1438 1440 1440 1440 1441 1441 1442 1442 1442 1440 1436 1430 1402 0 0 0 0 0 0 901 895 883 874 874 874 879 882 884 884 885 886 888 889 891 893 894 896 898 899 900 902 903 905 906 908 909 910 912 914 916 917 919 921 921 923 924 925 926 926 926 926 926 925 924 922 919 913 899 879 871 871 871 871 874 875 877 878 878 879 882 892 901 904 906 911 914 918 922 927 932 936 939 949 959 964 964 964 964 959 952 947 935 923 912 911 911 899 891 891 891 892 894 895 895 896 897 897 904 907 914 914 914 917 917 920 926 931 946 982 1005 1025 1038 1049 1056 1060 1062 1065 1068 1070 1073 1075 1077 1080 1082 1084 1086 1089 1090 1092 1094 1094 1095 1095 1095 1095 1093 1088 1086 1078 1061 1036 1014 990 990 990 990 996 1002 1002 1002 1005 1005 1006 1010 1013 1020 1033 1048 1060 1069 1083 1102 1135 1155 1165 1172 1179 1187 1191 1194 1196 1199 1201 1203 1206 1209 1213 1214 1217 1218 1221 1224 1227 1228 1228 1228 1227 1221 1219 1211 1211 1211 1217 1220 1222 1238 1243 1252 1254 1257 1268 1270 1270 1268 1268 1267 1263 1248 1244 1242 1228 1196 1183 1183 1183 1195 1208 1211 1211 1222 1235 1239 1241 1257 1297 1337 1358 1377 1390 1394 1400 1404 1405 1406 1406 1406 1409 1409 1409 1409 1406 1402 1394 1381 1361 1332 1303 1277 1262 1256 1248 1248 1248 1257 1271 1285 1293 1308 0 0 1451 1482 1500 1512 1517 1521 1525 1530 1532 1537 1540 1545 1549 1553 1558 1562 1564 1567 1569 1572 1572 1575 1578 1582 1585 1585 1589 1589 1589 1589 1589 1587 1587 1587 1604 1618 1619 1621 1621 1621 1623 1624 1630 1630 1630 1628 1627 1626 1624 1623 1618 1613 1609 1606 1604 1602 1598 1596 1595 1595 1594 1593 1591 1591 1591 1589 1589 1588 1588 1588 1587 1587 1587 1586 1586 1585 1584 1583 1581 1579 1578 1576 1575 1575 1573 1571 1570 1569 1567 1567 1567 1567 1567 1567 1566 1566 1563 1558 1551 1550 1549 1546 1535 1520 1503 1490 1455 1421 1405 1387 1355 0 0 0 0 0 0 0 0 0 0 1470 1472 1472 1472 1462 1452 1450 1444 1439 1434 1427 1425 1417 1398 1371 1344 1328 1319 1315 1313 1310 1292 1292 1292 1312 1321 1332 1332 1332 1334 1334 1334 1344 0 0 0 0 0 0 0 1764 1802 1802 1802 1804 1804 1804 1837 1851 1851 1851 1845 1830 1816 1816 1816 1816 1816 1816 1807 1795 1775 1724 0 0 0 0 0 0 0 0 0 0 0 0 0 1912 1912 1887 1843 1800 1773 1766 1766 1762 1762 1741 1712 1712 1712 1714 1714 1714 1701 1696 1696 1696 1714 1725 1725 1725 1713 1711 1710 1710 1684 1641 1598 0 0 0 0 0 0 0 0 0 868 864 852 845 842 0 0 0 0 0 0 0 0 0 0 0 1071 1086 1086 1092 1092 1110 1119 1119 1119 0 0 0 0 0 0 0 642 639 601 601 601 628 628 628 0 0 0 0 0 0 0 0 0 0 0 0 0 538 0
598 598 606 629 631 664 683 694 713 734 754 772 783 794 807 827 852 856 881 907 938 973 1004 1030 1048 1071 1094 1108 1121 1135 1154 1171 1176 1189 1198 1208 1220 1235 1247 1261 1279 1293 1308 1322 1339 1349 1355 1362 1365 1371 1378 1385 1390 1394 1400 1405 1410 1415 1419 1422 1424 1427 1430 1433 1434 1436 1438 1440 1441 1443 1443 1443 1443 1443 1443 1443 1440 1434 1430 1402 0 0 0 0 0 0 905 902 888 876 876 876 879 882 884 884 885 887 888 890 891 893 895 897 898 900 901 902 904 906 907 908 910 910 912 914 916 918 919 921 922 923 925 926 926 926 926 926 926 926 926 924 921 917 906 886 883 883 883 883 884 886 891 891 891 892 892 899 912 918 925 931 934 939 946 951 956 959 960 961 965 969 969 969 969 963 956 950 935 911 897 894 893 892 886 886 886 888 889 889 890 891 894 897 903 907 912 912 912 913 913 920 926 931 940 968 1000 1025 1039 1049 1057 1060 1063 1066 1068 1071 1073 1076 1078 1080 1083 1084 1086 1089 1091 1092 1094 1094 1095 1095 1095 1095 1093 1090 1087 1079 1061 1036 1014 994 993 993 993 997 1002 1004 1006 1007 1007 1012 1020 1026 1033 1041 1050 1060 1069 1086 1103 1135 1155 1167 1172 1179 1187 1191 1194 1196 1198 1199 1201 1204 1207 1208 1211 1215 1218 1221 1224 1226 1227 1228 1229 1231 1231 1231 1227 1227 1227 1234 1241 1253 1262 1268 1269 1269 1271 1274 1275 1277 1277 1277 1270 1263 1248 1244 1242 1225 1196 1183 1183 1183 1190 1201 1209 1212 1222 1235 1239 1241 1270 1317 1349 1365 1382 1390 1398 1401 1404 1405 1407 1408 1409 1410 1411 1411 1411 1409 1406 1395 1381 1361 1332 1307 1278 1262 1258 1248 1248 1248 1266 1282 1288 1294 1308 0 0 1451 1484 1500 1512 1518 1522 1526 1530 1535 1539 1543 1547 1550 1553 1559 1562 1565 1567 1570 1573 1574 1575 1578 1582 1585 1585 1590 1592 1597 1607 1611 1613 1613 1614 1614 1617 1617 1619 1621 1621 1623 1624 1628 1628 1628 1628 1626 1625 1623 1622 1617 1611 1607 1604 1602 1599 1594 1593 1593 1592 1591 1590 1589 1589 1588 1586 1586 1586 1586 1585 1585 1585 1584 1583 1583 1583 1582 1581 1579 1577 1575 1574 1573 1573 1571 1568 1567 1565 1564 1564 1563 1563 1563 1563 1562 1559 1556 1551 1546 1546 1544 1541 1525 1507 1495 1477 1441 1409 1386 1358 1336 0 0 0 0 0 0 0 0 0 0 1467 1472 1472 1472 1462 1452 1450 1444 1439 1434 1427 1424 1417 1396 1371 1344 1328 1319 1315 1313 1310 1292 1292 1292 1312 1326 1341 1341 1341 1334 1334 1334 0 0 0 0 0 0 0 1759 1784 1795 1795 1795 1795 1795 1804 1840 1856 1858 1858 1858 1845 1829 1816 1815 1815 1812 1807 1804 1795 1775 0 0 0 0 0 0 0 0 0 0 0 0 0 1926 1926 1909 1869 1830 1800 1782 1782 1779 1779 1779 1741 1712 1712 1705 1700 1697 1681 1681 1681 1685 1696 1714 1714 1714 1703 1691 1691 1685 1685 1684 1641 1593 0 0 0 0 0 0 0 0 0 0 867 835 816 0 0 0 0 0 0 0 0 0 0 0 0 1074 1086 1088 1097 1097 1110 1115 1115 1115 0 0 0 0 0 0 653 642 640 640 640 640 642 642 642 0 0 0 0 0 0 0 0 0 0 0 0 514 517 0
599 599 608 625 645 654 679 694 713 734 755 772 783 794 808 827 852 880 884 913 942 976 1009 1038 1057 1088 1104 1117 1126 1142 1158 1174 1178 1191 1202 1209 1220 1235 1247 1261 1279 1293 1306 1320 1337 1348 1355 1362 1365 1371 1379 1385 1390 1396 1401 1407 1413 1418 1421 1424 1427 1430 1433 1436 1437 1438 1439 1441 1443 1444 1444 1444 1444 1444 1444 1443 1439 1434 1426 1402 1384 0 0 0 0 0 911 902 889 878 878 878 882 884 885 886 886 887 889 891 892 894 896 897 899 901 902 903 905 906 908 909 910 912 913 914 917 919 919 922 923 924 925 926 928 928 928 928 928 928 927 926 924 921 914 898 892 892 892 895 899 907 907 907 907 907 913 914 919 935 947 949 950 955 961 964 965 966 967 967 968 970 971 971 971 966 962 953 932 907 893 888 886 884 884 884 884 886 886 886 887 888 891 896 899 904 906 909 910 910 913 921 927 931 940 968 1000 1025 1039 1049 1057 1061 1064 1066 1069 1071 1074 1077 1079 1081 1083 1085 1087 1089 1091 1093 1094 1094 1095 1096 1096 1096 1094 1090 1087 1079 1061 1037 1014 995 994 994 994 998 1003 1006 1007 1008 1012 1018 1027 1033 1040 1046 1050 1060 1069 1086 1103 1135 1155 1165 1172 1178 1187 1190 1190 1192 1193 1196 1198 1201 1203 1204 1210 1214 1215 1217 1223 1225 1226 1228 1231 1235 1235 1235 1240 1240 1249 1256 1264 1269 1272 1272 1273 1274 1282 1282 1282 1282 1280 1277 1275 1264 1248 1244 1242 1225 1196 1183 1183 1183 1184 1194 1205 1212 1218 1232 1245 1255 1285 1328 1352 1372 1382 1390 1398 1404 1407 1407 1408 1409 1410 1411 1412 1412 1412 1410 1409 1401 1384 1368 1341 1314 1278 1262 1258 1258 1258 1258 1273 1283 1294 1296 1316 0 0 1451 1485 1503 1514 1518 1522 1526 1531 1537 1541 1545 1548 1553 1556 1560 1563 1565 1567 1570 1573 1574 1576 1578 1581 1583 1587 1590 1595 1600 1609 1612 1615 1617 1619 1619 1619 1617 1616 1615 1615 1615 1619 1627 1627 1627 1626 1626 1624 1622 1620 1616 1611 1606 1602 1599 1596 1593 1592 1592 1590 1588 1587 1586 1586 1585 1584 1583 1582 1582 1582 1582 1581 1580 1580 1580 1580 1580 1579 1577 1576 1574 1572 1571 1571 1569 1567 1564 1560 1559 1559 1557 1557 1557 1554 1554 1554 1553 1548 1545 1543 1540 1535 1518 1500 1481 1464 1441 1409 1376 1336 1309 0 0 0 0 0 0 0 0 0 1436 1467 1468 1468 1468 1457 1441 1441 1439 1434 1434 1427 1423 1412 1395 1367 1344 1323 1319 1319 1315 1315 1293 1293 1293 1311 1326 1343 1347 1349 1349 1352 0 0 0 0 0 0 0 0 1783 1792 1792 1792 1787 1787 1787 1806 1840 1866 1874 1874 1874 1865 1847 1833 1822 1816 1804 1797 1797 1795 0 0 0 0 0 0 0 0 0 0 0 0 0 1922 1922 1922 1889 1869 1830 1804 1804 1804 1805 1819 1819 1819 1776 1738 1716 1716 1697 1681 1681 1681 1685 1696 1714 1714 1714 1703 1684 1684 1682 1681 0 0 0 0 0 0 0 0 0 0 0 0 0 0 0 0 0 0 0 0 0 0 0 0 0 0 0 0 1087 1087 1087 1096 1096 1096 1097 1097 0 0 0 0 0 0 0 656 650 647 640 640 640 642 642 642 0 0 0 0 0 455 432 429 0 0 0 515 515 517 0
600 600 608 625 645 648 674 694 713 734 755 772 783 794 808 828 854 884 889 921 952 982 1017 1044 1070 1096 1112 1123 1134 1147 1165 1178 1183 1196 1207 1215 1223 1235 1252 1267 1282 1293 1306 1320 1335 1346 1355 1362 1365 1371 1379 1385 1390 1396 1402 1409 1414 1420 1424 1427 1430 1432 1436 1438 1439 1440 1441 1443 1444 1445 1445 1446 1446 1446 1444 1443 1439 1434 1426 1406 1387 0 0 0 0 0 911 902 890 880 880 880 883 884 886 887 888 888 889 891 893 894 896 897 900 901 902 904 905 907 909 909 911 912 914 915 917 919 921 922 924 925 926 928 929 929 929 929 929 929 929 928 927 926 919 905 902 902 902 905 910 918 920 923 924 932 936 937 939 947 956 959 960 964 967 967 969 969 969 971 973 973 973 973 973 970 965 953 932 907 893 887 883 881 881 881 884 884 884 885 885 885 888 892 895 898 900 904 907 910 913 921 928 937 940 968 1000 1025 1039 1051 1058 1064 1065 1067 1069 1072 1075 1077 1079 1082 1083 1086 1088 1090 1092 1093 1094 1096 1096 1096 1096 1096 1095 1091 1087 1079 1062 1038 1014 997 994 994 994 998 1004 1007 1008 1010 1017 1024 1031 1037 1041 1046 1051 1060 1072 1086 1103 1132 1155 1165 1172 1177 1181 1184 1186 1190 1191 1195 1196 1197 1199 1201 1206 1211 1213 1216 1220 1222 1224 1226 1231 1235 1235 1236 1243 1246 1254 1265 1271 1275 1277 1278 1280 1281 1284 1285 1285 1285 1284 1281 1278 1264 1248 1239 1237 1225 1199 1191 1182 1182 1182 1184 1199 1212 1218 1232 1245 1255 1285 1328 1352 1372 1382 1389 1398 1405 1408 1409 1410 1410 1412 1413 1414 1414 1414 1411 1411 1407 1394 1374 1347 1320 1278 1262 1261 1261 1261 1267 1277 1289 1294 1299 1316 0 0 1451 1485 1504 1517 1521 1524 1527 1533 1538 1543 1548 1551 1553 1557 1560 1563 1565 1568 1570 1573 1574 1577 1578 1581 1583 1587 1590 1595 1600 1609 1612 1615 1617 1619 1619 1619 1617 1615 1615 1615 1615 1617 1625 1625 1625 1624 1624 1624 1621 1615 1612 1609 1604 1599 1596 1594 1591 1591 1589 1588 1586 1584 1584 1584 1583 1581 1580 1579 1579 1579 1578 1578 1578 1577 1577 1577 1577 1577 1575 1573 1571 1570 1568 1568 1567 1567 1563 1557 1556 1554 1553 1552 1552 1552 1552 1551 1548 1546 1541 1539 1536 1524 1510 1484 1468 1454 1436 1408 1376 1336 1309 0 0 0 0 0 0 0 0 0 1436 1466 1466 1466 1463 1447 1426 1415 1415 1415 1418 1418 1418 1409 1394 1367 1344 1323 1319 1319 1315 1315 1297 1297 1297 1312 1331 1347 1353 1353 1358 0 0 0 0 0 0 0 0 0 1786 1789 1789 1789 1789 1789 1794 1815 1845 1875 1885 1885 1885 1883 1869 1856 1839 1819 1800 1792 1787 1746 0 0 0 0 0 0 0 0 0 0 0 0 1915 1915 1915 1906 1889 1869 1830 1821 1821 1821 1831 1831 1831 1819 1788 1772 1741 1716 1697 1681 1681 1681 1685 1704 1714 1714 1714 1703 1689 1680 1679 1674 0 0 0 0 0 0 0 0 0 0 0 0 0 0 0 0 0 0 0 0 0 0 0 0 0 0 1108 1108 1108 1108 1100 1096 1094 1088 1088 0 0 0 0 0 0 0 0 0 650 647 640 640 640 642 642 0 0 0 0 0 493 471 450 450 450 0 0 517 517 517 0
600 600 609 625 646 648 672 691 713 734 755 769 783 793 808 828 854 884 889 924 957 985 1018 1044 1070 1096 1114 1127 1139 1153 1167 1183 1186 1200 1209 1219 1230 1243 1257 1272 1284 1295 1306 1320 1334 1342 1351 1358 1362 1370 1379 1385 1390 1396 1403 1409 1414 1420 1426 1429 1432 1436 1438 1439 1441 1442 1443 1444 1446 1447 1447 1448 1448 1448 1448 1446 1439 1434 1426 1406 1387 0 0 0 0 0 911 900 891 881 881 881 883 885 887 888 888 889 890 891 893 895 896 898 900 902 903 904 906 907 909 910 911 913 914 916 917 919 921 923 924 925 927 928 929 930 931 931 931 931 931 931 931 929 921 921 921 921 922 925 930 931 931 937 946 948 949 952 955 958 961 965 967 969 970 971 972 972 973 975 975 975 975 975 975 971 966 954 932 907 893 887 881 879 879 879 881 882 882 883 884 884 887 890 892 893 895 899 904 910 913 921 928 938 945 973 1000 1025 1043 1052 1059 1065 1066 1068 1070 1072 1076 1077 1080 1082 1084 1086 1088 1090 1093 1094 1095 1096 1097 1097 1097 1097 1097 1094 1091 1083 1065 1041 1014 997 996 996 996 1001 1004 1009 1009 1016 1024 1028 1034 1038 1044 1049 1053 1060 1073 1086 1098 1127 1153 1165 1172 1176 1177 1180 1183 1187 1190 1192 1192 1193 1193 1194 1198 1202 1203 1205 1208 1211 1217 1222 1231 1238 1243 1250 1252 1254 1257 1265 1273 1278 1283 1285 1285 1287 1287 1288 1288 1288 1286 1281 1278 1266 1248 1237 1212 1210 1199 1191 1182 1182 1182 1182 1193 1210 1218 1232 1245 1255 1285 1328 1352 1372 1382 1389 1400 1407 1410 1412 1412 1412 1413 1414 1414 1414 1414 1412 1411 1407 1394 1380 1354 1323 1291 1279 1279 1279 1286 1287 1293 1301 1309 1310 1316 0 0 1451 1486 1506 1518 1525 1528 1532 1537 1540 1545 1549 1551 1554 1557 1560 1563 1565 1568 1570 1572 1574 1577 1578 1580 1583 1585 1590 1595 1600 1609 1612 1615 1617 1617 1618 1617 1617 1615 1612 1612 1612 1616 1620 1624 1624 1624 1621 1616 1613 1609 1607 1605 1601 1595 1594 1592 1590 1589 1587 1585 1583 1583 1581 1581 1580 1578 1577 1576 1576 1576 1575 1575 1574 1574 1574 1574 1574 1573 1573 1572 1568 1567 1565 1565 1565 1564 1561 1555 1551 1549 1549 1549 1549 1548 1545 1544 1543 1538 1535 1533 1525 1517 1507 1484 1458 1449 1429 1408 1376 1336 0 0 0 0 0 0 0 0 0 1465 1468 1468 1468 1466 1453 1439 1426 1412 1412 1412 1412 1412 1405 1392 1383 1367 1344 1323 1316 1316 1309 1304 1302 1302 1302 1316 1331 1351 1356 1357 1374 0 0 0 0 0 0 0 0 1758 1784 1786 1787 1789 1789 1797 1815 1841 1871 1887 1889 1893 1893 1893 1886 1871 1848 1819 1798 1790 1748 1701 1654 0 0 0 0 0 0 0 0 0 0 0 1925 1925 1909 1894 1889 1876 1857 1849 1849 1843 1843 1836 1831 1819 1788 1772 1761 1734 1713 1706 1706 1706 1715 1725 1725 1725 1725 1709 1695 1680 1672 1657 0 0 0 0 0 0 0 0 0 0 0 0 0 0 0 0 0 0 0 0 0 0 0 0 0 1138 1138 1138 1132 1122 1100 1083 1078 1071 1069 0 0 0 0 0 0 0 0 0 0 0 0 0 0 0 0 0 0 0 0 0 494 478 478 477 478 482 498 519 519 519 0
599 599 610 625 646 648 672 690 705 730 749 766 783 792 808 828 854 886 890 0 960 990 1021 1044 1070 1096 1114 1127 1141 1156 1171 1185 1189 1200 1210 1221 1232 1246 1260 1272 1284 1295 1307 1320 1334 1342 1351 1355 1360 1368 1377 1385 1391 1397 1403 1410 1416 1421 1426 1430 1433 1437 1439 1440 1442 1443 1445 1447 1448 1449 1449 1449 1451 1451 1451 1449 1443 1437 1433 1408 1388 0 0 0 0 0 0 897 890 883 883 883 883 885 887 888 889 889 890 892 894 895 897 898 901 902 904 905 906 908 909 910 912 914 915 916 918 920 922 923 924 926 927 928 930 931 932 932 933 933 934 934 934 933 930 930 930 933 935 938 941 942 943 949 954 955 956 956 960 962 964 967 969 971 972 973 975 976 977 978 978 978 978 977 976 972 967 955 935 908 893 887 881 879 879 878 878 879 880 880 882 884 887 890 892 893 895 897 901 906 912 921 928 938 954 979 1002 1025 1044 1056 1060 1065 1067 1069 1071 1074 1076 1078 1080 1082 1085 1087 1089 1091 1093 1094 1095 1097 1097 1098 1099 1099 1099 1095 1091 1083 1066 1044 1016 999 999 999 1002 1006 1008 1010 1014 1021 1027 1032 1036 1043 1048 1051 1056 1063 1076 1086 1097 1125 1145 1159 1169 1174 1174 1176 1180 1182 1184 1185 1186 1187 1188 1189 1189 1190 1191 1191 1194 1200 1208 1216 1228 1235 1243 1252 1262 1266 1268 1272 1279 1283 1286 1287 1287 1288 1288 1289 1289 1289 1286 1281 1278 1271 1252 1230 1203 1199 1192 1191 1182 1182 1182 1182 1193 1205 1209 1225 1238 1240 1268 1313 1351 1371 1382 1389 1400 1407 1412 1413 1414 1415 1415 1416 1417 1417 1417 1413 1411 1407 1396 1381 1355 1329 1313 1313 1313 1319 1323 1323 1328 1333 1338 1342 1366 0 0 1478 1494 1507 1519 1525 1529 1535 1539 1543 1546 1549 1551 1554 1557 1560 1563 1565 1568 1570 1572 1574 1577 1578 1580 1583 1585 1590 1593 1600 1603 1605 1614 1617 1617 1617 1615 1615 1614 1612 1612 1612 1612 1615 1619 1619 1619 1617 1613 1609 1605 1602 1599 1593 1591 1590 1589 1588 1585 1583 1582 1581 1581 1580 1579 1577 1576 1575 1574 1574 1573 1573 1573 1572 1572 1572 1571 1571 1571 1569 1568 1565 1563 1563 1562 1562 1562 1556 1550 1549 1549 1545 1545 1545 1540 1536 1536 1533 1529 1526 1522 1515 1507 1504 1478 1453 1433 1427 1401 1374 1327 0 0 0 0 0 0 0 0 0 1482 1482 1482 1480 1466 1453 1439 1426 1412 1412 1411 1411 1411 1384 1369 1356 1344 1328 1303 1302 1302 1302 1306 1306 1311 1312 1316 1331 1355 1370 1387 0 0 0 0 0 0 0 0 0 1786 1786 1786 1786 1789 1798 1824 1847 1867 1890 1896 1896 1896 1895 1894 1886 1871 1848 1819 1798 1743 1698 1680 1635 1613 1601 0 0 0 0 0 0 0 0 1931 1931 1926 1900 1894 1894 1893 1885 1877 1874 1870 1861 1836 1807 1792 1788 1772 1761 1741 1738 1738 1738 1743 1747 1747 1747 1737 1736 1718 1700 1677 1656 1629 0 0 0 0 0 0 0 0 0 0 0 0 0 0 0 0 0 0 0 0 0 0 0 0 0 1157 1157 1157 1154 1123 1103 1083 1057 1028 1025 0 0 0 0 0 0 0 0 0 0 0 0 0 0 0 0 0 0 0 0 0 487 481 481 481 483 503 512 530 530 530 0
596 596 610 628 646 648 672 690 705 730 749 765 782 791 808 828 855 887 891 0 960 997 1021 1044 1068 1093 1114 1127 1143 1158 1174 1186 1190 1201 1210 1221 1233 1247 1260 1272 1284 1295 1307 1322 1334 1342 1351 1355 1360 1368 1377 1385 1391 1397 1403 1410 1416 1422 1427 1430 1434 1438 1440 1443 1444 1446 1447 1449 1450 1450 1451 1452 1453 1453 1453 1453 1447 1440 1434 1409 1392 0 0 0 0 0 0 895 889 883 883 883 883 885 887 888 889 890 891 892 895 896 897 899 901 902 904 905 906 908 909 911 913 914 916 917 919 920 922 923 925 927 928 929 931 931 933 934 934 935 935 937 937 937 937 937 940 941 942 945 947 948 948 951 954 957 959 961 962 965 967 968 970 972 974 975 977 978 978 979 980 980 980 978 976 973 968 956 935 908 894 887 881 879 879 878 878 879 880 880 882 884 887 890 892 893 895 897 901 904 910 918 927 938 954 982 1005 1025 1045 1056 1060 1065 1068 1071 1073 1075 1077 1078 1081 1084 1086 1088 1090 1092 1094 1095 1096 1098 1098 1099 1100 1100 1100 1096 1092 1083 1067 1046 1020 1004 1004 1004 1006 1008 1008 1016 1021 1024 1029 1036 1045 1048 1050 1058 1064 1071 1078 1086 1097 1120 1135 1153 1165 1171 1171 1172 1173 1173 1173 1176 1179 1180 1183 1184 1184 1184 1183 1183 1183 1184 1194 1205 1220 1235 1244 1254 1263 1270 1273 1276 1279 1284 1288 1288 1289 1290 1290 1290 1290 1290 1288 1281 1278 1272 1252 1230 1203 1191 1185 1184 1180 1180 1180 1182 1193 1202 1209 1220 1229 1238 1268 1313 1351 1371 1381 1391 1402 1409 1412 1413 1415 1416 1417 1418 1419 1419 1419 1416 1411 1409 1399 1382 1368 1343 1343 1343 1343 1343 1335 1335 1335 1359 1372 1374 1375 0 1466 1495 1506 1516 1523 1526 1532 1536 1539 1543 1546 1549 1551 1554 1556 1560 1563 1565 1568 1570 1572 1574 1575 1578 1579 1580 1583 1588 1592 1593 1595 1599 1605 1608 1609 1609 1609 1611 1612 1612 1612 1610 1610 1610 1612 1612 1612 1610 1609 1604 1599 1596 1594 1590 1586 1585 1582 1580 1580 1580 1579 1579 1579 1578 1577 1575 1574 1572 1572 1571 1571 1571 1571 1570 1569 1569 1569 1569 1568 1566 1564 1562 1561 1561 1559 1559 1558 1551 1546 1543 1543 1541 1541 1536 1532 1532 1532 1529 1527 1525 1509 1497 1496 1493 1477 1434 1415 1397 1390 1374 0 0 0 0 0 0 0 0 0 0 1491 1491 1491 1487 1467 1453 1439 1428 1415 1413 1411 1409 1402 1379 1357 1336 1323 1321 1303 1302 1302 1302 1306 1306 1311 1312 1316 1351 1367 1391 0 0 0 0 0 0 0 0 0 0 1808 1786 1786 1786 1790 1825 1856 1881 1894 1903 1903 1903 1897 1895 1894 1886 1871 1848 1809 1735 1713 1697 1680 1628 1603 1603 1603 0 0 0 0 0 0 1948 1948 1948 1919 1900 1900 1900 1901 1901 1901 1895 1884 1862 1835 1806 1787 1774 1768 1761 1741 1741 1741 1744 1761 1764 1764 1764 1753 1751 1734 1708 1676 1639 0 0 0 0 0 0 0 0 0 0 0 0 0 0 0 0 0 0 0 0 0 0 0 0 0 0 1175 1175 1175 1164 1126 1108 1083 1057 1028 1025 0 0 0 0 0 0 0 0 0 0 0 0 0 0 0 0 0 0 0 0 0 481 481 486 486 501 512 528 549 549 549 0
595 595 610 628 653 654 678 690 704 729 747 765 780 791 809 833 859 887 891 0 969 998 1021 1044 1066 1088 1106 1126 1144 1162 1178 1188 1193 1202 1212 1223 1236 1249 1260 1272 1282 1292 1307 1322 1336 1345 1351 1355 1360 1368 1377 1385 1392 1397 1405 1411 1416 1422 1428 1431 1434 1438 1440 1444 1445 1447 1449 1451 1451 1452 1452 1452 1454 1457 1457 1457 1450 1442 1437 1411 1392 0 0 0 0 0 0 895 890 884 884 884 885 885 887 888 889 890 892 893 895 897 898 900 901 903 904 906 907 908 910 911 913 915 917 918 919 921 922 924 926 927 929 931 931 933 933 935 935 937 937 938 939 939 940 942 943 943 946 949 950 951 951 953 957 960 962 964 965 967 969 970 971 973 975 976 978 979 980 981 981 981 981 980 978 975 970 956 935 908 894 887 881 880 880 878 878 880 880 880 882 884 887 890 892 894 895 897 901 904 910 918 927 940 956 986 1005 1025 1045 1056 1060 1065 1068 1072 1073 1076 1077 1079 1082 1084 1086 1088 1090 1092 1094 1096 1097 1098 1099 1099 1100 1100 1100 1098 1094 1087 1070 1048 1027 1012 1009 1009 1009 1009 1009 1016 1023 1024 1029 1036 1047 1053 1054 1062 1071 1078 1082 1086 1098 1120 1125 1145 1156 1162 1162 1162 1160 1160 1160 1162 1167 1167 1167 1162 1162 1162 1168 1174 1175 1182 1191 1203 1220 1238 1247 1257 1264 1270 1275 1277 1280 1284 1288 1290 1291 1291 1291 1292 1292 1292 1288 1281 1277 1272 1258 1230 1203 1191 1184 1184 1180 1180 1180 1186 1193 1201 1208 1219 1229 1238 1268 1313 1351 1371 1381 1393 1403 1409 1412 1414 1415 1416 1418 1419 1420 1420 1420 1420 1417 1409 1399 1382 1382 1367 1366 1366 1366 1366 1364 1365 1365 1365 1393 1403 1409 1438 1483 1506 1512 1519 1527 1530 1532 1536 1539 1543 1546 1547 1549 1553 1555 1559 1562 1565 1567 1569 1571 1573 1575 1576 1578 1579 1580 1584 1586 1588 1589 1591 1596 1600 1602 1603 1604 1604 1607 1607 1607 1605 1605 1605 1605 1605 1605 1604 1603 1597 1593 1590 1590 1584 1581 1581 1578 1577 1576 1576 1576 1576 1576 1575 1574 1573 1570 1570 1570 1569 1569 1568 1568 1567 1567 1567 1567 1566 1564 1563 1560 1559 1559 1558 1557 1557 1552 1548 1543 1534 1534 1532 1526 1526 1526 1529 1529 1529 1526 1524 1505 1495 1487 1486 1471 1418 1393 1385 1382 1365 0 0 0 0 0 0 0 0 0 0 1491 1491 1491 1487 1467 1450 1443 1433 1424 1416 1410 1404 1395 1378 1356 1335 1323 1321 1303 1302 1302 1302 1308 1308 1311 1312 1321 1353 1379 1407 0 0 0 0 0 0 1813 1823 1823 1813 1808 1794 1794 1794 1824 1856 1899 1917 1917 1917 1914 1903 1897 1895 1884 1869 1854 1842 0 1735 1703 1695 1658 1623 1592 1592 1592 0 0 0 0 0 1954 1954 1954 1948 1919 1907 1907 1907 1907 1907 1901 1895 1884 1862 1835 1806 1787 1774 1768 1761 1744 1744 1744 1752 1767 1781 1781 1781 1779 1769 1750 1714 1676 0 0 0 0 0 0 0 0 0 0 0 0 0 0 0 0 0 0 0 0 0 0 0 0 0 0 1180 1191 1191 1191 1166 1140 1114 1088 1057 1028 1025 0 0 0 0 0 0 0 0 0 0 0 0 0 0 0 0 0 0 0 0 0 0 498 499 501 514 529 547 562 562 573 0
592 592 608 629 654 661 678 690 704 725 747 765 776 791 816 843 875 909 0 947 979 1004 1024 1044 1066 1088 1106 1121 1144 1164 1179 1190 1195 1206 1217 1228 1239 1250 1261 1272 1282 1292 1307 1322 1336 1348 1355 1360 1366 1371 1377 1385 1392 1399 1405 1413 1419 1424 1429 1433 1434 1438 1440 1444 1445 1447 1449 1451 1451 1452 1452 1452 1454 1457 1457 1457 1451 1443 1440 1416 1393 0 0 0 0 0 0 895 890 886 885 885 885 887 887 888 889 891 892 894 896 897 899 900 902 903 905 906 907 909 910 912 914 916 917 919 920 922 924 925 927 928 930 931 932 933 934 935 936 937 939 939 940 941 942 943 944 946 948 949 951 952 954 957 959 962 963 965 967 969 970 972 974 975 977 978 979 981 981 983 983 983 982 981 978 976 970 957 935 908 894 887 881 880 880 880 882 882 882 882 882 885 887 890 893 895 897 898 901 904 910 918 927 940 959 986 1006 1025 1044 1055 1060 1066 1070 1072 1075 1076 1078 1079 1082 1084 1087 1088 1090 1092 1094 1096 1097 1098 1099 1099 1100 1100 1100 1098 1095 1088 1071 1048 1027 1024 1022 1020 1013 1013 1013 1017 1028 1031 1035 1040 1048 1060 1067 1077 1082 1084 1087 1089 1101 1120 1125 1135 1143 1148 1154 1154 1154 1152 1149 1145 1145 1144 1141 1141 1141 1141 1147 1159 1166 1169 1178 1198 1220 1238 1246 1257 1265 1271 1275 1278 1281 1285 1289 1292 1292 1293 1293 1294 1294 1294 1288 1281 1277 1271 1259 1236 1203 1187 1184 1182 1182 1184 1184 1188 1196 1201 1205 1219 1229 1243 1270 1313 1355 1374 1382 1393 1403 1410 1412 1414 1415 1416 1418 1421 1421 1421 1421 1421 1421 1419 1413 1405 1404 1395 1383 1383 1383 1395 1395 1395 1400 1400 1411 1448 1460 1474 1497 1512 1515 1519 1527 1530 1532 1536 1538 1541 1543 1545 1548 1551 1554 1557 1560 1563 1566 1567 1569 1572 1573 1576 1577 1577 1579 1582 1586 1586 1588 1591 1595 1596 1597 1597 1597 1598 1598 1599 1599 1599 1599 1599 1599 1599 1599 1599 1597 1592 1588 1585 1583 1579 1577 1576 1576 1575 1574 1574 1574 1573 1572 1572 1571 1569 1569 1568 1567 1566 1566 1565 1565 1565 1565 1564 1564 1562 1561 1561 1560 1557 1554 1554 1554 1551 1547 1545 1540 1532 1524 1518 1513 1513 1513 1526 1526 1526 1526 1514 1491 1479 1475 1467 1449 1418 1374 1364 1352 0 0 0 0 0 0 0 0 0 0 1468 1491 1491 1491 1487 1467 1450 1443 1433 1429 1419 1405 1392 1387 1377 1355 1333 1323 1321 1314 1314 1314 1315 1323 1323 1323 1323 1323 1357 1384 1416 0 0 0 0 0 1811 1813 1823 1823 1813 1808 1808 1808 1820 1859 1900 1934 1934 1934 1932 1914 1903 1890 1882 1867 1851 1843 1834 1797 1730 1702 1691 1648 1623 1592 1592 0 0 0 0 0 1972 1973 1973 1973 1950 1919 1910 1910 1909 1909 1909 1901 1895 1884 1862 1834 1806 1787 1774 1767 1761 1751 1751 1751 1762 1795 1804 1804 1804 1802 1788 1770 0 0 0 0 0 0 0 0 0 0 0 0 0 0 0 0 0 0 0 0 0 0 0 0 0 0 0 1188 1200 1200 1200 1192 1171 1142 1126 1100 1072 1051 1041 0 0 0 0 0 0 0 0 0 0 0 0 0 0 0 0 0 0 0 0 0 0 516 530 532 535 535 547 562 562 573 0
589 589 603 629 654 661 678 690 701 723 745 758 771 791 821 852 0 0 926 956 987 1010 1028 1046 1066 1088 1106 1121 1148 1166 1180 1190 1204 1208 1220 1232 1242 1252 1261 1272 1282 1292 1307 1322 1336 1348 1356 1363 1370 1375 1380 1387 1394 1401 1407 1414 1419 1424 1429 1433 1434 1438 1440 1444 1445 1447 1449 1451 1451 1452 1452 1452 1454 1457 1457 1457 1454 1443 1441 1425 1399 0 0 0 0 0 0 902 890 886 886 886 886 887 888 890 891 892 893 894 897 898 900 901 903 904 906 907 908 909 911 913 914 916 918 919 921 923 924 926 927 929 930 932 933 934 935 937 938 938 940 941 943 944 945 945 946 948 949 952 952 954 956 959 961 964 965 967 968 970 972 973 975 977 978 980 981 982 983 983 983 983 983 981 978 976 971 957 935 908 894 886 882 881 881 881 882 882 883 883 883 885 888 891 893 895 897 899 901 905 914 919 927 943 965 988 1006 1025 1044 1055 1060 1066 1070 1072 1075 1076 1078 1080 1082 1084 1087 1088 1090 1092 1094 1096 1097 1098 1099 1099 1099 1099 1099 1099 1096 1088 1073 1048 1039 1039 1031 1031 1030 1018 1018 1018 1032 1046 1050 1054 1061 1069 1080 1090 1093 1095 1096 1106 1118 1121 1125 1129 1138 1141 1141 1141 1134 1129 1128 1128 1128 1128 1133 1133 1133 1133 1133 1145 1157 1169 1178 1197 1223 1238 1246 1257 1265 1271 1275 1279 1283 1287 1290 1292 1293 1295 1295 1296 1296 1296 1291 1285 1277 1271 1259 1236 1203 1188 1188 1188 1189 1190 1192 1194 1197 1202 1204 1218 1235 1248 1276 1313 1355 1377 1383 1397 1404 1410 1412 1414 1415 1417 1420 1422 1423 1423 1424 1424 1424 1424 1419 1417 1411 1408 1401 1399 1399 1399 1428 1429 1430 1447 1462 1480 1489 1497 1503 1512 1515 1519 1527 1530 1531 1533 1536 1539 1541 1544 1547 1550 1552 1556 1559 1561 1563 1564 1566 1569 1571 1573 1575 1576 1577 1581 1583 1583 1585 1588 1590 1591 1591 1591 1592 1592 1592 1592 1592 1593 1593 1593 1593 1594 1594 1594 1593 1584 1576 1574 1574 1573 1572 1571 1571 1572 1571 1571 1571 1571 1570 1569 1568 1567 1567 1565 1565 1564 1564 1563 1561 1561 1561 1561 1561 1560 1559 1559 1557 1555 1553 1551 1547 1544 1538 1530 1529 1528 1517 1509 1503 1503 1503 1510 1517 1517 1517 1502 1484 1468 1449 1421 1403 1400 1373 1349 0 0 0 0 0 0 0 0 0 0 1457 1470 1479 1480 1480 1480 1461 1450 1443 1433 1429 1419 1401 1389 1378 1369 1353 1333 1325 1324 1322 1315 1315 1315 1328 1328 1330 1333 1336 1358 1388 0 0 0 0 0 1777 1811 1811 1811 1807 1807 1807 1816 1831 1857 1899 1934 1974 1974 1974 1945 1914 1890 1866 1855 1836 1829 1820 1803 1765 1730 1702 1691 1644 1608 1608 0 0 0 0 0 0 1983 1983 1983 1982 1957 1929 1924 1923 1922 1916 1909 1899 1886 1873 1855 1831 1810 1788 1770 1764 1761 1757 1757 1757 1790 1836 1840 1840 1840 1838 1826 1814 0 0 0 0 0 0 0 0 0 0 0 0 0 0 0 0 0 0 0 0 0 0 0 0 0 0 1205 1220 1221 1221 1221 1192 1176 1151 1132 1103 1072 1052 1041 0 0 0 0 0 0 0 0 0 0 0 0 0 0 0 0 0 0 0 0 0 0 518 532 535 536 541 547 562 562 573 0
585 585 600 629 654 661 676 683 693 712 736 752 767 791 0 0 0 931 934 965 993 1012 1029 1050 1071 1093 1107 1121 1149 1166 1180 1191 1205 1210 1222 1233 1244 1256 1267 1279 1287 1297 1307 1322 1338 1348 1356 1365 1374 1379 1385 1391 1398 1403 1409 1414 1419 1424 1429 1433 1434 1438 1440 1442 1444 1446 1449 1449 1451 1452 1452 1452 1454 1456 1456 1456 1454 1445 1442 1432 1405 0 0 0 0 0 0 903 897 889 886 886 886 887 889 891 892 893 894 895 897 898 900 901 903 904 906 907 908 910 912 913 915 916 918 920 922 923 925 927 929 930 932 932 933 935 936 937 939 940 941 942 944 946 947 947 948 950 952 953 954 956 958 961 963 964 966 968 970 971 973 973 976 978 979 981 982 983 984 984 984 984 983 982 978 976 971 957 935 905 893 885 883 881 881 881 883 883 883 883 883 886 888 891 893 895 897 901 903 907 917 925 930 945 970 994 1006 1025 1045 1055 1060 1066 1070 1072 1075 1076 1078 1080 1082 1084 1086 1088 1090 1092 1094 1095 1096 1098 1098 1099 1099 1099 1099 1099 1097 1089 1074 1052 1046 1046 1041 1041 1041 1027 1027 1027 1044 1059 1068 1071 1076 1085 1099 1100 1107 1107 1111 1132 1132 1132 1129 1128 1117 1116 1115 1114 1112 1107 1107 1107 1107 1111 1117 1118 1119 1119 1127 1141 1157 1169 1178 1197 1223 1239 1249 1257 1266 1271 1275 1280 1284 1288 1291 1293 1294 1295 1297 1297 1297 1296 1293 1288 1280 1271 1259 1236 1187 1187 1187 1193 1196 1199 1200 1201 1202 1203 1204 1219 1250 1266 1284 1316 1355 1378 1393 1401 1407 1410 1413 1414 1415 1418 1421 1423 1424 1426 1426 1426 1426 1426 1421 1421 1416 1415 1403 1403 1403 1412 1439 1463 1476 1477 1479 1489 1496 1501 1504 1512 1515 1518 1522 1528 1530 1532 1534 1536 1540 1542 1546 1548 1551 1554 1557 1559 1560 1560 1563 1566 1569 1572 1573 1574 1574 1577 1579 1582 1584 1585 1585 1585 1585 1585 1586 1587 1588 1588 1588 1587 1587 1587 1586 1585 1585 1583 1578 1569 1567 1567 1567 1568 1568 1568 1567 1567 1567 1567 1567 1567 1567 1565 1565 1565 1564 1564 1563 1562 1560 1559 1558 1558 1558 1558 1558 1558 1558 1558 1555 1552 1551 1548 1542 1540 1534 1527 1524 1522 1516 1504 1491 1491 1491 1494 1501 1501 1501 1490 1470 1458 1437 1407 1370 1367 1360 0 0 0 0 0 0 0 0 0 0 1454 1462 1472 1479 1479 1479 1455 1441 1432 1431 1429 1427 1419 1399 1382 1372 1362 1345 1333 1325 1324 1322 1315 1315 1315 1328 1330 1333 1351 1370 1381 0 0 0 0 0 0 1778 1811 1811 1811 1796 1796 1796 1829 1856 1888 1931 1957 1984 1984 1984 1945 1911 1875 1845 1829 1816 1800 1783 1755 1726 1719 1701 1671 1621 1621 0 0 0 0 0 0 1973 1983 1990 1990 1990 1968 1950 1941 1933 1924 1917 1909 1884 1857 1846 1836 1824 1810 1788 1770 1764 1764 1764 1764 1780 1819 1865 1880 1880 1880 1879 1864 1840 0 0 0 0 0 0 0 0 0 0 0 0 0 0 0 0 0 0 0 0 0 0 0 0 0 0 1241 1241 1241 1229 1221 1201 1183 1160 1133 1105 1072 1061 1041 0 0 0 0 0 0 0 0 0 0 0 0 0 0 0 0 0 0 0 0 0 0 526 539 539 539 539 539 539 539 562 0
583 583 600 622 647 661 662 672 686 708 726 741 754 0 0 0 0 937 966 970 994 1013 1030 1052 1076 1098 1115 1140 1154 1167 1180 1191 1207 1211 1223 1238 1250 1263 1275 1283 1294 1302 1311 1322 1338 1348 1358 1365 1375 1380 1387 1393 1399 1404 1410 1415 1419 1425 1428 1430 1434 1437 1439 1441 1443 1445 1446 1449 1450 1451 1451 1451 1452 1453 1454 1454 1454 1445 1442 1437 1409 0 0 0 0 0 0 903 898 890 886 886 886 887 891 892 892 893 894 895 898 899 901 901 904 905 906 907 909 910 912 914 916 917 918 921 922 924 926 927 929 930 932 933 934 936 937 938 939 941 942 943 945 946 948 950 950 952 954 955 957 958 960 961 964 966 967 968 970 972 974 975 977 978 980 982 983 984 985 985 985 985 984 982 979 976 971 958 937 906 889 885 884 884 884 884 884 884 884 884 885 886 889 891 893 895 898 901 906 913 922 927 934 948 970 995 1010 1029 1045 1055 1060 1067 1070 1072 1074 1076 1078 1080 1082 1084 1086 1088 1090 1091 1093 1095 1096 1097 1098 1099 1099 1099 1100 1100 1099 1093 1076 1053 1049 1049 1049 1050 1051 1052 1052 1058 1064 1076 1076 1078 1091 1106 1107 1108 1124 1143 1143 1143 1143 1142 1133 1129 1117 1096 1096 1096 1101 1103 1103 1104 1104 1106 1114 1117 1119 1119 1127 1139 1153 1169 1180 1197 1224 1241 1250 1258 1269 1273 1276 1280 1285 1288 1291 1294 1295 1296 1297 1297 1297 1297 1294 1292 1287 1271 1256 1227 1187 1187 1187 1200 1201 1203 1203 1206 1206 1209 1210 1223 1265 1272 1286 1316 1355 1380 1396 1402 1407 1410 1413 1414 1417 1419 1422 1424 1426 1428 1429 1429 1430 1430 1432 1432 1432 1427 1427 1427 1441 1460 1464 1470 1477 1478 1486 1494 1498 1501 1504 1509 1513 1516 1520 1524 1528 1529 1532 1534 1539 1541 1544 1547 1550 1553 1556 1557 1558 1559 1561 1565 1568 1569 1570 1572 1572 1574 1576 1578 1580 1580 1580 1580 1580 1580 1582 1582 1582 1581 1581 1580 1579 1578 1578 1577 1577 1575 1568 1565 1565 1565 1566 1566 1566 1566 1564 1563 1563 1562 1563 1563 1562 1562 1562 1562 1562 1562 1561 1560 1557 1556 1555 1555 1555 1556 1556 1556 1556 1554 1552 1551 1550 1545 1541 1537 1533 1522 1520 1520 1514 1495 1485 1484 1484 1480 1477 1472 1467 1448 1426 1421 1411 1370 1351 1348 1333 0 0 0 0 0 0 0 0 0 0 1457 1464 1472 1479 1479 1479 1455 1427 1420 1418 1415 1414 1410 1390 1376 1364 1352 1343 1332 1325 1324 1322 1309 1309 1309 1317 1325 1334 1364 1387 0 0 0 0 0 0 1746 1783 1801 1801 1801 1796 1796 1796 1829 1869 1893 1931 1957 1984 1984 1984 1945 1911 1867 1845 1829 1807 1778 1750 1735 1726 1719 1701 1649 1597 0 0 0 0 0 0 1938 1973 1989 1992 1992 1992 1982 1973 1960 1952 1945 1927 1909 1882 1845 1827 1825 1821 1810 1788 1765 1765 1765 1766 1779 1803 1845 1865 1880 1880 1880 1879 1864 1840 0 0 0 0 0 0 0 0 0 0 0 0 0 0 0 0 0 0 0 0 0 0 0 0 0 0 1259 1259 1259 1229 1221 1201 1183 1160 1133 1103 1067 1061 1031 0 0 0 0 0 0 0 0 0 0 0 0 0 0 470 515 515 515 0 0 0 0 537 539 539 539 536 536 536 536 548 0
578 578 594 615 636 645 647 661 685 706 723 731 749 0 0 0 0 941 969 973 995 1014 1033 1056 1081 1103 1124 1143 1155 1167 1180 1193 1207 1212 1227 1243 1257 1269 1279 1287 1296 1306 1317 1327 1338 1348 1358 1366 1376 1380 1388 1394 1400 1405 1410 1415 1420 1426 1428 1430 1433 1436 1438 1440 1441 1444 1446 1448 1449 1450 1450 1450 1451 1451 1451 1451 1450 1445 1442 1437 1413 0 0 0 0 0 0 904 898 890 886 886 886 888 891 893 893 894 895 897 898 899 901 903 904 905 906 908 909 911 913 914 916 918 919 921 923 925 926 928 929 932 932 934 935 937 938 939 940 942 943 945 946 948 949 951 952 953 954 956 958 959 960 963 965 967 968 969 971 973 975 976 978 980 981 982 984 984 985 986 986 986 985 983 979 976 971 958 941 910 889 888 887 886 886 885 885 885 885 885 887 887 889 891 893 896 898 903 909 915 922 928 936 951 971 995 1010 1029 1045 1055 1061 1067 1070 1072 1073 1076 1077 1080 1081 1084 1086 1087 1088 1090 1092 1095 1096 1096 1098 1099 1100 1101 1102 1102 1102 1097 1085 1065 1055 1055 1055 1055 1056 1058 1058 1070 1087 1087 1090 1090 1111 1128 1128 1131 1145 1155 1156 1156 1155 1155 1146 1129 1115 1088 1088 1088 1092 1097 1098 1098 1098 1104 1111 1115 1119 1119 1127 1138 1150 1169 1184 1198 1224 1245 1254 1263 1272 1275 1278 1281 1285 1290 1292 1294 1296 1298 1298 1299 1299 1299 1298 1297 1290 1272 1256 1224 1187 1187 1187 1202 1203 1203 1204 1207 1211 1219 1225 1230 1265 1272 1286 1313 1352 1380 1397 1402 1407 1410 1413 1415 1418 1421 1424 1426 1428 1430 1432 1433 1437 1440 1443 1448 1449 1450 1453 1455 1461 1467 1469 1471 1478 1486 1490 1495 1498 1501 1504 1507 1511 1516 1519 1524 1527 1527 1530 1533 1535 1540 1543 1546 1549 1551 1553 1554 1555 1556 1558 1562 1564 1567 1568 1568 1568 1570 1571 1575 1575 1575 1576 1576 1576 1578 1578 1578 1577 1577 1577 1577 1577 1575 1575 1573 1572 1572 1567 1564 1564 1564 1565 1565 1565 1565 1563 1562 1562 1561 1559 1558 1558 1558 1558 1559 1559 1559 1558 1556 1555 1554 1553 1552 1552 1552 1552 1552 1552 1550 1547 1547 1547 1543 1538 1535 1529 1522 1516 1512 1507 1493 1484 1484 1473 1469 1460 1446 1434 1406 1397 1395 1392 1362 1336 1328 1287 0 0 0 0 0 0 0 0 1450 1455 1458 1470 1478 1478 1478 1477 1455 1427 1408 1405 1403 1402 1396 1378 1368 1360 1350 1343 1332 1324 1317 1309 1303 1303 1303 1317 1325 1337 0 0 0 0 0 0 0 1740 1766 1791 1791 1791 1791 1791 1791 1796 1830 1870 1893 1931 1957 1984 1984 1984 1942 1900 1864 1843 1829 1807 1778 1750 1735 1726 1719 1703 0 0 0 0 0 0 0 1894 1944 1973 1989 1995 1995 1995 1992 1979 1970 1966 1959 1946 1921 1874 1842 1827 1825 1821 1806 1758 1758 1758 1765 1780 1799 1823 1851 1865 1880 1880 1880 1879 1864 1840 0 0 0 0 0 0 0 0 0 0 0 0 0 0 0 0 0 0 0 0 0 0 0 0 0 1262 1262 1262 1259 1201 1199 1195 1183 1160 1133 1100 1065 1061 1025 0 0 0 0 0 0 0 0 0 0 0 0 0 470 470 510 510 524 531 532 537 541 543 541 539 539 521 521 521 521 548 0
571 571 587 607 621 633 635 657 684 706 722 731 749 0 0 0 0 944 969 973 997 1016 1040 1063 1086 1107 1128 1143 1157 1168 1181 1196 1210 1214 1228 1245 1261 1273 1284 1292 1300 1311 1324 1341 1346 1351 1360 1370 1378 1382 1389 1394 1400 1406 1412 1418 1423 1426 1428 1430 1433 1435 1437 1439 1441 1444 1446 1448 1449 1450 1450 1450 1450 1449 1449 1447 1446 1442 1441 1437 1413 0 0 0 0 0 0 906 898 890 886 886 886 888 892 893 893 894 895 897 899 900 902 903 904 906 907 908 910 911 913 915 916 918 920 922 924 925 927 929 930 932 933 934 936 937 938 940 941 943 944 945 947 949 951 952 953 954 956 957 960 961 962 964 965 967 969 970 972 974 975 977 978 981 982 984 984 985 986 987 987 987 985 983 981 977 971 962 942 910 890 890 889 888 886 885 885 885 885 886 888 890 891 891 893 896 899 904 910 915 922 929 939 953 974 995 1010 1029 1045 1054 1062 1067 1069 1071 1073 1075 1077 1079 1081 1084 1086 1086 1088 1090 1092 1094 1096 1096 1098 1099 1100 1102 1102 1104 1104 1104 1093 1076 1066 1066 1066 1075 1079 1080 1085 1093 1116 1123 1128 1135 1138 1139 1150 1157 1159 1159 1159 1159 1159 1155 1146 1130 1115 1088 1088 1088 1089 1091 1092 1093 1097 1102 1109 1115 1124 1127 1129 1136 1149 1168 1188 1199 1224 1250 1259 1268 1275 1277 1280 1283 1286 1290 1293 1296 1297 1299 1300 1300 1300 1300 1299 1297 1291 1274 1253 1224 1203 1203 1203 1203 1203 1204 1205 1209 1213 1219 1229 1245 1265 1272 1286 1313 1351 1380 1397 1402 1405 1408 1413 1415 1419 1423 1425 1428 1430 1432 1435 1437 1440 1445 1451 1455 1459 1462 1465 1465 1467 1470 1475 1478 1481 1486 1491 1496 1499 1500 1503 1507 1511 1515 1519 1522 1525 1527 1528 1530 1534 1538 1541 1543 1545 1548 1549 1550 1550 1552 1556 1558 1561 1562 1563 1564 1564 1567 1567 1569 1570 1571 1572 1574 1574 1574 1574 1572 1572 1572 1574 1574 1574 1570 1567 1565 1565 1563 1562 1562 1562 1560 1560 1561 1561 1561 1561 1561 1560 1560 1559 1558 1558 1557 1557 1556 1555 1555 1555 1554 1552 1551 1550 1549 1549 1549 1549 1549 1547 1544 1543 1543 1542 1542 1538 1535 1528 1520 1515 1511 1500 1484 1484 1484 1472 1469 1449 1432 1413 1388 1386 1379 1364 1345 1334 1311 1284 1268 0 0 0 0 0 0 1462 1468 1469 1469 1480 1480 1480 1475 1472 1457 1427 1405 1403 1402 1399 1392 1376 1359 1349 1345 1338 1332 1323 1311 1291 1291 1291 1303 1317 1325 1337 0 0 0 0 0 0 1763 1773 1788 1794 1794 1794 1775 1775 1775 1796 1832 1871 1893 1914 1940 1959 1959 1959 1922 1886 1860 1842 1831 1807 1778 1750 1738 1737 1735 1704 0 0 0 0 0 0 1879 1900 1945 1973 1989 2004 2004 2004 1999 1983 1972 1971 1970 1960 1921 1873 1841 1825 1825 1816 1805 1755 1755 1755 1784 1794 1818 1843 1854 1854 1854 1845 1844 1843 1830 1814 0 0 0 0 0 0 0 0 0 0 0 0 0 0 0 0 0 0 0 0 0 0 0 0 1289 1289 1282 1275 1219 1201 1195 1163 1163 1133 1120 1099 1048 1046 1011 0 0 0 0 0 0 0 0 0 0 0 0 499 499 504 504 504 513 513 543 543 551 551 548 0 0 519 519 521 521 548 0
570 570 584 599 613 628 630 656 684 704 722 730 749 0 0 0 0 944 971 974 999 1021 1041 1066 1091 1112 1128 1144 1158 1172 1184 1197 1210 1215 1229 1247 1261 1274 1290 1299 1309 1322 1334 1347 1355 1361 1368 1375 1381 1386 1391 1396 1401 1406 1412 1418 1423 1426 1429 1431 1433 1435 1437 1439 1441 1444 1447 1448 1449 1449 1449 1449 1449 1448 1446 1444 1441 1441 1438 1437 1413 0 0 0 0 0 0 907 900 891 886 886 886 888 893 894 894 896 896 898 899 901 902 903 904 906 908 909 910 912 914 916 917 919 921 923 924 926 927 929 932 933 935 935 937 938 939 941 943 943 946 946 948 949 951 953 954 956 957 958 961 963 964 965 967 968 969 972 973 975 977 978 979 981 982 984 985 986 987 987 987 987 986 984 982 977 973 964 943 913 895 890 890 888 886 885 885 885 886 888 889 891 892 893 895 898 904 907 911 916 922 929 942 958 977 995 1007 1028 1042 1054 1062 1067 1069 1071 1073 1075 1077 1079 1081 1083 1085 1086 1087 1089 1091 1092 1095 1096 1098 1099 1100 1102 1102 1104 1104 1104 1093 1081 1075 1075 1075 1090 1098 1099 1100 1103 1117 1137 1144 1147 1148 1151 1160 1163 1163 1163 1163 1162 1161 1155 1146 1131 1115 1088 1087 1087 1084 1087 1087 1088 1096 1101 1106 1114 1124 1131 1135 1136 1143 1165 1188 1203 1227 1253 1263 1271 1275 1279 1283 1285 1289 1292 1295 1297 1299 1300 1302 1302 1302 1302 1299 1297 1293 1277 1253 1225 1209 1207 1205 1205 1205 1205 1212 1217 1219 1227 1238 1249 1265 1272 1286 1316 1352 1380 1397 1402 1405 1408 1413 1416 1420 1424 1428 1429 1431 1434 1437 1440 1444 1447 1451 1455 1459 1463 1466 1468 1470 1474 1478 1480 1482 1486 1491 1496 1498 1500 1503 1507 1509 1512 1517 1520 1521 1522 1523 1526 1531 1535 1538 1539 1542 1544 1546 1546 1546 1547 1550 1554 1555 1557 1559 1561 1562 1565 1566 1566 1566 1568 1569 1570 1570 1570 1568 1568 1568 1568 1567 1566 1564 1563 1563 1561 1560 1560 1558 1558 1557 1557 1557 1557 1557 1558 1558 1559 1559 1558 1558 1558 1557 1557 1555 1553 1553 1553 1552 1551 1551 1548 1547 1547 1547 1547 1546 1546 1544 1541 1540 1540 1539 1539 1538 1532 1524 1518 1511 1500 1489 1483 1481 1481 1472 1458 1441 1415 1392 1379 1343 1318 1307 1281 1281 1271 1269 1268 0 0 0 0 0 1467 1469 1472 1482 1485 1485 1485 1480 1472 1472 1457 1429 1403 1400 1399 1392 1385 1371 1349 1340 1338 1338 1332 1323 1308 1291 1291 1291 1321 1358 1384 1414 0 0 0 0 0 1776 1792 1795 1795 1795 1791 1777 1766 1766 1766 1806 1840 1873 1893 1914 1932 1932 1932 1929 1900 1864 1849 1842 1834 1815 1796 1788 1786 1784 1779 1749 0 0 0 0 0 0 1890 1912 1953 1985 2012 2030 2030 2030 2013 1983 1983 1978 1972 1969 1921 1873 1837 1825 1825 1816 1801 1762 1762 1762 1787 1804 1834 1863 1863 1863 1844 1822 1820 1809 1798 1760 1725 0 0 0 0 0 0 0 0 0 0 0 0 0 0 0 0 0 0 0 0 0 0 1326 1326 1311 1282 1253 1197 1197 1195 1163 1163 1132 1103 1078 1048 1027 977 0 0 0 0 0 0 0 0 0 0 0 0 0 489 509 509 509 513 513 545 545 552 552 545 0 0 0 497 519 519 553 0
570 570 583 597 607 622 623 648 675 696 718 729 749 0 0 0 0 0 973 976 1003 1025 1049 1071 1094 1112 1128 1144 1158 1172 1184 1197 1210 1215 1230 1247 1261 1277 1291 1307 1318 1329 1340 1350 1359 1367 1373 1381 1386 1390 1394 1398 1403 1408 1412 1418 1424 1427 1429 1431 1433 1435 1437 1439 1441 1444 1447 1448 1449 1449 1449 1449 1448 1447 1444 1441 1438 1437 1436 1434 1411 0 0 0 0 0 0 909 902 896 888 888 888 889 893 895 896 896 896 898 899 901 903 904 905 906 908 909 911 912 915 916 918 920 922 923 926 926 929 930 932 933 935 936 937 939 940 941 943 944 946 947 949 950 952 953 955 957 958 960 962 963 964 965 967 969 971 972 973 975 977 978 979 981 982 984 985 986 987 987 987 987 986 985 983 978 973 965 944 916 898 890 890 887 885 885 885 885 886 888 891 892 894 895 898 903 906 909 913 917 922 930 943 958 977 995 1007 1024 1041 1053 1062 1067 1069 1071 1073 1075 1076 1079 1081 1082 1084 1085 1085 1086 1088 1092 1094 1096 1098 1098 1100 1102 1102 1105 1105 1105 1100 1089 1089 1089 1091 1101 1119 1128 1131 1137 1137 1140 1150 1153 1154 1160 1164 1165 1166 1166 1166 1166 1161 1155 1146 1133 1115 1090 1089 1087 1087 1083 1083 1083 1093 1098 1105 1114 1124 1131 1133 1136 1138 1165 1189 1204 1229 1254 1264 1272 1277 1281 1284 1287 1290 1293 1296 1298 1300 1301 1303 1303 1303 1303 1301 1299 1295 1280 1256 1225 1214 1214 1214 1214 1214 1218 1224 1224 1228 1233 1251 1257 1265 1272 1286 1316 1352 1380 1397 1402 1405 1408 1413 1417 1421 1426 1428 1430 1433 1435 1440 1443 1444 1448 1452 1455 1459 1463 1466 1469 1470 1474 1478 1482 1485 1489 1493 1496 1498 1500 1503 1507 1508 1510 1514 1517 1518 1519 1520 1523 1527 1530 1534 1536 1538 1540 1540 1540 1542 1545 1548 1549 1549 1550 1550 1551 1553 1557 1560 1561 1562 1565 1565 1565 1565 1564 1563 1563 1562 1562 1562 1560 1560 1560 1560 1560 1559 1558 1557 1556 1556 1555 1555 1555 1556 1556 1556 1556 1556 1556 1556 1556 1556 1554 1554 1553 1552 1551 1550 1550 1548 1547 1545 1545 1545 1543 1543 1542 1541 1540 1538 1536 1536 1536 1534 1530 1522 1516 1507 1497 1482 1481 1478 1475 1465 0 0 0 0 0 1303 1250 1250 1250 1269 1269 0 0 0 0 1406 1464 1464 1472 1472 1480 1482 1485 1485 1485 1479 1470 1470 1457 1429 1399 1399 1396 1382 1382 1353 1333 1333 1332 1329 1329 1323 1291 1291 1291 0 0 0 0 0 0 0 0 1704 1760 1789 1802 1802 1802 1801 1791 1777 1777 1777 1788 1824 1855 1880 1893 1914 1927 1927 1927 1904 1874 1847 1836 1836 1835 1830 1830 1830 1822 1822 1809 1777 0 0 0 0 1883 1924 1924 1949 1977 2006 2035 2046 2046 2046 2018 2004 1993 1992 1987 1969 0 1863 1832 1825 1825 1816 1778 1778 1778 1784 1787 1807 1839 1864 1864 1864 1844 1822 1820 1794 1771 1740 1708 1672 0 0 0 0 0 0 0 0 0 0 0 0 0 0 0 0 0 0 0 1303 1331 1331 1331 1316 1283 1253 1216 1214 1197 1163 1163 1131 1101 1073 0 0 0 0 0 0 0 0 0 0 0 0 0 0 0 0 505 505 505 511 515 515 545 545 545 545 0 0 0 0 497 529 529 553 0
565 565 583 597 605 620 623 643 669 689 712 728 749 0 0 0 0 0 976 980 1009 1032 1056 1077 1094 1112 1128 1144 1159 1172 1184 1197 1210 1225 1230 1247 1261 1278 1295 1308 1319 1333 1343 1353 1363 1372 1380 1385 1389 1396 1399 1407 1409 1411 1415 1420 1425 1427 1429 1431 1434 1436 1438 1439 1441 1445 1447 1448 1448 1448 1448 1447 1445 1444 1442 1438 1434 1431 1430 1429 1407 0 0 0 0 0 0 910 902 897 891 891 891 894 895 896 896 897 897 899 900 901 903 905 906 907 909 910 911 913 915 916 919 921 922 924 926 928 929 931 933 934 936 937 938 939 941 942 944 945 946 948 950 952 953 954 956 958 959 961 962 963 965 967 968 970 971 973 975 976 978 979 980 981 983 984 985 987 988 988 988 988 988 987 985 979 974 965 950 920 898 893 890 887 885 885 885 885 887 889 893 894 897 899 903 907 910 912 915 919 927 934 943 958 977 992 1005 1023 1041 1053 1062 1066 1068 1071 1073 1074 1076 1078 1080 1082 1082 1083 1084 1085 1087 1090 1091 1092 1093 1094 1095 1101 1102 1104 1104 1104 1104 1107 1111 1112 1120 1121 1126 1141 1146 1152 1153 1155 1155 1161 1163 1163 1164 1165 1167 1167 1167 1166 1160 1154 1146 1132 1113 1091 1089 1087 1080 1077 1077 1077 1089 1097 1104 1113 1124 1131 1132 1136 1138 1165 1191 1205 1233 1257 1265 1272 1278 1283 1285 1288 1291 1294 1297 1299 1301 1303 1306 1306 1306 1306 1304 1302 1295 1283 1265 1239 1217 1217 1217 1221 1227 1236 1236 1243 1244 1246 1263 1270 1272 1282 1296 1330 1362 1383 1398 1405 1408 1411 1415 1418 1422 1427 1430 1432 1435 1439 1443 1445 1447 1449 1453 1456 1461 1463 1467 1470 1472 1475 1479 1483 1488 1492 1493 1496 1498 1500 1503 1506 1507 1508 1511 1513 1516 1518 1519 1521 1523 1526 1528 1531 1535 1536 1538 1538 1541 1541 1542 1542 1543 1543 1544 1546 1546 1550 1551 1554 1557 1559 1559 1559 1559 1559 1558 1558 1557 1557 1557 1554 1554 1554 1555 1557 1557 1557 1555 1554 1554 1553 1553 1553 1554 1554 1555 1555 1555 1554 1554 1554 1554 1553 1553 1552 1551 1551 1550 1549 1547 1545 1543 1543 1542 1541 1540 1540 1540 1538 1535 1535 1533 1533 1530 1524 1518 1512 1507 1496 1478 1471 1466 1462 0 0 0 0 0 0 1230 1230 1230 1250 1269 0 0 0 0 0 1483 1483 1483 1482 1480 1480 1482 1485 1485 1485 1475 1465 1465 1457 1429 1393 1383 1380 1379 1359 1339 1324 1321 1321 1316 1316 1311 1286 1286 1286 0 0 0 0 0 0 0 0 1732 1771 1800 1802 1802 1802 1801 1791 1777 1777 1777 1803 1843 1876 1905 1920 1928 1928 1928 1913 1889 1862 1843 1836 1836 1835 1832 1832 1832 1832 1832 1829 1794 1794 0 0 0 1940 1974 1974 1998 2012 2036 2059 2059 2059 2046 2018 2004 2000 1992 1992 1969 0 1838 1813 1812 1810 1803 1770 1770 1770 1785 1807 1828 1854 1868 1868 1868 1844 1822 1820 1794 1758 1735 1708 0 0 0 0 0 0 0 0 0 0 0 0 0 0 0 0 0 0 0 0 1304 1331 1331 1331 1316 1283 1253 1236 1219 1197 1197 1177 1131 1101 0 0 0 0 0 0 0 0 0 0 0 0 0 0 0 0 0 0 505 505 506 506 506 543 545 547 547 0 0 484 484 497 529 529 553 0
553 553 576 593 604 618 623 639 662 685 703 722 744 0 0 0 0 0 980 984 1010 1034 1059 1078 1095 1113 1128 1144 1159 1172 1184 1197 1209 1225 1230 1247 1261 1278 1295 1311 1323 1334 1344 1356 1366 1375 1382 1389 1394 1402 1406 1412 1417 1419 1421 1423 1425 1428 1430 1433 1434 1436 1440 1440 1443 1446 1447 1448 1448 1448 1448 1446 1444 1442 1439 1437 1434 1429 1424 1420 1406 0 0 0 0 0 0 911 903 897 892 892 892 895 895 897 897 897 898 899 901 901 903 905 907 908 909 911 912 914 915 917 919 921 923 924 927 928 930 932 933 935 937 937 939 940 942 942 944 946 947 948 950 953 953 955 957 958 959 962 963 965 966 967 969 971 972 974 975 976 978 979 981 982 983 985 986 987 988 989 989 989 989 989 986 981 974 966 950 925 899 893 890 887 887 887 887 888 890 893 896 898 900 902 905 908 912 916 920 924 932 939 943 950 972 989 1004 1023 1039 1052 1062 1066 1068 1069 1071 1072 1072 1074 1076 1080 1082 1083 1083 1085 1085 1086 1086 1088 1088 1089 1089 1095 1101 1102 1104 1107 1112 1115 1115 1116 1128 1131 1135 1144 1150 1154 1156 1158 1160 1163 1165 1166 1167 1169 1169 1169 1169 1166 1161 1154 1146 1131 1110 1092 1090 1087 1080 1077 1077 1077 1083 1095 1103 1112 1121 1126 1127 1132 1138 1168 1198 1215 1242 1257 1265 1272 1279 1283 1286 1288 1291 1295 1297 1300 1303 1304 1306 1306 1307 1307 1306 1305 1297 1285 1267 1244 1224 1224 1224 1225 1235 1241 1246 1247 1249 1265 1284 1284 1286 1295 1306 1337 1367 1386 1399 1408 1410 1412 1415 1419 1423 1427 1431 1434 1438 1441 1444 1446 1448 1451 1454 1457 1461 1465 1470 1472 1474 1477 1479 1484 1488 1492 1493 1496 1498 1500 1503 1505 1506 1508 1510 1512 1515 1516 1517 1518 1521 1523 1525 1527 1531 1531 1532 1535 1538 1538 1538 1537 1537 1537 1539 1543 1543 1544 1546 1548 1551 1553 1555 1555 1555 1555 1554 1554 1554 1553 1552 1550 1550 1550 1551 1551 1551 1551 1552 1551 1551 1551 1551 1551 1551 1552 1552 1553 1553 1552 1552 1552 1552 1552 1552 1552 1551 1550 1549 1549 1547 1545 1542 1541 1539 1539 1537 1536 1535 1532 1530 1530 1528 1526 1520 1513 1504 1495 1494 1494 1478 1448 1444 0 0 0 0 0 1248 1235 1230 1230 1230 1250 0 0 0 0 0 1453 1483 1483 1483 1480 1474 1474 1474 1485 1485 1485 1472 1459 1456 1450 1428 1392 1374 1362 1346 1336 1325 1324 1321 1316 1310 1295 1294 1283 1283 0 0 0 0 0 0 0 0 0 1780 1796 1809 1809 1809 1808 1808 1802 1790 1790 1790 1835 1869 1897 1918 1929 1929 1929 1925 1907 1876 1858 1843 1835 1835 1834 1834 1834 1834 1848 1848 1848 1829 1829 1829 1877 1935 1973 1974 2002 2020 2041 2062 2062 2062 2062 2046 2018 2004 2000 1992 1992 1947 1892 1835 1813 1806 1795 1773 1758 1758 1758 1786 1815 1847 1866 1881 1881 1881 1880 1846 1843 1794 1757 1734 0 0 0 0 0 0 0 0 0 0 0 0 0 0 0 0 0 0 0 0 0 1336 1339 1339 1339 1317 1291 1275 1274 1271 1255 1221 0 0 0 0 0 0 0 0 0 0 0 0 0 0 0 0 0 0 0 0 0 0 0 0 518 518 540 540 540 540 527 0 0 518 497 497 0 0 0
542 542 561 584 602 618 622 638 659 681 698 710 736 0 0 0 0 951 981 1005 1010 1034 1059 1080 1096 1113 1128 1144 1159 1172 1184 1197 1209 1225 1231 1247 1261 1278 1297 1311 1323 1336 1347 1358 1366 1376 1383 1391 1398 1405 1409 1415 1420 1424 1427 1428 1430 1431 1433 1434 1435 1439 1441 1443 1445 1447 1448 1448 1448 1448 1447 1446 1443 1441 1439 1436 1434 1428 1419 1410 1397 0 0 0 0 0 0 911 904 898 893 893 893 895 896 898 898 898 899 899 901 902 904 905 907 909 911 911 913 915 917 918 920 922 924 926 928 929 931 933 934 936 937 938 939 941 942 944 945 947 948 950 951 953 954 956 957 959 960 962 963 965 967 968 970 971 973 974 975 977 979 980 981 982 984 985 986 988 988 989 989 989 989 989 988 982 976 966 950 925 905 894 890 889 889 889 892 894 895 897 899 901 902 905 909 911 916 921 927 931 939 941 941 947 966 984 1003 1022 1039 1052 1060 1063 1065 1067 1068 1069 1070 1070 1073 1075 1076 1076 1077 1077 1079 1080 1080 1080 1080 1080 1080 1082 1091 1098 1102 1107 1115 1124 1128 1128 1134 1140 1143 1146 1150 1154 1157 1159 1161 1164 1168 1168 1170 1172 1172 1172 1171 1167 1162 1155 1147 1132 1110 1093 1090 1087 1080 1077 1077 1077 1083 1090 1098 1106 1115 1122 1125 1130 1141 1175 1204 1222 1249 1260 1265 1273 1279 1283 1286 1289 1292 1295 1298 1301 1303 1305 1307 1307 1308 1308 1308 1307 1301 1291 1276 1249 1227 1227 1227 1227 1235 1245 1250 1262 1271 1281 1287 1294 1298 1305 1326 1347 1368 1386 1401 1408 1410 1412 1416 1419 1424 1428 1432 1434 1438 1441 1445 1447 1449 1453 1456 1460 1464 1467 1470 1474 1477 1479 1481 1484 1488 1492 1493 1495 1497 1499 1502 1504 1506 1507 1509 1510 1511 1514 1515 1515 1518 1521 1522 1523 1524 1525 1527 1531 1532 1532 1532 1532 1532 1532 1537 1538 1538 1538 1541 1546 1548 1548 1548 1548 1547 1546 1546 1546 1547 1547 1547 1546 1546 1546 1546 1547 1547 1547 1547 1548 1548 1548 1548 1548 1549 1549 1550 1551 1551 1551 1552 1552 1552 1552 1552 1551 1550 1549 1549 1547 1545 1544 1542 1539 1538 1536 1535 1532 1528 1528 1528 1526 1524 1520 1511 1496 1481 1474 1473 1465 1445 1438 1405 0 0 0 0 1260 1245 1230 1230 1230 0 0 0 0 0 0 1437 1453 1483 1483 1483 1473 1472 1472 1473 1485 1485 1485 1471 1451 1440 1435 1422 1392 1368 1350 1338 1328 1325 1324 1321 1316 1310 1294 1294 1283 1283 0 0 0 0 0 0 0 0 0 1788 1796 1809 1809 1811 1811 1811 1814 1818 1818 1838 1864 1885 1907 1920 1930 1930 1930 1921 1895 1868 1850 1842 1832 1832 1831 1831 1835 1835 1849 1858 1861 1868 1871 1882 1919 1963 1993 1994 2008 2021 2041 2062 2062 2062 2061 2038 2015 2000 1992 1979 1957 1918 1879 1832 1813 1806 1795 1746 1746 1746 1760 1789 1825 1850 1873 1903 1906 1906 1906 1903 1862 1798 1756 0 0 0 0 0 0 0 0 0 0 0 0 0 0 0 0 0 0 0 0 0 0 1336 1339 1339 1339 1317 1296 1286 1276 1274 1255 1221 1187 1153 1115 0 0 0 0 0 0 0 0 0 0 0 0 0 0 0 0 0 0 0 0 0 532 518 518 527 527 530 530 527 0 0 0 0 0 0 0
532 532 549 573 595 608 622 632 651 677 693 708 0 0 0 0 0 955 981 1005 1010 1034 1059 1083 1100 1117 1133 1150 1165 1178 1187 1198 1209 1226 1231 1249 1261 1281 1297 1311 1323 1336 1347 1359 1368 1376 1384 1392 1399 1406 1410 1416 1423 1428 1431 1433 1435 1437 1439 1442 1445 1446 1446 1446 1448 1448 1449 1449 1449 1448 1447 1446 1443 1441 1439 1436 1433 1427 1417 1409 1397 0 0 0 0 0 0 913 904 898 893 893 893 895 896 898 898 899 899 900 902 904 905 906 907 909 911 912 914 915 918 919 921 923 924 926 928 930 931 934 935 936 937 938 941 941 943 945 945 947 949 951 952 954 955 957 958 960 961 962 964 966 967 968 970 971 973 975 976 977 979 980 982 983 984 986 987 988 989 990 990 990 990 990 988 984 977 967 950 927 907 898 896 893 893 893 896 896 897 899 902 903 906 909 911 915 919 925 934 941 941 941 942 947 966 984 1001 1019 1036 1052 1059 1061 1062 1064 1064 1065 1066 1067 1069 1069 1069 1067 1067 1067 1068 1068 1069 1070 1068 1070 1070 1070 1078 1080 1092 1104 1117 1125 1132 1137 1140 1143 1146 1149 1151 1155 1157 1159 1163 1166 1168 1170 1172 1174 1174 1174 1172 1167 1162 1156 1147 1132 1106 1092 1090 1087 1083 1080 1080 1080 1083 1087 1091 1101 1107 1114 1123 1130 1141 1175 1204 1229 1254 1260 1266 1275 1279 1284 1286 1289 1293 1296 1298 1302 1304 1306 1307 1310 1310 1310 1310 1310 1307 1296 1284 1260 1237 1237 1237 1240 1259 1279 1293 1293 1293 1294 1301 1317 1341 1356 1360 1363 1375 1386 1402 1408 1410 1413 1416 1419 1424 1428 1432 1435 1438 1442 1445 1447 1449 1454 1458 1462 1465 1468 1471 1476 1478 1480 1482 1484 1488 1491 1492 1494 1496 1498 1501 1503 1505 1505 1506 1507 1509 1511 1512 1513 1515 1516 1518 1519 1521 1522 1524 1525 1527 1527 1527 1527 1527 1529 1533 1535 1535 1536 1537 1537 1538 1538 1539 1539 1539 1540 1541 1542 1542 1542 1542 1542 1542 1542 1543 1543 1543 1543 1543 1544 1545 1546 1546 1546 1547 1547 1548 1550 1550 1551 1552 1552 1552 1552 1551 1551 1550 1548 1547 1545 1544 1542 1539 1538 1535 1534 1531 1526 1526 1526 1525 1524 1519 1514 1505 1492 1477 1461 1448 1427 1420 1412 1396 1352 0 0 0 1241 1234 1234 1234 1246 0 0 0 1404 1407 1411 1438 1453 1467 1467 1468 1471 1471 1472 1475 1484 1484 1484 1462 1440 1430 1426 1416 1392 1368 1350 1338 1336 1336 1328 1325 1325 1310 1294 1294 1294 1294 0 0 0 0 0 0 0 0 1786 1796 1797 1809 1809 1816 1816 1816 1827 1829 1841 1864 1887 1904 1918 1930 1930 1930 1926 1912 1884 1855 1843 1841 1831 1831 1831 1833 1836 1838 1850 1868 1890 1895 1900 1916 1948 1964 1993 1994 2008 2021 2041 2055 2055 2055 2035 2019 2007 1997 1984 1962 1932 1898 1863 1829 1818 1806 1795 1746 1746 1746 1760 1802 1846 1870 1896 1915 1915 1915 1907 1904 0 0 0 0 0 0 0 0 0 0 0 0 0 0 0 0 0 0 0 0 0 0 0 0 0 1351 1351 1351 1342 1323 1303 1286 1276 1274 1255 1221 1187 1161 1139 1116 0 0 0 0 0 0 0 0 0 0 0 0 0 0 0 0 0 0 0 0 542 533 530 527 527 530 545 545 0 0 0 0 0 0 0
525 525 544 566 587 600 619 621 651 677 0 0 0 0 0 0 0 955 981 1005 1010 1034 1060 1084 1107 1126 1143 1157 1176 1189 1195 1202 1213 1234 1240 1254 1268 1284 1297 1312 1322 1336 1347 1359 1368 1376 1384 1393 1399 1406 1410 1417 1425 1430 1435 1438 1440 1443 1447 1451 1454 1454 1454 1454 1454 1454 1454 1452 1450 1449 1447 1446 1444 1442 1439 1436 1433 1427 1417 1406 1397 1367 0 0 0 0 0 913 904 899 893 893 893 897 898 898 900 900 900 901 903 904 905 906 908 910 911 913 915 916 918 920 922 924 925 927 929 930 932 934 936 936 938 940 941 942 944 945 947 948 949 952 953 955 956 957 959 960 962 964 964 966 967 969 971 972 974 975 976 978 979 981 982 983 985 986 988 989 990 990 990 990 990 990 989 985 978 967 950 927 908 903 899 899 899 900 900 901 901 903 905 907 910 913 916 919 923 927 934 941 941 942 943 947 966 984 1001 1018 1036 1049 1058 1059 1059 1059 1060 1060 1059 1059 1059 1056 1052 1052 1052 1057 1057 1057 1045 1045 1045 1051 1055 1055 1061 1068 1085 1104 1119 1126 1132 1140 1144 1146 1148 1150 1153 1156 1159 1162 1165 1168 1171 1173 1175 1176 1176 1176 1172 1167 1164 1158 1149 1131 1106 1092 1090 1089 1087 1083 1083 1083 1083 1087 1091 1101 1107 1114 1123 1130 1141 1175 1204 1234 1256 1263 1267 1275 1279 1284 1286 1290 1293 1296 1299 1303 1305 1307 1308 1311 1313 1314 1314 1314 1314 1306 1297 1288 1266 1264 1264 1264 1283 1309 1312 1317 1322 1322 1339 1360 1373 1380 1380 1386 1394 1397 1402 1407 1410 1413 1416 1420 1425 1429 1432 1435 1438 1442 1445 1448 1452 1456 1460 1465 1467 1469 1472 1476 1479 1482 1484 1485 1488 1491 1492 1494 1496 1497 1499 1501 1503 1504 1505 1505 1508 1510 1511 1512 1512 1514 1516 1517 1518 1519 1520 1521 1523 1525 1525 1525 1526 1528 1530 1531 1532 1533 1533 1533 1533 1533 1533 1534 1535 1535 1537 1537 1537 1537 1538 1538 1538 1538 1539 1540 1541 1543 1543 1543 1543 1543 1544 1544 1545 1545 1547 1547 1549 1550 1552 1552 1552 1551 1551 1551 1549 1547 1545 1543 1541 1539 1538 1535 1532 1532 1529 1525 1525 1523 1520 1516 1513 1509 1502 1491 1472 1459 1435 1411 1405 1388 1365 1326 1308 0 0 1241 1234 1234 1234 1246 0 0 1428 1428 1433 1438 1438 1453 1460 1464 1464 1467 1471 1472 1475 1475 1475 1474 1445 1428 1425 1424 1412 1392 1368 1350 1338 1338 1338 1349 1349 1349 1342 1334 1294 1294 0 0 0 0 0 0 0 0 1779 1790 1796 1808 1809 1815 1820 1820 1820 1829 1841 1863 1892 1912 1928 1934 1934 1934 1928 1919 1902 1873 1843 1833 1830 1830 1831 1831 1843 1853 1854 1861 1872 1900 1913 1920 1931 1948 1964 1993 1994 2008 2021 2021 2021 2017 2000 1988 1987 1986 1984 1979 1944 1912 1876 1844 1826 1819 1814 1796 1746 1746 1746 1783 1826 1873 1900 1926 1936 1936 1936 1912 1911 0 0 0 0 0 0 0 0 0 0 0 0 0 0 0 0 0 0 0 0 0 0 1335 1344 1368 1368 1368 1365 1361 1339 1309 1286 1276 1254 1236 1208 1187 1161 1139 1117 0 0 0 0 0 0 0 0 0 0 0 0 0 0 0 0 0 0 0 0 0 534 534 534 540 548 569 0 0 0 0 0 0 0 0
523 523 538 555 576 594 619 0 0 0 0 0 0 0 0 0 0 955 981 1005 1010 1034 1060 1084 1110 1134 1151 1170 1187 1196 1202 1209 1219 1241 1246 1261 1275 1287 1298 1312 1322 1332 1344 1359 1368 1376 1384 1393 1400 1407 1417 1421 1427 1432 1437 1441 1442 1448 1452 1456 1459 1462 1462 1464 1464 1464 1462 1460 1459 1454 1454 1447 1444 1442 1439 1436 1434 1427 1417 1406 1397 1371 0 0 0 0 0 915 905 899 893 893 893 897 898 898 900 900 901 902 903 905 906 907 909 911 912 914 915 917 919 921 923 925 927 928 929 931 933 935 936 938 939 941 942 944 945 946 948 949 951 953 954 955 956 958 960 961 962 964 965 967 968 970 971 973 974 976 977 978 979 981 982 984 985 987 988 990 991 991 991 991 991 991 989 985 978 967 951 929 911 905 901 901 901 905 905 906 906 907 909 911 913 917 920 924 927 929 935 942 942 943 945 947 968 984 1001 1017 1035 1048 1057 1057 1057 1053 1053 1052 1050 1050 1046 1042 1041 1041 1041 1041 1041 1036 1024 1023 1020 1020 1020 1031 1045 1054 1078 1103 1119 1128 1133 1142 1146 1149 1151 1154 1155 1158 1162 1165 1168 1171 1173 1175 1176 1177 1177 1177 1174 1170 1167 1161 1151 1131 1108 1094 1091 1091 1090 1088 1086 1086 1086 1087 1091 1101 1107 1114 1123 1129 1138 1175 1205 1236 1258 1264 1269 1276 1279 1284 1288 1291 1295 1298 1301 1304 1307 1308 1310 1313 1315 1318 1318 1318 1317 1317 1316 1313 1303 1303 1303 1311 1320 1326 1341 1344 1348 1360 1363 1370 1380 1387 1388 1392 1399 1402 1402 1404 1408 1413 1418 1423 1427 1431 1433 1435 1438 1442 1447 1450 1453 1458 1463 1467 1468 1470 1473 1477 1479 1482 1485 1487 1489 1491 1492 1494 1496 1497 1498 1500 1502 1503 1504 1505 1507 1508 1509 1510 1511 1511 1513 1513 1514 1515 1517 1517 1519 1521 1522 1523 1523 1524 1527 1527 1529 1530 1531 1532 1533 1533 1533 1533 1533 1533 1533 1535 1535 1536 1537 1537 1537 1537 1537 1539 1540 1540 1541 1541 1542 1542 1542 1543 1543 1544 1546 1546 1548 1550 1551 1551 1551 1550 1550 1549 1547 1545 1543 1541 1540 1537 1537 1535 1530 1528 1527 1524 1524 1520 1515 1508 1499 1492 1482 1469 1452 1431 1409 1395 1367 1339 1323 1312 1306 1290 0 0 1244 1244 1245 1280 0 0 1453 1453 1453 1453 1453 1453 1460 1463 1464 1465 1467 1468 1468 1468 1468 1450 1441 1428 1424 1424 1408 1391 1373 1356 1339 1339 1339 1359 1368 1368 1368 1355 1355 1355 0 0 0 0 0 0 0 0 1796 1797 1799 1799 1811 1813 1817 1820 1820 1830 1850 1872 1896 1914 1928 1934 1934 1934 1926 1913 1893 1861 1832 1830 1830 1830 1834 1844 1864 1877 1881 1884 1900 1912 1928 1936 1939 1950 1977 1984 1993 1993 1993 1989 1966 1944 1944 1944 1947 1958 1958 1958 1930 1886 1849 1833 1826 1824 1819 1811 1762 1762 1762 1807 1864 1899 1928 1952 1952 1952 1946 1920 1918 0 0 0 0 0 0 0 0 0 0 0 1191 0 0 0 0 0 0 0 0 0 1338 1350 1358 1372 1372 1372 1365 1361 1339 1309 1283 1254 1222 1204 1198 1186 1161 1139 1117 0 0 0 0 0 0 0 0 0 0 0 0 0 0 0 0 0 0 0 0 0 0 0 0 0 0 0 0 0 0 0 0 0 0 0
522 522 527 544 558 585 0 0 0 0 0 0 0 0 0 0 0 955 981 1006 1010 1034 1061 1085 1111 1136 1153 1170 1187 1200 1208 1214 1227 1245 1260 1266 1279 1291 1302 1312 1322 1332 1341 1350 1366 1376 1384 1393 1400 1408 1418 1422 1428 1433 1438 1442 1446 1449 1455 1459 1462 1465 1467 1469 1471 1471 1471 1471 1470 1462 1461 1456 1453 1450 1446 1440 1435 1428 1418 1406 1399 1381 0 0 0 0 0 0 906 899 893 893 893 898 900 900 901 901 902 903 904 905 907 908 910 912 913 914 916 918 920 921 923 925 927 929 930 931 933 935 936 938 939 941 942 944 946 947 949 950 952 953 955 955 957 958 960 961 963 965 966 968 969 971 972 974 975 976 978 978 980 981 982 984 986 987 989 991 991 991 992 992 993 993 993 989 986 976 955 934 914 906 904 904 904 909 911 911 912 912 914 916 921 924 927 929 931 932 935 942 949 953 955 959 972 988 1001 1015 1032 1045 1047 1048 1048 1048 1048 1047 1042 1037 1028 1021 1021 1019 1017 1012 1009 1006 1004 1004 1003 1003 1003 1018 1036 1052 1075 1101 1119 1129 1139 1144 1148 1151 1153 1156 1158 1161 1164 1167 1170 1172 1175 1176 1177 1178 1178 1178 1178 1173 1168 1162 1151 1134 1110 1094 1094 1093 1091 1091 1091 1091 1091 1091 1094 1104 1114 1121 1124 1129 1138 1175 1205 1237 1258 1267 1274 1277 1281 1284 1289 1292 1296 1299 1303 1305 1308 1310 1313 1314 1316 1319 1320 1320 1322 1323 1324 1323 1323 1325 1325 1331 1336 1337 1343 1356 1364 1364 1365 1371 1382 1388 1391 1395 1401 1403 1404 1405 1408 1414 1420 1425 1428 1432 1435 1438 1442 1446 1449 1452 1457 1461 1465 1467 1470 1472 1474 1478 1480 1484 1486 1489 1490 1491 1492 1494 1496 1497 1498 1499 1501 1501 1503 1504 1504 1506 1507 1508 1508 1509 1510 1511 1513 1513 1515 1516 1518 1519 1520 1520 1521 1522 1524 1525 1526 1528 1529 1529 1531 1531 1531 1531 1531 1532 1533 1533 1533 1534 1535 1535 1536 1536 1537 1538 1538 1539 1540 1540 1540 1540 1540 1541 1543 1544 1545 1546 1547 1548 1549 1549 1549 1549 1549 1548 1547 1544 1542 1540 1538 1537 1537 1534 1529 1527 1525 1523 1523 1519 1507 1496 1477 1464 1461 1446 1421 1396 1385 1350 1323 1312 1308 1308 1308 1296 0 0 0 0 0 0 0 0 1468 1468 1468 1458 1458 1458 1460 1461 1461 1461 1461 1461 1458 1458 1450 1445 1441 1428 1424 1417 1408 1391 1373 1356 1342 1342 1342 1365 1369 1369 1369 1366 1366 0 0 0 0 0 0 0 0 1820 1820 1820 1809 1809 1809 1811 1816 1817 1822 1832 1850 1872 1896 1914 1928 1931 1931 1931 1926 1913 1893 1860 1825 1825 1825 1830 1839 1860 1878 1889 1893 1903 1920 1951 1951 1952 1955 1955 1977 1984 1984 1984 1982 1958 1946 1944 1944 1944 1947 1947 1947 1947 1919 1870 1846 1833 1833 1831 1826 1812 1795 1795 1795 1848 1894 1918 1948 1969 1969 1969 1968 1966 1937 0 0 0 0 0 0 0 0 0 0 0 1191 1176 0 0 0 0 0 0 0 1338 1340 1359 1361 1373 1373 1373 1365 1361 1339 1309 1266 1223 1205 1198 1187 1185 1160 1128 0 0 0 0 0 0 0 0 0 0 635 658 682 682 682 0 0 0 0 0 0 0 0 0 0 0 0 0 0 0 0 0 0 0 0 0
512 512 516 533 553 0 0 0 0 0 0 0 0 0 0 0 0 955 981 1006 1012 1037 1067 1092 1114 1137 1154 1170 1187 1200 1211 1222 1232 1247 1264 1268 1279 1291 1304 1315 1324 1332 1341 1350 1361 1371 1379 1391 1400 1408 1418 1422 1428 1433 1439 1444 1448 1452 1455 1461 1464 1467 1471 1475 1477 1477 1477 1477 1477 1476 1475 1474 1473 1469 1464 1457 1447 1437 1425 1410 1405 1394 0 0 0 0 0 0 906 898 893 893 893 898 901 901 901 901 902 903 904 906 908 909 910 912 914 915 917 919 920 922 924 925 928 929 931 932 934 936 937 939 940 942 943 945 946 947 949 951 952 954 955 956 958 959 960 961 963 965 966 968 969 971 972 974 975 976 978 979 980 982 983 985 986 987 989 991 992 992 992 992 993 993 993 991 986 976 959 939 920 908 908 908 910 915 917 917 919 920 922 924 930 935 936 937 937 939 941 944 959 966 972 981 984 992 1001 1015 1024 1026 1031 1031 1031 1031 1029 1027 1020 1009 998 993 986 986 984 984 984 984 989 992 993 994 1003 1018 1036 1052 1075 1098 1117 1129 1140 1145 1148 1152 1154 1157 1160 1164 1166 1168 1172 1174 1176 1177 1178 1180 1180 1180 1179 1177 1170 1164 1152 1137 1116 1095 1095 1095 1097 1097 1097 1098 1098 1098 1104 1115 1128 1129 1133 1137 1138 1178 1210 1238 1259 1269 1274 1279 1283 1286 1289 1293 1296 1299 1303 1307 1310 1313 1315 1317 1319 1320 1322 1323 1324 1328 1327 1326 1327 1334 1336 1349 1351 1351 1356 1363 1366 1367 1374 1382 1387 1389 1391 1395 1401 1403 1404 1405 1408 1414 1421 1425 1429 1434 1438 1443 1446 1450 1453 1456 1461 1465 1468 1468 1471 1474 1477 1480 1483 1485 1488 1489 1491 1491 1493 1494 1496 1497 1498 1498 1498 1499 1501 1501 1502 1503 1504 1504 1505 1506 1508 1510 1510 1513 1514 1514 1514 1516 1517 1517 1518 1520 1521 1522 1524 1525 1526 1527 1528 1529 1529 1529 1530 1531 1531 1532 1532 1533 1534 1534 1534 1535 1535 1535 1537 1538 1538 1538 1538 1539 1539 1540 1542 1543 1545 1545 1547 1548 1548 1548 1548 1548 1547 1547 1545 1542 1541 1538 1536 1535 1535 1532 1527 1523 1522 1521 1521 1509 1507 1496 1461 1451 1443 1415 1384 0 0 1305 1305 1305 1312 1312 1319 1319 0 0 0 0 0 0 1453 1453 1470 1482 1482 1482 1477 1471 1466 1464 1461 1460 1460 1458 1456 1455 1450 1445 1441 1433 1426 1416 1402 1391 1373 1356 1349 1349 1349 1371 1378 1378 1378 1378 0 0 0 0 0 0 0 0 1833 1838 1838 1838 1815 1815 1815 1816 1816 1820 1823 1835 1850 1872 1896 1915 1924 1926 1926 1926 1925 1913 1893 1860 1825 1825 1825 1832 1846 1868 1888 1897 1902 1915 1956 1963 1963 1965 1965 1965 1983 1984 1984 1984 1982 1958 1946 1944 1944 1944 1947 1947 1947 1937 1903 1860 1846 1846 1846 1843 1843 1820 1820 1820 1820 1875 1903 1923 1954 1982 1982 1982 1968 1966 1937 0 0 0 0 0 0 0 0 0 0 0 1164 1163 0 0 0 0 0 0 0 1338 1340 1367 1378 1378 1378 1358 1346 1328 1321 1297 1259 1223 1205 1186 1185 1171 0 0 0 0 0 0 0 0 0 0 0 648 667 684 696 696 696 658 0 0 0 0 0 0 0 0 0 0 0 0 0 0 0 0 0 0 0 0
512 512 516 533 553 0 0 0 0 0 0 0 0 0 0 0 0 955 981 1006 1035 1039 1076 1100 1121 1139 1154 1170 1187 1201 1211 1225 1237 1250 1264 1269 1281 1291 1305 1317 1326 1333 1341 1350 1359 1369 1377 1387 1400 1408 1417 1422 1428 1433 1439 1445 1450 1454 1458 1462 1467 1470 1474 1476 1479 1480 1482 1482 1483 1484 1485 1485 1485 1485 1485 1480 1468 1458 1448 1435 1427 1418 0 0 0 0 0 0 907 898 893 893 893 898 901 901 901 902 902 904 905 906 908 909 911 912 914 916 918 919 921 923 925 926 928 930 931 933 935 936 937 940 941 942 944 945 946 948 950 951 953 954 956 956 958 959 960 962 963 965 966 968 969 971 972 974 975 976 978 979 980 982 984 985 986 988 989 991 992 992 993 993 993 993 993 993 988 977 967 945 922 915 915 915 915 917 920 924 924 929 933 934 938 941 943 949 955 963 967 968 974 984 992 997 1002 1002 1006 1015 1021 1023 1023 1023 1011 1001 1001 1000 997 983 972 966 966 966 967 970 972 979 985 987 987 994 1003 1018 1035 1052 1075 1098 1116 1129 1140 1147 1150 1152 1155 1158 1161 1164 1168 1169 1173 1175 1177 1179 1179 1180 1180 1180 1179 1179 1173 1165 1153 1137 1116 1095 1095 1095 1098 1105 1105 1105 1105 1105 1114 1130 1143 1143 1145 1149 1153 1199 1217 1244 1259 1269 1275 1280 1285 1288 1291 1294 1297 1300 1304 1308 1312 1314 1317 1319 1322 1323 1325 1330 1331 1333 1333 1334 1337 1341 1349 1355 1356 1361 1366 1367 1372 1379 1385 1389 1390 1390 1392 1396 1402 1405 1406 1406 1412 1418 1424 1426 1430 1435 1438 1444 1449 1451 1455 1460 1466 1468 1469 1471 1473 1477 1480 1483 1483 1485 1489 1489 1491 1491 1493 1494 1495 1497 1498 1498 1498 1498 1499 1499 1500 1501 1502 1503 1504 1504 1506 1507 1509 1510 1511 1511 1512 1514 1515 1516 1517 1519 1520 1521 1523 1524 1524 1524 1525 1527 1527 1527 1528 1528 1530 1531 1531 1532 1533 1534 1534 1534 1535 1535 1535 1535 1536 1536 1537 1538 1538 1539 1540 1542 1544 1545 1547 1547 1548 1548 1548 1548 1547 1546 1543 1541 1539 1535 1534 1532 1529 1527 1526 1520 1519 1517 1509 1508 1501 1496 1461 1431 1412 1380 1366 0 1292 1292 1292 1297 1327 1329 1336 1344 0 0 0 1459 1459 1459 1459 1459 1472 1485 1492 1492 1492 1478 1466 1464 1461 1457 1457 1453 1453 1453 1453 1453 1453 1453 1438 1414 1394 1379 1360 1357 1355 1355 1355 1377 1385 1385 1385 0 0 0 0 0 0 0 1795 1826 1849 1850 1850 1850 1824 1816 1816 1816 1816 1822 1823 1835 1850 1872 1896 1915 1920 1921 1922 1921 1920 1911 1899 1860 1839 1839 1839 1843 1856 1878 1898 1904 1913 1953 1974 1976 1977 1985 1985 2001 2025 2025 2025 2009 1982 1958 1958 1958 1962 1970 1970 1970 1948 1918 1873 1868 1868 1868 1883 1883 1883 1828 1828 1828 1844 1884 1903 1923 1954 1982 1982 1982 1968 1966 1937 0 0 0 0 0 0 0 0 0 0 0 1176 1176 0 0 0 0 0 0 0 1340 1341 1385 1385 1385 1378 1342 1325 1310 1289 1275 1253 1223 1205 1186 1179 1156 0 0 0 0 0 0 0 0 0 0 624 624 669 694 696 696 696 659 0 0 0 0 0 0 0 0 0 0 0 0 0 0 0 0 0 0 0 0
512 512 516 533 553 0 0 0 0 0 0 0 0 0 0 0 0 953 982 1006 1035 1039 1083 1107 1126 1141 1155 1170 1187 1201 1211 1227 1241 1254 1265 1269 1283 1292 1305 1317 1328 1336 1343 1350 1358 1366 1376 1386 1396 1408 1415 1421 1425 1431 1439 1445 1452 1456 1460 1464 1469 1472 1474 1478 1481 1483 1485 1486 1486 1487 1490 1491 1493 1493 1493 1492 1486 1481 1478 1473 1470 1442 0 0 0 0 0 0 907 898 893 893 893 898 901 901 902 902 903 904 905 907 908 910 911 914 915 917 919 920 922 923 925 927 929 930 932 934 935 937 938 940 942 943 945 945 947 949 950 952 953 954 956 957 959 960 961 962 963 965 967 968 969 971 973 974 975 976 978 979 981 982 984 985 986 988 989 991 992 993 993 993 994 994 994 994 988 981 969 948 926 921 920 919 919 919 924 928 932 937 940 943 946 946 953 960 972 977 980 984 997 1008 1013 1017 1017 1020 1020 1019 1017 1012 1010 1001 989 981 975 975 975 971 965 965 965 965 967 970 972 974 978 982 985 994 1013 1028 1034 1052 1075 1098 1116 1131 1140 1147 1152 1154 1156 1160 1163 1166 1169 1171 1173 1176 1178 1180 1181 1181 1182 1182 1182 1182 1176 1166 1154 1137 1116 1098 1098 1098 1098 1108 1109 1110 1115 1116 1118 1130 1143 1147 1149 1149 1166 1213 1225 1244 1259 1269 1277 1282 1286 1291 1294 1297 1299 1302 1305 1310 1313 1316 1318 1321 1324 1326 1328 1332 1335 1338 1340 1340 1345 1351 1355 1359 1360 1363 1366 1371 1376 1379 1385 1390 1394 1395 1396 1396 1402 1406 1406 1410 1415 1421 1424 1426 1434 1438 1439 1444 1450 1455 1458 1464 1470 1470 1470 1472 1476 1480 1480 1484 1486 1488 1489 1490 1491 1492 1492 1494 1495 1496 1497 1497 1497 1497 1498 1498 1499 1500 1500 1502 1502 1503 1505 1506 1507 1508 1509 1511 1512 1512 1514 1514 1515 1517 1519 1520 1520 1520 1521 1522 1524 1524 1525 1525 1526 1528 1529 1531 1531 1532 1532 1533 1534 1534 1534 1534 1534 1534 1535 1536 1537 1537 1538 1538 1540 1542 1543 1545 1546 1547 1547 1547 1547 1547 1546 1544 1543 1540 1538 1535 1533 1530 1526 1522 1520 1518 1513 1502 1498 1493 1493 1477 1456 1427 1399 1378 0 1322 1268 1268 1268 1320 1338 1354 1372 1393 1422 1455 1487 1487 1487 1472 1472 1472 1480 1486 1492 1492 1492 1478 1466 1455 1445 1445 1445 1449 1451 1455 1455 1455 1455 1455 1438 1414 1389 1373 1360 1357 1357 1357 1369 1384 1394 0 0 0 0 0 0 0 0 1792 1823 1846 1864 1864 1864 1861 1844 1830 1821 1821 1821 1822 1823 1835 1850 1872 1896 1915 1917 1917 1917 1915 1912 1911 1906 1891 1879 1864 1864 1864 1869 1890 1906 1925 1948 1975 1981 1985 1986 1988 1999 2039 2040 2040 2040 2017 1991 1987 1987 1987 2003 2003 2003 1970 1944 1889 1865 1865 1865 1897 1897 1897 1883 1828 1828 1828 1844 1884 1903 1923 1954 1982 1982 1982 1966 1964 0 0 0 0 0 0 0 0 0 0 0 0 1204 1204 0 0 0 0 0 0 0 1340 1354 1394 1394 1394 1373 1324 1295 1280 1265 1257 1252 1223 1205 1187 1179 1155 0 0 0 0 0 0 0 0 0 628 628 628 670 682 694 694 682 663 0 0 0 0 0 0 0 0 0 0 0 0 749 749 751 777 777 777 730 0
512 512 524 544 567 582 617 0 0 0 0 0 0 0 0 0 0 953 983 1006 1037 1041 1087 1111 1128 1143 1158 1173 1190 1204 1214 1229 1243 1259 1270 1274 1283 1292 1305 1317 1328 1336 1343 1350 1358 1366 1376 1386 1396 1406 1413 1419 1423 1428 1437 1445 1452 1456 1462 1467 1470 1473 1475 1479 1482 1486 1486 1487 1487 1488 1490 1491 1493 1494 1494 1494 1492 1488 1485 1479 1475 1449 0 0 0 0 0 0 908 901 895 895 895 898 901 902 902 902 903 905 906 908 909 910 913 914 916 917 919 920 922 924 925 928 930 931 933 934 936 938 939 941 942 943 945 947 948 949 951 952 953 955 956 958 959 960 961 963 964 965 967 968 970 971 973 974 975 976 978 979 981 982 984 985 986 988 989 991 992 993 993 993 994 994 994 994 990 984 970 950 931 927 927 927 929 930 934 934 936 941 945 953 963 972 976 988 1004 1013 1013 1014 1019 1020 1022 1029 1036 1036 1036 1036 1018 1002 989 978 967 967 967 967 967 967 965 965 965 965 967 969 969 970 971 975 984 1000 1014 1028 1034 1052 1082 1102 1116 1131 1141 1148 1152 1155 1159 1162 1165 1167 1170 1173 1175 1177 1179 1181 1182 1183 1183 1183 1183 1183 1178 1169 1161 1139 1116 1107 1104 1104 1104 1112 1112 1113 1116 1116 1119 1131 1149 1150 1151 1154 1184 1213 1225 1244 1257 1269 1277 1283 1290 1294 1297 1299 1302 1305 1308 1311 1314 1316 1319 1322 1326 1328 1329 1332 1336 1339 1343 1346 1349 1352 1356 1360 1362 1365 1368 1371 1376 1379 1385 1391 1394 1396 1396 1397 1406 1406 1408 1411 1415 1422 1425 1426 1434 1439 1443 1445 1453 1460 1464 1470 1471 1472 1475 1475 1480 1482 1482 1485 1487 1489 1490 1491 1492 1492 1492 1493 1495 1495 1495 1495 1495 1497 1497 1498 1498 1499 1499 1500 1501 1501 1503 1504 1505 1507 1509 1510 1510 1511 1511 1512 1513 1514 1516 1517 1518 1518 1519 1519 1521 1522 1523 1524 1525 1527 1529 1530 1530 1531 1531 1532 1533 1533 1533 1533 1534 1534 1534 1536 1537 1537 1538 1538 1540 1541 1543 1545 1546 1547 1547 1547 1547 1546 1545 1543 1542 1539 1537 1534 1531 1528 1523 1520 1518 1517 1501 1495 1490 1489 1489 1467 1441 1390 0 0 1335 1296 1268 1268 1268 1322 1342 1374 1409 1427 1455 1472 1487 1487 1487 1489 1489 1490 1503 1503 1503 1502 1492 1478 1458 1432 1431 1431 1431 1442 1447 1451 1451 1455 1455 1455 1438 1413 1388 1369 1364 1364 1364 1377 1382 1396 0 0 0 0 0 0 0 0 0 1827 1848 1869 1874 1875 1875 1875 1860 1836 1821 1821 1821 1823 1823 1835 1853 1878 1898 1916 1917 1917 1917 1915 1915 1912 1906 1896 1889 1881 1881 1881 1885 1909 1930 1948 1963 1975 1981 1990 1991 2006 2037 2074 2074 2074 2057 2023 2004 2004 2004 2015 2015 2015 2003 1970 1911 1871 1865 1865 1865 1897 1897 1897 1883 1828 1828 1828 1845 1887 1903 1923 1936 1943 1943 1943 1910 1908 0 0 0 0 0 0 0 0 0 0 0 0 1222 1247 0 0 0 0 0 0 0 0 1359 1400 1400 0 0 0 0 1257 1254 1242 1242 1222 1205 1188 1179 1154 0 0 0 0 0 0 0 0 0 624 624 624 670 680 688 688 680 663 0 0 0 0 0 0 0 0 0 0 0 772 775 775 778 778 777 777 743 0
518 518 531 551 575 589 617 642 0 0 0 0 0 0 0 0 0 953 984 1006 1038 1042 1090 1111 1129 1144 1164 1185 1199 1209 1220 1232 1249 1263 1274 1278 1287 1296 1308 1319 1328 1336 1344 1350 1358 1366 1376 1386 1395 1404 1408 1415 1420 1427 1437 1445 1452 1456 1462 1467 1472 1474 1477 1479 1484 1487 1488 1488 1489 1490 1491 1492 1493 1494 1495 1495 1495 1491 1488 1483 1476 1450 0 0 0 0 0 0 917 906 895 895 895 898 901 903 903 903 904 905 907 909 910 911 914 915 916 918 919 921 923 924 926 929 930 932 934 934 937 938 940 942 943 944 946 947 949 950 952 953 954 955 957 958 959 961 962 963 964 966 967 968 970 971 972 974 975 976 978 979 981 982 984 984 986 988 989 991 992 993 993 994 994 995 995 995 993 987 972 953 935 933 933 933 941 942 945 947 947 950 955 961 984 999 1006 1013 1023 1023 1025 1027 1027 1033 1036 1041 1044 1044 1044 1036 1018 1001 982 970 967 966 966 966 966 966 965 965 965 967 967 967 967 969 970 973 984 1000 1014 1028 1033 1052 1085 1108 1120 1133 1142 1148 1153 1157 1160 1162 1166 1169 1171 1174 1177 1179 1181 1183 1185 1185 1185 1186 1186 1186 1181 1174 1161 1141 1116 1116 1116 1118 1119 1119 1118 1118 1118 1118 1122 1137 1150 1155 1165 1183 1191 1213 1225 1245 1257 1269 1277 1284 1290 1294 1298 1301 1304 1307 1310 1312 1315 1318 1320 1324 1327 1329 1331 1334 1337 1342 1347 1351 1354 1357 1358 1361 1364 1366 1368 1372 1376 1381 1385 1391 1394 1397 1400 1402 1408 1410 1410 1411 1415 1422 1427 1431 1435 1441 1447 1453 1463 1472 1474 1476 1476 1477 1477 1477 1485 1486 1486 1487 1488 1491 1491 1491 1492 1492 1492 1492 1493 1493 1493 1494 1495 1495 1496 1496 1496 1498 1498 1499 1499 1500 1501 1502 1504 1506 1506 1508 1508 1509 1509 1510 1510 1511 1512 1513 1515 1516 1516 1517 1519 1519 1521 1522 1524 1525 1527 1528 1529 1530 1531 1531 1532 1533 1533 1533 1534 1534 1534 1535 1536 1537 1537 1538 1539 1541 1543 1544 1546 1546 1546 1546 1546 1545 1543 1542 1540 1537 1535 1533 1529 1527 1523 1517 1517 1509 1487 1487 1478 1477 1476 0 0 0 0 0 1296 1292 1285 0 0 0 0 1410 1433 1454 1468 1472 1487 1487 1488 1489 1489 1505 1506 1506 1506 1495 1482 1465 1455 1432 1418 1418 1418 1431 1447 1453 1453 1453 1453 1439 1404 1401 1385 1369 1369 1369 1378 1387 1390 1401 0 0 0 0 0 0 0 0 0 1863 1882 1882 1882 1882 1882 1875 1860 1836 1821 1821 1821 1823 1826 1835 1869 1899 1913 1918 1918 1918 1917 1915 1915 1912 1909 1899 1893 1893 1893 1895 1920 1935 1949 1950 1963 1975 1981 1990 2002 2034 2081 2099 2099 2099 2074 2038 2030 2030 2030 2031 2031 2031 2003 1955 1893 1856 1856 1856 1865 1897 1897 1897 1858 1832 1832 1832 1861 1889 1903 1933 1933 1933 1932 1901 1899 1859 0 0 0 0 0 0 0 0 0 0 0 0 1246 1250 0 0 1339 1359 1360 0 0 0 0 0 0 0 0 0 0 1208 1208 1208 1205 1205 1203 1188 1179 1148 0 0 0 0 0 0 0 0 0 648 648 648 670 678 678 678 671 663 661 0 0 0 0 0 0 0 0 0 773 782 782 782 780 780 780 764 741 0
518 518 531 553 575 592 616 638 639 0 0 0 0 0 0 0 0 954 989 1014 1045 1049 1090 1111 1129 1149 1171 1195 1208 1215 1223 1238 1254 1266 1277 1286 1290 1299 1310 1319 1329 1338 1344 1352 1360 1368 1377 1386 1395 1404 1408 1415 1420 1427 1437 1445 1452 1456 1462 1467 1472 1475 1478 1481 1484 1487 1488 1490 1491 1491 1492 1492 1493 1494 1495 1495 1495 1494 1489 1484 1476 1463 0 0 0 0 0 0 919 907 895 895 895 900 902 903 903 904 904 905 907 909 910 912 914 916 917 919 920 921 924 926 927 929 931 932 934 935 937 939 941 942 944 945 946 947 949 951 952 954 955 956 957 958 959 961 962 963 964 966 967 968 970 971 972 974 975 976 978 979 981 982 983 984 986 987 988 990 991 993 993 994 994 995 995 995 993 987 972 957 939 939 939 939 944 950 954 960 961 966 972 979 1003 1020 1021 1022 1026 1039 1040 1041 1044 1047 1048 1048 1048 1047 1045 1037 1018 1001 982 970 967 966 966 966 966 967 967 967 967 967 967 967 967 969 970 973 984 1000 1014 1026 1032 1051 1085 1110 1128 1135 1143 1148 1153 1158 1161 1164 1167 1169 1173 1176 1178 1180 1182 1184 1185 1187 1187 1187 1187 1187 1183 1176 1165 1142 1124 1124 1124 1126 1126 1126 1121 1121 1121 1123 1131 1141 1150 1155 1165 1185 1198 1213 1229 1247 1257 1269 1282 1287 1290 1294 1298 1301 1305 1308 1311 1314 1316 1319 1321 1325 1327 1330 1333 1336 1339 1344 1348 1353 1356 1358 1360 1361 1364 1366 1370 1372 1377 1381 1385 1390 1395 1397 1401 1404 1410 1410 1411 1412 1416 1423 1428 1433 1437 1442 1453 1463 1475 1484 1484 1484 1484 1484 1492 1494 1499 1499 1499 1498 1495 1493 1493 1493 1494 1494 1494 1493 1493 1493 1493 1494 1494 1495 1495 1496 1496 1496 1497 1497 1497 1498 1499 1501 1503 1504 1505 1506 1507 1508 1508 1508 1508 1509 1510 1512 1514 1515 1515 1517 1517 1519 1520 1521 1521 1523 1525 1527 1529 1530 1531 1531 1532 1533 1533 1533 1534 1534 1534 1535 1536 1537 1538 1538 1539 1541 1542 1544 1545 1545 1545 1545 1544 1544 1541 1540 1538 1537 1535 1533 1528 1526 1522 1516 1509 1500 1480 1466 1464 1451 1448 0 0 0 0 0 0 1296 0 0 0 0 0 1447 1461 1469 1470 1475 1476 1478 1487 1491 1496 1505 1506 1506 1506 1489 1481 1465 1455 1432 1418 1418 1418 1431 1447 1455 1455 1455 1453 1425 1404 1397 1385 1373 1373 1373 1379 1388 1402 0 0 0 0 0 0 0 0 1841 1867 1887 1896 1896 1896 1882 1882 1875 1860 1836 1824 1824 1824 1826 1833 1864 1895 1926 1927 1927 1926 1926 1926 1924 1917 1915 1912 1908 1898 1898 1898 1912 1930 1941 1949 1950 1962 1963 1967 1986 2002 2034 2081 2099 2099 2099 2074 2069 2060 2060 2055 2053 2053 2031 1984 0 1880 1842 1842 1842 1863 1863 1863 1860 1822 1822 1822 1842 1867 1898 1921 1933 1933 1933 1932 1901 1899 0 0 0 0 0 0 0 0 0 0 0 0 1251 1251 1251 0 1345 1368 1381 1394 1416 1429 1429 1429 1422 0 0 0 0 0 0 1197 1197 1197 1190 1188 1187 1179 0 0 0 0 0 0 0 0 0 0 0 652 652 651 0 0 642 641 640 640 641 0 0 0 0 0 0 0 0 779 782 782 780 779 772 769 764 741 0
518 518 531 553 575 592 616 637 639 0 0 0 0 0 0 0 0 962 993 1024 1054 1057 1090 1111 1129 1149 1171 1195 1208 1215 1223 1238 1254 1266 1279 1290 1294 1303 1313 1321 1330 1338 1345 1353 1362 1369 1377 1386 1395 1402 1408 1414 1420 1427 1439 1445 1452 1456 1462 1467 1472 1475 1478 1481 1484 1487 1488 1490 1492 1492 1493 1493 1493 1493 1494 1494 1494 1494 1489 1484 1476 1464 0 0 0 0 0 0 0 907 896 896 896 900 903 904 904 905 905 906 908 910 911 913 914 917 918 919 921 923 924 926 928 929 931 933 934 936 937 939 941 942 944 946 947 948 950 952 952 954 956 956 957 958 959 960 962 963 964 966 966 968 970 971 972 974 975 976 977 979 980 981 983 984 986 987 988 990 991 993 993 994 994 995 995 995 993 989 979 964 951 951 951 955 957 959 966 974 981 982 996 1010 1016 1023 1027 1029 1037 1045 1049 1050 1050 1051 1051 1051 1051 1049 1045 1037 1020 1001 982 970 968 966 966 966 967 967 967 967 967 967 967 967 967 969 970 973 984 996 1010 1017 1028 1049 1086 1113 1128 1138 1143 1149 1153 1158 1162 1165 1168 1170 1174 1177 1179 1181 1183 1185 1187 1187 1188 1188 1188 1187 1184 1177 1169 1148 1128 1128 1128 1129 1129 1129 1125 1125 1125 1140 1152 1157 1158 1158 1173 1189 1200 1213 1229 1249 1261 1274 1284 1287 1290 1294 1298 1302 1305 1309 1312 1314 1318 1321 1323 1326 1329 1332 1335 1338 1341 1346 1350 1353 1356 1359 1362 1364 1365 1367 1371 1376 1379 1381 1385 1390 1395 1399 1401 1407 1411 1411 1412 1413 1417 1423 1432 1437 1437 1449 1457 1475 1484 1487 1488 1491 1492 1498 1506 1508 1509 1511 1508 1508 1502 1495 1495 1495 1495 1495 1495 1493 1493 1492 1492 1493 1494 1494 1495 1496 1496 1496 1496 1497 1497 1497 1499 1499 1500 1501 1503 1505 1507 1507 1507 1508 1508 1508 1509 1511 1513 1513 1513 1514 1515 1515 1517 1518 1520 1523 1525 1527 1529 1530 1531 1531 1532 1533 1533 1534 1534 1534 1535 1536 1536 1537 1538 1538 1539 1541 1543 1543 1544 1544 1544 1543 1542 1541 1540 1538 1537 1537 1535 1531 1528 1526 1521 1513 1508 1493 1478 1456 1443 1417 1387 0 0 0 0 0 0 0 0 0 0 0 1458 1464 1470 1471 1471 1475 1476 1478 1491 1494 1499 1505 1505 1505 1494 1482 1481 1465 1455 1453 1438 1431 1431 1431 1453 1462 1462 1462 1453 1425 1404 1397 1385 1373 1373 1373 1384 1393 1407 0 0 0 0 0 0 0 1859 1878 1895 1906 1906 1906 1896 1880 1872 1865 1851 1826 1824 1824 1824 1831 1855 1882 1908 1931 1934 1934 1934 1934 1934 1935 1935 1935 1931 1919 1898 1898 1898 1917 1935 1942 1946 1946 1946 1946 1946 1973 2002 2034 2081 2099 2099 2099 2074 2074 2072 2069 2067 2060 2053 2024 1973 1921 1880 1842 1842 1842 1851 1859 1859 1859 1821 1821 1821 1860 1901 1933 1956 1956 1956 1948 1932 1901 1899 1859 0 0 0 0 0 0 0 0 0 0 1305 1271 1271 1271 0 1346 1372 1385 1398 1423 1435 1435 1435 1432 1398 0 0 0 0 0 1194 1194 1173 1173 1170 1165 0 0 0 0 0 0 0 0 0 0 0 0 0 0 0 0 621 621 621 621 640 641 0 0 715 715 715 0 0 0 779 779 779 778 775 766 764 764 743 0
517 517 533 553 572 592 616 637 643 0 0 0 0 0 0 0 936 968 996 1024 1054 1073 1089 1110 1129 1149 1171 1195 1208 1215 1223 1238 1254 1266 1279 1291 1295 1305 1314 1321 1331 1339 1346 1354 1362 1369 1377 1385 1392 1398 1407 1413 1420 1427 1439 1447 1451 1454 1459 1466 1472 1475 1478 1481 1483 1486 1488 1490 1492 1493 1493 1493 1493 1493 1494 1494 1494 1494 1488 1484 1475 1465 1434 0 0 0 0 0 0 907 897 897 897 901 903 905 905 906 906 907 908 910 911 913 916 917 919 920 921 924 926 927 928 930 931 933 935 936 938 940 942 943 945 946 947 949 951 952 953 954 956 956 958 958 959 960 962 963 964 965 966 967 969 970 972 973 975 976 977 977 978 980 982 984 986 986 987 989 991 992 993 993 993 995 995 995 993 992 988 977 965 965 965 975 987 992 992 1000 1004 1008 1018 1027 1033 1038 1041 1042 1046 1048 1050 1051 1051 1053 1053 1053 1053 1050 1046 1039 1027 1005 983 973 970 968 968 968 969 969 969 967 967 967 967 969 969 970 971 976 985 994 1009 1017 1028 1050 1087 1113 1130 1140 1144 1151 1155 1159 1163 1166 1168 1172 1175 1178 1180 1182 1184 1186 1188 1188 1189 1189 1189 1188 1184 1179 1177 1165 1144 1135 1135 1135 1135 1135 1135 1135 1135 1155 1163 1163 1168 1172 1175 1192 1203 1217 1236 1253 1266 1275 1284 1287 1290 1294 1298 1302 1306 1310 1313 1316 1319 1322 1325 1328 1331 1334 1337 1340 1344 1346 1350 1354 1357 1360 1362 1365 1367 1371 1372 1377 1381 1381 1387 1392 1395 1400 1401 1409 1412 1414 1416 1416 1423 1425 1432 1439 1448 1452 1463 1477 1488 1489 1492 1506 1510 1514 1525 1525 1525 1525 1520 1516 1516 1504 1497 1497 1497 1498 1498 1498 1494 1492 1492 1492 1492 1494 1495 1495 1496 1496 1496 1496 1496 1497 1497 1499 1499 1499 1501 1503 1505 1506 1506 1506 1507 1507 1507 1508 1508 1508 1508 1510 1511 1513 1515 1517 1520 1522 1525 1527 1529 1530 1531 1531 1532 1534 1534 1534 1534 1534 1535 1536 1536 1537 1538 1538 1540 1541 1542 1543 1543 1543 1542 1542 1541 1541 1540 1538 1537 1537 1535 1531 1527 1520 1516 1507 1499 1492 1477 1454 1427 1392 1365 1342 1312 1270 1270 0 0 0 0 0 0 1471 1471 1471 1471 1471 1475 1475 1476 1478 1491 1494 1494 1494 1485 1482 1481 1477 1477 1477 1464 1460 1438 1426 1426 1426 1453 1462 1462 1462 1448 1422 1404 1397 1394 1381 1381 1381 1384 1395 0 0 0 0 0 0 0 1856 1887 1901 1917 1917 1917 1908 1887 1866 1858 1850 1844 1826 1824 1824 1824 1841 1865 1892 1916 1933 1941 1941 1942 1943 1944 1947 1947 1947 1946 1924 1903 1903 1903 1922 1938 1938 1938 1938 1928 1928 1928 1958 1996 2027 2051 2052 2064 2065 2066 2067 2069 2069 2067 2060 2053 2012 1969 1921 1880 1842 1842 1842 1848 1848 1848 1836 1836 1836 1861 1888 1925 1962 1969 1969 1969 1950 1932 1924 1916 1868 0 0 0 0 0 0 0 0 0 1339 1318 1307 1307 0 0 1371 1388 1403 1417 1431 1437 1437 1437 1432 1398 0 0 0 0 0 1204 1194 1170 1162 1154 1141 0 0 0 0 0 0 0 0 0 0 0 0 0 0 0 608 608 608 619 621 640 641 0 709 709 709 709 709 719 772 779 779 779 777 760 760 758 755 755 0
513 513 533 553 570 592 612 632 664 668 0 0 0 0 0 0 938 970 997 1024 1054 1073 1084 1103 1123 1144 1166 1187 1201 1209 1219 1237 1252 1266 1279 1291 1296 1306 1314 1321 1331 1339 1348 1355 1362 1369 1376 1381 1388 1396 1404 1413 1422 1427 1439 1447 1451 1453 1456 1463 1469 1473 1477 1481 1483 1485 1487 1490 1492 1493 1493 1493 1493 1493 1494 1494 1494 1491 1487 1483 1475 1465 1434 0 0 0 0 0 0 909 899 899 899 901 903 905 906 906 906 907 908 911 912 914 916 917 919 921 922 924 926 928 929 930 932 934 935 937 938 940 942 943 945 946 948 949 951 952 953 954 956 956 958 958 959 960 961 962 963 964 966 967 967 969 971 973 975 976 976 977 978 980 982 983 984 985 986 987 989 991 992 992 993 994 994 994 992 992 991 987 986 986 986 994 998 1001 1002 1002 1021 1033 1037 1040 1041 1045 1048 1049 1051 1052 1052 1052 1053 1054 1054 1054 1053 1051 1048 1041 1029 1005 984 977 972 970 969 969 969 969 969 969 967 967 967 970 972 973 975 980 986 994 1009 1017 1028 1050 1087 1113 1131 1141 1147 1152 1156 1159 1163 1167 1170 1173 1176 1178 1181 1184 1186 1188 1189 1190 1190 1190 1189 1188 1184 1181 1181 1170 1150 1136 1136 1136 1136 1137 1138 1138 1146 1155 1170 1170 1174 1179 1193 1204 1222 1233 1244 1253 1267 1275 1284 1287 1291 1296 1299 1303 1307 1311 1313 1317 1321 1324 1327 1330 1334 1336 1338 1341 1344 1347 1352 1355 1358 1360 1364 1365 1367 1371 1376 1379 1381 1381 1389 1392 1396 1400 1401 1412 1421 1421 1422 1424 1425 1425 1434 1446 1448 1459 1464 1478 1490 1491 1498 1515 1542 1547 1547 1547 1541 1538 1533 1532 1532 1525 1510 1507 1507 1503 1503 1503 1496 1492 1492 1491 1491 1491 1494 1495 1496 1496 1496 1496 1496 1495 1495 1495 1496 1497 1499 1503 1505 1506 1506 1506 1506 1506 1507 1507 1507 1506 1506 1506 1510 1512 1513 1515 1517 1521 1524 1527 1529 1530 1531 1532 1533 1534 1534 1534 1535 1535 1535 1536 1536 1537 1537 1538 1541 1542 1542 1542 1541 1541 1541 1540 1541 1541 1540 1538 1538 1537 1535 1530 1523 1516 1508 1492 1491 1489 1474 1453 1418 1381 1355 1329 1301 1270 1270 1270 0 0 0 1485 1485 1485 1479 1471 1471 1471 1479 1483 1485 1487 1497 1497 1497 1476 1472 1472 1472 1482 1482 1482 1469 1460 1438 1426 1426 1426 1453 1462 1462 1462 1448 1422 1409 1406 1405 1402 1389 1389 1389 0 0 0 0 0 0 0 1863 1889 1901 1917 1929 1929 1929 1910 1887 1866 1858 1850 1844 1828 1828 1828 1832 1846 1869 1897 1921 1938 1941 1943 1946 1951 1957 1963 1963 1963 1948 1926 1910 1910 1910 1929 1938 1938 1938 1938 1928 1928 1928 1958 1996 1997 1997 1997 1997 1997 2033 2076 2076 2076 2072 2059 2037 2002 1969 1921 1883 1850 1848 1848 1848 1848 1848 1854 1854 1854 1889 1925 1967 1981 1981 1981 1969 1956 1932 1927 1916 1879 0 0 0 0 0 0 0 0 1367 1339 1329 1329 0 0 0 1399 1419 1431 1442 1443 1445 1445 1443 1436 1403 1370 1342 1314 0 0 0 1179 1153 1142 1139 1128 0 0 0 0 0 0 0 0 0 0 0 0 0 0 0 602 602 602 620 637 652 0 706 709 709 709 709 709 723 753 757 757 757 755 750 750 750 750 755 0
