767 767 767 768 774 0 854 870 897 921 942 965 991 1012 1024 1032 1042 1059 1075 1088 1094 1104 1114 1129 1147 1162 1168 1181 1193 1201 1211 1225 1238 1250 1257 1270 1286 1300 1313 1318 1324 1328 1333 1336 1343 1352 1363 1371 1379 1383 1390 1395 1400 1406 1409 1411 1413 1414 1416 1419 1421 1422 1423 1425 1428 1429 1433 1437 1441 1441 1441 1438 1438 1432 1431 1430 1430 1431 1431 1434 1434 1434 1433 1433 1433 1433 1431 1420 0 0 0 0 0 0 0 0 0 0 1264 1298 1312 1319 1324 1334 1342 1349 1354 1363 1374 1385 1391 1397 1402 1408 1415 1423 1435 1447 1456 1465 1478 1487 1487 1487 1487 1487 1487 1494 1504 1512 1520 1526 1526 1526 1526 1523 1518 1518 1518 1519 1523 1526 1527 1531 1547 1567 1589 1615 1617 1621 1632 1642 1648 1654 1660 1666 1670 1673 1677 1679 1681 1683 1684 1685 1687 1688 1690 1691 1693 1695 1696 1698 1700 1702 1703 1705 1705 1706 1706 1706 1706 1707 1708 1708 1710 1710 1711 1713 1715 1717 1719 1720 1722 1724 1725 1727 1727 1728 1729 1729 1731 1732 1732 1732 1734 1734 1735 1736 1738 1740 1741 1744 1746 1748 1750 1752 1753 1755 1756 1756 1757 1757 1757 1757 1757 1756 1756 1755 1755 1755 1755 1755 1755 1755 1758 1761 1765 1770 1774 1780 1784 1791 1797 1804 1809 1814 1819 1819 1826 1831 1837 1848 1857 1859 1882 1882 1882 1880 1857 0 0 0 0 0 0 0 0 0 0 0 0 0 0 0 0 0 0 0 0 0 0 0 1523 1523 1518 1487 1463 1463 1463 1491 1511 1511 1511 1495 1464 1448 1448 1448 1448 1448 1453 1462 1482 1494 1494 1494 1483 1483 1483 1489 1499 1500 1505 1518 1531 1531 1531 1529 1491 1475 1475 1475 1480 1493 1503 1520 1532 1532 1532 1527 1503 1485 1485 1485 1494 1494 1494 1493 1485 1484 1483 1473 1459 1459 1459 1462 1462 1462 1461 1458 1458 1458 1458 1458 1452 1444 1434 1429 1429 1429 1434 1443 1451 1463 0 0 0 0 0 0 0 0 2505 2608 2638 2690 2728 2728 2728 2705 2679 2633 2580 2465 0 0 0 0 0 0 1041 1026 1026 1026 1036 1036 1042 1042 1058 1058 0 0 0 0 0 0 0 0 0 0 0 0 0 960 960 960 980 980 980 966 966 966 966 966 945 926 0 0 0 0 0 0 0 0 0 0 0 0 0 568 568 568 549 548 546 542 531 529 501 501 497 492 497 501 501 523 532 536 543 546 546 546 0 0 0 0 0 0 0 0 0 0 0 0 0 0 0 0 0 0 0 0 0 0 0 0 0 0 0 0 0 0 0 0 0 0 0 0 0 0 0 0 0 0 0 0 0 0 0 0 0 0 0 0 0 0 0 0 0 0 0 0 0 0 0 0 0 0 0 0 0 0 0 0 0 0 0 0 0 0 0 0 0 0 0 0 0 0 0 0 0 0 0 0 0 0 0 0 0 0 0 0 0 0 0 0 0 0 0 0 0 0 0 0 0 0 0 0 983 972 972 972 942 0 0 0 0 0 0 0 0 0 0 0 0 0 0 0 0 505 504 504 504 504 504 499 497 495 491 486 481 480 479 474 469 465 461 458 458 455 453 448 445 443 439 436 433 432 428 425 422 420 419 417 416 416 415 414 413 413
768 768 768 768 774 0 0 872 893 920 940 962 988 1010 1024 1036 1049 1066 1082 1092 1099 1104 1114 1129 1147 1162 1168 1181 1193 1202 1214 1226 1238 1250 1257 1270 1286 1300 1302 1307 1311 1316 1322 1322 1337 1349 1358 1368 1377 1381 1388 1393 1396 1400 1403 1407 1408 1410 1413 1416 1419 1419 1420 1424 1427 1428 1431 1433 1435 1435 1435 1434 1431 1429 1429 1429 1429 1430 1430 1429 1429 1426 1425 1424 1423 1422 1411 0 0 0 0 0 0 0 0 0 0 1261 1282 1298 1311 1318 1323 1332 1342 1349 1354 1363 1372 1381 1387 1395 1400 1404 1409 1416 1426 1438 1449 1463 1473 1480 1480 1480 1481 1481 1482 1490 1501 1510 1516 1524 1524 1524 1523 1522 1518 1518 1518 1518 1519 1519 1520 1521 1535 1557 1586 1601 1612 1621 1631 1642 1648 1654 1659 1668 1673 1675 1677 1679 1680 1681 1683 1685 1687 1688 1690 1691 1692 1693 1695 1697 1700 1702 1703 1705 1706 1706 1706 1706 1706 1706 1707 1708 1709 1710 1711 1713 1714 1716 1718 1720 1722 1724 1725 1726 1727 1727 1729 1729 1730 1731 1731 1732 1732 1733 1734 1736 1737 1740 1741 1744 1746 1747 1749 1750 1752 1754 1755 1755 1755 1756 1756 1756 1755 1755 1755 1754 1754 1754 1754 1754 1754 1754 1759 1761 1766 1772 1777 1783 1787 1792 1797 1804 1809 1814 1818 1819 1826 1831 1837 1848 1857 1880 1881 1881 1881 1846 0 0 0 0 0 0 0 0 0 0 0 0 0 0 0 0 1491 1495 1495 1495 1473 1454 1454 1454 1499 1499 1499 1483 1463 1463 1463 1474 1486 1492 1492 1492 1464 1457 1457 1457 1464 1464 1467 1467 1482 1494 1494 1494 1488 1487 1487 1487 1493 1499 1505 1518 1531 1531 1531 1529 1486 1475 1475 1475 1480 1493 1503 1508 1518 1527 1527 1527 1503 1485 1485 1485 1492 1492 1492 1485 1484 1483 1483 1473 1459 1459 1459 1460 1461 1461 1461 1457 1457 1453 1453 1453 1446 1434 1433 1429 1417 1416 1416 1416 1451 1451 1451 1449 0 0 0 0 0 0 0 0 0 2606 2686 2686 2686 2680 2658 2607 2522 2344 0 0 0 0 0 0 1003 1009 1020 1026 1036 1036 1036 1025 1018 1016 0 0 0 0 0 0 0 0 0 0 0 0 0 0 0 0 0 0 0 0 951 948 948 0 0 0 0 0 0 0 0 0 0 0 0 0 0 0 0 568 568 568 558 551 551 551 532 529 501 495 490 490 492 495 501 523 533 540 547 547 559 559 559 0 0 0 0 0 0 0 0 0 0 0 0 0 0 0 0 0 0 0 0 0 0 0 0 0 0 0 0 0 0 0 0 0 0 0 0 0 0 0 0 0 0 0 0 0 0 0 0 0 0 0 0 0 0 0 0 0 0 0 0 0 0 0 0 0 0 0 0 0 0 0 0 0 0 0 0 0 0 0 0 0 0 0 0 0 0 0 0 0 0 0 0 0 0 0 0 0 0 0 0 0 0 0 0 0 0 0 0 0 0 0 0 0 0 0 0 944 944 934 0 0 0 0 0 0 0 0 0 0 0 0 0 0 516 512 508 501 501 501 504 504 504 498 496 488 482 480 479 477 476 472 466 463 460 458 456 454 450 448 443 442 439 435 433 430 426 424 422 419 417 415 415 414 412 412 412 411
768 768 768 770 776 793 0 872 893 916 940 962 986 1010 1024 1036 1049 1069 1087 1099 1103 1106 1114 1129 1147 1164 1174 1184 1195 1208 1217 1226 1238 1250 1257 1270 1286 1289 1294 1300 1306 1313 1318 1320 1337 1349 1357 1366 1376 1379 1385 1389 1390 1394 1395 1399 1403 1405 1408 1412 1414 1416 1419 1422 1423 1424 1424 1424 1423 1423 1423 1423 1423 1424 1424 1425 1428 1428 1428 1426 1423 1420 1416 1409 1409 1378 0 0 0 0 0 0 0 0 0 0 0 1270 1287 1298 1309 1316 1322 1332 1341 1349 1354 1363 1371 1379 1387 1394 1400 1403 1406 1410 1419 1430 1443 1458 1469 1470 1470 1471 1471 1473 1479 1489 1497 1505 1510 1517 1521 1522 1522 1521 1517 1517 1517 1516 1515 1512 1512 1512 1514 1532 1559 1590 1612 1621 1631 1642 1650 1654 1659 1668 1673 1675 1677 1678 1679 1681 1683 1685 1687 1688 1690 1691 1691 1692 1694 1696 1698 1701 1703 1705 1706 1706 1706 1706 1706 1706 1706 1707 1707 1709 1710 1713 1714 1716 1717 1720 1721 1723 1724 1725 1726 1727 1728 1729 1730 1731 1731 1732 1732 1733 1734 1736 1737 1739 1741 1743 1745 1747 1748 1750 1751 1752 1754 1754 1755 1756 1756 1756 1755 1755 1754 1753 1753 1753 1752 1752 1752 1754 1759 1762 1767 1772 1777 1783 1789 1794 1799 1804 1809 1814 1817 1819 1826 1832 1839 1848 1866 1881 1881 1881 0 0 0 0 0 0 0 0 0 0 1460 1460 1450 1435 1435 1435 1437 1448 1463 1477 1477 1477 1473 1454 1454 1454 1477 1477 1477 1467 1463 1463 1463 1474 1486 1492 1492 1492 1470 1470 1470 1470 1471 1471 1471 1471 1471 1490 1490 1490 1488 1487 1487 1487 1487 1487 1491 1498 1510 1523 1523 1523 1485 1478 1478 1478 1487 1494 1503 1508 1512 1521 1521 1521 1500 1500 1495 1495 1495 1495 1492 1481 1475 1468 1459 1452 1450 1450 1450 1459 1459 1459 1459 1452 1448 1447 1443 1442 1436 1432 1431 1422 1417 1416 1416 1416 1451 1451 1451 1448 1429 1399 1399 0 0 0 0 0 0 0 2603 2637 2637 2637 2629 2577 2500 2333 0 0 0 0 0 0 975 997 1020 1026 1036 1036 1036 1026 1012 1002 0 0 0 0 0 0 0 0 0 0 0 0 0 0 0 0 0 0 0 0 0 0 0 0 0 0 0 0 0 0 0 0 0 0 0 0 0 0 0 0 568 568 558 551 551 0 0 0 484 474 474 474 484 492 501 523 543 547 551 554 560 560 560 0 0 0 0 0 0 0 0 0 0 0 0 0 0 0 0 0 0 0 0 0 0 0 0 0 0 0 0 0 0 0 0 0 0 0 0 0 0 0 0 0 0 0 0 0 0 0 0 0 0 0 0 0 0 0 0 0 0 0 0 0 0 0 0 0 0 0 0 0 0 0 0 0 0 0 0 0 0 0 0 0 0 0 0 0 0 0 0 0 0 0 0 0 0 0 0 0 0 0 0 0 0 0 0 0 0 0 0 0 0 0 0 0 0 0 0 0 0 0 0 0 0 0 0 0 0 0 0 0 0 0 0 512 508 507 501 499 499 501 501 501 501 491 488 482 478 476 476 475 470 466 462 461 458 457 456 452 448 446 443 439 436 433 430 427 425 422 419 417 414 413 413 411 411 410 409 409
766 766 766 771 775 791 0 872 884 912 940 961 986 1010 1024 1036 1049 1069 1087 1101 1106 1111 1119 1130 1150 1165 1179 1189 1199 1209 1217 1226 1236 1247 1256 1269 1282 1288 1291 1295 1305 1305 1318 1320 1337 1349 1357 1365 1373 1379 1382 1385 1385 1389 1392 1395 1398 1401 1404 1408 1411 1415 1418 1418 1418 1418 1417 1416 1415 1415 1415 1417 1421 1421 1421 1422 1423 1423 1423 1418 1414 1410 1407 1391 1362 1360 0 0 0 0 0 0 0 0 0 0 1245 1276 1287 1298 1309 1316 1322 1330 1341 1349 1354 1360 1371 1378 1384 1391 1397 1401 1404 1409 1417 1422 1431 1450 1461 1466 1467 1468 1469 1473 1479 1486 1492 1497 1502 1508 1519 1519 1519 1517 1517 1517 1516 1514 1510 1505 1504 1504 1504 1520 1552 1586 1609 1619 1629 1642 1652 1654 1658 1668 1673 1675 1677 1677 1678 1681 1683 1685 1687 1688 1690 1691 1691 1692 1694 1696 1697 1700 1702 1705 1706 1706 1706 1706 1705 1705 1706 1707 1707 1708 1710 1712 1713 1715 1717 1719 1720 1722 1724 1724 1726 1727 1728 1729 1730 1730 1730 1731 1732 1733 1734 1735 1737 1739 1740 1742 1744 1745 1747 1749 1750 1751 1753 1753 1755 1755 1755 1755 1755 1755 1753 1752 1752 1752 1752 1752 1752 1754 1759 1762 1767 1772 1777 1783 1789 1794 1799 1804 1809 1814 1817 1823 1827 1832 1842 1860 1875 1875 1875 1851 0 0 0 0 0 0 0 0 0 1432 1433 1433 1433 1424 1417 1417 1417 1427 1445 1464 1473 1473 1473 1454 1454 1454 1465 1465 1465 1469 1468 1468 1469 1474 1486 1491 1491 1491 1489 1487 1487 1487 1487 1487 1484 1477 1477 1477 1478 1482 1482 1485 1485 1482 1482 1482 1482 1484 1498 1498 1498 1492 1487 1487 1487 1492 1498 1502 1505 1508 1511 1518 1518 1518 1495 1495 1495 1509 1509 1509 1492 1481 1475 1467 1453 1440 1440 1440 1447 1453 1453 1453 1453 1445 1434 1428 1419 1416 1416 1416 1416 1416 1416 1416 1416 1416 1443 1443 1443 1430 1421 1395 1382 1382 0 0 0 0 0 0 0 0 0 0 0 0 0 0 0 0 0 0 0 971 971 978 1020 1026 1036 1036 1036 1026 1012 1002 0 0 0 0 0 0 760 760 781 0 0 0 0 0 0 0 0 0 842 845 848 866 866 0 0 0 0 0 0 0 0 0 0 0 0 0 0 0 0 0 0 0 0 0 0 0 0 0 471 461 461 461 484 0 0 566 566 566 560 560 560 560 560 558 513 512 512 512 536 537 0 0 0 0 0 0 0 0 0 0 0 0 0 0 0 0 0 0 0 0 0 0 0 0 0 0 0 0 0 0 0 0 0 0 0 0 0 0 0 0 0 0 0 0 0 0 0 0 0 0 0 0 0 0 0 0 0 0 0 0 0 0 0 0 0 0 0 0 0 0 0 0 0 0 0 0 0 0 0 0 0 0 0 0 0 0 0 0 0 0 0 0 0 0 0 0 0 0 0 0 0 0 0 844 845 877 0 0 0 0 0 0 0 0 0 0 0 0 0 0 0 0 0 520 516 510 507 501 501 499 499 499 496 493 493 490 483 480 476 473 473 470 466 462 461 460 457 455 452 449 446 444 440 437 433 430 426 424 422 419 416 414 413 411 410 409 408 407 407 407
766 766 766 773 774 791 0 864 880 902 938 961 986 1010 1023 1037 1052 1069 1087 1101 1112 1120 1124 1138 1150 1165 1179 1189 1199 1209 1217 1225 1233 1245 1254 1263 1271 1279 1285 1294 1303 1305 1318 1320 1342 1350 1357 1364 1369 1375 1381 1384 1385 1389 1392 1395 1397 1400 1402 1405 1411 1414 1414 1414 1413 1412 1411 1408 1408 1408 1410 1414 1415 1417 1417 1418 1418 1418 1418 1413 1406 1398 1387 1377 1347 0 0 0 0 0 0 0 0 0 0 1220 1253 1276 1287 1292 1301 1311 1321 1330 1341 1349 1354 1360 1369 1374 1379 1386 1391 1397 1402 1409 1415 1421 1430 1446 1455 1458 1462 1464 1467 1469 1477 1483 1489 1493 1498 1504 1510 1513 1514 1514 1514 1514 1513 1509 1501 1497 1497 1497 1499 1510 1538 1576 1598 1612 1629 1642 1652 1654 1658 1661 1669 1674 1675 1675 1678 1680 1682 1684 1687 1688 1690 1691 1691 1692 1694 1695 1696 1698 1700 1703 1705 1705 1705 1705 1705 1705 1705 1707 1707 1708 1709 1712 1713 1714 1716 1719 1720 1722 1723 1724 1725 1727 1728 1729 1729 1729 1730 1731 1731 1733 1733 1735 1736 1738 1740 1742 1744 1745 1746 1748 1749 1751 1752 1753 1754 1755 1755 1755 1755 1754 1753 1752 1751 1751 1751 1751 1751 1753 1757 1762 1767 1771 1777 1783 1789 1794 1799 1806 1811 1815 1817 1823 1828 1835 1848 1869 1869 1869 1848 1814 0 0 0 0 0 0 0 1359 1402 1418 1420 1420 1420 1414 1414 1414 1416 1427 1445 1462 1466 1466 1466 1443 1443 1443 1460 1464 1464 1469 1469 1469 1480 1489 1491 1491 1491 1491 1490 1490 1490 1504 1504 1504 1484 1477 1477 1477 1478 1482 1482 1485 1485 1482 1475 1473 1473 1473 1484 1488 1488 1488 1488 1488 1497 1502 1503 1503 1505 1508 1508 1508 1508 1504 1485 1485 1485 1511 1511 1511 1499 1488 1475 1467 1453 1438 1438 1438 1445 1453 1453 1453 1449 1437 1432 1422 1409 1395 1391 1391 1391 1394 1400 1413 1413 1430 1443 1443 1443 1423 1404 1376 1374 1372 1374 0 0 0 0 0 0 0 0 0 0 0 0 0 0 0 0 0 0 966 966 966 990 1002 1012 1014 1022 1022 1022 1002 0 0 0 0 0 760 760 760 781 809 809 809 0 0 0 0 0 835 835 845 848 866 866 866 861 812 812 812 812 0 0 0 0 0 0 0 0 0 0 0 0 0 0 0 0 0 0 0 0 459 0 0 0 0 0 566 566 566 559 559 559 559 559 558 517 517 517 525 553 553 553 549 549 0 0 0 0 0 0 731 731 731 0 0 0 0 0 0 0 0 0 0 0 0 0 0 0 0 0 0 0 0 0 0 0 0 0 0 0 0 0 0 0 0 0 0 0 0 0 0 0 0 0 0 0 0 0 0 0 0 0 0 0 0 0 0 0 0 0 0 0 0 0 0 0 0 0 0 0 0 0 0 0 0 0 0 0 0 0 0 0 0 0 0 0 0 0 0 0 0 0 0 811 823 842 852 0 0 0 0 0 0 0 0 0 0 0 0 0 0 0 539 521 517 511 504 501 501 499 499 496 495 493 492 488 487 483 480 475 473 469 467 464 460 459 458 455 451 449 447 445 442 438 433 430 427 424 422 419 417 413 412 411 409 408 408 406 406 405 405
766 767 767 773 773 785 0 850 878 902 929 961 985 1007 1023 1038 1053 1069 1087 1102 1116 1126 1130 1138 1150 1165 1179 1189 1199 1209 1216 1222 1233 1243 1253 1262 1267 1274 1280 1291 1302 1305 1319 1336 1348 1354 1360 1363 1368 1373 1380 1383 1385 1389 1392 1394 1397 1399 1401 1405 1410 1414 1414 1414 1405 1399 1399 1399 1401 1405 1408 1413 1413 1413 1413 1413 1414 1414 1414 1411 1397 1385 1372 1354 0 0 0 0 0 0 0 0 0 0 0 1230 1255 1276 1285 1292 1300 1309 1317 1327 1338 1347 1354 1359 1363 1370 1374 1378 1384 1392 1400 1408 1415 1421 1429 1441 1449 1452 1457 1459 1462 1467 1472 1482 1487 1491 1495 1499 1503 1507 1508 1510 1510 1510 1510 1506 1498 1493 1493 1493 1498 1509 1534 1569 1586 1596 1620 1635 1652 1654 1658 1659 1663 1668 1672 1674 1677 1679 1681 1684 1685 1688 1689 1691 1691 1692 1693 1695 1696 1697 1699 1701 1702 1704 1704 1704 1705 1705 1705 1706 1707 1708 1709 1711 1713 1714 1716 1718 1720 1722 1723 1724 1725 1727 1728 1728 1729 1729 1730 1730 1731 1732 1732 1734 1735 1737 1740 1741 1743 1744 1746 1747 1749 1751 1751 1752 1753 1754 1754 1754 1754 1754 1752 1751 1750 1750 1748 1748 1748 1751 1755 1760 1765 1771 1776 1780 1786 1793 1799 1806 1811 1815 1820 1826 1832 1842 1861 1861 1861 1854 1826 1799 0 0 0 0 0 0 1331 1359 1402 1418 1420 1420 1420 1414 1414 1414 1416 1427 1445 1462 1466 1466 1466 1443 1443 1443 1445 1451 1455 1457 1460 1469 1480 1489 1489 1489 1489 1487 1487 1489 1490 1504 1504 1504 1484 1477 1477 1477 1478 1479 1482 1482 1482 1472 1471 1470 1465 1465 1465 1478 1478 1482 1488 1488 1497 1502 1503 1503 1505 1508 1508 1508 1504 1497 1485 1485 1485 1511 1511 1511 1499 1490 1477 1467 1453 1438 1438 1438 1441 1451 1451 1451 1447 1436 1428 1421 1404 1395 1386 1373 1369 1369 1369 1369 1394 1430 1435 1435 1435 1423 1404 1376 1373 1372 1365 1365 1365 0 0 0 0 0 0 0 0 0 0 0 0 0 0 0 0 948 948 948 965 968 968 972 990 1002 1002 0 0 0 0 0 0 752 752 752 761 794 794 794 803 0 0 0 0 835 835 845 848 866 888 888 888 858 845 845 845 845 0 0 0 0 0 0 0 0 0 0 0 0 0 0 0 0 0 0 0 0 0 0 0 0 0 0 566 566 559 559 559 559 559 558 543 533 533 543 553 577 577 577 577 577 0 0 0 0 750 753 750 747 741 0 0 0 0 0 0 0 0 0 0 0 0 0 0 0 0 0 0 0 0 0 0 0 0 0 0 0 0 0 0 0 0 0 0 0 0 0 0 0 0 0 0 0 0 0 0 0 0 0 0 0 0 0 0 0 0 0 0 0 0 0 0 0 0 0 0 0 0 0 0 0 0 0 0 0 603 602 601 601 0 0 0 0 0 0 0 0 0 0 808 821 831 838 0 0 0 0 0 0 0 0 0 0 0 0 0 572 555 537 521 516 503 501 499 499 498 498 494 491 490 489 484 482 478 475 471 467 465 464 462 459 457 454 451 450 449 446 443 439 434 430 427 424 422 419 417 415 412 410 409 408 407 406 404 404 403 403
771 771 770 771 771 784 824 0 878 902 916 946 972 1001 1023 1039 1053 1069 1087 1103 1119 1128 1132 1141 1150 1163 1177 1187 1198 1205 1211 1218 1227 1239 1253 1259 1267 1274 1280 1290 1300 1304 1319 1336 1351 1360 1361 1363 1367 1373 1379 1381 1385 1391 1394 1394 1394 1394 1397 1402 1408 1408 1408 1403 1396 1396 1396 1399 1401 1405 1407 1411 1411 1411 1407 1407 1407 1407 1407 1404 1394 1380 1363 0 0 0 0 0 0 0 0 0 0 0 1213 1240 1255 1271 1282 1291 1299 1307 1313 1318 1329 1338 1344 1349 1353 1361 1368 1371 1376 1385 1398 1407 1413 1417 1423 1432 1440 1446 1450 1453 1455 1461 1470 1479 1486 1488 1491 1493 1495 1496 1499 1503 1508 1508 1508 1505 1498 1492 1492 1492 1497 1507 1523 1559 1578 1593 1609 1627 1638 1653 1656 1659 1662 1664 1669 1672 1675 1679 1681 1683 1685 1688 1689 1690 1691 1692 1692 1693 1695 1695 1697 1699 1700 1701 1703 1704 1704 1704 1705 1706 1707 1707 1708 1710 1712 1713 1716 1718 1720 1722 1723 1723 1725 1726 1727 1728 1728 1729 1729 1730 1730 1731 1731 1733 1735 1737 1739 1741 1742 1744 1745 1746 1748 1749 1750 1751 1752 1752 1753 1753 1753 1753 1751 1750 1750 1749 1747 1747 1747 1748 1753 1757 1764 1770 1774 1779 1786 1793 1799 1806 1813 1820 1827 1831 1836 1856 1859 1859 1859 1839 1817 1778 0 0 0 0 0 0 1379 1393 1402 1418 1420 1420 1420 1416 1416 1416 1416 1427 1443 1462 1462 1462 1450 1443 1439 1439 1439 1440 1446 1450 1451 1464 1480 1486 1486 1486 1485 1485 1485 1487 1490 1504 1504 1504 1484 1481 1481 1480 1481 1481 1480 1472 1472 1471 1470 1470 1464 1462 1462 1462 1472 1473 1476 1482 1497 1500 1503 1503 1503 1505 1505 1505 1504 1495 1478 1478 1478 1499 1499 1499 1499 1490 1488 1479 1458 1438 1435 1433 1433 1435 1440 1440 1440 1436 1428 1419 1403 1377 1376 1373 1369 1369 1356 1356 1356 1418 1418 1418 1400 1379 1376 1373 1373 1372 1354 1354 1354 1381 1381 1381 0 0 0 0 0 0 0 0 0 0 0 0 0 0 934 934 933 0 0 0 0 0 0 0 0 0 0 0 0 795 761 761 761 771 771 794 803 0 0 0 0 835 855 855 876 885 888 876 876 871 860 860 860 860 860 0 0 0 0 0 0 0 0 0 0 0 0 0 0 0 0 446 0 0 0 0 0 0 0 0 0 0 0 0 0 549 549 549 549 545 553 553 553 585 595 595 595 604 0 0 0 750 750 750 747 731 0 0 0 0 0 0 0 0 0 0 0 0 0 0 0 0 0 0 0 0 0 0 0 0 0 0 0 0 0 0 0 0 0 0 0 0 0 0 0 0 0 0 0 0 0 0 0 0 0 0 0 0 0 0 0 0 0 0 0 0 0 0 0 0 0 0 0 0 0 0 0 0 0 0 0 603 603 602 597 590 587 586 586 0 0 0 0 0 0 0 797 806 811 815 0 0 0 0 0 0 0 0 0 0 0 0 578 562 549 533 520 505 501 498 497 497 495 492 487 486 484 479 477 474 473 470 467 464 462 461 458 456 454 452 448 448 446 444 440 435 431 427 425 422 419 417 414 413 410 409 408 406 404 404 403 402 401 401
773 773 770 770 770 770 797 0 0 900 915 938 971 996 1022 1042 1063 1081 1097 1111 1122 1130 1134 1142 1150 1163 1172 1182 1185 1197 1207 1213 1220 1229 1242 1257 1265 1270 1276 1285 1296 1303 1319 1336 1351 1360 1361 1361 1364 1370 1379 1381 1385 1391 1391 1391 1388 1382 1382 1382 1387 1388 1388 1388 1388 1388 1394 1399 1400 1405 1406 1407 1407 1407 1404 1404 1403 1402 1401 1399 1388 1378 1359 0 0 0 0 0 0 0 0 0 0 1199 1221 1240 1256 1270 1278 1290 1298 1305 1307 1312 1319 1330 1342 1349 1353 1361 1368 1371 1372 1380 1393 1404 1410 1411 1414 1423 1430 1437 1442 1446 1449 1458 1469 1479 1483 1486 1487 1489 1490 1492 1493 1498 1505 1505 1505 1504 1497 1492 1492 1492 1495 1504 1521 1551 1575 1593 1609 1625 1638 1653 1656 1658 1660 1663 1668 1672 1674 1676 1679 1682 1685 1688 1689 1690 1691 1691 1691 1692 1693 1693 1695 1697 1698 1699 1700 1702 1703 1704 1705 1706 1706 1707 1708 1710 1712 1713 1715 1718 1720 1722 1723 1723 1725 1726 1727 1727 1727 1728 1728 1730 1730 1730 1731 1733 1735 1736 1739 1740 1741 1742 1743 1744 1746 1748 1749 1749 1750 1750 1752 1752 1752 1751 1748 1748 1748 1747 1746 1746 1746 1747 1752 1756 1762 1767 1772 1777 1786 1793 1803 1813 1821 1828 1836 1844 1854 1854 1854 1853 1834 1816 1774 1740 0 0 0 0 0 0 1429 1439 1439 1440 1440 1440 1439 1428 1421 1421 1421 1429 1443 1443 1443 1440 1436 1434 1434 1434 1434 1434 1440 1444 1446 1452 1465 1475 1477 1478 1478 1477 1481 1482 1486 1496 1496 1496 1474 1474 1474 1480 1480 1480 1471 1471 1471 1470 1468 1468 1464 1460 1459 1459 1459 1460 1461 1471 1476 1476 1483 1486 1487 1499 1504 1504 1504 1495 1478 1478 1478 1481 1481 1483 1484 1493 1493 1493 1470 1438 1432 1430 1430 1432 1432 1431 1431 1431 1428 1418 1403 1383 1379 1376 1373 1369 1356 1356 1356 1393 1393 1393 1370 1357 1357 1357 1354 1354 1354 1354 1354 1363 1363 1363 1347 1339 1338 0 0 0 0 0 0 0 0 0 0 0 0 0 0 0 0 0 0 0 0 0 0 0 0 0 0 814 802 802 797 797 797 797 797 0 0 0 0 863 888 888 888 890 888 876 876 873 861 861 861 861 861 844 0 0 0 0 0 0 0 0 0 0 0 0 0 0 437 430 0 0 0 0 0 0 0 0 0 0 0 0 0 0 551 551 551 565 573 573 591 600 600 600 604 604 0 0 0 0 750 750 747 0 0 0 0 0 0 0 0 0 0 0 0 0 0 0 0 0 0 0 0 0 0 0 0 0 0 0 0 0 0 0 0 0 0 0 0 0 0 0 0 0 0 0 0 0 0 0 0 0 0 0 0 0 0 855 851 848 847 0 0 0 0 0 0 0 0 0 0 0 0 0 0 0 0 0 622 604 603 602 597 590 587 586 586 586 0 0 0 0 0 0 788 788 790 790 0 0 0 0 0 0 0 0 0 0 0 590 566 558 544 532 519 505 495 494 492 489 484 484 484 479 476 473 472 471 471 470 464 461 460 458 456 454 451 449 445 443 440 437 436 432 429 426 423 420 417 415 412 410 408 407 405 403 403 401 401 399 399 399
773 773 770 770 770 770 797 0 0 900 915 937 970 996 1021 1044 1071 1093 1107 1119 1131 1135 1139 1143 1150 1163 1171 1175 1181 1191 1199 1204 1212 1218 1230 1242 1250 1259 1263 1277 1292 1305 1318 1336 1351 1354 1355 1358 1358 1364 1374 1381 1383 1389 1389 1389 1379 1367 1364 1364 1363 1364 1365 1366 1372 1386 1394 1398 1400 1403 1403 1403 1403 1403 1400 1399 1399 1399 1398 1391 1385 1371 0 0 0 0 0 0 0 0 0 0 1176 1199 1221 1240 1255 1267 1277 1288 1295 1301 1305 1311 1319 1330 1342 1349 1353 1361 1368 1371 1372 1380 1393 1400 1406 1408 1412 1415 1421 1428 1434 1441 1446 1457 1469 1478 1482 1482 1484 1487 1488 1488 1491 1494 1498 1499 1499 1498 1494 1491 1489 1489 1489 1496 1516 1548 1573 1586 1609 1625 1637 1651 1655 1656 1657 1661 1665 1671 1673 1674 1677 1681 1683 1685 1688 1689 1690 1690 1691 1691 1692 1692 1694 1695 1697 1698 1700 1701 1702 1703 1704 1705 1706 1707 1708 1710 1711 1713 1715 1717 1719 1721 1722 1723 1725 1725 1726 1726 1727 1727 1728 1729 1729 1730 1731 1731 1733 1736 1738 1739 1740 1741 1743 1744 1745 1747 1748 1748 1749 1749 1750 1750 1750 1749 1748 1747 1746 1745 1745 1745 1745 1747 1751 1756 1760 1765 1769 1777 1786 1797 1803 1813 1823 1833 1846 1855 1855 1855 1850 1830 1826 1798 1766 1721 0 0 0 0 0 0 1441 1441 1451 1451 1441 1440 1439 1428 1423 1423 1423 1429 1439 1439 1439 1431 1431 1431 1431 1433 1434 1434 1438 1439 1444 1445 1450 1460 1465 1465 1465 1465 1465 1468 1469 1479 1479 1479 1461 1461 1461 1479 1479 1479 1470 1470 1470 1468 1468 1468 1464 1454 1454 1454 1453 1453 1453 1463 1468 1468 1472 1475 1478 1491 1503 1503 1503 1477 1468 1468 1468 1468 1468 1471 1474 1493 1493 1493 1470 1441 1432 1430 1430 1432 1432 1430 1428 1427 1421 1418 1398 1386 1385 1385 1383 1378 1356 1356 1356 1373 1373 1373 1358 1353 1353 1353 1355 1355 1355 1355 1355 1362 1362 1362 1346 1328 1313 1313 0 0 0 0 0 0 0 0 0 0 0 0 0 0 0 0 0 0 0 0 0 0 0 0 0 814 802 802 797 797 798 798 798 0 0 0 0 913 903 894 890 861 861 861 867 870 870 870 864 862 861 844 0 0 0 0 0 0 0 0 0 0 0 0 0 0 437 430 0 0 0 0 0 0 0 0 0 0 0 0 0 0 0 0 551 580 592 595 598 604 604 604 604 604 0 0 0 0 0 0 0 0 0 0 0 0 0 0 0 0 0 0 0 0 0 0 0 0 0 0 0 0 0 0 0 0 0 0 0 0 0 0 0 0 0 0 0 0 0 0 0 0 0 0 886 886 884 881 0 0 0 0 0 0 847 830 830 830 830 830 0 0 0 0 0 0 0 0 0 0 0 0 0 0 0 0 646 616 612 610 602 590 587 586 586 586 0 0 0 0 0 0 0 778 776 771 0 0 0 0 0 0 0 0 0 0 0 583 563 552 541 521 509 495 487 487 484 481 481 478 478 477 475 473 471 471 469 467 464 461 460 458 455 451 449 445 441 438 436 434 433 430 427 423 421 418 415 413 411 409 407 405 403 401 401 400 399 398 397 397
773 773 772 772 772 772 794 0 0 900 915 936 969 995 1020 1044 1071 1093 1107 1119 1131 1138 1144 1151 1155 1164 1171 1175 1180 1188 1194 1198 1206 1217 1226 1236 1247 1259 1263 1277 1289 1303 1317 1334 1349 1349 1352 1352 1352 1358 1364 1370 1370 1370 1370 1349 1349 1349 1348 1348 1346 1346 1346 1360 1371 1383 1394 1398 1398 1398 1398 1398 1398 1398 1399 1399 1399 1395 1390 1382 1376 0 0 0 0 0 0 0 0 0 0 0 1179 1199 1221 1239 1255 1267 1277 1286 1295 1300 1304 1309 1319 1330 1342 1352 1361 1367 1371 1371 1372 1380 1393 1399 1404 1406 1408 1411 1416 1422 1429 1434 1440 1452 1466 1477 1481 1482 1483 1483 1483 1485 1487 1489 1489 1491 1491 1489 1486 1483 1481 1481 1481 1488 1506 1535 1565 1586 1611 1625 1634 1648 1652 1653 1656 1660 1665 1671 1672 1674 1675 1678 1681 1683 1686 1688 1689 1690 1691 1691 1691 1692 1693 1694 1696 1697 1698 1699 1700 1702 1703 1704 1705 1707 1708 1709 1711 1713 1714 1717 1717 1720 1721 1722 1723 1725 1725 1726 1726 1727 1727 1728 1728 1729 1729 1731 1733 1735 1737 1738 1739 1740 1740 1742 1743 1745 1746 1746 1746 1747 1747 1748 1748 1747 1747 1744 1743 1743 1743 1743 1745 1746 1751 1755 1760 1763 1769 1777 1786 1798 1803 1815 1823 1838 1855 1855 1855 1855 1840 1825 1808 1793 1760 1713 0 0 0 0 0 1446 1446 1446 1451 1451 1441 1440 1439 1428 1425 1425 1425 1429 1435 1435 1435 1430 1425 1425 1425 1430 1430 1431 1433 1439 1444 1445 1449 1452 1452 1454 1454 1454 1458 1461 1461 1461 1450 1445 1445 1445 1461 1478 1478 1478 1469 1469 1469 1468 1468 1468 1464 1454 1453 1453 1451 1453 1453 1457 1466 1466 1468 1468 1474 1489 1502 1502 1502 1476 1459 1459 1459 1459 1462 1464 1471 1493 1493 1493 1470 1444 1432 1430 1430 1430 1430 1428 1427 1424 1421 1416 1390 1384 1384 1384 1388 1388 1388 1389 1389 1387 1387 1362 1358 1353 1353 1353 1364 1368 1368 1368 1363 1363 1362 1351 1343 1328 1307 1307 1307 1315 1327 1330 0 0 0 0 0 0 0 0 0 0 0 0 0 0 0 0 0 0 0 0 0 0 838 822 822 822 822 822 836 0 0 0 917 917 913 913 893 837 837 837 864 877 878 878 878 860 853 839 839 835 827 0 0 0 0 0 0 0 0 0 0 0 441 442 0 0 0 0 0 0 0 0 0 0 0 0 0 0 0 0 0 0 614 614 614 611 605 603 603 603 0 0 0 0 0 0 0 0 0 0 0 0 0 0 0 0 0 0 0 0 0 0 0 0 0 0 0 0 0 0 0 0 0 0 0 0 0 0 0 0 0 0 0 0 0 0 0 0 0 871 871 871 867 854 844 839 826 826 826 826 826 826 826 826 826 826 822 0 0 0 0 0 0 0 0 0 0 0 0 0 0 0 655 638 621 618 614 613 600 600 600 600 0 0 0 0 0 0 0 0 0 753 0 0 0 0 0 0 0 0 0 0 0 564 555 538 518 506 496 492 485 483 478 478 477 475 475 473 471 470 468 468 467 463 460 459 457 454 452 448 446 442 438 435 432 430 429 428 426 422 419 416 414 411 409 407 405 403 401 400 399 398 397 396 395 395
773 773 772 772 772 772 790 822 0 888 911 934 969 995 1019 1044 1071 1093 1107 1119 1131 1138 1146 1155 1159 1165 1169 1174 1180 1187 1192 1198 1206 1217 1226 1235 1245 1258 1263 1277 1287 1302 1316 1329 1335 1340 1342 1344 1345 1347 1350 1350 1350 1350 1342 1329 1324 1324 1324 1328 1331 1333 1343 1356 1367 1381 1394 1394 1394 1394 1394 1395 1395 1398 1398 1398 1396 1386 1378 1366 0 0 0 0 0 0 0 0 0 0 0 1156 1183 1196 1216 1234 1251 1267 1276 1285 1293 1297 1303 1307 1319 1334 1347 1357 1363 1368 1372 1376 1379 1385 1394 1398 1403 1405 1408 1411 1416 1422 1428 1429 1435 1445 1461 1472 1476 1476 1478 1479 1480 1480 1479 1479 1478 1478 1476 1475 1475 1475 1475 1475 1476 1481 1498 1526 1556 1584 1611 1626 1634 1645 1649 1653 1656 1660 1665 1669 1670 1672 1674 1676 1678 1681 1683 1686 1688 1690 1690 1690 1690 1691 1691 1692 1694 1695 1697 1698 1698 1700 1701 1702 1705 1706 1707 1709 1711 1712 1714 1716 1717 1718 1720 1721 1722 1724 1724 1725 1725 1726 1727 1727 1727 1727 1729 1730 1732 1733 1735 1736 1737 1738 1738 1740 1742 1742 1744 1745 1745 1745 1746 1747 1747 1747 1745 1743 1742 1742 1742 1742 1743 1746 1750 1755 1759 1759 1769 1778 1788 1799 1806 1816 1824 1843 1855 1855 1855 1845 1830 1808 1805 0 0 0 0 0 0 0 0 1449 1459 1459 1459 1442 1437 1434 1424 1423 1423 1423 1428 1431 1434 1434 1434 1420 1418 1417 1417 1417 1421 1426 1432 1439 1441 1444 1449 1452 1452 1452 1447 1447 1447 1453 1453 1453 1449 1442 1442 1442 1460 1470 1470 1470 1466 1466 1466 1468 1468 1468 1454 1453 1453 1451 1451 1453 1453 1457 1466 1466 1468 1468 1468 1484 1496 1496 1496 1473 1451 1451 1451 1455 1456 1458 1466 1479 1479 1479 1468 1444 1441 1438 1436 1435 1433 1426 1424 1423 1418 1408 1389 1384 1384 1384 1388 1395 1398 1399 1399 1399 1391 1362 1362 1362 1370 1379 1379 1379 1378 1368 1364 1363 1362 1351 1340 1320 1305 1295 1292 1290 1283 1283 0 0 0 0 0 0 0 0 0 0 0 0 0 0 0 805 805 805 0 0 0 0 0 822 822 822 822 822 836 0 0 0 917 917 913 913 893 837 837 837 861 877 882 882 882 862 846 843 841 839 833 830 0 0 0 0 0 0 0 0 0 0 0 454 0 0 0 0 0 0 0 0 0 0 0 0 0 0 0 0 0 0 0 630 614 606 590 590 590 597 0 0 0 0 0 0 0 0 0 0 0 0 0 0 0 0 0 0 0 0 0 0 0 0 0 0 0 0 0 0 0 0 0 0 0 0 0 0 0 0 0 0 0 0 0 0 0 0 0 870 870 870 857 841 833 831 826 826 826 826 826 823 822 822 822 822 822 0 0 0 0 0 0 0 0 0 0 0 0 0 0 0 656 650 643 635 621 620 603 602 602 0 0 0 0 0 0 0 0 0 0 0 0 0 0 0 0 0 0 0 0 0 0 536 531 514 498 492 490 486 484 481 475 473 473 471 469 468 466 465 465 464 462 459 458 456 453 451 449 447 444 440 435 431 429 428 427 426 423 420 417 414 412 410 407 404 402 400 399 397 396 395 394 393 393 393
774 774 774 774 775 775 790 814 0 881 911 931 965 995 1019 1040 1064 1086 1102 1116 1127 1138 1146 1155 1159 1165 1169 1174 1179 1186 1192 1198 1206 1217 1223 1234 1244 1258 1265 1275 1287 1298 1310 1321 1325 1329 1332 1335 1335 1335 1334 1333 1333 1333 1329 1317 1311 1311 1311 1318 1324 1332 1341 1353 1365 1381 1387 1388 1391 1392 1393 1395 1395 1400 1400 1400 1386 1375 1362 0 0 0 0 0 0 0 0 0 0 0 1143 1163 1183 1196 1216 1234 1244 1257 1267 1278 1285 1289 1292 1304 1319 1334 1347 1357 1363 1368 1372 1380 1383 1390 1396 1398 1403 1405 1408 1411 1416 1422 1428 1429 1431 1438 1447 1456 1463 1468 1470 1470 1472 1470 1470 1470 1469 1468 1469 1469 1469 1470 1473 1475 1476 1481 1491 1522 1556 1584 1612 1627 1634 1642 1649 1652 1656 1659 1664 1666 1668 1670 1673 1674 1676 1678 1682 1684 1686 1687 1689 1689 1689 1689 1690 1692 1692 1693 1694 1697 1697 1698 1700 1702 1703 1704 1707 1708 1710 1711 1713 1715 1717 1718 1719 1720 1722 1723 1723 1724 1725 1725 1725 1726 1726 1726 1728 1729 1730 1732 1733 1735 1736 1737 1737 1738 1740 1742 1743 1743 1744 1744 1744 1745 1745 1745 1743 1742 1740 1740 1740 1741 1742 1746 1749 1753 1756 1758 1769 1780 1790 1799 1806 1816 1831 1852 1852 1852 1848 1823 1815 1801 1785 0 0 0 0 0 0 0 0 1463 1463 1463 1459 1437 1429 1419 1419 1419 1421 1423 1428 1431 1431 1431 1429 1420 1418 1416 1411 1409 1409 1409 1421 1437 1441 1445 1449 1452 1452 1452 1442 1442 1442 1444 1447 1447 1447 1437 1437 1437 1457 1457 1457 1456 1452 1452 1452 1467 1467 1467 1454 1453 1453 1449 1450 1453 1453 1456 1464 1464 1464 1468 1468 1468 1481 1481 1481 1468 1451 1447 1447 1447 1451 1455 1463 1464 1464 1464 1452 1444 1441 1438 1437 1435 1433 1424 1424 1423 1416 1406 1389 1384 1384 1384 1391 1395 1404 1408 1408 1408 1399 1382 1382 1382 1393 1393 1393 1387 1378 1369 1368 1367 1362 1351 1331 1318 1305 1295 1292 1277 1250 1249 1249 1249 1258 1266 1325 0 0 0 0 0 0 0 0 0 790 790 790 780 767 0 0 0 0 0 822 822 822 822 836 867 0 0 910 911 911 911 878 856 856 856 860 877 882 882 882 865 846 846 845 842 842 837 833 0 0 0 0 0 0 0 0 0 0 0 0 0 0 0 0 0 0 0 0 0 0 0 0 0 0 0 0 0 0 0 0 584 560 560 560 0 0 0 0 0 0 0 0 0 0 0 0 0 0 0 0 0 0 0 0 0 0 0 0 0 0 0 0 0 0 0 0 0 0 0 0 0 0 0 0 0 0 0 0 0 0 0 0 0 0 874 874 868 857 841 833 831 826 826 826 826 826 823 822 822 823 823 822 0 0 0 0 0 0 0 0 0 0 0 0 0 0 0 675 660 658 658 640 623 612 612 0 0 0 0 0 0 0 0 0 0 0 0 0 0 0 0 0 0 0 0 0 530 528 518 510 498 489 486 485 485 483 480 474 472 468 467 467 465 464 462 460 460 460 457 456 453 450 447 444 442 440 436 432 429 426 425 425 423 420 417 415 412 409 407 404 402 399 398 397 395 395 394 392 391 391 391
774 774 774 774 776 776 780 804 0 0 911 928 955 986 1014 1038 1051 1071 1093 1112 1126 1137 1146 1155 1160 1166 1170 1174 1179 1186 1192 1199 1210 1217 1223 1233 1244 1258 1265 1275 1284 1293 1302 1312 1316 1319 1320 1322 1323 1324 1324 1324 1318 1316 1315 1299 1299 1299 1303 1314 1324 1331 1339 1351 1365 1372 1375 1386 1391 1392 1393 1395 1406 1406 1406 1394 1370 1352 1331 0 0 0 0 0 0 0 0 0 0 1111 1143 1170 1183 1196 1216 1234 1241 1244 1245 1258 1275 1279 1283 1296 1315 1334 1347 1357 1363 1368 1372 1380 1383 1390 1396 1398 1403 1405 1408 1413 1416 1423 1428 1429 1431 1433 1435 1438 1441 1449 1458 1458 1459 1459 1461 1461 1463 1463 1464 1464 1468 1470 1473 1475 1476 1481 1491 1522 1556 1584 1612 1627 1634 1642 1649 1652 1654 1657 1660 1663 1665 1669 1671 1673 1674 1676 1678 1680 1682 1684 1686 1687 1688 1689 1690 1690 1691 1691 1694 1695 1696 1698 1700 1701 1702 1704 1706 1707 1709 1711 1713 1715 1717 1718 1719 1720 1722 1722 1723 1724 1724 1724 1725 1725 1725 1725 1727 1728 1729 1731 1732 1734 1735 1735 1736 1738 1739 1741 1741 1742 1742 1742 1742 1743 1743 1743 1742 1741 1739 1739 1739 1739 1742 1744 1746 1748 1749 1758 1770 1783 1792 1799 1806 1825 1845 1862 1862 1862 1843 1822 1812 1794 0 0 0 0 0 0 0 0 1485 1485 1485 1476 1459 1437 1429 1419 1419 1419 1432 1444 1444 1444 1436 1432 1429 1422 1420 1416 1411 1402 1402 1402 1405 1437 1439 1445 1449 1452 1452 1452 1440 1440 1440 1443 1443 1443 1441 1434 1434 1434 1449 1449 1449 1443 1443 1443 1449 1463 1463 1463 1451 1450 1450 1449 1450 1450 1453 1453 1463 1463 1463 1463 1456 1456 1456 1461 1461 1461 1449 1446 1443 1443 1446 1450 1462 1462 1462 1456 1443 1441 1438 1437 1437 1435 1425 1416 1414 1414 1403 1396 1379 1379 1379 1384 1394 1400 1408 1408 1408 1408 1408 1393 1393 1393 1393 1393 1393 1387 1381 1374 1374 1367 1358 1341 1331 1318 1305 1302 1292 1277 1250 1249 1249 1249 1258 1266 1276 1325 0 0 0 0 0 0 0 0 743 756 757 757 756 724 0 0 0 0 798 805 807 807 822 827 0 0 890 901 901 901 878 864 860 860 860 872 882 882 882 868 868 865 854 854 849 839 833 833 814 0 0 0 0 0 0 0 0 0 0 0 0 0 0 0 0 0 0 0 0 0 0 0 0 0 0 0 0 0 0 0 0 0 0 0 0 0 0 0 0 0 0 0 0 0 0 0 0 0 0 0 0 0 0 0 0 0 0 0 0 0 0 0 0 0 0 0 0 0 0 0 0 0 0 0 0 0 0 0 0 0 847 868 874 874 874 868 856 841 833 833 833 833 837 843 843 843 839 839 832 823 822 0 0 0 0 0 0 0 0 0 0 0 0 0 0 0 695 685 682 678 665 637 624 0 0 0 0 0 798 798 798 0 0 0 0 0 0 0 0 0 0 0 0 0 526 524 513 511 504 494 483 481 481 480 480 480 474 469 466 465 465 463 461 459 457 457 456 453 451 448 445 443 440 437 435 433 430 428 426 423 423 420 417 415 412 409 406 404 401 399 398 396 395 394 392 391 391 389 388 388
774 774 774 774 776 776 778 792 0 0 0 919 955 976 1004 1028 1050 1070 1087 1104 1122 1133 1145 1155 1161 1166 1170 1174 1179 1186 1193 1200 1210 1217 1223 1226 1235 1246 1265 1269 1279 1286 1296 1301 1301 1301 1300 1300 1300 1309 1314 1314 1314 1282 1282 1282 1282 1287 1300 1311 1320 1328 1337 1348 1364 1372 1375 1386 1392 1393 1400 1404 1404 1397 1397 1374 1347 1331 1311 0 0 0 0 0 0 0 0 0 1115 1116 1143 1170 1187 1205 1223 1233 1238 1238 1242 1247 1261 1273 1282 1289 1299 1322 1338 1347 1350 1358 1371 1380 1383 1390 1396 1396 1401 1406 1408 1413 1416 1423 1428 1430 1431 1431 1431 1432 1436 1444 1448 1448 1451 1451 1453 1454 1454 1457 1459 1459 1464 1470 1471 1475 1478 1483 1491 1522 1558 1587 1612 1626 1633 1639 1644 1650 1652 1654 1657 1660 1663 1667 1669 1671 1673 1674 1676 1677 1679 1680 1682 1685 1686 1688 1689 1689 1690 1690 1692 1693 1694 1697 1699 1700 1701 1704 1705 1707 1708 1710 1713 1714 1716 1718 1719 1720 1721 1721 1722 1723 1723 1723 1724 1724 1724 1725 1727 1727 1728 1729 1731 1732 1733 1734 1735 1736 1739 1739 1740 1740 1740 1740 1740 1740 1741 1741 1740 1740 1739 1739 1739 1739 1740 1741 1741 1741 1748 1758 1771 1784 1796 1804 1812 1826 1861 1861 1861 1847 1824 1814 1797 1764 0 0 0 0 0 0 0 0 1492 1492 1492 1490 1477 1468 1429 1419 1419 1419 1444 1460 1460 1460 1445 1436 1436 1432 1429 1429 1411 1402 1402 1402 1405 1435 1439 1445 1449 1452 1452 1452 1440 1440 1440 1442 1442 1442 1441 1432 1432 1432 1434 1436 1436 1437 1439 1440 1449 1463 1463 1463 1451 1445 1445 1445 1445 1446 1447 1452 1463 1463 1463 1463 1452 1449 1449 1449 1449 1448 1448 1446 1443 1443 1446 1449 1460 1460 1460 1449 1430 1430 1430 1432 1432 1432 1420 1410 1397 1396 1396 1396 1379 1379 1379 1384 1394 1406 1408 1408 1409 1409 1408 1406 1400 1400 1393 1393 1393 1384 1381 1375 1375 1367 1356 1341 1331 1318 1313 1305 1296 1277 1250 1249 1249 1249 1258 1266 1275 1295 1325 1327 1327 0 0 0 0 0 742 756 756 756 733 710 710 0 0 0 0 794 795 810 810 816 0 0 851 873 876 877 877 877 872 872 872 872 879 882 882 882 882 880 880 874 851 837 837 833 833 814 0 0 0 0 0 0 0 0 0 0 0 0 0 0 0 0 0 0 0 0 0 0 0 0 0 0 0 0 0 0 0 0 0 0 0 0 0 0 0 0 0 0 0 0 0 0 0 0 0 0 0 0 0 0 0 0 0 0 0 0 0 0 0 0 0 0 0 0 0 0 0 0 0 0 0 0 0 0 0 854 861 872 874 874 874 861 853 850 847 846 846 845 845 845 843 843 844 844 840 840 822 0 0 0 0 0 0 0 0 0 0 0 0 0 0 0 702 699 691 685 685 637 0 0 0 0 0 779 799 799 799 794 0 0 0 0 0 0 0 0 0 0 0 0 519 512 510 510 501 489 483 480 480 480 480 480 474 468 464 462 461 460 459 457 454 453 451 448 445 443 440 436 435 432 430 428 427 425 423 421 419 417 414 411 409 407 404 402 400 397 396 394 393 392 391 390 388 387 387 387
773 773 773 773 776 776 778 792 811 0 0 915 945 974 1003 1027 1048 1068 1084 1093 1112 1130 1143 1154 1161 1166 1170 1175 1182 1189 1197 1204 1210 1216 1217 1220 1229 1239 1253 1258 1268 1273 1280 1289 1289 1289 1284 1284 1284 1291 1291 1291 1286 1280 1277 1277 1280 1286 1297 1307 1314 1321 1332 1348 1364 1372 1375 1386 1402 1402 1406 1406 1396 1388 1380 1361 1334 1311 1294 0 0 0 0 0 0 0 0 1090 1115 1136 1147 1171 1188 1210 1223 1233 1235 1237 1241 1247 1261 1273 1282 1289 1299 1315 1326 1327 1335 1349 1365 1376 1383 1390 1395 1395 1401 1406 1408 1413 1416 1423 1428 1430 1430 1430 1431 1432 1434 1441 1441 1441 1445 1445 1445 1449 1450 1451 1452 1454 1456 1467 1470 1475 1478 1486 1496 1524 1563 1591 1612 1625 1631 1634 1639 1644 1647 1651 1656 1660 1661 1665 1667 1671 1671 1673 1674 1677 1678 1679 1681 1683 1684 1687 1687 1688 1689 1690 1691 1691 1693 1694 1696 1698 1700 1702 1704 1706 1708 1710 1712 1713 1715 1717 1719 1720 1721 1721 1721 1721 1722 1722 1722 1723 1724 1725 1726 1726 1726 1727 1728 1731 1732 1734 1735 1735 1737 1738 1739 1739 1739 1739 1740 1740 1740 1740 1740 1739 1737 1737 1737 1738 1740 1740 1741 1741 1748 1758 1772 1786 1797 1806 1815 1841 1866 1866 1866 1833 1814 1797 1775 0 0 0 0 0 0 0 0 0 1492 1492 1492 1491 1490 1481 1457 1440 1440 1440 1444 1460 1460 1460 1447 1447 1447 1444 1444 1429 1420 1408 1405 1405 1405 1435 1438 1439 1448 1449 1449 1449 1434 1434 1434 1439 1439 1439 1438 1430 1423 1409 1409 1409 1410 1427 1433 1440 1448 1449 1451 1451 1448 1438 1437 1436 1436 1436 1437 1443 1451 1461 1461 1461 1451 1449 1449 1447 1446 1444 1444 1437 1437 1437 1443 1447 1459 1459 1459 1433 1411 1411 1411 1411 1420 1420 1420 1410 1395 1393 1384 1383 1379 1379 1379 1390 1397 1406 1408 1410 1411 1411 1411 1411 1411 1405 1400 1393 1382 1382 1381 1379 1378 1367 1356 1341 1331 1320 1313 1307 1305 1286 1286 1286 1292 1292 1292 1278 1278 1278 1291 1325 1325 1325 0 0 0 0 0 747 747 747 725 696 696 0 0 0 0 0 795 801 810 0 0 0 0 833 840 874 891 891 891 877 877 877 879 882 882 882 882 880 880 874 851 835 835 833 830 814 793 0 0 0 0 0 0 0 0 0 0 0 0 0 0 0 0 0 0 0 0 0 0 0 0 0 0 0 0 0 0 0 0 0 0 0 0 0 0 0 0 0 0 0 0 0 0 0 0 0 0 0 0 0 0 0 0 0 0 0 0 0 0 0 0 0 0 0 0 0 0 0 0 0 0 0 0 0 0 0 877 872 871 871 861 851 850 847 846 846 846 845 845 845 843 843 844 844 840 840 0 0 0 0 0 0 0 0 0 0 0 0 0 0 0 0 702 699 691 685 685 691 0 0 0 0 0 791 799 799 799 786 0 0 0 0 0 0 0 526 524 522 511 508 508 508 508 502 491 484 480 478 477 477 473 470 466 462 462 460 458 457 453 449 448 448 445 443 441 437 432 430 429 428 427 426 424 422 419 418 415 413 411 408 407 405 403 401 399 396 394 393 391 390 389 388 386 386 385 385
766 766 766 766 769 769 777 791 810 833 0 913 936 970 1001 1027 1047 1065 1079 1092 1111 1124 1140 1153 1161 1169 1172 1179 1186 1193 1197 1204 1210 1214 1216 1219 1225 1235 1245 1253 1257 1259 1261 1270 1279 1279 1279 1273 1273 1272 1271 1265 1262 1262 1262 1266 1269 1282 1293 1300 1306 1315 1332 1348 1364 1375 1384 1398 1408 1408 1408 1408 1406 1381 1369 1353 1327 1303 0 0 0 0 0 0 0 0 0 1109 1120 1138 1147 1172 1192 1210 1223 1230 1231 1233 1235 1247 1261 1273 1282 1288 1295 1308 1313 1321 1329 1342 1357 1370 1374 1383 1387 1396 1401 1406 1408 1411 1413 1420 1427 1430 1430 1430 1430 1430 1433 1436 1440 1440 1441 1441 1440 1440 1440 1440 1440 1444 1453 1458 1468 1472 1478 1486 1503 1536 1569 1595 1613 1622 1627 1629 1632 1635 1644 1649 1656 1659 1661 1663 1665 1668 1670 1671 1672 1675 1676 1678 1679 1681 1683 1683 1685 1687 1689 1690 1690 1691 1692 1693 1695 1697 1699 1702 1704 1706 1707 1710 1711 1713 1715 1717 1718 1719 1719 1720 1720 1720 1720 1720 1721 1722 1722 1723 1724 1724 1725 1727 1727 1730 1732 1734 1735 1735 1736 1737 1737 1738 1739 1739 1739 1740 1740 1740 1740 1737 1737 1737 1737 1737 1738 1739 1740 1741 1748 1759 1775 1788 1797 1809 1835 1862 1862 1862 1846 1818 1793 1770 0 0 0 0 0 0 0 0 0 0 0 1492 1492 1497 1491 1490 1484 1470 1453 1453 1453 1460 1460 1460 1460 1456 1453 1453 1447 1429 1420 1420 1420 1420 1430 1434 1435 1438 1438 1438 1438 1438 1432 1432 1432 1438 1438 1438 1435 1427 1420 1384 1384 1384 1399 1426 1447 1447 1447 1445 1439 1437 1435 1435 1431 1431 1431 1432 1433 1434 1442 1453 1453 1453 1451 1449 1449 1444 1443 1442 1441 1437 1437 1437 1445 1445 1445 1445 1439 1403 1401 1400 1400 1401 1420 1420 1420 1410 1395 1387 1384 1379 1384 1384 1393 1399 1401 1406 1408 1410 1411 1411 1411 1413 1413 1413 1400 1369 1369 1369 1375 1375 1375 1367 1357 1346 1340 1326 1317 1314 1307 1302 1302 1302 1320 1320 1320 1281 1264 1264 1264 1286 1309 1309 1309 0 0 0 0 0 0 0 725 694 0 0 0 0 0 0 0 0 0 0 0 0 0 0 0 0 896 896 896 896 881 881 881 882 882 882 882 880 880 874 851 835 835 829 822 814 801 0 0 0 0 0 0 0 0 0 0 0 0 0 0 0 0 0 0 0 0 0 0 0 0 0 0 0 0 0 0 0 0 0 0 0 0 0 0 0 0 0 0 0 0 0 0 0 0 0 0 0 0 0 0 0 0 0 0 0 0 0 0 0 0 0 0 0 0 0 0 0 0 0 0 0 0 0 0 0 880 878 872 871 861 851 850 847 846 846 846 845 842 840 836 836 836 840 840 0 0 0 0 0 0 0 0 0 0 0 0 0 0 0 0 0 702 699 691 689 691 696 696 0 0 0 0 0 801 801 798 0 0 0 0 0 0 0 524 509 505 505 504 504 504 504 500 491 487 483 480 474 473 471 467 464 460 460 458 455 453 450 447 445 443 442 440 438 435 432 428 427 426 426 424 421 420 418 417 414 412 411 410 407 406 403 401 399 397 394 393 391 389 388 387 386 385 384 384 384
755 755 756 757 760 769 777 791 808 833 0 0 934 953 994 1024 1047 1059 1069 1080 1100 1122 1140 1153 1161 1169 1172 1179 1186 1193 1197 1204 1210 1213 1216 1219 1224 1232 1239 1245 1248 1252 1255 1255 1255 1241 1241 1241 1247 1251 1251 1252 1252 1258 1261 1266 1269 1279 1284 1291 1306 1315 1332 1351 1374 1386 1396 1402 1412 1412 1412 1408 1396 1380 1365 1344 0 0 0 0 0 0 0 0 0 0 1110 1124 1133 1151 1171 1174 1196 1210 1217 1223 1227 1230 1235 1249 1261 1273 1282 1288 1293 1297 1306 1316 1326 1332 1344 1356 1369 1383 1387 1395 1401 1403 1404 1407 1410 1417 1423 1427 1427 1428 1428 1428 1428 1429 1433 1435 1436 1436 1436 1432 1431 1431 1431 1433 1442 1456 1466 1470 1478 1486 1504 1544 1574 1595 1613 1620 1623 1624 1627 1631 1639 1648 1653 1658 1659 1660 1661 1664 1666 1668 1671 1673 1675 1677 1679 1679 1680 1682 1684 1686 1688 1689 1690 1690 1692 1693 1695 1697 1699 1702 1703 1705 1707 1709 1711 1712 1714 1716 1717 1717 1718 1718 1719 1719 1719 1719 1719 1720 1721 1722 1723 1723 1724 1725 1727 1729 1731 1732 1734 1735 1736 1736 1737 1737 1738 1738 1739 1739 1739 1739 1738 1735 1735 1735 1735 1735 1738 1738 1738 1743 1752 1762 1777 1789 1803 1818 1845 1862 1862 1862 1834 1796 1765 0 0 0 0 0 0 0 0 0 0 0 0 0 1470 1489 1491 1491 1491 1480 1464 1448 1447 1445 1445 1447 1447 1453 1453 1453 1447 1429 1429 1429 1429 1444 1444 1444 1435 1430 1429 1429 1429 1428 1428 1428 1429 1438 1438 1438 1431 1409 1384 1381 1381 1384 1384 1424 1447 1447 1447 1444 1426 1423 1423 1423 1423 1428 1431 1431 1432 1433 1438 1447 1448 1450 1451 1451 1451 1444 1440 1430 1420 1416 1416 1420 1436 1436 1436 1428 1409 1390 1390 1390 1392 1394 1417 1417 1417 1417 1391 1384 1379 1376 1379 1384 1395 1399 1401 1401 1408 1412 1418 1421 1421 1421 1421 1413 1397 1348 1348 1348 1370 1370 1370 1368 1358 1351 1346 1328 1323 1314 1307 1302 1302 1302 1324 1324 1324 1285 1263 1258 1255 1255 1255 1287 1287 0 0 0 0 0 0 0 0 0 0 0 0 0 0 0 0 0 0 0 0 0 0 0 0 0 0 896 896 896 881 881 879 878 868 868 868 868 868 868 835 832 831 829 820 812 806 804 0 0 0 0 0 0 0 0 0 0 0 0 0 0 0 0 0 0 0 0 0 0 0 0 0 0 0 0 0 0 0 0 0 0 0 0 0 0 0 0 0 0 0 0 0 0 0 0 0 0 0 0 0 0 0 0 0 0 0 0 0 0 0 0 0 0 0 0 0 0 0 0 0 0 0 0 0 0 0 878 873 871 861 851 843 843 835 835 835 840 840 840 822 0 0 0 0 0 0 0 0 0 0 0 0 0 0 0 0 0 0 0 0 0 693 681 681 681 689 689 701 739 0 0 0 0 0 0 0 0 0 0 0 0 588 548 524 509 495 491 491 491 491 491 487 483 482 482 479 472 469 466 463 461 457 454 453 450 448 446 444 442 440 437 435 434 431 429 427 425 425 423 420 418 417 415 414 413 411 409 407 405 403 401 399 397 395 393 391 389 388 387 386 385 384 383 383 383
739 739 740 740 751 764 777 791 808 832 0 0 934 950 976 1012 1036 1050 1059 1070 1091 1114 1136 1151 1160 1169 1172 1179 1186 1193 1197 1202 1207 1212 1214 1216 1220 1226 1233 1238 1243 1243 1243 1242 1237 1226 1223 1223 1223 1233 1241 1248 1252 1258 1261 1266 1269 1279 1284 1291 1306 1315 1335 1357 1374 1392 1403 1407 1412 1412 1412 1396 1392 1378 1353 0 0 0 0 0 0 0 0 0 0 0 1112 1128 1143 1159 1176 1184 1196 1208 1214 1217 1217 1227 1238 1249 1261 1273 1282 1288 1289 1293 1302 1315 1323 1330 1339 1353 1369 1380 1384 1394 1398 1399 1399 1402 1408 1414 1418 1418 1419 1421 1422 1423 1423 1423 1424 1424 1429 1429 1429 1426 1422 1420 1420 1420 1424 1444 1458 1467 1476 1491 1505 1545 1577 1595 1613 1616 1619 1621 1626 1631 1637 1644 1651 1654 1657 1658 1660 1662 1664 1667 1669 1672 1674 1676 1677 1678 1679 1680 1682 1684 1687 1689 1689 1690 1692 1693 1695 1697 1699 1701 1703 1705 1707 1708 1710 1711 1713 1714 1716 1716 1716 1717 1717 1717 1717 1717 1718 1719 1720 1720 1721 1722 1724 1724 1726 1727 1730 1732 1733 1734 1735 1735 1736 1737 1737 1738 1738 1738 1738 1737 1734 1733 1733 1733 1733 1734 1734 1736 1737 1743 1752 1764 1779 1790 1809 1826 1850 1850 1850 1838 1809 1767 1729 0 0 0 0 0 0 0 0 0 0 0 0 0 0 1462 1491 1491 1491 1483 1465 1450 1445 1445 1445 1445 1445 1453 1453 1453 1445 1429 1429 1429 1429 1444 1444 1444 1435 1422 1419 1418 1418 1419 1422 1428 1431 1438 1438 1438 1431 1409 1384 1381 1381 1383 1383 1414 1447 1447 1447 1442 1425 1416 1416 1416 1420 1427 1431 1431 1432 1433 1433 1438 1439 1440 1451 1453 1453 1453 1440 1425 1420 1416 1416 1420 1428 1428 1428 1428 1409 1390 1385 1384 1384 1385 1415 1417 1417 1417 1391 1364 1349 1349 1349 1376 1395 1399 1399 1401 1404 1412 1418 1421 1421 1421 1421 1413 1373 1343 1330 1330 1330 1358 1358 1358 1357 1352 1348 1346 1333 1314 1299 1299 1299 1302 1324 1324 1324 1290 1263 1257 1255 1255 1255 1256 1256 1256 1256 0 0 0 0 0 0 0 0 0 0 0 0 0 0 0 0 0 0 0 0 0 0 0 0 0 0 0 881 879 878 877 856 856 856 858 858 858 832 829 818 816 812 812 812 812 808 0 0 0 0 0 0 0 0 0 0 0 0 0 0 0 0 0 0 0 0 0 0 0 0 0 0 0 0 0 0 0 0 0 0 0 0 0 0 0 0 0 0 0 0 0 0 0 0 0 0 0 0 0 0 0 0 0 0 0 0 0 0 0 0 0 0 0 0 0 0 0 0 0 0 0 0 0 0 0 0 0 0 0 850 835 831 831 831 831 831 825 0 0 0 0 0 0 0 0 0 0 0 0 0 0 0 0 0 0 0 0 0 0 693 681 681 681 689 689 701 739 0 0 0 0 0 0 0 0 0 0 0 0 560 537 524 509 495 489 488 487 487 483 475 475 475 475 475 470 465 463 461 458 454 452 449 447 446 444 443 441 438 435 433 432 429 427 425 423 421 419 417 416 414 414 412 411 410 407 406 403 401 399 398 395 394 392 390 388 387 385 384 383 383 382 382 382
717 717 721 726 739 750 762 780 800 823 0 0 922 939 957 986 1015 1034 1049 1062 1085 1110 1131 1147 1159 1168 1171 1174 1180 1187 1191 1193 1197 1202 1207 1210 1215 1221 1226 1231 1234 1234 1234 1230 1227 1220 1220 1220 1223 1233 1241 1248 1252 1258 1265 1269 1272 1279 1284 1291 1307 1324 1342 1360 1374 1394 1406 1417 1418 1418 1418 1396 1380 1378 0 0 0 0 0 0 0 0 0 0 0 1092 1114 1128 1143 1159 1176 1184 1196 1202 1207 1217 1217 1227 1238 1249 1259 1269 1278 1285 1288 1291 1302 1314 1323 1330 1339 1352 1368 1380 1384 1393 1394 1394 1396 1398 1404 1410 1410 1411 1412 1412 1414 1415 1417 1417 1417 1418 1418 1419 1419 1419 1416 1415 1415 1416 1423 1437 1452 1464 1473 1491 1508 1551 1586 1592 1599 1610 1617 1620 1625 1629 1635 1641 1647 1651 1655 1657 1660 1662 1663 1665 1668 1669 1671 1673 1675 1677 1678 1679 1681 1683 1686 1688 1688 1690 1691 1694 1696 1698 1699 1702 1703 1705 1706 1708 1709 1711 1711 1712 1714 1714 1714 1715 1715 1716 1716 1717 1717 1718 1718 1719 1719 1720 1721 1723 1724 1726 1729 1730 1731 1733 1734 1734 1735 1736 1736 1737 1737 1737 1737 1735 1734 1731 1731 1731 1731 1730 1730 1730 1736 1743 1752 1764 1779 1794 1809 1834 1843 1843 1843 1815 1772 1733 0 0 0 0 0 0 0 0 0 0 0 0 0 0 0 0 1468 1483 1483 1483 1466 1451 1445 1445 1445 1445 1445 1454 1454 1454 1445 1429 1429 1429 1429 1444 1444 1444 1426 1409 1408 1408 1408 1408 1419 1430 1438 1444 1444 1444 1431 1409 1384 1381 1381 1381 1381 1411 1442 1442 1442 1433 1423 1415 1415 1415 1416 1425 1431 1431 1433 1435 1435 1437 1438 1439 1458 1462 1462 1462 1435 1418 1418 1416 1416 1420 1428 1428 1428 1428 1409 1390 1367 1367 1367 1374 1414 1417 1417 1417 1391 1363 1340 1340 1340 1370 1395 1399 1399 1403 1403 1412 1418 1421 1421 1421 1421 1386 1359 1326 1326 1326 1328 1358 1358 1358 1358 1352 1348 1346 1335 1314 1300 1300 1300 1302 1318 1318 1318 1293 1269 1258 1255 1255 1255 1255 1255 1255 1255 1255 0 0 0 0 0 0 0 0 0 0 0 0 0 0 0 0 0 0 0 0 0 0 0 0 0 0 844 860 860 860 851 851 851 858 858 858 832 829 816 812 816 829 827 827 827 0 0 0 0 0 0 0 0 0 0 0 0 0 0 0 0 0 0 0 0 0 0 0 0 0 0 0 0 0 0 0 0 0 0 0 0 0 0 0 0 0 0 0 0 0 0 0 0 0 0 0 0 0 0 0 0 0 0 0 0 0 0 0 0 0 0 0 0 0 0 0 0 0 0 0 0 0 0 0 0 0 0 0 0 829 811 811 811 809 0 0 0 0 0 0 0 0 0 0 0 0 0 0 0 0 0 0 0 0 0 0 0 0 682 681 681 681 686 689 699 701 0 0 0 0 0 0 0 0 0 0 0 562 553 537 519 507 494 489 487 484 475 472 472 472 472 472 472 465 462 460 457 456 453 450 448 446 443 441 440 437 435 433 431 429 427 425 422 421 419 416 415 414 412 411 410 408 407 405 404 401 399 397 396 394 392 390 388 386 385 383 383 382 381 381 380 380
703 703 712 723 736 747 758 772 791 814 0 874 909 939 951 975 995 1020 1040 1057 1077 1102 1126 1143 1154 1162 1170 1172 1176 1181 1184 1185 1187 1191 1196 1200 1207 1214 1218 1219 1221 1221 1220 1219 1218 1215 1215 1215 1223 1233 1241 1248 1253 1259 1268 1275 1279 1282 1286 1292 1308 1325 1348 1363 1376 1402 1424 1427 1427 1427 1418 0 0 0 0 0 0 0 0 0 0 0 0 0 0 1097 1116 1128 1143 1159 1176 1184 1192 1201 1206 1217 1224 1230 1238 1247 1257 1266 1273 1280 1284 1290 1302 1313 1323 1329 1337 1351 1367 1379 1383 1384 1386 1386 1387 1392 1398 1403 1403 1403 1403 1403 1404 1406 1410 1412 1415 1417 1417 1417 1416 1415 1415 1415 1415 1416 1421 1435 1445 1459 1472 1498 1508 1552 1586 1589 1596 1604 1613 1620 1625 1629 1632 1636 1642 1647 1652 1657 1659 1661 1662 1663 1665 1667 1668 1670 1673 1675 1676 1678 1680 1682 1684 1686 1688 1690 1691 1694 1697 1698 1700 1702 1703 1705 1706 1708 1709 1710 1711 1711 1711 1711 1711 1712 1712 1712 1713 1714 1715 1716 1716 1717 1718 1719 1720 1722 1723 1724 1727 1728 1730 1731 1732 1733 1734 1734 1735 1736 1736 1736 1735 1734 1732 1731 1730 1730 1726 1726 1726 1727 1733 1737 1750 1764 1779 1795 1815 1834 1834 1834 1820 1773 1742 1720 0 0 0 0 0 0 0 0 0 0 0 0 0 0 0 0 0 1480 1480 1480 1467 1455 1450 1446 1446 1446 1446 1454 1454 1454 1445 1438 1428 1428 1428 1426 1425 1419 1409 1408 1408 1408 1408 1408 1417 1430 1452 1461 1461 1461 1440 1416 1399 1389 1381 1381 1381 1396 1424 1424 1424 1419 1417 1412 1412 1412 1415 1419 1431 1437 1437 1437 1437 1437 1437 1438 1458 1462 1462 1462 1435 1413 1413 1413 1424 1428 1429 1437 1434 1429 1429 1411 1383 1365 1365 1365 1388 1407 1407 1407 1385 1361 1335 1335 1335 1364 1390 1399 1399 1403 1399 1399 1403 1404 1398 1376 1376 1351 1337 1327 1327 1327 1328 1358 1359 1359 1359 1352 1348 1344 1335 1314 1300 1300 1300 1302 1311 1311 1311 1294 1273 1261 1261 1261 1260 1260 1260 1255 1255 1255 0 0 0 0 0 0 0 0 0 0 0 0 0 0 0 0 0 0 0 0 0 0 0 0 0 0 801 829 843 843 843 843 850 858 858 858 830 830 816 816 833 855 855 855 845 0 0 0 0 0 0 0 0 0 0 0 0 0 0 0 0 0 0 0 0 0 0 0 0 0 0 0 0 0 0 0 0 0 0 0 0 0 0 0 0 0 0 0 0 0 0 0 0 0 0 0 0 0 0 0 0 0 0 0 0 1834 1822 1814 1802 1802 0 0 0 0 0 0 0 0 0 0 0 0 0 0 0 0 0 0 0 0 0 0 0 0 0 0 0 0 0 0 0 0 0 0 0 0 0 0 0 0 0 0 0 0 0 0 0 0 672 672 672 685 686 686 694 696 0 0 0 0 0 0 0 0 0 0 559 553 536 514 499 492 491 489 486 482 475 469 468 467 467 466 462 462 457 455 453 451 449 446 445 443 440 438 436 434 432 430 429 427 425 423 421 419 417 414 413 410 409 408 407 406 404 402 401 399 398 396 394 392 390 389 387 385 384 382 381 380 380 380 379 379
690 690 704 717 730 742 750 762 783 0 0 0 905 932 944 964 989 1012 1034 1051 1072 1097 1119 1137 1150 1161 1166 1171 1174 1176 1177 1177 1178 1179 1184 1191 1197 1203 1208 1208 1209 1209 1207 1207 1207 1207 1210 1217 1229 1240 1248 1252 1253 1261 1269 1285 1290 1293 1295 1302 1318 1333 1348 1365 1394 1426 1447 1447 1447 1427 0 0 0 0 0 0 0 0 0 0 0 0 0 1072 1089 1104 1114 1126 1135 1146 1151 1159 1178 1197 1206 1216 1224 1230 1237 1246 1255 1263 1268 1273 1281 1288 1302 1313 1322 1328 1337 1350 1363 1370 1371 1372 1374 1378 1381 1386 1393 1395 1395 1395 1395 1395 1395 1399 1403 1408 1413 1413 1413 1413 1413 1413 1415 1415 1416 1416 1421 1427 1437 1453 1470 1503 1508 1562 1586 1588 1593 1601 1608 1616 1622 1625 1627 1633 1639 1643 1648 1653 1656 1658 1660 1662 1663 1663 1665 1667 1670 1673 1674 1675 1677 1680 1683 1685 1686 1689 1691 1694 1697 1698 1700 1701 1703 1705 1706 1707 1709 1710 1710 1711 1711 1711 1711 1711 1711 1711 1712 1712 1713 1714 1715 1715 1716 1718 1720 1721 1723 1724 1725 1727 1728 1730 1730 1732 1733 1734 1734 1735 1735 1735 1734 1732 1731 1731 1729 1727 1726 1726 1726 1726 1729 1734 1744 1757 1779 1797 1817 1831 1831 1831 1798 1746 1723 1702 0 0 0 0 0 0 0 0 0 0 0 0 0 0 0 0 0 0 1473 1480 1482 1480 1472 1472 1465 1457 1456 1456 1456 1458 1458 1458 1442 1433 1424 1412 1407 1407 1405 1407 1408 1408 1408 1408 1417 1430 1452 1461 1461 1461 1440 1422 1414 1389 1381 1381 1381 1396 1411 1411 1411 1410 1406 1406 1406 1408 1411 1412 1424 1437 1437 1437 1432 1432 1432 1436 1458 1462 1462 1462 1435 1412 1412 1412 1424 1429 1432 1437 1437 1432 1432 1428 1397 1366 1366 1365 1365 1364 1364 1357 1357 1357 1335 1335 1335 1356 1387 1393 1396 1398 1398 1398 1401 1398 1371 1359 1356 1346 1335 1327 1327 1327 1328 1329 1358 1358 1358 1345 1344 1343 1335 1318 1313 1312 1311 1312 1313 1311 1311 1299 1277 1273 1273 1273 1286 1286 1286 1255 1242 1242 1242 0 0 0 0 0 0 0 0 0 0 0 0 0 0 0 0 0 0 0 0 0 0 0 0 785 796 827 841 841 843 843 850 859 859 859 846 846 846 867 892 895 895 895 0 0 0 0 0 0 0 0 0 0 0 0 0 0 0 0 0 0 0 0 0 0 0 0 0 0 0 0 0 0 0 0 0 0 0 0 0 0 0 0 0 0 0 0 0 0 0 0 0 0 0 0 0 0 0 0 0 0 0 0 1834 1834 1822 1814 1805 1805 1805 0 0 0 0 0 0 0 0 0 0 0 0 0 0 0 0 0 0 0 0 0 0 0 0 0 0 0 0 0 0 0 0 0 0 0 0 0 0 0 0 0 0 0 0 0 0 0 667 667 667 684 685 685 684 0 0 0 0 0 0 0 0 0 0 541 535 529 511 497 490 490 489 488 486 479 472 466 464 463 463 460 459 455 454 451 450 449 447 445 443 441 437 435 433 431 429 427 426 425 423 421 419 417 415 413 412 409 407 406 405 404 402 401 400 398 396 395 393 391 389 387 385 384 382 381 380 379 379 378 378 378
687 687 688 705 716 726 733 747 766 0 0 0 901 928 943 955 980 1004 1027 1048 1065 1084 1103 1124 1141 1154 1161 1166 1168 1172 1172 1172 1172 1172 1176 1180 1183 1189 1194 1194 1194 1192 1192 1192 1192 1200 1210 1221 1235 1246 1253 1257 1258 1261 1271 1296 1301 1304 1307 1312 1323 1338 1352 1366 1394 1437 1454 1454 1454 0 0 0 0 0 0 0 0 0 0 0 0 0 1078 1086 1096 1107 1115 1120 1126 1134 1143 1153 1172 1196 1205 1216 1224 1230 1236 1244 1253 1261 1266 1266 1274 1288 1302 1313 1322 1326 1332 1344 1353 1358 1359 1360 1364 1367 1375 1381 1385 1389 1389 1389 1387 1387 1387 1392 1397 1404 1408 1408 1408 1410 1410 1410 1414 1418 1419 1419 1421 1427 1434 1440 1465 1513 1560 1564 1583 1588 1593 1601 1606 1611 1617 1620 1622 1628 1635 1641 1644 1649 1652 1654 1657 1659 1661 1662 1664 1665 1667 1670 1672 1673 1674 1677 1680 1681 1684 1686 1689 1692 1697 1698 1699 1701 1703 1704 1706 1706 1708 1710 1710 1711 1711 1711 1710 1710 1710 1711 1711 1712 1712 1712 1713 1713 1715 1717 1719 1721 1722 1724 1724 1726 1728 1729 1730 1731 1732 1733 1733 1734 1734 1734 1733 1731 1731 1731 1729 1726 1724 1724 1724 1724 1728 1732 1743 1757 1779 1806 1813 1813 1813 1781 1757 1734 1711 0 0 0 0 0 0 0 0 0 0 0 0 0 0 0 0 0 0 0 0 0 1466 1472 1480 1480 1472 1471 1471 1471 1473 1473 1473 1469 1457 1435 1424 1410 1407 1407 1407 1409 1415 1415 1415 1416 1416 1416 1452 1461 1461 1461 1440 1422 1417 1389 1381 1381 1381 1395 1407 1407 1407 1401 1401 1401 1406 1408 1411 1411 1413 1426 1432 1432 1432 1432 1432 1436 1458 1458 1458 1441 1409 1409 1409 1412 1424 1435 1437 1439 1443 1443 1443 1434 1399 1376 1374 1369 1365 1357 1356 1348 1345 1345 1335 1335 1335 1345 1383 1393 1393 1394 1396 1396 1396 1396 1371 1359 1356 1346 1335 1335 1333 1328 1333 1341 1355 1355 1355 1345 1340 1336 1333 1331 1331 1322 1322 1322 1313 1311 1307 1306 1292 1280 1280 1280 1286 1290 1290 1290 1242 1242 1242 0 0 0 0 0 0 0 0 0 0 0 0 0 0 0 0 0 0 0 0 0 0 0 0 772 795 807 825 835 840 844 0 0 0 0 0 0 0 0 0 0 0 0 0 0 0 0 0 0 0 0 0 0 0 0 0 0 0 0 0 0 0 0 0 0 0 0 0 0 0 0 0 0 0 0 0 0 0 0 0 0 0 0 0 0 0 0 0 0 624 625 0 0 0 0 0 0 0 0 0 0 0 0 1822 1822 1822 1814 1807 1807 1807 0 0 0 0 0 0 0 0 0 0 0 0 0 0 0 0 0 0 0 0 0 0 0 0 0 0 0 0 0 0 0 0 0 0 0 0 0 0 0 0 0 0 0 0 0 0 0 0 667 667 667 667 661 0 0 0 0 0 0 565 565 561 542 527 518 512 505 496 495 489 488 487 485 481 477 470 463 463 460 458 457 455 453 451 449 447 446 443 441 440 438 436 433 430 428 426 425 424 422 420 418 416 415 413 411 409 408 406 405 404 402 401 399 398 396 394 393 391 390 388 386 384 383 381 380 379 378 377 377 377 376
675 679 679 683 689 699 714 727 0 0 0 0 900 924 936 948 971 992 1017 1035 1048 1054 1073 1100 1121 1137 1149 1157 1164 1167 1167 1167 1168 1168 1169 1169 1169 1169 1168 1168 1168 1169 1177 1180 1186 1200 1213 1223 1239 1249 1258 1264 1267 1269 1286 1304 1310 1314 1317 1324 1333 1346 1360 1375 1410 1438 1454 1454 0 0 0 0 0 0 0 0 0 0 0 0 0 1066 1088 1099 1103 1108 1116 1120 1126 1127 1141 1147 1172 1189 1203 1215 1221 1227 1234 1244 1252 1257 1262 1265 1273 1288 1301 1312 1317 1318 1324 1334 1344 1348 1350 1352 1359 1361 1369 1376 1378 1379 1379 1379 1379 1379 1383 1388 1393 1397 1401 1401 1401 1401 1401 1406 1414 1419 1419 1419 1421 1427 1434 1440 1465 1517 1560 1569 1583 1587 1593 1599 1605 1609 1613 1617 1620 1623 1630 1635 1639 1645 1649 1651 1654 1656 1658 1660 1661 1663 1666 1668 1670 1671 1673 1674 1676 1679 1681 1683 1685 1688 1693 1696 1698 1700 1702 1703 1704 1706 1707 1709 1710 1711 1711 1711 1710 1709 1709 1709 1709 1710 1710 1710 1711 1712 1714 1716 1719 1720 1720 1722 1723 1726 1727 1728 1729 1731 1731 1732 1733 1734 1734 1734 1733 1731 1731 1731 1728 1724 1724 1723 1723 1723 1727 1732 1743 1757 1782 1808 1808 1808 1781 1766 1746 1725 1710 1680 0 0 0 0 0 0 0 0 0 0 0 0 0 0 0 0 0 0 0 0 0 0 1480 1480 1478 1472 1475 1475 1473 1473 1473 1469 1459 1445 1424 1410 1407 1407 1407 1418 1419 1419 1419 1416 1416 1416 1423 1442 1442 1442 1427 1422 1417 1394 1380 1380 1380 1395 1401 1401 1401 1395 1395 1395 1398 1408 1411 1411 1412 1415 1418 1419 1423 1424 1424 1436 1438 1438 1438 1391 1389 1389 1389 1401 1412 1430 1435 1437 1459 1459 1459 1434 1399 1384 1374 1369 1366 1357 1356 1348 1345 1345 1335 1331 1331 1331 1362 1381 1392 1393 1396 1404 1404 1404 1389 1359 1356 1346 1339 1339 1339 1339 1339 1341 1339 1335 1336 1336 1334 1334 1333 1333 1333 1330 1330 1322 1311 1311 1308 1308 1308 1280 1280 1280 1286 1290 1290 1290 1257 1257 1257 0 0 0 0 0 0 0 0 0 0 0 0 0 0 0 0 0 0 0 0 0 0 0 0 772 792 794 802 826 835 0 0 0 0 0 0 0 0 0 0 0 0 0 0 0 0 0 0 0 0 0 0 0 0 0 0 0 0 0 0 0 0 0 0 1257 1250 1244 1243 0 0 0 0 0 0 0 0 0 0 0 0 0 0 0 0 0 0 0 0 0 603 613 613 613 613 0 0 0 0 0 0 0 0 0 0 1817 1817 1810 1807 1807 1807 0 0 0 0 0 0 0 0 0 0 0 0 0 0 0 0 0 0 0 0 0 0 0 0 0 0 0 0 0 0 0 0 0 0 0 0 0 0 0 0 0 0 0 0 0 0 0 0 0 0 0 0 0 0 0 0 0 0 561 559 541 523 516 516 510 505 502 494 491 486 486 484 477 473 471 467 463 460 458 457 454 451 449 448 445 443 442 440 438 437 435 433 430 427 426 424 422 419 418 416 415 414 413 411 409 408 406 404 404 402 400 399 398 396 394 393 391 390 388 387 384 383 381 380 379 377 377 376 376 375 375
673 674 673 673 673 674 689 702 0 0 0 0 0 914 926 947 951 976 1002 1025 1035 1047 1067 1090 1105 1116 1127 1141 1151 1153 1158 1159 1160 1160 1160 1160 1158 1155 1150 1150 1150 1154 1165 1180 1186 1200 1213 1224 1240 1252 1262 1272 1278 1285 1295 1307 1319 1328 1337 1340 1351 1360 1370 1389 1419 1448 1448 1448 0 0 0 0 0 0 0 0 0 0 0 0 0 1075 1091 1100 1106 1110 1116 1120 1123 1126 1133 1147 1172 1189 1202 1207 1216 1223 1228 1235 1246 1252 1252 1256 1270 1286 1301 1310 1311 1312 1313 1322 1330 1337 1341 1346 1352 1361 1363 1370 1372 1372 1372 1372 1372 1373 1378 1381 1384 1384 1385 1386 1386 1389 1393 1401 1413 1419 1419 1419 1422 1427 1434 1440 1465 1519 1560 1569 1582 1586 1593 1599 1604 1607 1610 1612 1616 1621 1628 1632 1637 1640 1646 1650 1652 1653 1656 1658 1659 1661 1664 1667 1669 1670 1671 1672 1674 1676 1680 1682 1683 1686 1691 1695 1696 1698 1700 1701 1703 1706 1707 1709 1709 1709 1709 1709 1709 1707 1707 1707 1707 1707 1707 1708 1708 1709 1711 1713 1715 1717 1718 1719 1721 1723 1725 1727 1729 1729 1731 1731 1732 1733 1733 1733 1732 1731 1731 1731 1727 1724 1724 1721 1721 1721 1727 1732 1744 1761 1784 1785 1785 1785 1780 1765 1743 1722 1685 0 0 0 0 0 0 0 0 0 0 0 0 0 0 0 0 0 0 0 0 0 0 0 0 1461 1467 1471 1475 1475 1473 1473 1473 1469 1463 1451 1429 1410 1410 1410 1419 1425 1425 1425 1422 1417 1417 1417 1423 1423 1423 1416 1416 1413 1411 1406 1376 1376 1376 1387 1392 1392 1392 1390 1390 1390 1396 1408 1408 1411 1411 1411 1411 1411 1413 1413 1417 1426 1426 1426 1413 1391 1382 1382 1382 1384 1397 1414 1425 1435 1459 1459 1459 1434 1399 1384 1374 1369 1369 1366 1357 1348 1345 1345 1335 1331 1331 1331 1352 1358 1365 1376 1390 1404 1404 1404 1389 1366 1365 1363 1348 1345 1343 1342 1342 1335 1332 1325 1328 1328 1328 1333 1334 1334 1336 1336 1336 1322 1307 1307 1307 1305 1305 1280 1262 1262 1262 1289 1289 1289 1257 1246 1246 0 0 0 0 0 0 0 0 0 0 0 0 0 0 0 0 0 0 0 0 0 0 0 0 0 772 782 783 0 0 0 0 0 0 0 0 0 0 0 0 0 0 0 0 0 0 0 0 0 0 0 0 0 0 0 0 0 0 0 0 0 0 1280 1257 1257 1250 1244 1243 1242 0 0 0 0 0 0 0 0 702 702 702 701 701 701 684 0 0 0 603 596 603 604 609 613 613 613 603 0 0 0 0 0 0 0 0 1804 1804 1798 1798 1798 0 0 0 0 0 0 0 0 0 0 0 0 0 0 0 0 0 0 0 0 0 0 0 0 0 0 0 0 0 0 0 0 0 0 0 0 0 0 0 0 0 0 0 0 0 0 0 0 0 0 0 0 0 0 0 0 0 0 550 543 521 516 516 511 511 509 499 494 493 488 485 475 474 472 471 469 466 461 456 454 451 449 447 446 445 442 439 437 436 434 433 431 428 427 424 422 420 418 417 415 414 413 412 411 409 407 405 404 403 402 400 399 398 396 394 393 391 390 388 387 385 383 382 380 379 378 377 376 375 374 374 374
667 674 670 670 667 670 670 689 0 0 0 0 0 897 914 933 946 960 988 1008 1027 1042 1065 1086 1097 1103 1111 1120 1128 1131 1139 1146 1150 1150 1150 1147 1143 1138 1129 1129 1129 1147 1165 1180 1186 1200 1213 1226 1245 1260 1271 1280 1289 1297 1304 1316 1328 1344 1355 1358 1368 1376 1384 1400 1429 1453 1453 1453 0 0 0 0 0 0 0 0 0 0 0 1016 1055 1076 1091 1100 1109 1115 1122 1123 1125 1127 1133 1147 1160 1172 1189 1195 1206 1213 1218 1223 1236 1242 1242 1251 1262 1285 1300 1302 1304 1304 1305 1307 1313 1319 1329 1339 1344 1350 1353 1360 1364 1364 1364 1361 1361 1361 1369 1371 1371 1374 1376 1377 1377 1382 1388 1396 1406 1414 1418 1419 1423 1429 1437 1448 1475 1521 1553 1571 1582 1587 1593 1599 1602 1605 1607 1610 1613 1619 1624 1629 1634 1639 1643 1648 1651 1652 1654 1655 1657 1659 1661 1665 1668 1669 1671 1671 1673 1675 1677 1680 1683 1684 1687 1693 1695 1697 1699 1700 1703 1705 1707 1708 1708 1708 1708 1708 1706 1706 1706 1706 1706 1706 1706 1706 1707 1707 1708 1711 1715 1717 1717 1718 1719 1721 1723 1726 1727 1729 1730 1731 1732 1733 1733 1733 1732 1731 1730 1730 1726 1724 1723 1720 1720 1720 1727 1733 1749 1776 1799 1799 1799 1784 1778 1757 1738 1701 0 0 0 0 0 0 0 0 0 0 0 0 0 0 0 0 0 0 0 0 0 0 0 0 0 0 1467 1467 1467 1464 1463 1463 1463 1463 1459 1456 1442 1426 1426 1426 1433 1434 1436 1436 1434 1431 1431 1431 1425 1423 1407 1407 1407 1406 1406 1406 1391 1379 1379 1379 1386 1386 1388 1388 1389 1389 1396 1407 1407 1409 1411 1409 1407 1407 1407 1407 1409 1409 1409 1409 1397 1391 1382 1369 1369 1369 1372 1373 1373 1383 1435 1435 1435 1405 1391 1384 1372 1369 1369 1366 1362 1357 1353 1348 1339 1331 1331 1331 1347 1351 1352 1357 1374 1395 1395 1395 1389 1366 1365 1364 1351 1349 1347 1343 1343 1335 1332 1325 1328 1328 1328 1334 1343 1347 1347 1347 1327 1292 1292 1292 1301 1301 1301 1275 1255 1255 1255 1267 1267 1267 1257 1240 0 0 0 0 0 0 0 0 0 0 0 0 0 0 0 0 0 0 0 0 0 0 0 0 0 0 0 0 0 0 0 0 0 0 0 0 0 0 0 0 0 0 0 0 0 0 0 0 0 0 0 0 0 0 0 0 0 0 0 0 0 0 1280 1286 1280 1280 1277 1269 1265 1243 0 0 0 0 0 0 0 723 702 701 701 701 701 701 683 682 0 0 626 625 601 601 601 613 613 613 603 603 0 0 0 0 0 0 0 0 1778 1778 1769 0 0 0 0 0 0 0 0 0 0 0 0 0 0 0 0 0 0 0 0 0 0 0 0 0 0 0 0 0 0 0 0 0 0 0 0 0 0 0 0 0 0 0 0 0 0 0 0 0 0 570 583 583 583 581 566 554 0 543 528 513 504 504 504 504 504 498 491 487 484 481 475 473 469 468 468 466 463 459 454 450 447 446 444 442 441 438 435 433 432 430 430 428 426 423 421 421 418 416 416 414 413 412 410 409 407 406 404 402 401 400 399 397 396 394 392 390 389 388 386 385 383 382 380 379 377 376 375 375 374 373 373 373
667 674 670 670 667 666 666 666 0 0 0 0 0 885 905 927 938 952 975 993 1010 1037 1064 1082 1089 1091 1095 1104 1109 1117 1120 1125 1136 1142 1142 1142 1126 1124 1124 1124 1129 1147 1165 1182 1186 1200 1214 1226 1258 1275 1286 1293 1300 1308 1318 1330 1345 1357 1370 1372 1385 1399 1414 1428 1446 1446 1446 0 0 0 0 0 0 0 0 0 0 0 988 1026 1055 1076 1091 1100 1109 1122 1123 1123 1132 1133 1133 1147 1159 1168 1183 1194 1201 1208 1215 1219 1225 1231 1237 1245 1260 1281 1293 1296 1298 1299 1300 1300 1302 1312 1324 1329 1333 1339 1349 1351 1355 1355 1355 1351 1351 1351 1356 1359 1363 1368 1373 1374 1375 1375 1382 1391 1398 1405 1411 1416 1424 1435 1443 1455 1496 1527 1550 1571 1582 1588 1592 1595 1600 1602 1603 1608 1611 1617 1621 1626 1632 1636 1641 1645 1648 1649 1652 1653 1653 1656 1659 1663 1665 1666 1669 1670 1672 1673 1676 1678 1681 1682 1685 1689 1692 1695 1697 1700 1703 1705 1706 1706 1706 1707 1707 1707 1705 1705 1704 1704 1704 1704 1704 1704 1704 1704 1706 1709 1712 1714 1715 1716 1718 1720 1722 1724 1727 1728 1730 1731 1731 1732 1732 1732 1732 1730 1730 1729 1726 1724 1723 1720 1720 1720 1730 1746 1761 1799 1799 1799 1782 1770 1759 1751 1737 0 0 0 0 0 0 0 0 0 0 0 0 0 0 0 0 0 0 0 0 0 0 0 0 0 0 0 0 1450 1453 1456 1459 1462 1464 1467 1467 1467 1460 1449 1446 1446 1446 1450 1452 1452 1456 1456 1456 1448 1436 1425 1407 1397 1397 1397 1397 1397 1391 1379 1379 1379 1383 1384 1386 1386 1386 1388 1395 1407 1407 1407 1408 1407 1406 1402 1395 1394 1393 1390 1393 1394 1395 1395 1395 1369 1369 1369 1372 1373 1373 1381 1398 1398 1398 1388 1380 1380 1358 1337 1337 1337 1362 1362 1362 1361 1360 1354 1353 1352 1350 1346 1346 1346 1348 1371 1371 1371 1369 1367 1365 1364 1352 1349 1349 1349 1358 1358 1358 1332 1328 1328 1328 1334 1344 1344 1344 1339 1307 1290 1290 1290 1290 1290 1288 1262 1237 1237 1237 1243 1243 1243 1207 1180 0 0 0 0 0 0 0 0 0 0 0 0 0 0 0 0 0 0 0 0 0 0 0 0 0 0 0 0 0 0 0 0 0 0 0 0 0 0 0 0 0 0 0 0 0 0 0 0 0 0 0 0 0 0 0 0 0 0 0 0 0 0 1325 1325 1325 1323 1301 1289 1265 1243 0 0 0 0 0 0 0 742 739 701 701 701 701 701 682 665 665 0 0 631 595 595 595 612 614 614 614 614 0 0 0 0 0 0 0 0 0 0 0 0 0 0 0 0 0 0 0 0 0 0 0 0 0 0 0 0 0 0 0 0 0 0 0 0 0 0 0 0 0 0 0 0 0 0 0 0 0 0 0 0 0 0 0 0 0 0 0 0 550 560 566 566 566 554 545 535 527 513 499 493 493 493 499 499 499 497 486 478 472 468 465 464 464 463 463 462 460 456 451 448 445 443 441 440 437 434 432 431 429 427 427 426 424 422 420 419 416 415 413 413 411 410 408 407 405 404 402 401 400 398 397 396 394 393 391 389 387 386 385 383 381 380 379 378 376 375 374 374 373 372 372 372
667 682 682 682 667 666 666 666 680 0 0 0 0 872 899 924 936 949 969 985 1005 1028 1054 1074 1081 1081 1083 1089 1094 1096 1096 1098 1107 1119 1123 1123 1123 1122 1122 1122 1129 1147 1171 1190 1200 1204 1215 1239 1272 1292 1302 1309 1317 1328 1337 1349 1359 1371 1385 1396 1400 1414 1428 1444 1444 1444 0 0 0 0 0 0 0 0 0 0 0 960 993 1028 1055 1076 1083 1096 1109 1128 1128 1128 1134 1134 1134 1147 1158 1168 1181 1194 1200 1208 1213 1219 1222 1227 1233 1243 1255 1270 1282 1287 1290 1291 1293 1294 1300 1310 1320 1322 1323 1326 1337 1345 1348 1351 1351 1351 1347 1347 1347 1353 1359 1366 1371 1371 1371 1372 1377 1385 1392 1398 1402 1410 1424 1435 1443 1455 1505 1527 1548 1569 1582 1588 1591 1594 1595 1597 1600 1604 1608 1614 1619 1623 1628 1633 1637 1642 1644 1647 1648 1650 1651 1653 1655 1657 1660 1662 1665 1668 1669 1671 1674 1677 1679 1682 1684 1687 1690 1692 1695 1700 1702 1704 1706 1706 1706 1706 1705 1704 1702 1702 1702 1702 1702 1702 1702 1702 1702 1702 1705 1707 1710 1712 1713 1715 1717 1719 1721 1723 1725 1727 1728 1730 1731 1732 1732 1732 1731 1728 1728 1728 1726 1725 1723 1720 1720 1720 1731 1750 1777 1790 1790 1790 1768 1751 1740 1740 0 0 0 0 0 0 0 0 0 0 2275 2275 0 0 0 0 0 0 0 0 0 0 0 0 0 0 0 0 0 0 1437 1455 1459 1461 1464 1470 1477 1477 1477 1463 1455 1455 1455 1466 1473 1473 1473 1473 1465 1452 1439 1425 1407 1397 1390 1390 1390 1390 1390 1379 1379 1379 1379 1379 1376 1376 1376 1380 1391 1400 1400 1400 1398 1397 1393 1387 1382 1381 1377 1377 1377 1386 1397 1411 1411 1411 1377 1373 1368 1368 1372 1372 1373 1373 1373 1371 1371 1370 1356 1328 1328 1328 1356 1364 1371 1376 1376 1376 1375 1365 1352 1345 1326 1313 1313 1313 1339 1358 1361 1364 1364 1364 1352 1349 1349 1349 1367 1367 1367 1359 1330 1330 1330 1338 1346 1346 1346 1332 1304 1290 1289 1288 1286 1266 1252 1239 1220 1220 1220 1223 1223 1223 1203 1180 0 0 0 0 0 0 0 0 0 0 0 0 0 0 0 0 0 0 0 0 0 586 586 610 619 0 0 0 0 0 0 0 0 0 0 0 0 0 0 0 0 0 0 0 0 0 0 0 0 0 0 0 0 0 0 0 0 0 0 0 0 0 1343 1343 1343 1327 1301 1289 1265 0 0 0 0 0 0 0 0 758 751 710 706 701 701 701 682 665 665 0 0 0 0 595 595 604 615 615 615 616 0 0 0 0 0 0 0 0 0 0 0 0 0 0 0 0 0 0 0 0 0 0 0 0 0 0 0 0 0 0 0 0 0 0 0 0 0 0 0 0 0 0 0 0 0 0 0 0 0 0 0 0 0 0 0 0 0 0 0 535 535 537 537 537 535 529 519 509 501 489 486 486 486 492 492 492 489 485 476 471 465 460 460 460 461 461 461 459 456 452 448 445 443 441 439 436 434 432 430 428 427 426 424 423 421 420 417 416 415 413 413 411 409 408 406 405 404 402 400 399 398 396 396 394 393 392 390 388 386 385 383 382 381 379 377 377 375 373 372 372 372 371 371 371
700 700 696 696 683 664 664 664 680 0 0 0 0 0 890 916 931 946 961 981 1003 1024 1042 1061 1066 1067 1067 1068 1068 1068 1068 1068 1073 1097 1103 1109 1114 1117 1119 1119 1139 1161 1183 1196 1209 1212 1227 1253 1281 1301 1314 1322 1333 1343 1355 1368 1375 1381 1393 1417 1421 1427 1429 1441 0 0 0 0 0 0 0 0 0 0 0 0 980 982 1008 1028 1054 1067 1078 1091 1106 1128 1132 1132 1134 1134 1134 1147 1158 1168 1181 1188 1198 1206 1213 1218 1221 1224 1231 1241 1249 1258 1266 1273 1279 1284 1287 1291 1298 1308 1314 1314 1315 1319 1328 1339 1342 1349 1349 1349 1347 1347 1347 1353 1358 1366 1368 1368 1370 1370 1377 1385 1389 1392 1396 1407 1424 1435 1443 1457 1505 1527 1547 1569 1587 1590 1591 1592 1593 1593 1598 1602 1605 1610 1615 1620 1626 1630 1634 1637 1641 1642 1644 1646 1649 1651 1653 1655 1658 1660 1662 1665 1666 1669 1671 1673 1677 1680 1683 1685 1689 1691 1694 1698 1701 1703 1704 1704 1704 1703 1702 1701 1700 1700 1700 1700 1700 1699 1700 1700 1701 1702 1704 1706 1708 1710 1711 1714 1715 1718 1721 1722 1724 1726 1728 1730 1730 1730 1730 1730 1729 1728 1727 1727 1726 1726 1716 1716 1716 1720 1734 1753 1783 1783 1783 1769 1751 1734 1733 0 0 0 0 0 0 0 0 0 2310 2310 2310 2310 2310 0 0 0 0 0 0 0 0 0 0 0 0 0 0 0 0 0 0 0 1456 1468 1483 1486 1489 1489 1489 1473 1456 1456 1456 1473 1478 1478 1478 1474 1467 1453 1442 1427 1413 1397 1390 1388 1388 1387 1386 1386 1389 1382 1382 1382 1373 1369 1369 1369 1387 1391 1391 1391 1390 1388 1385 1376 1370 1369 1369 1369 1375 1386 1420 1420 1420 1411 1391 1378 1373 1372 1367 1366 1364 1357 1352 1351 1349 1348 1327 1322 1322 1322 1346 1364 1371 1376 1376 1376 1375 1365 1352 1341 1320 1308 1308 1308 1308 1339 1358 1363 1363 1363 1352 1343 1343 1343 1367 1367 1367 1359 1333 1333 1333 1338 1338 1338 1338 1319 1298 1289 1289 1286 1271 1247 1239 1238 1220 1220 1220 1222 1222 1222 1203 1180 0 0 1099 1099 1136 0 0 0 0 0 0 0 0 0 0 0 0 0 0 0 614 614 610 618 619 630 0 0 0 0 0 0 0 0 0 0 0 0 0 0 0 0 0 0 0 0 0 0 0 0 0 0 0 0 0 0 0 0 0 0 0 1349 1349 1349 1348 1331 1301 1289 0 0 0 0 0 0 0 0 0 0 768 731 717 712 709 680 665 661 0 0 0 0 0 0 0 599 614 614 616 619 0 0 0 0 0 0 0 0 0 0 0 0 0 0 0 0 0 0 0 0 0 0 0 0 0 0 0 0 0 0 0 0 0 0 0 0 0 0 0 0 0 0 0 0 0 0 0 0 0 0 0 0 0 0 0 0 0 0 0 521 519 518 517 514 514 512 508 498 481 476 476 476 483 483 483 481 475 471 467 464 463 460 459 459 458 458 458 456 454 450 445 442 441 439 437 434 431 430 428 426 425 423 422 420 419 418 416 415 413 412 411 410 408 406 405 404 402 402 400 397 397 395 394 393 391 390 389 387 386 384 382 381 380 378 377 375 374 372 371 371 370 370 369 369
714 714 701 701 683 673 673 673 680 710 0 0 0 0 0 0 931 946 955 974 1002 1020 1031 1041 1049 1053 1053 1052 1052 1045 1045 1045 1058 1082 1093 1107 1114 1119 1125 1126 1140 1183 1197 1204 1216 1220 1239 1262 1283 1301 1314 1327 1342 1356 1370 1380 1384 1393 1408 1421 1421 1427 1429 1429 0 0 0 0 0 0 0 0 0 0 0 0 1001 1019 1022 1032 1054 1067 1078 1091 1103 1128 1132 1132 1134 1134 1134 1148 1159 1168 1181 1186 1195 1198 1208 1214 1219 1224 1227 1235 1244 1252 1257 1261 1268 1274 1280 1285 1295 1305 1306 1307 1308 1311 1321 1332 1341 1344 1344 1344 1344 1344 1347 1352 1358 1364 1366 1367 1367 1370 1377 1385 1389 1392 1396 1401 1414 1428 1439 1455 1505 1526 1535 1568 1587 1590 1591 1591 1592 1593 1596 1599 1602 1605 1611 1616 1622 1626 1631 1633 1636 1638 1639 1641 1643 1647 1650 1652 1655 1657 1659 1662 1664 1666 1668 1671 1675 1679 1682 1684 1687 1691 1694 1696 1698 1699 1700 1700 1700 1700 1699 1696 1696 1696 1696 1696 1696 1696 1696 1698 1699 1702 1702 1704 1706 1708 1710 1712 1714 1717 1719 1720 1722 1724 1726 1727 1727 1727 1727 1727 1727 1726 1726 1726 1725 1724 1712 1712 1712 1721 1738 1773 1773 1773 1773 1751 1731 1729 0 0 0 0 0 0 0 0 0 2345 2325 2325 2325 2333 2333 2333 2312 2283 0 0 0 0 0 0 0 0 0 0 0 0 0 0 0 0 0 1468 1483 1498 1505 1505 1505 1491 1478 1473 1473 1473 1481 1481 1481 1477 1473 1466 1451 1439 1424 1410 1398 1390 1390 1387 1390 1391 1394 1394 1394 1382 1373 1364 1364 1364 1381 1385 1385 1385 1385 1385 1383 1376 1370 1366 1365 1365 1365 1390 1420 1420 1420 1411 1391 1378 1373 1367 1367 1366 1364 1357 1345 1334 1333 1320 1316 1313 1313 1316 1335 1355 1371 1376 1376 1376 1375 1365 1352 1336 1318 1301 1301 1301 1308 1339 1358 1358 1358 1341 1338 1326 1326 1326 1367 1367 1367 1359 1333 1333 1333 1338 1338 1338 1321 1298 1289 1288 1287 1286 1258 1242 1239 1238 1220 1220 1220 1221 1221 1221 1203 1183 0 1099 1099 1099 1136 1167 0 0 0 0 0 0 0 0 0 0 0 0 0 0 624 619 618 614 618 619 0 0 0 0 0 0 0 0 0 0 0 0 0 0 0 0 0 0 0 0 0 0 0 0 0 0 0 0 0 0 0 0 0 0 0 1359 1359 1359 1351 1332 1326 0 0 0 0 0 0 0 0 0 0 0 0 0 731 725 724 679 650 0 0 0 0 0 0 0 0 0 610 610 610 0 0 0 0 0 0 0 0 0 0 0 0 0 0 0 0 0 0 0 0 0 0 0 0 0 0 0 0 0 0 0 0 0 0 0 0 0 0 0 0 0 0 0 0 0 0 0 0 0 0 0 0 0 0 0 0 0 0 0 515 511 511 509 509 507 502 501 494 475 468 468 468 473 473 473 472 468 467 465 464 463 460 460 456 456 456 454 454 453 450 447 444 440 439 437 435 432 430 428 426 424 423 421 420 419 417 416 414 412 412 410 409 408 406 405 404 402 401 400 398 396 395 394 393 391 390 389 387 386 385 384 382 380 379 377 375 374 372 371 370 370 369 369 368 368
723 723 713 713 697 689 686 686 686 710 735 761 0 0 0 0 925 941 955 974 999 1014 1020 1022 1026 1033 1033 1033 1027 1027 1027 1036 1050 1079 1093 1107 1114 1119 1131 1141 1157 1183 1197 1214 1222 1239 1244 1266 1285 1302 1314 1328 1345 1364 1377 1388 1393 1405 1415 1421 1421 1427 1427 1427 0 0 0 0 0 0 0 0 0 0 0 0 1001 1029 1032 1043 1054 1067 1078 1090 1102 1121 1132 1132 1134 1134 1134 1148 1161 1171 1179 1185 1189 1194 1198 1207 1216 1224 1227 1232 1239 1248 1253 1258 1263 1268 1274 1281 1290 1297 1300 1301 1303 1306 1314 1326 1337 1338 1340 1342 1342 1342 1347 1351 1357 1361 1363 1363 1366 1370 1377 1384 1389 1392 1396 1400 1408 1426 1436 1453 1498 1519 1533 1558 1587 1589 1589 1590 1591 1592 1596 1598 1599 1602 1606 1612 1619 1624 1626 1631 1634 1635 1636 1637 1638 1644 1647 1651 1652 1654 1657 1660 1662 1664 1667 1670 1673 1676 1679 1683 1686 1690 1692 1693 1695 1697 1697 1697 1697 1696 1695 1694 1694 1693 1692 1692 1692 1692 1694 1696 1698 1700 1701 1703 1705 1707 1709 1711 1714 1716 1718 1719 1721 1723 1726 1726 1726 1725 1725 1725 1725 1725 1725 1726 1724 1724 1711 1711 1711 1721 1742 1780 1780 1780 1760 1714 1713 1703 0 0 0 0 0 0 0 0 2428 2428 2383 2350 2350 2334 2334 2334 2313 2283 2240 2240 2240 0 0 0 0 0 0 0 0 0 0 0 0 0 0 0 0 1498 1505 1505 1505 1491 1478 1473 1473 1473 1481 1481 1481 1478 1477 1475 1465 1452 1435 1418 1415 1415 1397 1397 1397 1403 1403 1403 1398 1387 1373 1362 1362 1362 1374 1380 1380 1382 1382 1380 1379 1376 1370 1366 1362 1362 1362 1390 1420 1420 1420 1410 1391 1378 1368 1363 1363 1361 1361 1357 1345 1326 1326 1316 1316 1314 1313 1316 1317 1334 1361 1361 1361 1350 1338 1334 1331 1327 1318 1296 1296 1296 1308 1339 1343 1343 1343 1332 1320 1316 1316 1316 1343 1350 1350 1350 1333 1326 1326 1325 1324 1321 1303 1289 1284 1280 1280 1274 1251 1239 1238 1236 1231 1228 1224 1221 1219 1216 1204 1194 0 1099 1099 1099 1136 1165 1193 0 0 0 0 0 0 0 0 0 0 0 0 0 0 619 619 619 619 630 0 0 0 0 0 0 0 0 0 0 0 0 0 0 0 0 0 0 0 0 0 0 0 0 0 0 0 0 0 0 0 0 0 0 0 1359 1359 1359 1348 1335 1326 0 0 0 0 0 0 0 0 0 0 0 0 0 0 0 0 0 0 0 0 0 0 0 0 0 0 0 0 0 0 0 0 0 0 0 0 0 0 0 0 0 0 0 0 0 0 0 0 0 0 0 0 0 0 0 0 0 0 0 0 0 0 0 0 0 0 0 0 0 0 0 0 0 0 0 0 0 0 0 0 0 0 0 0 0 0 0 0 0 517 511 511 510 508 507 498 490 484 473 465 465 465 469 469 469 469 468 465 462 461 458 458 456 456 454 453 452 450 450 448 444 441 439 437 434 432 431 428 426 424 422 421 419 418 416 415 413 412 410 409 408 407 406 404 404 403 401 399 398 396 395 394 393 392 390 389 388 387 385 384 382 380 379 377 376 375 373 371 370 369 369 368 368 367 367
739 739 732 732 713 690 686 686 686 710 737 753 771 0 0 0 924 941 952 973 997 1008 1011 1013 1021 1022 1022 1025 1026 1026 1027 1036 1050 1079 1093 1107 1117 1128 1141 1160 1181 1197 1208 1216 1231 1244 1248 1270 1288 1303 1315 1328 1346 1364 1378 1389 1405 1416 1416 1416 1410 1403 1401 1382 0 0 0 0 0 0 0 0 0 0 0 993 1016 1030 1043 1049 1064 1068 1079 1087 1100 1112 1121 1124 1124 1125 1131 1147 1161 1171 1179 1185 1189 1194 1198 1207 1216 1222 1227 1231 1236 1244 1252 1257 1262 1266 1272 1278 1285 1291 1295 1297 1298 1301 1310 1320 1330 1335 1337 1338 1340 1342 1347 1351 1354 1355 1356 1360 1365 1370 1377 1384 1388 1391 1395 1399 1407 1421 1434 1448 1482 1516 1529 1549 1562 1585 1587 1588 1590 1592 1596 1597 1599 1602 1605 1610 1615 1621 1624 1627 1630 1632 1633 1636 1637 1640 1645 1648 1650 1652 1655 1657 1661 1663 1665 1668 1672 1675 1678 1681 1685 1688 1690 1692 1693 1694 1694 1694 1693 1693 1692 1691 1691 1690 1689 1689 1689 1690 1691 1694 1696 1699 1700 1701 1704 1706 1709 1711 1713 1715 1716 1718 1719 1722 1724 1724 1724 1724 1724 1724 1724 1723 1723 1723 1721 1720 1711 1711 1711 1725 1752 1771 1771 1771 1725 1694 1688 0 0 0 0 0 0 0 0 2449 2449 2428 2397 2356 2356 2353 2350 2346 2313 2283 2245 2245 2245 2252 2252 0 0 0 0 0 0 0 0 0 0 0 0 0 0 0 0 1505 1505 1491 1478 1471 1471 1471 1471 1477 1478 1478 1477 1475 1465 1452 1435 1435 1433 1433 1423 1422 1422 1418 1418 1412 1405 1395 1384 1370 1365 1365 1365 1371 1371 1371 1371 1371 1379 1379 1379 1373 1361 1361 1361 1390 1411 1411 1411 1390 1376 1367 1361 1361 1361 1359 1359 1359 1345 1326 1326 1316 1316 1314 1313 1316 1317 1321 1334 1334 1334 1331 1330 1324 1324 1305 1279 1279 1279 1310 1333 1339 1339 1339 1324 1312 1311 1311 1312 1313 1324 1324 1324 1322 1303 1293 1293 1293 1293 1293 1292 1282 1282 1275 1273 1252 1240 1239 1233 1233 1233 1228 1228 1225 1222 1215 1205 1195 1173 1145 1144 1144 1144 1163 1180 0 0 0 0 0 0 0 0 0 0 0 0 0 0 0 614 614 614 0 0 0 0 0 0 0 0 0 0 0 0 0 0 0 0 0 0 0 0 0 0 0 0 0 0 0 0 0 0 0 0 0 0 0 0 1354 1354 1354 1347 1340 1329 0 0 0 0 0 0 0 0 0 0 0 0 0 0 0 0 0 0 0 0 0 0 0 0 0 0 0 0 0 0 0 0 0 0 0 0 0 0 0 0 0 0 0 0 0 0 0 0 0 0 0 0 0 0 0 0 0 0 0 0 0 0 0 0 0 0 0 0 0 0 0 0 0 0 0 0 0 0 0 0 0 0 0 0 0 0 0 0 0 517 509 509 508 508 507 498 489 481 469 465 465 465 468 468 468 465 463 461 458 457 455 454 453 452 451 449 448 447 446 444 442 439 436 434 432 430 428 426 424 423 420 418 417 416 414 413 412 410 408 407 406 405 404 403 402 401 399 399 397 396 395 393 391 390 389 388 387 386 384 382 381 379 377 376 375 373 371 370 369 369 368 368 367 367 367
752 752 743 743 730 727 716 716 716 722 737 753 758 0 0 0 911 941 951 968 985 999 1006 1012 1019 1020 1020 1025 1026 1027 1033 1047 1050 1079 1101 1116 1130 1144 1160 1181 1198 1212 1220 1225 1232 1245 1278 1283 1296 1308 1319 1331 1347 1364 1378 1392 1405 1416 1416 1416 1401 0 0 0 0 0 0 0 0 0 0 0 0 0 977 997 1016 1030 1043 1049 1064 1068 1079 1087 1097 1103 1108 1108 1109 1113 1128 1146 1161 1171 1179 1185 1188 1194 1198 1207 1214 1222 1226 1227 1232 1240 1250 1256 1261 1266 1271 1277 1282 1286 1288 1289 1291 1298 1308 1317 1325 1325 1327 1328 1328 1331 1341 1345 1346 1347 1352 1359 1363 1370 1375 1378 1384 1391 1395 1399 1403 1415 1425 1436 1473 1515 1527 1537 1550 1568 1580 1584 1587 1589 1591 1596 1599 1602 1605 1609 1613 1617 1620 1623 1627 1630 1633 1634 1635 1639 1642 1645 1647 1650 1652 1655 1659 1660 1664 1667 1670 1674 1677 1680 1683 1686 1688 1689 1690 1690 1691 1691 1691 1690 1688 1688 1688 1687 1687 1687 1687 1688 1689 1691 1694 1698 1699 1700 1703 1705 1708 1710 1713 1714 1715 1717 1718 1719 1723 1723 1723 1723 1723 1722 1722 1722 1719 1717 1717 1716 1711 1711 1711 1725 1763 1763 1763 1763 1710 0 0 0 0 0 0 0 0 0 2449 2449 2449 2428 2397 2387 2376 2371 2370 2356 2312 2275 2245 2245 2245 2252 2252 2252 0 0 0 0 0 0 0 0 0 0 0 0 0 0 0 0 0 0 0 0 0 0 0 0 0 0 0 1465 1465 1452 1437 1437 1437 1437 1437 1435 1435 1435 1435 1435 1424 1409 1397 1385 1370 1360 1355 1355 1355 1357 1357 1362 1376 1383 1383 1383 1371 1371 1371 1375 1391 1391 1391 1361 1348 1338 1338 1338 1338 1349 1349 1349 1345 1326 1326 1320 1319 1314 1314 1315 1315 1315 1319 1319 1324 1324 1319 1319 1319 1288 1278 1278 1278 1310 1333 1333 1333 1310 1297 1297 1297 1307 1307 1309 1309 1309 1305 1299 1267 0 0 0 0 0 0 1267 1267 1263 1263 1240 1240 1239 1233 1233 1233 1229 1228 1227 1220 1214 1209 1205 1188 1168 1150 1150 1150 1150 1150 1162 0 0 0 0 0 0 0 0 0 0 0 0 0 0 0 0 0 0 0 0 0 0 0 0 0 0 0 0 0 0 0 0 0 0 0 0 0 0 0 0 0 0 0 0 0 0 0 0 0 0 0 0 0 1347 1347 1347 1347 1347 1339 0 0 0 0 0 0 0 0 0 0 0 0 0 0 0 0 0 0 0 0 0 0 0 0 0 0 0 0 0 0 0 0 0 0 0 0 0 0 0 0 0 0 0 0 0 0 0 0 0 0 0 0 0 0 0 0 0 0 0 0 0 0 0 0 0 0 0 0 0 0 0 0 0 0 0 0 0 0 0 0 0 0 0 0 0 0 0 0 0 517 508 508 507 507 507 496 485 477 469 464 464 463 463 460 458 457 456 455 455 454 452 451 451 449 448 446 446 445 444 442 440 437 434 432 431 428 426 424 422 420 419 417 415 414 413 412 410 408 407 405 404 403 402 402 400 400 398 397 395 394 393 391 390 388 387 387 386 384 383 381 380 379 377 375 374 372 370 370 368 368 368 367 367 366 366
762 762 751 751 735 732 722 722 722 727 737 745 757 767 0 0 890 922 947 951 965 981 998 1009 1017 1020 1020 1025 1033 1040 1055 1073 1093 1098 1113 1130 1152 1167 1187 1200 1213 1227 1235 1242 1248 1259 1278 1288 1299 1309 1319 1331 1347 1364 1378 1392 1405 1405 1405 1402 0 0 0 0 0 0 0 0 0 0 0 0 0 0 977 999 1016 1029 1043 1049 1064 1068 1079 1085 1090 1096 1100 1101 1103 1109 1121 1139 1155 1165 1172 1183 1187 1194 1202 1207 1214 1222 1224 1224 1231 1236 1245 1254 1260 1265 1270 1274 1279 1282 1284 1285 1288 1295 1305 1314 1318 1318 1320 1320 1321 1325 1332 1336 1337 1341 1346 1356 1363 1368 1368 1371 1374 1380 1382 1384 1393 1405 1416 1428 1469 1508 1523 1537 1548 1561 1570 1576 1579 1584 1587 1591 1598 1602 1605 1608 1611 1614 1617 1620 1623 1627 1631 1632 1633 1636 1638 1642 1644 1647 1651 1654 1657 1660 1663 1666 1669 1673 1676 1679 1682 1685 1686 1686 1686 1687 1688 1688 1688 1687 1685 1684 1684 1684 1684 1684 1685 1686 1687 1689 1692 1695 1697 1698 1700 1702 1706 1709 1711 1713 1715 1715 1715 1716 1718 1719 1719 1719 1719 1719 1718 1716 1716 1716 1715 1714 1709 1709 1709 1725 1763 1763 1763 0 0 0 0 0 0 0 0 0 0 0 2433 2433 2433 2405 2404 2402 2397 2392 2378 2358 2322 2275 2245 2245 2245 2251 2251 2251 0 0 0 0 0 0 0 0 0 0 0 0 0 0 0 0 0 0 0 0 0 0 0 0 0 0 0 0 0 0 1421 1433 1437 1443 1443 1445 1445 1445 1445 1445 1443 1409 1397 1397 1375 1360 1355 1347 1347 1347 1349 1361 1373 1383 1383 1383 1383 1364 1364 1364 1364 1364 1352 1325 1317 1317 1316 1317 1317 1325 1345 1345 1345 1326 1326 1322 1322 1321 1321 1321 1317 1315 1313 1311 1311 1311 1310 1310 1301 1279 1275 1275 1275 1310 1310 1310 1295 1272 1261 1261 0 0 1304 1304 1304 1294 1282 1261 1229 1211 1201 1194 0 0 0 1223 1237 1237 1237 1237 1237 1237 1233 1233 1233 1229 1227 1227 1220 1214 1210 1205 1188 1168 1157 1156 1155 1150 1139 1119 1119 0 0 0 0 0 0 0 0 0 0 0 0 0 0 0 0 0 0 0 0 0 0 0 0 0 0 0 0 0 0 0 0 0 0 0 0 0 0 0 0 0 0 0 0 0 0 0 0 0 0 0 0 0 1325 1340 1346 1350 0 0 0 0 0 0 0 0 0 0 0 0 0 0 0 0 0 0 0 629 591 566 565 554 0 0 0 0 0 0 0 0 0 0 0 0 0 0 0 0 0 0 0 0 0 0 0 0 0 0 0 0 0 0 0 0 0 0 0 0 0 0 0 0 0 0 0 0 0 0 0 0 0 0 0 0 0 0 0 0 0 0 0 0 0 0 0 0 0 539 517 508 508 508 507 507 494 485 476 467 463 463 461 457 454 453 452 452 452 452 451 450 450 449 449 447 445 443 443 441 440 437 434 432 430 428 427 424 423 421 419 417 416 414 412 412 410 409 407 405 403 402 402 401 400 399 397 397 396 394 393 392 390 389 388 387 386 385 384 382 381 379 377 376 374 373 372 370 369 368 367 367 367 366 366 366
