835 835 850 871 889 900 911 930 948 965 983 997 1006 1014 1027 1036 1053 1069 1083 1092 1103 1115 1135 1145 1158 1167 1183 1188 1196 1207 1222 1228 1235 1248 1264 1281 1294 1305 1315 1327 1346 1360 1367 1369 1370 1373 1378 1384 1393 1407 1419 1429 1431 1434 1437 1442 1450 1456 1459 1463 1468 1472 1475 1479 1482 1484 1484 1484 1484 1482 1479 1476 1476 1475 1475 1475 1478 1482 1487 1487 1490 1493 1497 1510 1524 1533 1543 1549 1556 1561 1565 1569 1574 1577 1577 1578 1579 1579 1579 1579 1573 1563 1555 1540 1517 1493 0 0 0 0 0 0 1035 1029 1028 1028 1028 1029 1032 1033 1035 1035 1037 1038 1040 1041 1042 1042 1043 1043 1043 1042 1042 1041 1039 1036 1031 1022 1014 998 986 961 942 934 926 918 914 913 912 912 912 910 908 908 908 908 909 910 913 915 922 930 940 947 953 958 962 966 972 980 996 1021 1043 1058 1075 1085 1089 1102 1109 1110 1110 1111 1113 1116 1118 1120 1120 1120 1121 1121 1121 1119 1119 1116 1110 1109 1108 1107 1099 1074 1054 1044 1040 1040 1040 1041 1053 1067 1096 1127 1145 1153 1160 1168 1172 1175 1178 1180 1182 1183 1185 1187 1189 1191 1192 1194 1195 1197 1197 1199 1200 1201 1201 1201 1201 1201 1199 1199 1196 1192 1184 1162 1135 1106 1096 1096 1096 1096 1099 1104 1108 1116 1124 1128 1129 1139 1152 1162 1165 1168 1169 1180 1188 1196 1218 1236 1248 1260 1264 1266 1269 1271 1275 1277 1280 1281 1284 1285 1287 1289 1290 1291 1293 1295 1297 1298 1299 1300 1301 1302 1304 1306 1308 1309 1311 1312 1314 1316 1318 1318 1319 1319 1320 1322 1322 1323 1323 1323 1323 1323 1323 1323 1324 1324 1325 1331 1336 1336 1337 1338 1343 1344 1345 1347 1350 1351 1352 1354 1356 1358 1359 1360 1363 1365 1365 1367 1368 1369 1369 1369 1368 1365 1365 1364 1361 1356 1351 1349 1341 1331 1299 1298 1296 1296 1299 0 0 0 0 2661 2709 2748 2770 2777 2778 2807 2842 2849 2849 2855 2856 2856 2876 2893 2905 2915 2922 2922 2922 2928 2928 2924 2926 2926 2926 2924 2923 2908 2898 2896 2866 2851 2814 2800 2771 2734 0 0 0 0 0 1375 1375 1375 1393 1407 1407 1407 1386 1361 1345 1339 1339 1339 1339 1339 1339 1309 1292 1287 1281 1281 1274 1269 1269 1276 1276 1307 1343 1357 0 0 0 0 0 0 0 0 0 0 0 0 0 0 0 0 0 0 0 0 0 0 0 0 0 0 0 0 0 0 0 0 0 0 0 0 0 0 0 0 0 0 1763 1783 1783 1805 1838 1838 1838 1818 1791 0 0 0 0 0 0 0 0 0 0 0 0 0 0 0 0 0 0 0 0 0 0 0 0 0 0 0 0 0 0 0 0 0 0 0 0 0 0 0 0 0 0 0 0 0 0 0 0 0 0 0 1557 1582 1602 1612 1617 1617 1622 0 0 0 0 0 0 0 0 0 0 0 0 0 2082 2106 2107 2107 2106 2066 1994 1956 1956 1956 1970 1983 1992 2002 2022 2031 2033 2041 2041 2041 2036 1998 0 0 0 0 0 0 0 0 0 0 0 0 0 0 0 0 0 0 0 0 0 0 0 0 0 0 0 0 0 0 0 0 0 0 0 0 0 0 0 0 0 0 0 0 0 0 0 0 0 0 0 0 0 0 0 0 0 0 0 0 0 0 0 0 0 0
835 835 848 863 885 903 911 930 948 966 986 1004 1014 1021 1027 1036 1053 1070 1088 1092 1106 1118 1136 1152 1167 1178 1183 1194 1198 1207 1218 1228 1235 1247 1259 1277 1289 1302 1315 1326 1340 1353 1361 1365 1367 1371 1378 1382 1393 1407 1419 1427 1430 1432 1436 1439 1442 1448 1456 1462 1468 1472 1475 1479 1482 1483 1485 1486 1486 1486 1484 1481 1479 1477 1477 1477 1478 1481 1484 1484 1485 1488 1494 1506 1515 1526 1538 1546 1553 1559 1563 1567 1569 1573 1576 1576 1577 1579 1579 1579 1573 1563 1555 1546 1535 1515 0 0 0 0 0 0 1036 1029 1028 1027 1027 1027 1031 1034 1035 1035 1037 1038 1040 1041 1042 1042 1043 1043 1043 1043 1043 1041 1040 1037 1032 1022 1014 1009 995 966 947 934 926 920 916 913 913 913 912 909 907 907 907 907 907 908 910 914 919 926 933 945 953 958 962 966 970 977 993 1010 1034 1052 1074 1089 1092 1102 1109 1110 1110 1110 1113 1115 1115 1115 1116 1116 1115 1114 1112 1110 1109 1106 1095 1083 1069 1051 1043 1039 1029 1029 1029 1030 1035 1038 1052 1062 1094 1122 1145 1153 1160 1169 1173 1176 1178 1180 1182 1184 1186 1188 1189 1191 1192 1194 1196 1197 1198 1199 1201 1202 1202 1203 1203 1203 1200 1199 1198 1194 1184 1165 1138 1107 1096 1096 1096 1096 1100 1112 1120 1124 1134 1139 1142 1151 1158 1164 1174 1182 1189 1201 1204 1209 1225 1246 1252 1261 1264 1268 1270 1271 1275 1278 1280 1281 1284 1286 1287 1288 1290 1291 1293 1294 1296 1297 1299 1300 1301 1302 1304 1305 1307 1309 1310 1312 1314 1315 1317 1317 1318 1319 1319 1320 1321 1321 1321 1322 1322 1322 1322 1322 1321 1321 1321 1329 1332 1335 1336 1337 1339 1343 1345 1347 1349 1351 1352 1354 1355 1356 1356 1359 1362 1364 1365 1367 1368 1369 1369 1369 1368 1365 1365 1363 1360 1353 1351 1349 1339 1331 1299 1298 1298 1299 0 0 0 0 2647 2748 2761 2775 2787 2805 2820 2835 2855 2859 2859 2865 2865 2868 2885 2908 2921 2930 2940 2951 2951 2951 2941 2941 2941 2946 2946 2946 2943 2936 2930 2923 2910 2854 2814 2800 2757 2558 0 0 0 0 0 1375 1375 1375 1393 1408 1432 1432 1432 1395 1360 1339 1339 1339 1351 1351 1351 1309 1286 1286 1281 1281 1274 1269 1269 1276 1276 1307 1325 0 0 0 0 0 0 0 0 0 0 0 0 0 0 0 0 0 0 0 0 0 0 0 0 0 0 0 0 0 0 0 0 0 0 0 0 0 0 0 0 0 0 0 0 0 1748 1797 1838 1838 1838 1809 1774 0 0 0 0 0 0 0 0 0 0 0 0 0 0 0 0 0 0 0 0 0 0 0 0 0 0 0 0 0 0 0 0 0 0 0 0 0 0 0 0 0 0 0 0 0 0 0 0 0 0 0 1531 1561 1581 1603 1612 1617 1622 0 0 0 0 0 0 0 0 0 0 0 0 0 2058 2060 2076 2076 2076 2060 2000 1970 1970 1970 1971 1984 1998 2017 2038 2040 2041 2042 2041 2041 2036 1998 0 0 0 0 0 0 0 0 0 0 0 0 0 0 0 0 0 0 0 0 0 0 0 0 0 0 0 0 0 0 0 0 0 0 0 0 0 0 0 0 0 0 0 0 0 0 0 0 0 0 0 0 0 0 0 0 0 0 0 0 0 0 0 0 0 0
835 835 848 862 884 903 911 930 948 966 987 1006 1020 1026 1027 1036 1051 1070 1088 1098 1111 1125 1138 1157 1176 1187 1194 1195 1198 1207 1216 1227 1235 1243 1254 1266 1281 1294 1312 1324 1335 1347 1356 1359 1363 1369 1378 1382 1393 1407 1418 1425 1429 1432 1436 1439 1442 1448 1455 1462 1468 1472 1475 1479 1481 1484 1486 1489 1489 1489 1489 1488 1485 1482 1481 1480 1480 1480 1481 1481 1481 1483 1488 1497 1508 1521 1533 1541 1549 1554 1559 1563 1567 1570 1573 1576 1577 1578 1578 1578 1573 1563 1558 1549 1545 1525 0 0 0 0 0 0 1037 1028 1028 1024 1024 1024 1031 1035 1035 1035 1036 1038 1040 1041 1042 1043 1044 1044 1044 1043 1043 1041 1040 1038 1033 1027 1023 1017 998 969 947 936 936 926 919 915 913 913 912 909 907 907 907 907 907 907 910 913 917 922 927 935 945 950 951 955 959 973 987 1003 1021 1046 1074 1089 1092 1102 1108 1109 1110 1110 1111 1111 1111 1110 1108 1106 1103 1103 1098 1098 1098 1090 1078 1055 1034 1026 1025 1024 1024 1023 1023 1023 1032 1038 1047 1058 1086 1120 1139 1153 1161 1169 1173 1176 1178 1180 1183 1185 1187 1189 1190 1191 1193 1194 1197 1197 1199 1200 1202 1202 1203 1203 1203 1203 1203 1202 1202 1198 1184 1169 1145 1115 1096 1096 1096 1096 1102 1118 1132 1138 1142 1146 1149 1156 1168 1185 1197 1203 1207 1221 1224 1233 1249 1255 1258 1262 1266 1269 1271 1273 1275 1278 1280 1282 1284 1286 1287 1288 1290 1291 1292 1294 1296 1297 1298 1300 1301 1302 1304 1305 1306 1308 1310 1311 1313 1315 1315 1316 1317 1318 1318 1319 1319 1320 1320 1320 1321 1320 1320 1320 1320 1320 1321 1323 1329 1333 1334 1335 1338 1343 1345 1347 1348 1350 1352 1354 1355 1356 1356 1357 1360 1360 1363 1367 1369 1370 1370 1370 1370 1365 1364 1363 1356 1352 1351 1345 1341 1331 1298 1296 1296 1296 0 0 0 0 2687 2758 2766 2776 2791 2806 2825 2844 2855 2859 2865 2866 2868 2893 2903 2913 2922 2930 2940 2951 2951 2951 2941 2941 2941 2946 2946 2946 2945 2943 2942 2935 2910 2854 2808 2759 2668 2557 0 0 0 0 0 0 1387 1387 1387 1408 1447 1447 1447 1434 1360 1335 1335 1335 1351 1351 1351 1309 1260 1249 1249 1249 1249 1249 1268 1268 1272 1279 1279 0 0 0 0 0 0 0 0 0 0 0 0 0 0 0 0 0 0 0 0 0 0 0 0 0 0 0 0 0 0 0 0 0 0 0 0 0 0 0 0 0 0 0 0 0 0 1794 1832 1832 1832 1801 1766 0 0 0 0 0 0 0 0 0 0 0 0 0 0 0 0 0 0 0 0 0 0 0 0 0 0 0 0 0 0 0 0 0 0 0 0 0 0 0 0 0 0 0 0 0 0 0 0 0 0 0 0 1550 1555 1577 1593 1593 1612 0 0 0 0 0 0 0 0 0 0 0 0 2038 2046 2056 2057 2057 2056 2048 2018 1982 1981 1981 1982 1987 2008 2029 2048 2066 2068 2068 2068 2058 2057 2011 0 0 0 0 0 0 0 0 0 0 0 0 0 0 0 0 0 0 0 0 0 0 0 0 0 0 0 0 0 0 0 0 0 0 0 0 0 0 0 0 0 0 0 0 0 0 0 0 0 0 0 0 0 0 0 0 0 0 0 0 0 0 0 0 0 0
836 836 848 862 881 903 911 926 948 966 987 1006 1020 1026 1027 1036 1051 1070 1088 1098 1111 1125 1138 1157 1176 1187 1194 1195 1199 1207 1214 1224 1235 1243 1251 1261 1279 1294 1312 1322 1332 1343 1351 1357 1361 1369 1378 1382 1395 1407 1418 1425 1429 1432 1436 1439 1442 1448 1454 1462 1468 1472 1477 1479 1481 1484 1486 1489 1493 1494 1494 1494 1494 1492 1489 1484 1480 1478 1478 1478 1478 1482 1484 1495 1504 1515 1525 1537 1543 1550 1555 1559 1564 1569 1570 1570 1574 1575 1575 1575 1573 1563 1555 1549 1545 1525 1488 0 0 0 0 0 0 1028 1028 1023 1023 1023 1029 1035 1035 1035 1036 1038 1039 1041 1042 1043 1044 1044 1044 1043 1043 1042 1041 1038 1035 1032 1029 1021 1007 979 949 939 937 926 919 916 913 913 911 908 906 906 906 907 907 907 910 913 914 917 921 929 936 940 942 946 958 973 986 995 1015 1045 1073 1089 1092 1101 1105 1109 1109 1110 1110 1110 1110 1100 1099 1097 1093 1091 1088 1088 1084 1059 1050 1031 1017 1014 1011 1011 1011 1014 1015 1019 1025 1036 1046 1055 1085 1115 1137 1153 1162 1169 1174 1177 1178 1181 1183 1185 1187 1189 1190 1192 1194 1196 1197 1198 1199 1201 1202 1203 1203 1205 1205 1205 1205 1204 1203 1200 1190 1176 1154 1127 1103 1103 1103 1104 1110 1129 1147 1150 1153 1154 1164 1180 1194 1205 1215 1219 1233 1245 1250 1253 1258 1260 1261 1263 1268 1270 1273 1275 1276 1278 1280 1282 1284 1286 1287 1288 1289 1291 1292 1294 1296 1297 1298 1299 1301 1302 1303 1304 1305 1308 1309 1310 1312 1313 1314 1315 1315 1317 1318 1319 1319 1320 1319 1319 1318 1313 1312 1307 1307 1307 1316 1320 1322 1322 1333 1335 1338 1343 1345 1347 1347 1350 1352 1354 1354 1355 1356 1356 1357 1357 1360 1367 1370 1371 1371 1370 1370 1366 1365 1363 1356 1352 1351 1345 1341 1328 1310 1304 1303 1303 0 0 0 0 2728 2768 2772 2776 2794 2812 2825 2844 2855 2859 2865 2866 2871 2893 2903 2913 2922 2930 2940 2951 2951 2951 2941 2941 2941 2946 2946 2947 2947 2946 2943 2935 2910 2854 2782 2734 2580 0 0 0 0 0 0 0 0 1387 1387 1408 1447 1447 1447 0 0 0 0 0 0 0 0 0 1257 1228 1228 1228 1237 1237 1251 1259 1250 1250 1250 0 0 0 0 0 0 0 0 0 0 0 0 0 0 0 0 0 0 0 0 0 0 0 0 0 0 0 0 0 0 0 0 0 0 0 0 0 0 0 0 0 0 0 0 0 0 0 1812 1812 1812 1783 1766 0 0 0 0 0 0 0 0 0 0 0 0 0 0 0 0 0 0 0 0 0 0 0 0 0 0 0 0 0 0 0 0 0 0 0 0 0 0 0 0 0 0 0 0 0 0 0 0 0 0 0 0 0 1544 1548 1569 1570 1571 0 0 0 0 0 0 0 0 0 0 0 0 2038 2044 2053 2056 2056 2053 2046 2030 2018 2008 2001 2001 2001 2019 2044 2070 2087 2114 2114 2114 2093 2057 2022 0 0 0 0 0 0 0 0 0 0 0 0 0 0 0 0 0 0 0 0 0 0 0 0 0 0 0 0 911 911 911 911 0 0 0 0 0 0 0 0 0 0 0 0 0 0 0 0 0 0 0 0 0 0 0 0 0 0 0 0 0 0 0 0 0 0
837 837 850 862 881 903 919 924 943 966 987 1006 1020 1024 1024 1026 1032 1056 1083 1098 1111 1125 1138 1157 1176 1187 1194 1194 1199 1207 1214 1223 1233 1241 1249 1261 1279 1294 1312 1322 1331 1339 1348 1353 1360 1368 1380 1391 1397 1408 1418 1425 1429 1434 1438 1441 1444 1449 1454 1462 1469 1473 1477 1479 1481 1484 1487 1493 1496 1497 1499 1499 1499 1496 1492 1488 1482 1478 1476 1476 1476 1479 1484 1488 1499 1508 1518 1531 1537 1544 1550 1556 1562 1565 1567 1568 1569 1570 1570 1570 1567 1563 1555 1546 1545 1525 1485 0 0 0 0 0 0 1028 1028 1022 1022 1022 1029 1035 1035 1035 1036 1038 1039 1041 1042 1043 1044 1044 1044 1044 1043 1042 1042 1039 1038 1034 1030 1022 1009 984 950 942 939 926 922 916 913 909 908 908 907 907 907 907 907 908 911 913 914 915 917 923 929 931 938 944 955 971 985 991 1008 1036 1059 1077 1090 1098 1099 1104 1104 1104 1104 1103 1101 1098 1097 1094 1088 1074 1043 1036 1033 1025 1016 1012 1010 1002 1002 1002 1008 1012 1014 1017 1020 1027 1031 1055 1085 1115 1133 1153 1163 1170 1175 1178 1178 1181 1183 1185 1187 1189 1191 1192 1194 1196 1197 1199 1200 1201 1203 1203 1204 1205 1206 1207 1207 1207 1205 1202 1198 1184 1169 1143 1117 1117 1117 1123 1132 1141 1151 1162 1169 1180 1201 1216 1220 1224 1230 1233 1240 1251 1254 1256 1258 1260 1263 1266 1269 1270 1273 1275 1276 1278 1280 1282 1284 1285 1286 1288 1289 1290 1292 1293 1295 1296 1298 1299 1300 1302 1303 1304 1305 1307 1308 1310 1311 1312 1313 1314 1315 1316 1317 1317 1318 1318 1318 1318 1316 1312 1306 1298 1298 1298 1311 1311 1320 1321 1328 1335 1338 1341 1345 1347 1347 1350 1352 1353 1353 1353 1352 1351 1351 1351 1354 1367 1371 1371 1372 1372 1371 1369 1366 1363 1356 1352 1351 1345 1341 1314 1296 1296 1296 1311 0 0 0 0 2728 2768 2772 2776 2794 2812 2825 2844 2844 2844 2848 2856 2877 2893 2903 2913 2922 2930 2936 2936 2936 2935 2932 2932 2932 2946 2946 2947 2947 2946 2945 2935 2904 2827 2760 2645 0 0 0 0 0 0 0 0 0 0 0 0 0 0 0 0 0 0 0 0 0 0 0 1305 1247 1228 1228 1228 1236 1239 1248 1248 1248 1248 0 0 0 0 0 0 0 0 0 0 0 0 0 0 0 0 0 0 0 0 0 0 0 0 0 0 0 0 0 0 0 0 0 0 0 0 0 0 0 0 0 0 0 0 0 0 0 0 1787 1787 1787 1777 1759 0 0 0 0 0 0 0 0 0 0 0 0 0 0 0 0 0 0 0 0 0 0 0 0 0 0 0 0 0 0 0 0 0 0 0 0 0 0 0 0 0 0 0 0 0 0 0 0 0 0 0 0 0 0 1540 1540 1540 0 0 0 0 0 0 0 0 0 0 0 0 0 2038 2043 2049 2049 2049 2034 2030 2028 2028 2028 2028 2028 2033 2033 2057 2087 2119 2138 2138 2138 2094 2063 2047 0 0 0 0 0 0 0 0 0 0 0 0 0 0 0 0 0 0 0 0 0 0 0 0 0 0 0 923 911 911 910 906 906 0 0 0 0 0 0 0 0 0 0 0 0 0 0 0 0 0 0 0 0 0 0 0 0 0 0 0 0 0 0 0 0 0
837 837 851 867 881 903 919 924 938 954 974 998 1015 1016 1018 1019 1032 1051 1072 1094 1100 1119 1135 1152 1170 1179 1180 1192 1199 1204 1214 1223 1234 1241 1247 1261 1279 1298 1308 1320 1329 1336 1344 1350 1359 1367 1380 1391 1399 1408 1420 1425 1429 1434 1438 1441 1445 1450 1454 1462 1471 1476 1479 1484 1485 1488 1490 1496 1499 1499 1500 1500 1500 1496 1492 1488 1483 1478 1475 1475 1475 1479 1484 1488 1492 1504 1517 1527 1534 1538 1544 1551 1556 1560 1563 1566 1566 1566 1566 1566 1562 1557 1550 1541 1520 1519 1485 1462 0 0 0 0 0 1038 1028 1022 1022 1022 1028 1033 1035 1036 1037 1038 1039 1041 1042 1043 1044 1044 1044 1044 1044 1044 1043 1042 1039 1036 1031 1028 1011 988 957 942 939 926 922 916 911 907 906 906 906 906 907 908 913 915 915 915 916 916 917 922 927 931 938 944 953 969 981 989 997 1024 1057 1074 1084 1091 1092 1093 1094 1095 1095 1095 1091 1084 1080 1074 1045 1024 1014 1011 1011 1011 1003 1001 1000 1000 1000 1001 1006 1012 1013 1016 1018 1023 1031 1055 1086 1114 1133 1156 1165 1172 1178 1179 1180 1181 1183 1185 1187 1190 1191 1193 1194 1196 1197 1199 1200 1202 1203 1204 1205 1205 1207 1208 1208 1208 1207 1205 1199 1187 1171 1154 1135 1135 1135 1139 1141 1144 1152 1177 1184 1198 1212 1220 1233 1239 1241 1242 1244 1251 1255 1257 1258 1261 1264 1266 1269 1271 1273 1275 1276 1278 1280 1281 1283 1285 1286 1287 1289 1290 1292 1293 1295 1295 1297 1298 1300 1301 1302 1303 1305 1306 1307 1309 1310 1312 1313 1313 1314 1315 1315 1317 1317 1317 1317 1317 1312 1309 1306 1298 1298 1298 1311 1311 1314 1321 1328 1337 1339 1341 1344 1347 1347 1350 1352 1352 1352 1351 1348 1348 1348 1351 1354 1360 1371 1375 1375 1375 1373 1371 1369 1366 1365 1363 1360 1359 1342 1328 1314 1314 1314 0 0 0 0 2512 2728 2768 2772 2773 2794 2806 2807 2810 2810 2830 2843 2856 2877 2890 2901 2907 2914 2927 2936 2936 2936 2935 2932 2932 2932 2946 2946 2947 2947 2946 2945 2932 2860 2783 2707 2608 0 0 0 0 0 0 0 0 1372 1367 1346 0 0 0 0 0 0 1288 1255 1255 1255 1273 1273 1273 1223 1223 1223 1228 1234 1236 1248 1248 1248 0 0 0 0 0 0 0 0 0 0 0 0 0 0 0 0 0 0 0 0 0 0 0 0 0 0 0 0 0 0 0 0 0 0 0 0 0 0 0 0 0 0 0 0 0 0 0 0 0 1730 1738 1740 1740 1740 0 0 0 0 0 0 0 0 0 0 0 0 0 0 0 0 0 0 0 0 0 0 0 0 0 0 0 0 0 0 0 0 0 0 0 0 0 0 0 0 0 0 0 0 0 0 0 0 0 0 0 0 0 0 0 0 0 0 0 0 0 0 0 0 0 0 0 0 0 0 1996 2043 2049 2049 2049 2030 2030 2030 2031 2043 2043 2043 2044 2044 2071 2111 2148 2148 2148 2143 2099 2068 2060 0 0 0 0 0 0 0 0 0 0 0 0 0 0 0 0 0 0 0 0 0 0 0 0 0 0 930 930 923 923 911 905 905 0 0 0 0 0 0 0 0 0 0 0 0 0 0 0 0 0 0 0 0 0 0 0 0 0 0 0 0 0 0 0 0 0
838 838 851 867 882 899 919 924 935 949 962 979 995 1008 1012 1019 1031 1049 1071 1088 1097 1109 1128 1146 1162 1172 1179 1185 1192 1203 1214 1223 1234 1243 1247 1264 1282 1298 1308 1319 1326 1331 1338 1344 1355 1367 1380 1391 1399 1408 1420 1425 1429 1434 1438 1441 1445 1452 1461 1470 1475 1479 1481 1484 1485 1488 1490 1496 1499 1499 1500 1500 1500 1496 1492 1488 1483 1477 1475 1475 1475 1479 1484 1488 1492 1502 1514 1523 1530 1535 1539 1544 1550 1554 1559 1562 1563 1563 1563 1560 1555 1551 1540 1530 1515 1514 1488 1464 0 0 0 0 0 1042 1031 1022 1022 1022 1028 1033 1036 1036 1037 1038 1039 1041 1042 1043 1045 1045 1045 1045 1045 1044 1043 1043 1040 1036 1031 1028 1013 999 976 951 938 925 922 916 910 905 905 905 905 905 907 909 914 917 917 917 917 917 917 922 927 931 938 944 953 969 981 989 997 1024 1053 1071 1082 1085 1085 1085 1078 1078 1077 1072 1072 1068 1061 1050 1033 1016 993 992 992 992 992 992 992 992 992 996 1002 1011 1011 1014 1018 1023 1031 1057 1086 1111 1133 1156 1166 1173 1178 1179 1180 1181 1183 1185 1187 1190 1191 1193 1195 1196 1197 1199 1201 1203 1204 1204 1205 1207 1208 1208 1208 1208 1208 1207 1202 1188 1173 1163 1158 1158 1155 1155 1158 1161 1173 1202 1210 1216 1226 1233 1241 1244 1245 1245 1248 1251 1256 1258 1259 1262 1265 1267 1269 1271 1272 1274 1276 1278 1280 1281 1283 1285 1286 1287 1288 1289 1292 1293 1294 1295 1296 1297 1299 1300 1301 1303 1304 1305 1306 1309 1309 1311 1312 1313 1313 1314 1314 1314 1317 1317 1317 1307 1292 1290 1284 1284 1290 1296 1311 1311 1314 1322 1330 1337 1339 1341 1342 1345 1346 1350 1352 1352 1352 1348 1348 1348 1348 1351 1354 1360 1371 1377 1377 1377 1374 1372 1371 1371 1371 1375 1375 1375 1366 1332 1332 1332 0 0 0 0 0 2655 2721 2731 2743 2759 2781 2783 2784 2791 2810 2830 2843 2856 2877 2889 2894 2898 2909 2924 2936 2936 2936 2935 2935 2935 2943 2948 2948 2948 2945 2945 2942 2914 2838 2754 2683 2525 0 0 0 0 0 0 0 1355 1339 1315 1308 1308 1308 1332 1332 1332 1299 1288 1255 1244 1244 1244 1244 1244 1223 1223 1223 1223 1223 1228 1240 1248 0 0 0 0 0 0 0 0 0 0 0 0 0 0 0 0 0 0 0 0 0 0 0 0 0 0 0 0 0 0 0 0 0 0 0 0 0 0 0 0 0 0 0 0 0 1591 1599 1599 1628 1661 1688 1718 1724 1724 0 0 0 0 0 0 0 0 0 0 0 0 0 0 0 0 0 0 0 0 0 0 0 0 0 0 0 0 0 0 0 0 0 0 0 0 0 0 0 0 0 0 0 0 0 0 0 0 0 0 0 0 0 0 0 0 0 0 0 0 0 0 0 0 0 0 0 0 0 0 1981 1996 2046 2049 2049 2049 2019 2019 2019 2034 2052 2052 2052 2060 2060 2087 2132 2172 2172 2172 2147 2101 2099 2060 0 0 0 0 0 0 0 0 0 0 0 0 0 0 0 0 0 0 0 0 0 0 0 0 0 900 917 917 913 913 913 911 905 0 0 0 0 0 0 0 0 0 0 0 0 0 0 0 0 0 0 0 0 0 0 0 0 0 0 0 0 0 0 0 0 0
839 839 851 867 882 899 915 923 931 943 955 968 986 1000 1011 1017 1028 1048 1070 1085 1092 1102 1115 1135 1157 1168 1176 1180 1188 1203 1214 1223 1233 1243 1249 1264 1282 1298 1308 1315 1321 1328 1334 1339 1354 1364 1378 1390 1397 1407 1420 1425 1428 1431 1435 1440 1445 1452 1461 1470 1475 1479 1481 1484 1485 1488 1490 1496 1499 1499 1499 1499 1499 1496 1491 1488 1483 1476 1474 1474 1474 1479 1484 1486 1492 1500 1508 1516 1523 1529 1534 1540 1542 1548 1552 1556 1558 1558 1558 1554 1549 1539 1532 1524 1511 1495 1488 1472 0 0 0 0 0 1044 1031 1022 1022 1022 1028 1033 1036 1037 1038 1038 1040 1041 1042 1043 1045 1045 1045 1045 1045 1045 1044 1043 1040 1038 1034 1028 1015 1000 979 951 937 923 921 912 907 905 905 905 905 905 907 909 914 918 918 918 918 918 919 922 927 935 942 945 953 969 981 989 997 1024 1044 1066 1074 1074 1074 1070 1069 1066 1064 1059 1052 1040 1026 1015 1005 992 988 987 985 985 984 984 984 988 989 993 995 996 1002 1011 1018 1023 1038 1057 1085 1109 1135 1152 1165 1173 1178 1179 1180 1181 1183 1185 1187 1190 1191 1193 1195 1196 1197 1199 1201 1203 1205 1205 1206 1207 1209 1209 1209 1209 1209 1209 1206 1196 1192 1191 1185 1178 1178 1178 1178 1190 1205 1216 1225 1230 1235 1240 1242 1246 1246 1247 1251 1254 1256 1258 1260 1262 1265 1267 1269 1271 1272 1274 1276 1278 1280 1281 1283 1284 1285 1286 1288 1289 1291 1292 1294 1295 1295 1297 1298 1299 1301 1302 1302 1304 1305 1306 1309 1311 1312 1312 1313 1313 1313 1314 1316 1316 1316 1302 1292 1289 1284 1284 1289 1289 1308 1313 1314 1325 1333 1340 1341 1342 1342 1345 1345 1348 1348 1348 1344 1344 1344 1348 1350 1352 1355 1360 1371 1378 1379 1380 1381 1380 1379 1379 1375 1375 1375 1376 0 0 0 0 0 0 0 0 2584 2665 2686 2708 2724 2748 2771 2781 2783 2783 2810 2830 2861 2875 2883 2886 2887 2890 2902 2923 2936 2936 2936 2939 2939 2944 2955 2962 2962 2962 2950 2943 2918 2868 2813 2739 2638 0 0 0 0 0 1348 1340 1340 1329 1321 1314 1293 1293 1293 1311 1311 1311 1310 1302 1299 1268 1242 1222 1213 1213 1213 1218 1223 1223 1218 1201 0 0 0 0 0 0 0 0 0 0 0 0 0 0 0 0 0 0 0 0 0 0 0 0 0 0 0 0 0 0 0 0 0 0 0 0 0 0 0 0 0 0 0 0 0 0 1588 1591 1599 1599 1628 1661 1688 1714 0 0 0 0 0 0 0 0 0 0 0 0 0 0 0 0 0 0 0 0 0 0 0 0 0 0 0 0 0 0 0 0 0 0 0 0 0 0 0 0 0 0 0 0 0 0 0 0 0 0 0 0 0 0 0 0 0 0 1349 0 1349 0 0 0 0 0 0 0 0 0 0 0 1963 1996 2054 2054 2054 2052 2019 2019 2019 2034 2061 2063 2064 2080 2080 2106 2150 2171 2171 2171 2147 2116 2113 2081 0 0 0 0 0 0 0 0 0 0 0 0 0 0 0 0 0 0 0 0 0 0 0 0 0 857 893 898 917 917 917 911 905 0 0 0 0 0 0 0 0 0 0 0 0 0 0 0 0 0 0 0 0 0 0 0 0 0 0 0 0 0 0 0 0 0
839 839 850 864 882 899 910 923 931 940 952 966 986 1000 1010 1017 1028 1048 1066 1079 1089 1097 1105 1121 1147 1164 1172 1178 1187 1201 1214 1222 1232 1241 1250 1264 1282 1291 1300 1308 1315 1324 1333 1337 1346 1362 1376 1388 1397 1402 1412 1423 1425 1427 1430 1434 1443 1452 1461 1470 1475 1479 1481 1482 1484 1486 1489 1490 1493 1493 1494 1495 1495 1495 1490 1487 1481 1476 1474 1474 1474 1479 1484 1486 1491 1495 1502 1509 1517 1522 1530 1533 1535 1538 1544 1545 1545 1545 1544 1542 1542 1536 1528 1518 1509 1495 1485 1472 0 0 0 0 0 0 1034 1023 1023 1023 1028 1033 1036 1037 1038 1039 1040 1041 1042 1043 1045 1045 1045 1045 1045 1045 1044 1043 1041 1040 1038 1031 1018 1004 990 951 929 918 912 907 906 905 905 905 905 905 907 909 915 919 920 920 921 921 924 927 933 943 950 951 954 970 985 998 1012 1027 1053 1060 1060 1060 1065 1061 1056 1056 1047 1023 1013 1001 997 996 991 984 983 982 982 979 979 979 980 985 989 992 994 996 1002 1009 1017 1023 1038 1057 1080 1109 1135 1150 1163 1173 1177 1178 1180 1181 1183 1185 1187 1190 1191 1193 1195 1197 1198 1199 1202 1203 1205 1206 1207 1208 1210 1210 1210 1210 1210 1210 1210 1210 1210 1209 1208 1198 1198 1198 1203 1212 1220 1226 1232 1238 1240 1242 1244 1247 1248 1250 1253 1255 1256 1260 1261 1263 1266 1267 1269 1271 1272 1274 1276 1277 1279 1281 1282 1284 1284 1286 1287 1288 1290 1292 1293 1294 1295 1296 1297 1299 1299 1301 1302 1302 1303 1304 1307 1311 1311 1311 1310 1310 1310 1314 1316 1316 1316 1297 1292 1286 1283 1283 1286 1289 1302 1338 1338 1341 1341 1341 1341 1342 1343 1342 1342 1343 1343 1342 1344 1344 1344 1351 1353 1355 1359 1363 1371 1380 1385 1385 1394 1385 1382 1382 1383 1383 1383 0 0 0 0 0 0 0 0 2555 2661 2668 2686 2706 2724 2748 2770 2777 2780 2781 2810 2837 2861 2875 2875 2880 2883 2883 2894 2919 2936 2942 2946 2947 2948 2950 2957 2971 2971 2971 2951 2933 2895 2842 2798 2734 2570 0 0 0 0 1352 1348 1345 1316 1311 1309 1307 1290 1279 1279 1279 1280 1310 1310 1310 1302 1268 1242 1210 1165 1165 0 0 0 0 0 1176 1152 1144 1142 1138 1142 1132 1131 0 0 0 0 0 0 0 0 0 0 0 0 0 0 0 0 0 0 0 0 623 623 623 623 623 639 641 645 0 0 0 0 0 0 0 0 0 0 0 1602 1605 1620 1620 1628 1661 1688 1688 0 0 0 0 0 0 0 0 0 0 0 0 0 0 0 0 0 0 0 0 0 0 0 0 0 0 0 0 0 0 0 0 0 0 0 0 0 0 0 0 0 0 0 0 0 0 0 0 0 0 0 0 0 0 0 0 0 1343 1349 1349 1343 1343 1326 0 0 0 0 0 0 0 0 0 1963 2013 2054 2054 2054 2052 2020 2020 2020 2050 2076 2088 2090 2100 2100 2118 2164 2171 2171 2171 2147 2116 2113 2081 0 0 0 0 0 0 0 0 0 0 0 0 0 0 0 0 0 0 0 0 0 0 0 0 0 856 871 885 917 931 931 931 915 0 0 0 0 0 0 0 0 0 0 0 0 0 0 0 0 0 0 0 0 0 0 0 0 0 0 0 0 0 0 0 0 0
841 841 850 861 878 893 908 922 927 938 951 966 985 1000 1009 1016 1026 1040 1057 1072 1086 1094 1103 1115 1135 1154 1165 1173 1185 1198 1214 1221 1227 1240 1250 1261 1276 1289 1298 1301 1309 1310 1316 1330 1346 1362 1372 1386 1394 1401 1405 1409 1411 1415 1421 1428 1438 1447 1456 1464 1469 1475 1479 1479 1480 1481 1484 1488 1491 1491 1492 1492 1492 1490 1486 1483 1479 1474 1473 1473 1473 1475 1481 1484 1489 1492 1498 1504 1509 1515 1522 1525 1526 1526 1526 1529 1534 1535 1535 1535 1532 1529 1526 1517 1508 1494 1485 1472 0 0 0 0 0 0 1036 1023 1023 1023 1027 1033 1036 1037 1038 1039 1040 1041 1042 1043 1045 1046 1046 1046 1046 1046 1045 1044 1043 1041 1039 1035 1024 1011 990 954 929 916 908 906 905 905 906 907 907 908 909 909 915 922 924 925 928 928 929 932 939 949 951 954 961 987 1007 1024 1033 1036 1054 1060 1060 1060 1049 1025 1022 1017 997 980 980 980 980 981 982 982 982 980 978 978 978 978 978 983 986 990 992 995 1002 1008 1016 1023 1038 1057 1067 1098 1135 1150 1154 1164 1171 1177 1179 1181 1183 1185 1187 1190 1192 1193 1195 1197 1198 1200 1202 1204 1205 1207 1207 1209 1210 1211 1211 1211 1211 1211 1212 1213 1213 1212 1208 1208 1208 1212 1219 1221 1227 1234 1237 1239 1243 1246 1246 1248 1250 1252 1253 1255 1258 1260 1262 1264 1266 1267 1269 1271 1272 1274 1275 1277 1278 1280 1282 1283 1284 1285 1287 1288 1289 1291 1292 1293 1295 1295 1296 1298 1299 1300 1301 1302 1303 1304 1305 1310 1310 1310 1309 1306 1306 1303 1303 1301 1300 1300 1300 1297 1283 1279 1250 1250 0 0 0 1384 1363 1345 1344 1344 1344 1343 1343 1343 1343 1342 1344 1347 1350 1359 1385 1385 1385 1387 1387 1387 1393 1393 1405 1393 1384 1384 1390 1390 0 0 0 0 0 0 0 0 0 2631 2670 2678 2686 2706 2718 2746 2769 2776 2777 2781 2810 2837 2861 2875 2875 2875 2882 2882 2882 2906 2929 2942 2947 2965 2965 2966 2970 2972 2972 2972 2951 2929 2883 2826 2775 2691 2570 0 0 0 0 1352 1348 1345 1311 1309 1305 1302 1284 1276 1276 1276 1280 1310 1310 1310 1302 1268 1256 1210 1165 0 0 0 0 0 1147 1147 1144 1139 1136 1133 1133 1133 1173 1173 0 0 0 0 0 0 0 0 0 0 0 0 0 0 0 0 0 0 623 644 657 657 663 669 663 626 626 626 0 0 0 0 0 0 0 0 0 0 1602 1607 1620 1620 1634 1665 1665 1665 0 0 0 0 0 0 0 0 0 0 0 0 0 0 0 0 0 0 0 0 0 0 0 0 0 0 0 0 0 0 0 0 0 0 0 0 0 0 0 0 0 0 0 0 0 0 0 0 0 0 0 0 0 0 0 0 0 1340 1346 1350 1346 1346 1326 1309 0 0 0 0 0 0 0 1914 1963 2013 2054 2054 2054 2052 2022 2022 2022 2056 2083 2101 2117 2120 2127 2156 2183 2183 2183 2162 2147 2116 2113 2081 0 0 0 0 0 0 0 0 0 0 0 0 0 0 0 0 0 0 0 0 0 0 0 0 0 856 862 878 902 931 931 931 0 0 0 0 0 0 0 0 0 0 0 0 0 0 0 0 0 0 0 0 0 0 0 0 0 0 0 0 0 0 0 0 0 0
844 844 850 861 873 888 903 918 925 934 949 965 983 999 1009 1013 1023 1035 1050 1065 1080 1094 1102 1115 1132 1144 1153 1164 1179 1194 1210 1218 1225 1236 1250 1259 1268 1279 1290 1299 1304 1307 1314 1328 1345 1355 1362 1375 1386 1394 1398 1401 1404 1408 1413 1423 1434 1441 1447 1455 1463 1468 1472 1473 1473 1476 1479 1482 1486 1487 1487 1487 1487 1482 1480 1478 1475 1472 1470 1470 1470 1470 1475 1479 1484 1487 1494 1499 1503 1508 1513 1515 1515 1516 1519 1522 1525 1529 1529 1529 1528 1525 1522 1516 1508 1494 1480 1472 1449 0 0 0 0 0 1038 1027 1026 1026 1026 1033 1038 1038 1038 1039 1040 1041 1042 1043 1045 1046 1046 1046 1046 1046 1045 1045 1044 1043 1040 1035 1031 1012 993 960 929 916 908 905 905 905 905 907 909 909 910 910 917 923 930 931 932 932 938 941 947 957 959 961 977 1010 1026 1031 1034 1045 1054 1060 1060 1060 1045 1023 995 986 985 980 979 979 980 980 982 982 982 979 977 976 976 975 975 977 982 987 992 995 1002 1008 1016 1022 1030 1032 1057 1086 1121 1140 1149 1161 1170 1176 1179 1180 1183 1185 1187 1189 1192 1194 1195 1197 1199 1201 1202 1204 1206 1207 1208 1210 1210 1211 1211 1212 1213 1213 1215 1215 1215 1215 1213 1213 1213 1218 1224 1228 1232 1236 1239 1242 1245 1248 1248 1250 1252 1252 1254 1256 1258 1260 1263 1264 1266 1267 1269 1271 1272 1274 1275 1277 1278 1279 1281 1282 1283 1285 1286 1288 1288 1291 1292 1293 1294 1295 1296 1297 1298 1300 1300 1301 1302 1303 1305 1310 1310 1310 1307 1303 1303 1303 1303 1301 1303 1300 1300 1297 1288 1279 1250 1250 0 0 0 0 0 0 1346 1345 1345 1345 1345 1345 1344 1342 1344 1347 1362 1368 1394 1409 1409 1409 1409 1409 1428 1435 0 0 0 0 0 0 0 0 0 0 0 0 0 0 2542 2635 2670 2678 2699 2706 2718 2727 2747 2755 2761 2774 2803 2837 2853 2874 2874 2874 2875 2875 2875 2893 2918 2941 2947 2966 2970 2974 2975 2977 2975 2975 2951 2909 2856 2802 2741 2629 2524 0 0 0 1379 1370 1367 1345 1311 1309 1285 1284 1281 1276 1276 1276 1280 1313 1313 1313 1281 1268 1259 0 0 0 0 0 1125 1142 1144 1144 1144 1137 1135 1135 1137 1192 1192 1192 0 0 0 0 0 0 0 0 0 0 0 0 0 0 0 0 0 0 642 644 657 657 669 673 669 651 608 0 608 0 0 0 0 0 0 0 0 0 1602 1611 1620 1620 1637 1669 1669 1669 0 0 0 0 0 0 0 0 0 0 0 0 0 0 0 0 0 0 0 0 0 0 0 0 0 0 0 0 0 0 0 0 0 0 0 0 0 0 0 0 0 0 0 0 0 0 0 0 0 0 0 0 0 0 0 0 0 1326 1347 1348 1348 1348 1347 1329 0 0 0 0 0 0 0 1937 1964 2013 2037 2037 2037 2029 2029 2029 2041 2058 2083 2101 2117 2122 2153 2177 2177 2177 2155 2131 2129 2113 2096 2072 2059 1969 0 0 0 0 0 0 0 0 0 0 0 0 0 0 0 0 0 0 0 0 0 0 0 0 871 878 902 931 0 0 0 0 0 0 0 0 0 0 0 0 0 0 0 0 0 0 0 0 0 0 0 0 0 0 0 0 0 0 0 0 0 0 0 0
844 844 850 861 871 875 893 907 913 916 936 964 982 995 1006 1013 1023 1035 1047 1061 1079 1091 1101 1114 1128 1140 1149 1158 1172 1187 1202 1215 1223 1235 1248 1257 1263 1273 1281 1293 1301 1304 1306 1325 1336 1345 1353 1363 1374 1386 1394 1398 1399 1402 1408 1416 1424 1430 1436 1444 1451 1457 1461 1464 1465 1468 1473 1476 1480 1482 1482 1482 1482 1478 1475 1473 1472 1471 1469 1468 1468 1468 1468 1473 1479 1485 1488 1493 1497 1500 1503 1508 1511 1514 1516 1519 1523 1526 1526 1526 1525 1525 1521 1516 1508 1492 1474 1461 1450 0 0 0 0 0 1045 1033 1026 1026 1026 1033 1038 1038 1038 1038 1040 1041 1042 1044 1045 1046 1047 1047 1047 1047 1047 1046 1045 1043 1040 1036 1031 1019 994 965 935 916 908 905 904 904 904 907 909 909 910 911 917 925 931 935 939 947 956 961 967 976 994 1000 1007 1021 1042 1053 1054 1061 1070 1070 1070 1064 1045 1023 993 984 982 975 975 975 977 978 979 979 979 978 977 976 974 971 971 971 980 982 989 995 1002 1008 1010 1016 1020 1026 1051 1083 1120 1137 1149 1161 1169 1176 1179 1180 1182 1184 1187 1189 1192 1194 1196 1198 1200 1201 1203 1204 1206 1207 1208 1210 1211 1212 1212 1213 1214 1214 1217 1217 1217 1217 1217 1217 1219 1229 1229 1230 1235 1239 1243 1245 1247 1249 1250 1250 1252 1254 1255 1257 1259 1260 1263 1264 1266 1267 1268 1270 1272 1274 1275 1276 1278 1279 1281 1281 1283 1284 1286 1287 1288 1289 1291 1293 1294 1295 1295 1296 1297 1298 1300 1301 1302 1302 1304 1306 1306 1306 1303 1303 1303 1301 1303 1301 1303 1303 1304 1303 1303 1279 1250 0 0 0 0 0 0 0 1366 1365 1361 1365 1365 1360 1358 1351 1351 1351 1362 1370 1408 1425 0 0 0 0 0 0 0 0 0 0 0 0 0 0 0 0 0 2508 2535 2585 2617 2635 2670 2678 2700 2708 2718 2725 2733 2735 2740 2758 2793 2827 2852 2865 2865 2865 2865 2865 2865 2883 2899 2922 2943 2966 2970 2974 2975 2975 2974 2971 2929 2885 2824 2765 2717 2608 0 0 0 0 1379 1370 1359 1345 1326 1312 1285 1284 1281 1276 1267 1267 1276 1304 1304 1304 1268 1266 1260 0 0 0 0 1125 1125 1139 1144 1144 1144 1137 1137 1137 1151 1192 1192 1192 0 0 0 0 0 0 0 0 0 0 0 0 0 0 0 0 0 0 0 644 657 657 669 682 669 651 608 0 608 0 0 0 0 0 0 0 0 0 0 1600 1602 1613 1642 1678 1678 1678 0 0 0 0 0 0 0 0 0 0 0 0 0 0 0 0 0 0 0 0 0 0 0 0 0 0 0 0 0 0 0 0 0 0 0 0 0 0 0 0 0 0 0 0 0 0 0 0 0 0 0 0 0 0 0 0 0 1326 1347 1348 1364 1364 1364 1355 0 0 0 0 0 0 0 1928 1964 2005 2011 2011 2011 2011 2011 2020 2041 2058 2083 2099 2117 2122 2153 2171 2171 2171 2129 2080 2080 2080 2077 2071 2035 1969 0 0 0 0 0 0 0 0 0 0 0 0 0 0 0 0 0 0 0 0 0 0 0 0 0 0 0 0 0 0 0 0 0 0 0 0 0 0 0 0 0 0 0 0 0 0 0 0 0 0 0 0 0 0 0 0 383 382 383 0 0 0 0 0
844 844 849 856 864 874 887 891 901 915 926 943 963 984 1003 1011 1022 1035 1046 1061 1078 1091 1101 1110 1125 1140 1147 1155 1165 1178 1194 1206 1218 1229 1247 1255 1263 1268 1273 1284 1296 1304 1304 1318 1327 1334 1341 1350 1361 1374 1388 1391 1398 1399 1403 1406 1409 1414 1424 1433 1437 1443 1450 1454 1458 1461 1466 1469 1472 1474 1476 1476 1476 1474 1472 1471 1468 1466 1464 1463 1463 1463 1465 1468 1474 1481 1484 1489 1492 1494 1498 1504 1509 1513 1515 1518 1519 1522 1525 1525 1525 1523 1521 1516 1508 1492 1471 1452 1450 0 0 0 0 0 1054 1037 1029 1029 1029 1033 1038 1038 1039 1039 1040 1041 1043 1044 1045 1046 1047 1048 1048 1048 1047 1047 1046 1045 1041 1037 1032 1020 994 971 942 922 914 911 904 904 904 904 910 911 911 913 918 926 932 943 953 967 981 985 991 1004 1018 1030 1030 1043 1060 1073 1077 1077 1077 1076 1076 1065 1048 1023 993 982 981 975 975 975 975 975 976 976 977 977 977 976 973 969 969 969 975 980 987 991 998 1005 1010 1012 1020 1026 1042 1077 1118 1129 1140 1157 1169 1175 1179 1180 1182 1184 1187 1189 1192 1194 1196 1198 1200 1201 1203 1205 1206 1208 1209 1210 1212 1212 1214 1214 1216 1216 1218 1218 1221 1222 1222 1225 1228 1230 1231 1234 1237 1240 1243 1245 1248 1249 1250 1252 1253 1254 1256 1257 1259 1261 1263 1264 1265 1267 1268 1270 1271 1273 1274 1275 1277 1278 1279 1281 1283 1284 1285 1286 1288 1289 1290 1291 1292 1293 1295 1296 1297 1297 1298 1301 1301 1301 1302 1304 1304 1304 1303 1303 1303 1313 1313 1313 1313 1313 1313 1321 1321 0 0 0 0 0 0 0 0 0 0 0 1375 1375 1375 1375 1375 1375 1371 1371 1371 0 0 0 0 0 0 0 0 0 0 0 0 0 0 0 0 0 0 2534 2538 2553 2586 2595 2624 2647 2656 2678 2700 2708 2717 2724 2724 2726 2731 2738 2776 2818 2845 2845 2845 2833 2833 2833 2847 2861 2874 2888 2915 2949 2970 2974 2974 2974 2967 2946 2908 2858 2802 2743 2675 2574 0 0 0 0 1379 1370 1357 1345 1326 1318 1285 1285 1285 1284 1284 1285 1285 1302 1302 1302 1290 1290 1268 0 0 0 0 1154 1137 1137 1137 1137 1137 1137 1137 1137 1159 1192 1192 0 0 0 0 0 0 0 0 0 0 0 0 0 0 0 0 0 0 0 0 0 0 0 654 675 654 651 608 0 0 0 0 0 0 0 0 0 0 0 0 1587 1602 1620 1642 1672 1672 1672 0 0 0 0 0 0 0 0 0 0 0 0 0 0 0 0 0 0 0 0 0 0 0 0 0 0 0 0 0 0 0 0 0 0 0 0 0 0 0 0 0 0 0 0 0 0 0 0 0 0 0 0 0 0 0 0 0 1324 1344 1360 1376 1390 1403 1412 0 0 0 0 0 0 0 1928 1964 1969 1969 1969 1971 1971 1983 2020 2041 2058 2069 2085 2102 2122 2153 2153 2153 2153 2129 2078 2076 2061 2056 2042 2014 1969 0 0 0 0 0 0 0 0 0 0 0 0 0 0 0 0 0 0 0 0 0 0 0 0 0 0 0 0 0 0 0 0 0 0 0 0 0 0 0 0 0 0 0 0 0 0 0 0 0 0 0 0 0 0 0 383 383 383 383 383 0 0 0 0
838 838 845 850 853 853 868 886 900 912 918 936 955 976 994 1008 1022 1035 1046 1057 1073 1088 1101 1110 1120 1134 1141 1147 1155 1169 1182 1196 1203 1211 1225 1248 1254 1259 1263 1271 1286 1294 1304 1316 1325 1326 1331 1338 1349 1362 1374 1377 1389 1395 1396 1397 1398 1401 1404 1409 1423 1437 1442 1446 1447 1451 1458 1463 1466 1469 1473 1473 1473 1472 1472 1471 1468 1466 1463 1462 1462 1462 1463 1466 1471 1477 1482 1484 1486 1488 1493 1499 1504 1509 1514 1517 1519 1521 1523 1523 1523 1523 1522 1517 1511 1492 1471 1452 1449 0 0 0 0 0 1064 1039 1029 1029 1029 1032 1038 1038 1039 1040 1040 1041 1043 1044 1045 1047 1048 1049 1049 1049 1048 1047 1046 1045 1043 1039 1035 1025 1005 977 950 928 916 915 911 904 904 904 911 912 918 924 931 940 946 959 966 975 992 1008 1018 1036 1052 1057 1057 1065 1076 1081 1089 1093 1093 1093 1090 1071 1050 1025 993 981 980 975 975 974 973 971 971 971 974 976 976 976 973 969 969 969 973 977 983 989 996 1003 1009 1011 1019 1026 1043 1076 1107 1126 1140 1154 1166 1176 1179 1180 1182 1184 1187 1189 1192 1194 1196 1198 1200 1202 1203 1205 1206 1208 1210 1211 1212 1213 1214 1215 1216 1217 1219 1220 1223 1224 1227 1228 1230 1231 1234 1235 1237 1241 1243 1246 1248 1249 1250 1252 1253 1255 1256 1258 1259 1261 1263 1264 1265 1267 1268 1270 1271 1272 1274 1275 1276 1278 1279 1280 1281 1283 1285 1285 1287 1288 1290 1291 1292 1293 1293 1296 1297 1297 1298 1300 1300 1300 1301 1300 1298 1285 1285 1285 1303 1313 1324 1324 1324 1321 1321 1321 0 0 0 0 0 0 0 0 0 0 0 0 0 0 0 0 0 0 0 0 0 0 0 0 0 0 0 0 0 0 0 0 0 0 0 0 0 2512 2583 2604 2606 2607 2607 2616 2631 2648 2656 2678 2699 2708 2717 2724 2724 2726 2726 2731 2755 2794 2826 2826 2826 2804 2804 2804 2831 2844 2856 2867 2886 2924 2954 2954 2954 2951 2943 2917 2875 2844 2793 2732 2585 0 0 0 0 0 1357 1345 1344 1338 1326 1324 1318 1316 1307 1306 1293 1291 1287 1277 1275 1275 1277 1280 1316 1316 0 0 0 1154 1136 1133 1124 1125 1133 1133 1139 1148 1155 1155 0 0 0 0 0 0 0 0 0 0 0 0 0 0 0 0 0 0 0 0 0 0 0 0 654 674 654 651 607 605 0 0 0 0 0 0 0 0 0 0 0 1586 1602 1620 1641 1641 1641 1634 0 0 0 0 0 0 0 0 0 0 0 0 0 0 0 0 0 0 0 0 0 0 0 0 0 0 0 0 0 0 0 0 0 0 0 0 0 0 0 0 0 0 0 0 0 0 0 0 0 0 0 0 0 0 0 0 0 1324 1344 1360 1376 1394 1411 1444 0 0 0 0 0 0 0 1928 1937 1937 1937 1936 1936 1936 1971 1987 2001 2014 2038 2060 2098 2099 2104 2108 2117 2117 2117 2078 2056 2050 2044 2026 1995 1957 0 0 0 0 0 0 0 0 0 0 0 0 0 0 0 0 0 0 0 0 0 0 0 0 0 0 0 0 0 0 0 0 0 0 0 0 0 0 0 0 0 0 0 0 0 0 0 0 0 0 0 0 0 0 0 380 380 369 369 359 351 0 0 0
814 814 830 842 846 852 864 882 898 906 918 930 950 972 989 1006 1022 1035 1046 1057 1070 1087 1102 1110 1120 1132 1138 1145 1151 1161 1173 1181 1192 1201 1216 1228 1239 1248 1251 1261 1274 1289 1302 1314 1321 1325 1329 1336 1347 1356 1365 1376 1380 1391 1394 1394 1395 1397 1399 1406 1411 1422 1428 1432 1434 1440 1450 1459 1462 1467 1469 1470 1470 1471 1471 1470 1468 1466 1463 1461 1459 1459 1459 1463 1467 1472 1477 1480 1484 1486 1489 1495 1500 1506 1511 1516 1519 1521 1523 1523 1523 1523 1522 1519 1515 1497 1471 1452 1441 1432 0 0 0 0 0 1043 1030 1030 1030 1031 1036 1039 1039 1040 1041 1042 1044 1045 1046 1047 1048 1049 1049 1049 1049 1048 1047 1046 1044 1042 1036 1026 1009 985 954 929 916 916 912 904 904 904 911 924 934 943 950 957 961 974 979 982 1000 1017 1031 1055 1073 1081 1084 1088 1093 1096 1097 1097 1097 1097 1092 1080 1073 1052 1009 981 975 970 969 969 969 969 969 970 972 975 975 975 972 969 969 969 973 976 979 985 993 1002 1009 1011 1019 1026 1043 1063 1102 1126 1136 1152 1164 1175 1180 1182 1183 1184 1187 1189 1192 1194 1196 1198 1200 1202 1204 1205 1207 1208 1210 1211 1212 1214 1215 1216 1217 1218 1219 1221 1223 1224 1227 1229 1231 1234 1235 1236 1238 1241 1244 1246 1248 1249 1251 1252 1253 1255 1256 1258 1259 1261 1262 1264 1265 1267 1268 1269 1270 1271 1273 1275 1276 1277 1277 1279 1281 1282 1284 1284 1286 1287 1289 1291 1292 1292 1292 1295 1296 1297 1297 1296 1295 1295 1295 1294 1294 1264 1250 1250 1250 1313 1326 1326 1326 1340 1344 0 0 0 0 0 0 0 0 0 0 0 0 0 0 0 0 0 0 0 0 0 0 0 0 0 0 0 0 0 0 0 0 0 0 2456 2495 2496 2530 2572 2609 2628 2628 2629 2629 2629 2639 2648 2656 2678 2693 2699 2706 2712 2717 2720 2726 2731 2737 2764 2799 2799 2799 2791 2791 2791 2816 2834 2845 2854 2867 2898 2915 2924 2924 2924 2921 2908 2874 2836 2791 2729 2536 0 0 0 0 1350 1333 1326 1310 1310 1310 1318 1321 1321 1321 1316 1291 1287 1287 1277 1275 1275 1277 1336 1336 1336 0 0 0 1154 1113 1088 1088 1088 1096 1125 1139 1144 1144 1144 0 0 0 0 0 0 0 0 722 714 708 691 0 0 0 0 0 0 0 0 0 0 0 0 0 654 650 650 614 0 0 0 0 0 0 0 0 0 0 0 0 0 1602 1620 1623 1623 1623 1601 0 0 0 0 0 0 0 0 0 0 0 0 0 0 0 0 0 0 0 0 0 0 0 0 0 0 0 0 0 0 0 0 0 0 0 0 0 0 0 0 0 0 0 0 0 0 0 0 0 0 0 0 0 0 0 0 0 1324 1344 1360 1375 1394 1422 1445 0 0 0 0 0 0 0 1915 1937 1937 1937 1914 1914 1914 1955 0 0 0 0 2060 2070 2072 2083 2083 2096 2096 2096 2078 2055 2045 2043 2020 1990 1954 0 0 0 0 0 0 0 0 0 0 0 0 0 0 0 0 0 0 0 0 0 0 0 0 0 0 0 0 0 0 0 0 0 0 0 0 0 0 0 0 0 0 0 0 0 0 0 0 0 0 0 0 0 0 0 382 373 369 369 359 0 0 0 0
814 814 829 837 845 852 864 878 892 906 913 927 947 970 989 1006 1021 1035 1044 1052 1068 1087 1103 1112 1120 1130 1136 1143 1151 1159 1164 1170 1180 1197 1212 1224 1239 1248 1251 1261 1270 1287 1302 1314 1321 1323 1326 1336 1345 1354 1362 1373 1378 1385 1388 1389 1390 1394 1399 1405 1411 1416 1419 1423 1430 1439 1449 1456 1460 1463 1465 1466 1467 1470 1470 1470 1468 1466 1463 1461 1459 1459 1459 1461 1465 1468 1474 1477 1482 1486 1489 1492 1497 1503 1510 1516 1519 1521 1523 1523 1523 1523 1523 1523 1521 1509 1487 1464 1431 1423 0 0 0 0 0 1048 1034 1030 1030 1030 1036 1040 1041 1041 1042 1043 1044 1045 1046 1047 1048 1049 1050 1050 1050 1049 1047 1047 1047 1044 1036 1028 1012 986 955 932 919 918 913 913 913 918 929 938 951 968 980 982 988 995 1018 1030 1037 1045 1059 1077 1087 1090 1092 1094 1097 1098 1098 1098 1098 1098 1095 1087 1077 1052 1016 985 975 968 965 965 965 967 969 969 970 972 972 972 969 969 969 969 973 976 979 984 990 1000 1006 1011 1019 1026 1042 1062 1096 1111 1131 1149 1163 1174 1180 1183 1183 1184 1187 1189 1192 1194 1196 1198 1200 1202 1204 1205 1207 1209 1210 1212 1213 1214 1215 1216 1217 1219 1220 1221 1223 1225 1227 1230 1232 1234 1236 1238 1240 1241 1244 1246 1247 1249 1250 1252 1253 1255 1256 1258 1259 1261 1262 1264 1265 1266 1268 1269 1270 1271 1272 1273 1274 1276 1277 1278 1280 1281 1283 1284 1285 1286 1288 1290 1291 1291 1291 1295 1295 1295 1295 1295 1294 1293 1286 1286 1264 1240 1236 1236 1240 1286 1324 1324 1324 0 0 0 0 0 0 0 0 0 0 0 0 0 0 0 0 0 0 0 0 0 0 0 0 0 0 0 0 0 0 2474 2501 2501 2501 2484 2484 2484 2501 2510 2530 2572 2609 2628 2628 2629 2629 2629 2639 2649 2656 2678 2686 2690 2690 2701 2715 2728 2728 2736 2737 2747 2774 2774 2774 2780 2780 2786 2803 2819 2830 2835 2839 2852 2872 2895 2901 2901 2901 2900 2872 2830 2790 2699 2520 0 0 0 0 1322 1316 1315 1310 1310 1310 1317 1321 1321 1321 1300 1291 1287 1285 1275 1275 1275 1277 1336 1336 1336 0 0 0 1118 1113 1068 1068 1068 1081 1111 1139 1139 1139 0 0 0 0 0 0 0 0 730 722 714 708 691 683 0 0 0 0 0 0 0 0 0 0 0 0 0 0 0 0 0 0 0 0 0 0 0 0 0 0 0 0 0 0 1603 1603 1603 1586 0 0 0 0 0 0 0 0 0 0 0 0 0 0 0 0 0 0 0 0 0 0 0 0 0 0 0 0 0 0 0 0 0 0 0 0 0 0 0 0 0 0 0 0 0 0 0 0 0 0 0 0 0 0 0 0 0 0 1293 1316 1323 1365 1394 1422 1445 0 0 0 0 0 0 0 1915 1937 1937 1937 1903 1903 1886 0 0 0 0 0 0 2039 2041 2047 2047 2081 2081 2081 2078 2053 2038 2025 0 0 0 0 0 0 0 0 0 0 0 0 0 0 0 0 0 0 0 0 0 0 0 0 0 0 0 0 0 0 0 0 0 0 0 0 0 0 0 0 0 0 0 0 0 0 0 0 0 0 0 0 0 0 0 0 0 0 0 369 364 364 359 0 0 0 0
814 814 829 837 844 852 862 875 887 902 911 921 944 966 986 1005 1018 1029 1038 1050 1068 1087 1103 1112 1117 1128 1135 1142 1149 1153 1159 1166 1180 1197 1212 1224 1239 1248 1251 1261 1270 1282 1299 1311 1316 1320 1325 1333 1343 1352 1359 1370 1376 1381 1381 1382 1385 1392 1398 1404 1409 1413 1417 1423 1430 1438 1448 1455 1458 1460 1461 1463 1466 1469 1469 1469 1468 1466 1463 1461 1459 1459 1459 1459 1461 1465 1472 1477 1480 1485 1488 1491 1496 1503 1510 1516 1520 1522 1523 1525 1525 1525 1525 1523 1521 1509 1489 1464 1429 1402 1370 0 0 0 0 0 1035 1030 1030 1030 1035 1040 1041 1042 1043 1044 1045 1045 1046 1047 1049 1050 1050 1050 1050 1050 1047 1047 1047 1044 1039 1029 1018 992 963 932 920 920 920 924 931 941 946 951 966 989 1002 1017 1029 1030 1037 1055 1065 1071 1080 1085 1089 1095 1097 1100 1100 1100 1101 1101 1101 1101 1099 1092 1077 1056 1018 986 975 968 965 965 965 966 968 968 969 969 969 969 969 970 970 972 974 976 978 982 988 994 1002 1006 1015 1025 1041 1057 1084 1109 1126 1145 1160 1172 1180 1183 1184 1184 1187 1189 1192 1194 1196 1198 1201 1202 1204 1205 1208 1209 1210 1212 1214 1214 1215 1217 1218 1219 1221 1222 1224 1225 1227 1230 1232 1234 1236 1238 1241 1243 1244 1245 1247 1249 1250 1252 1253 1255 1256 1257 1259 1260 1261 1263 1265 1266 1266 1268 1268 1270 1271 1272 1273 1275 1276 1278 1279 1280 1281 1282 1283 1286 1288 1290 1291 1291 1291 1295 1295 1295 1294 1291 1288 1281 1259 1243 1236 1234 1234 1236 1236 1285 1326 0 0 0 0 0 0 0 0 2290 2290 2290 2281 0 0 0 0 0 0 0 0 0 0 0 0 0 0 0 0 0 2435 2459 2481 2504 2518 2518 2518 2514 2509 2509 2509 2513 2530 2572 2609 2630 2631 2632 2633 2636 2640 2651 2656 2678 2681 2681 2688 2701 2714 2728 2728 2734 2734 2734 2752 2766 2770 2771 2773 2777 2785 2797 2806 2808 2811 2824 2845 2865 2885 2885 2885 2885 2849 2795 2728 2638 0 0 0 0 0 1302 1302 1307 1307 1310 1310 1317 1321 1321 1321 1300 1300 1300 1300 1300 1277 1277 1277 1336 1336 0 0 0 0 1116 1111 1068 1068 1068 1081 1102 1114 1114 1114 0 0 0 0 0 0 0 0 692 691 689 689 683 674 0 0 0 0 0 0 0 0 0 0 0 0 0 0 0 0 0 0 0 0 0 0 0 0 0 0 0 0 0 0 0 0 0 0 0 0 0 0 0 0 0 0 0 0 0 0 0 0 0 0 0 0 0 0 0 0 0 0 0 0 0 0 0 0 0 0 0 0 0 0 0 0 0 0 0 0 0 0 0 0 0 0 0 0 0 0 0 0 0 0 0 1316 1295 1295 1316 1343 1394 1422 0 0 0 0 0 0 0 0 0 1957 1957 1957 1903 1848 0 0 0 0 0 0 0 0 1987 2006 2045 2075 2076 2076 2075 2042 2018 0 0 0 0 0 0 0 0 0 0 0 0 0 0 0 0 0 0 0 0 0 0 0 0 0 0 0 0 0 0 0 0 0 0 0 0 0 0 0 0 0 0 0 0 0 0 0 0 0 0 0 0 0 0 0 0 0 0 0 0 0 0 0 0 0 0 0 0
817 817 829 837 843 843 857 871 884 898 910 916 938 963 984 993 1009 1018 1031 1047 1067 1087 1103 1112 1116 1128 1134 1141 1146 1148 1154 1166 1179 1193 1209 1222 1234 1249 1255 1263 1270 1282 1293 1306 1311 1316 1322 1331 1340 1349 1359 1367 1374 1376 1379 1379 1380 1388 1396 1402 1407 1411 1417 1422 1429 1437 1448 1453 1457 1457 1460 1461 1464 1467 1467 1467 1467 1465 1463 1461 1459 1458 1457 1457 1457 1462 1467 1475 1477 1482 1487 1491 1496 1503 1510 1516 1520 1523 1523 1525 1526 1526 1526 1523 1521 1509 1489 1464 1429 1387 1370 0 0 0 0 0 1036 1030 1030 1030 1035 1040 1042 1043 1044 1044 1045 1045 1047 1048 1049 1050 1050 1050 1050 1050 1049 1048 1048 1044 1040 1033 1021 1007 976 945 936 936 936 944 952 958 970 983 1003 1023 1032 1035 1049 1052 1056 1068 1078 1082 1088 1093 1094 1097 1099 1101 1101 1101 1101 1101 1101 1101 1100 1092 1077 1061 1018 995 975 964 963 963 963 966 967 967 968 968 969 969 971 971 974 976 976 976 978 982 988 994 1002 1006 1011 1020 1038 1057 1083 1107 1124 1138 1153 1167 1179 1183 1184 1185 1187 1189 1192 1194 1197 1198 1201 1203 1205 1206 1208 1209 1211 1212 1214 1214 1215 1217 1218 1219 1221 1222 1224 1225 1227 1230 1232 1234 1237 1238 1241 1243 1244 1245 1247 1249 1250 1251 1253 1254 1255 1257 1258 1259 1261 1263 1263 1265 1265 1266 1267 1269 1270 1271 1272 1273 1275 1276 1277 1279 1280 1281 1282 1284 1286 1288 1290 1290 1291 1295 1295 1295 1293 1279 1269 1251 1249 1243 1234 1217 1214 1214 0 0 0 0 0 0 0 0 0 2261 2273 2290 2293 2293 2293 2280 2264 2249 0 0 0 0 0 0 0 0 0 0 0 0 2442 2442 2456 2473 2484 2504 2518 2519 2523 2523 2519 2519 2519 2519 2519 2539 2573 2601 2619 2634 2636 2641 2648 2655 2656 2664 2675 2678 2684 2696 2713 2728 2728 2734 2734 2734 2748 2762 2767 2768 2769 2771 2772 2777 2784 2785 2792 2809 2826 2843 2861 2861 2861 2846 2794 2737 2673 2622 0 0 0 0 0 1298 1298 1309 1319 1319 1319 1317 1316 1300 1288 1288 1288 1300 1300 1300 1277 1277 1277 1282 0 0 0 0 0 1115 1095 1079 1079 1081 1081 1099 1099 1099 1098 0 0 0 0 0 0 0 0 683 683 672 672 670 651 0 0 0 0 0 0 0 0 0 0 0 0 0 0 0 0 0 0 0 0 0 0 0 0 0 0 0 0 0 0 0 0 0 0 0 0 0 0 0 0 0 0 0 0 0 0 0 0 0 0 0 0 0 0 0 0 0 0 0 0 0 0 0 0 0 0 0 0 0 0 0 0 0 0 0 0 0 0 0 0 0 0 0 0 0 0 0 0 0 0 0 0 1316 1316 1316 1343 0 0 0 0 0 0 0 0 0 0 0 0 0 0 0 0 0 0 0 0 0 0 0 0 0 0 0 0 0 0 0 0 0 0 0 0 0 0 0 0 0 0 0 0 0 0 0 0 0 0 0 0 0 0 0 0 0 0 0 0 0 0 0 0 0 0 0 0 0 0 0 0 0 0 0 0 0 0 0 0 0 0 0 0 0 0 0 0 0 0 0 0 0 0 0 0 0 0 0 0 0
817 817 829 837 840 841 848 862 876 889 902 904 924 946 968 988 990 1003 1021 1044 1067 1085 1096 1104 1110 1113 1121 1133 1141 1146 1153 1164 1177 1193 1208 1220 1234 1249 1255 1263 1271 1281 1291 1300 1307 1313 1318 1327 1338 1348 1356 1366 1367 1372 1375 1376 1378 1385 1393 1399 1405 1411 1416 1422 1429 1436 1445 1452 1455 1457 1459 1460 1462 1466 1466 1466 1465 1464 1463 1461 1459 1458 1456 1456 1456 1457 1461 1467 1471 1480 1484 1491 1496 1506 1514 1518 1520 1523 1523 1525 1526 1526 1526 1523 1518 1506 1489 1464 1417 1383 1335 1307 0 0 0 0 1038 1030 1030 1030 1035 1040 1044 1044 1045 1045 1045 1046 1047 1048 1049 1050 1050 1051 1051 1051 1050 1049 1048 1047 1041 1036 1029 1014 993 966 957 957 957 965 978 986 1003 1021 1036 1050 1054 1056 1060 1066 1071 1079 1083 1090 1094 1097 1099 1099 1101 1101 1102 1102 1103 1103 1103 1102 1100 1093 1077 1061 1048 1018 976 964 963 963 963 965 965 966 966 967 969 971 971 973 975 978 978 978 978 982 988 994 1002 1006 1009 1010 1026 1055 1082 1106 1122 1138 1153 1167 1179 1183 1183 1185 1187 1189 1192 1194 1197 1198 1201 1203 1205 1206 1208 1210 1211 1212 1214 1214 1216 1217 1218 1220 1221 1222 1224 1226 1229 1230 1232 1234 1237 1238 1241 1243 1244 1245 1247 1248 1249 1251 1253 1254 1255 1257 1257 1259 1260 1262 1262 1263 1264 1265 1266 1268 1269 1271 1272 1273 1273 1275 1276 1277 1278 1279 1280 1280 1281 1283 1286 1290 1290 1292 1293 1293 1293 1266 1251 1249 1248 1243 1236 1221 1196 1196 0 0 0 0 0 0 0 0 2261 2263 2273 2290 2293 2293 2293 2286 2286 2286 2311 0 0 0 0 2405 2416 2438 2453 2465 2465 2465 2465 2465 2465 2477 2484 2504 2518 2519 2523 2523 2519 2519 2519 2517 2519 2519 2537 2574 2599 2630 2633 2649 2651 2653 2653 2655 2662 2675 2683 2696 2713 2722 2723 2723 2725 2732 2745 2755 2764 2764 2764 2764 2764 2770 2771 2775 2781 2800 2816 2821 2828 2828 2828 2809 2773 2717 2648 2564 0 0 0 0 0 1294 1294 1309 1319 1319 1319 1307 1299 1289 1288 1288 1288 1300 1300 1300 1269 1264 1261 0 0 0 0 0 1100 1095 1095 1097 1097 1098 1098 1098 1098 1098 1095 0 0 0 0 0 0 0 0 682 674 657 657 646 0 0 0 0 0 0 0 0 0 0 0 0 0 0 0 0 0 0 0 0 0 0 0 0 0 0 0 0 0 0 0 0 0 0 0 0 0 0 0 0 0 0 0 0 0 0 0 0 0 0 0 0 0 0 0 0 0 0 0 0 0 0 0 0 0 0 0 0 0 0 0 0 0 0 0 0 0 0 0 0 0 0 0 0 0 0 0 0 0 0 0 0 0 0 0 0 0 0 0 0 0 0 0 0 0 0 0 0 0 0 0 0 0 0 0 0 0 0 0 0 0 0 0 0 0 0 0 0 0 0 0 0 0 0 0 0 0 0 0 0 0 0 0 0 0 0 0 0 0 0 0 0 0 0 0 0 0 0 0 0 0 0 0 0 0 0 0 0 0 0 0 0 0 0 0 0 0 0 0 0 0 0 0 0 0 0 0 0 0 0 0 0 0 0 0 0 0 0
817 817 829 836 839 841 845 851 859 871 882 895 907 926 945 964 984 1000 1004 1022 1055 1079 1090 1096 1101 1109 1113 1127 1137 1144 1151 1162 1175 1191 1208 1212 1226 1249 1255 1263 1271 1279 1287 1294 1303 1310 1316 1324 1333 1346 1354 1361 1366 1367 1370 1373 1377 1384 1390 1397 1402 1409 1416 1422 1429 1433 1440 1449 1453 1455 1456 1458 1460 1463 1463 1463 1463 1462 1462 1461 1459 1457 1456 1456 1456 1457 1461 1466 1470 1475 1482 1493 1503 1510 1514 1518 1520 1523 1523 1524 1525 1525 1525 1521 1511 1501 1485 1460 1417 1383 1335 1307 1267 0 0 0 1049 1031 1031 1031 1036 1038 1044 1044 1045 1045 1045 1046 1047 1048 1050 1051 1051 1051 1051 1051 1051 1051 1051 1050 1043 1037 1034 1020 1006 988 968 968 968 980 996 1012 1029 1044 1052 1061 1068 1073 1076 1078 1083 1089 1091 1094 1095 1097 1100 1101 1101 1102 1102 1103 1104 1104 1104 1102 1100 1093 1077 1071 1062 1025 985 964 958 958 958 962 963 964 965 967 969 972 973 976 977 979 979 980 984 987 991 997 1004 1006 1008 1009 1017 1050 1081 1106 1118 1137 1153 1166 1177 1182 1183 1185 1187 1189 1192 1194 1197 1199 1201 1203 1205 1207 1208 1210 1211 1212 1213 1214 1215 1217 1218 1220 1221 1222 1224 1227 1229 1230 1232 1234 1236 1238 1240 1242 1244 1245 1246 1247 1249 1250 1252 1253 1254 1255 1257 1257 1260 1261 1261 1262 1263 1264 1265 1267 1269 1269 1271 1272 1272 1273 1274 1276 1277 1279 1280 1280 1281 1283 1286 1286 1289 1289 1289 1285 1278 1251 1249 1245 1245 1236 1220 1214 1198 1198 0 0 0 0 0 0 0 2242 2261 2263 2273 2276 2291 2291 2291 2286 2286 2286 2313 2339 2362 2383 2391 2405 2416 2438 2453 2467 2470 2470 2472 2473 2473 2478 2484 2492 2502 2510 2516 2517 2519 2519 2519 2519 2519 2519 2522 2538 2578 2627 2633 2649 2649 2649 2651 2651 2651 2663 2681 2696 2709 2711 2711 2713 2719 2732 2745 2755 2755 2758 2760 2760 2763 2765 2767 2768 2781 2793 2807 2809 2810 2810 2809 2772 2728 2683 2599 2551 0 0 0 0 0 1306 1306 1306 1319 1319 1319 1307 1299 1282 1280 1280 1280 1280 1280 1280 1269 1261 1249 0 0 0 0 1100 1100 1095 1100 1100 1101 1101 1101 1098 1092 1083 1074 0 0 0 0 0 0 0 0 0 655 652 652 0 0 0 0 0 0 579 0 0 0 0 0 0 0 0 0 0 0 0 0 0 0 0 0 0 0 0 0 0 0 0 0 0 0 0 0 0 0 0 0 0 0 0 0 0 0 0 0 0 0 0 0 0 0 0 0 0 0 0 0 0 0 0 0 0 0 0 0 0 0 0 0 0 0 0 0 0 0 0 0 0 0 0 0 0 0 0 0 0 0 0 0 0 0 0 0 0 0 0 0 0 0 0 0 0 0 0 0 0 0 0 0 0 0 0 0 0 0 0 0 0 0 0 0 0 0 0 0 0 0 0 0 0 0 0 0 0 0 0 0 0 0 0 0 0 0 0 0 0 0 0 0 0 0 0 0 0 0 0 0 0 0 0 0 0 0 0 0 0 0 0 0 0 0 0 0 0 0 0 0 0 0 0 0 0 0 0 0 0 0 0 0 0 0 0 0 0 0 0
815 815 827 832 835 841 845 851 857 860 877 888 904 914 934 948 965 986 991 1002 1029 1063 1081 1091 1100 1108 1112 1126 1136 1144 1151 1160 1168 1180 1192 1204 1218 1236 1252 1256 1271 1279 1285 1290 1298 1309 1316 1321 1333 1345 1351 1357 1362 1366 1368 1372 1376 1382 1388 1393 1399 1405 1412 1420 1425 1431 1438 1444 1449 1451 1453 1455 1456 1459 1461 1461 1461 1461 1461 1460 1459 1457 1455 1455 1455 1457 1461 1465 1470 1474 1482 1493 1503 1510 1514 1518 1520 1520 1520 1523 1523 1523 1522 1517 1510 1499 1478 1449 1417 1383 1335 1307 1282 0 0 0 0 1040 1036 1036 1036 1038 1044 1045 1046 1046 1046 1046 1047 1049 1050 1051 1051 1051 1052 1052 1053 1053 1053 1050 1046 1043 1042 1029 1017 1012 1001 1001 1001 1013 1036 1042 1048 1060 1067 1073 1076 1078 1082 1085 1086 1092 1093 1094 1097 1099 1101 1101 1102 1103 1103 1104 1104 1104 1104 1103 1100 1093 1080 1073 1065 1040 1004 969 953 953 953 957 961 961 964 967 969 972 975 977 978 979 979 980 984 987 994 999 1004 1006 1006 1008 1013 1043 1067 1082 1109 1136 1152 1166 1176 1182 1183 1185 1187 1189 1192 1194 1197 1199 1201 1203 1205 1207 1208 1210 1211 1212 1213 1214 1215 1217 1218 1220 1221 1222 1225 1227 1229 1230 1232 1234 1236 1238 1239 1241 1243 1244 1245 1247 1248 1250 1251 1253 1254 1254 1256 1256 1258 1259 1260 1261 1262 1263 1264 1266 1267 1269 1269 1271 1272 1273 1274 1275 1277 1279 1279 1280 1281 1283 1286 1286 1286 1287 1286 1285 1268 1248 1248 1248 1248 1248 1234 1217 1192 1192 0 0 0 0 0 0 0 2242 2248 2255 2256 2256 2276 2288 2288 2288 2288 2288 2316 2351 2371 2383 2391 2405 2416 2438 2453 2467 2470 2479 2480 2480 2480 2480 2480 2480 2489 2502 2502 2504 2504 2504 2509 2515 2521 2521 2522 2538 2565 2597 2633 2649 2649 2649 2649 2649 2649 2651 2668 2686 2700 2702 2703 2704 2714 2734 2745 2755 2755 2755 2757 2758 2761 2764 2766 2768 2781 2791 2798 2803 2804 2804 2804 2769 2719 2652 2557 0 0 0 0 0 1333 1289 1289 1289 1303 1307 1307 1307 1280 1279 1274 1274 1274 1274 1274 1274 1268 1260 1247 0 0 0 1087 1087 1087 1100 1108 1108 1108 1105 1101 1101 1092 1083 1074 0 0 0 0 0 0 0 0 0 0 0 0 0 0 579 579 603 603 603 0 0 0 0 0 0 0 0 0 0 0 0 0 0 0 0 0 0 0 0 0 0 0 0 0 0 0 0 0 0 0 0 0 0 0 0 0 0 0 0 0 0 0 0 0 0 0 0 0 0 0 0 0 0 0 0 0 0 0 0 0 0 0 0 0 0 0 0 0 0 0 0 0 0 0 0 0 0 0 0 0 0 0 0 0 0 0 0 0 0 0 0 0 0 0 0 0 0 0 0 0 2072 2072 2072 0 0 0 0 0 0 0 0 0 0 0 0 0 0 0 0 0 0 0 0 0 0 0 0 0 0 0 0 0 0 0 0 0 0 0 0 0 0 0 0 0 0 0 0 0 0 0 0 0 0 0 0 0 0 0 0 0 0 0 0 0 0 0 0 0 0 0 0 0 0 0 0 0 0 0 0 0 0 0 0 0 0 0 0 0 0 0 0
815 815 816 820 827 841 845 851 857 860 877 888 900 911 930 945 959 971 976 988 1027 1033 1061 1083 1096 1106 1111 1124 1136 1143 1151 1158 1166 1176 1185 1198 1212 1227 1238 1254 1258 1269 1277 1286 1295 1308 1315 1321 1333 1345 1351 1355 1359 1363 1367 1369 1373 1378 1384 1390 1395 1400 1407 1415 1423 1430 1435 1439 1443 1446 1448 1451 1453 1455 1458 1459 1460 1460 1460 1460 1459 1457 1455 1455 1455 1456 1460 1463 1467 1474 1479 1493 1503 1510 1513 1516 1517 1517 1518 1520 1520 1520 1519 1515 1508 1494 1474 1449 1417 1384 1357 1335 1309 0 0 0 0 1055 1036 1036 1036 1043 1044 1045 1046 1046 1047 1047 1048 1049 1050 1051 1051 1052 1053 1053 1054 1054 1054 1052 1048 1047 1046 1045 1037 1035 1032 1032 1032 1041 1059 1062 1070 1076 1076 1077 1083 1087 1089 1090 1090 1093 1094 1097 1099 1100 1102 1104 1105 1105 1105 1106 1106 1106 1105 1104 1104 1101 1090 1077 1072 1048 0 969 952 952 952 954 958 961 962 965 968 972 975 978 978 979 979 980 984 989 994 999 1004 1004 1004 1006 1006 1021 1057 1070 1100 1134 1152 1165 1174 1179 1183 1185 1187 1189 1192 1194 1197 1199 1201 1203 1205 1207 1208 1210 1211 1212 1213 1214 1215 1217 1218 1219 1221 1222 1225 1227 1229 1230 1232 1233 1236 1237 1239 1241 1242 1243 1244 1246 1248 1249 1251 1252 1252 1254 1254 1256 1257 1259 1259 1261 1261 1262 1263 1264 1266 1267 1268 1269 1271 1272 1273 1274 1275 1278 1278 1281 1283 1286 1286 1286 1286 1281 1276 1266 1261 1248 1248 1248 1248 1248 1224 1186 1177 0 0 0 0 0 0 2197 2214 2242 2242 2242 2243 2243 2267 2292 2292 2292 2303 2305 2327 2354 2371 2383 2391 2401 2412 2423 2436 2450 2464 2482 2482 2482 2481 2480 2480 2480 2489 2498 2500 2502 2503 2503 2509 2521 2522 2538 2541 2541 2565 2597 2606 2621 2634 2636 2636 2640 2640 2644 2659 2677 2687 2693 2698 2703 2712 2732 2745 2750 2751 2753 2753 2754 2760 2762 2762 2764 2773 2785 2792 2803 2803 2803 2800 2767 2715 2635 0 0 0 0 0 0 1333 1305 1303 1303 1303 1303 1303 1287 1274 1270 1268 1262 1262 1262 1264 1264 1264 1260 0 0 0 0 0 1087 1087 1109 1111 1112 1112 1111 1089 1082 1078 1078 1058 0 0 0 0 0 0 0 0 0 0 0 0 0 579 579 579 603 603 603 0 0 0 0 0 0 0 0 0 0 0 0 0 0 0 0 0 0 0 0 0 0 0 0 0 0 0 0 0 0 0 0 0 0 0 0 0 0 0 0 0 0 0 0 0 0 0 0 0 0 0 0 0 0 0 0 0 0 0 0 0 0 0 0 0 0 0 0 0 0 0 0 0 0 0 0 0 0 0 0 0 0 0 0 0 0 0 0 0 0 0 0 0 0 0 0 0 0 0 0 2046 2082 2082 2082 2058 0 0 0 0 0 0 0 0 0 0 0 0 0 0 0 0 0 0 0 0 0 0 0 0 0 0 0 0 0 0 0 0 0 0 0 0 0 0 0 0 798 768 768 768 0 0 0 0 0 0 0 0 0 0 0 0 0 0 0 0 0 0 0 0 0 0 0 0 0 0 0 0 0 0 0 0 0 0 0 0 0 0 0 0 0 0 0
815 815 816 820 827 845 856 857 860 860 877 888 900 907 922 939 950 957 961 971 994 1031 1059 1076 1092 1106 1111 1121 1131 1138 1144 1153 1162 1172 1184 1192 1207 1222 1234 1245 1257 1265 1273 1281 1285 1287 1296 1313 1332 1344 1351 1355 1358 1360 1363 1366 1371 1376 1379 1384 1388 1394 1401 1410 1419 1427 1433 1436 1439 1442 1446 1450 1451 1454 1456 1457 1459 1459 1459 1459 1457 1455 1454 1454 1454 1456 1458 1461 1465 1473 1479 1493 1503 1508 1511 1513 1514 1515 1515 1516 1516 1516 1515 1512 1502 1487 1473 1447 1417 1388 1365 1341 1335 0 0 0 0 1059 1038 1038 1038 1043 1044 1044 1046 1046 1047 1047 1048 1049 1050 1051 1052 1052 1053 1053 1054 1054 1054 1053 1050 1050 1050 1050 1050 1050 1049 1049 1049 1056 1063 1069 1077 1078 1079 1080 1086 1090 1092 1094 1094 1095 1096 1099 1100 1101 1104 1105 1107 1107 1107 1107 1107 1107 1106 1106 1106 1105 1095 1084 1072 1049 0 971 952 952 952 954 958 960 962 963 964 968 975 979 979 980 980 980 984 990 996 999 1003 1003 1003 1006 1006 1021 1044 1062 1099 1128 1151 1165 1172 1179 1183 1185 1188 1189 1192 1194 1197 1199 1201 1203 1204 1206 1208 1209 1211 1211 1212 1213 1215 1216 1218 1219 1221 1222 1225 1227 1228 1230 1232 1233 1235 1237 1239 1240 1242 1243 1243 1245 1246 1248 1250 1251 1251 1252 1253 1253 1256 1257 1259 1259 1260 1261 1262 1263 1264 1265 1266 1268 1271 1271 1271 1272 1274 1278 1278 1281 1283 1285 1285 1285 1280 1270 1257 1253 1243 1243 1243 1241 1219 1216 1209 1186 0 0 0 0 0 0 2207 2223 2229 2242 2242 2242 2243 2243 2267 2292 2306 2311 2318 2331 2342 2357 2371 2381 2390 2400 2405 2407 2413 2422 2443 2479 2481 2481 2481 2479 2479 2479 2485 2498 2499 2501 2502 2502 2509 2531 2550 2550 2551 2554 2565 2597 2606 2610 2617 2624 2626 2627 2629 2638 2655 2676 2687 2693 2698 2702 2711 2729 2745 2748 2748 2749 2749 2749 2753 2753 2754 2762 2771 2785 2786 2803 2803 2803 2795 2761 2711 2569 0 0 0 0 0 1332 1325 1298 1292 1292 1292 1292 1292 1284 1269 1260 1247 1222 1222 0 0 0 0 0 0 0 0 0 0 0 1087 1095 1109 1109 1105 1095 1081 1060 1059 1051 0 0 0 0 0 0 0 0 0 0 0 0 0 0 553 553 572 603 603 603 595 0 0 0 0 0 0 0 0 0 0 0 0 0 0 0 0 0 0 0 0 0 0 0 0 0 0 0 0 0 0 0 0 0 0 0 0 0 0 0 0 0 0 0 0 0 0 0 0 0 0 0 0 0 0 0 0 0 0 0 0 0 0 0 0 0 0 0 0 0 0 0 0 0 0 0 0 0 0 0 0 0 0 0 1177 1177 1177 1177 0 0 0 0 0 0 0 0 0 0 0 0 2061 2080 2080 2080 2058 2006 1970 1918 0 0 0 0 0 0 0 0 0 1626 1626 1611 1611 1610 0 0 0 0 0 0 0 0 0 0 0 0 0 0 0 0 0 0 0 0 0 0 792 792 767 767 767 752 0 0 0 0 0 0 0 0 0 0 0 0 0 0 0 0 0 0 0 0 0 0 0 0 0 0 0 0 0 0 0 0 0 0 0 0 0 0 0 0 0 0
816 816 816 820 827 846 861 866 868 873 883 891 900 906 914 928 939 948 958 971 994 1015 1043 1075 1088 1103 1110 1115 1122 1132 1137 1143 1155 1168 1179 1188 1202 1219 1233 1245 1254 1262 1269 1272 1275 1283 1292 1306 1330 1341 1348 1351 1353 1355 1358 1362 1365 1371 1376 1377 1383 1388 1396 1405 1416 1424 1430 1435 1437 1440 1443 1447 1449 1452 1453 1455 1456 1457 1457 1457 1455 1453 1451 1451 1451 1454 1457 1460 1465 1470 1478 1491 1495 1499 1503 1509 1511 1512 1513 1514 1514 1514 1510 1506 1498 1485 1471 1449 1422 1394 1369 1348 1335 0 0 0 0 1068 1043 1043 1043 1044 1044 1044 1046 1047 1047 1047 1048 1049 1051 1052 1053 1053 1053 1054 1055 1055 1055 1053 1050 1050 1050 1052 1052 1055 1056 1056 1059 1067 1070 1075 1077 1080 1082 1084 1087 1090 1092 1095 1096 1097 1098 1100 1102 1103 1105 1106 1107 1107 1109 1109 1109 1108 1108 1108 1108 1107 1102 1097 1081 1058 1022 987 967 954 954 954 958 960 961 963 964 968 975 979 979 980 980 980 984 990 996 999 1003 1003 1003 1006 1006 1021 1044 1062 1099 1121 1141 1165 1172 1179 1183 1185 1188 1190 1192 1195 1197 1199 1201 1203 1204 1205 1207 1209 1210 1211 1212 1213 1215 1216 1217 1219 1220 1222 1224 1226 1227 1229 1231 1232 1234 1236 1237 1238 1240 1241 1242 1243 1245 1246 1248 1249 1250 1250 1251 1252 1255 1256 1257 1258 1259 1260 1261 1262 1264 1265 1266 1268 1269 1269 1270 1270 1271 1275 1277 1281 1282 1282 1282 1277 1271 1254 1248 1232 1231 1227 1221 1219 1219 1216 1221 0 0 0 0 0 0 2183 2207 2223 2229 2242 2242 2243 2243 2243 2267 2293 2312 2327 2331 2336 2342 2357 2371 2379 2390 2400 2400 2403 2405 2405 2427 2473 2477 2477 2477 2477 2477 2477 2485 2490 2494 2495 2496 2499 2513 2532 2554 2557 2559 2571 2592 2601 2606 2610 2617 2624 2626 2627 2627 2638 2655 2676 2687 2693 2698 2699 2711 2716 2735 2745 2748 2748 2745 2744 2742 2742 2742 2748 2761 2772 2780 2802 2802 2802 2774 2731 2650 2566 0 0 0 0 1331 1330 1325 1297 1282 1282 1282 1282 1282 1281 1252 1220 1209 1181 1181 0 0 0 0 0 0 0 0 0 0 0 0 0 0 1109 1095 1076 1075 1059 1032 0 0 0 0 0 0 0 0 0 0 0 0 0 0 567 553 553 567 588 588 588 588 588 0 0 0 0 0 0 0 0 0 0 0 0 0 0 0 0 0 0 0 0 0 0 0 0 0 0 0 0 0 0 0 0 0 0 0 0 0 0 0 0 0 0 0 0 0 0 0 0 0 0 0 0 0 0 0 0 0 0 0 0 0 0 0 0 0 0 0 0 0 0 0 0 0 0 0 0 0 0 0 0 0 1160 1168 1168 1168 1168 1168 0 0 0 0 0 0 0 0 0 0 2038 2061 2061 2061 2051 2027 2006 1970 1919 1883 1845 0 0 0 0 0 0 1626 1626 1626 1606 1601 1585 1570 0 0 0 0 0 0 0 0 0 0 0 0 0 0 0 0 0 0 0 0 0 791 784 767 767 767 752 0 0 0 0 0 0 0 0 0 0 0 0 0 0 0 0 0 0 0 0 0 0 0 0 0 0 0 0 0 0 0 0 0 0 0 0 0 0 0 0 0 0
822 822 822 822 836 851 861 867 871 877 885 892 900 906 914 923 933 944 958 971 994 1015 1040 1065 1086 1101 1110 1114 1118 1124 1131 1137 1148 1161 1175 1185 1199 1215 1231 1244 1251 1258 1262 1265 1270 1280 1289 1303 1324 1336 1341 1346 1349 1352 1356 1359 1363 1367 1372 1375 1381 1385 1391 1399 1409 1419 1427 1431 1434 1436 1440 1443 1446 1448 1451 1452 1454 1455 1455 1455 1453 1451 1450 1449 1449 1449 1452 1455 1460 1465 1473 1478 1482 1488 1497 1504 1508 1510 1511 1512 1512 1512 1509 1505 1497 1485 1470 1449 1423 1395 1374 1349 1335 0 0 0 0 1070 1043 1043 1043 1044 1044 1045 1046 1047 1047 1048 1048 1050 1051 1052 1053 1054 1055 1055 1055 1055 1055 1055 1053 1053 1053 1056 1057 1057 1060 1063 1069 1072 1073 1077 1079 1080 1083 1086 1089 1090 1092 1095 1097 1098 1100 1102 1103 1104 1106 1107 1108 1109 1109 1109 1109 1109 1108 1108 1108 1108 1103 1097 1084 1060 1036 1001 971 960 960 960 960 960 961 963 964 968 975 980 981 981 982 983 989 994 997 999 1003 1006 1015 1019 1023 1032 1044 1062 1099 1121 1141 1165 1172 1179 1183 1185 1188 1191 1193 1196 1197 1199 1200 1202 1204 1205 1207 1208 1209 1211 1212 1213 1214 1216 1217 1219 1220 1222 1224 1226 1227 1228 1229 1231 1232 1234 1235 1237 1239 1239 1240 1242 1243 1245 1246 1246 1247 1248 1249 1250 1253 1254 1254 1256 1257 1258 1259 1260 1263 1265 1265 1266 1266 1267 1268 1268 1271 1272 1275 1278 1278 1278 1272 1263 1250 1240 1238 1231 1219 1217 1219 1221 1221 1221 0 0 0 0 0 0 2154 2183 2207 2223 2229 2248 2263 2267 2267 2267 2276 2296 2317 2328 2332 2336 2345 2358 2371 2379 2390 2400 2400 2403 2405 2405 2424 2455 2461 2466 2469 2470 2472 2477 2481 2485 2486 2488 2489 2501 2518 2543 2554 2557 2559 2571 2592 2601 2606 2610 2617 2624 2626 2627 2627 2638 2655 2676 2692 2695 2698 2699 2704 2713 2724 2741 2743 2743 2743 2743 2742 2739 2739 2739 2750 2767 2779 2794 2794 2794 2738 2666 2620 2517 0 0 0 0 1331 1330 1325 1298 1282 1282 1282 1282 1282 1257 1225 1203 1194 1166 1153 1153 0 0 0 0 0 0 0 0 0 0 0 0 0 1065 1071 1071 1071 1059 1031 0 0 0 0 0 0 0 0 0 0 0 0 0 0 569 569 569 579 588 588 588 588 588 0 0 0 0 0 0 0 0 0 0 0 0 0 0 0 0 0 0 0 0 0 0 0 0 0 0 0 0 0 0 0 0 0 0 0 0 0 0 0 0 0 0 0 0 0 0 0 0 0 0 0 0 0 0 0 0 0 0 0 0 0 0 0 0 0 0 0 0 0 0 0 0 0 0 0 0 0 0 0 0 0 1160 1160 1160 1146 1140 1140 0 0 0 0 0 0 0 0 0 0 2038 2057 2057 2057 2025 1995 1970 1969 1919 1901 1868 1829 0 0 0 0 0 1668 1664 1617 1604 1589 1568 1551 1521 0 0 0 0 0 0 0 0 0 0 0 0 0 0 0 0 0 0 0 0 783 780 767 767 767 752 751 0 0 0 0 0 0 0 0 0 0 0 0 0 0 0 0 0 0 0 0 0 0 0 0 0 0 0 0 0 0 0 0 0 0 0 0 0 0 0 0 0
829 829 841 849 854 858 862 867 872 878 886 892 900 906 914 923 933 944 958 973 996 1015 1040 1063 1085 1100 1108 1113 1118 1122 1128 1137 1146 1158 1172 1184 1196 1213 1226 1236 1243 1248 1253 1257 1269 1275 1289 1303 1318 1329 1336 1340 1343 1348 1354 1358 1362 1366 1370 1374 1379 1382 1386 1392 1402 1414 1422 1425 1428 1433 1435 1438 1443 1445 1447 1450 1452 1453 1453 1453 1453 1451 1450 1449 1449 1449 1449 1452 1456 1461 1465 1470 1478 1482 1491 1499 1504 1507 1509 1510 1510 1510 1509 1504 1496 1485 1470 1450 1428 1398 1375 1349 1322 0 0 0 0 1077 1047 1045 1045 1045 1045 1045 1046 1047 1048 1048 1048 1050 1051 1052 1054 1055 1055 1055 1056 1057 1057 1057 1057 1057 1059 1060 1060 1060 1062 1064 1071 1072 1073 1078 1081 1084 1085 1087 1089 1091 1093 1095 1097 1099 1101 1102 1103 1105 1106 1107 1108 1110 1110 1110 1110 1110 1110 1109 1109 1109 1105 1097 1084 1066 1038 1002 973 965 964 963 960 960 960 963 967 969 976 981 983 983 984 988 995 999 999 1001 1008 1017 1029 1046 1064 0 1092 1096 1111 1121 1141 1167 1175 1180 1183 1185 1188 1191 1193 1196 1197 1199 1200 1202 1203 1205 1206 1207 1209 1211 1211 1212 1214 1216 1216 1218 1219 1221 1223 1224 1226 1227 1228 1229 1230 1232 1234 1235 1237 1237 1239 1241 1242 1244 1244 1245 1245 1246 1247 1249 1251 1252 1254 1255 1256 1257 1257 1258 1261 1262 1263 1263 1263 1264 1266 1268 1269 1269 1270 1270 1270 1266 1256 1246 1245 1237 1234 1218 1218 1204 1218 1221 0 0 0 0 0 0 0 2135 2154 2175 2194 2211 2233 2251 2263 2273 2279 2282 2290 2305 2319 2331 2335 2342 2345 2363 2371 2381 2395 2401 2401 2401 2403 2403 2424 2440 2453 2462 2465 2466 2468 2473 2480 2482 2484 2488 2489 2502 2518 2543 2554 2554 2559 2571 2592 2601 2606 2613 2623 2626 2627 2632 2633 2636 2654 2676 2692 2695 2695 2696 2700 2706 2715 2726 2742 2742 2742 2742 2741 2739 2739 2739 2750 2763 2777 2777 2777 2768 2714 2648 2576 0 0 0 0 0 1352 1331 1330 1310 1269 1269 1269 1269 1269 1232 1188 1173 1169 1149 1127 1127 0 0 0 0 0 0 0 0 0 0 0 0 0 1063 1065 1065 1063 1060 0 0 0 0 0 0 0 0 0 0 0 0 0 0 0 598 598 598 598 588 588 588 573 573 0 0 0 0 0 0 0 0 0 0 0 0 0 0 0 0 0 0 0 0 0 0 0 0 0 0 0 0 0 0 0 0 0 0 0 0 0 0 0 0 0 0 0 0 0 0 0 0 0 0 0 0 0 0 0 0 0 0 0 0 0 0 0 0 0 0 0 0 0 0 0 0 0 0 0 0 0 0 0 0 0 1160 1160 1160 1156 1146 1146 0 0 0 0 0 0 0 0 0 0 2038 2038 2038 2036 2014 1994 1967 1953 1918 1901 1868 1840 1833 0 0 0 1718 1706 1665 1617 1590 1574 1568 1551 1521 0 0 0 0 0 0 0 0 0 0 0 0 0 0 0 0 0 0 0 0 776 776 773 776 778 781 785 0 0 0 0 0 0 0 0 0 0 0 0 0 0 0 0 0 0 0 0 0 0 0 0 0 0 0 0 0 0 0 0 0 0 0 0 0 0 0 0 0
832 832 841 849 856 861 863 867 872 880 888 896 906 913 918 923 933 944 966 984 1001 1015 1037 1063 1084 1099 1107 1112 1117 1121 1128 1137 1145 1155 1165 1175 1188 1202 1216 1227 1234 1237 1243 1252 1262 1275 1289 1303 1316 1326 1330 1333 1336 1339 1346 1357 1360 1364 1367 1372 1376 1380 1383 1383 1394 1406 1414 1419 1423 1427 1430 1434 1439 1444 1446 1448 1450 1451 1452 1452 1452 1451 1450 1447 1447 1447 1448 1450 1453 1453 1454 1455 1465 1474 1486 1495 1498 1501 1506 1509 1509 1509 1509 1503 1496 1485 1471 1450 1428 1398 1375 1353 1322 0 0 0 0 1094 1063 1048 1047 1047 1047 1047 1047 1048 1048 1048 1049 1050 1052 1053 1054 1055 1055 1056 1058 1058 1058 1058 1058 1059 1062 1064 1065 1066 1068 1070 1071 1073 1076 1079 1083 1084 1086 1087 1089 1092 1093 1095 1097 1099 1101 1103 1104 1105 1107 1108 1110 1110 1111 1111 1111 1110 1110 1110 1110 1110 1107 1097 1085 1070 1045 1016 979 965 964 963 960 960 960 966 974 975 981 982 984 985 990 998 1005 1010 1014 1017 1030 1040 1046 1065 1089 1113 1121 1125 1132 1139 1154 1168 1176 1180 1183 1185 1188 1191 1193 1196 1197 1199 1199 1201 1203 1204 1206 1207 1209 1210 1211 1212 1213 1215 1216 1217 1218 1220 1221 1224 1224 1227 1227 1229 1230 1231 1232 1234 1235 1236 1238 1240 1240 1242 1243 1243 1244 1245 1246 1247 1249 1251 1253 1254 1254 1256 1257 1257 1258 1260 1260 1260 1261 1263 1264 1264 1265 1265 1264 1264 1259 1252 1245 1244 1240 1234 1233 1233 1233 1232 0 0 0 0 0 0 0 0 2102 2137 2157 2175 2194 2210 2232 2254 2266 2277 2282 2285 2290 2305 2320 2335 2346 2348 2353 2363 2371 2383 2395 2401 2401 2404 2405 2410 2424 2439 2450 2459 2465 2466 2466 2468 2477 2481 2484 2488 2489 2500 2518 2543 2553 2554 2555 2567 2583 2595 2606 2613 2623 2626 2633 2635 2636 2637 2653 2676 2680 2680 2681 2681 2681 2686 2692 2701 2719 2730 2737 2739 2739 2738 2738 2739 2750 2762 2773 2773 2773 2737 2690 2635 2555 0 0 0 0 0 1380 1331 1330 1323 1269 1269 1266 1266 1266 0 1177 1165 1163 1143 1094 1094 0 0 0 0 0 0 0 0 0 0 0 0 0 1063 1065 1065 1063 1060 0 0 0 0 0 0 0 0 0 0 0 0 0 0 0 620 620 620 620 596 0 0 559 0 0 0 0 0 0 0 0 0 0 0 0 0 0 0 0 0 0 0 0 0 0 0 0 0 0 0 0 0 0 0 0 0 0 0 0 0 0 0 0 0 0 0 0 0 0 0 0 0 0 0 0 0 0 0 0 0 0 0 0 0 0 0 0 0 0 0 0 0 0 0 0 0 0 0 0 0 0 0 0 0 0 1171 1171 1171 1157 1146 1146 0 0 0 0 0 0 0 0 0 0 1999 1999 2001 1999 1995 1985 1946 1923 1913 1901 1868 1840 1833 1830 1792 1788 0 1713 1671 1626 1590 1574 1568 1545 1521 0 0 0 0 0 0 0 0 0 0 0 0 0 0 0 0 0 0 0 747 747 747 754 773 778 781 0 0 0 0 0 0 0 0 0 0 0 0 0 0 0 0 0 0 0 0 0 0 0 0 0 0 0 0 0 0 0 0 0 0 0 0 0 0 0 0 0 0
832 832 841 849 856 861 863 866 872 880 895 905 916 928 932 936 943 952 966 984 1001 1015 1037 1061 1077 1094 1102 1110 1114 1119 1127 1135 1144 1150 1157 1167 1180 1191 1202 1216 1225 1231 1238 1246 1261 1274 1288 1303 1313 1319 1324 1326 1327 1328 1337 1350 1356 1360 1363 1365 1368 1373 1376 1381 1393 1401 1409 1414 1418 1421 1426 1432 1438 1443 1445 1448 1449 1450 1451 1451 1451 1449 1448 1447 1446 1446 1447 1447 1448 1449 1450 1455 1464 1474 1479 1488 1496 1500 1505 1509 1509 1509 1507 1501 1494 1485 1471 1452 1428 1398 1375 1349 1322 0 0 0 0 1098 1070 1055 1047 1047 1047 1048 1048 1048 1048 1049 1049 1050 1052 1053 1054 1055 1056 1057 1058 1058 1059 1060 1061 1062 1063 1065 1066 1067 1069 1070 1071 1073 1076 1079 1083 1085 1086 1088 1090 1092 1093 1095 1098 1099 1101 1103 1105 1106 1107 1109 1110 1111 1111 1111 1111 1111 1111 1111 1111 1111 1109 1100 1088 1072 1048 1016 982 965 964 963 960 960 960 969 983 989 989 990 991 992 998 1013 1027 1030 1030 1040 1054 1059 1071 1086 1102 1128 1139 1144 1151 1157 1166 1170 1178 1180 1183 1185 1188 1191 1193 1195 1197 1197 1199 1201 1203 1204 1206 1207 1207 1209 1210 1211 1213 1213 1215 1216 1218 1219 1220 1222 1224 1225 1226 1227 1229 1230 1231 1233 1234 1234 1236 1237 1239 1240 1241 1241 1242 1242 1244 1245 1247 1248 1250 1250 1252 1254 1256 1257 1257 1257 1258 1259 1260 1261 1263 1263 1263 1263 1262 1251 1240 1240 1239 1239 1239 1228 1213 1213 1213 1218 0 0 0 0 0 0 0 2099 2121 2140 2156 2173 2192 2210 2229 2248 2266 2277 2282 2285 2291 2306 2324 2340 2354 2364 2364 2366 2372 2383 2396 2401 2401 2401 2407 2417 2425 2438 2446 2456 2465 2465 2466 2468 2474 2479 2481 2483 2488 2500 2514 2535 2539 2541 2548 2558 2578 2594 2604 2613 2623 2626 2633 2635 2636 2636 2637 2656 2666 2666 2666 2666 2666 2668 2673 2681 2698 2715 2723 2730 2734 2737 2738 2739 2748 2760 2760 2760 2756 2715 2676 2626 2518 0 0 0 0 0 1367 1331 1330 1328 1266 1266 1265 1265 1265 0 0 1153 1152 1139 1079 0 0 0 0 0 0 0 0 0 0 0 0 0 0 1063 1065 1065 1063 1060 0 0 0 0 0 0 0 0 0 0 0 0 0 0 0 0 642 642 640 0 0 0 0 0 0 0 0 0 0 0 0 0 0 0 0 0 0 0 0 0 0 0 0 0 0 0 0 0 0 0 0 0 0 0 0 0 0 0 0 0 0 0 0 0 0 0 0 0 0 0 0 0 0 0 0 0 0 0 0 0 0 0 0 0 0 0 0 0 0 0 0 0 0 0 0 0 0 0 0 0 0 0 0 0 0 1171 1185 1185 1185 1175 1175 0 0 0 0 0 0 0 0 0 1940 1956 1957 1993 1993 1993 1975 1942 1905 1886 1873 1860 1840 1833 1830 1792 1788 1769 0 0 0 1583 1574 1560 1551 1532 0 0 0 0 0 0 0 0 0 0 0 0 0 0 0 0 0 0 0 705 731 731 747 763 773 0 0 0 0 0 0 0 0 0 0 0 0 0 0 0 0 0 0 0 0 0 0 0 0 0 0 0 0 0 0 0 0 0 0 0 0 0 0 0 0 0 0 0
834 834 841 846 856 861 863 865 872 880 895 911 923 935 938 943 946 952 966 984 1001 1013 1033 1051 1063 1074 1086 1101 1113 1116 1125 1135 1141 1146 1153 1161 1172 1181 1192 1203 1215 1225 1235 1244 1257 1272 1285 1298 1307 1314 1318 1319 1320 1323 1332 1347 1354 1357 1361 1364 1368 1371 1376 1381 1391 1399 1408 1414 1415 1420 1422 1426 1434 1440 1444 1445 1447 1449 1449 1449 1449 1447 1446 1446 1446 1446 1446 1446 1446 1447 1449 1455 1463 1471 1478 1485 1492 1499 1504 1506 1506 1506 1503 1499 1493 1486 1472 1452 1427 1389 1362 1348 1321 0 0 0 0 1098 1083 1063 1048 1048 1048 1048 1049 1049 1049 1049 1050 1051 1052 1053 1054 1056 1057 1058 1059 1060 1060 1061 1062 1063 1064 1065 1067 1068 1069 1070 1072 1075 1077 1080 1083 1085 1087 1089 1090 1092 1094 1096 1098 1100 1101 1103 1105 1106 1108 1109 1110 1111 1112 1112 1112 1112 1112 1112 1112 1112 1112 1103 1090 1075 1053 1025 983 965 964 963 960 960 960 976 994 997 997 998 998 999 1011 1030 1045 1046 1048 1059 1074 1084 1090 1097 1123 1147 1157 1162 1164 1167 1172 1175 1178 1181 1183 1185 1187 1191 1193 1195 1196 1197 1199 1201 1202 1203 1205 1206 1207 1208 1210 1211 1212 1213 1215 1215 1217 1218 1220 1221 1223 1224 1225 1226 1228 1229 1230 1232 1232 1233 1234 1235 1236 1237 1238 1239 1239 1241 1242 1244 1244 1244 1245 1245 1247 1249 1252 1253 1253 1253 1255 1257 1258 1259 1261 1261 1261 1260 1251 1235 1223 1223 1223 1219 1219 1219 1210 1198 1198 0 0 0 0 0 0 0 2121 2135 2139 2149 2156 2172 2191 2209 2229 2247 2266 2277 2282 2285 2294 2309 2328 2345 2359 2364 2366 2371 2378 2384 2392 2398 2398 2398 2407 2417 2425 2436 2441 2450 2464 2465 2466 2468 2474 2475 2481 2483 2490 2500 2507 2515 2527 2528 2538 2554 2573 2585 2592 2597 2606 2612 2627 2632 2634 2635 2637 2642 2653 2654 2654 2656 2662 2668 2673 2676 2686 2695 2698 2710 2725 2737 2738 2739 2748 2750 2750 2750 2740 2692 2646 2604 0 0 0 0 0 0 0 1329 1329 1328 1266 1266 1266 1257 1257 0 0 0 0 0 0 0 0 1032 1087 0 0 0 0 0 0 0 0 0 0 0 1065 1065 1063 0 0 0 0 0 0 0 0 0 0 0 0 0 0 0 0 0 0 0 0 0 0 0 0 0 0 0 0 0 0 0 0 0 0 0 0 0 0 0 0 0 0 0 0 0 0 0 0 0 0 0 0 0 0 0 0 0 0 0 0 0 0 0 0 0 0 0 0 0 0 0 0 0 0 0 0 0 0 0 0 0 0 0 0 0 0 0 0 0 0 0 0 0 0 0 0 0 0 0 0 0 0 0 0 0 0 0 1197 1199 1199 1197 0 0 0 0 0 0 0 0 0 0 1903 1917 1942 1943 1953 1943 1943 1939 1889 1848 1841 1827 1802 1795 1792 1791 1788 1769 1732 0 0 1580 1567 1566 1560 1537 0 0 0 0 0 0 0 0 0 0 0 0 0 0 0 0 0 0 0 700 700 708 708 717 0 0 0 0 0 0 0 0 0 0 0 0 0 0 0 0 0 0 0 0 0 0 0 0 0 0 0 0 0 0 0 0 0 0 0 0 0 0 0 0 0 0 0 0
834 834 838 845 852 856 856 861 868 880 895 911 923 935 938 943 946 952 960 975 991 1008 1032 1049 1055 1060 1070 1090 1108 1111 1123 1134 1140 1144 1152 1161 1170 1176 1184 1199 1211 1220 1233 1242 1253 1266 1276 1287 1298 1307 1313 1315 1318 1321 1330 1341 1350 1354 1358 1362 1368 1371 1375 1381 1391 1399 1407 1411 1415 1418 1420 1425 1430 1436 1440 1442 1444 1446 1446 1446 1445 1445 1444 1444 1444 1444 1443 1443 1443 1444 1447 1454 1462 1471 1477 1483 1491 1496 1499 1501 1501 1501 1499 1497 1492 1486 1472 1452 1421 1373 1352 1335 1321 1296 0 0 0 1098 1083 1063 1050 1049 1048 1048 1049 1049 1049 1049 1050 1051 1052 1053 1054 1056 1057 1058 1059 1060 1061 1062 1063 1063 1065 1066 1067 1069 1070 1072 1074 1076 1079 1081 1083 1085 1087 1089 1091 1093 1094 1096 1098 1100 1102 1104 1105 1107 1108 1110 1111 1111 1112 1113 1113 1113 1113 1113 1113 1113 1113 1107 1093 1077 1063 1030 992 965 964 963 963 963 968 991 999 1000 1000 1001 1001 1009 1028 1039 1047 1056 1064 1081 1098 1106 1109 1127 1152 1166 1167 1168 1169 1170 1173 1177 1180 1182 1183 1185 1187 1190 1193 1195 1196 1197 1198 1200 1201 1203 1204 1206 1207 1208 1209 1211 1212 1213 1214 1215 1216 1218 1220 1221 1222 1224 1224 1225 1226 1226 1228 1229 1230 1231 1231 1233 1234 1234 1235 1236 1238 1239 1241 1242 1242 1243 1243 1244 1245 1246 1249 1251 1251 1251 1254 1255 1256 1257 1257 1257 1254 1248 1237 1217 1212 1212 1212 1212 1212 1209 1204 1192 0 0 0 0 0 0 0 2125 2148 2149 2154 2156 2156 2171 2184 2201 2217 2234 2248 2266 2276 2285 2294 2309 2328 2345 2359 2364 2366 2371 2378 2385 2392 2395 2397 2398 2407 2417 2425 2426 2426 2436 2460 2465 2466 2468 2471 2474 2481 2483 2493 2500 2503 2506 2515 2520 2531 2548 2563 2575 2583 2597 2606 2609 2620 2628 2628 2629 2634 2642 2644 2645 2646 2653 2662 2668 2673 2676 2679 2679 2682 2690 2707 2723 2735 2738 2739 2739 2739 2730 2705 2667 2633 2567 0 0 0 0 0 0 0 0 1323 1323 1266 1266 1263 1255 0 0 0 0 0 0 0 0 1014 1014 1034 1054 0 0 0 0 0 0 0 0 0 0 0 0 0 0 0 0 0 0 0 0 0 0 0 0 0 0 0 0 0 0 0 0 0 0 0 0 0 0 0 0 0 0 0 0 0 0 0 0 0 0 0 0 0 0 0 0 0 0 0 0 0 0 0 0 0 0 0 0 0 0 0 0 0 0 0 0 0 0 0 0 0 0 0 0 0 0 0 0 0 0 0 0 0 0 0 0 0 0 0 0 0 0 0 0 0 0 0 0 0 0 0 0 0 0 0 0 0 0 0 0 0 0 0 0 0 0 0 0 0 0 0 0 0 0 1901 1906 1906 1906 1897 0 0 0 0 0 1791 1780 1768 1765 1765 1768 1768 1765 1732 0 0 1580 1571 1564 1563 1546 0 0 0 0 0 0 0 0 0 0 0 0 0 0 0 0 0 0 0 700 700 700 691 687 0 0 0 0 0 0 0 0 0 0 0 0 0 0 0 0 0 0 0 0 0 0 0 0 0 0 0 0 0 0 0 0 0 0 0 0 0 0 0 0 0 0 0 0
834 834 838 842 843 843 846 851 862 877 894 911 923 935 938 943 945 946 952 964 983 1007 1030 1049 1054 1056 1067 1083 1104 1110 1120 1128 1138 1142 1152 1161 1169 1174 1180 1190 1207 1217 1229 1238 1248 1257 1264 1272 1289 1298 1308 1312 1315 1319 1326 1335 1343 1350 1356 1362 1367 1371 1375 1381 1391 1399 1407 1411 1414 1418 1420 1423 1428 1432 1436 1438 1439 1441 1442 1442 1442 1441 1441 1441 1441 1441 1441 1441 1441 1442 1447 1454 1462 1469 1475 1479 1484 1489 1491 1493 1495 1495 1495 1494 1491 1486 1472 1450 1417 1367 1346 1327 1314 1296 0 0 0 0 1083 1063 1050 1047 1047 1047 1047 1047 1049 1049 1050 1051 1052 1053 1054 1056 1057 1058 1059 1060 1061 1062 1063 1065 1066 1067 1068 1070 1072 1074 1075 1077 1079 1082 1083 1085 1087 1089 1091 1093 1094 1096 1098 1100 1102 1104 1105 1107 1109 1110 1111 1112 1113 1114 1114 1115 1115 1115 1115 1115 1114 1108 1094 1077 1068 1049 1017 983 965 965 965 972 985 996 1001 1003 1011 1015 1026 1028 1046 1057 1066 1076 1094 1111 1114 1123 1133 1149 1162 1166 1168 1169 1170 1170 1174 1178 1180 1182 1184 1185 1187 1190 1192 1194 1195 1197 1198 1199 1201 1203 1204 1204 1206 1207 1209 1210 1211 1212 1213 1214 1216 1217 1218 1220 1220 1222 1223 1224 1224 1225 1226 1227 1227 1228 1229 1231 1233 1233 1233 1233 1235 1237 1239 1241 1241 1242 1242 1243 1243 1246 1247 1248 1249 1249 1251 1251 1249 1249 1249 1249 1241 1228 1214 1211 1204 1203 1203 1193 1178 1178 1178 0 0 0 0 0 0 0 2103 2125 2148 2149 2152 2154 2154 2164 2184 2198 2208 2220 2237 2251 2267 2284 2294 2309 2328 2345 2359 2362 2366 2371 2378 2385 2391 2393 2394 2396 2399 2412 2415 2417 2418 2434 2450 2458 2466 2468 2471 2473 2481 2483 2493 2500 2503 2506 2512 2520 2531 2548 2563 2570 2583 2597 2606 2608 2611 2614 2621 2628 2634 2642 2643 2643 2644 2652 2662 2668 2671 2672 2673 2674 2674 2674 2690 2700 2706 2713 2714 2714 2714 2712 2678 2641 2574 2560 0 0 0 0 0 0 0 0 0 0 0 0 0 0 0 0 0 0 0 0 0 0 1013 1013 1020 1064 0 0 0 0 0 0 0 0 0 0 0 0 0 0 0 0 0 0 0 0 0 0 0 0 0 0 0 0 0 0 0 0 0 0 0 0 0 0 0 0 0 0 0 0 0 0 0 0 0 0 0 0 0 0 0 0 0 0 0 0 0 0 0 0 0 0 0 0 0 0 0 0 0 0 0 0 0 0 0 0 0 0 0 0 0 0 0 0 0 0 0 0 0 0 0 0 0 0 0 0 0 0 0 0 0 0 0 0 0 0 0 0 0 0 0 0 0 0 0 0 0 0 0 0 0 0 0 0 0 0 0 0 0 0 0 1867 1867 1865 0 0 0 0 0 0 0 1749 1748 1748 1749 1752 1752 1752 0 0 0 1576 1576 1562 1561 1556 0 0 0 0 0 0 0 0 0 0 0 0 0 0 0 0 0 0 0 0 698 698 691 687 686 651 625 0 0 0 0 0 0 0 0 0 0 0 0 0 0 0 0 0 0 0 0 0 0 0 0 0 0 0 0 0 0 0 0 0 0 0 0 0 0 0 0 0
834 834 838 839 840 843 844 846 855 876 893 908 917 925 930 934 937 940 945 958 980 1004 1030 1048 1054 1056 1067 1083 1101 1108 1114 1121 1131 1142 1152 1161 1169 1173 1180 1186 1198 1212 1227 1237 1242 1249 1251 1255 1282 1295 1303 1310 1314 1317 1324 1331 1339 1346 1355 1362 1367 1371 1375 1382 1392 1401 1406 1411 1414 1418 1421 1423 1426 1430 1433 1435 1437 1437 1438 1439 1439 1439 1438 1438 1438 1439 1439 1440 1440 1440 1445 1452 1460 1465 1471 1475 1478 1482 1484 1486 1488 1489 1490 1490 1490 1482 1469 1449 1414 1366 1343 1324 1313 1297 0 0 0 0 1052 1050 1050 1047 1047 1047 1047 1047 1047 1049 1050 1051 1052 1053 1054 1055 1057 1058 1059 1061 1062 1063 1064 1065 1066 1068 1070 1072 1073 1075 1077 1078 1080 1083 1084 1086 1087 1090 1091 1093 1095 1096 1098 1100 1102 1104 1105 1107 1109 1110 1111 1112 1113 1114 1115 1116 1116 1116 1116 1116 1115 1109 1098 1086 1080 1065 0 991 976 976 976 988 995 1000 1005 1017 1033 1041 1046 1050 1063 1083 1095 1103 1114 1114 1124 1134 1146 1156 1164 1166 1168 1169 1171 1172 1174 1178 1181 1183 1185 1186 1188 1190 1192 1194 1195 1197 1198 1199 1200 1202 1203 1204 1206 1207 1208 1209 1211 1212 1213 1214 1215 1216 1217 1218 1220 1221 1222 1222 1223 1224 1225 1225 1226 1227 1228 1229 1230 1231 1231 1231 1234 1235 1237 1239 1240 1241 1242 1242 1243 1246 1247 1248 1248 1248 1249 1248 1248 1247 1238 1231 1222 1209 1200 1191 1191 1191 1191 1191 1178 1178 0 0 0 0 0 0 2061 2081 2103 2125 2148 2149 2152 2154 2154 2164 2184 2198 2207 2218 2230 2244 2260 2279 2294 2306 2319 2337 2351 2354 2356 2362 2372 2385 2391 2393 2393 2396 2399 2402 2406 2413 2416 2431 2450 2457 2461 2468 2469 2471 2480 2482 2494 2500 2503 2505 2511 2519 2531 2548 2563 2569 2582 2592 2600 2601 2602 2607 2620 2628 2639 2641 2641 2643 2643 2651 2662 2668 2668 2672 2673 2673 2673 2674 2674 2678 2684 2691 2694 2700 2700 2700 2662 2614 2574 0 0 0 0 0 0 0 0 0 0 0 0 0 0 0 0 0 0 0 0 1042 1031 1016 1016 1016 1019 0 0 0 0 0 0 0 0 0 0 0 0 0 0 0 0 0 0 0 0 0 0 0 0 0 0 0 0 0 0 0 0 0 0 0 0 0 0 0 0 0 0 0 0 0 0 0 0 0 0 0 0 0 0 0 0 0 0 0 0 0 0 0 0 0 0 0 0 0 0 0 0 0 0 0 0 0 0 0 0 0 0 0 0 0 0 0 0 0 0 0 0 0 0 0 0 0 0 0 0 0 0 0 0 0 0 0 0 0 0 0 0 0 0 0 0 0 0 0 0 0 0 0 0 0 0 0 0 0 0 0 0 0 0 0 0 0 0 0 0 0 0 0 0 0 0 0 1732 1732 1730 1723 1716 0 0 0 0 1567 1567 1559 1559 1556 0 0 0 0 0 0 0 0 0 0 0 0 0 0 0 0 0 0 0 0 0 698 682 672 654 651 625 619 0 0 0 0 0 0 0 0 0 0 0 0 0 0 0 0 0 0 0 0 0 0 0 0 0 0 0 0 0 0 0 0 0 0 0 0 0 0 0 0
834 834 838 838 838 843 844 845 849 869 891 905 913 918 922 928 932 936 941 957 978 998 1021 1042 1050 1056 1065 1083 1097 1102 1106 1108 1121 1139 1150 1160 1168 1172 1178 1185 1195 1209 1222 1228 1233 1237 1241 1249 1271 1290 1301 1307 1311 1317 1324 1331 1338 1346 1354 1360 1366 1371 1375 1382 1392 1401 1406 1410 1414 1418 1421 1422 1425 1428 1431 1433 1434 1436 1437 1437 1437 1436 1436 1436 1436 1437 1439 1440 1440 1440 1443 1449 1455 1459 1464 1468 1471 1475 1478 1481 1483 1484 1484 1484 1482 1478 1465 1441 1413 1364 1338 1321 1310 1297 0 0 0 0 1046 1044 1044 1044 1044 1044 1045 1046 1047 1049 1050 1051 1052 1053 1054 1055 1057 1058 1060 1061 1062 1063 1065 1067 1068 1069 1072 1073 1074 1077 1078 1080 1081 1083 1084 1086 1088 1090 1091 1093 1094 1096 1098 1100 1102 1104 1105 1107 1108 1110 1111 1112 1113 1114 1116 1116 1116 1117 1117 1117 1115 1109 1100 1091 1082 1076 1045 998 992 992 992 1004 1009 1013 1019 1030 1042 1048 1057 1073 1074 1097 1111 1116 1129 1131 1136 1147 1151 1158 1164 1166 1168 1169 1171 1173 1175 1178 1181 1183 1185 1187 1188 1190 1192 1194 1195 1196 1197 1199 1200 1202 1203 1204 1206 1207 1208 1209 1210 1212 1212 1214 1214 1215 1216 1216 1218 1219 1219 1221 1221 1223 1223 1224 1224 1225 1225 1227 1228 1228 1228 1230 1233 1234 1235 1236 1236 1237 1238 1241 1243 1244 1245 1248 1248 1248 1247 1247 1246 1242 1234 1219 1207 1197 1188 1177 1177 1177 1172 1188 0 0 0 0 0 0 0 2045 2061 2081 2096 2113 2142 2142 2142 2145 2145 2164 2184 2198 2204 2211 2225 2238 2255 2270 2284 2291 2302 2321 2336 2345 2351 2354 2359 2365 2376 2383 2388 2396 2397 2399 2402 2406 2416 2430 2450 2457 2461 2463 2464 2469 2480 2482 2494 2500 2502 2505 2511 2519 2536 2551 2558 2568 2580 2592 2592 2592 2602 2607 2616 2628 2639 2639 2639 2642 2642 2644 2656 2662 2663 2664 2667 2672 2673 2673 2673 2673 2673 2677 2693 2695 2695 2695 2657 2613 0 0 0 0 0 0 0 0 0 0 0 0 0 0 0 0 0 0 0 0 1018 1031 1031 1031 1018 1018 0 0 0 0 0 0 0 0 0 0 0 0 0 0 0 0 0 0 0 0 0 0 0 0 0 0 0 0 0 0 0 0 0 0 0 0 0 0 0 0 0 0 0 0 0 0 0 0 0 0 0 0 0 0 0 0 0 0 0 0 0 0 0 0 0 0 0 0 0 0 0 0 0 0 0 0 0 0 0 0 0 0 0 0 0 0 0 0 0 0 0 0 0 0 0 0 0 0 0 0 0 0 0 0 0 0 0 0 0 0 0 0 0 0 0 0 0 0 0 0 0 0 0 0 0 0 0 0 0 0 0 0 0 0 0 0 0 0 0 0 0 0 0 0 0 0 0 0 0 0 0 0 0 0 0 0 0 0 1550 1556 1556 0 0 0 0 0 0 0 0 0 0 0 0 0 0 0 0 0 0 0 0 0 0 669 669 651 651 644 625 619 619 0 0 0 0 0 0 0 0 0 0 0 0 0 0 0 0 0 0 0 0 0 0 0 0 0 0 0 0 0 0 0 0 0 0 0 0 0 0 0
829 829 833 835 838 840 840 840 840 840 870 893 903 908 913 921 927 933 940 956 977 995 1011 1032 1045 1055 1065 1083 1083 1091 1092 1101 1111 1138 1150 1159 1168 1172 1177 1184 1194 1208 1217 1221 1224 1229 1234 1246 1265 1283 1299 1306 1310 1317 1322 1331 1337 1344 1354 1358 1366 1371 1375 1382 1392 1401 1406 1409 1413 1418 1420 1421 1423 1425 1428 1430 1432 1433 1434 1434 1434 1434 1434 1434 1434 1436 1439 1439 1440 1440 1442 1445 1447 1450 1453 1458 1464 1467 1471 1474 1478 1480 1480 1480 1477 1469 1455 1429 1403 1362 1336 1320 1307 1296 0 0 0 1075 1046 1044 1044 1042 1042 1044 1045 1046 1047 1049 1050 1051 1052 1053 1054 1055 1057 1058 1060 1061 1063 1064 1065 1068 1069 1071 1072 1074 1075 1077 1078 1081 1082 1084 1085 1086 1088 1090 1091 1093 1094 1096 1098 1100 1102 1104 1105 1107 1108 1109 1111 1112 1113 1114 1116 1116 1117 1117 1117 1117 1116 1109 1104 1097 1085 1077 1047 1020 1009 1009 1009 1019 1024 1033 1041 1054 1059 1061 1067 1093 1117 1119 1130 1130 1138 1148 1155 1157 1159 1162 1164 1166 1168 1170 1172 1174 1177 1179 1181 1183 1185 1187 1188 1190 1192 1194 1195 1196 1197 1198 1200 1202 1202 1204 1205 1206 1207 1208 1210 1211 1212 1212 1213 1214 1214 1215 1215 1216 1218 1219 1220 1221 1221 1222 1222 1222 1223 1225 1226 1227 1227 1229 1229 1230 1230 1230 1231 1234 1238 1240 1240 1241 1242 1246 1246 1246 1238 1233 1231 1230 1220 1207 1195 1187 1178 1178 1177 1178 1207 0 0 0 0 0 0 2008 2029 2045 2059 2074 2095 2109 2119 2126 2130 2139 2145 2165 2189 2199 2203 2204 2212 2229 2248 2269 2275 2279 2288 2306 2325 2340 2348 2348 2348 2353 2356 2370 2387 2396 2396 2397 2399 2403 2415 2429 2448 2457 2461 2461 2461 2467 2480 2482 2494 2500 2502 2502 2512 2519 2536 2551 2558 2567 2575 2586 2588 2588 2595 2596 2613 2628 2639 2639 2639 2639 2639 2641 2644 2647 2648 2654 2667 2671 2671 2671 2670 2670 2670 2676 2692 2692 2692 2675 2649 2590 0 0 0 0 0 0 0 0 0 0 0 0 0 0 0 0 0 0 973 997 1018 1031 1044 1044 1044 0 0 0 0 0 0 0 0 0 0 0 0 0 0 0 0 0 0 0 0 0 0 0 0 0 0 0 0 0 0 0 0 0 0 0 0 0 0 0 0 0 0 0 0 0 0 0 0 0 0 0 0 0 0 0 0 0 0 0 0 0 0 0 0 0 0 0 0 0 0 0 0 0 0 0 0 0 0 0 0 0 0 0 0 0 0 0 0 0 0 0 0 0 0 0 0 0 0 0 0 0 0 0 0 0 0 0 0 0 0 0 0 0 0 0 0 0 0 0 0 0 0 0 1509 1510 1512 1518 1548 0 0 0 1585 1585 1585 0 0 0 0 0 0 0 0 0 0 0 0 0 0 0 0 0 0 0 0 0 0 0 0 0 0 0 0 0 0 0 0 0 0 0 0 0 0 0 0 0 0 0 0 0 0 0 0 0 0 661 661 661 661 661 629 619 619 0 0 0 0 0 0 0 0 0 0 0 0 0 0 0 0 0 0 0 0 0 0 0 0 0 0 0 0 0 0 0 0 0 0 0 0 0 0 0
821 821 827 834 836 836 836 834 834 834 853 875 885 890 899 912 923 933 940 956 973 989 1001 1016 1034 1050 1065 1078 1080 1082 1085 1087 1105 1136 1150 1156 1163 1169 1175 1183 1193 1205 1211 1213 1217 1221 1228 1244 1259 1275 1291 1301 1310 1315 1322 1330 1334 1341 1349 1358 1364 1368 1373 1381 1390 1398 1402 1407 1412 1416 1418 1419 1419 1421 1425 1427 1429 1430 1431 1431 1431 1431 1431 1431 1431 1435 1437 1438 1440 1440 1440 1441 1443 1445 1450 1454 1460 1461 1464 1469 1475 1478 1478 1478 1474 1466 1446 1426 1394 1346 1320 1310 1307 1287 0 0 0 1074 1046 1044 1043 1041 1041 1042 1043 1045 1047 1049 1050 1051 1052 1053 1054 1055 1057 1058 1060 1062 1063 1065 1067 1068 1070 1071 1073 1074 1076 1078 1079 1081 1083 1084 1085 1087 1088 1090 1091 1093 1094 1096 1098 1100 1102 1104 1105 1107 1108 1109 1111 1112 1113 1115 1116 1117 1117 1118 1119 1119 1119 1116 1112 1106 1093 1077 1056 1047 1035 1034 1034 1034 1045 1064 1079 1084 1084 1089 1101 1122 1133 1138 1139 1141 1146 1154 1159 1160 1161 1163 1165 1168 1169 1171 1173 1176 1177 1179 1182 1183 1186 1187 1188 1190 1192 1193 1195 1195 1197 1198 1200 1201 1202 1203 1204 1206 1207 1208 1209 1209 1211 1211 1212 1213 1213 1214 1214 1215 1216 1216 1218 1218 1219 1220 1220 1220 1221 1223 1224 1225 1226 1226 1226 1227 1227 1227 1230 1233 1237 1238 1239 1239 1239 1239 1239 1235 1224 1223 1220 1218 1201 1197 1195 1185 1183 1179 1177 1179 1179 0 0 0 0 0 1986 2016 2031 2042 2057 2074 2095 2108 2119 2125 2127 2139 2145 2169 2195 2200 2202 2202 2204 2216 2236 2258 2269 2270 2278 2295 2319 2335 2337 2337 2337 2337 2337 2352 2380 2393 2393 2396 2396 2396 2410 2426 2443 2457 2459 2460 2461 2462 2464 2475 2485 2494 2498 2500 2506 2518 2536 2551 2555 2558 2558 2568 2577 2579 2584 2586 2596 2616 2630 2632 2633 2633 2634 2634 2634 2637 2639 2645 2666 2671 2671 2671 2665 2665 2665 2674 2675 2675 2675 2621 2598 2565 0 0 0 0 0 0 0 0 0 0 0 0 0 0 0 0 0 944 973 997 1018 1053 1083 1083 0 0 0 0 0 0 0 0 0 0 0 0 0 0 0 0 0 0 0 0 0 0 0 0 0 0 0 0 0 0 0 0 0 0 0 0 0 0 0 0 0 0 0 0 0 0 0 0 0 0 0 0 0 0 0 0 0 0 0 0 0 0 0 0 0 0 0 0 0 0 0 0 0 0 0 0 0 0 0 0 0 0 0 0 0 0 0 0 0 0 0 0 0 0 0 0 0 0 0 0 0 0 0 0 0 0 0 0 0 0 0 0 0 0 0 0 0 0 0 0 0 0 0 1538 1529 1526 1526 1526 1548 1577 0 1611 1611 1604 1604 1604 0 0 0 0 0 0 0 0 0 0 0 0 0 0 0 0 0 0 0 0 0 0 0 0 0 0 0 0 0 0 0 0 0 0 0 0 0 0 0 0 0 0 0 0 0 0 0 0 0 650 650 650 650 647 629 615 615 0 0 0 0 0 0 0 0 0 0 0 0 0 0 0 0 0 0 0 0 0 0 0 0 0 0 0 0 0 0 0 0 0 0 0 0 0 0 0
814 814 823 824 824 824 818 818 818 832 852 864 871 876 888 906 923 931 940 950 970 985 997 1010 1023 1039 1058 1068 1074 1076 1080 1085 1092 1134 1146 1153 1161 1168 1175 1183 1193 1203 1206 1206 1209 1217 1226 1240 1256 1269 1280 1293 1303 1312 1320 1324 1326 1329 1339 1349 1357 1363 1370 1378 1388 1395 1400 1405 1409 1412 1414 1415 1415 1417 1421 1424 1425 1426 1426 1426 1426 1426 1426 1427 1428 1432 1437 1437 1437 1438 1438 1438 1440 1444 1448 1454 1457 1460 1462 1467 1473 1476 1476 1476 1471 1462 1445 1425 1388 1333 1304 1296 1292 0 0 0 0 1064 1062 1060 1054 1042 1042 1042 1042 1044 1047 1048 1050 1051 1052 1053 1054 1056 1057 1058 1060 1062 1063 1065 1067 1068 1070 1072 1073 1074 1076 1078 1079 1082 1084 1085 1086 1088 1089 1090 1091 1093 1094 1096 1098 1100 1101 1103 1105 1107 1108 1109 1111 1112 1113 1115 1116 1117 1118 1119 1119 1119 1119 1119 1119 1114 1103 1090 1080 1077 1076 1064 1064 1064 1076 1091 1096 1098 1105 1118 1130 1139 1145 1147 1148 1149 1152 1155 1159 1162 1163 1165 1167 1169 1171 1172 1174 1176 1178 1180 1182 1184 1186 1187 1188 1190 1192 1193 1194 1195 1197 1198 1199 1200 1201 1202 1203 1205 1206 1207 1207 1208 1209 1210 1211 1211 1211 1212 1212 1213 1213 1214 1215 1216 1216 1218 1218 1218 1219 1221 1222 1222 1224 1224 1224 1224 1225 1225 1229 1232 1233 1234 1235 1235 1234 1234 1230 1219 1219 1215 1209 1205 1195 1192 1189 1189 1180 1179 1179 1189 0 0 0 0 0 1977 1998 2019 2032 2042 2055 2072 2092 2106 2118 2124 2127 2131 2151 2176 2197 2202 2202 2204 2204 2216 2236 2255 2262 2266 2275 2292 2316 2329 2330 2330 2330 2330 2330 2341 2362 2379 2387 2389 2390 2391 2400 2424 2443 2457 2459 2459 2460 2460 2460 2468 2479 2488 2492 2500 2505 2517 2524 2530 2536 2537 2539 2552 2570 2574 2574 2583 2583 2586 2608 2625 2625 2625 2624 2624 2624 2633 2639 2644 2657 2663 2663 2663 2658 2658 2658 2666 2666 2666 2630 2579 2528 2495 0 0 0 0 0 0 0 0 0 0 0 0 0 0 0 0 0 944 973 997 1033 1064 1083 1083 0 0 0 0 0 0 0 0 0 0 0 0 0 0 0 0 0 0 0 0 0 0 0 0 0 0 0 0 0 0 0 0 0 0 0 0 0 0 0 0 0 0 0 0 0 0 0 0 0 0 0 0 0 0 0 0 0 0 0 0 0 0 0 0 0 0 0 0 0 0 0 0 0 0 0 0 0 0 0 0 0 0 0 0 0 0 0 0 0 0 0 0 0 0 0 0 0 0 0 0 0 0 0 0 0 0 0 0 0 0 0 0 0 0 0 0 0 0 0 0 0 0 1574 1571 1535 1526 1526 1526 1543 1577 0 1628 1628 1628 1607 1590 1590 0 0 0 0 0 0 0 0 0 0 0 0 0 0 0 0 0 0 0 0 0 0 0 0 0 0 0 0 0 0 0 0 0 0 0 0 0 0 0 0 0 0 0 0 0 0 0 0 0 651 651 650 642 629 615 615 0 0 0 0 0 0 0 0 0 0 0 0 0 0 0 0 0 0 0 0 0 0 0 0 0 0 0 0 0 0 0 0 0 0 0 0 0 0 0
