423 423 430 0 0 0 0 0 0 0 0 0 0 0 0 965 987 1001 1014 1028 1045 1049 1082 1103 1127 1143 1167 1194 1217 1231 1240 1250 1276 1294 1317 1321 1328 1337 1348 1358 1364 1365 1365 1366 1366 1367 1370 1374 1379 1381 1386 1392 1395 1404 1410 1416 1422 1429 1436 1441 1446 1451 1454 1458 1460 1460 1460 1459 1459 1458 1458 1458 1457 1456 1455 1454 1451 1449 1445 1441 1437 1433 1430 1428 1426 1425 1425 1425 1429 1437 1438 1438 1438 1433 1424 1393 1389 0 0 0 0 0 960 957 956 956 956 956 955 955 955 956 956 956 956 956 955 954 953 953 951 945 938 930 923 911 889 863 842 842 841 840 840 835 835 835 836 837 837 837 837 837 838 840 840 841 842 842 842 843 848 853 858 864 869 874 877 881 888 894 900 906 929 950 965 977 983 988 990 993 995 996 998 999 1000 1001 1002 1002 1003 1003 1004 1005 1006 1007 1008 1009 1009 1010 1011 1011 1011 1011 1011 1011 1011 1010 1010 1010 1007 1004 1002 1000 992 980 962 945 936 926 926 922 922 921 920 920 919 916 916 916 920 941 941 941 937 936 934 934 934 936 960 978 990 999 999 999 999 1004 1012 1019 1020 1022 1029 1038 1043 1044 1044 1045 1045 1045 1044 1044 1043 1043 1044 1045 1049 1050 1050 1052 1052 1052 1049 1049 1048 1049 1049 1049 1054 1061 1061 1062 1063 1064 1067 1073 1075 1076 1082 1087 1090 1091 1094 1096 1097 1098 1099 1099 1101 1103 1105 1106 1107 1107 1108 1108 1110 1112 1112 1112 1112 1112 1112 1109 1107 1105 1103 1098 1095 1092 1087 1079 1065 1058 1053 1051 1051 1051 1052 1052 1052 1053 1053 1053 1055 1057 1057 1058 1058 1058 1060 1060 1062 1064 1064 1065 1065 1065 1081 1096 1104 1117 1135 1144 1146 1149 1152 1153 1156 1157 1159 1160 1163 1165 1165 1167 1167 1168 1169 1170 1170 1170 1171 1172 1172 1174 1175 1175 1176 1176 1177 1178 1179 1181 1182 1182 1183 1183 1184 1184 1185 1185 1186 1186 1188 1189 1190 1191 1193 1197 1197 1203 1203 1207 1208 1226 0 0 1349 1373 1389 1393 1396 1397 1396 1396 1396 1396 1396 1406 1422 1436 1450 1468 1475 1477 1477 1482 1482 1484 1484 1484 1484 1484 1481 1471 1468 1465 1453 1453 1453 1464 1464 1464 1451 1439 1429 1427 0 0 0 0 0 0 0 0 0 0 0 0 0 0 0 1265 1259 1215 1200 1184 0 0 0 0 0 0 0 0 0 0 0 0 0 0 0 0 0 0 0 0 0 706 702 702 702 720 0 0 0 0 0 0 0 0 0 0 0 0 0 0 0 0 0 0 0 0 0 0 0 0 0 0 0 0 0 0 0 0 0 0 0 0 0 0 0 0 0 0 0 0 0 0 0 1360 1360 1344 0 0 0 0 0 0 0 0 0 0 0 0 0 0 0 0 0 0 0 0 0 0 0 0 0 0 0 0 0 0 0 0 0 0 0 0 0 0 0 0 0 0 0 0 0 0 0 0 0 0 0 0 0 0 0 0 0 0 0 0 0 0 0 0 0 0 0 0 0 0 0 0 0 0 0 0 0 0 0 0 0 0 0 0 0 0 0 0 0 0 0 0 0 0 0 0 0 0 0 0 632 632 632 635 635 635 621 0
435 435 0 0 0 0 0 0 0 0 0 0 0 0 0 979 1000 1015 1027 1042 1056 1061 1087 1108 1127 1148 1175 1204 1224 1231 1240 1262 1279 1294 1317 1328 1332 1340 1348 1358 1364 1368 1368 1369 1369 1371 1373 1377 1381 1385 1389 1395 1398 1405 1411 1416 1422 1427 1434 1440 1446 1451 1454 1458 1460 1460 1460 1460 1460 1459 1459 1458 1457 1456 1453 1451 1448 1445 1441 1439 1435 1428 1426 1426 1426 1427 1427 1427 1434 1439 1444 1444 1444 1438 1431 1394 1389 0 0 0 0 0 961 959 959 957 957 957 957 957 957 957 958 958 958 958 957 955 955 954 954 947 938 930 928 921 895 869 854 846 846 844 840 837 837 837 838 839 839 839 839 839 839 841 841 841 842 842 842 843 848 853 858 864 869 874 878 882 890 896 903 910 930 950 965 977 983 988 990 993 995 996 998 999 1000 1001 1002 1002 1003 1004 1005 1006 1006 1007 1008 1009 1009 1010 1011 1011 1011 1011 1011 1011 1011 1011 1011 1010 1008 1005 1004 1002 994 985 971 957 943 932 930 929 928 928 929 929 929 929 929 932 940 952 958 961 962 963 965 966 966 969 978 982 993 1009 1009 1009 1014 1014 1014 1020 1022 1022 1028 1036 1041 1042 1042 1042 1041 1041 1038 1037 1036 1036 1036 1043 1043 1043 1043 1043 1037 1037 1037 1041 1041 1042 1043 1043 1054 1055 1060 1060 1061 1063 1067 1073 1076 1076 1083 1088 1092 1095 1097 1098 1099 1101 1102 1103 1104 1106 1108 1109 1110 1110 1110 1112 1114 1115 1115 1115 1115 1114 1114 1112 1109 1108 1104 1099 1096 1093 1086 1077 1068 1062 1058 1055 1052 1052 1052 1052 1052 1053 1053 1053 1055 1056 1056 1056 1056 1056 1056 1060 1062 1064 1065 1068 1073 1078 1092 1101 1105 1119 1140 1149 1150 1151 1154 1157 1159 1160 1161 1163 1164 1166 1167 1168 1169 1170 1170 1171 1172 1173 1173 1174 1174 1175 1176 1177 1178 1178 1179 1180 1181 1182 1183 1184 1184 1185 1185 1185 1186 1187 1188 1189 1190 1191 1193 1194 1198 1198 1200 1203 1203 1208 1208 0 0 0 1369 1401 1408 1408 1412 1412 1409 1409 1409 1409 1409 1418 1426 1438 1456 1473 1490 1490 1490 1487 1485 1482 1477 1477 1477 1471 1469 1469 1461 1459 1452 1451 1447 1447 1447 1435 1430 1419 0 0 0 0 0 0 0 0 0 0 0 0 0 0 1234 1265 1265 1265 1259 1215 1200 1184 0 0 0 0 0 0 0 0 0 0 0 0 0 0 0 0 0 0 0 0 0 680 682 687 702 714 0 0 0 0 0 0 0 0 0 0 0 0 0 0 0 0 0 0 0 0 0 0 0 0 0 0 0 0 0 0 0 0 0 0 0 0 0 0 0 0 0 0 0 0 0 0 0 0 0 0 0 0 0 0 0 0 0 0 0 0 0 0 0 0 0 0 0 0 0 0 0 0 0 0 0 0 0 0 0 0 0 0 0 0 0 0 0 0 0 0 0 0 0 0 0 0 0 0 0 0 0 0 0 0 0 0 0 0 0 0 0 0 0 0 0 0 0 0 0 0 0 0 0 0 0 0 0 0 0 0 0 0 0 0 0 0 0 0 0 0 0 0 0 0 0 0 0 0 0 0 0 642 642 635 635 635 621 0
452 452 0 0 0 0 0 0 0 0 0 0 0 0 0 988 1011 1029 1041 1058 1072 1076 1094 1112 1133 1153 1177 1208 1224 1231 1240 1262 1279 1294 1317 1328 1333 1340 1348 1358 1364 1368 1371 1371 1371 1373 1376 1380 1383 1388 1392 1397 1400 1406 1413 1418 1421 1425 1430 1437 1445 1451 1454 1457 1458 1459 1460 1460 1460 1460 1459 1458 1456 1454 1452 1449 1445 1443 1439 1435 1431 1427 1427 1427 1428 1429 1429 1434 1437 1442 1447 1447 1447 1440 1431 1394 1386 0 0 0 0 0 963 960 959 959 959 959 959 960 960 960 960 960 960 960 959 957 957 957 956 950 943 935 930 922 899 872 856 853 852 850 845 837 837 837 838 841 841 841 842 842 843 843 843 843 843 843 844 846 850 854 858 864 870 875 878 884 893 902 908 916 932 951 965 974 983 988 990 993 995 996 998 999 1000 1001 1002 1002 1003 1004 1005 1006 1006 1007 1008 1009 1009 1010 1011 1011 1011 1011 1011 1011 1011 1011 1011 1010 1009 1007 1007 1003 999 991 981 968 957 941 938 937 937 937 938 938 938 940 947 958 964 969 970 970 970 970 976 985 994 998 1001 1003 1003 1027 1027 1027 1027 1027 1027 1027 1028 1028 1028 1032 1032 1033 1033 1033 1033 1033 1030 1027 1027 1027 1029 1032 1033 1033 1032 1031 1029 1029 1029 1038 1038 1038 1032 1032 1032 1040 1047 1054 1055 1058 1065 1073 1077 1078 1084 1091 1094 1096 1098 1100 1102 1104 1105 1106 1107 1109 1110 1111 1112 1113 1114 1114 1116 1117 1117 1117 1116 1116 1115 1114 1112 1109 1106 1101 1098 1093 1086 1079 1070 1063 1063 1062 1055 1052 1052 1052 1053 1053 1053 1054 1055 1055 1055 1054 1054 1054 1056 1060 1062 1065 1067 1068 1074 1089 1101 1103 1106 1119 1142 1152 1152 1154 1156 1158 1160 1161 1163 1165 1166 1167 1168 1169 1171 1171 1172 1173 1174 1174 1175 1175 1176 1177 1178 1179 1179 1180 1181 1182 1183 1185 1185 1186 1187 1187 1188 1188 1188 1189 1191 1191 1193 1194 1197 1197 1198 1199 1202 1203 1210 1212 1221 0 0 0 1401 1419 1419 1420 1421 1421 1423 1423 1423 1421 1421 1421 1429 1439 1457 1484 1497 1497 1497 1487 1481 1474 1465 1465 1465 1465 1465 1463 1454 1435 1435 1434 1429 1429 0 0 0 0 0 0 0 0 0 1173 1178 1178 1156 1139 0 0 0 0 1256 1265 1265 1265 1235 1215 1200 1194 0 0 0 0 0 0 0 0 0 0 0 0 0 0 0 0 0 0 0 0 677 677 677 682 684 0 0 0 0 0 0 0 0 0 0 0 0 0 0 0 0 0 0 0 0 0 0 0 0 0 0 0 0 0 0 0 0 0 0 0 0 0 0 0 0 0 0 0 0 0 0 0 0 0 0 0 0 0 0 0 0 0 0 0 0 0 0 0 0 0 0 0 0 0 0 0 0 0 0 0 0 0 0 0 0 0 0 0 0 0 0 0 0 0 0 0 0 0 0 0 0 0 0 0 0 0 0 0 0 0 0 0 0 0 0 0 0 0 0 0 0 0 0 0 0 0 0 0 0 0 0 0 0 0 0 0 0 0 0 0 0 0 0 0 0 0 0 0 0 0 0 0 0 0 0 0 0 661 661 661 646 646 0 0
468 468 0 0 0 0 0 0 0 0 0 0 0 0 0 993 1020 1039 1055 1071 1084 1098 1101 1117 1134 1153 1177 1208 1224 1228 1243 1262 1279 1294 1317 1328 1333 1340 1348 1356 1363 1368 1371 1373 1375 1377 1379 1381 1386 1389 1393 1397 1401 1406 1415 1420 1421 1423 1425 1431 1439 1447 1454 1456 1456 1457 1459 1460 1460 1460 1459 1457 1456 1453 1450 1448 1445 1440 1434 1431 1428 1427 1427 1427 1428 1430 1433 1440 1446 1450 1456 1456 1456 1448 1437 1400 1389 1357 0 0 0 0 967 963 960 960 960 961 961 962 962 962 962 962 962 961 961 960 959 958 957 953 945 939 934 922 901 873 860 859 855 850 845 837 837 837 839 843 844 844 844 844 845 845 846 846 846 846 846 849 852 856 860 867 874 879 880 885 897 906 910 916 932 951 965 974 976 986 990 992 994 996 997 999 1000 1001 1001 1002 1002 1003 1005 1006 1006 1007 1008 1008 1009 1010 1010 1011 1011 1011 1011 1011 1011 1011 1011 1011 1012 1011 1011 1008 1007 998 988 981 972 958 951 951 951 955 963 963 963 967 967 969 975 979 980 980 981 982 996 1007 1014 1014 1016 1027 1033 1037 1037 1037 1037 1037 1036 1035 1033 1032 1030 1029 1029 1028 1028 1027 1021 1018 1013 1013 1013 1014 1018 1022 1022 1025 1025 1025 1022 1022 1022 1027 1028 1028 1028 1028 1032 1040 1047 1054 1055 1057 1065 1073 1077 1078 1084 1093 1096 1098 1101 1103 1104 1107 1108 1109 1111 1112 1113 1113 1114 1115 1116 1117 1117 1118 1118 1118 1118 1118 1117 1115 1114 1111 1107 1103 1099 1094 1086 1081 1070 1066 1065 1064 1061 1056 1056 1056 1058 1058 1058 1058 1058 1056 1055 1054 1054 1054 1056 1060 1063 1065 1068 1069 1076 1090 1102 1106 1111 1127 1145 1154 1157 1158 1159 1160 1161 1163 1164 1166 1168 1170 1170 1171 1172 1173 1175 1175 1176 1176 1176 1177 1178 1179 1179 1181 1181 1182 1182 1183 1185 1186 1187 1188 1189 1189 1189 1189 1190 1192 1192 1194 1195 1198 1199 1200 1200 1200 1205 1214 1227 1235 1253 0 0 0 1412 1421 1424 1426 1432 1437 1438 1438 1438 1434 1434 1434 1446 1460 1478 1491 1497 1497 1497 1487 1481 1464 1457 1457 1457 1455 1455 1450 1402 1394 1394 1394 1394 0 0 0 0 0 0 0 0 1186 1173 1173 1178 1187 1178 1178 1195 1198 1226 1246 1246 1246 1240 1222 1222 1222 1222 1222 0 0 0 0 0 0 0 0 0 0 0 0 0 0 0 0 0 0 0 0 673 659 658 0 0 0 0 0 0 0 0 0 0 0 0 0 0 0 0 0 0 0 0 0 0 0 0 0 0 0 0 0 0 0 0 0 0 0 0 0 0 0 0 0 0 0 0 0 0 0 0 1437 1437 1437 0 0 0 0 0 0 0 0 0 0 0 0 0 0 0 0 0 0 0 0 0 0 0 0 0 0 0 0 0 0 0 0 0 0 0 0 0 0 0 0 0 0 0 0 0 0 0 0 0 0 0 0 0 0 0 0 0 0 0 0 0 0 0 0 0 0 0 0 0 0 0 0 0 0 0 0 0 0 0 0 0 0 0 0 0 0 0 0 0 0 0 0 0 0 0 0 0 0 695 732 732 0 0 670 666 666 666 666 0 0
486 486 0 0 0 0 0 0 0 0 0 0 0 0 0 994 1027 1049 1067 1082 1096 1106 1110 1121 1134 1153 1177 1208 1220 1228 1243 1262 1278 1292 1313 1328 1333 1340 1347 1354 1361 1368 1371 1374 1377 1380 1382 1385 1387 1390 1394 1397 1402 1406 1417 1421 1422 1423 1425 1431 1438 1445 1451 1454 1456 1457 1459 1460 1460 1460 1459 1457 1456 1453 1450 1447 1442 1436 1430 1425 1425 1425 1425 1425 1431 1434 1438 1442 1450 1456 1457 1457 1457 1451 1439 1417 1393 1387 0 0 0 0 0 963 963 963 963 963 965 965 965 963 963 963 963 962 961 961 960 959 959 954 949 943 934 922 901 877 864 862 856 851 845 841 841 841 842 845 846 847 847 847 847 847 847 849 850 850 850 853 855 858 863 872 879 883 886 890 898 906 910 916 932 951 965 970 976 986 990 991 994 995 996 998 998 999 999 1000 1001 1003 1004 1006 1006 1006 1007 1007 1008 1008 1009 1009 1009 1009 1010 1010 1010 1011 1011 1011 1012 1012 1012 1012 1012 1006 997 988 981 974 974 974 974 974 976 983 983 983 991 991 992 1003 1004 1008 1013 1022 1025 1026 1027 1029 1029 1033 1037 1037 1038 1044 1044 1044 1038 1038 1034 1030 1029 1029 1028 1020 1013 1010 1001 1001 1001 1002 1002 1002 1002 1002 1002 1003 1007 1007 1008 1008 1010 1014 1021 1025 1026 1028 1032 1040 1047 1054 1055 1057 1065 1076 1078 1080 1085 1096 1099 1101 1103 1106 1108 1109 1111 1112 1113 1114 1115 1115 1116 1117 1118 1119 1119 1120 1120 1120 1119 1119 1118 1116 1115 1111 1107 1104 1101 1095 1088 1081 1070 1069 1068 1064 1064 1061 1061 1061 1061 1061 1061 1058 1058 1058 1055 1055 1055 1057 1064 1068 1068 1069 1069 1069 1079 1093 1103 1107 1120 1139 1146 1154 1160 1161 1162 1162 1162 1164 1166 1167 1169 1170 1171 1172 1173 1174 1176 1176 1176 1177 1178 1178 1179 1179 1180 1182 1183 1183 1184 1186 1186 1188 1189 1190 1190 1190 1191 1191 1193 1194 1195 1196 1197 1199 1202 1202 1202 1203 1210 1218 1232 1248 1262 0 0 1400 1416 1422 1426 1434 1447 1455 1455 1455 1447 1447 1447 1447 1467 1488 1491 1491 1495 1495 1495 1487 1481 1464 1447 1434 1430 1429 1419 1392 1376 1365 0 0 0 0 0 0 1261 1241 1229 1226 1186 1186 1186 1187 1195 1205 1205 1208 1224 1224 1256 1256 1256 1246 1225 1225 1225 1243 1243 1243 0 0 0 0 0 0 0 0 0 0 0 0 0 0 0 0 0 0 0 0 0 659 0 0 0 0 0 0 0 0 0 0 0 0 0 0 0 0 0 0 0 0 0 0 0 0 0 0 0 0 0 0 0 0 0 0 0 0 0 0 0 0 0 0 0 0 0 0 0 0 1438 1440 1440 1440 1403 0 0 0 0 0 0 0 0 0 0 0 0 0 0 0 0 0 0 0 0 0 0 0 0 0 0 0 0 0 0 0 0 0 0 0 0 0 0 0 0 0 0 0 0 0 0 0 0 0 0 0 0 0 0 0 0 0 0 0 0 0 0 0 0 0 0 0 0 0 0 0 0 0 0 0 0 0 0 0 0 0 0 0 0 0 0 0 0 0 0 0 0 0 0 0 0 727 727 734 734 734 678 676 666 666 666 666 0 0
502 502 0 0 0 0 0 0 0 0 0 0 0 0 0 1004 1033 1056 1073 1090 1103 1113 1117 1125 1136 1153 1170 1194 1216 1227 1243 1262 1278 1290 1304 1323 1331 1340 1346 1353 1361 1368 1373 1377 1381 1384 1385 1387 1389 1392 1394 1398 1403 1409 1417 1422 1423 1424 1425 1431 1437 1442 1446 1451 1454 1457 1458 1459 1459 1459 1459 1457 1455 1452 1449 1445 1440 1433 1426 1424 1424 1424 1425 1428 1433 1437 1440 1447 1455 1457 1458 1458 1458 1456 1439 1420 1394 1387 0 0 0 0 0 966 963 963 963 964 965 965 965 965 965 964 964 963 963 962 961 961 960 956 950 943 937 925 905 882 874 862 856 852 846 844 844 844 845 846 846 847 847 847 847 847 847 851 852 852 855 856 858 861 869 876 883 887 887 893 900 906 910 914 925 943 961 969 976 985 989 991 993 995 996 996 997 997 997 997 999 1001 1002 1003 1003 1004 1004 1004 1005 1005 1006 1006 1006 1006 1007 1007 1009 1011 1011 1011 1012 1012 1012 1012 1012 1008 1004 1003 992 992 992 995 1002 1002 1002 1004 1004 1011 1016 1016 1021 1034 1041 1041 1041 1043 1044 1045 1047 1047 1047 1047 1045 1045 1045 1046 1046 1046 1044 1040 1034 1033 1033 1030 1018 1010 1007 1004 1001 995 995 995 995 995 995 995 995 996 997 1000 1003 1005 1009 1014 1020 1025 1028 1032 1037 1044 1051 1057 1057 1058 1065 1076 1085 1089 1093 1099 1102 1105 1106 1109 1110 1112 1114 1115 1115 1116 1117 1118 1119 1119 1120 1121 1121 1121 1121 1121 1121 1120 1119 1118 1116 1113 1109 1105 1102 1095 1089 1079 1070 1069 1068 1067 1067 1064 1062 1062 1062 1062 1061 1058 1058 1058 1052 1052 1052 1059 1066 1073 1073 1076 1077 1077 1083 1095 1103 1108 1121 1139 1147 1154 1160 1161 1162 1162 1164 1164 1167 1168 1169 1170 1172 1172 1174 1175 1176 1177 1177 1178 1178 1178 1179 1180 1181 1184 1184 1185 1186 1187 1188 1189 1190 1192 1192 1193 1194 1194 1195 1196 1197 1198 1199 1202 1205 1205 1206 1208 1214 1228 1232 1248 1262 0 0 1402 1419 1422 1426 1434 1452 1456 1456 1456 1449 1449 1449 1453 1489 1491 1491 1491 1488 1486 1486 1486 1478 1464 1435 1416 1407 1403 1399 1383 1365 0 0 0 0 0 0 1241 1241 1227 1226 1226 1199 1199 1199 1206 1211 1217 1225 1237 1237 1240 1285 1285 1285 1246 1225 1225 1225 1255 1255 0 0 0 0 0 0 0 0 0 0 0 0 796 796 792 0 0 0 0 0 0 0 0 0 0 0 0 0 0 0 0 0 0 0 0 0 0 0 0 0 0 0 0 0 0 0 0 0 0 0 0 0 0 0 0 0 0 0 0 0 0 0 0 0 0 0 0 0 0 0 1428 1438 1452 1452 1452 1443 0 0 0 0 0 0 0 0 0 0 0 0 0 0 0 0 0 0 0 0 0 0 0 0 0 0 0 0 0 0 0 0 0 0 0 0 0 0 0 0 0 0 0 0 0 0 0 0 0 0 0 0 0 0 0 0 0 0 0 0 0 0 0 0 0 0 0 0 0 0 0 0 0 0 0 0 0 0 0 0 0 0 0 0 0 0 0 0 0 0 0 0 0 0 0 0 727 727 734 734 734 688 686 658 658 658 658 0 0
520 520 0 0 0 0 0 0 0 0 0 0 0 0 0 1016 1043 1064 1079 1095 1108 1119 1122 1133 1142 1153 1169 1185 1208 1227 1246 1265 1278 1289 1297 1310 1328 1336 1345 1352 1360 1370 1376 1381 1385 1388 1390 1390 1392 1395 1397 1400 1407 1410 1417 1422 1426 1427 1429 1432 1437 1442 1444 1450 1453 1455 1457 1458 1460 1460 1460 1457 1453 1452 1447 1442 1436 1430 1424 1423 1423 1423 1425 1428 1436 1440 1446 1456 1459 1460 1460 1463 1463 1463 1439 1425 1398 1393 0 0 0 0 0 972 965 964 964 964 965 965 965 966 966 966 966 965 965 965 963 963 961 957 952 948 942 931 919 891 874 867 856 852 850 849 847 847 847 847 847 848 848 848 849 849 849 852 854 856 860 866 870 874 881 888 891 891 892 898 903 908 910 914 925 940 958 967 974 983 988 989 991 992 995 995 996 996 996 997 997 997 997 997 998 999 1000 1000 1001 1001 1001 1001 1001 1001 1003 1004 1007 1007 1007 1008 1008 1008 1012 1012 1012 1013 1009 1008 1008 1009 1009 1015 1022 1024 1026 1027 1027 1030 1035 1037 1040 1044 1050 1050 1050 1050 1051 1055 1058 1058 1058 1055 1053 1052 1051 1051 1050 1048 1045 1041 1038 1036 1033 1028 1017 1009 1006 1003 1001 994 987 987 987 990 991 993 994 996 997 1000 1003 1005 1009 1014 1019 1024 1029 1033 1037 1044 1051 1057 1059 1059 1065 1076 1086 1091 1096 1101 1104 1107 1109 1111 1113 1114 1116 1116 1118 1118 1118 1120 1120 1121 1121 1122 1123 1123 1123 1122 1122 1121 1121 1119 1118 1114 1111 1107 1102 1096 1089 1081 1070 1069 1068 1067 1067 1067 1066 1065 1063 1062 1061 1058 1058 1057 1051 1051 1051 1060 1066 1073 1077 1078 1078 1079 1088 1100 1107 1111 1125 1139 1150 1155 1161 1162 1162 1163 1164 1166 1167 1168 1169 1170 1172 1172 1174 1176 1177 1178 1178 1178 1178 1178 1179 1180 1182 1184 1186 1186 1186 1188 1190 1192 1192 1194 1194 1195 1195 1196 1197 1199 1199 1201 1201 1203 1205 1208 1208 1208 1215 1228 1232 1248 1262 0 0 1402 1419 1421 1426 1434 1452 1456 1456 1456 1456 1457 1457 1463 1491 1491 1491 1485 1485 1485 1482 1482 1482 1459 1433 1415 0 0 0 0 0 0 0 1272 1265 1260 1245 1235 1235 1235 1235 1235 1235 1225 1221 1218 1221 1225 1242 1246 1249 1272 1285 1285 1285 1251 1238 1238 1251 1251 0 0 0 0 0 0 0 0 0 0 0 0 805 796 796 792 782 0 0 0 0 0 0 0 0 0 0 0 0 0 0 0 0 0 0 0 0 0 0 0 0 0 0 0 0 0 0 0 0 0 0 0 0 0 0 0 0 0 0 0 0 0 0 0 0 0 0 0 0 0 1415 1428 1447 1457 1458 1470 1470 0 0 0 0 0 0 0 0 0 0 0 0 0 0 0 0 0 0 0 0 0 0 0 0 0 0 0 0 0 0 0 0 0 0 0 0 0 0 0 0 0 0 0 0 0 0 0 0 0 0 0 0 0 0 0 0 0 0 0 0 0 0 0 0 0 0 0 0 0 0 0 0 0 0 0 0 0 0 0 0 0 0 0 0 0 0 0 0 0 0 0 0 0 0 0 0 0 727 732 732 732 701 699 656 656 656 656 0 0
539 539 0 0 0 0 0 0 0 0 0 0 0 0 994 1024 1049 1068 1085 1104 1116 1129 1133 1143 1152 1158 1169 1185 1203 1225 1246 1265 1278 1289 1297 1306 1326 1330 1344 1352 1360 1370 1379 1384 1388 1392 1392 1394 1395 1399 1402 1407 1411 1414 1419 1424 1428 1431 1433 1435 1437 1442 1444 1448 1452 1455 1456 1457 1460 1460 1460 1457 1451 1449 1443 1439 1434 1428 1423 1422 1422 1422 1425 1430 1437 1444 1451 1460 1464 1464 1466 1470 1470 1470 1457 1451 1414 1397 1355 0 0 0 0 976 965 965 965 965 967 967 967 967 967 967 967 966 966 966 966 964 963 959 955 952 948 936 919 896 880 869 857 857 856 856 855 855 852 850 850 850 850 850 850 850 850 860 861 866 873 878 880 885 890 902 902 902 904 904 905 908 910 914 925 937 950 963 973 981 983 986 988 991 991 993 993 993 993 993 993 993 993 993 997 998 998 999 999 998 996 996 996 996 1000 1000 1001 1001 1002 1003 1003 1007 1008 1008 1010 1012 1013 1015 1022 1027 1033 1034 1034 1034 1035 1035 1036 1039 1042 1044 1045 1048 1051 1053 1054 1055 1056 1058 1060 1060 1060 1059 1058 1056 1055 1052 1051 1048 1046 1043 1040 1037 1033 1028 1017 1006 1003 1001 998 991 983 983 983 987 989 991 994 996 997 1000 1003 1005 1009 1013 1018 1024 1029 1033 1037 1044 1051 1057 1059 1061 1069 1080 1088 1093 1097 1103 1106 1109 1111 1113 1115 1116 1117 1118 1120 1120 1121 1122 1122 1122 1123 1124 1124 1125 1125 1125 1124 1124 1122 1121 1118 1116 1114 1110 1103 1096 1090 1082 1070 1065 1065 1065 1066 1066 1066 1065 1062 1059 1059 1057 1057 1057 1051 1051 1051 1060 1066 1073 1077 1082 1083 1085 1092 1106 1113 1125 1136 1148 1152 1155 1162 1162 1162 1164 1166 1166 1167 1168 1169 1170 1172 1172 1174 1176 1177 1178 1178 1179 1179 1179 1179 1180 1182 1184 1186 1187 1189 1191 1191 1193 1194 1194 1196 1196 1197 1198 1199 1200 1201 1203 1203 1205 1209 1209 1210 1210 1223 1228 1232 1248 1264 0 0 1402 1419 1421 1425 1434 1452 1452 1452 1455 1455 1461 1476 1486 1491 1491 1491 1484 1484 1484 1482 1482 1482 1452 0 0 0 0 0 0 0 0 1260 1260 1260 1260 1245 1241 1241 1241 1266 1266 1266 1263 1246 1229 1229 1229 1255 1278 1279 1284 1285 1285 1285 1260 1260 1254 1254 1254 0 0 0 0 0 0 0 0 0 0 0 0 796 796 792 792 782 0 0 0 0 0 0 0 0 0 0 0 0 0 0 0 0 0 0 0 0 0 0 0 0 0 0 0 0 0 0 0 0 0 0 0 0 0 0 0 0 0 0 0 0 0 0 0 0 0 0 0 0 0 1415 1428 1448 1455 1471 1471 1471 0 0 0 0 0 0 0 0 0 0 0 0 0 0 0 0 0 0 0 0 0 0 0 0 0 0 0 0 0 0 0 0 0 0 0 0 0 0 0 0 0 0 0 0 0 0 0 0 0 0 0 0 0 0 0 0 0 0 0 0 0 0 0 0 0 0 0 0 0 0 0 0 0 0 0 0 0 0 0 0 0 0 0 0 0 0 0 0 0 0 0 0 0 0 0 0 0 0 725 725 725 714 706 661 661 661 0 0 0
556 556 0 0 0 0 0 0 0 0 0 0 0 0 994 1024 1049 1074 1093 1113 1134 1147 1151 1155 1160 1163 1169 1185 1203 1223 1246 1265 1278 1289 1297 1306 1322 1328 1344 1352 1360 1373 1381 1385 1389 1393 1395 1396 1397 1401 1405 1409 1413 1415 1419 1426 1430 1431 1434 1437 1439 1442 1444 1448 1452 1455 1456 1456 1460 1460 1460 1457 1450 1447 1440 1437 1432 1426 1423 1420 1420 1420 1424 1430 1439 1447 1454 1461 1466 1468 1471 1477 1477 1477 1470 1458 1432 1404 1404 0 0 0 0 983 972 970 969 969 969 969 968 969 968 968 968 968 968 968 968 967 965 963 958 957 952 941 921 899 884 870 864 864 864 864 864 863 863 860 858 858 858 858 867 875 876 876 877 878 884 886 888 897 905 914 914 914 911 911 911 912 913 923 930 937 950 963 970 975 978 982 988 988 990 990 990 990 990 989 987 987 987 988 991 991 991 991 990 990 989 989 989 989 992 992 992 992 992 992 996 1002 1004 1005 1008 1011 1012 1018 1026 1034 1037 1042 1043 1043 1043 1044 1045 1046 1047 1049 1049 1051 1053 1056 1058 1059 1061 1063 1063 1063 1061 1061 1060 1058 1056 1054 1051 1050 1048 1045 1041 1037 1032 1026 1014 1006 1002 999 994 987 982 982 982 985 988 991 993 995 998 1001 1004 1007 1010 1014 1019 1024 1029 1033 1035 1041 1051 1056 1060 1063 1072 1082 1089 1096 1101 1106 1109 1112 1114 1115 1117 1118 1118 1120 1120 1122 1122 1123 1123 1124 1125 1125 1126 1126 1126 1126 1126 1125 1125 1123 1121 1118 1116 1114 1107 1097 1094 1092 1076 1065 1065 1065 1065 1065 1065 1065 1061 1058 1058 1057 1057 1057 1053 1053 1053 1060 1066 1073 1077 1083 1088 1091 1096 1106 1118 1131 1139 1149 1155 1159 1162 1162 1162 1164 1166 1166 1167 1167 1168 1168 1170 1172 1174 1176 1177 1178 1178 1179 1179 1179 1179 1180 1182 1185 1187 1188 1190 1191 1193 1194 1195 1196 1198 1198 1200 1200 1201 1202 1203 1205 1207 1208 1210 1213 1215 1219 1224 1228 1231 1250 0 0 0 1414 1420 1423 1425 1431 1431 1431 1431 1431 1447 1461 1478 1498 1498 1498 1491 1484 1475 1475 1472 1464 1464 0 0 0 0 0 0 0 0 0 1249 1260 1268 1268 1268 1249 1249 1249 1266 1266 1266 1263 1246 1229 1229 1229 1278 1279 1284 1284 1284 1284 1260 1260 1260 1254 1254 1254 0 0 0 0 0 0 0 0 0 0 0 0 779 779 776 776 764 0 0 0 0 0 0 0 0 0 0 0 0 0 0 0 0 0 0 0 0 0 0 0 0 0 0 0 0 0 0 0 0 0 0 0 0 0 0 0 0 0 0 0 0 0 0 0 0 0 0 0 0 0 1422 1423 1448 1453 1480 1480 1480 0 0 0 0 0 0 0 0 0 0 0 0 0 0 0 0 0 0 0 0 0 0 0 0 0 0 0 0 0 0 0 0 0 0 0 0 0 0 0 0 0 0 0 0 0 0 0 0 0 0 0 0 0 0 0 0 0 0 0 0 0 0 0 0 0 0 0 0 0 0 0 0 0 0 0 0 0 0 0 0 0 0 0 0 0 0 0 0 0 0 0 0 0 0 0 0 0 0 0 715 720 720 715 708 658 658 0 0 0
566 566 0 0 0 0 0 0 0 0 0 0 0 962 994 1024 1049 1074 1097 1122 1143 1154 1163 1166 1166 1169 1173 1187 1203 1223 1244 1265 1278 1289 1296 1305 1318 1328 1343 1352 1361 1373 1383 1387 1391 1394 1397 1399 1401 1404 1408 1411 1414 1419 1422 1426 1430 1433 1437 1439 1442 1443 1445 1448 1452 1455 1456 1456 1457 1457 1457 1456 1446 1445 1440 1435 1427 1424 1423 1420 1420 1420 1422 1430 1441 1448 1455 1462 1467 1471 1476 1479 1479 1479 1474 1473 1454 1429 1428 0 0 0 0 0 976 974 972 972 972 971 970 970 970 970 970 970 970 970 970 970 967 965 961 960 957 945 930 919 900 881 870 870 870 870 871 871 870 869 867 867 867 869 882 885 885 885 885 885 891 897 907 918 936 936 936 930 928 922 922 922 926 932 932 937 950 963 969 975 978 978 980 981 982 982 983 984 983 982 982 979 979 979 980 980 980 978 977 977 977 977 977 979 979 979 974 973 973 973 976 984 995 1001 1008 1008 1011 1024 1032 1036 1041 1045 1045 1047 1048 1050 1052 1052 1052 1053 1053 1055 1057 1058 1060 1061 1064 1064 1064 1064 1063 1062 1061 1060 1059 1056 1054 1052 1050 1047 1043 1037 1032 1025 1007 998 997 994 989 986 982 982 982 983 988 991 993 995 998 1001 1004 1007 1010 1014 1019 1024 1028 1031 1034 1040 1046 1056 1060 1065 1073 1082 1089 1097 1102 1106 1110 1113 1115 1117 1118 1119 1120 1121 1122 1122 1123 1124 1125 1125 1126 1127 1127 1128 1128 1128 1128 1128 1127 1126 1122 1120 1119 1116 1111 1102 1096 1092 1076 1063 1062 1062 1062 1063 1063 1063 1060 1058 1058 1058 1057 1057 1055 1055 1055 1060 1066 1073 1077 1084 1092 1096 1098 1107 1118 1131 1139 1149 1155 1161 1162 1162 1162 1164 1166 1166 1166 1166 1166 1166 1169 1171 1174 1176 1176 1176 1176 1178 1179 1179 1179 1180 1182 1185 1187 1188 1190 1191 1195 1196 1197 1198 1199 1200 1201 1201 1203 1204 1205 1208 1209 1210 1213 1219 1222 1224 1226 1228 1231 0 0 0 0 1418 1422 1423 1425 1426 1426 1430 1430 1430 1443 1461 1478 1489 1489 1489 1484 1479 1472 1469 1464 0 0 0 0 0 0 0 0 0 0 0 1249 1292 1310 1310 1310 1285 1266 1266 1266 1266 1266 1263 1246 1246 1246 1269 1278 1279 1284 1279 1278 1264 1229 1229 1229 1250 1250 0 0 0 0 0 0 0 0 0 0 0 0 0 779 776 765 765 755 0 0 0 0 0 0 0 0 0 0 0 0 0 0 0 0 0 0 0 0 0 0 0 0 0 0 0 0 0 0 0 0 0 0 0 0 0 0 0 0 0 0 0 0 0 0 0 0 0 0 0 0 0 1422 1423 1447 1448 1480 1480 0 0 0 0 0 0 0 0 0 0 0 0 0 0 0 0 0 0 0 0 0 0 0 0 0 0 0 0 0 0 0 0 0 0 0 0 0 0 0 0 0 0 0 0 0 0 0 0 0 0 0 0 0 0 0 0 0 0 0 0 0 0 0 0 0 0 0 0 0 0 0 0 0 0 0 0 0 0 0 0 0 0 0 0 0 0 0 0 0 0 0 0 0 0 0 0 0 0 0 0 717 718 718 717 708 701 687 0 0 0
573 573 0 0 0 0 0 0 0 0 0 0 932 963 994 1021 1049 1074 1098 1122 1146 1161 1170 1174 1178 1180 1186 1193 1204 1218 1238 1259 1277 1289 1296 1305 1315 1324 1343 1351 1360 1373 1383 1390 1394 1398 1400 1402 1405 1407 1410 1413 1418 1421 1424 1427 1431 1434 1439 1443 1445 1446 1449 1452 1454 1455 1456 1456 1456 1456 1456 1452 1445 1441 1436 1432 1427 1424 1423 1422 1422 1422 1422 1434 1442 1449 1457 1466 1470 1475 1477 1480 1480 1480 1479 1476 1474 1433 1430 0 0 0 0 0 979 978 977 976 973 973 973 972 972 973 973 973 973 972 972 972 972 971 968 965 960 951 940 930 910 891 879 878 878 878 879 879 879 879 877 877 877 886 895 895 895 894 894 894 900 908 929 943 956 956 956 946 941 938 938 938 940 943 945 945 955 963 967 969 973 974 974 974 974 974 974 974 974 974 972 967 966 966 965 965 963 960 959 959 959 959 959 959 959 957 957 957 959 959 968 981 992 1001 1004 1013 1018 1030 1036 1039 1043 1045 1048 1049 1051 1054 1055 1056 1056 1056 1056 1058 1060 1061 1062 1063 1064 1064 1064 1064 1064 1064 1063 1063 1061 1059 1057 1056 1054 1050 1046 1041 1032 1023 1005 995 991 990 989 986 983 983 983 983 987 988 989 992 998 1001 1004 1007 1010 1014 1019 1024 1027 1030 1034 1039 1045 1054 1060 1065 1074 1083 1090 1098 1105 1108 1111 1115 1116 1118 1119 1121 1122 1123 1124 1124 1124 1126 1126 1127 1127 1128 1128 1129 1129 1129 1129 1129 1128 1126 1123 1122 1120 1116 1111 1102 1096 1092 1076 1063 1062 1062 1062 1063 1063 1063 1060 1060 1060 1065 1065 1065 1058 1058 1058 1060 1066 1073 1077 1086 1095 1100 1100 1107 1118 1131 1139 1149 1157 1161 1162 1162 1162 1164 1164 1164 1164 1164 1164 1165 1168 1171 1173 1173 1173 1173 1174 1174 1177 1179 1179 1180 1182 1184 1186 1188 1190 1191 1195 1197 1199 1200 1202 1202 1203 1204 1205 1206 1208 1210 1212 1216 1217 1220 1225 1228 1228 1231 1231 0 0 0 1383 1419 1428 1428 1428 1428 1428 1428 1429 1429 1443 1460 1478 1478 1478 1484 1477 0 0 0 0 0 0 0 0 0 0 0 0 0 0 0 1277 1315 1315 1315 1310 1297 1280 1280 1280 1264 1264 1249 1246 1246 1246 1268 1268 1269 1268 1266 1258 1236 1217 1217 1217 1229 0 0 0 0 0 0 0 0 0 0 0 0 0 0 779 776 765 765 760 755 754 706 0 0 0 0 0 0 0 0 0 0 0 0 0 0 0 0 0 0 0 0 0 0 0 0 0 0 0 0 0 0 0 0 0 0 0 0 0 0 0 0 0 0 0 0 0 0 0 0 0 0 0 1439 1439 1442 0 0 0 0 0 0 0 0 0 0 0 0 0 0 0 0 0 0 0 0 0 0 0 0 0 0 0 0 0 0 0 0 0 0 0 0 0 0 0 0 0 0 0 0 0 0 0 0 0 0 0 0 0 0 0 0 0 0 0 0 0 0 0 0 0 0 0 0 0 0 0 0 0 0 0 0 0 0 0 0 0 0 0 0 0 0 0 0 0 0 0 0 0 0 0 0 0 0 0 0 0 0 717 718 718 717 708 701 687 0 0 0
587 587 0 0 0 0 0 0 0 0 0 0 932 963 993 1021 1049 1075 1099 1124 1146 1165 1176 1180 1188 1189 1193 1199 1207 1218 1232 1251 1273 1287 1295 1301 1313 1323 1340 1351 1360 1373 1383 1390 1394 1398 1402 1405 1407 1410 1413 1417 1420 1424 1426 1430 1433 1437 1441 1445 1447 1450 1452 1453 1456 1456 1456 1457 1457 1457 1453 1447 1442 1438 1435 1429 1425 1424 1423 1423 1423 1423 1423 1435 1443 1450 1459 1469 1474 1477 1477 1480 1480 1480 1479 1478 1474 1447 1437 1435 0 0 0 0 983 982 980 978 976 973 973 973 973 974 974 974 974 974 974 974 974 974 972 969 968 966 960 942 919 896 886 885 885 885 885 886 890 890 891 892 893 900 905 905 908 910 917 920 921 927 944 956 963 963 963 963 962 962 963 963 963 963 963 963 963 963 964 964 965 965 965 965 965 962 962 960 959 959 950 944 944 944 943 943 940 937 935 935 935 936 944 944 945 946 945 947 947 954 966 977 985 989 1004 1013 1020 1033 1040 1042 1045 1047 1050 1052 1054 1056 1057 1059 1059 1059 1059 1060 1062 1063 1065 1066 1066 1066 1066 1066 1066 1066 1066 1066 1064 1062 1060 1060 1058 1053 1049 1042 1032 1023 1005 995 991 990 989 986 986 986 986 986 987 988 989 992 996 1001 1004 1006 1010 1014 1019 1024 1027 1030 1034 1039 1045 1050 1058 1065 1074 1085 1093 1100 1107 1109 1113 1116 1118 1120 1121 1122 1123 1124 1124 1125 1126 1127 1127 1127 1128 1129 1129 1129 1130 1130 1130 1130 1128 1127 1126 1123 1120 1117 1111 1106 1096 1089 1074 1063 1062 1062 1062 1063 1063 1063 1063 1063 1069 1069 1069 1068 1063 1063 1063 1066 1073 1084 1088 1092 1098 1100 1101 1107 1114 1127 1138 1149 1157 1160 1161 1161 1161 1163 1163 1163 1163 1163 1163 1163 1163 1164 1165 1166 1171 1171 1173 1173 1173 1174 1175 1176 1176 1176 1180 1184 1189 1191 1195 1198 1201 1202 1203 1203 1205 1206 1208 1208 1211 1213 1216 1218 1220 1221 1226 1234 1238 1238 1245 1291 1314 1337 1386 1419 1428 1428 1428 1428 1425 1425 1425 1429 1442 1457 1475 1475 1475 1470 0 0 0 0 0 0 0 0 0 0 0 0 0 0 1241 1273 1308 1315 1315 1315 1310 1297 1280 1279 1279 1266 1264 1249 1249 1249 1249 1249 1249 1238 1237 1236 1231 1212 1208 1204 0 0 0 0 0 0 0 0 0 0 0 0 0 0 0 0 0 798 798 765 765 763 755 755 726 0 0 0 0 0 0 0 0 0 0 0 0 0 0 0 0 0 0 0 0 0 0 0 0 0 0 0 0 0 0 0 0 0 0 0 0 0 0 0 0 0 0 0 0 0 0 0 0 0 0 0 0 0 0 0 0 0 0 0 0 0 0 0 0 0 0 0 0 0 0 0 0 0 0 0 0 0 0 0 0 0 0 0 0 0 0 0 0 0 0 0 0 0 0 0 0 0 0 0 0 0 0 0 0 0 0 0 0 0 0 0 0 0 0 0 0 0 0 0 0 0 0 0 0 0 0 0 0 0 0 0 0 0 0 0 0 0 0 0 0 0 0 0 0 0 0 0 0 0 0 0 0 0 0 0 0 718 717 701 687 682 0 0 0 0
588 588 0 0 0 0 0 0 0 0 0 0 932 963 992 1021 1049 1075 1100 1125 1147 1167 1182 1186 1199 1201 1204 1207 1211 1218 1231 1242 1266 1280 1285 1292 1308 1320 1329 1346 1360 1373 1382 1390 1394 1398 1402 1406 1409 1412 1415 1418 1422 1426 1429 1431 1435 1439 1443 1447 1449 1453 1454 1456 1457 1457 1457 1457 1457 1457 1453 1447 1441 1436 1434 1429 1424 1424 1424 1424 1424 1424 1426 1436 1446 1454 1463 1472 1474 1477 1478 1480 1481 1482 1481 1480 1474 1451 1447 1435 0 0 0 0 984 982 982 980 978 977 976 976 976 976 976 976 976 976 976 976 976 976 976 974 974 971 960 953 939 909 896 895 895 894 894 893 894 894 904 918 922 927 930 930 933 942 945 945 947 947 947 957 963 969 970 971 975 975 978 984 984 984 979 977 976 972 967 963 959 954 950 949 949 950 950 950 950 938 930 930 930 931 931 931 931 927 926 926 926 927 940 943 944 945 945 945 947 947 960 975 984 989 1004 1014 1024 1036 1045 1047 1047 1049 1051 1054 1056 1057 1058 1060 1060 1061 1062 1063 1065 1066 1067 1068 1068 1068 1069 1069 1069 1069 1068 1068 1066 1065 1064 1062 1060 1056 1050 1043 1033 1023 1005 995 991 990 989 989 989 989 990 990 990 990 990 992 996 1001 1004 1006 1009 1014 1019 1024 1027 1030 1035 1039 1045 1050 1058 1065 1074 1085 1095 1105 1108 1111 1115 1118 1119 1120 1122 1123 1123 1125 1125 1126 1126 1127 1128 1128 1128 1129 1130 1130 1130 1130 1131 1131 1131 1128 1126 1124 1121 1117 1112 1106 1096 1086 1074 1064 1063 1063 1063 1063 1064 1064 1064 1064 1082 1082 1082 1078 1073 1073 1073 1076 1087 1098 1099 1101 1100 1101 1102 1107 1114 1127 1135 1149 1157 1157 1157 1158 1158 1158 1159 1159 1160 1161 1161 1160 1160 1157 1157 1157 1161 1161 1163 1167 1167 1167 1167 1168 1168 1171 1176 1182 1189 1191 1195 1199 1202 1204 1204 1206 1206 1208 1210 1211 1213 1217 1219 1221 1222 1225 1230 1241 1244 1244 1261 1296 1326 1355 1393 1419 1428 1428 1428 1418 1418 1418 1422 1426 1436 1443 1450 1452 1452 0 0 0 0 0 0 0 0 0 0 0 0 0 1239 1258 1282 1302 1302 1302 1300 1298 1297 1289 1280 1277 1277 1266 1264 1249 1249 1249 1227 1227 1227 1207 1206 1206 1197 1193 1189 1177 0 0 0 0 0 0 0 0 0 0 0 0 0 0 0 0 0 0 0 765 765 763 755 763 764 0 0 0 0 0 0 0 0 0 0 0 0 0 0 0 0 0 0 0 0 0 0 0 918 918 918 916 916 0 0 0 0 0 0 0 0 0 0 0 0 0 0 0 0 0 0 0 0 0 0 0 0 0 0 0 0 0 0 0 0 0 0 0 0 0 0 0 0 0 0 0 0 0 0 0 0 0 0 0 0 0 0 0 0 0 0 0 0 0 0 0 0 0 0 0 0 0 0 0 0 0 0 0 0 0 0 0 0 0 0 0 0 0 0 0 0 0 0 0 0 0 0 0 0 0 0 0 0 0 0 0 0 0 0 0 0 0 0 0 0 0 0 0 0 0 0 0 0 0 0 0 0 0 0 0 0 0 0 0 0 0 0 0 0 0
607 607 0 0 0 0 0 0 0 0 0 900 933 963 991 1020 1052 1079 1106 1129 1151 1171 1188 1204 1208 1217 1218 1219 1222 1222 1231 1241 1252 1270 1277 1285 1299 1318 1323 1341 1356 1368 1375 1382 1392 1398 1403 1407 1409 1413 1417 1420 1424 1426 1430 1433 1435 1440 1444 1447 1451 1454 1456 1457 1458 1458 1459 1459 1459 1457 1453 1447 1441 1434 1432 1427 1425 1425 1424 1425 1425 1425 1430 1439 1447 1455 1466 1473 1476 1477 1478 1482 1484 1484 1484 1484 1474 1457 1449 1449 0 0 0 0 0 983 983 981 981 980 979 978 978 978 978 978 979 979 979 980 980 980 980 979 979 975 967 965 954 930 912 911 911 910 910 907 0 0 942 948 949 949 949 951 952 955 959 976 977 980 980 984 986 986 986 987 987 993 996 996 996 996 993 989 984 980 972 963 955 944 939 939 939 939 939 936 929 927 927 927 928 930 930 930 927 925 925 925 926 927 932 940 943 944 944 944 947 947 953 974 983 989 1004 1022 1033 1040 1047 1049 1050 1051 1054 1055 1057 1058 1059 1060 1061 1063 1064 1065 1067 1068 1068 1070 1070 1070 1071 1071 1071 1071 1071 1070 1069 1068 1066 1065 1062 1056 1050 1044 1036 1027 1016 1001 997 995 992 992 992 992 993 993 993 993 993 993 996 1001 1004 1006 1009 1014 1018 1023 1027 1031 1038 1040 1045 1050 1058 1065 1071 1086 1097 1106 1112 1113 1116 1118 1120 1121 1123 1124 1124 1125 1125 1126 1126 1127 1128 1128 1128 1129 1130 1130 1130 1130 1131 1131 1131 1129 1127 1126 1123 1119 1114 1111 1096 1086 1074 1073 1071 1071 1071 1073 1073 1073 1076 1076 1094 1094 1094 1093 1083 1083 1083 1089 1115 1115 1115 1108 1104 1104 1104 1107 1114 1127 1135 1138 1143 1153 1153 1153 1152 1150 1150 1151 1151 1151 1151 1150 1148 1148 1147 1147 1147 1147 1147 1151 1155 1157 1159 1161 1162 1168 1172 1180 1188 1191 1195 1199 1202 1205 1206 1207 1208 1210 1212 1213 1217 1220 1221 1223 1225 1230 1238 1243 1245 1248 1267 1298 1351 1368 1393 1410 1410 1410 1403 1403 1403 1410 1410 1415 1415 1410 1407 0 0 0 0 0 0 0 0 0 0 0 0 0 0 1256 1269 1289 1305 1305 1305 1303 1275 1275 1272 1272 1272 1270 1270 1266 1260 1249 1248 1246 1229 1229 1189 1173 1173 1173 1182 1182 1182 1173 0 0 0 0 0 0 0 0 0 0 0 0 0 0 0 0 0 0 0 0 765 763 760 763 767 0 0 0 0 0 0 0 0 0 0 0 0 0 0 0 0 0 0 0 0 0 0 901 922 922 922 923 923 930 0 0 0 0 0 0 0 0 0 0 0 0 0 0 0 0 0 0 0 0 0 0 0 0 0 0 0 0 0 0 0 0 0 0 0 0 0 0 0 0 0 0 0 0 0 0 0 0 0 0 0 0 0 0 0 0 0 0 0 0 0 0 0 0 0 0 0 0 0 0 0 0 0 0 0 0 0 0 0 0 0 0 0 0 0 0 0 0 0 0 0 0 0 0 0 0 0 0 0 0 0 0 0 0 0 0 0 0 0 0 0 0 0 0 0 0 0 0 0 0 0 0 0 0 0 0 0 0 0 0 0 0 0 0 0 0
625 625 0 0 0 0 0 0 0 0 900 903 933 963 991 1021 1054 1082 1109 1133 1153 1172 1194 1212 1215 1224 1229 1229 1229 1231 1231 1241 1252 1263 1271 1283 1299 1313 1322 1336 1352 1366 1374 1379 1385 1394 1403 1407 1410 1414 1418 1421 1425 1428 1431 1433 1436 1440 1445 1449 1452 1455 1456 1458 1459 1460 1461 1461 1461 1458 1454 1447 1439 1431 1430 1427 1425 1425 1425 1425 1425 1428 1432 1441 1447 1456 1466 1473 1477 1481 1481 1487 1491 1491 1491 1484 1474 1457 1457 1450 0 0 0 0 0 986 984 982 982 981 981 980 980 980 980 981 981 981 982 982 983 983 983 983 982 982 981 973 958 945 942 942 942 946 0 0 0 0 974 975 975 976 979 980 980 980 980 985 992 995 998 998 998 998 999 999 999 999 999 999 999 999 998 996 991 985 978 964 955 941 936 935 935 935 928 922 922 922 924 926 926 928 928 928 925 925 925 925 926 927 931 937 943 944 944 944 947 947 951 966 982 988 1004 1022 1034 1042 1047 1051 1053 1053 1056 1057 1058 1059 1060 1062 1063 1065 1066 1067 1068 1070 1071 1071 1072 1072 1073 1073 1073 1073 1073 1072 1071 1070 1068 1066 1064 1058 1053 1046 1039 1036 1019 1004 1001 998 996 993 993 993 996 996 996 996 996 996 1000 1003 1006 1006 1009 1014 1018 1022 1027 1031 1039 1044 1047 1051 1060 1065 1071 1086 1097 1106 1112 1114 1117 1119 1121 1121 1123 1124 1124 1125 1125 1126 1126 1127 1128 1128 1128 1129 1130 1130 1130 1130 1131 1131 1131 1131 1128 1128 1128 1126 1123 1115 1098 1086 1084 1082 1078 1078 1078 1080 1080 1080 1086 1086 1098 1098 1098 1097 1097 1097 1099 1108 1121 1122 1124 1124 1124 1124 1124 1125 1127 1132 1135 1135 1135 1144 1144 1144 1140 1139 1138 1136 1135 1133 1129 1129 1129 1131 1131 1131 1131 1131 1132 1137 1143 1148 1149 1150 1150 1157 1166 1180 1188 1194 1197 1201 1204 1207 1208 1209 1211 1213 1214 1215 1218 1221 1223 1225 1227 1231 1239 1243 1245 1248 1267 1308 1355 1368 1391 1391 1391 1378 1378 1378 1387 1392 1392 1392 1380 1374 0 0 0 0 0 0 0 0 0 0 0 0 0 0 0 1293 1298 1306 1307 1307 1307 1300 1267 1261 1261 1261 1261 1261 1266 1249 1244 1229 1248 1234 1229 1229 1189 1167 1167 1167 1171 1173 1173 1173 0 0 0 0 0 0 0 0 0 0 0 0 0 0 0 0 0 0 0 0 0 705 705 735 0 0 0 0 0 0 0 0 0 0 0 0 0 0 0 0 0 0 0 0 0 0 0 917 923 923 923 923 923 943 958 0 0 0 0 0 0 0 0 0 0 0 0 0 0 0 0 0 0 0 0 0 0 0 0 0 0 0 0 0 0 0 0 0 0 0 0 0 0 0 0 0 0 0 0 0 0 0 0 0 0 0 0 0 0 0 0 0 0 0 0 0 0 0 0 0 0 0 0 0 0 0 0 0 0 0 0 0 0 0 0 0 0 0 0 0 0 0 0 0 0 0 0 0 0 0 0 0 0 0 0 0 0 0 0 0 0 0 0 0 0 0 0 0 0 0 0 0 0 0 0 0 0 0 0 0 0 0 0 0 0 0 0 0 0 0
645 645 0 0 0 0 0 0 0 871 900 903 938 965 991 1022 1054 1082 1112 1136 1154 1174 1199 1217 1221 1230 1238 1243 1243 1243 1244 1245 1252 1263 1271 1283 1298 1310 1317 1327 1345 1363 1374 1378 1384 1393 1402 1408 1412 1417 1421 1424 1426 1429 1432 1434 1437 1441 1448 1451 1454 1456 1458 1461 1461 1463 1466 1466 1466 1464 1456 1447 1438 1431 1429 1427 1426 1425 1425 1426 1426 1430 1437 1442 1450 1458 1468 1476 1480 1483 1488 1496 1497 1497 1497 1491 1478 1460 1457 1448 0 0 0 0 0 990 985 985 983 982 982 982 982 982 982 983 983 984 984 985 985 986 987 987 987 987 987 983 972 964 964 964 970 974 976 977 985 994 994 995 995 998 998 998 997 996 996 996 996 1000 1004 1005 1006 1007 1007 1007 1008 1007 1007 1006 1006 1003 999 997 993 987 979 965 951 940 933 932 932 928 918 918 918 919 921 925 926 926 926 926 926 926 927 927 927 928 929 932 937 944 944 944 947 947 951 963 978 988 1004 1022 1035 1044 1050 1053 1054 1056 1057 1059 1059 1061 1062 1064 1065 1066 1067 1068 1070 1072 1073 1073 1074 1074 1075 1075 1075 1075 1075 1075 1073 1072 1071 1068 1064 1060 1055 1049 1044 1036 1019 1005 1001 998 996 996 996 996 1000 1000 1000 1001 1001 1001 1004 1006 1008 1009 1011 1014 1017 1022 1025 1031 1039 1047 1052 1056 1065 1070 1071 1086 1098 1106 1112 1115 1117 1119 1121 1121 1123 1124 1124 1125 1125 1125 1126 1127 1127 1127 1128 1129 1130 1130 1130 1130 1131 1132 1132 1132 1132 1132 1130 1128 1126 1123 1116 1107 1099 1091 1089 1089 1089 1089 1089 1088 1088 1088 1103 1116 1127 1127 1126 1126 1127 1127 1133 1140 1140 1140 1139 1139 1139 1138 1138 1138 1136 1132 1130 1127 1127 1127 1125 1125 1125 1117 1113 1113 1108 1108 1108 1109 1116 1117 1117 1117 1122 1123 1123 1124 1126 1134 1144 1156 1166 1180 1188 1194 1202 1204 1206 1208 1209 1211 1212 1214 1216 1218 1220 1223 1225 1227 1230 1233 1239 1243 1244 1248 1267 1308 1355 1368 1368 1368 1364 1347 1347 1347 1355 1364 1364 1364 0 0 0 0 0 0 0 0 0 0 0 0 0 0 0 0 1312 1312 1312 1312 1312 1312 1311 1300 1267 1261 1261 1261 1261 1261 1251 1249 1244 1229 1248 1229 1220 1220 1181 1167 1167 1167 1171 1172 1172 1172 0 0 0 0 0 0 0 0 0 0 0 0 0 0 0 0 0 0 0 0 0 0 0 0 0 0 0 0 0 0 0 0 0 991 988 981 0 0 0 0 0 0 0 0 0 0 0 923 947 965 965 965 965 965 976 0 0 0 0 0 0 0 0 0 0 0 0 0 0 0 0 0 0 0 0 0 0 0 0 0 0 0 0 0 0 0 0 0 0 0 0 0 0 0 0 0 0 0 0 0 0 0 0 0 0 0 0 0 0 0 0 0 0 0 0 0 0 0 0 0 0 0 0 0 0 0 0 0 0 0 0 0 0 0 0 0 0 0 0 0 0 0 0 0 0 0 0 0 0 0 0 0 0 0 0 0 0 0 0 0 0 0 0 0 0 0 0 0 0 0 0 0 0 0 0 0 0 0 0 0 0 0 0 0 0 0 0 0 0 0
660 660 0 0 0 0 0 0 0 872 908 911 942 969 997 1026 1055 1085 1112 1138 1155 1176 1205 1222 1226 1237 1247 1259 1263 1263 1263 1263 1263 1263 1271 1283 1299 1308 1317 1320 1336 1355 1369 1376 1383 1391 1399 1408 1415 1419 1423 1425 1428 1432 1433 1436 1440 1445 1450 1453 1455 1458 1461 1462 1463 1465 1466 1466 1466 1464 1456 1447 1438 1431 1429 1427 1427 1426 1426 1426 1427 1434 1439 1445 1452 1461 1470 1480 1482 1487 1493 1500 1502 1502 1502 1498 1489 1473 1459 1448 1431 0 0 0 0 991 986 985 983 983 983 984 984 984 984 984 985 986 987 987 987 988 988 989 989 989 988 985 982 981 981 981 983 986 987 989 996 997 997 997 999 1001 1003 1003 1003 1002 1002 1002 1004 1007 1008 1008 1008 1009 1012 1012 1012 1012 1012 1011 1009 1006 1003 1000 996 990 979 966 951 940 929 928 928 924 918 918 918 918 919 924 925 925 925 925 925 925 927 927 927 927 927 928 932 940 942 944 944 944 951 961 976 986 1002 1022 1035 1046 1051 1054 1055 1057 1059 1061 1062 1063 1064 1065 1067 1068 1069 1071 1071 1072 1074 1074 1075 1076 1076 1077 1078 1078 1078 1077 1076 1075 1072 1069 1065 1063 1059 1057 1047 1036 1019 1005 1001 998 997 997 997 999 1000 1000 1000 1001 1001 1001 1004 1006 1009 1009 1013 1015 1017 1018 1023 1031 1039 1047 1052 1058 1068 1072 1074 1089 1098 1107 1114 1116 1117 1120 1122 1122 1123 1123 1123 1125 1125 1125 1126 1127 1127 1127 1127 1128 1130 1130 1130 1130 1131 1132 1132 1134 1136 1136 1136 1134 1130 1128 1127 1122 1111 1111 1111 1118 1119 1119 1119 1114 1114 1114 1116 1136 1143 1145 1145 1149 1149 1148 1149 1150 1151 1152 1152 1151 1151 1147 1145 1141 1136 1131 1126 1109 1109 1109 1113 1113 1113 1101 1098 1096 1091 1087 1087 1087 1100 1105 1107 1110 1115 1118 1120 1120 1121 1124 1134 1144 1165 1178 1185 1195 1203 1205 1208 1210 1212 1213 1215 1216 1218 1220 1222 1223 1226 1228 1230 1233 1239 1241 1244 1249 1267 1308 1346 1346 1346 1337 1335 1335 1335 1336 1347 1358 1358 0 0 0 0 1247 1256 1256 1256 1256 0 0 0 0 0 0 0 1331 1330 1329 1320 1317 1316 1315 1314 1310 1300 1261 1261 1261 1261 1261 1251 1244 1201 1201 1201 1184 0 1167 1159 1159 1167 1167 1171 1173 1173 1173 1148 0 0 0 0 0 0 0 0 0 0 0 0 0 0 0 0 0 0 0 0 0 0 0 0 0 0 0 0 0 0 0 1000 1000 988 982 981 0 0 0 0 0 0 0 0 0 0 925 956 965 965 965 965 965 976 0 0 0 0 0 0 0 0 0 0 0 0 0 0 0 0 0 0 0 0 0 0 0 0 0 0 0 0 0 0 0 0 0 0 0 0 0 0 0 0 0 0 0 0 0 0 0 0 0 0 0 0 0 0 0 0 0 0 0 0 0 0 0 0 0 0 0 0 0 0 0 0 0 0 0 0 0 0 0 0 0 0 0 0 0 0 0 0 0 0 0 0 0 0 0 0 0 0 0 0 0 0 0 0 0 0 0 0 0 0 0 0 0 0 0 0 0 0 0 0 0 0 0 0 0 0 0 0 0 0 0 0 0 0 0
671 671 704 0 0 0 0 817 849 880 909 912 949 975 1002 1029 1059 1085 1114 1138 1160 1186 1210 1226 1230 1242 1257 1272 1281 1281 1281 1274 1274 1274 1276 1287 1299 1308 1312 1316 1326 1341 1359 1370 1375 1385 1395 1408 1415 1419 1423 1425 1429 1432 1436 1439 1442 1446 1451 1454 1456 1460 1462 1464 1465 1466 1466 1466 1466 1464 1456 1446 1437 1431 1429 1429 1429 1428 1428 1428 1430 1434 1440 1447 1459 1467 1474 1483 1487 1491 1498 1503 1505 1505 1505 1503 1489 1474 1460 1448 1435 0 0 0 0 0 987 985 985 985 985 986 986 986 986 986 987 988 988 988 989 989 990 992 992 992 991 991 991 991 991 991 992 994 995 996 997 999 1000 1001 1003 1005 1006 1006 1007 1007 1008 1008 1009 1010 1010 1011 1011 1012 1013 1014 1014 1014 1013 1013 1012 1010 1007 1004 999 992 981 966 951 940 927 925 924 921 918 918 918 918 918 919 919 919 920 921 921 925 927 927 927 926 926 926 928 933 938 942 942 945 950 958 971 980 989 1019 1036 1046 1051 1054 1055 1057 1060 1061 1064 1065 1066 1067 1068 1069 1070 1071 1072 1074 1075 1076 1076 1077 1078 1078 1079 1079 1079 1078 1077 1076 1074 1070 1067 1065 1062 1057 1047 1035 1017 1005 996 995 995 995 998 1000 1000 1000 1000 1001 1001 1001 1004 1006 1009 1010 1014 1016 1017 1018 1023 1030 1038 1047 1052 1060 1069 1073 1078 1092 1100 1107 1116 1116 1117 1120 1121 1122 1123 1123 1123 1123 1124 1125 1126 1126 1126 1126 1126 1128 1129 1129 1129 1129 1129 1131 1134 1134 1136 1137 1137 1136 1134 1132 1131 1127 1123 1119 1119 1119 1141 1142 1142 1142 1142 1146 1146 1147 1154 1162 1166 1166 1166 1166 1164 1157 1157 1157 1154 1154 1154 1150 1147 1142 1136 1130 1115 1100 1095 1095 1095 1095 1094 1089 1085 1083 1082 1082 1085 1087 1100 1100 1103 1105 1105 1113 1116 1118 1121 1124 1133 1144 1162 1178 1185 1196 1208 1209 1211 1212 1215 1216 1218 1218 1220 1221 1222 1224 1226 1228 1230 1233 1234 1235 1244 1249 1261 1307 1312 1312 1312 1308 1308 1308 1316 0 0 0 0 0 0 1259 1247 1247 1256 1259 1281 1299 1299 0 0 0 1376 1396 1396 1396 1362 1341 1329 1321 1316 1316 1316 1314 1313 1288 1284 1284 1284 1284 1284 1274 1251 1219 1201 0 0 0 1127 1165 1167 1168 1187 1187 1187 1172 1158 0 0 0 0 0 0 0 0 0 0 0 0 0 0 0 0 0 0 0 0 0 0 0 0 0 0 0 0 0 0 0 1044 1000 988 982 981 966 0 0 0 0 0 0 0 0 0 937 964 965 965 965 965 965 976 0 0 0 0 0 0 0 0 0 0 0 0 0 0 0 0 0 0 0 0 0 0 0 0 0 0 0 0 0 0 0 0 0 0 0 0 0 0 0 0 0 0 0 0 0 0 0 0 0 0 0 0 0 0 0 0 0 0 0 0 0 0 0 0 0 0 0 0 0 0 0 0 0 0 0 0 0 0 0 0 0 0 0 0 0 0 0 0 0 0 0 0 0 0 0 0 0 0 0 0 0 0 0 0 0 0 0 0 0 0 0 0 0 0 0 0 0 0 0 0 0 0 0 0 0 0 0 0 0 0 0 0 0 0 0
679 679 713 729 748 774 803 829 857 888 918 921 949 984 1009 1034 1061 1089 1117 1142 1167 1192 1213 1230 1243 1247 1263 1280 1290 1290 1290 1290 1284 1284 1284 1293 1301 1308 1312 1316 1323 1336 1348 1362 1370 1380 1391 1407 1415 1419 1423 1427 1431 1434 1437 1442 1445 1450 1454 1456 1458 1462 1465 1466 1466 1466 1466 1464 1463 1459 1451 1442 1437 1433 1430 1430 1430 1430 1430 1431 1433 1437 1442 1449 1462 1471 1478 1487 1492 1496 1505 1509 1509 1509 1509 1508 1496 1475 1460 1435 1427 0 0 0 0 0 989 986 986 986 987 988 988 988 988 988 989 990 990 990 990 991 992 993 993 994 995 995 995 996 996 996 998 1000 1000 1000 1002 1002 1003 1005 1007 1007 1007 1008 1008 1011 1012 1012 1012 1013 1013 1014 1014 1015 1015 1015 1015 1015 1015 1015 1013 1011 1010 1009 1003 992 983 977 965 944 923 922 921 920 919 919 918 918 916 915 915 915 915 916 920 921 921 921 921 921 921 921 922 928 932 937 942 945 949 955 963 970 984 1015 1037 1046 1050 1054 1056 1058 1060 1063 1064 1066 1068 1068 1070 1071 1072 1073 1074 1074 1076 1077 1077 1078 1079 1079 1080 1080 1080 1080 1080 1078 1076 1071 1069 1066 1063 1059 1048 1035 1014 1000 994 994 994 995 998 1000 1000 1000 1000 1000 1001 1002 1002 1005 1009 1011 1014 1016 1017 1018 1023 1030 1038 1047 1053 1060 1069 1076 1080 1093 1102 1112 1116 1116 1117 1120 1121 1122 1122 1122 1122 1123 1123 1124 1124 1125 1125 1125 1126 1127 1128 1128 1128 1128 1128 1131 1134 1135 1136 1137 1138 1139 1139 1139 1138 1134 1131 1131 1131 1151 1152 1152 1155 1155 1160 1160 1162 1164 1164 1171 1171 1171 1170 1168 1165 1165 1163 1162 1162 1159 1154 1152 1151 1144 1136 1125 1099 1091 1091 1091 1091 1091 1091 1086 1085 1082 1082 1082 1085 1087 1100 1100 1100 1103 1103 1103 1115 1118 1121 1124 1133 1144 1162 1182 1185 1198 1211 1212 1213 1215 1217 1217 1219 1220 1221 1222 1223 1224 1226 1226 1226 1228 1230 1234 1244 1248 1258 1265 1289 1289 1289 1281 1277 0 0 0 0 0 1269 1269 1269 1259 1259 1259 1272 1293 1315 1322 1350 1361 1362 1371 1401 1401 1401 1396 1365 1354 1345 1345 1345 1350 1350 1350 1324 1290 1290 1287 1287 1287 1287 1274 1265 1219 1201 0 0 0 1127 1171 1177 1190 1190 1190 1187 1165 1158 0 0 0 0 0 0 0 0 0 0 0 0 0 0 0 0 0 0 0 0 0 0 0 0 0 0 0 0 0 0 0 1044 997 989 985 981 966 0 0 0 0 0 0 0 0 0 0 964 992 992 992 951 951 0 0 0 0 0 0 0 0 0 0 0 0 0 0 0 0 0 0 0 0 0 0 0 0 0 0 0 0 0 0 0 0 0 0 0 0 0 0 0 0 0 0 0 0 0 0 0 0 0 0 0 0 0 0 0 0 0 0 0 0 0 0 0 0 0 0 0 0 0 0 0 0 0 0 0 0 0 0 0 0 0 0 0 0 0 0 0 0 0 0 0 0 0 0 0 0 0 0 0 0 0 0 0 0 0 0 0 0 0 0 0 0 0 0 0 0 0 0 0 0 0 0 0 0 0 0 0 0 0 0 0 0 0 0 0 0
690 690 715 735 755 788 821 842 871 900 926 953 958 984 1009 1039 1063 1091 1118 1143 1168 1193 1214 1232 1246 1249 1263 1280 1296 1304 1304 1304 1304 1302 1302 1302 1303 1308 1312 1316 1322 1328 1341 1357 1369 1379 1390 1402 1410 1417 1423 1428 1433 1437 1441 1446 1449 1453 1456 1458 1462 1465 1466 1466 1466 1466 1464 1462 1459 1456 1449 1442 1437 1434 1432 1432 1432 1432 1433 1435 1435 1439 1445 1454 1463 1475 1485 1492 1497 1503 1510 1511 1511 1511 1511 1510 1504 1476 1466 1435 1420 0 0 0 0 0 992 988 988 988 989 990 990 990 991 991 992 992 992 993 993 994 994 994 995 995 996 997 998 998 999 999 1000 1001 1002 1003 1004 1005 1006 1008 1009 1009 1009 1010 1011 1013 1013 1014 1014 1015 1016 1016 1017 1017 1019 1019 1019 1018 1017 1016 1015 1013 1012 1011 1005 997 988 979 966 945 923 921 918 918 918 919 919 919 915 912 912 912 914 916 916 916 917 917 917 917 917 920 922 927 931 935 939 945 949 954 958 969 983 1014 1037 1046 1050 1054 1057 1059 1061 1064 1065 1067 1068 1070 1071 1072 1073 1074 1075 1076 1077 1078 1079 1080 1081 1081 1081 1081 1081 1081 1081 1080 1077 1073 1070 1068 1065 1059 1049 1035 1013 1000 994 994 994 994 998 1000 1000 1000 1000 1000 1001 1002 1002 1005 1009 1011 1015 1017 1018 1020 1024 1030 1038 1047 1051 1060 1074 1079 1080 1093 1102 1112 1115 1116 1117 1119 1121 1121 1122 1122 1122 1122 1122 1122 1122 1122 1122 1123 1126 1126 1128 1128 1128 1128 1128 1131 1131 1134 1134 1134 1138 1139 1145 1145 1145 1148 1148 1149 1155 1162 1162 1162 1162 1162 1166 1167 1168 1169 1171 1173 1173 1173 1171 1169 1169 1169 1169 1169 1169 1166 1157 1153 1151 1146 1136 1125 1099 1087 1087 1083 1083 1083 1081 1081 1081 1082 1085 1087 1090 1094 1100 1100 1100 1100 1100 1100 1115 1120 1123 1125 1134 1148 1162 1184 1194 1201 1211 1214 1216 1217 1218 1220 1220 1221 1222 1222 1223 1224 1226 1226 1226 1228 1230 1234 1234 1234 1236 1248 1240 1240 1240 0 0 0 0 0 0 1253 1269 1275 1294 1298 1301 1301 1304 1315 1323 1331 1350 1364 1375 1383 1411 1411 1411 1396 1367 1367 1367 1366 1366 1363 1357 1351 1324 1314 1314 1298 1289 1287 1287 1287 1274 1271 1250 1229 0 0 1190 1190 1196 1208 1208 1208 1181 1153 0 0 0 0 0 0 0 0 0 0 0 0 0 0 0 0 0 0 0 0 0 0 0 0 0 0 0 0 0 0 0 0 1044 989 988 985 981 981 0 0 0 0 0 0 0 0 0 0 0 0 0 0 0 0 0 0 0 0 0 0 0 0 0 0 0 0 0 0 0 0 0 0 0 0 0 0 0 0 0 0 0 0 0 0 0 0 0 0 0 0 0 0 0 0 0 0 0 0 0 0 0 0 0 0 0 0 0 0 0 0 0 0 0 0 0 0 0 0 0 0 0 0 0 0 0 0 0 0 0 0 0 0 0 0 0 0 0 0 0 0 0 0 0 0 0 0 0 0 0 0 0 0 0 0 0 0 0 0 0 0 0 0 0 0 0 0 0 0 0 0 0 0 0 0 0 0 0 0 0 0 0 0 0 0 0 0 0 0 0 0
697 697 722 744 777 800 831 856 883 910 937 962 966 993 1018 1040 1064 1100 1122 1143 1169 1194 1214 1232 1248 1252 1263 1281 1302 1313 1314 1315 1315 1315 1315 1310 1310 1310 1312 1316 1322 1327 1334 1348 1367 1378 1389 1399 1406 1414 1423 1429 1435 1440 1444 1448 1451 1455 1460 1463 1466 1466 1466 1466 1466 1464 1462 1461 1457 1453 1448 1440 1437 1437 1437 1436 1437 1437 1437 1437 1438 1442 1448 1456 1466 1476 1487 1497 1503 1508 1511 1512 1512 1512 1511 1511 1505 1490 1480 1442 1413 0 0 0 0 0 994 992 992 992 992 992 992 992 992 992 993 994 994 994 996 996 996 997 997 998 999 999 1000 1001 1002 1002 1002 1003 1005 1007 1007 1008 1009 1010 1011 1012 1012 1012 1013 1013 1015 1015 1016 1017 1018 1019 1019 1019 1020 1021 1021 1021 1020 1018 1016 1015 1014 1012 1007 1002 992 980 969 945 927 920 917 917 917 919 919 919 915 912 912 912 913 913 913 913 913 913 914 914 917 919 922 927 931 935 939 941 943 946 955 967 982 1011 1037 1044 1049 1055 1059 1061 1063 1065 1066 1068 1070 1071 1072 1073 1074 1075 1076 1077 1078 1079 1079 1081 1081 1082 1082 1083 1083 1083 1082 1082 1080 1077 1073 1073 1067 1060 1051 1038 1013 1000 994 994 994 994 996 998 1000 1000 1001 1001 1002 1002 1002 1005 1009 1014 1019 1021 1023 1024 1027 1032 1043 1047 1051 1064 1074 1079 1082 1094 1102 1112 1114 1115 1116 1118 1120 1121 1121 1121 1119 1117 1117 1117 1117 1119 1120 1120 1120 1120 1120 1120 1120 1120 1122 1130 1130 1130 1131 1131 1137 1139 1145 1149 1151 1152 1152 1154 1157 1164 1164 1165 1166 1167 1168 1172 1175 1178 1180 1180 1180 1180 1177 1174 1174 1173 1172 1172 1170 1167 1159 1154 1153 1146 1135 1121 1099 1082 1082 1082 1082 1082 1081 1081 1081 1083 1090 1094 1097 1100 1105 1105 1105 1100 1100 1100 1111 1120 1125 1128 1135 1151 1167 1186 1197 1205 1213 1216 1218 1220 1221 1221 1222 1223 1223 1224 1224 1225 1227 1227 1227 1228 1229 1232 1232 1232 1231 1225 1219 1218 1215 0 0 0 0 0 0 1253 1269 1298 1318 1338 1338 1338 1338 1331 1331 1331 1350 1364 1375 1387 1411 1411 1411 1387 1379 1379 1373 1373 1373 1363 1357 1351 1324 1319 1319 1305 1305 1305 1303 1296 1294 1275 1269 1257 1253 1239 1223 1223 1223 1223 1223 1213 1180 1143 0 0 0 0 0 0 0 0 0 0 0 0 0 0 0 0 0 0 0 0 0 0 0 0 0 0 0 0 0 0 0 0 0 999 999 999 1014 0 0 0 0 0 0 0 0 0 0 0 0 0 0 0 0 0 0 0 0 0 0 0 0 0 0 0 0 0 0 0 0 0 0 0 0 0 0 0 0 0 0 0 0 0 0 0 0 0 0 0 0 0 0 0 0 0 0 0 0 0 0 0 0 0 0 0 0 0 0 0 0 0 0 0 0 0 0 0 0 0 0 0 0 0 0 0 0 0 0 0 0 0 0 0 0 0 0 0 0 0 0 0 0 0 0 0 0 0 0 0 0 0 0 0 0 0 0 0 0 0 0 0 0 0 0 0 0 0 0 0 0 0 0 0 0 0 0 0 0 0 0 0 0 0 0 0 0 0 0 0 0 0
706 706 735 765 790 811 840 867 893 921 946 973 977 1003 1027 1049 1075 1100 1131 1151 1170 1195 1214 1232 1248 1253 1268 1285 1308 1324 1327 1328 1332 1332 1332 1323 1319 1319 1319 1321 1322 1327 1330 1338 1359 1372 1383 1397 1404 1412 1422 1429 1436 1442 1446 1451 1455 1458 1463 1467 1467 1467 1467 1466 1466 1462 1458 1456 1454 1451 1445 1439 1439 1439 1439 1439 1439 1439 1439 1439 1440 1445 1450 1457 1468 1478 1487 1497 1504 1508 1511 1515 1515 1515 1514 1511 1505 1494 1486 1452 1420 0 0 0 0 0 995 995 995 995 995 995 994 994 994 994 994 995 996 997 997 997 998 999 999 1000 1001 1002 1002 1002 1003 1003 1005 1006 1007 1007 1009 1010 1011 1013 1014 1014 1014 1015 1015 1015 1016 1016 1018 1019 1020 1020 1021 1022 1022 1022 1022 1022 1022 1020 1019 1018 1015 1012 1010 1005 996 983 970 948 932 920 917 917 917 919 919 919 913 907 907 907 911 911 911 911 911 911 913 914 916 919 923 927 931 935 939 941 942 946 955 967 982 1011 1034 1043 1049 1055 1060 1062 1064 1065 1066 1068 1070 1071 1072 1074 1074 1075 1076 1077 1078 1079 1080 1081 1081 1082 1083 1083 1084 1084 1084 1083 1082 1079 1075 1074 1069 1060 1054 1043 1014 1002 1000 1000 996 996 996 998 1001 1003 1009 1015 1015 1015 1015 1015 1016 1020 1024 1029 1031 1032 1033 1034 1046 1048 1052 1065 1075 1083 1085 1094 1102 1111 1111 1111 1113 1113 1116 1116 1116 1114 1109 1106 1106 1106 1109 1110 1110 1109 1109 1107 1107 1107 1111 1112 1117 1122 1126 1126 1126 1126 1128 1138 1149 1152 1153 1154 1156 1162 1166 1168 1170 1172 1172 1173 1175 1176 1179 1181 1182 1182 1182 1182 1180 1178 1177 1176 1175 1173 1171 1167 1166 1159 1155 1146 1135 1117 1093 1081 1081 1081 1081 1081 1082 1082 1082 1086 1091 1096 1097 1100 1105 1105 1105 1100 1100 1100 1111 1120 1125 1128 1137 1153 1172 1190 1199 1208 1216 1219 1221 1223 1223 1224 1224 1224 1224 1224 1225 1225 1227 1227 1227 1225 1225 1225 1223 1223 1216 1215 1210 1206 0 0 0 0 0 0 1223 1253 1292 1324 1332 1338 1338 1338 1338 1331 1331 1331 1349 1364 1375 1387 1410 1410 1410 1384 1382 1379 1376 1376 1373 1357 1335 1316 1306 1306 1306 1313 1313 1313 1302 1294 1275 1275 1276 1275 1269 1259 1242 1230 1228 1224 1223 1209 1179 1143 0 0 0 0 0 0 0 0 0 0 0 0 0 0 0 0 0 0 0 0 0 0 0 0 0 0 0 1075 1095 1095 0 0 0 0 0 0 0 0 0 0 0 0 0 0 0 0 0 0 0 0 0 0 0 0 0 0 0 0 0 0 0 0 0 0 0 0 0 0 0 1453 1453 1437 0 0 0 0 0 0 0 0 0 0 0 0 0 0 0 0 0 0 0 0 0 0 0 0 0 0 0 0 0 0 0 0 0 0 0 0 0 0 0 0 0 0 0 0 0 0 0 0 0 0 0 0 0 0 0 0 0 0 0 0 0 0 0 0 0 0 0 0 0 0 0 0 0 0 0 0 0 0 0 0 0 0 0 0 0 0 0 0 0 0 0 0 0 0 0 0 0 0 0 0 0 0 0 0 0 0 0 0 0 0 0 0 0 0 0 0 0 0
722 722 759 782 802 819 851 877 901 930 957 980 983 1013 1045 1073 1102 1118 1132 1151 1177 1195 1209 1232 1248 1260 1268 1285 1312 1330 1337 1340 1343 1346 1346 1346 1334 1326 1326 1326 1327 1328 1330 1335 1347 1359 1373 1389 1400 1407 1417 1429 1436 1444 1450 1458 1465 1467 1469 1469 1469 1469 1467 1465 1463 1459 1453 1449 1448 1448 1443 1439 1439 1439 1439 1440 1440 1441 1441 1441 1441 1445 1451 1458 1469 1479 1487 1497 1504 1509 1512 1517 1517 1517 1516 1511 1505 1498 1486 1463 0 0 0 0 0 0 1000 998 998 996 996 996 996 996 996 996 997 997 998 998 999 999 1000 1001 1002 1002 1002 1003 1003 1004 1005 1005 1006 1008 1008 1009 1011 1012 1013 1014 1015 1015 1015 1016 1017 1017 1018 1019 1020 1021 1022 1022 1023 1023 1023 1024 1024 1024 1023 1023 1022 1021 1019 1017 1013 1008 998 985 971 959 937 921 913 913 913 919 919 919 909 907 907 907 909 909 909 909 909 910 912 913 916 918 924 930 933 935 939 941 942 946 955 968 983 1011 1032 1043 1049 1056 1061 1063 1064 1065 1066 1068 1070 1071 1072 1074 1075 1076 1076 1077 1078 1079 1081 1082 1082 1083 1084 1085 1085 1085 1085 1085 1083 1081 1077 1076 1070 1060 1055 1044 1018 1010 1010 1007 1004 998 998 998 1002 1010 1016 1025 1025 1025 1025 1025 1026 1027 1031 1039 1039 1039 1039 1039 1048 1054 1054 1067 1076 1083 1086 1094 1096 1099 1099 1099 1100 1100 1102 1102 1103 1103 1102 1101 1101 1099 1098 1098 1101 1101 1101 1101 1101 1101 1103 1103 1103 1108 1106 1109 1112 1116 1120 1132 1150 1155 1157 1160 1164 1168 1171 1173 1173 1176 1177 1177 1178 1180 1181 1182 1183 1184 1184 1184 1182 1181 1180 1179 1178 1175 1171 1170 1168 1163 1156 1146 1119 1113 1099 1081 1081 1081 1081 1081 1082 1082 1085 1091 1094 1096 1097 1100 1102 1102 1102 1101 1101 1101 1110 1118 1125 1129 1138 1154 1177 1191 1206 1216 1219 1222 1223 1225 1226 1226 1226 1226 1225 1225 1225 1225 1227 1227 1227 1222 1213 1213 1210 1208 1202 1184 1181 0 0 0 0 0 0 0 1267 1290 1313 1326 1332 1338 1338 1338 1338 1328 1328 1328 1338 1349 1370 1387 1400 1400 1400 1383 1382 1379 1376 1376 1358 1336 1309 1284 1273 1273 1273 1286 1286 1286 1278 1275 1275 1275 1278 1277 1277 1277 1262 1230 1228 1224 1223 1209 1179 1143 0 0 0 0 0 0 0 0 0 0 0 0 0 0 0 0 0 0 0 0 0 0 0 0 0 0 1050 1067 1070 1070 1067 0 0 0 0 0 0 0 0 0 0 0 0 0 0 0 0 0 0 0 0 0 0 0 0 0 0 0 0 0 0 0 0 0 0 0 0 0 1465 1465 1465 1435 1422 0 0 0 0 0 0 0 0 0 0 0 0 0 0 0 0 0 0 0 0 0 0 0 0 0 0 0 0 0 0 0 0 0 0 0 0 0 0 0 0 0 0 0 0 0 0 0 0 0 0 0 0 0 0 0 0 0 0 0 0 0 0 0 0 0 0 0 0 0 0 0 0 0 0 0 0 0 0 0 0 0 0 0 0 0 0 0 0 0 0 0 0 0 0 0 0 0 0 0 0 0 0 0 0 0 0 0 0 0 0 0 0 0 0 0 0 0
741 741 770 796 813 830 855 884 910 938 965 987 991 1018 1051 1085 1114 1135 1142 1157 1177 1195 1209 1232 1248 1260 1268 1285 1312 1330 1339 1343 1347 1353 1357 1357 1357 1347 1336 1333 1332 1332 1333 1335 1345 1350 1358 1370 1387 1397 1412 1426 1436 1444 1457 1466 1472 1473 1473 1473 1472 1469 1467 1461 1457 1453 1450 1447 1443 1443 1439 1438 1438 1438 1439 1440 1442 1443 1443 1443 1444 1446 1452 1459 1469 1480 1487 1496 1504 1509 1513 1517 1517 1517 1517 1513 1506 1498 1486 1463 0 0 0 0 0 0 0 1001 1001 1000 999 999 999 998 998 998 998 998 999 1000 1000 1001 1001 1002 1003 1003 1004 1004 1006 1006 1006 1006 1008 1010 1010 1011 1013 1013 1014 1015 1016 1017 1017 1018 1019 1019 1020 1021 1022 1023 1023 1024 1024 1024 1025 1025 1025 1025 1025 1025 1024 1024 1023 1021 1017 1011 1002 991 974 962 944 922 910 910 910 911 911 911 909 907 907 907 907 907 907 907 907 908 908 910 912 918 924 930 933 935 938 941 942 947 955 969 989 1011 1032 1041 1049 1056 1061 1063 1064 1065 1066 1068 1070 1071 1072 1074 1075 1076 1076 1077 1078 1079 1081 1082 1082 1084 1085 1085 1085 1087 1087 1087 1086 1083 1079 1076 1070 1061 1055 1048 1037 1021 1020 1017 1014 1012 1012 1012 1020 1028 1033 1037 1037 1037 1036 1036 1036 1039 1045 1056 1061 1061 1061 1061 1061 1087 1089 1089 1089 1089 1089 1092 1092 1092 1092 1092 1092 1092 1092 1090 1090 1090 1087 1086 1086 1086 1086 1086 1086 1086 1084 1083 1072 1072 1072 1073 1087 1093 1099 1104 1105 1108 1115 1132 1152 1157 1160 1166 1169 1172 1173 1175 1177 1179 1180 1181 1182 1182 1184 1184 1185 1185 1185 1185 1184 1184 1184 1183 1182 1179 1174 1173 1172 1166 1161 1146 1119 1113 1104 1081 1081 1081 1084 1084 1084 1086 1091 1094 1094 1094 1094 1096 1097 1097 1097 1097 1097 1101 1110 1117 1128 1138 1151 1154 1179 1192 1208 1218 1223 1224 1224 1226 1228 1228 1228 1228 1227 1226 1225 1225 1225 1225 1223 1218 1207 1204 1197 1194 1176 0 0 0 0 0 0 0 0 0 1310 1323 1326 1326 1332 1332 1332 1319 1319 1319 1323 1326 1338 1349 1369 1387 1393 1393 1393 1379 1379 1376 1373 1373 1354 1322 1292 1273 1273 1273 1273 1286 1286 1286 1275 1263 1261 1261 1261 1279 1279 1279 1266 1224 1218 1215 1211 1198 1178 0 0 0 0 0 0 0 0 0 0 0 0 0 0 0 0 0 0 0 0 0 0 0 0 0 0 1034 1053 1067 1070 1070 1067 1019 0 0 0 0 0 0 0 0 0 0 0 0 0 0 0 0 0 0 0 0 0 0 0 0 0 0 0 0 0 0 0 0 0 0 0 0 1505 1505 1465 1437 1422 0 0 0 0 0 0 0 0 0 0 0 0 0 0 0 0 0 0 0 0 0 0 0 0 0 0 0 0 0 0 0 0 0 0 0 0 0 0 0 0 0 0 0 0 0 0 0 0 0 0 0 0 0 0 0 0 0 0 0 0 0 0 0 0 0 0 0 0 0 0 0 0 0 0 0 0 0 0 0 0 0 0 0 0 0 0 0 0 0 0 0 0 0 0 0 0 0 0 0 0 0 0 0 0 0 0 0 0 0 0 0 0 0 0 493 479 0
749 749 785 805 822 838 862 890 919 949 974 994 1014 1018 1052 1085 1114 1135 1145 1161 1180 1196 1209 1232 1246 1260 1263 1285 1312 1330 1339 1345 1349 1354 1359 1359 1359 1358 1345 1337 1336 1335 1335 1336 1345 1350 1354 1362 1374 1385 1403 1418 1431 1444 1457 1467 1474 1477 1477 1477 1475 1469 1467 1458 1454 1451 1449 1445 1443 1441 1439 1438 1438 1438 1439 1440 1443 1445 1446 1446 1446 1449 1452 1460 1472 1480 1487 1496 1504 1510 1514 1517 1518 1518 1518 1513 1506 1499 1486 1470 0 0 0 0 0 0 0 1005 1002 1001 1001 1000 1000 1000 1000 1000 1000 1000 1001 1001 1002 1002 1003 1004 1005 1005 1005 1007 1007 1007 1008 1008 1009 1010 1011 1013 1013 1015 1015 1016 1017 1018 1019 1019 1019 1021 1022 1022 1023 1024 1025 1026 1026 1026 1027 1027 1027 1027 1027 1026 1026 1025 1025 1022 1018 1013 1006 999 979 964 946 924 910 909 909 909 909 909 911 909 908 908 908 906 906 906 906 907 908 910 912 918 924 930 933 935 938 941 946 953 961 976 999 1015 1031 1040 1048 1056 1061 1063 1064 1065 1066 1068 1069 1071 1073 1074 1075 1076 1076 1077 1078 1079 1081 1082 1083 1084 1085 1085 1085 1087 1087 1087 1086 1085 1083 1080 1076 1070 1060 1055 1049 1029 1022 1022 1021 1022 1022 1025 1036 1037 1040 1048 1048 1051 1053 1053 1053 1058 1067 1076 1082 1087 1093 1093 1101 1104 1101 1101 1101 1099 1094 1094 1093 1089 1085 1082 1081 1080 1080 1080 1074 1074 1074 1072 1075 1077 1077 1075 1075 1075 1065 1058 1057 1057 1057 1068 1074 1082 1088 1094 1104 1107 1110 1132 1152 1161 1165 1169 1173 1174 1176 1179 1179 1180 1182 1183 1185 1186 1186 1187 1188 1188 1188 1187 1187 1187 1186 1186 1184 1181 1179 1179 1178 1175 1166 1146 1119 1116 1113 1095 1086 1086 1086 1086 1087 1089 1091 1093 1093 1093 1091 1091 1091 1093 1095 1097 1103 1108 1110 1116 1136 1156 1171 1174 1191 1206 1215 1222 1224 1225 1226 1229 1230 1230 1230 1230 1229 1227 1227 1225 1225 1225 1223 1218 1207 1197 1194 1170 0 0 0 0 0 0 0 0 0 0 1329 1329 1329 1326 1325 1320 1319 1319 1319 1319 1323 1326 1337 1348 1364 1381 1381 1381 1380 1371 1371 1370 1370 1370 1348 1312 1280 1270 1270 1270 1271 1282 1282 1282 1275 1264 1261 1261 1261 1266 1266 1266 1266 1223 1198 1189 1178 1177 0 0 0 0 0 0 0 0 0 0 0 0 0 0 0 0 0 0 0 0 0 0 0 0 0 0 0 1034 1067 1082 1082 1070 1067 1019 0 0 0 0 0 0 0 0 0 0 0 0 1936 1936 1936 1910 0 0 0 0 0 0 0 0 0 0 0 0 0 0 0 0 0 0 0 1505 1505 1505 1465 1442 0 0 0 0 0 0 0 0 0 0 0 0 0 0 0 0 0 0 0 0 0 0 0 0 0 0 0 0 0 0 0 0 0 0 0 0 0 0 0 0 0 0 0 0 0 0 0 0 0 0 0 0 0 0 0 0 0 0 0 0 0 0 0 0 0 0 0 0 0 0 0 0 0 0 0 0 0 0 0 0 0 0 0 0 0 0 0 0 0 0 0 0 0 0 0 0 0 0 0 0 0 0 0 0 0 0 0 0 0 0 0 0 0 0 523 507 485 0
757 757 786 806 825 841 867 895 927 965 986 1001 1019 1024 1054 1089 1114 1135 1145 1161 1180 1198 1213 1232 1246 1258 1263 1285 1306 1330 1340 1348 1353 1357 1361 1367 1367 1367 1362 1347 1339 1339 1339 1341 1345 1350 1354 1362 1374 1383 1397 1408 1423 1442 1457 1467 1474 1477 1478 1478 1478 1471 1467 1458 1452 1449 1447 1444 1441 1439 1438 1438 1438 1438 1439 1440 1444 1446 1448 1448 1449 1450 1456 1464 1476 1482 1488 1496 1504 1512 1515 1517 1519 1519 1519 1513 1509 1499 1487 1486 1442 0 0 0 0 0 0 1008 1004 1003 1002 1002 1002 1001 1001 1001 1001 1002 1002 1003 1003 1004 1005 1005 1006 1006 1007 1008 1008 1009 1009 1010 1011 1012 1013 1014 1015 1015 1016 1017 1018 1019 1020 1020 1021 1022 1023 1024 1024 1026 1026 1027 1027 1028 1028 1028 1028 1028 1028 1028 1027 1026 1025 1024 1020 1014 1007 1001 987 974 959 933 914 909 909 909 911 911 911 911 911 908 908 903 903 903 903 907 908 910 912 918 923 926 926 928 932 941 948 957 968 984 1000 1016 1031 1040 1048 1055 1060 1063 1064 1065 1066 1068 1068 1071 1073 1074 1075 1076 1076 1077 1077 1078 1080 1082 1083 1084 1085 1085 1085 1087 1087 1087 1086 1086 1086 1085 1084 1080 1073 1067 1051 1035 1035 1035 1039 1049 1049 1049 1047 1047 1047 1051 1051 1059 1062 1064 1079 1092 1103 1104 1105 1105 1110 1110 1112 1112 1110 1110 1104 1104 1104 1099 1093 1077 1067 1066 1060 1060 1060 1060 1055 1052 1052 1052 1058 1064 1069 1069 1069 1066 1063 1058 1057 1057 1057 1062 1074 1079 1084 1093 1104 1108 1115 1132 1153 1161 1167 1172 1175 1177 1179 1181 1182 1183 1184 1185 1187 1187 1190 1190 1190 1190 1190 1190 1190 1190 1189 1189 1188 1185 1182 1181 1181 1178 1167 1146 1116 1116 1113 1105 1097 1090 1088 1088 1088 1090 1091 1091 1091 1090 1086 1086 1086 1095 1097 1107 1111 1116 1118 1120 1145 1164 1176 1183 1202 1213 1220 1224 1227 1227 1229 1231 1232 1232 1232 1232 1230 1230 1229 1227 1225 1225 1223 1218 1207 1197 1192 0 0 0 0 0 0 0 0 0 0 0 1329 1329 1329 1326 1325 1320 1319 1319 1319 1319 1323 1332 1337 1347 1360 1370 1370 1370 1360 1351 1351 1351 1351 1351 1333 1287 1276 1274 1271 1272 1272 1271 1271 1271 1269 1264 1261 1251 1251 1251 1266 1266 1266 1218 1184 1156 1156 1153 0 0 0 0 0 0 0 0 0 0 0 0 0 0 0 0 0 0 0 0 0 0 0 0 0 0 0 1042 1060 1082 1082 1077 1060 1077 0 0 0 0 0 0 0 0 0 0 1909 1961 1961 1961 1936 1910 1910 0 0 0 0 0 0 0 0 0 0 0 0 0 0 0 0 0 0 1534 1534 1505 1460 1441 0 0 0 0 0 0 0 0 0 0 0 0 0 0 0 0 0 0 0 0 0 0 0 0 0 0 0 0 0 0 0 0 0 0 0 0 0 0 0 0 0 0 0 0 0 0 0 0 0 0 0 0 0 0 0 0 0 0 0 0 0 0 0 0 0 0 0 0 0 0 0 0 0 0 0 0 0 0 0 0 0 0 0 0 0 0 0 0 0 0 0 0 0 0 0 0 0 0 0 0 0 0 0 0 0 0 0 0 0 0 0 0 0 528 521 508 485 0
760 760 787 808 825 848 873 902 935 965 988 1007 1028 1032 1057 1089 1113 1132 1145 1161 1180 1198 1213 1232 1245 1258 1263 1286 1306 1324 1340 1350 1355 1359 1366 1377 1379 1379 1379 1368 1351 1350 1350 1350 1350 1352 1354 1362 1374 1383 1394 1406 1421 1434 1450 1467 1474 1477 1478 1478 1478 1476 1469 1458 1450 1447 1444 1441 1439 1438 1438 1438 1438 1438 1438 1441 1445 1449 1451 1452 1453 1456 1461 1469 1479 1485 1493 1500 1508 1515 1515 1519 1519 1519 1519 1516 1513 1507 1495 1487 1467 0 0 0 0 0 0 0 1007 1003 1003 1003 1003 1003 1003 1002 1002 1003 1003 1003 1004 1005 1006 1006 1007 1007 1008 1008 1009 1010 1010 1011 1012 1014 1014 1015 1017 1017 1018 1019 1020 1020 1021 1022 1023 1024 1024 1025 1026 1027 1027 1028 1029 1029 1029 1030 1030 1030 1030 1030 1028 1027 1026 1024 1021 1016 1012 1002 992 983 962 934 916 912 911 911 911 912 912 912 911 908 907 903 903 903 903 907 910 911 914 918 923 926 926 928 932 942 951 961 973 984 1000 1016 1030 1039 1048 1053 1059 1062 1063 1064 1066 1067 1068 1071 1073 1074 1075 1075 1075 1075 1076 1078 1079 1082 1083 1083 1083 1083 1083 1084 1085 1086 1086 1087 1087 1087 1087 1087 1082 1076 1069 1069 1069 1075 1077 1078 1078 1077 1066 1066 1066 1081 1089 1091 1092 1099 1102 1106 1114 1115 1116 1118 1119 1120 1120 1120 1118 1115 1109 1107 1106 1102 1092 1076 1067 1066 1060 1060 1060 1052 1051 1050 1044 1044 1044 1056 1059 1060 1060 1060 1060 1058 1057 1057 1057 1062 1072 1079 1084 1093 1104 1109 1120 1135 1154 1161 1168 1173 1177 1178 1181 1183 1184 1185 1187 1188 1189 1190 1191 1192 1193 1193 1193 1193 1193 1193 1192 1192 1190 1188 1185 1184 1184 1178 1167 1150 1116 1116 1113 1105 1097 1094 1092 1090 1090 1090 1091 1091 1091 1087 1086 1086 1086 1095 1104 1118 1118 1118 1127 1127 1146 1164 1177 1192 1206 1216 1224 1227 1230 1232 1234 1234 1234 1234 1234 1234 1233 1231 1231 1228 1227 1227 1225 1222 1210 1209 1192 0 0 0 0 0 0 0 0 0 0 0 1330 1330 1330 1326 1325 1323 1323 1323 1325 1326 1329 1332 1337 1342 1356 1359 1359 1359 1351 1346 1346 1344 1344 1336 1307 1271 1271 1271 1274 1274 1274 1272 1271 1269 1268 1264 1264 1248 1248 1248 1251 1251 1251 1208 1164 1145 1141 1138 0 0 0 0 0 0 0 0 0 0 0 0 0 0 0 0 0 0 0 0 0 0 0 0 0 0 0 1082 1060 1082 1082 1079 1079 1093 0 0 0 0 0 0 0 0 1843 1887 1909 1961 1961 1961 1936 1910 1910 0 0 0 0 0 0 0 0 0 0 0 0 0 0 0 0 0 1538 1538 1534 1497 1450 1441 0 0 0 0 0 0 0 0 0 0 0 0 0 0 0 0 0 0 0 0 0 0 0 0 0 0 0 0 0 0 0 0 0 0 0 0 0 0 0 0 0 0 0 0 0 0 0 0 0 0 0 0 0 0 0 0 0 0 0 0 0 0 0 0 0 0 0 0 0 0 0 0 0 0 0 0 0 0 0 0 0 0 0 0 0 0 0 0 0 0 0 0 0 0 0 0 0 0 0 0 0 0 0 0 0 0 0 0 0 0 0 0 0 513 510 496 479 0
762 762 788 812 832 856 882 908 936 966 993 1016 1036 1041 1064 1089 1113 1132 1145 1162 1180 1198 1213 1229 1243 1258 1281 1292 1306 1324 1341 1351 1357 1364 1378 1382 1387 1387 1387 1383 1374 1374 1363 1358 1358 1358 1360 1366 1374 1383 1394 1406 1419 1433 1441 1449 1463 1473 1475 1476 1476 1476 1469 1458 1450 1446 1442 1439 1437 1437 1437 1437 1437 1438 1438 1441 1448 1452 1454 1456 1457 1459 1464 1473 1480 1487 1499 1507 1513 1518 1519 1519 1520 1520 1520 1518 1514 1513 1506 1497 1479 0 0 0 0 0 0 0 1012 1006 1004 1004 1004 1004 1004 1004 1004 1004 1004 1004 1006 1006 1007 1007 1008 1009 1009 1010 1011 1011 1012 1013 1013 1014 1015 1016 1018 1018 1019 1019 1020 1021 1021 1022 1023 1024 1025 1026 1026 1028 1029 1029 1030 1030 1030 1031 1031 1031 1031 1031 1030 1029 1027 1025 1022 1017 1013 1008 999 985 966 937 920 914 911 911 911 912 912 912 912 908 907 903 903 903 903 907 911 913 917 920 923 926 926 928 932 943 955 965 973 984 1000 1016 1020 1035 1046 1051 1057 1060 1061 1062 1064 1066 1068 1070 1071 1071 1072 1072 1073 1075 1076 1078 1078 1078 1078 1078 1078 1078 1078 1078 1079 1081 1086 1087 1087 1087 1087 1087 1086 1082 1082 1082 1085 1102 1103 1104 1104 1104 1102 1102 1102 1111 1114 1114 1114 1117 1118 1119 1123 1127 1128 1129 1129 1129 1128 1125 1123 1122 1117 1113 1110 1102 1092 1076 1067 1066 1060 1060 1059 1051 1050 1047 1043 1043 1043 1043 1045 1049 1056 1060 1061 1061 1061 1061 1061 1063 1071 1079 1084 1093 1105 1117 1130 1146 1154 1161 1169 1174 1178 1180 1182 1184 1186 1187 1188 1190 1191 1191 1192 1193 1194 1195 1195 1195 1195 1195 1195 1194 1192 1190 1189 1187 1186 1178 1167 1151 1128 1120 1110 1105 1097 1095 1094 1094 1092 1091 1091 1091 1091 1087 1086 1086 1086 1098 1109 1126 1126 1127 1128 1128 1146 1164 1180 1196 1211 1221 1227 1229 1232 1234 1236 1236 1236 1236 1236 1235 1234 1232 1231 1229 1229 1228 1227 1224 1210 1210 1192 0 0 0 0 0 0 0 0 0 0 1321 1333 1342 1342 1342 1330 1327 1327 1327 1331 1333 1337 1337 1339 1342 1344 1344 1345 1345 1345 1343 1343 1342 1326 1301 1282 1271 1271 1271 1283 1283 1283 1272 1269 1267 1264 1264 1263 1248 1236 1236 1227 1225 1223 1188 1155 1141 1135 1127 0 0 0 0 0 0 0 0 0 0 0 0 0 0 0 0 0 0 0 0 0 0 0 0 0 0 0 0 1090 1094 1095 1100 1100 0 0 0 0 0 0 0 0 1859 1859 1887 1909 1912 1914 1914 1912 1910 1910 0 0 0 0 0 0 0 0 0 0 0 1460 1464 1490 1506 1518 1538 1538 1538 1524 1484 1450 0 0 0 0 0 0 0 0 0 0 0 0 0 0 0 0 0 0 0 0 0 0 0 0 0 0 0 0 0 0 0 0 0 0 0 0 0 0 0 0 0 0 0 0 0 0 0 0 0 0 0 0 0 0 0 0 0 0 0 0 0 0 0 0 0 0 0 0 0 0 0 0 0 0 0 0 0 0 0 0 0 0 0 0 0 0 0 0 0 0 0 0 0 0 0 0 0 0 0 0 0 0 0 0 0 0 0 0 0 0 0 0 0 0 0 510 496 454 0
765 765 793 818 836 856 882 910 937 967 997 1022 1041 1046 1067 1092 1113 1132 1145 1162 1181 1196 1211 1227 1242 1262 1287 1292 1306 1324 1341 1353 1363 1373 1382 1387 1390 1390 1390 1386 1382 1376 1375 1365 1365 1365 1369 1376 1381 1386 1394 1406 1414 1427 1436 1441 1451 1465 1466 1472 1472 1472 1469 1458 1450 1446 1442 1439 1436 1436 1436 1436 1436 1436 1438 1441 1448 1453 1457 1460 1460 1461 1465 1474 1481 1491 1506 1514 1518 1522 1524 1525 1525 1525 1523 1519 1514 1513 1510 1497 1479 0 0 0 0 0 0 0 1015 1007 1005 1005 1005 1005 1005 1005 1005 1005 1005 1006 1007 1007 1008 1008 1009 1010 1010 1011 1012 1012 1013 1014 1014 1015 1016 1017 1018 1019 1019 1020 1021 1021 1022 1023 1025 1025 1025 1027 1028 1028 1029 1030 1030 1030 1031 1032 1032 1032 1032 1032 1031 1031 1028 1026 1025 1021 1016 1008 999 987 969 952 930 915 911 911 911 913 913 913 912 911 911 909 909 911 911 912 913 916 922 926 930 932 934 939 942 948 958 966 974 982 999 1013 1018 1030 1045 1051 1054 1055 1055 1057 1061 1064 1066 1066 1067 1067 1068 1069 1070 1070 1073 1074 1074 1074 1073 1072 1072 1072 1074 1076 1076 1077 1085 1087 1087 1087 1087 1087 1087 1087 1087 1090 1096 1103 1109 1114 1118 1119 1119 1119 1119 1120 1123 1125 1126 1128 1128 1129 1129 1131 1131 1133 1133 1133 1131 1129 1129 1128 1124 1120 1112 1104 1092 1076 1066 1066 1061 1058 1058 1050 1050 1047 1043 1043 1043 1043 1045 1049 1056 1060 1061 1061 1061 1061 1062 1066 1071 1079 1088 1095 1108 1124 1139 1152 1154 1161 1170 1176 1179 1182 1185 1186 1187 1189 1191 1191 1192 1193 1194 1196 1196 1197 1197 1197 1197 1197 1196 1196 1194 1193 1192 1191 1187 1178 1168 1152 1128 1120 1106 1101 1099 1099 1099 1099 1099 1097 1092 1091 1091 1091 1091 1096 1097 1099 1111 1127 1127 1130 1131 1131 1147 1163 1180 1199 1211 1221 1227 1233 1233 1234 1237 1237 1238 1238 1237 1237 1236 1235 1234 1232 1230 1229 1228 1224 1213 1210 0 0 0 0 0 0 0 0 0 0 0 1321 1333 1346 1346 1346 1343 1333 1332 1332 1332 1337 1337 1342 1342 1342 1344 1344 1345 1345 1345 1343 1343 1341 1304 1284 1282 1274 1274 1274 1285 1305 1305 1305 1295 1271 1264 1264 1261 1244 1236 1225 1221 1214 1203 1186 1155 1141 1135 1115 0 0 0 0 0 0 0 0 0 0 0 0 0 0 0 0 0 0 0 0 0 0 0 0 0 0 0 0 0 0 0 0 0 0 0 0 0 0 0 1911 1911 1891 1891 1891 1894 1905 1914 1914 1910 1910 1910 0 0 0 0 0 0 0 0 0 0 1430 1460 1464 1490 1506 1518 1518 1518 1508 1483 1452 1444 0 0 0 0 0 0 0 0 0 0 0 0 0 0 0 0 0 0 0 0 0 0 0 0 0 0 0 0 0 0 0 0 0 0 0 0 0 0 0 0 0 0 0 0 0 0 0 0 0 0 0 0 0 0 0 0 0 0 0 0 0 0 0 0 0 0 0 0 0 0 0 0 0 0 0 0 0 0 0 0 0 0 0 0 0 0 0 0 0 0 0 0 0 0 0 0 0 0 0 0 0 0 0 0 0 0 0 0 0 0 0 0 0 0 0 0 0 449 0
767 767 795 819 838 861 883 910 940 971 999 1022 1041 1053 1067 1092 1113 1137 1152 1162 1181 1195 1210 1224 1241 1265 1295 1299 1314 1325 1341 1355 1370 1382 1388 1391 1393 1393 1393 1392 1388 1384 1382 1374 1374 1374 1377 1383 1388 1395 1400 1407 1414 1414 1419 1429 1440 1452 1466 1467 1468 1468 1468 1458 1452 1446 1442 1439 1436 1434 1432 1432 1432 1435 1437 1441 1449 1454 1457 1460 1461 1462 1466 1474 1485 1499 1512 1517 1521 1525 1528 1530 1530 1530 1526 1520 1515 1514 1510 1497 1482 1453 0 0 0 0 0 0 1017 1008 1005 1005 1005 1005 1005 1006 1006 1006 1006 1006 1007 1008 1009 1009 1010 1010 1011 1011 1012 1013 1014 1014 1016 1016 1017 1017 1018 1019 1020 1021 1021 1023 1023 1024 1025 1026 1026 1027 1028 1029 1030 1030 1031 1032 1032 1033 1033 1033 1033 1032 1032 1031 1030 1029 1027 1025 1019 1011 1001 990 971 954 934 916 914 914 914 914 915 915 916 916 918 920 920 920 920 920 921 924 928 936 939 943 947 952 957 958 961 967 974 982 995 1011 1017 1026 1038 1046 1052 1053 1054 1055 1056 1059 1059 1059 1059 1059 1061 1062 1062 1062 1067 1067 1067 1066 1065 1064 1064 1064 1064 1071 1073 1073 1084 1084 1084 1086 1086 1086 1089 1097 1106 1106 1111 1112 1116 1117 1120 1122 1122 1124 1127 1130 1132 1132 1132 1131 1131 1131 1131 1131 1135 1135 1135 1135 1134 1133 1132 1131 1130 1123 1116 1111 1100 1076 1066 1066 1061 1058 1058 1046 1043 1043 1043 1043 1043 1043 1045 1049 1056 1059 1061 1062 1062 1062 1063 1066 1071 1081 1090 1099 1113 1131 1143 1155 1158 1161 1173 1178 1180 1184 1187 1188 1189 1191 1192 1193 1194 1195 1196 1197 1198 1198 1199 1199 1199 1199 1198 1197 1196 1195 1194 1194 1188 1178 1170 1155 1131 1105 1104 1096 1096 1096 1099 1106 1106 1106 1099 1095 1095 1095 1107 1107 1107 1108 1115 1129 1130 1133 1133 1133 1147 1163 1180 1200 1216 1222 1228 1233 1233 1235 1237 1239 1240 1240 1240 1239 1238 1236 1234 1232 1231 1230 1228 1224 1213 1200 0 0 0 0 0 0 0 0 0 0 0 1321 1333 1349 1355 1355 1355 1341 1332 1332 1332 1337 1347 1348 1348 1348 1345 1345 1345 1345 1345 1344 1344 1337 1303 1283 1281 1274 1274 1274 1285 1305 1308 1308 1308 1280 1268 1240 1238 1225 1225 1225 1221 1214 1203 1186 1155 1143 1135 1115 0 0 0 0 0 0 0 0 0 0 0 0 0 0 0 0 0 0 0 0 0 0 0 0 0 0 0 0 0 0 0 0 0 0 0 0 0 0 1911 1911 1911 1891 1876 1876 1876 1878 1891 1905 1914 1914 1914 0 0 0 0 0 0 0 0 0 0 1431 1441 1464 1490 1506 1506 1506 1498 1474 1447 1443 0 0 0 0 0 0 0 0 0 0 0 0 0 0 0 0 0 0 0 0 0 0 0 0 0 0 0 0 0 0 0 0 0 0 0 0 0 0 0 0 0 0 0 0 0 0 0 0 0 0 0 0 0 0 0 0 0 0 0 0 0 0 0 0 0 0 0 0 0 0 0 0 0 0 0 0 0 0 0 0 0 0 0 0 0 0 0 0 0 0 0 0 0 0 0 0 0 0 0 0 0 0 0 0 0 0 0 0 0 0 0 0 0 0 0 0 0 0 0 0
772 772 796 820 840 861 884 911 940 971 999 1022 1041 1053 1067 1092 1113 1137 1154 1168 1181 1195 1210 1222 1236 1269 1302 1307 1319 1327 1342 1355 1376 1386 1391 1393 1398 1398 1398 1396 1394 1394 1392 1387 1383 1383 1383 1389 1394 1399 1409 1411 1412 1412 1414 1414 1418 1433 1453 1453 1462 1462 1462 1457 1452 1446 1442 1439 1436 1434 1429 1429 1429 1429 1436 1441 1449 1455 1458 1460 1462 1465 1471 1478 1489 1505 1519 1522 1524 1529 1531 1531 1531 1530 1526 1522 1518 1514 1510 1494 1482 1453 0 0 0 0 0 0 0 1009 1009 1007 1007 1007 1007 1007 1007 1007 1007 1008 1009 1009 1009 1010 1011 1011 1012 1013 1013 1014 1014 1016 1016 1016 1017 1017 1018 1019 1020 1021 1022 1023 1023 1024 1025 1026 1026 1027 1028 1029 1030 1031 1031 1032 1033 1033 1033 1033 1033 1033 1032 1032 1031 1031 1028 1025 1021 1014 1007 997 977 956 937 917 914 914 914 919 922 923 923 924 927 931 931 931 931 931 931 934 938 948 950 952 956 961 964 964 965 970 974 982 995 1002 1017 1024 1030 1039 1046 1050 1050 1051 1052 1052 1052 1050 1049 1049 1049 1048 1048 1048 1055 1056 1056 1056 1055 1051 1048 1048 1048 1053 1062 1067 1069 1069 1075 1075 1081 1082 1089 1102 1109 1113 1116 1118 1118 1119 1121 1125 1127 1129 1129 1131 1133 1133 1133 1133 1134 1135 1136 1136 1137 1138 1138 1137 1137 1137 1134 1133 1130 1126 1121 1114 1100 1083 1066 1066 1061 1055 1055 1046 1044 1044 1044 1044 1044 1047 1048 1053 1056 1059 1059 1059 1062 1062 1063 1068 1075 1082 1091 1099 1113 1131 1143 1156 1167 1174 1176 1180 1183 1186 1188 1189 1191 1192 1194 1195 1196 1197 1198 1199 1200 1200 1201 1201 1201 1201 1200 1199 1198 1196 1195 1195 1192 1180 1172 1155 1131 1109 1097 1093 1093 1093 1100 1110 1110 1110 1105 1105 1105 1110 1112 1115 1115 1117 1125 1132 1134 1135 1141 1149 1151 1163 1181 1207 1223 1227 1232 1236 1236 1238 1240 1242 1242 1242 1242 1241 1239 1237 1235 1232 1232 1231 1228 1222 1213 1199 0 0 0 0 0 0 0 0 0 0 1333 1333 1344 1349 1355 1355 1355 1341 1332 1332 1332 1341 1348 1362 1362 1362 1355 1345 1345 1345 1345 1344 1344 1330 1299 1281 1276 1274 1274 1274 1285 1305 1308 1308 1308 1284 1268 1240 1240 1240 1240 1240 1221 1214 1203 1186 1175 1167 1146 1115 0 0 0 0 0 0 0 0 0 1617 1623 1641 1685 1685 0 0 0 0 0 0 0 1346 1360 0 0 0 0 0 0 0 0 0 0 0 0 0 0 0 1911 1911 1911 1891 1876 1867 1867 1867 1890 1905 1931 1946 1956 0 0 0 0 0 0 0 0 0 0 1464 1464 1464 1490 1490 1490 1484 1482 1474 1447 1443 0 0 0 0 0 0 0 0 0 0 0 0 0 0 0 0 0 0 0 0 0 0 0 0 0 0 0 0 0 0 0 0 0 0 0 0 0 0 0 0 0 0 0 0 0 0 0 0 0 0 0 0 0 0 0 0 0 0 0 0 0 0 0 0 0 0 0 0 0 0 0 0 0 0 0 0 0 0 0 0 0 0 0 0 0 0 0 0 0 0 0 817 817 816 782 0 0 0 0 0 0 0 0 0 0 0 0 0 0 0 0 0 0 0 0 0 0 0 0 0
793 793 797 822 840 861 886 912 940 971 999 1020 1036 1053 1067 1081 1113 1137 1154 1168 1181 1194 1206 1218 1236 1273 1302 1316 1321 1332 1342 1358 1377 1391 1394 1397 1402 1402 1402 1400 1399 1399 1399 1399 1398 1395 1395 1395 1399 1405 1414 1414 1414 1414 1414 1414 1415 1418 1432 1434 1439 1443 1450 1450 1450 1446 1445 1440 1436 1434 1429 1429 1429 1429 1436 1441 1448 1455 1458 1462 1465 1469 1474 1481 1494 1511 1523 1526 1528 1531 1532 1532 1532 1530 1526 1523 1520 1515 1508 1494 1482 1462 0 0 0 0 0 0 0 1015 1014 1012 1011 1010 1008 1008 1008 1008 1009 1009 1009 1010 1010 1012 1012 1013 1013 1014 1014 1015 1016 1016 1017 1017 1017 1017 1018 1019 1020 1021 1022 1023 1023 1024 1025 1026 1026 1027 1028 1029 1030 1031 1031 1032 1033 1034 1034 1034 1034 1034 1033 1033 1032 1032 1029 1026 1024 1018 1013 1003 983 965 939 919 919 919 923 928 931 932 934 936 940 941 941 941 939 939 939 942 954 961 961 962 965 970 971 973 973 977 983 992 995 1002 1018 1024 1025 1036 1046 1048 1048 1049 1050 1050 1050 1045 1042 1041 1041 1038 1034 1034 1034 1045 1045 1045 1034 1034 1034 1038 1042 1042 1045 1047 1047 1048 1048 1059 1070 1082 1089 1104 1110 1114 1118 1119 1121 1123 1125 1127 1130 1131 1132 1133 1134 1135 1136 1137 1138 1140 1141 1141 1141 1141 1140 1140 1139 1139 1137 1134 1131 1126 1123 1115 1100 1084 1056 1047 1047 1043 1043 1043 1044 1044 1044 1046 1047 1049 1053 1054 1054 1056 1056 1057 1060 1062 1064 1069 1076 1083 1092 1099 1113 1133 1143 1156 1169 1175 1179 1182 1186 1187 1189 1190 1192 1194 1195 1196 1198 1198 1199 1200 1200 1201 1202 1202 1202 1202 1200 1199 1198 1197 1196 1195 1193 1185 1173 1156 1139 1120 1097 1093 1093 1093 1102 1110 1113 1113 1115 1115 1118 1119 1119 1119 1121 1126 1135 1135 1138 1139 1147 1160 1161 1171 1198 1217 1228 1233 1238 1240 1241 1241 1243 1244 1245 1245 1245 1242 1240 1239 1237 1236 1234 1232 1225 1222 1213 1188 0 0 0 0 0 0 0 0 0 0 1333 1335 1344 1349 1355 1355 1355 1341 1332 1332 1332 1341 1349 1362 1362 1362 1359 1359 1359 1349 1356 1356 1344 1309 1287 1271 1271 1271 1271 1271 1268 1268 1268 1297 1297 1297 1268 1240 1240 1240 1240 1243 1243 1239 1238 1234 1221 1202 1164 1126 0 0 0 0 0 0 0 0 1622 1645 1645 1667 1696 1696 1696 0 0 0 0 0 1277 1332 1360 1360 0 0 0 0 0 0 0 0 0 0 0 0 0 0 1900 1900 1900 1881 1869 1867 1867 1867 1890 1907 1947 1968 1976 1985 1985 1985 1966 0 0 0 0 0 0 0 1467 1467 1490 1490 1490 1484 1482 1474 1447 1443 0 0 0 0 0 0 0 0 0 0 0 0 0 0 0 0 0 0 0 0 0 0 0 0 0 0 0 0 0 0 0 0 0 0 0 0 0 0 0 0 0 0 0 0 0 0 0 0 0 0 0 0 0 0 0 0 0 0 0 0 0 0 0 0 0 0 0 0 0 0 0 0 0 0 0 0 0 0 0 0 0 0 0 0 0 0 0 0 0 0 817 824 824 817 782 782 0 0 0 0 0 0 0 0 0 0 0 0 0 0 0 0 0 0 0 0 0 0 0 0
800 800 802 825 848 866 886 912 940 969 992 1012 1032 1050 1067 1077 1103 1136 1154 1168 1183 1194 1206 1218 1236 1277 1302 1316 1321 1333 1347 1361 1378 1391 1396 1402 1406 1410 1410 1410 1407 1407 1407 1407 1407 1407 1406 1406 1406 1410 1419 1419 1419 1415 1415 1415 1415 1418 1420 1424 1425 1429 1437 1444 1444 1444 1444 1443 1439 1435 1429 1429 1429 1429 1436 1441 1448 1455 1461 1465 1469 1473 1475 1483 1495 1511 1523 1530 1531 1533 1533 1533 1532 1529 1526 1524 1521 1516 1507 1494 1482 1463 0 0 0 0 0 0 0 1019 1015 1015 1014 1012 1011 1011 1011 1011 1010 1010 1011 1011 1013 1013 1013 1014 1014 1015 1015 1016 1016 1017 1017 1017 1017 1017 1018 1019 1020 1021 1022 1023 1023 1024 1025 1025 1026 1027 1028 1029 1030 1030 1031 1032 1033 1034 1034 1034 1034 1034 1034 1034 1034 1033 1032 1028 1026 1025 1016 1003 988 966 940 926 926 926 934 942 944 945 946 946 947 949 949 949 949 949 949 961 970 978 984 997 1007 1012 1012 1012 1012 1012 1010 1008 1012 1012 1018 1024 1025 1036 1038 1041 1044 1041 1041 1041 1038 1032 1026 1026 1025 1024 1019 1019 1019 1025 1025 1025 1015 1015 1015 1016 1017 1018 1019 1021 1027 1038 1043 1058 1070 1082 1091 1104 1115 1120 1124 1124 1126 1126 1127 1129 1132 1133 1135 1137 1137 1139 1140 1141 1141 1143 1143 1143 1143 1143 1142 1142 1141 1140 1138 1136 1132 1129 1125 1116 1100 1083 1056 1043 1043 1043 1043 1047 1047 1046 1047 1047 1050 1053 1056 1056 1056 1056 1057 1057 1057 1058 1064 1070 1078 1085 1093 1101 1114 1133 1143 1156 1170 1176 1180 1183 1186 1188 1190 1191 1193 1194 1195 1196 1198 1199 1200 1200 1201 1202 1202 1202 1202 1202 1201 1199 1199 1198 1198 1197 1194 1186 1174 1158 1142 1123 1097 1096 1096 1096 1102 1112 1117 1117 1120 1128 1129 1130 1132 1135 1136 1137 1140 1140 1144 1144 1154 1161 1164 1176 1199 1219 1232 1239 1244 1245 1245 1246 1247 1247 1247 1247 1247 1246 1245 1245 1243 1241 1237 1232 1225 1222 1211 1173 0 0 0 0 0 0 0 0 0 0 1331 1337 1340 1341 1340 1340 1340 1337 1335 1337 1337 1342 1357 1368 1369 1369 1369 1369 1369 1364 1364 1364 1303 1263 1248 1248 1263 1271 1271 1271 1264 1263 1263 1263 1280 1280 1280 1244 1244 1244 1246 1246 1248 1248 1248 1248 1248 1225 0 0 0 0 0 0 0 0 0 0 1633 1654 1675 1695 1695 1695 1688 0 0 0 0 0 1265 1328 1349 1349 1349 0 0 0 0 0 0 0 0 0 0 0 0 0 1873 1881 1881 1881 1869 1867 1867 1867 1890 1923 1958 1985 2001 2007 2007 2007 1983 1958 0 0 0 0 0 0 1514 1514 1519 1519 1519 1489 1487 1487 1487 1487 0 0 0 0 0 0 0 0 0 0 0 0 0 0 0 0 0 0 0 0 0 0 0 0 0 0 0 0 0 0 0 0 0 0 0 0 0 0 0 0 0 0 0 0 0 0 0 0 0 0 0 0 0 0 0 0 0 0 0 0 0 0 0 0 0 0 0 0 0 0 0 0 0 0 0 0 0 0 0 0 0 0 0 0 0 0 0 0 0 0 810 817 817 817 782 782 0 0 0 0 0 0 0 0 0 0 0 0 0 0 0 0 0 0 0 0 0 0 0 0
803 803 804 826 848 866 886 912 940 962 985 1004 1025 1048 1069 1077 1099 1129 1150 1167 1183 1194 1206 1218 1249 1277 1297 1316 1321 1333 1347 1361 1378 1391 1399 1403 1409 1414 1418 1420 1420 1420 1419 1418 1417 1416 1413 1413 1413 1419 1426 1426 1426 1422 1416 1416 1416 1418 1420 1420 1421 1423 1424 1435 1443 1447 1447 1447 1443 1439 1431 1425 1425 1425 1435 1441 1449 1455 1463 1467 1471 1475 1477 1485 1499 1511 1523 1530 1531 1532 1532 1532 1530 1529 1526 1524 1522 1516 1506 1497 1487 1480 0 0 0 0 0 0 0 1020 1017 1015 1014 1014 1013 1013 1012 1012 1012 1012 1012 1013 1014 1015 1015 1015 1015 1016 1016 1016 1016 1017 1017 1017 1017 1017 1018 1019 1020 1021 1022 1023 1023 1024 1024 1025 1026 1027 1028 1029 1029 1030 1031 1032 1033 1034 1034 1034 1034 1034 1034 1034 1035 1035 1035 1034 1034 1030 1023 1003 992 972 960 937 937 937 940 943 951 953 958 961 961 962 963 964 966 967 969 983 990 990 992 1017 1033 1033 1033 1031 1031 1031 1031 1034 1035 1034 1031 1031 1026 1025 1025 1015 1012 1009 1006 1006 1006 1005 1004 1003 1003 993 987 987 987 994 997 997 999 999 999 1002 1004 1006 1010 1017 1026 1034 1041 1055 1070 1088 1099 1109 1117 1120 1124 1127 1129 1130 1131 1133 1134 1136 1138 1139 1141 1141 1142 1144 1144 1145 1145 1145 1145 1145 1144 1144 1142 1141 1141 1138 1135 1133 1127 1116 1100 1076 1054 1041 1041 1041 1048 1051 1051 1051 1051 1051 1052 1056 1057 1057 1057 1057 1057 1057 1057 1058 1064 1073 1081 1088 1096 1101 1114 1133 1142 1155 1170 1178 1180 1184 1186 1188 1190 1192 1193 1195 1195 1197 1198 1199 1200 1201 1201 1202 1202 1202 1202 1202 1201 1199 1199 1198 1198 1197 1194 1190 1175 1166 1156 1137 1107 1107 1107 1108 1110 1112 1119 1124 1129 1135 1140 1143 1151 1153 1153 1156 1159 1165 1167 1170 1174 1184 1189 1203 1220 1229 1236 1243 1247 1247 1249 1249 1250 1250 1250 1250 1250 1249 1248 1247 1246 1243 1243 1232 1225 1222 1211 1167 0 0 0 0 0 0 0 0 0 0 1331 1332 1340 1340 1340 1340 1340 1337 1337 1340 1340 1361 1362 1368 1369 1368 1368 1368 1369 1368 1368 1364 0 0 1233 1233 1244 1261 1262 1262 1262 1262 1262 1263 1283 1283 1283 1246 1246 1246 1248 1253 1253 1253 1253 1253 1249 1243 1214 1191 0 0 0 0 0 0 0 1646 1646 1671 1675 1695 1695 1695 1684 0 0 0 0 0 1270 1320 1342 1342 1342 1321 1321 1312 0 0 0 0 0 0 0 0 0 0 1873 1881 1881 1881 1879 1879 1879 1906 1935 1967 1983 1995 2018 2030 2030 2030 1992 1958 1930 0 0 0 0 0 1523 1523 1523 1540 1540 1540 1522 1521 1512 1492 0 0 0 0 0 0 0 0 0 0 0 0 0 0 0 0 0 0 0 0 0 0 0 0 0 0 0 0 0 0 0 0 0 0 0 0 0 0 0 0 0 0 0 0 0 0 0 0 0 0 0 0 0 0 0 0 0 0 0 0 0 0 0 0 0 0 0 0 0 0 0 0 0 0 0 0 0 0 0 0 0 0 0 0 0 0 0 0 0 0 792 815 815 815 765 765 0 0 0 0 0 0 0 0 0 0 0 0 0 0 0 0 0 0 0 0 0 0 0 0
804 804 806 826 849 868 889 912 939 962 985 1004 1025 1048 1070 1074 1099 1127 1150 1167 1183 1199 1215 1243 1259 1277 1294 1312 1319 1333 1347 1361 1378 1391 1403 1407 1411 1418 1421 1423 1426 1426 1426 1426 1426 1424 1420 1420 1420 1426 1432 1435 1435 1435 1430 1422 1420 1420 1420 1420 1421 1423 1424 1434 1442 1455 1455 1455 1451 1441 1433 1424 1424 1424 1431 1440 1452 1460 1464 1468 1472 1476 1481 1487 1500 1511 1524 1530 1531 1531 1531 1531 1529 1529 1526 1525 1522 1516 1507 1497 1487 1480 1455 0 0 0 0 0 0 1022 1017 1016 1015 1015 1015 1014 1014 1013 1013 1014 1014 1014 1015 1016 1016 1016 1016 1016 1016 1017 1018 1018 1018 1017 1017 1017 1018 1019 1019 1020 1022 1023 1023 1023 1024 1024 1026 1026 1027 1028 1029 1029 1031 1032 1033 1034 1034 1034 1034 1034 1034 1034 1035 1035 1035 1035 1035 1034 1034 1019 1004 996 979 953 950 950 950 950 953 961 964 967 989 999 1001 1009 0 0 1009 1009 1014 1017 1019 1039 1048 1048 1048 1048 1048 1048 1050 1052 1052 1052 1051 1044 1025 1015 1012 996 977 977 977 977 978 980 981 982 982 982 976 974 974 974 985 990 993 994 998 1001 1001 1002 1007 1017 1026 1034 1041 1055 1071 1089 1103 1112 1117 1121 1126 1129 1132 1133 1134 1135 1137 1139 1140 1142 1143 1144 1145 1146 1147 1147 1147 1147 1147 1147 1147 1146 1145 1144 1143 1141 1138 1133 1128 1118 1100 1083 1056 1039 1039 1039 1051 1053 1053 1053 1052 1052 1052 1057 1058 1058 1059 1058 1058 1058 1058 1058 1066 1076 1083 1093 1099 1106 1119 1134 1142 1158 1170 1178 1180 1185 1188 1189 1190 1192 1194 1195 1195 1197 1198 1199 1200 1201 1201 1202 1202 1202 1202 1202 1202 1199 1199 1199 1199 1198 1198 1194 1191 1190 1176 1161 1130 1130 1130 1134 1135 1137 1145 1158 1158 1158 1158 1158 1175 1186 1187 1196 1196 1192 1192 1196 1200 1200 1212 1226 1236 1240 1243 1246 1247 1249 1250 1251 1252 1253 1253 1253 1252 1252 1250 1249 1248 1246 1244 1238 1231 1222 1207 1166 0 0 0 0 0 0 0 0 0 1324 1331 1332 1340 1340 1340 1340 1341 1341 1342 1345 1361 1374 1374 1374 1369 1367 1367 1369 1373 1373 1373 1364 0 0 1216 1216 1238 1261 1261 1261 1252 1252 1252 1261 1282 1282 1282 1269 1269 1269 1271 1271 1271 1270 1269 1266 1261 1253 1245 1245 0 0 0 0 0 0 1678 1678 1675 1675 1675 1695 1695 1695 1678 0 0 0 0 1276 1276 1287 1317 1318 1321 1321 1321 1331 1333 0 0 0 0 0 0 0 0 0 1873 1903 1903 1903 1903 1903 1917 1947 1975 1991 1993 2007 2030 2036 2036 2036 1995 1958 1930 1918 0 0 0 0 1530 1530 1530 1540 1540 1540 1522 1521 1512 1492 0 0 0 0 0 0 0 826 826 826 833 0 0 0 0 0 0 0 0 0 0 0 0 0 0 0 0 0 0 0 0 1096 1096 1092 0 0 0 0 0 0 0 0 787 787 802 0 0 0 0 0 0 0 0 0 0 0 0 0 0 0 0 0 0 0 0 0 0 0 0 0 0 0 0 0 0 0 0 0 0 0 0 0 0 0 0 0 0 0 0 759 788 807 807 807 765 765 0 0 0 0 0 0 0 0 0 0 0 0 0 0 0 0 0 0 0 0 0 0 0 0
810 810 824 829 850 869 889 912 939 962 985 1004 1025 1048 1070 1074 1097 1126 1150 1167 1185 1202 1220 1243 1259 1273 1288 1304 1316 1324 1339 1352 1367 1394 1403 1412 1416 1419 1423 1428 1429 1430 1430 1430 1430 1429 1425 1425 1425 1432 1440 1445 1445 1445 1443 1439 1426 1421 1421 1421 1421 1422 1423 1433 1440 1455 1460 1460 1460 1448 1438 1426 1426 1426 1431 1440 1454 1461 1465 1468 1473 1478 1486 1493 1501 1511 1523 1530 1531 1531 1531 1531 1529 1528 1527 1525 1522 1515 1507 1500 1492 1481 1457 0 0 0 0 0 0 1029 1017 1016 1016 1016 1016 1016 1016 1016 1015 1015 1016 1016 1017 1017 1017 1017 1017 1017 1017 1017 1018 1018 1018 1017 1017 1017 1017 1019 1019 1020 1021 1021 1022 1022 1022 1023 1023 1024 1025 1026 1026 1028 1030 1032 1032 1032 1032 1031 1031 1031 1032 1033 1033 1034 1034 1035 1035 1034 1034 1031 1025 1015 1000 999 999 994 994 999 1000 1008 1010 1013 1027 1035 1037 1044 0 0 1044 1044 1045 1054 1061 1067 1067 1067 1067 1067 1065 1062 1061 1061 1060 1060 1057 1046 1028 1015 982 975 975 972 972 971 971 971 974 979 979 979 976 972 972 972 972 981 988 993 997 997 998 1000 1002 1015 1025 1033 1041 1055 1071 1089 1105 1112 1118 1122 1128 1131 1133 1135 1137 1138 1140 1140 1143 1144 1144 1145 1147 1147 1148 1148 1148 1149 1149 1149 1149 1149 1148 1148 1146 1142 1138 1133 1128 1119 1103 1084 1056 1043 1043 1043 1054 1056 1056 1056 1053 1053 1053 1058 1059 1060 1061 1062 1064 1065 1065 1067 1071 1077 1085 1094 1103 1112 1121 1135 1143 1159 1170 1181 1185 1187 1188 1189 1191 1192 1194 1195 1195 1197 1198 1199 1200 1202 1202 1202 1202 1202 1202 1202 1202 1201 1201 1201 1201 1201 1201 1197 1194 1193 1177 1165 1159 1150 1150 1150 1153 1154 1170 1195 1202 1202 1204 1209 1212 1215 1215 1218 1218 1218 1218 1219 1220 1220 1225 1229 1237 1244 1247 1249 1250 1251 1252 1254 1254 1255 1255 1255 1255 1254 1253 1252 1251 1249 1248 1240 1234 1222 1206 1162 0 0 0 0 0 0 0 0 0 1324 1332 1341 1348 1361 1361 1363 1368 1368 1368 1377 1378 1378 1378 1374 1359 1359 1359 1368 1382 1382 1382 1371 0 1213 1213 1213 1238 1238 1241 1241 1241 1241 1241 1253 1280 1280 1280 1276 1276 1276 1282 1298 1298 1298 1295 1282 1270 1256 1256 1256 0 0 0 0 0 1707 1707 1707 1687 1680 1680 1680 1680 1680 1670 0 0 0 0 1253 1253 1253 1302 1302 1302 1317 1325 1352 1374 1386 0 0 0 0 0 0 0 0 1884 1936 1939 1940 1946 1946 1969 2010 2010 2018 2018 2018 2043 2043 2043 2036 1996 1949 1929 1918 0 0 0 0 1531 1531 1531 1539 1539 1539 1522 1521 1512 1482 0 0 0 0 0 0 860 817 817 817 833 833 0 0 0 0 0 0 0 0 0 0 0 0 0 0 0 0 0 0 1131 1107 1093 1080 1077 0 0 0 0 0 0 787 787 787 802 869 0 0 0 0 0 0 0 0 0 0 0 0 0 0 0 0 0 0 0 0 0 0 0 0 0 0 0 0 0 0 0 0 0 0 0 0 0 0 0 0 0 0 0 757 778 779 779 778 796 801 0 0 0 0 0 0 0 0 0 0 0 0 0 0 0 0 0 0 0 0 0 0 0 0
819 819 832 834 852 869 889 912 939 964 988 1009 1029 1049 1070 1074 1097 1125 1150 1169 1187 1204 1220 1243 1259 1273 1284 1296 1310 1314 1329 1344 1367 1391 1407 1417 1420 1423 1426 1429 1434 1435 1435 1435 1435 1435 1431 1431 1431 1436 1442 1450 1453 1453 1453 1445 1430 1425 1423 1419 1419 1419 1421 1428 1440 1455 1464 1464 1464 1455 1444 1431 1431 1431 1431 1440 1457 1461 1466 1470 1477 1481 1490 1497 1504 1514 1523 1529 1531 1531 1531 1531 1529 1528 1528 1526 1522 1515 1508 1504 1494 1488 1462 0 0 0 0 0 0 0 1020 1017 1017 1017 1018 1018 1018 1018 1018 1018 1018 1019 1019 1019 1019 1019 1018 1018 1018 1018 1018 1018 1018 1017 1017 1017 1017 1017 1017 1017 1017 1017 1019 1019 1019 1019 1019 1020 1021 1022 1024 1027 1029 1030 1030 1030 1030 1027 1026 1026 1026 1029 1029 1031 1034 1034 1034 1034 1034 1031 1025 1025 1025 1026 1030 1033 1035 1037 1038 1045 1046 1047 1054 1057 1059 1059 1059 1059 1063 1063 1063 1070 1074 1078 1079 1079 1079 1076 1073 1071 1067 1065 1064 1064 1058 1048 1040 1015 982 971 971 969 969 969 969 969 971 972 974 974 974 972 972 972 972 972 981 989 990 993 993 993 999 1014 1022 1033 1040 1059 1073 1091 1108 1114 1119 1125 1130 1133 1135 1137 1139 1140 1141 1143 1143 1145 1146 1147 1149 1149 1149 1150 1151 1151 1151 1151 1151 1151 1151 1151 1148 1146 1141 1135 1128 1120 1112 1097 1073 1044 1044 1044 1055 1060 1060 1060 1056 1056 1056 1060 1063 1063 1065 1067 1070 1071 1071 1073 1076 1081 1085 1094 1103 1112 1121 1135 1148 1161 1173 1182 1186 1188 1188 1189 1191 1192 1194 1194 1195 1197 1198 1199 1200 1201 1201 1201 1201 1201 1202 1202 1202 1201 1201 1201 1201 1201 1201 1198 1197 1196 1187 1185 1185 1185 1185 1185 1188 1190 1194 1208 1211 1212 1224 1225 1226 1230 1231 1232 1232 1237 1238 1238 1240 1240 1240 1243 1246 1251 1251 1252 1253 1253 1256 1257 1258 1258 1258 1257 1257 1257 1255 1255 1251 1250 1250 1244 1236 1222 1207 0 0 0 0 0 0 0 0 0 0 0 1355 1355 1374 1399 1399 1399 1390 1390 1390 1390 1390 1388 1385 1374 1364 1364 1364 1368 1393 1393 1393 0 0 0 1239 1239 1239 1239 1241 1241 1241 1241 1244 1253 1276 1276 1276 1276 1276 1276 1284 1298 1314 1314 1314 1305 1283 1266 0 0 0 0 0 1651 1705 1731 1731 1731 1697 1671 1670 1670 1665 1665 1665 0 0 0 0 0 1254 1254 1302 1302 1302 1317 1325 0 0 0 0 0 0 0 0 0 0 1839 1899 1936 1947 1953 1958 1976 2015 2025 2025 2025 2025 2025 2051 2051 2051 2036 1996 1946 1921 1899 0 0 0 0 1531 1530 1530 1530 1530 1530 1516 0 0 0 0 0 0 0 0 0 0 0 0 0 0 0 0 0 0 0 0 0 0 0 0 0 0 0 0 1151 1154 1174 1174 1174 0 0 0 0 0 0 0 0 0 0 0 0 0 0 0 0 0 0 0 0 0 0 0 0 0 0 0 0 0 0 0 0 0 0 0 0 0 0 0 0 0 0 0 0 0 0 0 0 0 0 0 0 0 0 0 0 0 756 757 767 767 767 767 767 786 786 0 0 0 0 0 0 0 0 0 0 0 0 0 0 0 0 0 0 0 0 0 0 0 0
