352 352 352 352 337 337 337 351 362 368 368 369 371 377 384 390 394 406 420 434 0 0 0 0 0 0 0 0 0 0 0 0 0 0 0 0 0 859 873 883 896 916 944 963 983 985 990 995 1010 1022 1034 1045 1051 1061 1064 1067 1069 1069 1069 1067 1045 0 0 0 0 0 0 0 0 0 0 0 0 0 0 0 0 0 0 0 0 0 0 1190 1174 1174 1172 1170 1168 1160 1149 1141 1135 1132 1129 1127 1121 1116 1100 1090 1082 1082 1082 1082 1083 1098 1116 1135 1157 1183 1183 1183 1161 1161 1161 1162 1179 1191 1203 1219 1222 1224 1224 1224 1224 1224 1226 1226 1226 1227 1227 1230 1235 1237 1237 1237 1236 1235 1235 1235 1236 1236 1236 1233 1230 1230 1230 1232 1232 1233 1233 1233 1233 1233 1227 1225 1222 1222 1222 1221 1221 1214 1207 1207 1207 1214 1222 1230 1238 1251 1251 1251 1246 1245 1245 1245 1250 1262 1277 1283 1283 1283 1282 1282 1282 1286 1286 1287 1288 1296 1302 1303 1303 1304 1304 1303 1302 1302 1292 1292 1291 1291 1292 1294 1299 1302 1303 1305 1305 1305 1304 1302 1299 1296 1290 1284 1282 1279 1273 1258 1236 1204 1176 1152 1139 1135 1132 1131 1130 1130 1129 1128 1126 1125 1124 1123 1122 1121 1119 1117 1113 1111 1110 1108 1106 1104 1101 1099 1098 1095 1092 1091 1091 1091 1091 1091 1090 1088 1086 1086 1086 1086 1085 1084 1083 1083 1082 1080 1078 1077 1074 1069 1063 1055 1054 1051 1049 1048 1047 1047 1044 1042 1040 1037 1037 1036 1034 1033 1033 1032 1033 1033 1034 1034 1034 1034 1034 1034 1035 1038 1041 1041 1041 1040 1040 1040 1039 1039 1037 1036 1035 1035 1034 1033 1032 1032 1031 1031 1030 1029 1028 1026 1025 1024 1023 1021 1019 1016 1013 1012 1010 1006 1001 997 991 987 985 982 979 975 971 967 964 960 958 958 958 957 957 957 957 957 957 957 960 963 964 967 969 969 970 974 979 980 981 981 0 0 0 0 0 0 0 0 0 0 0 0 0 0 0 0 0 0 0 0 0 0 0 0 0 0 0 0 0 0 0 0 0 0 0 934 934 934 929 929 927 925 925 924 923 921 920 919 918 917 916 914 913 912 910 909 908 907 906 905 905 905 904 903 903 902 901 901 901 902 903 904 906 906 0 0 0 0 0 0 0 0 0 0 0 0 0 0 0 0 0 0 0 0 0 0 0 0 0 0 0 0 0 0 0 0 0 0 0 0 0 0 0 0 0 0 0 0 0 0 0 0 0 0 0 0 0 0 0 0 0 0 0 0 0 0 0 0 0 0 0 0 0 0 0 0 0 0 0 0 0 855 856 855 851 843 843 842 841 841 839 839 839 839 860 871 874 880 893 903 914 914 914 914 914 914 917 917 917 908 903 901 901 901 907 907 907 907 907 901 901 895 858 843 843 843 865 890 921 954 981 981 981 976 975 975 976 981 991 1000 1000 1000 980 957 0 0 891 891 891 895 911 922 922 922 0 0 0 0 0 0 0 0 0 773 766 766 0 0 0 0 0 0 0 0 747 752 752 752 735 723 723 723 719 711 703 679 653 650 650 650 0 0 0 0 0 0 0 0 0 0 0 0 0 0
350 350 350 350 343 343 343 356 362 367 367 368 368 373 380 382 389 399 408 419 439 0 0 0 0 0 0 0 0 0 0 0 0 0 0 0 0 842 862 876 887 907 937 963 983 985 990 995 1010 1022 1033 1039 1045 1051 1053 1054 1055 1059 1059 1059 1043 0 0 0 0 0 0 0 0 0 0 0 0 0 0 0 0 0 0 0 0 0 0 1204 1186 1180 1172 1170 1168 1166 1156 1147 1138 1135 1132 1129 1124 1116 1100 1090 1082 1082 1082 1082 1083 1094 1103 1118 1120 1121 1122 1124 1128 1137 1148 1149 1154 1160 1176 1199 1199 1199 1198 1198 1198 1198 1215 1220 1220 1221 1221 1223 1227 1229 1229 1229 1229 1229 1229 1229 1231 1232 1232 1232 1230 1230 1230 1232 1232 1232 1232 1232 1235 1235 1235 1230 1230 1230 1232 1232 1232 1231 1219 1219 1219 1224 1231 1239 1250 1256 1256 1256 1256 1254 1254 1254 1260 1273 1285 1289 1290 1290 1290 1290 1290 1291 1291 1292 1299 1304 1307 1307 1308 1308 1308 1310 1310 1310 1307 1300 1299 1299 1299 1304 1306 1308 1309 1309 1309 1308 1308 1307 1306 1302 1296 1290 1288 1286 1277 1258 1236 1209 1182 1152 1139 1136 1132 1132 1131 1130 1129 1128 1126 1125 1124 1123 1122 1121 1119 1116 1113 1110 1108 1106 1100 1097 1094 1093 1091 1090 1088 1088 1088 1087 1086 1085 1084 1081 1079 1079 1079 1079 1079 1079 1078 1078 1078 1078 1077 1076 1074 1069 1064 1062 1062 1062 1060 1058 1055 1051 1051 1051 1051 1051 1051 1046 1042 1039 1039 1039 1040 1040 1040 1039 1037 1035 1035 1035 1035 1039 1040 1040 1040 1040 1039 1039 1038 1037 1037 1035 1034 1034 1033 1032 1031 1031 1030 1030 1029 1028 1027 1026 1024 1024 1022 1020 1019 1016 1013 1012 1010 1006 1001 997 991 987 985 984 982 978 972 969 967 964 963 963 963 960 957 957 957 957 957 957 957 962 964 965 968 968 969 970 979 979 980 979 0 0 0 0 0 0 0 0 0 0 0 0 0 0 0 0 0 0 0 0 0 0 0 0 0 0 0 0 0 0 0 0 0 0 0 934 934 934 928 927 926 925 924 923 922 921 920 918 917 916 915 914 913 912 910 909 908 907 906 905 905 905 904 904 903 903 903 902 903 903 903 904 906 906 0 0 0 0 0 0 0 0 0 0 0 0 0 0 0 0 0 0 0 0 0 0 0 0 0 0 0 0 0 0 0 0 0 0 0 0 0 0 0 0 0 0 0 0 0 0 0 0 0 0 0 0 0 0 0 0 0 0 0 0 0 0 0 0 0 0 0 0 0 0 0 0 0 0 0 0 0 853 853 853 851 843 841 840 840 840 836 835 835 835 857 872 880 884 894 903 905 905 907 907 907 912 912 912 898 898 898 898 901 911 911 911 911 911 910 908 903 883 856 856 856 866 884 906 933 963 992 992 992 981 981 981 981 989 991 1002 1002 1002 982 965 0 0 896 896 896 909 911 922 922 922 920 900 900 900 0 0 0 0 0 0 0 0 0 0 0 0 0 0 775 779 779 779 771 759 735 723 719 717 698 666 653 650 646 646 650 0 0 0 0 0 0 0 0 0 0 0 0 0 0 0
347 349 347 347 344 344 344 358 362 363 366 367 368 372 379 380 389 394 401 407 421 437 0 0 0 0 527 544 546 551 553 0 0 0 0 0 0 0 852 870 881 899 928 961 983 985 990 995 1000 1011 1021 1031 1038 1044 1044 1049 1055 1055 1055 1053 1034 0 0 0 0 0 0 0 0 0 0 0 0 0 0 0 0 0 0 0 0 0 0 0 1195 1182 1172 1170 1168 1166 1165 1155 1145 1139 1134 1131 1128 1122 1117 1103 1100 1099 1092 1092 1092 1094 1103 1118 1120 1120 1120 1117 1117 1117 1120 1122 1138 1147 1158 1178 1179 1182 1183 1183 1183 1198 1207 1212 1215 1216 1216 1216 1223 1223 1223 1221 1220 1220 1220 1223 1226 1229 1229 1229 1229 1229 1229 1231 1231 1232 1232 1232 1235 1238 1238 1238 1238 1238 1239 1242 1242 1242 1231 1231 1231 1233 1239 1249 1254 1260 1262 1262 1262 1262 1262 1263 1267 1276 1287 1292 1294 1294 1294 1293 1293 1293 1294 1299 1305 1308 1310 1311 1311 1312 1312 1312 1312 1312 1311 1307 1307 1307 1309 1313 1315 1315 1315 1313 1313 1312 1312 1312 1311 1309 1302 1296 1292 1290 1284 1267 1237 1213 1182 1153 1139 1136 1135 1133 1131 1130 1129 1128 1126 1125 1124 1123 1122 1121 1118 1114 1112 1110 1106 1100 1091 1087 1082 1080 1080 1080 1081 1081 1081 1076 1076 1073 1070 1065 1065 1065 1070 1071 1071 1072 1072 1072 1074 1075 1075 1075 1074 1069 1065 1065 1065 1065 1065 1065 1060 1055 1055 1055 1053 1053 1053 1050 1047 1046 1045 1044 1043 1043 1043 1040 1037 1037 1037 1039 1039 1040 1040 1040 1040 1039 1039 1038 1037 1037 1035 1035 1034 1033 1031 1031 1030 1030 1029 1028 1028 1027 1026 1025 1024 1023 1021 1020 1018 1015 1013 1012 1010 1006 1001 997 991 987 985 984 983 978 972 970 969 969 969 968 966 962 960 959 959 959 957 957 957 962 963 965 966 966 967 968 974 978 978 0 0 0 0 0 0 0 0 0 0 0 0 0 0 0 0 0 0 0 0 0 0 0 0 0 0 0 0 0 0 0 0 0 0 0 0 940 940 934 927 926 925 924 923 922 922 921 919 918 917 916 915 914 913 912 910 909 908 907 906 906 906 906 905 905 905 905 905 905 905 906 906 906 907 907 0 0 0 0 0 0 0 0 0 0 0 0 0 0 0 0 0 0 0 0 0 0 0 0 0 0 0 0 0 0 0 0 0 0 0 0 0 0 0 0 0 0 0 0 0 0 0 0 0 0 0 0 0 0 0 0 0 0 0 0 0 0 0 0 0 0 0 0 0 0 0 0 0 0 0 0 0 853 853 853 851 837 834 831 831 830 826 830 833 835 856 872 881 885 894 898 898 898 898 898 898 898 898 894 894 894 897 898 906 923 923 923 911 910 908 906 887 874 867 867 867 886 902 920 937 963 997 997 997 984 983 983 983 990 1001 1002 1002 1002 992 985 0 0 896 896 896 909 911 922 930 930 930 929 929 929 929 0 0 0 0 0 0 0 0 0 0 0 0 792 792 797 797 797 781 762 735 727 723 717 698 666 653 653 653 659 0 0 0 0 779 779 779 0 0 0 0 0 0 0 0 0
341 342 341 341 341 342 346 359 362 362 364 366 368 372 376 379 385 390 395 397 406 416 436 0 0 507 527 540 546 551 553 556 0 0 0 0 0 0 0 0 0 890 922 948 970 973 980 983 986 995 1008 1020 1027 1044 1044 1047 1052 1052 1052 1044 0 0 0 0 0 0 0 0 0 0 0 0 0 0 0 0 0 0 0 0 0 0 0 0 1202 1183 1177 1172 1172 1172 1172 1170 1160 1143 1139 1138 1136 1134 1131 1128 1122 1121 1120 1120 1108 1108 1108 1118 1120 1120 1120 1117 1117 1117 1120 1120 1122 1124 1128 1148 1164 1165 1169 1180 1182 1195 1203 1206 1208 1209 1211 1212 1213 1213 1213 1212 1204 1204 1204 1214 1222 1226 1228 1228 1229 1229 1229 1229 1229 1230 1230 1231 1235 1239 1240 1240 1241 1242 1243 1245 1245 1245 1237 1237 1237 1240 1251 1254 1257 1261 1264 1265 1265 1265 1272 1272 1273 1280 1287 1293 1295 1295 1295 1295 1295 1295 1300 1304 1309 1312 1312 1312 1312 1312 1312 1312 1312 1313 1313 1313 1311 1311 1311 1313 1317 1319 1320 1320 1320 1318 1317 1317 1315 1312 1304 1299 1294 1292 1285 1267 1239 1213 1183 1156 1141 1136 1135 1133 1131 1130 1129 1128 1126 1125 1124 1123 1121 1120 1117 1114 1110 1104 1099 1088 1074 1068 1062 1062 1062 1062 1070 1070 1070 1068 1064 1062 1056 1056 1056 1057 1064 1064 1064 1065 1065 1065 1070 1072 1072 1072 1071 1069 1069 1069 1069 1069 1069 1065 1063 1061 1057 1057 1057 1057 1054 1052 1051 1050 1049 1048 1046 1045 1045 1044 1041 1041 1041 1041 1041 1039 1039 1039 1039 1037 1036 1036 1035 1034 1034 1033 1031 1031 1029 1029 1029 1028 1028 1027 1026 1025 1024 1024 1023 1022 1020 1018 1017 1015 1013 1011 1010 1007 1004 998 991 987 986 986 984 978 973 971 971 971 971 971 968 965 962 962 961 960 960 960 960 961 962 965 966 966 967 968 972 973 973 0 0 0 0 0 0 0 0 0 0 0 0 0 0 0 0 0 0 0 0 0 0 0 0 0 0 0 0 0 0 0 0 0 0 0 0 941 941 933 926 925 923 922 922 922 921 921 919 918 917 916 914 914 913 911 910 909 907 907 907 906 906 906 905 905 905 905 907 907 907 907 907 907 908 908 0 0 0 0 0 0 0 0 0 0 0 0 0 0 0 0 0 0 0 0 0 0 0 0 0 0 0 0 0 0 0 0 0 0 0 0 0 0 0 0 0 0 0 0 0 0 0 0 0 0 0 0 0 0 0 0 0 0 0 0 0 0 0 0 0 0 0 0 0 0 0 0 0 0 0 0 0 851 851 837 831 823 793 793 793 817 824 824 828 835 854 872 881 885 890 890 890 888 888 888 888 888 888 890 890 890 897 897 906 923 923 923 911 910 908 906 887 869 869 869 892 919 933 937 949 969 997 1004 1004 1006 1006 1006 1006 1006 1007 1002 1002 1011 1011 1011 1011 0 0 896 896 911 948 955 957 958 960 961 961 961 960 949 930 928 0 0 0 0 0 0 0 0 0 820 819 819 819 819 804 768 762 761 752 0 0 666 659 659 659 696 0 0 0 793 793 793 777 774 0 0 0 0 0 0 0 0
336 336 333 336 336 341 351 360 362 363 364 366 368 372 376 379 381 383 386 389 394 401 421 0 0 507 527 540 545 548 553 556 563 0 0 0 0 0 0 0 0 0 908 933 951 954 965 966 969 981 997 1011 1023 1039 1040 1046 1046 1046 1045 1028 0 0 0 0 0 0 0 0 0 0 0 0 0 0 0 1464 1464 1415 1411 1407 1388 0 0 0 0 1184 1177 1175 1175 1175 1176 1176 1176 1169 1167 1167 1163 1154 1144 1136 1136 1136 1139 1139 1139 1135 1133 1133 1133 1133 1133 1117 1117 1117 1120 1120 1122 1124 1128 1146 1153 1157 1162 1163 1165 1174 1182 1189 1192 1199 1201 1202 1204 1202 1201 1200 1197 1195 1195 1195 1212 1223 1227 1227 1228 1229 1229 1229 1229 1229 1229 1231 1235 1239 1242 1244 1245 1247 1251 1253 1253 1253 1239 1239 1239 1246 1257 1260 1262 1263 1265 1266 1267 1273 1279 1280 1281 1283 1288 1294 1297 1297 1297 1297 1297 1298 1303 1308 1312 1313 1313 1313 1312 1312 1312 1312 1312 1313 1314 1314 1314 1314 1314 1314 1317 1320 1323 1324 1324 1324 1321 1319 1317 1314 1307 1299 1295 1293 1287 1274 1246 1213 1183 1159 1144 1137 1135 1133 1131 1130 1129 1128 1126 1125 1124 1122 1121 1120 1117 1114 1110 1104 1099 1083 1072 1068 1062 1055 1051 1051 1051 1051 1051 1051 1051 1050 1049 1048 1047 1047 1047 1053 1055 1055 1056 1056 1059 1064 1066 1068 1071 1071 1071 1070 1070 1070 1069 1068 1066 1063 1063 1062 1062 1060 1059 1058 1058 1056 1054 1051 1049 1048 1047 1046 1045 1043 1043 1042 1042 1039 1039 1039 1038 1035 1034 1034 1034 1033 1031 1030 1028 1026 1026 1026 1027 1027 1027 1026 1026 1024 1023 1022 1021 1020 1019 1018 1016 1015 1012 1011 1010 1007 1004 1001 996 995 992 989 985 982 978 974 974 974 973 973 971 970 967 964 964 963 963 962 961 961 961 965 966 966 966 966 966 972 972 0 0 0 0 0 0 0 0 0 0 0 0 0 0 0 0 0 0 0 0 0 0 0 0 0 0 0 0 0 0 0 0 0 0 0 0 941 941 933 924 919 919 919 921 921 921 921 919 918 916 916 914 913 912 910 909 909 907 907 907 906 906 906 905 905 905 906 909 909 909 909 909 909 909 0 0 0 0 0 0 0 0 0 0 0 0 0 0 0 0 0 0 0 0 0 0 0 0 0 0 0 0 0 0 0 0 0 0 0 0 0 0 0 0 0 0 0 0 0 0 0 0 0 0 0 0 0 0 0 0 0 0 0 0 0 0 0 0 0 0 0 0 0 0 0 0 0 0 0 0 0 0 848 848 837 831 817 785 785 785 809 821 823 824 833 854 872 881 885 886 886 886 886 886 886 886 886 883 883 883 890 897 897 906 918 918 918 903 903 903 903 886 872 872 872 897 919 933 937 949 963 997 1017 1029 1037 1037 1041 1041 1041 1015 1008 1008 1015 1015 1012 1012 0 0 0 919 919 949 955 957 974 998 998 998 990 968 949 930 928 913 0 0 0 0 0 0 0 864 852 849 848 848 842 822 784 784 0 0 0 0 0 689 689 690 0 0 0 775 799 799 799 789 777 0 0 0 0 0 0 0 0
336 336 333 336 336 346 356 361 362 363 364 366 368 372 376 379 381 382 382 383 387 391 408 0 0 0 516 540 543 546 556 556 563 570 571 0 0 0 0 0 0 0 0 913 931 934 943 949 957 971 989 1007 1022 1022 1026 1042 1042 1042 1024 0 0 0 0 0 0 0 0 0 0 0 0 0 0 0 1441 1441 1418 1415 1411 1411 1407 1407 0 0 0 0 1180 1178 1178 1178 1186 1188 1188 1188 1185 1180 1179 1175 1164 1153 1153 1153 1170 1182 1182 1182 1182 1174 1162 1155 1151 1150 1148 1147 1146 1138 1128 1128 1128 1146 1153 1157 1162 1163 1165 1173 1173 1173 1173 1173 1173 1173 1173 1168 1168 1168 1181 1183 1185 1187 1197 1217 1221 1226 1226 1226 1226 1225 1224 1225 1226 1231 1240 1246 1249 1250 1250 1250 1255 1262 1262 1262 1250 1250 1250 1254 1261 1267 1267 1267 1268 1271 1277 1280 1284 1285 1285 1286 1290 1294 1298 1300 1300 1301 1301 1304 1307 1312 1314 1314 1314 1313 1312 1312 1312 1312 1312 1313 1316 1316 1316 1314 1314 1314 1318 1320 1323 1324 1324 1324 1322 1319 1317 1314 1309 1299 1295 1293 1291 1277 1248 1214 1184 1159 1144 1137 1134 1133 1132 1130 1129 1128 1126 1125 1123 1122 1121 1119 1116 1115 1110 1103 1095 1082 1068 1056 1052 1049 1046 1043 1041 1041 1040 1039 1039 1037 1037 1037 1036 1036 1036 1040 1044 1044 1046 1047 1050 1053 1061 1068 1070 1072 1072 1072 1072 1072 1071 1071 1070 1069 1067 1066 1066 1064 1062 1061 1059 1057 1055 1053 1052 1050 1050 1048 1047 1045 1044 1044 1042 1039 1038 1036 1035 1033 1032 1032 1031 1030 1029 1028 1027 1026 1025 1025 1024 1024 1023 1023 1023 1021 1021 1021 1020 1020 1018 1017 1015 1014 1011 1010 1009 1007 1006 1005 1001 999 998 996 992 988 986 984 980 979 978 978 978 977 976 973 972 972 971 971 965 965 965 965 966 966 966 966 966 971 971 0 0 0 0 0 0 0 0 0 0 0 0 0 0 0 0 0 0 0 0 0 0 0 0 0 0 0 0 0 0 0 0 0 0 0 0 940 940 930 919 917 917 917 921 921 921 921 919 917 916 915 913 911 910 909 909 909 907 907 907 906 906 906 905 905 905 906 910 910 910 910 910 912 912 0 0 0 0 0 0 0 0 0 0 0 0 0 0 0 0 0 0 0 0 0 0 0 0 0 0 0 0 0 0 0 0 0 0 0 0 0 0 0 0 0 0 0 0 0 0 0 0 0 0 0 0 0 0 0 0 0 0 0 0 0 0 0 0 0 0 0 0 0 0 0 0 0 0 0 0 0 0 846 846 837 830 811 781 781 781 799 812 817 824 833 852 865 869 871 878 880 880 880 877 877 876 876 876 876 876 890 897 897 897 901 901 903 903 903 900 900 885 872 872 872 897 919 933 937 949 963 997 1017 1029 1051 1053 1053 1053 1041 1026 1026 1026 1022 1022 1022 1019 1017 0 0 0 949 949 955 957 974 998 998 998 990 968 943 930 927 927 929 0 0 0 0 0 882 878 878 878 878 878 871 846 809 809 806 802 0 0 0 0 0 0 0 0 0 776 799 799 799 789 777 0 0 0 0 0 0 0 0
336 336 336 337 337 348 356 361 362 363 364 365 368 372 375 377 381 381 381 381 381 388 399 0 0 0 0 522 543 546 556 563 564 570 571 582 0 0 0 0 0 0 0 0 907 909 924 936 949 967 984 1003 1019 1022 1026 1026 1026 1019 0 0 0 0 0 0 735 0 0 0 0 0 0 0 0 0 1442 1442 1418 1418 1418 1418 1418 1418 1416 0 0 0 0 1192 1192 1193 1193 1195 1196 1196 1196 1193 1192 1191 1186 1183 1183 1183 1188 1191 1193 1193 1193 1189 1189 1189 1189 1189 1189 1180 1171 1164 1146 1146 1146 1146 1153 1157 1162 1163 1165 1173 1173 1173 1173 1170 1168 1166 1162 1155 1152 1152 1152 1155 1161 1171 1184 1197 1212 1221 1221 1221 1219 1218 1218 1219 1226 1238 1245 1249 1254 1255 1255 1255 1258 1267 1270 1270 1270 1266 1266 1266 1266 1271 1272 1273 1274 1278 1283 1287 1288 1288 1289 1291 1294 1298 1301 1303 1304 1304 1304 1306 1309 1313 1314 1314 1314 1313 1312 1311 1311 1311 1312 1316 1318 1318 1318 1315 1315 1315 1318 1321 1323 1324 1324 1324 1322 1319 1317 1314 1309 1300 1296 1294 1292 1278 1249 1213 1183 1159 1144 1137 1134 1133 1132 1130 1129 1128 1126 1125 1123 1122 1120 1119 1116 1115 1110 1103 1095 1082 1059 1051 1049 1047 1045 1043 1040 1038 1036 1036 1036 1034 1033 1032 1032 1032 1032 1038 1039 1039 1040 1045 1050 1053 1060 1067 1070 1073 1073 1073 1073 1072 1072 1072 1071 1071 1069 1069 1068 1068 1066 1063 1060 1059 1057 1055 1053 1052 1051 1050 1047 1047 1046 1045 1042 1039 1037 1036 1033 1031 1030 1029 1028 1028 1028 1025 1025 1025 1024 1024 1022 1019 1019 1019 1019 1019 1019 1019 1019 1018 1016 1015 1013 1011 1010 1009 1009 1006 1006 1006 1005 1003 1001 1000 999 994 990 986 986 985 984 984 984 983 981 980 977 977 977 974 967 965 965 965 966 966 966 966 966 971 971 0 0 0 0 0 0 0 0 0 0 0 0 0 0 0 0 0 0 0 0 0 0 0 0 0 0 0 0 0 0 0 0 0 0 0 0 937 937 925 919 917 917 917 920 920 920 920 919 917 916 915 913 911 910 909 909 909 907 907 907 906 906 906 905 905 905 906 910 910 910 911 911 912 912 0 0 0 0 0 0 0 0 0 0 0 0 0 0 0 0 0 0 0 0 0 0 0 0 0 0 0 0 0 0 0 0 0 0 0 0 0 0 0 0 0 0 0 0 0 0 0 0 0 0 0 0 0 0 0 0 0 0 0 0 0 0 0 0 0 0 0 0 0 0 0 0 0 0 0 0 0 0 846 846 837 830 814 781 781 781 797 803 809 818 830 842 852 860 867 871 871 868 868 864 863 863 858 858 858 873 874 874 0 0 0 892 896 897 897 897 897 885 872 872 872 893 0 0 0 0 0 0 998 1029 1051 1054 1054 1054 1054 1041 1034 1034 1033 1029 1027 1027 1027 1026 0 0 0 949 949 949 974 998 998 998 990 957 924 914 914 914 922 960 960 960 0 0 882 882 882 886 886 886 875 850 815 815 815 809 809 0 0 0 0 0 0 0 0 791 804 804 804 789 777 0 0 0 0 0 0 0 0
344 344 337 344 345 348 356 361 362 363 364 364 366 372 375 377 381 381 381 381 381 384 395 407 422 0 0 0 0 530 556 561 563 564 568 574 0 0 0 0 0 0 0 0 0 887 907 926 943 959 978 995 1010 1018 1018 1018 1013 0 0 0 0 0 0 0 708 708 0 0 0 0 0 0 0 1457 1457 1430 1418 1418 1418 1426 1426 1426 1426 0 0 0 0 1229 1227 1203 1198 1198 1198 1205 1208 1208 1208 1206 1200 1200 1199 1199 1199 1197 1197 1197 1197 1197 1197 1205 1221 1223 1223 1223 1215 1201 1193 1182 1173 1173 1173 1188 1188 1188 1180 1177 1176 1173 1173 1170 1168 1166 1162 1155 1152 1149 1149 1152 1154 1158 1163 1176 1193 1208 1213 1213 1213 1212 1212 1212 1226 1243 1247 1250 1255 1258 1258 1259 1265 1270 1273 1275 1275 1275 1269 1269 1269 1271 1273 1275 1276 1280 1284 1289 1291 1293 1293 1295 1298 1302 1305 1305 1305 1305 1305 1307 1310 1313 1314 1314 1314 1312 1310 1310 1310 1310 1312 1316 1318 1318 1318 1315 1315 1315 1319 1321 1323 1324 1324 1324 1322 1319 1317 1314 1310 1302 1296 1296 1293 1284 1249 1213 1183 1158 1142 1135 1134 1133 1131 1130 1129 1128 1126 1125 1122 1121 1120 1118 1116 1115 1110 1103 1095 1077 1054 1048 1047 1046 1044 1041 1039 1035 1034 1034 1034 1033 1031 1030 1030 1030 1031 1033 1035 1037 1039 1043 1050 1053 1060 1066 1071 1073 1073 1074 1074 1073 1073 1073 1072 1072 1071 1070 1068 1068 1067 1065 1063 1061 1059 1058 1056 1055 1053 1051 1050 1049 1048 1046 1043 1040 1036 1033 1030 1028 1026 1026 1025 1024 1022 1016 1016 1016 1016 1016 1016 1015 1015 1015 1014 1014 1015 1015 1014 1013 1013 1012 1010 1010 1009 1008 1007 1006 1006 1006 1005 1004 1002 1002 1000 998 995 992 988 987 987 987 987 987 984 984 980 978 977 976 971 968 968 968 968 968 966 966 966 971 971 0 0 0 0 0 0 0 0 0 0 0 0 0 0 0 0 0 0 0 0 0 0 0 0 0 0 0 0 0 0 0 0 0 0 0 0 933 933 925 919 917 917 917 920 920 920 920 919 916 915 915 913 911 911 910 910 910 910 907 907 906 905 905 905 905 905 906 910 910 910 911 911 912 912 0 0 0 0 0 0 0 0 0 0 0 0 0 0 0 0 0 0 0 0 0 0 0 0 0 0 0 0 0 0 0 0 0 0 0 0 0 0 0 0 0 0 0 0 0 0 0 0 0 0 0 0 0 0 0 0 0 0 0 0 0 0 0 0 0 0 0 0 0 0 0 0 0 0 0 0 0 0 839 839 837 830 814 792 792 792 797 803 809 817 826 835 849 851 855 857 857 857 850 849 849 850 850 851 858 872 872 872 0 0 0 0 884 896 896 896 882 0 0 0 0 0 0 0 0 0 0 0 0 1019 1051 1054 1054 1054 1054 1054 1046 1046 1046 1036 1035 1035 1035 1049 1049 0 0 949 949 949 968 968 968 966 964 942 924 904 904 904 922 965 965 965 942 904 882 882 882 888 888 888 878 852 825 825 825 818 818 818 0 0 0 0 0 0 0 0 804 804 804 777 0 0 0 0 0 0 0 0 0
349 349 345 349 349 351 354 355 359 361 362 362 366 370 375 377 380 380 380 380 380 384 395 407 416 428 0 0 0 0 0 558 558 563 563 570 0 0 0 0 0 0 0 0 0 0 0 0 938 955 968 985 997 1002 1002 1002 0 0 0 0 0 0 0 0 699 703 0 0 0 0 0 0 0 1443 1443 1429 1429 1429 1432 1440 1440 1440 1436 1424 0 0 0 1238 1237 1214 1203 1203 1203 1205 1209 1209 1209 1206 1200 1200 1200 1203 1203 1203 1202 1200 1200 1200 1200 1211 1228 1240 1240 1240 1235 1225 1214 1201 1201 1201 1205 1207 1207 1207 1194 1185 1183 1181 1180 1180 1177 1168 1162 1155 1152 1149 1149 1152 1154 1158 1162 1163 1166 1185 1193 1196 1202 1204 1204 1211 1226 1243 1248 1251 1257 1261 1265 1266 1268 1272 1275 1277 1277 1277 1269 1269 1269 1272 1274 1275 1276 1280 1284 1290 1295 1296 1296 1299 1300 1303 1305 1305 1305 1305 1305 1307 1310 1312 1312 1312 1311 1311 1310 1309 1309 1309 1312 1316 1318 1319 1319 1319 1320 1321 1322 1322 1323 1324 1324 1324 1321 1318 1315 1313 1310 1305 1304 1300 1295 1289 1254 0 1181 1156 1142 1135 1134 1133 1131 1129 1129 1127 1126 1124 1122 1121 1120 1117 1115 1114 1110 1103 1093 1074 1051 1044 1042 1042 1042 1039 1034 1032 1032 1032 1032 1032 1030 1029 1029 1029 1030 1030 1031 1033 1037 1043 1050 1055 1060 1066 1070 1073 1074 1074 1074 1074 1074 1074 1074 1073 1072 1071 1069 1069 1067 1066 1064 1062 1061 1059 1058 1057 1056 1054 1052 1050 1048 1047 1044 1040 1036 1033 1028 1026 1026 1025 1022 1019 1013 1012 1012 1012 1013 1013 1013 1012 1010 1010 1010 1009 1010 1010 1010 1010 1010 1008 1007 1007 1007 1007 1007 1007 1006 1006 1006 1004 1002 1002 1000 999 998 996 993 992 992 990 987 987 987 987 986 985 983 983 978 976 976 976 977 977 977 974 974 971 971 971 967 965 965 965 969 971 971 971 0 0 0 0 0 0 0 0 0 0 0 0 0 0 0 0 0 0 0 0 0 0 0 0 0 0 0 938 933 929 925 925 923 923 923 923 922 920 919 916 915 914 913 912 912 912 912 912 912 912 907 906 906 905 905 906 906 907 911 911 912 912 912 912 912 0 0 0 0 0 0 0 0 0 0 0 0 0 0 0 0 0 0 0 0 0 0 0 0 0 0 0 0 0 0 0 0 0 0 0 0 0 0 0 0 0 0 0 0 0 0 0 0 0 0 0 0 0 0 0 0 0 0 0 0 0 0 0 0 0 0 0 0 0 0 0 0 0 0 0 0 0 0 836 836 829 827 811 792 791 791 792 800 809 817 825 834 845 849 849 849 849 842 842 842 847 849 849 850 853 864 864 864 0 0 0 0 0 0 0 0 0 0 0 793 793 793 812 812 814 0 0 0 0 1019 1047 1047 1047 1039 1039 1039 1059 1059 1059 1055 1040 1040 1040 1055 1055 1055 0 0 953 953 968 968 968 966 964 942 924 904 904 904 926 965 965 965 952 904 882 882 882 895 895 895 882 859 845 834 828 828 827 827 826 818 0 0 0 0 0 0 0 0 0 0 0 0 0 0 0 0 0 0 0
351 351 351 351 351 349 352 354 354 359 359 360 364 368 372 374 376 376 378 378 379 384 394 404 414 421 435 0 0 0 0 0 556 558 560 0 0 0 0 0 0 0 0 0 0 0 0 0 0 944 960 977 987 987 987 986 0 0 0 0 0 0 0 0 698 0 0 0 0 0 0 0 1431 1431 1431 1431 1431 1442 1446 1446 1446 1446 1444 1438 0 0 0 0 1267 1225 1206 1206 1206 1207 1209 1209 1209 1206 1200 1200 1200 1203 1210 1210 1210 1206 1206 1206 1207 1218 1228 1240 1243 1243 1243 1239 1232 1232 1232 1237 1237 1237 1232 1231 1215 1211 1211 1211 1211 1212 1215 1215 1215 1207 0 0 0 1154 1154 1158 1162 1163 1163 1166 1166 1173 1193 1200 1204 1210 1226 1243 1248 1251 1257 1261 1265 1269 1271 1272 1276 1277 1277 1277 1269 1269 1269 1272 1276 1276 1277 1280 1284 1291 1297 1302 1302 1302 1303 1303 1306 1306 1306 1306 1306 1307 1310 1311 1311 1311 1310 1310 1308 1308 1308 1308 1311 1314 1318 1319 1319 1319 1320 1321 1322 1322 1323 1324 1324 1324 1320 1317 1314 1312 1310 1305 1304 1300 1295 1289 1254 0 1179 1156 1142 1135 1134 1132 1131 1129 1129 1127 1126 1124 1122 1121 1119 1117 1115 1114 1110 1101 1091 1074 1051 1041 1038 1036 1034 1028 1028 1028 1028 1030 1030 1030 1028 1028 1027 1027 1027 1027 1027 1029 1034 1043 1050 1057 1061 1066 1070 1073 1074 1074 1074 1075 1075 1075 1075 1073 1073 1072 1070 1069 1068 1066 1065 1063 1062 1061 1059 1058 1056 1055 1053 1051 1049 1048 1044 1040 1036 1032 1028 1026 1023 1018 1016 1014 1011 1011 1010 1010 1009 1008 1006 1006 1004 1004 1003 1003 1004 1004 1004 1004 1003 1003 1003 1004 1006 1006 1007 1007 1007 1007 1007 1006 1006 1005 1003 1001 1001 999 999 999 998 995 995 995 993 989 988 988 986 986 986 985 985 985 982 980 977 977 976 975 975 974 967 965 965 965 969 970 970 970 969 958 953 952 952 950 950 950 950 948 948 0 0 0 0 0 0 0 0 0 0 0 0 0 0 0 0 938 933 931 931 931 931 930 928 924 922 920 919 917 917 917 917 917 920 920 920 920 917 913 908 906 906 906 906 907 907 907 912 912 913 913 913 913 912 0 0 0 0 0 0 0 0 0 0 0 0 0 0 0 0 0 0 0 0 0 0 0 0 0 0 0 0 0 0 0 0 0 0 0 0 0 0 0 0 0 0 0 0 0 0 0 0 0 0 0 0 0 0 0 0 0 0 0 0 0 0 0 0 0 0 0 0 0 0 0 0 0 0 0 0 0 0 833 833 829 809 792 784 784 790 792 799 807 816 823 832 844 844 844 837 834 834 834 840 846 846 847 848 849 848 848 832 803 772 0 0 0 0 0 0 0 824 801 783 783 783 805 808 814 818 0 0 0 1019 1047 1047 1047 1039 1039 1039 1059 1068 1068 1068 1061 1061 1061 1057 1057 1057 0 0 983 975 974 972 968 966 964 942 932 904 904 904 940 968 977 977 977 947 900 900 900 900 900 900 896 882 867 854 828 818 818 818 818 818 816 0 0 0 0 0 0 0 0 0 0 0 0 0 0 0 0 0 0
351 351 351 354 354 354 350 350 350 354 356 360 362 366 369 370 372 373 376 379 379 384 394 403 410 418 431 448 0 0 0 0 0 0 0 0 0 0 581 593 594 0 0 0 0 0 0 0 0 0 0 965 972 972 972 0 0 0 0 0 0 0 0 0 0 0 0 0 0 0 0 0 1416 1422 1424 1424 1435 1442 1447 1451 1452 1452 1452 1452 1448 0 0 0 0 0 1208 1208 1208 1208 1208 1208 1208 1200 1199 1199 1199 1203 1210 1210 1210 1206 1206 1206 1207 1218 1228 1242 1249 1249 1249 1247 1247 1247 1247 1249 1254 1256 1256 1256 1242 1237 1236 1231 1231 1231 1237 1242 1243 1243 1243 0 0 0 0 0 1170 1166 1166 1166 1166 1171 1181 1197 1202 1210 1226 1242 1248 1251 1257 1261 1265 1269 1271 1272 1277 1277 1277 1277 1268 1268 1268 1272 1276 1276 1276 1277 1283 1291 1299 1304 1304 1304 1306 1306 1306 1306 1306 1306 1306 1307 1308 1308 1308 1308 1307 1307 1304 1304 1304 1304 1307 1308 1308 1312 1318 1319 1320 1321 1322 1322 1322 1322 1322 1322 1318 1315 1311 1311 1308 1305 1304 1300 1295 1289 1254 1209 1176 1156 1142 1138 1134 1132 1131 1130 1128 1127 1126 1124 1122 1121 1119 1117 1115 1113 1109 1100 1091 1071 1051 1040 1033 1029 1025 1024 1024 1024 1025 1027 1027 1027 1026 1025 1025 1025 1025 1025 1025 1027 1031 1040 1050 1057 1061 1064 1069 1073 1074 1074 1075 1075 1075 1075 1075 1074 1073 1072 1071 1070 1068 1067 1066 1064 1063 1062 1060 1059 1057 1056 1054 1051 1050 1048 1044 1040 1035 1032 1026 1023 1021 1018 1015 1012 1010 1009 1008 1007 1004 1003 1002 1002 1001 1000 1000 1000 1001 1002 1002 1002 1002 1002 1002 1004 1005 1006 1007 1008 1008 1008 1008 1008 1008 1006 1005 1003 1003 1002 1000 999 999 999 998 996 995 991 990 989 987 987 987 987 987 987 984 983 983 980 977 977 976 974 965 963 959 954 954 954 956 958 958 958 953 952 952 950 950 950 950 948 948 947 942 941 941 941 941 941 949 949 949 943 942 942 942 943 0 943 937 936 935 935 935 935 928 926 922 922 919 919 918 918 919 919 923 923 923 921 920 917 910 910 910 907 907 907 907 907 914 914 914 914 914 914 913 0 0 0 0 0 0 0 0 0 0 0 0 0 0 0 0 0 0 0 0 0 0 0 0 0 0 0 0 0 0 0 0 0 0 0 0 0 0 0 0 0 0 0 0 0 0 0 0 0 0 0 0 0 0 0 0 0 0 0 0 0 0 0 0 0 0 0 0 0 0 0 0 0 0 0 0 0 0 831 831 829 799 782 782 782 784 790 794 800 811 823 828 830 830 828 828 828 828 834 839 845 845 845 845 845 844 841 832 803 772 769 757 0 0 0 0 801 801 801 783 783 783 799 808 814 818 0 0 0 1037 1047 1047 1047 1043 1043 1043 1062 1070 1078 1078 1078 1078 1077 1076 1075 1068 1030 1030 1026 1019 1019 1001 985 975 975 975 974 0 967 967 967 970 987 987 987 970 946 925 925 925 923 923 923 907 887 867 831 816 816 816 827 827 827 806 806 0 0 0 0 0 0 0 0 0 0 0 0 0 0 0 0
351 351 351 357 357 357 349 349 349 351 353 358 362 365 367 369 370 373 376 379 379 385 394 403 410 418 430 444 457 0 0 0 497 502 508 0 0 566 584 594 594 596 0 0 0 0 0 0 0 0 0 0 0 0 0 0 0 0 0 0 0 0 0 0 0 0 0 0 0 0 0 0 1400 1405 1410 1422 1435 1442 1447 1451 1452 1454 1456 1458 1458 1458 0 0 0 0 0 1208 1208 1208 1208 1208 1204 1200 1196 1194 1194 1194 1198 1206 1206 1206 1206 1206 1207 1218 1226 1240 1249 1249 1249 1248 1248 1248 1247 1249 1254 1256 1257 1257 1260 1260 1260 1258 1255 1255 1255 1256 1258 1258 1258 1260 1257 1256 0 0 0 1198 1175 1171 1171 1171 1181 1190 1197 1199 1205 1219 1230 1239 1246 1253 1261 1269 1271 1272 1277 1277 1277 1277 1268 1268 1268 1272 1276 1276 1276 1277 1279 1291 1299 1305 1305 1305 1305 1305 1305 1305 1306 1306 1306 1307 1307 1307 1304 1304 1304 1303 1303 1302 1302 1302 1303 1304 1304 1305 1307 1309 1310 1313 1316 1316 1317 1317 1317 1317 1315 1311 1308 1308 1306 1303 1301 1297 1293 1285 1254 1206 1172 1156 1146 1138 1134 1132 1131 1130 1128 1127 1126 1124 1122 1120 1119 1117 1115 1109 1106 1100 1089 1071 1050 1038 1032 1029 1025 1024 1023 1023 1022 1022 1022 1021 1021 1020 1020 1020 1020 1021 1023 1026 1030 1039 1047 1057 1061 1064 1069 1072 1074 1074 1075 1075 1076 1076 1076 1075 1074 1073 1071 1070 1070 1068 1066 1066 1064 1062 1061 1059 1058 1056 1054 1052 1050 1048 1044 1038 1033 1028 1023 1021 1018 1016 1014 1012 1009 1008 1006 1003 1001 1000 1000 999 999 998 997 997 997 999 999 999 999 999 1000 1003 1005 1006 1007 1008 1009 1009 1009 1009 1008 1007 1006 1005 1005 1005 1003 1002 1001 1000 999 998 995 993 992 992 992 992 992 992 990 988 987 986 985 984 977 977 976 970 964 959 949 949 948 943 944 944 944 943 942 942 942 942 942 942 942 942 942 942 942 941 941 941 941 941 949 949 949 943 942 942 942 943 943 0 937 936 935 935 935 935 928 926 922 922 919 919 919 919 919 924 924 924 924 922 921 920 917 916 916 915 915 915 915 915 916 916 917 916 916 917 917 0 0 0 0 0 0 0 0 0 0 0 0 0 0 0 0 0 0 0 0 0 0 0 0 0 0 0 0 0 0 0 0 0 0 0 0 0 0 0 0 0 0 0 0 0 0 0 0 0 0 0 0 0 0 0 0 0 0 0 0 0 0 0 0 0 0 0 0 0 0 0 0 0 0 0 0 0 0 831 831 830 799 782 776 769 773 773 773 790 808 823 826 826 828 826 826 828 828 834 839 843 844 844 843 839 838 837 832 813 777 769 757 750 757 769 790 795 795 795 777 777 777 788 814 818 830 0 0 0 1048 1048 1048 1048 1048 1048 1053 1069 1082 1091 1101 1101 1101 1092 1087 1079 1070 1036 1036 1036 1025 1025 1020 1001 996 996 996 994 994 973 973 973 973 983 983 983 981 973 952 943 940 940 940 940 916 891 868 832 810 806 806 806 841 841 841 846 846 0 0 0 0 0 0 0 0 0 0 0 0 0 0 0
352 352 352 360 360 360 355 351 351 351 351 357 361 365 367 369 370 373 376 379 381 386 394 403 410 417 427 435 439 441 461 481 481 493 498 498 0 0 585 594 600 602 606 0 0 0 0 0 0 0 0 0 0 0 0 0 0 0 0 0 0 0 0 0 0 0 0 0 0 0 0 1353 1371 1396 1410 1426 1436 1441 1447 1451 1452 1455 1458 1466 1466 1466 1465 0 0 0 0 0 1216 1214 1210 1208 1204 1200 1196 1194 1194 1194 1198 1203 1203 1203 1202 1202 1202 1206 1223 1240 1249 1249 1249 1248 1248 1248 1247 1249 1254 1256 1257 1257 1260 1261 1266 1272 1275 1275 1275 1266 1265 1265 1262 1261 1261 1261 1262 1262 1262 1237 1216 1194 1183 1183 1183 1190 1190 1190 1192 1192 1192 1204 1217 1225 1232 1235 1246 1260 1277 1277 1277 1277 1268 1268 1268 1273 1276 1276 1277 1277 1279 1291 1299 1305 1306 1306 1306 1306 1306 1305 1305 1306 1306 1305 1305 1305 1303 1303 1302 1302 1302 1300 1299 1299 1299 1301 1302 1302 1302 1303 1303 1304 1308 1309 1311 1311 1311 1311 1309 1307 1304 1304 1302 1302 1300 1296 1291 1276 1234 1197 1172 1156 1146 1138 1134 1132 1131 1130 1128 1127 1125 1124 1122 1120 1119 1118 1112 1107 1103 1097 1086 1071 1050 1037 1032 1029 1025 1024 1023 1022 1022 1020 1018 1018 1017 1017 1016 1016 1016 1017 1021 1025 1029 1035 1043 1052 1060 1064 1069 1072 1074 1074 1075 1076 1076 1076 1076 1075 1074 1073 1072 1071 1070 1068 1068 1067 1065 1063 1062 1060 1059 1057 1054 1052 1050 1048 1044 1038 1031 1023 1020 1017 1016 1016 1014 1011 1008 1007 1004 1003 1001 1000 999 999 999 997 995 995 995 996 997 997 997 997 1000 1003 1005 1006 1007 1008 1009 1009 1009 1009 1009 1008 1007 1007 1006 1006 1004 1003 1002 1001 1000 999 997 996 993 993 993 994 994 994 994 994 993 993 991 984 978 975 971 968 954 949 940 940 940 943 943 943 939 932 932 932 939 940 940 940 937 937 934 934 933 933 934 934 936 941 944 944 944 937 934 934 934 944 944 0 0 0 0 0 0 0 0 0 0 0 0 0 0 0 919 923 923 923 923 922 921 920 917 916 916 915 915 915 915 915 918 918 918 918 918 918 918 0 0 0 0 0 0 0 0 0 0 0 0 0 0 0 0 0 0 0 0 0 0 0 0 0 0 0 0 0 0 0 0 0 0 0 0 0 0 0 0 0 0 0 0 0 0 0 0 0 0 0 0 0 0 0 0 0 0 0 0 0 0 0 0 0 0 0 0 0 0 0 0 0 0 0 0 0 0 832 832 824 799 797 787 776 773 773 773 790 808 823 826 826 828 826 826 828 828 834 839 841 841 841 839 838 834 832 832 820 797 771 769 768 768 769 790 795 795 795 777 777 777 787 814 818 0 0 0 0 1073 1073 1073 1072 1055 1055 1055 1069 1082 1091 1101 1106 1106 1106 1090 1080 1071 1041 1041 1041 1037 1037 1036 1014 1013 1013 1013 1013 1013 982 974 974 974 983 983 983 981 973 956 956 956 954 954 954 925 892 870 843 804 799 799 799 844 844 844 851 850 0 0 0 0 0 0 0 0 0 0 0 0 0 0 0
353 353 353 360 361 361 361 353 351 351 351 355 360 364 367 369 373 377 378 380 382 386 400 408 414 417 422 430 439 441 461 481 481 493 498 498 0 0 0 609 609 613 619 619 642 644 675 677 0 0 0 0 0 0 0 0 0 0 0 0 0 0 0 0 0 0 0 0 0 0 0 1353 1371 1396 1415 1428 1436 1438 1443 1449 1451 1455 1463 1470 1472 1473 1473 1473 0 0 0 0 0 1221 1210 1205 1203 1200 1196 1194 1194 1194 1198 1198 1198 1194 1186 1181 1181 1181 1204 1225 1239 1248 1248 1248 1247 1247 1246 1246 1246 1246 1256 1257 1260 1261 1266 1272 1276 1277 1277 1277 1273 1273 1265 1265 1265 1265 1262 1262 1262 1254 1250 1228 1214 1210 1201 1199 1197 1190 1182 1180 1180 1180 1183 1191 1195 1201 1219 1260 1277 1277 1277 1277 1269 1269 1269 1275 1277 1277 1277 1278 1279 1286 1299 1305 1309 1309 1309 1304 1304 1304 1305 1305 1306 1305 1305 1305 1303 1302 1302 1301 1300 1299 1297 1297 1297 1298 1299 1299 1299 1299 1299 1299 1302 1304 1306 1306 1306 1305 1303 1301 1300 1300 1300 1299 1299 1296 1289 1270 1226 1191 1170 1156 1146 1139 1134 1133 1132 1130 1128 1127 1125 1124 1122 1120 1119 1118 1111 1105 1101 1095 1081 1063 1045 1035 1032 1031 1031 1030 1026 1022 1022 1020 1018 1017 1016 1016 1015 1015 1016 1017 1021 1025 1029 1035 1043 1052 1060 1065 1069 1072 1074 1074 1075 1076 1076 1076 1076 1076 1075 1074 1072 1071 1070 1069 1068 1067 1066 1065 1062 1061 1059 1057 1055 1052 1050 1048 1044 1038 1031 1023 1018 1017 1016 1016 1013 1010 1008 1006 1004 1003 1001 1000 999 999 998 997 994 994 994 994 995 996 996 996 998 1002 1004 1005 1007 1008 1009 1009 1009 1010 1010 1009 1008 1007 1007 1007 1006 1004 1003 1002 1002 1001 997 996 993 993 993 995 995 995 994 994 993 993 991 984 978 974 968 966 954 938 938 938 940 943 943 943 939 932 932 932 934 935 935 935 934 933 930 929 928 928 928 931 935 938 940 940 940 934 932 932 932 944 944 0 0 0 0 0 0 0 0 0 0 0 0 0 0 0 0 0 0 0 0 0 0 0 0 0 0 0 0 0 0 0 0 0 0 917 917 918 0 0 0 0 0 0 0 0 0 0 0 0 0 0 0 0 0 0 0 0 0 0 0 0 0 0 0 0 0 0 0 0 0 0 0 0 0 0 0 0 0 0 0 0 0 0 0 0 0 0 0 0 0 0 0 0 0 0 0 0 0 0 0 0 0 0 0 0 0 0 0 0 0 0 0 0 0 0 0 832 832 824 820 815 800 783 773 773 773 790 808 823 826 826 831 831 831 837 840 840 840 840 839 835 826 826 826 821 821 820 810 800 798 798 798 805 806 806 806 795 777 770 756 756 756 802 0 0 0 0 1096 1100 1100 1100 1080 1069 1069 1069 1082 1091 1101 1106 1106 1106 1095 1083 1072 1041 1041 1041 1046 1046 1046 1036 1036 1036 1028 1026 1019 983 983 983 983 984 984 983 981 973 956 956 956 971 971 971 940 895 872 845 804 800 800 800 844 851 851 851 851 0 0 0 0 0 0 0 0 0 0 0 0 0 0 0
353 353 354 360 361 361 361 354 351 351 351 353 358 363 367 369 376 381 382 383 384 386 400 415 418 422 422 430 439 441 461 481 481 493 498 498 0 0 0 609 623 631 632 638 656 658 675 677 681 685 0 0 0 0 0 0 0 0 0 0 0 0 0 0 0 0 0 0 0 0 1319 1353 1371 1401 1422 1433 1436 1438 1440 1445 1448 1454 1464 1474 1484 1493 1503 1503 1503 0 0 0 0 0 1215 1205 1203 1201 1199 1199 1199 1201 1201 1201 1199 1194 1186 1177 1173 1173 1177 1180 1190 1198 1205 1215 1216 1222 1223 1226 1235 1236 1237 1238 1238 1245 1260 1272 1276 1277 1277 1277 1273 1273 1271 1267 1267 1267 1263 1263 1262 1258 1256 1256 1256 1256 1256 1246 1230 1208 1182 1178 1178 1178 1181 1189 1193 1199 1218 1239 1260 1273 1273 1273 1269 1269 1269 1275 1277 1277 1277 1279 1279 1284 1293 1301 1309 1309 1309 1304 1304 1304 1304 1304 1304 1305 1305 1305 1303 1301 1301 1301 1299 1298 1295 1295 1295 1296 1296 1296 1295 1293 1293 1293 1293 1294 1295 1300 1300 1300 1297 1296 1296 1296 1296 1296 1296 1293 1282 1259 1226 1191 1169 1152 1144 1139 1134 1133 1132 1130 1128 1127 1125 1124 1122 1121 1120 1118 1111 1105 1101 1095 1081 1057 1040 1033 1033 1032 1032 1032 1029 1026 1022 1020 1018 1017 1016 1016 1015 1015 1016 1017 1021 1025 1029 1035 1043 1052 1060 1065 1070 1072 1074 1074 1075 1076 1076 1076 1076 1076 1075 1074 1073 1072 1070 1070 1069 1068 1066 1065 1063 1061 1059 1057 1055 1053 1050 1049 1046 1038 1030 1023 1018 1017 1016 1015 1013 1010 1008 1006 1004 1002 1001 1000 999 999 998 996 994 993 993 993 994 994 994 996 998 1001 1002 1005 1007 1009 1009 1010 1010 1010 1010 1010 1009 1007 1007 1007 1006 1005 1003 1003 1003 1002 1001 999 993 993 993 995 995 995 994 994 993 993 991 984 978 972 968 966 953 939 939 939 947 947 947 945 939 932 932 932 934 934 934 934 932 931 930 929 928 928 928 931 935 938 939 939 939 934 929 929 929 943 943 0 0 0 0 0 0 0 0 0 0 0 0 0 0 0 0 0 0 0 0 0 0 0 0 0 0 0 0 0 0 0 0 0 0 0 0 0 0 0 915 912 909 905 904 903 903 898 0 0 0 0 0 0 0 0 0 0 0 0 0 0 0 0 0 0 0 0 0 0 0 0 0 0 0 0 0 0 0 0 0 0 0 0 0 0 0 0 0 0 0 0 0 0 0 0 0 0 0 0 0 0 0 0 0 0 0 0 0 0 0 0 0 0 0 0 0 832 832 824 821 815 808 806 796 796 796 796 813 828 828 828 831 831 831 837 840 840 840 840 839 833 822 822 822 820 820 820 810 808 806 805 805 806 806 805 800 780 771 767 755 755 755 0 0 0 0 0 1096 1100 1100 1100 1093 1060 1060 1060 1074 1087 1095 1103 1109 1109 1109 1099 1084 1063 1055 1055 1055 1056 1059 1059 1058 1057 1057 1050 1035 1014 1014 0 0 0 1007 987 956 950 950 952 956 971 971 971 948 0 0 0 819 804 804 804 852 877 877 877 849 0 0 0 0 0 0 0 0 0 0 0 0 0 0 0
354 354 354 360 362 362 362 359 356 353 353 353 358 363 368 370 378 381 382 383 384 384 400 415 419 422 423 430 445 449 468 490 515 520 529 530 0 0 0 609 623 632 651 663 689 690 690 690 685 685 685 705 715 0 0 0 0 0 0 0 0 0 0 0 0 0 0 0 0 0 1355 1365 1392 1413 1427 1433 1436 1438 1440 1443 1448 1454 1464 1482 1488 1495 1503 1506 1506 1506 0 0 0 0 0 1205 1204 1202 1202 1202 1205 1205 1205 1205 1199 1194 1186 1177 1173 1173 1177 1180 1184 1185 1186 1186 1189 1192 1198 1208 1217 1219 1219 1219 1219 1228 1245 1253 1259 1273 1273 1273 1273 1273 1271 1267 1264 1263 1263 1261 1258 1256 1256 1257 1257 1257 1257 1246 1231 1209 1182 1178 1177 1175 1166 1166 1166 1186 1205 1223 1241 1262 1267 1267 1269 1269 1269 1275 1277 1277 1277 1279 1279 1284 1291 1297 1304 1304 1304 1304 1304 1301 1301 1301 1303 1305 1305 1305 1303 1299 1299 1299 1299 1297 1295 1295 1295 1295 1295 1295 1289 1284 1284 1284 1285 1285 1286 1290 1291 1291 1292 1293 1293 1293 1293 1293 1292 1284 1270 1246 1226 1191 1169 1152 1142 1139 1135 1134 1132 1130 1129 1127 1125 1124 1122 1121 1120 1118 1111 1105 1101 1095 1081 1057 1040 1033 1033 1032 1032 1032 1030 1027 1025 1023 1020 1017 1016 1016 1016 1018 1019 1021 1023 1026 1031 1037 1043 1052 1060 1065 1070 1073 1074 1075 1076 1076 1076 1076 1076 1076 1075 1074 1073 1072 1071 1070 1069 1068 1067 1065 1063 1061 1060 1057 1055 1053 1051 1050 1046 1038 1030 1025 1018 1018 1016 1015 1013 1010 1006 1004 1003 1002 1001 1000 999 999 997 996 994 992 992 992 992 993 994 995 997 1001 1001 1003 1008 1011 1011 1011 1011 1011 1010 1010 1009 1008 1008 1007 1007 1006 1006 1006 1005 1005 1005 1002 0 0 0 0 0 994 0 0 0 984 984 984 978 972 968 965 952 945 945 945 949 949 949 945 940 938 935 935 935 935 934 934 932 931 930 929 928 928 928 931 935 937 937 937 937 933 932 932 932 938 0 0 0 0 0 0 0 0 0 0 0 0 0 0 0 0 0 0 0 0 0 0 0 0 0 0 0 0 0 0 0 0 0 0 0 0 0 0 0 913 912 912 909 905 904 903 903 898 894 892 892 892 894 895 896 896 896 893 891 891 891 891 0 0 0 0 0 0 0 0 0 0 0 0 0 0 0 0 0 0 0 0 0 0 0 0 0 0 0 0 0 0 0 0 0 0 0 0 0 0 0 0 0 0 0 0 0 0 0 0 0 0 0 0 0 0 0 844 833 829 821 820 817 816 807 807 807 807 818 828 830 831 831 831 831 837 840 840 840 839 838 832 818 810 810 810 810 810 810 808 806 805 805 805 805 794 781 773 771 766 755 755 755 0 0 0 0 0 1076 1089 1093 1093 1093 1060 1060 1060 1066 1082 1091 1102 1112 1112 1112 1107 1086 1066 1061 1061 1061 1075 1075 1075 1069 1068 1064 1050 1050 1050 1060 0 0 0 0 0 0 942 942 942 952 971 971 971 953 928 0 0 0 0 0 0 853 877 877 877 0 0 0 0 0 0 0 0 0 0 0 0 0 0 0 0
354 354 354 357 358 359 362 362 362 360 358 358 358 363 370 372 378 381 381 381 384 384 395 415 423 425 429 437 445 449 468 496 523 543 554 0 0 0 0 0 630 636 651 667 692 692 693 693 693 693 693 705 705 705 667 0 0 0 0 0 0 0 0 0 0 0 0 0 0 1374 1399 1409 1414 1421 1431 1435 1438 1439 1440 1443 1447 1453 1464 1482 1488 1495 1503 1506 1518 1518 1518 0 0 0 0 0 1212 1212 1212 1213 1217 1217 1217 1212 1209 1206 1202 1194 1185 1180 1180 1180 1180 1180 1180 1180 1180 1183 1186 1189 1194 1198 1198 1199 1199 1213 1234 1242 1251 1266 1269 1272 1272 1271 1269 1267 1263 1263 1263 1259 1258 1256 1256 1257 1258 1264 1264 1264 1251 1234 1214 1184 1178 1175 1166 1166 1166 1186 1186 1188 1196 1220 1239 1252 1259 1263 1267 1272 1275 1276 1276 1279 1279 1282 1291 1296 1303 1304 1304 1304 1302 1301 1301 1301 1302 1305 1305 1305 1302 1298 1297 1297 1297 1295 1293 1293 1292 1292 1291 1288 1281 1278 1278 1278 1280 1280 1280 1281 1282 1283 1284 1285 1286 1286 1286 1286 1285 1275 1257 1240 1226 1194 1169 1152 1142 1139 1135 1134 1132 1130 1129 1127 1125 1124 1122 1121 1120 1118 1111 1106 1103 1098 1083 1057 1040 1034 1034 1033 1033 1032 1030 1029 1027 1024 1023 1018 1016 1016 1016 1022 1024 1024 1025 1029 1034 1039 1044 1054 1061 1065 1070 1074 1075 1076 1076 1077 1077 1077 1076 1076 1075 1074 1073 1072 1071 1070 1069 1068 1067 1066 1064 1062 1060 1057 1055 1053 1052 1050 1046 1038 1030 1025 1020 1018 1016 1015 1012 1009 1006 1004 1003 1002 1001 1000 999 998 997 995 993 992 991 991 991 991 992 993 995 999 1000 1003 1008 1011 1011 1011 1011 1011 1011 1011 1009 1009 1009 1008 1008 1007 1007 1007 1007 1007 1006 1003 0 0 0 0 0 0 0 0 0 0 984 984 978 972 967 965 953 946 946 946 949 949 949 945 940 939 937 937 935 935 934 934 932 931 931 930 929 929 929 932 935 937 937 937 936 933 932 932 932 932 0 0 0 0 0 0 0 0 0 0 0 0 0 0 0 0 0 0 0 0 0 0 0 0 0 0 0 0 0 0 0 0 0 0 0 0 0 0 0 911 911 911 898 898 898 898 898 898 896 894 894 894 894 895 896 896 896 896 893 893 892 892 892 892 891 890 889 889 888 884 883 883 882 882 882 0 0 0 0 0 0 0 0 0 0 0 0 0 0 0 0 0 0 0 0 0 0 0 0 0 0 0 0 0 0 0 0 0 0 0 0 0 0 0 0 0 843 843 836 833 821 820 817 816 814 807 807 807 818 828 830 830 830 830 830 831 835 839 839 839 838 831 817 809 809 809 810 810 810 809 806 806 804 799 795 781 774 773 771 766 761 761 0 0 0 0 0 1061 1075 1089 1093 1093 1093 1060 1059 1059 1059 1073 1086 1100 1112 1112 1112 1108 1089 1074 1067 1067 1067 1076 1076 1076 1073 1070 1064 1050 1050 1050 0 0 0 0 0 0 0 0 932 932 934 947 954 954 954 944 0 0 0 0 0 0 0 0 0 0 0 0 792 752 752 752 0 0 0 0 0 0 0 0 0 0
358 358 357 358 358 358 362 366 366 366 363 363 363 367 373 375 378 380 380 380 386 386 390 411 423 434 439 445 448 451 468 0 0 0 0 0 0 0 0 0 0 0 653 667 692 692 708 713 714 714 714 714 708 705 667 661 0 0 0 0 0 0 0 0 0 0 0 1356 1379 1403 1421 1423 1423 1429 1442 1444 1444 1444 1444 1444 1446 1451 1464 1482 1488 1495 1502 1506 1519 1536 1536 1536 0 0 0 0 1222 1222 1222 1221 1221 1220 1218 1217 1217 1217 1217 1217 1210 1198 1193 1188 1186 1185 1180 1180 1180 1183 1185 1185 1185 1185 1185 1197 1199 1213 1232 1241 1250 1264 1267 1267 1267 1267 1267 1265 1263 1259 1255 1248 1248 1248 1251 1256 1257 1264 1264 1264 1251 1234 1218 1215 1215 1190 1166 1166 1166 1186 1186 1186 1188 1196 1196 1213 1230 1245 1259 1266 1270 1272 1273 1275 1276 1276 1288 1295 1299 1300 1302 1302 1302 1299 1299 1299 1302 1305 1305 1305 1302 1298 1295 1295 1295 1295 1292 1291 1290 1290 1287 1284 1278 1275 1275 1275 1276 1276 1276 1276 1279 1281 1281 1281 1281 1279 1279 1278 1278 1273 1257 1239 1224 1194 1173 1153 1141 1139 1135 1134 1132 1131 1129 1127 1125 1124 1122 1120 1119 1116 1111 1106 1103 1098 1083 1063 1041 1035 1035 1035 1034 1033 1031 1030 1029 1027 1025 1019 1019 1019 1020 1022 1024 1024 1026 1030 1036 1043 1045 1054 1061 1065 1070 1074 1076 1076 1077 1077 1077 1077 1076 1076 1075 1074 1073 1072 1071 1070 1069 1068 1067 1066 1064 1062 1060 1058 1056 1053 1052 1050 1045 1037 1029 1025 1020 1018 1015 1013 1011 1009 1006 1004 1003 1002 1001 999 999 997 996 994 993 991 989 989 989 990 991 993 994 998 999 1003 1008 1011 1011 1011 1011 1011 1011 1011 1010 1009 1009 1008 1008 1007 1007 1007 1007 1007 1007 1003 997 0 0 0 0 0 0 0 0 0 984 984 978 972 967 965 953 946 946 946 947 947 947 944 940 939 937 937 935 935 934 934 932 932 932 932 932 932 933 934 935 935 935 931 929 928 928 931 933 933 0 0 0 0 0 0 0 0 0 0 0 0 0 0 0 0 0 0 0 0 0 0 0 0 0 0 0 0 0 0 0 0 0 0 0 0 0 0 0 908 908 908 897 897 897 897 897 897 896 894 893 893 893 893 895 895 895 895 894 892 891 891 892 892 891 891 891 889 889 885 885 885 885 885 883 882 881 877 876 876 0 0 0 0 0 0 0 0 0 0 0 0 0 0 0 0 0 0 0 0 0 0 0 0 0 0 0 0 0 0 0 0 0 0 0 0 842 842 834 833 821 820 817 816 814 807 807 807 818 828 830 830 830 830 830 832 835 838 838 838 836 830 813 809 809 806 806 808 806 805 805 804 803 799 794 780 774 772 771 766 766 766 0 0 0 0 0 1071 1075 1089 1091 1091 1091 0 0 0 1036 1056 1080 1097 1109 1118 1118 1118 1096 1087 1076 1076 1076 1076 1076 1076 1073 1070 1068 1048 1048 1048 0 0 0 0 0 0 0 0 0 932 934 947 959 962 962 959 955 951 0 0 0 0 0 0 0 0 0 793 792 785 775 773 773 0 0 0 0 0 0 0 0 0
362 362 357 358 358 358 361 366 369 369 369 371 371 374 378 379 380 380 380 380 386 386 386 402 423 434 448 450 451 453 471 0 0 0 0 0 0 0 0 0 0 0 0 675 692 692 708 713 714 714 717 717 717 708 667 661 0 0 0 0 0 0 0 0 0 1313 1345 1368 1390 1410 1424 1430 1434 1453 1453 1453 1448 1444 1443 1443 1443 1447 1457 1471 1482 1487 1501 1504 1519 1536 1536 1536 1529 0 0 0 0 1237 1234 1227 1222 1220 1219 1219 1219 1220 1220 1220 1220 1217 1211 1189 1187 1186 1180 1180 1180 1183 1183 1183 1183 1179 1179 1179 1186 1197 1215 1229 1237 1241 1252 1259 1261 1261 1261 1259 1249 1248 1243 1239 1239 1239 1243 1250 1255 1264 1264 1264 1251 1234 1218 1218 1215 1215 1208 1202 1194 1190 1190 1188 1188 1196 1196 1213 1215 1217 1242 1245 1248 1251 1257 1267 1268 1269 1279 1290 1294 1295 1297 1297 1299 1299 1299 1299 1301 1304 1304 1304 1301 1296 1293 1293 1293 1293 1292 1291 1290 1290 1287 1284 1278 1274 1274 1273 1273 1272 1272 1272 1276 1278 1278 1278 1278 1277 1275 1273 1272 1272 1257 1236 1218 1194 1173 1154 1141 1137 1135 1133 1132 1131 1129 1127 1125 1124 1122 1120 1118 1116 1111 1106 1103 1098 1083 1064 1044 1035 1035 1035 1034 1033 1032 1031 1031 1029 1027 1025 1024 1022 1022 1022 1024 1024 1027 1031 1037 1044 1045 1054 1062 1065 1070 1074 1076 1077 1077 1077 1077 1077 1076 1076 1075 1074 1074 1073 1071 1070 1069 1069 1067 1066 1064 1062 1060 1058 1056 1055 1052 1050 1045 1037 1029 1025 1020 1017 1014 1013 1011 1009 1007 1005 1003 1002 1001 999 999 997 996 994 993 991 989 989 989 989 990 991 993 997 999 1003 1008 1011 1012 1012 1012 1012 1011 1011 1010 1009 1009 1008 1008 1008 1008 1008 1008 1008 1007 1003 998 0 0 0 0 0 0 0 989 987 987 982 978 972 967 962 952 946 946 946 946 946 944 942 940 939 937 937 935 935 934 934 932 932 932 932 932 932 933 934 934 934 933 931 930 929 930 931 933 933 0 0 0 0 0 0 0 0 0 0 0 0 0 0 0 0 0 0 0 0 0 0 0 0 0 0 0 0 0 0 0 0 0 0 0 0 0 0 0 0 906 905 897 897 897 897 897 897 896 894 893 893 892 892 893 894 895 895 895 892 891 891 892 892 891 891 891 889 889 885 885 885 885 885 883 883 882 882 882 878 877 0 0 0 0 0 0 0 0 0 0 0 0 0 0 0 0 0 0 0 0 0 0 0 0 0 0 0 0 0 0 0 0 0 0 0 842 842 836 834 815 815 814 809 809 806 806 806 817 827 830 830 830 830 832 834 835 836 836 836 834 823 804 804 804 803 804 805 804 803 801 798 798 798 791 775 773 772 770 766 766 766 0 0 0 0 0 1071 1075 1089 1089 1089 0 0 0 985 985 1028 1062 1087 1102 1121 1121 1121 1106 1088 1076 1076 1076 1076 1076 1076 1073 1070 1068 1022 992 0 0 0 0 1076 1076 1075 0 0 0 947 947 947 956 959 959 962 962 962 967 967 973 994 994 0 0 0 0 796 796 790 790 790 773 0 0 0 0 0 0 0 0 0
362 362 358 359 359 359 363 366 369 373 373 374 376 382 382 382 384 386 386 386 386 394 394 402 418 434 450 455 458 459 471 0 0 0 0 0 0 0 0 0 0 0 0 0 680 681 694 705 708 714 717 717 717 708 693 675 0 0 0 0 0 0 0 0 1281 1330 1356 1377 1397 1413 1426 1436 1447 1454 1454 1454 1448 1444 1443 1443 1443 1443 1448 1465 1476 1479 1490 1494 1519 1536 1536 1536 1529 0 0 0 0 0 1235 1228 1222 1220 1220 1220 1220 1222 1222 1222 1221 1217 1213 1208 1206 1206 1199 1187 1187 1186 1186 1186 1183 1160 1155 1155 1155 1166 1188 1205 1216 1218 1220 1223 1231 1240 1240 1240 1231 1231 1231 1233 1233 1236 1239 1242 1242 1242 1242 1242 1238 1230 1218 1218 1218 1220 1225 1225 1225 1224 1222 1222 1197 1197 1197 1213 1215 1217 1228 1228 1228 1228 1228 1233 1248 1262 1273 1285 1291 1292 1292 1295 1296 1297 1298 1298 1299 1300 1300 1300 1300 1295 1290 1290 1290 1290 1290 1290 1290 1290 1287 1284 1278 1274 1274 1273 1273 1272 1271 1271 1271 1275 1276 1276 1276 1275 1273 1272 1270 1269 1260 1235 1212 1191 1173 1154 1142 1137 1134 1132 1132 1131 1129 1127 1125 1124 1122 1120 1118 1116 1111 1107 1103 1095 1081 1064 1044 1035 1035 1035 1034 1034 1032 1031 1031 1031 1029 1026 1025 1022 1022 1022 1023 1026 1027 1031 1037 1044 1046 1054 1062 1067 1071 1075 1077 1077 1077 1077 1077 1077 1077 1076 1075 1075 1074 1073 1071 1071 1070 1069 1067 1066 1064 1062 1061 1058 1056 1055 1052 1050 1045 1037 1029 1025 1020 1016 1014 1012 1010 1009 1007 1005 1003 1002 1001 999 998 997 996 994 992 990 988 988 988 989 990 991 993 997 999 1003 1008 1011 1012 1012 1012 1012 1012 1011 1010 1009 1009 1008 1008 1008 1008 1008 1008 1007 1007 1003 998 0 0 0 0 0 0 0 0 987 987 982 978 973 964 957 948 942 942 942 942 942 941 939 938 937 935 934 934 934 933 932 932 932 932 932 932 932 933 934 934 934 933 930 930 929 930 930 933 933 0 0 0 0 0 0 0 0 0 0 0 0 0 0 0 0 0 0 0 0 0 0 0 0 0 0 0 0 0 0 0 0 0 0 0 0 0 0 0 0 900 900 896 896 896 897 898 898 898 897 895 893 893 893 893 893 894 894 894 894 892 892 892 892 892 892 891 889 887 885 885 885 884 884 883 883 882 882 882 879 878 0 0 0 0 0 0 0 0 0 0 0 0 0 0 0 0 0 0 0 0 0 0 0 0 0 0 0 0 0 0 0 0 0 0 0 842 842 838 834 803 803 803 801 801 802 802 802 814 824 826 829 834 834 834 839 839 839 837 824 823 809 798 798 798 802 802 802 799 797 796 796 794 794 789 772 772 766 766 766 766 0 0 0 0 0 0 1101 1114 1115 1114 1101 0 0 985 985 985 1028 1061 1086 1102 1121 1121 1121 1106 1088 1076 1068 1068 1068 1069 1069 1069 1068 1067 1022 987 0 0 1001 1034 1049 1059 1059 1059 1040 1021 1003 995 994 960 960 960 962 969 971 971 974 983 1004 1004 1004 0 0 0 783 783 790 790 790 773 737 0 0 0 0 0 0 0 0
362 362 361 362 362 362 363 365 369 373 375 376 379 385 386 386 387 388 397 397 397 402 402 402 418 434 450 459 469 471 476 0 0 0 0 0 0 0 0 0 0 0 0 0 0 681 681 685 688 693 707 708 708 708 708 0 0 0 0 0 0 0 0 0 1312 1345 1369 1390 1400 1413 1426 1436 1449 1454 1454 1454 1450 1444 1443 1442 1442 1442 1448 1464 1475 1479 1489 1492 1517 1533 1533 1533 1529 1486 0 0 0 0 0 1228 1222 1222 1222 1223 1227 1227 1227 1224 1224 1224 1222 1222 1213 1209 1209 1204 1194 1193 1192 1188 1183 1160 1155 1155 1155 1165 1167 1180 1181 1181 1186 1186 1190 1219 1219 1219 1223 1223 1223 1228 1233 1235 1235 1235 1235 1232 1219 1217 1216 1213 1211 1211 1211 1220 1225 1236 1237 1241 1241 1241 1238 1224 1222 1220 1220 1220 1228 1228 1228 1227 1227 1227 1234 1247 1262 1277 1282 1286 1290 1290 1290 1290 1290 1290 1294 1297 1299 1299 1299 1293 1289 1289 1289 1289 1289 1290 1290 1289 1289 1288 1282 1278 1275 1274 1273 1272 1271 1271 1271 1275 1275 1275 1275 1274 1272 1272 1270 1269 1261 1235 1210 1185 1167 1154 1143 1137 1134 1132 1132 1130 1129 1127 1125 1124 1122 1120 1118 1117 1116 1108 1103 1094 1080 1064 1044 1034 1033 1033 1032 1032 1032 1031 1031 1031 1029 1027 1025 1023 1023 1023 1023 1026 1027 1032 1039 1044 1047 1054 1062 1068 1072 1075 1077 1077 1078 1078 1078 1077 1077 1076 1075 1075 1074 1073 1072 1071 1070 1069 1067 1066 1064 1062 1061 1058 1056 1055 1052 1049 1045 1038 1029 1024 1019 1014 1010 1010 1010 1009 1007 1005 1004 1002 1001 999 998 997 996 994 992 990 988 988 988 990 990 991 992 997 1001 1004 1008 1011 1012 1012 1012 1012 1012 1012 1011 1009 1009 1008 1008 1008 1008 1008 1008 1005 1002 1001 998 998 0 0 0 0 0 0 0 987 987 982 977 972 964 956 945 941 941 940 940 940 938 938 935 934 932 932 932 932 932 932 932 932 932 932 932 932 933 933 933 933 933 931 930 930 930 930 931 931 0 0 0 0 0 0 0 0 0 0 0 0 0 0 0 0 0 0 0 0 0 0 0 0 0 0 0 0 0 0 0 0 0 0 0 0 0 0 0 0 899 899 898 897 897 898 899 899 899 899 897 894 893 893 893 893 893 894 894 894 893 893 892 892 892 892 891 889 887 887 887 886 886 885 883 883 882 882 882 879 878 0 0 0 0 0 0 0 0 0 0 0 0 0 0 0 0 0 0 0 0 0 0 0 0 0 0 0 0 0 0 0 0 0 0 0 841 841 838 833 793 793 793 801 801 801 796 796 796 809 824 829 834 842 846 846 846 845 835 824 823 795 795 795 803 803 803 788 779 779 779 788 788 788 764 763 763 763 763 774 782 0 0 0 0 0 1073 1101 1114 1115 1114 1101 1053 1015 985 985 985 1024 1048 1069 1083 1102 1106 1106 1106 1088 1075 1068 1068 1068 1069 1069 1069 1067 1063 1022 987 987 987 989 999 1013 1032 1040 1040 1040 1021 1003 1002 994 960 956 956 956 971 971 975 980 983 1004 1004 1004 0 0 0 773 773 790 790 790 756 0 0 0 0 0 0 0 0 0
361 361 361 362 363 363 364 367 368 372 376 377 383 386 388 390 392 398 410 419 419 419 418 418 418 434 450 460 471 473 482 0 0 0 0 0 0 0 0 0 0 0 0 0 0 0 680 680 680 684 684 694 696 698 707 0 0 0 0 0 0 0 0 0 1314 1347 1370 1390 1400 1413 1426 1436 1449 1454 1454 1454 1450 1444 1443 1442 1442 1442 1443 1458 1469 1474 1480 1482 1498 1514 1514 1514 1505 1486 1474 0 0 0 0 0 0 1225 1225 1228 1233 1233 1233 1230 1226 1226 1226 1226 1226 1217 1216 1215 1211 1202 1194 1193 1186 1160 1155 1155 1155 1165 1167 1175 1175 1175 1171 1170 1170 1170 1202 1212 1212 1213 1218 1222 1231 1233 1233 1233 1231 1225 1215 1210 1210 1205 1205 1205 1208 1214 1225 1236 1237 1244 1245 1256 1264 1268 1268 1268 1258 1242 1237 1230 1228 1227 1227 1227 1232 1237 1245 1252 1257 1263 1269 1275 1278 1278 1278 1282 1286 1291 1297 1297 1297 1291 1288 1288 1288 1289 1289 1289 1290 1290 1290 1290 1284 1282 1282 1281 1281 1281 1276 1275 1275 1275 1275 1275 1275 1274 1270 1270 1270 1269 1262 1235 1210 1183 1161 1151 1144 1138 1134 1132 1132 1130 1129 1127 1126 1124 1122 1121 1119 1117 1116 1111 1102 1093 1080 1065 1042 1032 1032 1032 1032 1032 1032 1031 1031 1030 1029 1028 1025 1023 1023 1023 1023 1026 1029 1034 1040 1044 1047 1054 1062 1068 1072 1075 1077 1078 1078 1078 1078 1077 1077 1077 1076 1075 1074 1073 1073 1071 1070 1069 1067 1066 1064 1062 1061 1058 1056 1053 1051 1049 1045 1037 1029 1023 1019 1014 1010 1009 1008 1008 1006 1005 1004 1002 1001 1000 998 997 996 994 992 990 988 988 988 990 990 991 992 997 1001 1005 1010 1012 1012 1012 1012 1012 1012 1012 1011 1010 1009 1008 1008 1008 1008 1006 1006 1002 1000 1000 999 999 0 0 0 0 0 0 0 987 987 982 977 971 964 955 945 941 941 940 939 938 937 935 934 931 931 931 931 931 931 931 931 931 931 931 931 931 932 932 932 932 932 931 931 930 930 930 930 929 0 0 0 0 0 0 0 0 0 0 0 0 0 0 0 0 0 0 0 0 0 0 0 0 0 0 0 0 0 0 0 0 0 0 0 0 0 0 0 0 899 898 898 898 899 899 899 899 899 899 897 894 893 893 893 893 893 894 894 894 894 893 892 892 892 892 891 887 886 886 886 886 886 886 883 883 883 883 883 882 881 0 0 0 0 0 0 0 0 0 0 0 0 0 0 0 0 0 0 0 0 0 0 0 0 0 0 0 0 0 0 0 0 0 0 0 841 841 838 833 788 788 788 797 797 797 796 796 796 809 824 832 836 844 855 855 855 845 835 824 823 795 795 795 804 804 804 788 779 779 779 782 782 782 757 742 742 742 773 787 0 0 0 0 0 0 1073 1101 1101 1101 1064 1063 1036 1005 995 995 995 1024 1048 1069 1083 1102 1102 1102 1087 1061 1060 1056 1055 1052 1052 1052 1056 1056 1056 1018 1006 989 989 989 999 1013 1032 1038 1038 1038 1022 1003 1002 994 959 956 956 956 975 975 975 980 983 1004 1004 1004 0 0 0 773 773 780 780 780 756 0 0 0 0 0 0 0 0 0
361 361 361 362 364 364 367 367 367 372 376 381 386 387 389 390 396 406 420 434 434 434 434 434 434 434 447 460 471 474 0 0 0 0 0 0 0 0 0 0 0 0 0 0 0 0 0 680 680 684 684 694 696 698 0 0 0 0 0 0 0 0 0 1304 1342 1361 1377 1390 1403 1412 1424 1435 1449 1454 1454 1454 1451 1444 1443 1440 1440 1440 1443 1452 1462 1466 1473 1475 1485 1494 1494 1494 1488 1482 1477 1473 1462 0 0 0 0 0 1235 1235 1237 1237 1237 1235 1230 1228 1228 1228 1227 1226 1226 1225 1221 1212 1210 1210 1208 1197 1171 1171 1167 1167 1167 1175 1175 1175 1171 1170 1170 1170 1181 1196 1206 1211 1215 1222 1230 1230 1230 1230 1226 1216 1207 1207 1205 1205 1205 1205 1207 1213 1218 1223 1237 1244 1245 1256 1264 1274 1278 1278 1278 1270 1268 1267 1252 1227 1227 1227 1232 1237 1237 1237 1239 1239 1239 1255 1260 1260 1262 1274 1274 1274 1279 1284 1286 1286 1287 1287 1287 1287 1287 1287 1287 1290 1290 1290 1288 1288 1288 1288 1289 1289 1289 1282 1280 1279 1278 1276 1275 1274 1270 1270 1270 1270 1262 1235 1208 1180 1158 1150 1145 1138 1134 1132 1132 1130 1129 1127 1126 1124 1122 1121 1120 1118 1116 1111 1102 1091 1079 1062 1042 1031 1030 1030 1030 1030 1030 1030 1030 1030 1029 1028 1025 1023 1023 1023 1026 1029 1031 1035 1040 1042 1047 1054 1064 1069 1073 1075 1076 1078 1078 1078 1078 1078 1077 1077 1076 1075 1074 1073 1073 1071 1070 1069 1067 1066 1064 1062 1061 1058 1056 1053 1051 1049 1045 1037 1029 1023 1019 1014 1010 1009 1008 1008 1006 1005 1003 1002 1001 1000 998 997 995 994 993 991 991 990 990 990 991 992 993 996 1001 1006 1011 1012 1012 1012 1012 1012 1012 1012 1011 1010 1010 1009 1009 1008 1008 1005 1003 1001 1000 999 999 999 0 0 0 0 0 0 0 989 989 984 977 971 964 955 945 942 941 940 939 938 936 935 933 931 931 931 931 931 931 931 931 931 931 931 931 931 932 932 932 932 932 931 931 931 930 930 930 929 0 0 0 0 0 0 0 0 0 0 0 0 0 0 0 0 0 0 0 0 0 0 0 0 0 0 0 0 0 0 0 0 0 0 0 0 0 0 0 895 897 897 898 900 902 902 902 900 899 899 897 895 895 894 893 893 893 894 894 895 895 894 894 893 893 892 890 887 886 886 886 887 887 887 884 884 884 885 885 885 0 0 0 0 0 0 0 0 0 0 0 0 0 0 0 0 0 0 0 0 0 0 0 0 0 0 0 0 0 0 0 0 0 0 0 0 839 839 838 818 788 788 788 797 797 797 796 796 796 809 824 832 836 847 858 858 858 845 835 835 832 822 822 820 820 820 804 786 779 773 773 773 773 773 756 733 733 733 773 0 0 0 0 0 0 0 1072 1072 1072 1065 1031 1030 1012 1004 1000 1000 1000 1024 1048 1069 1083 1087 1087 1087 1059 1059 1059 1055 1055 1052 1035 1034 1034 1033 1032 1023 1018 1011 999 999 999 1013 1032 1038 1038 1038 1022 1003 1003 986 959 956 956 956 975 975 975 975 975 977 977 977 0 0 0 0 773 779 779 779 0 0 0 0 0 0 0 0 0 0
361 361 361 363 366 366 367 367 367 372 377 381 386 387 389 390 397 408 421 434 436 436 436 435 435 435 446 460 472 474 0 0 0 0 0 0 0 0 0 0 0 0 0 0 0 0 0 0 684 684 684 694 0 0 0 0 0 0 0 0 0 0 1305 1309 1346 1365 1378 1391 1404 1412 1424 1433 1444 1451 1451 1451 1451 1446 1443 1440 1440 1440 1443 1450 1455 1460 1467 1469 1479 1484 1484 1484 1482 1481 1480 1480 1475 1469 0 0 0 0 0 1244 1243 1243 1243 1240 1232 1228 1228 1228 1228 1229 1230 1230 1230 1232 1232 1232 1232 1230 1217 1216 1203 1195 1190 1187 1183 1175 1171 1170 1170 1170 1181 1187 1198 1203 1210 1218 1229 1229 1229 1222 1212 1205 1205 1205 1202 1202 1205 1205 1206 1210 1213 1214 1215 1216 1245 1256 1264 1274 1278 1278 1280 1280 1280 1280 1280 1268 1248 1237 1237 1237 1237 1237 1239 1239 1239 1255 1255 1255 1253 1253 1253 1253 1255 1266 1278 1280 1281 1284 1285 1285 1285 1285 1285 1285 1288 1288 1290 1290 1290 1294 1296 1299 1299 1299 1293 1288 1283 1280 1276 1276 1270 1270 1270 1270 1264 1245 1208 1175 1156 1150 1145 1138 1135 1132 1132 1130 1129 1127 1126 1124 1123 1121 1120 1118 1116 1111 1102 1091 1078 1062 1042 1029 1028 1027 1027 1027 1028 1029 1029 1029 1029 1028 1025 1024 1024 1024 1028 1030 1033 1035 1040 1042 1048 1061 1065 1070 1073 1075 1076 1078 1078 1078 1078 1078 1078 1077 1076 1075 1074 1073 1072 1071 1070 1069 1067 1066 1064 1062 1061 1058 1056 1053 1051 1049 1045 1037 1027 1023 1019 1015 1011 1009 1008 1007 1006 1004 1003 1002 1001 999 998 997 995 994 994 992 991 991 991 991 991 993 993 996 1001 1006 1011 1012 1012 1012 1012 1012 1012 1012 1012 1011 1011 1009 1009 1009 1008 1004 1001 1000 0 0 0 0 0 0 0 0 0 0 0 989 989 984 977 971 964 955 947 944 942 941 939 938 936 934 933 931 931 931 930 930 930 931 931 931 931 931 931 931 932 932 932 932 932 933 931 931 930 930 930 929 0 0 0 0 0 0 0 0 0 0 0 0 0 0 0 0 0 0 0 0 0 0 0 0 0 0 0 0 0 0 0 0 0 0 0 0 0 0 0 895 897 897 898 901 903 903 903 901 899 898 897 896 896 895 894 894 894 895 895 895 895 895 895 893 893 892 890 887 886 886 886 887 887 887 886 885 885 885 885 885 0 0 0 0 0 0 0 0 0 0 0 0 0 0 0 0 0 0 0 0 0 0 0 0 0 0 0 0 0 0 0 0 0 0 0 0 833 833 832 818 788 788 788 797 801 805 809 812 820 837 838 846 850 861 861 861 859 859 859 858 858 854 831 830 828 820 807 783 783 779 779 777 773 773 756 733 733 733 0 0 0 0 0 0 0 1028 1065 1065 1065 1036 1011 1011 1003 994 994 994 1015 1035 1059 1077 1086 1087 1087 1087 1058 1058 1058 1055 1055 1052 1033 1026 1025 1025 1025 1025 1025 1032 1038 1038 1038 1040 1040 1040 1040 1040 1027 1006 1004 986 960 956 956 956 963 963 963 956 954 953 952 951 0 0 0 0 0 0 0 0 0 0 0 0 0 0 0 0 0 0
361 361 361 364 370 370 370 370 370 372 379 384 389 391 392 394 397 408 421 434 440 440 440 440 440 440 446 458 483 0 0 0 0 0 0 0 938 951 971 995 1034 0 0 0 0 0 0 0 0 0 0 0 0 0 0 0 0 0 0 0 0 0 1314 1318 1351 1372 1388 1397 1404 1412 1424 1433 1443 1448 1451 1451 1451 1446 1441 1440 1440 1440 1447 1450 1452 1457 1467 1469 1477 1480 1481 1481 1481 1482 1483 1483 1483 1482 1480 0 0 0 0 0 1251 1247 1245 1240 1232 1228 1227 1227 1227 1229 1230 1234 1236 1236 1236 1237 1236 1236 1236 1235 1222 1218 1216 1216 1215 1212 1208 1200 1186 1185 1185 1185 1189 1195 1196 1197 1202 1209 1209 1209 1204 1199 1199 1199 1201 1201 1202 1203 1203 1205 1205 1205 1205 1205 1213 1245 1262 1274 1278 1278 1280 1280 1280 1280 1280 1280 1277 1275 1267 1260 1247 1240 1239 1239 1239 1255 1255 1255 1247 1247 1247 1248 1251 1256 1262 1269 1274 1280 1284 1284 1284 1281 1281 1281 1285 1288 1288 1290 1294 1297 1302 1307 1307 1307 1303 1294 1287 1284 1282 1281 1277 1271 1271 1270 1264 1245 1207 1173 1156 1150 1146 1139 1135 1133 1132 1130 1129 1127 1126 1124 1123 1121 1120 1118 1116 1111 1102 1089 1070 1058 1042 1029 1028 1027 1027 1027 1028 1029 1029 1029 1029 1029 1026 1025 1025 1025 1028 1030 1033 1035 1040 1042 1049 1061 1066 1070 1073 1075 1076 1078 1078 1078 1078 1078 1078 1077 1076 1075 1074 1073 1072 1071 1070 1069 1067 1066 1064 1062 1061 1059 1057 1053 1051 1049 1044 1034 1026 1023 1019 1015 1011 1009 1008 1007 1006 1004 1003 1001 1000 999 998 997 995 994 994 992 992 992 992 992 992 993 994 996 1001 1006 1011 1011 1011 1012 1012 1012 1012 1012 1012 1011 1011 1011 1010 1010 1008 1004 1001 0 0 0 0 0 0 0 0 0 0 0 0 990 989 984 977 971 964 956 950 947 944 943 940 937 935 934 933 931 931 931 930 930 930 931 931 931 931 931 931 931 931 931 932 932 932 933 931 931 930 930 930 929 0 0 0 0 0 0 0 0 0 0 0 0 0 0 0 0 0 0 0 0 0 0 0 0 0 0 0 0 0 0 0 0 0 0 0 0 0 0 0 895 897 897 898 901 903 903 903 901 899 898 897 896 896 895 894 894 894 895 895 896 896 896 896 895 893 892 890 888 887 886 886 886 886 887 887 887 887 887 886 885 0 0 0 0 0 0 0 0 0 0 0 0 0 0 0 0 0 0 0 0 0 0 0 0 0 0 0 0 0 0 0 0 0 0 0 0 840 831 827 818 797 797 797 802 806 808 813 818 828 851 873 882 883 883 883 876 876 876 882 882 882 871 852 839 831 820 807 783 783 783 783 783 777 773 756 733 733 0 0 0 0 0 0 0 1042 1043 1043 1042 1040 1023 1011 1011 1003 994 994 994 1026 1056 1068 1077 1086 1086 1086 1082 1055 1055 1055 1055 1055 1043 1026 1025 1025 1024 1025 1025 1025 1040 1061 1063 1063 1063 1053 1047 1046 1044 1032 1019 1013 986 968 967 967 967 967 967 963 953 945 937 930 927 0 0 0 0 0 0 0 0 0 0 0 0 0 0 0 0 0 0
359 359 360 364 374 374 374 373 373 373 379 384 389 391 392 394 397 408 421 434 440 440 440 440 442 442 442 451 483 0 0 0 0 0 0 917 938 951 971 995 1017 1034 0 0 0 0 0 0 0 0 0 0 0 0 0 0 0 0 0 0 0 1294 1329 1333 1361 1380 1395 1405 1412 1418 1426 1433 1442 1446 1446 1446 1446 1446 1441 1441 1441 1441 1447 1449 1452 1457 1467 1469 1477 1480 1480 1481 1481 1482 1483 1486 1487 1488 1488 1488 1470 0 0 0 0 0 1249 1241 1236 1231 1228 1228 1228 1229 1231 1234 1237 1237 1239 1240 1240 1242 1242 1242 1238 1238 1238 1238 1240 1240 1240 1229 1207 1192 1189 1189 1189 1195 1195 1195 1190 1186 1186 1186 1186 1186 1187 1187 1190 1190 1190 1190 1190 1193 1193 1193 1194 1194 1194 1218 1246 1253 1260 1269 1275 1278 1280 1280 1282 1287 1287 1287 1282 1273 1271 1269 1269 1269 1269 1269 1269 1260 1247 1247 1247 1248 1251 1256 1258 1262 1263 1263 1264 1265 1267 1270 1270 1271 1275 1281 1286 1290 1294 1297 1302 1307 1307 1307 1304 1301 1292 1289 1285 1282 1280 1278 1276 1273 1264 1245 1203 1173 1156 1154 1147 1139 1135 1133 1132 1130 1129 1127 1126 1124 1123 1121 1120 1119 1116 1111 1102 1089 1070 1052 1042 1029 1028 1027 1027 1027 1028 1029 1029 1029 1029 1029 1027 1027 1027 1027 1029 1030 1033 1035 1040 1042 1050 1061 1066 1071 1074 1075 1077 1078 1079 1079 1079 1079 1078 1077 1076 1075 1074 1073 1072 1071 1070 1068 1067 1066 1064 1062 1061 1059 1057 1053 1051 1049 1042 1034 1026 1024 1020 1015 1011 1009 1008 1007 1006 1003 1002 1000 999 998 998 996 994 994 994 993 993 993 993 993 993 993 994 998 1003 1006 1009 1011 1011 1012 1012 1012 1012 1012 1012 1011 1011 1011 1011 1010 1006 1003 1001 0 0 0 0 0 0 0 0 1000 998 996 994 990 989 983 977 970 964 957 952 950 947 944 940 938 936 935 933 932 932 931 931 931 931 931 931 931 931 931 931 931 931 931 932 932 932 933 930 930 929 930 930 929 0 0 0 0 0 0 0 0 0 0 0 0 0 0 0 0 0 0 0 0 0 0 0 0 0 0 0 0 0 0 0 0 0 0 0 0 0 0 0 899 899 899 899 901 903 903 903 900 899 898 897 897 896 895 894 894 894 895 895 896 896 896 896 895 893 891 890 889 887 887 886 886 886 887 887 887 888 888 888 887 0 0 0 0 0 0 0 0 0 0 0 0 0 0 0 0 0 0 0 0 0 0 0 0 0 0 0 0 0 0 0 0 0 0 0 840 840 831 827 816 803 803 803 807 808 810 813 818 831 855 878 895 904 906 906 906 901 901 900 900 900 878 859 842 831 817 807 783 783 783 799 799 799 783 764 764 761 0 0 0 0 0 0 1042 1043 1043 1042 1038 1021 1014 1009 1008 1002 988 988 988 1026 1056 1068 1077 1078 1078 1078 1064 1055 1055 1055 1055 1055 1043 1025 1025 1024 1024 1023 1023 1023 1042 1077 1088 1088 1088 1069 1058 1054 1053 1047 1044 1032 1011 991 991 991 988 985 981 963 952 942 920 907 900 0 0 0 0 0 0 0 0 0 615 630 630 630 0 0 0 0 0
354 354 356 365 375 375 375 373 373 373 379 384 389 391 392 394 396 402 415 425 432 440 445 445 445 447 447 451 0 0 0 0 0 0 0 917 938 951 971 995 1017 1032 1032 0 0 0 0 0 0 0 0 0 0 0 0 0 0 0 0 0 0 1310 1340 1343 1369 1386 1403 1413 1421 1425 1429 1433 1442 1443 1443 1443 1443 1442 1441 1441 1441 1442 1447 1450 1452 1457 1469 1471 1477 1480 1480 1481 1481 1482 1484 1486 1487 1488 1488 1488 1486 1473 0 0 0 0 0 1242 1236 1231 1228 1228 1228 1229 1232 1234 1238 1238 1240 1240 1240 1242 1242 1243 1244 1245 1245 1245 1245 1245 1245 1245 1243 1209 1189 1189 1189 1195 1195 1195 1190 1186 1186 1186 1186 1185 1184 1180 1178 1178 1172 1168 1165 1155 1155 1155 1173 1175 1182 1192 1222 1234 1237 1241 1242 1259 1269 1272 1280 1287 1287 1287 1283 1283 1283 1287 1294 1294 1294 1294 1289 1284 1277 1251 1251 1251 1251 1256 1258 1258 1258 1249 1249 1249 1252 1260 1263 1268 1273 1275 1279 1290 1294 1297 1302 1307 1307 1307 1304 1301 1297 1293 1290 1290 1288 1286 1285 1279 1264 1241 1203 1173 1164 1156 1148 1140 1135 1133 1131 1130 1129 1127 1126 1125 1123 1122 1121 1119 1116 1111 1104 1089 1070 1052 1042 1031 1030 1030 1030 1030 1030 1030 1030 1030 1030 1030 1030 1030 1030 1030 1030 1030 1033 1035 1040 1043 1050 1061 1066 1071 1075 1076 1078 1078 1079 1079 1079 1079 1078 1077 1076 1075 1074 1073 1072 1071 1070 1068 1067 1065 1064 1062 1061 1059 1057 1053 1051 1048 1042 1034 1026 1024 1020 1015 1011 1009 1007 1006 1004 1003 1001 1000 998 997 997 995 994 994 994 993 993 993 993 993 993 994 996 999 1003 1006 1009 1011 1011 1012 1012 1012 1012 1012 1012 1012 1011 1011 1011 1010 1006 1003 1001 0 0 0 0 0 0 0 1000 1000 998 996 994 990 986 980 976 970 968 958 952 950 947 944 941 938 936 935 935 933 932 932 931 931 931 931 931 931 931 931 931 931 931 931 932 932 932 931 930 929 929 929 929 929 0 0 0 0 0 0 0 0 0 0 0 0 0 0 0 0 0 0 0 0 0 0 0 0 0 0 0 0 0 0 0 0 0 0 0 0 0 0 0 904 904 903 898 898 898 900 900 900 898 897 897 897 896 895 894 894 894 895 896 896 896 896 896 895 893 891 891 889 888 887 885 885 885 885 887 887 888 888 888 884 0 0 0 0 0 0 0 0 0 0 0 0 0 0 0 0 0 0 0 0 0 0 0 0 0 0 0 0 0 0 0 0 0 0 0 842 842 833 832 816 803 803 803 808 811 813 814 818 831 855 878 895 910 910 910 911 911 914 914 914 912 888 868 845 835 817 808 792 792 792 799 799 799 783 783 783 790 0 0 0 0 0 1029 1042 1042 1042 1036 1024 1011 1011 1005 1004 1002 990 990 990 1026 1056 1060 1060 1060 1057 1052 1041 1026 1026 1022 1020 1020 1020 1020 1025 1026 1026 1026 1026 1026 1044 1081 1101 1101 1101 1094 1081 1079 1078 1077 1073 1043 1027 1017 1014 1009 1005 998 981 963 952 942 908 883 867 0 0 0 0 0 0 0 0 599 608 628 628 630 633 0 0 0 0
354 354 356 365 375 376 376 376 376 376 378 381 385 386 386 386 386 386 0 0 0 433 445 455 455 455 0 0 0 0 0 0 0 0 0 923 946 969 990 1004 1017 1017 1017 0 0 0 0 0 0 0 0 0 0 0 0 0 0 0 0 0 0 1323 1351 1356 1381 1398 1405 1414 1421 1425 1429 1433 1439 1439 1439 1439 1438 1438 1438 1438 1439 1442 1447 1450 1454 1463 1472 1475 1480 1480 1481 1482 1482 1482 1485 1487 1487 1488 1488 1488 1486 1482 1469 0 0 0 0 0 1240 1236 1235 1230 1230 1230 1233 1239 1241 1241 1241 1231 1231 1231 1238 1243 1244 1245 1247 1247 1247 1246 1246 1245 1244 1233 1215 1214 1213 1211 1205 1195 1190 1186 1186 1186 1186 1185 1184 1180 1178 1178 1172 1164 1163 1155 1155 1155 1166 1166 1169 1166 1169 1173 1199 1222 1225 1237 1255 1262 1274 1287 1287 1287 1283 1283 1283 1292 1297 1297 1297 1295 1291 1286 1282 1256 1256 1256 1258 1260 1260 1260 1258 1249 1249 1249 1252 1260 1260 1263 1272 1275 1278 1284 1290 1296 1298 1303 1304 1304 1304 1301 1297 1294 1293 1292 1292 1292 1287 1279 1257 1231 1203 1179 1165 1156 1148 1140 1135 1133 1131 1130 1129 1127 1127 1125 1124 1122 1121 1119 1115 1110 1105 1093 1075 1052 1042 1035 1035 1035 1034 1034 1031 1031 1031 1031 1031 1033 1033 1033 1032 1030 1030 1030 1033 1035 1040 1043 1052 1061 1067 1071 1075 1076 1078 1079 1079 1079 1079 1079 1078 1077 1076 1075 1074 1073 1072 1071 1070 1068 1067 1065 1064 1062 1061 1058 1056 1053 1051 1048 1042 1035 1025 1024 1020 1014 1009 1006 1004 1004 1004 1003 1001 1000 998 997 996 995 994 994 994 994 994 994 994 995 995 996 998 1000 1003 1006 1009 1011 1011 1012 1013 1013 1013 1013 1013 1013 1012 1012 1011 1010 1006 1001 1001 0 0 0 0 0 0 0 996 996 996 995 992 987 984 979 974 970 968 959 952 950 947 944 941 938 936 936 935 934 932 932 931 931 931 931 931 931 931 931 930 930 930 931 931 931 931 930 928 926 926 926 929 929 0 0 0 0 0 0 0 0 0 0 0 0 0 0 0 0 0 0 0 0 0 0 0 0 0 0 0 0 0 0 0 0 0 0 0 0 0 0 0 906 906 904 898 897 897 897 897 897 897 897 897 897 896 895 894 894 894 895 896 897 897 897 896 895 893 891 891 890 889 887 885 884 884 884 886 887 887 887 885 884 0 0 0 0 0 0 0 0 0 0 0 0 0 0 0 0 0 0 0 0 0 0 0 0 0 0 0 0 0 0 0 0 0 0 0 844 844 833 832 816 803 803 803 813 813 814 819 819 832 858 879 896 911 911 911 911 911 917 921 921 921 896 887 864 835 0 0 0 798 798 799 799 799 783 783 783 790 0 0 0 0 0 1029 1032 1032 1032 1026 1016 999 999 999 998 998 994 994 994 1011 1048 1048 1048 1038 1030 1030 1021 1021 1017 1015 1015 996 996 996 1025 1051 1051 1051 1047 1047 1047 1081 1101 1110 1114 1114 1114 1114 1114 1112 1073 1043 1027 1023 1020 1017 1016 998 981 963 952 933 907 883 0 0 0 0 0 0 0 0 574 591 591 598 606 606 632 632 0 0 0
354 354 356 365 375 377 377 377 375 375 375 380 382 383 383 382 358 358 358 0 0 417 444 456 467 469 0 0 0 0 0 0 0 0 0 0 979 999 1014 1023 1023 1023 0 0 0 0 0 0 0 0 0 0 0 0 0 0 0 0 0 0 0 1337 1361 1365 1389 1398 1407 1415 1421 1426 1429 1433 1433 1433 1433 1433 1433 1434 1436 1436 1439 1442 1446 1450 1456 1464 1472 1475 1481 1482 1482 1482 1483 1483 1485 1487 1487 1487 1487 1486 1486 1482 1472 1461 1447 0 0 0 0 0 1277 1257 1248 1248 1248 1248 1248 1247 1241 1231 1231 1231 1234 1234 1238 1245 1248 1248 1248 1247 1246 1245 1245 1237 1233 1233 1229 1229 1226 1215 1208 1196 1196 1195 1191 1191 1184 1180 1178 1178 1172 1164 1163 1155 1155 1155 1166 1166 1167 1166 1167 1169 1175 1203 1213 1217 1222 1233 1249 1261 1267 1268 1273 1282 1283 1292 1297 1297 1297 1295 1291 1286 1283 1275 1275 1275 1277 1277 1277 1272 1263 1249 1249 1249 1252 1260 1260 1260 1261 1263 1263 1263 1268 1274 1274 1276 1281 1285 1291 1293 1293 1294 1293 1292 1292 1292 1287 1279 1254 1231 1203 1181 1166 1156 1148 1140 1135 1133 1131 1130 1129 1128 1127 1125 1125 1122 1121 1120 1115 1111 1106 1098 1077 1055 1050 1043 1040 1040 1040 1037 1032 1031 1031 1031 1033 1037 1037 1037 1032 1031 1031 1031 1033 1035 1042 1049 1054 1061 1067 1072 1075 1077 1078 1079 1079 1079 1079 1079 1078 1077 1076 1075 1074 1073 1072 1071 1070 1068 1067 1065 1064 1062 1061 1058 1056 1053 1051 1048 1042 1035 1025 1022 1016 1010 1007 1006 1004 1004 1004 1003 1001 1000 998 997 996 996 995 995 995 995 995 995 995 996 996 997 1000 1001 1004 1007 1009 1012 1013 1013 1013 1013 1014 1014 1014 1013 1012 1012 1011 1010 1006 0 0 0 0 0 0 0 0 0 993 993 993 991 987 987 984 979 974 970 968 959 951 949 946 943 941 938 937 936 935 934 933 932 932 931 931 931 931 931 930 930 930 930 930 930 930 930 930 930 928 926 926 926 929 929 0 0 0 0 0 0 0 0 0 0 0 0 0 0 0 0 0 0 0 0 0 0 0 0 0 0 0 0 0 0 0 0 0 0 0 0 0 0 0 909 909 904 898 897 897 896 896 896 896 896 896 895 895 895 894 894 894 896 896 897 897 897 896 895 893 891 891 890 889 887 885 883 883 883 886 886 886 885 884 883 0 0 0 0 0 0 0 0 0 0 0 0 0 0 0 0 0 0 0 0 0 0 0 0 0 0 0 0 0 0 0 0 0 0 0 844 844 831 825 813 799 799 799 814 814 819 819 819 836 859 879 899 911 911 911 911 911 917 921 921 921 911 909 907 901 0 0 0 822 822 807 807 799 772 772 772 790 0 0 0 0 1005 1028 1028 1028 1027 1026 1016 999 997 997 995 992 991 994 994 994 1029 1029 1029 1025 1013 1013 1013 1013 1014 1014 1014 993 993 993 1039 1073 1073 1073 1054 1054 1054 1081 1100 1110 1115 1127 1140 1140 1140 1112 1073 1043 1027 1024 1023 1020 1020 1001 969 952 951 930 906 0 0 0 0 0 0 0 0 0 552 562 565 580 595 606 607 607 0 0 0
359 359 361 366 375 377 377 377 375 375 375 377 378 379 379 378 358 358 0 370 0 0 432 456 469 0 0 0 0 0 0 0 0 0 0 0 1002 1022 1037 1037 1037 0 0 0 0 0 0 0 0 0 0 0 0 0 0 0 0 0 0 1341 1350 1365 1389 1392 1403 1407 1407 1415 1422 1426 1429 1430 1430 1430 1430 1430 1431 1434 1436 1436 1439 1443 1446 1453 1458 1465 1472 1476 1481 1482 1484 1485 1485 1486 1486 1487 1487 1487 1486 1484 1483 1482 1472 1464 1457 1450 0 0 0 0 0 1288 1273 1259 1259 1258 1258 1254 1241 1231 1231 1231 1233 1233 1236 1244 1248 1249 1249 1249 1248 1247 1246 1239 1234 1234 1234 1234 1234 1229 1222 1210 1210 1208 1204 1198 1196 1193 1184 1184 1181 1165 1165 1165 1170 1170 1170 1169 1167 1166 1167 1169 1175 1198 1199 1202 1207 1210 1210 1211 1213 1216 1228 1265 1282 1292 1297 1297 1297 1295 1291 1286 1285 1285 1285 1292 1292 1292 1288 1284 1283 1278 1273 1272 1268 1263 1263 1261 1261 1263 1263 1261 1261 1258 1258 1258 1262 1266 1267 1274 1283 1290 1292 1292 1292 1292 1287 1275 1250 1231 1204 1184 1168 1155 1146 1140 1135 1133 1131 1130 1129 1128 1127 1125 1125 1124 1122 1120 1115 1111 1106 1100 1083 1061 1054 1054 1045 1044 1043 1037 1033 1033 1033 1035 1038 1038 1038 1038 1034 1031 1031 1031 1034 1039 1049 1057 1059 1063 1068 1072 1075 1077 1079 1080 1080 1080 1079 1079 1078 1077 1076 1075 1074 1073 1072 1071 1070 1068 1067 1065 1064 1062 1060 1058 1056 1053 1051 1048 1042 1035 1023 1022 1016 1010 1007 1006 1004 1004 1004 1003 1001 1000 998 997 996 996 995 995 995 995 996 996 997 997 997 999 1001 1002 1004 1008 1011 1012 1013 1013 1013 1013 1014 1014 1014 1013 1012 1012 1011 1008 1006 0 0 0 0 0 0 0 0 0 989 989 989 989 987 987 984 979 974 970 968 959 951 946 944 942 940 938 937 936 935 934 933 933 932 932 932 931 931 931 930 930 930 929 929 929 930 930 930 930 928 928 928 928 930 930 0 0 0 0 0 0 0 0 0 0 0 0 0 0 0 0 0 0 0 0 0 0 0 0 0 0 0 0 0 0 0 0 0 0 0 0 0 0 0 911 911 901 899 898 897 896 896 896 896 896 896 895 895 895 894 894 894 896 896 896 896 896 896 894 893 891 891 890 889 886 885 883 883 883 884 884 884 884 881 881 0 0 0 0 0 0 0 0 0 0 0 0 0 0 0 0 0 0 0 0 0 0 0 0 0 0 0 0 0 0 0 0 0 0 0 848 844 825 805 799 797 797 797 814 826 831 841 845 860 871 888 904 911 911 911 911 911 922 922 922 921 916 909 907 903 901 0 0 857 850 832 823 799 770 770 770 0 0 0 0 977 1005 1024 1024 1025 1025 1024 1016 999 997 997 997 993 993 993 993 993 1005 1012 1012 1012 1001 1001 1001 1007 1008 1008 1007 990 990 990 0 1078 1078 1078 1054 1054 1054 1074 1086 1099 1115 1133 1140 1140 1140 0 0 1023 1020 1020 1023 1023 1020 1000 953 936 922 0 0 0 0 0 0 0 0 0 0 0 549 554 563 576 576 576 572 0 0 0 0
365 365 366 366 375 377 378 379 379 377 379 380 378 379 379 378 358 358 0 370 389 410 0 0 0 0 0 0 0 0 0 0 0 0 0 0 1014 1038 1042 1042 1042 0 0 0 0 0 0 0 0 0 0 0 0 1245 1258 1286 1302 1317 1343 1361 1372 1391 1410 1411 1425 1428 1428 1428 1428 1428 1428 1429 1429 1430 1430 1430 1431 1434 1436 1436 1439 1443 1447 1456 1463 1467 1474 1477 1481 1482 1484 1485 1488 1489 1489 1489 1488 1487 1486 1484 1483 1478 1472 1464 1460 1451 1441 1434 0 0 0 0 0 0 1269 1266 1264 1259 1246 1238 1233 1232 1232 1232 1234 1239 1247 1252 1253 1253 1253 1252 1251 1242 1238 1238 1238 1240 1240 1240 1240 1239 1238 1238 1227 1221 1221 1220 1220 1219 1209 1200 1199 1199 1194 1189 1186 1183 1176 1169 1169 1169 1175 1198 1199 1202 1207 1210 1210 1211 1212 1212 1214 1229 1243 1266 1281 1283 1284 1283 1283 1283 1283 1283 1285 1292 1293 1293 1292 1292 1292 1291 1290 1290 1289 1289 1286 1285 1279 1263 1263 1261 1261 1258 1256 1256 1256 1258 1260 1260 1260 1269 1281 1290 1290 1290 1283 1270 1250 1235 1213 1185 1168 1153 1144 1140 1136 1133 1131 1130 1129 1129 1127 1126 1125 1124 1123 1121 1118 1113 1110 1103 1088 1066 1061 1055 1048 1047 1044 1040 1037 1037 1037 1039 1041 1041 1041 1039 1035 1035 1035 1035 1040 1045 1053 1061 1062 1065 1070 1073 1076 1078 1079 1079 1079 1079 1078 1078 1077 1077 1076 1074 1073 1072 1072 1070 1070 1068 1067 1065 1064 1062 1060 1059 1056 1053 1051 1048 1043 1036 1023 1022 1016 1010 1007 1006 1006 1006 1006 1004 1002 1000 999 997 996 996 996 997 997 998 998 998 998 998 998 999 1002 1002 1004 1008 1012 1012 1013 1013 1013 1013 1014 1014 1014 1013 1012 1012 1011 1008 1006 1006 1005 0 0 0 0 0 0 0 993 989 989 989 987 987 985 982 976 970 967 959 951 946 943 941 940 938 938 936 935 934 933 933 932 932 932 932 931 931 930 930 930 929 929 929 929 930 931 931 931 928 928 928 934 934 0 0 0 0 0 0 0 0 0 0 0 0 0 0 0 0 0 0 0 0 0 0 0 0 0 0 0 0 0 0 0 0 0 0 0 0 0 0 0 908 908 902 901 900 899 896 896 896 896 896 896 895 895 895 895 895 895 896 896 896 896 896 896 894 893 891 890 889 888 886 885 884 882 882 881 880 880 880 880 880 0 0 0 0 0 0 0 0 0 0 0 0 0 0 0 0 0 0 0 0 0 0 0 0 0 0 0 0 0 0 0 0 0 0 851 851 845 801 800 799 797 797 797 813 826 832 852 862 863 871 888 904 910 910 910 911 911 924 928 928 928 917 910 908 907 901 901 0 860 857 849 826 799 770 770 770 0 0 0 0 987 1005 1012 1015 1017 1018 1028 1028 1028 1000 1000 1000 1008 1008 1008 1005 1005 1005 1012 1012 1012 1000 994 991 991 991 989 989 990 990 990 0 1078 1078 1078 1056 1056 1056 1074 1086 1098 1109 1133 1140 1140 0 0 0 1011 1011 1019 1023 1023 1019 998 946 914 904 0 0 0 0 0 0 0 0 0 0 0 0 539 549 549 570 570 0 0 0 0 0
365 365 366 366 369 373 376 377 377 377 379 379 377 378 378 378 377 377 377 377 389 410 432 450 0 0 0 0 0 0 0 0 0 0 0 0 0 1038 1042 1042 0 0 0 0 0 0 0 0 0 0 0 1244 1260 1272 1285 1299 1315 1330 1350 1361 1376 1391 1410 1411 1425 1428 1428 1428 1428 1428 1428 1429 1429 1429 1430 1430 1433 1435 1437 1438 1442 1448 1453 1461 1467 1472 1474 1477 1480 1482 1484 1486 1489 1490 1490 1490 1489 1488 1487 1484 1483 1478 1472 1466 1462 1460 1460 1458 1458 0 0 0 0 0 0 0 1271 1262 1252 1241 1237 1234 1233 1233 1233 1236 1246 1252 1253 1253 1253 1252 1251 1246 1246 1246 1248 1250 1250 1251 1251 1251 1249 1245 1244 1243 1243 1239 1238 1237 1231 1224 1224 1223 1217 1215 1205 1192 1191 1191 1191 1194 1196 1198 1199 1202 1207 1210 1210 1211 1212 1212 1214 1218 1225 1228 1235 1238 1240 1268 1277 1278 1278 1281 1285 1292 1293 1293 1292 1292 1292 1291 1290 1290 1289 1289 1289 1288 1287 1285 1274 1266 1263 1258 1256 1256 1256 1256 1256 1256 1256 1256 1259 1272 1279 1279 1279 1267 1249 1235 1213 1185 1168 1153 1144 1139 1136 1133 1132 1131 1130 1129 1128 1126 1125 1125 1123 1121 1119 1114 1111 1103 1089 1075 1063 1057 1053 1053 1051 1049 1044 1044 1044 1045 1046 1046 1046 1042 1042 1042 1042 1043 1046 1049 1055 1062 1065 1068 1072 1075 1077 1079 1079 1079 1079 1079 1078 1078 1077 1076 1075 1074 1073 1071 1070 1069 1068 1067 1066 1064 1063 1062 1060 1059 1056 1053 1051 1048 1042 1035 1024 1023 1019 1015 1010 1008 1007 1007 1006 1005 1004 1002 1001 999 998 998 998 998 999 1000 1000 1000 1000 1000 1000 1000 1003 1003 1005 1010 1012 1012 1013 1013 1013 1013 1013 1013 1013 1012 1012 1011 1010 1007 1006 1006 1005 1005 1002 997 995 995 994 994 993 989 989 989 987 987 985 982 977 973 967 959 951 946 943 941 940 938 938 937 936 935 934 934 933 933 932 932 931 931 931 930 930 929 929 929 929 930 931 931 931 928 928 928 935 935 0 0 0 0 0 0 0 0 0 0 0 0 0 0 0 0 0 0 0 0 0 0 0 0 0 0 0 0 0 0 0 0 0 0 0 0 0 0 0 906 906 903 903 900 900 899 898 897 897 896 896 896 895 895 895 895 895 896 896 896 895 894 894 893 892 891 890 889 887 886 885 884 884 882 881 878 878 878 880 880 0 0 0 0 0 0 0 0 0 0 0 0 0 0 0 0 0 0 0 0 0 0 0 0 0 0 0 0 0 0 0 0 0 0 857 857 845 800 797 796 796 796 796 809 826 832 852 862 865 871 888 903 903 903 903 903 903 932 935 935 935 918 915 914 914 910 910 0 865 858 855 828 802 772 772 772 0 0 0 0 994 1005 1012 1015 1017 1018 1035 1035 1035 1028 1028 1028 1020 1020 1011 1005 1005 1005 1012 1012 1012 1000 994 991 991 991 983 983 990 990 990 0 1078 1078 1078 1056 1056 1056 1074 1086 1098 1109 1133 1133 1133 0 0 0 1006 1006 1015 1018 1018 1015 993 946 914 0 0 0 0 0 0 0 0 0 0 0 0 0 0 0 0 0 0 0 0 0 0 0
365 365 360 365 365 365 372 377 377 377 377 377 377 378 379 379 380 385 392 395 405 421 435 450 464 0 0 0 0 0 0 0 0 0 0 0 0 0 0 0 0 0 0 0 0 0 0 0 0 0 1236 1259 1266 1276 1290 1306 1322 1339 1350 1361 1376 1391 1410 1411 1425 1428 1428 1428 1428 1428 1428 1429 1429 1429 1430 1433 1437 1440 1442 1443 1448 1453 1459 1464 1470 1474 1476 1478 1480 1482 1485 1488 1490 1492 1492 1492 1491 1491 1490 1488 1483 1478 1472 1466 1466 1466 1475 1476 1476 1476 0 0 0 0 0 0 0 0 1255 1243 1239 1236 1234 1233 1233 1234 1240 1252 1253 1253 1253 1252 1251 1246 1246 1246 1248 1250 1250 1252 1252 1252 1249 1248 1248 1248 1250 1250 1250 1249 1246 1243 1243 1242 1242 1242 1231 1223 1216 1216 1216 1232 1234 1234 1234 1227 1223 1217 1212 1212 1212 1212 1214 1218 1221 1223 1228 1238 1240 1249 1260 1268 1274 1275 1275 1279 1280 1290 1292 1292 1292 1291 1290 1290 1289 1289 1289 1288 1288 1287 1285 1284 1284 1284 1274 1261 1257 1256 1256 1256 1253 1250 1250 1250 1253 1260 1260 1260 1247 1235 1213 1185 1168 1152 1144 1139 1136 1134 1132 1132 1131 1129 1128 1127 1126 1125 1123 1122 1120 1116 1111 1106 1095 1085 1071 1063 1061 1060 1060 1060 1060 1055 1054 1054 1054 1055 1055 1055 1051 1047 1047 1047 1047 1052 1056 1062 1066 1070 1073 1075 1078 1079 1079 1079 1079 1079 1078 1077 1077 1076 1075 1074 1072 1070 1069 1069 1067 1066 1065 1063 1062 1061 1060 1059 1055 1052 1050 1049 1042 1034 1025 1024 1019 1016 1012 1009 1008 1007 1006 1005 1005 1004 1002 1000 999 999 999 999 1000 1002 1002 1002 1002 1001 1001 1001 1004 1005 1007 1010 1012 1012 1013 1013 1013 1013 1013 1013 1013 1012 1012 1010 1008 1006 1006 1006 1005 1005 1002 998 996 996 996 996 996 990 990 989 988 987 985 982 977 973 967 961 954 948 943 941 940 938 938 938 937 936 936 935 935 934 934 933 933 932 931 931 930 929 929 929 929 930 931 931 931 928 928 928 935 935 0 0 0 0 0 0 0 0 0 0 0 0 0 0 0 0 0 0 0 0 0 0 0 0 0 0 0 0 0 0 0 0 0 0 0 0 0 0 0 903 907 903 903 900 900 899 899 897 897 897 896 896 895 895 895 895 895 895 895 895 895 894 893 893 892 891 890 888 887 886 885 884 884 884 881 878 878 878 880 880 0 0 0 0 0 0 0 0 0 0 0 0 0 0 0 0 0 0 0 0 0 0 0 0 0 0 0 0 0 0 0 0 0 0 854 854 845 800 793 792 792 793 795 805 815 832 852 852 867 891 903 910 910 903 903 922 964 964 965 965 964 960 939 929 926 918 912 0 0 868 857 836 809 782 782 0 0 0 0 985 994 1005 1012 1015 1017 1018 1042 1042 1042 1036 1036 1036 1057 1057 1057 1050 1050 1046 1042 1042 1022 1003 995 991 991 991 983 984 993 993 998 1040 1061 1061 1061 1056 1056 1056 1081 1089 1091 1105 1105 1105 1097 0 0 0 993 993 993 1011 1011 1011 987 946 914 904 0 0 0 0 0 0 0 0 0 0 0 0 0 0 0 0 0 0 0 0 0 0
365 365 360 365 365 365 370 375 376 376 376 376 376 377 378 380 380 387 393 395 405 421 435 449 458 0 0 0 0 0 0 0 0 0 0 0 0 0 0 0 0 0 0 0 0 0 0 0 0 0 1252 1265 1274 1282 1295 1308 1322 1340 1351 1360 1376 1389 1398 1405 1408 1412 1417 1423 1424 1424 1426 1429 1430 1431 1433 1437 1441 1444 1445 1446 1451 1456 1462 1469 1474 1475 1476 1479 1480 1484 1487 1491 1493 1493 1493 1493 1493 1493 1493 1492 1491 1486 1480 1479 1479 1479 1485 1494 1494 1494 1493 1491 0 0 0 0 0 0 0 0 1243 1237 1233 1233 1233 1233 1240 1249 1249 1249 1247 1246 1246 1246 1246 1246 1248 1250 1250 1252 1252 1252 1249 1248 1248 1248 1251 1253 1254 1255 1255 1258 1260 1260 1260 1255 1251 1248 1247 1247 1247 1252 1256 1256 1256 1250 1247 1243 1240 1238 1235 1229 1221 1221 1221 1223 1228 1238 1240 1249 1260 1261 1260 1254 1254 1254 1254 1255 1266 1268 1276 1277 1279 1280 1286 1287 1288 1288 1288 1287 1288 1291 1296 1296 1296 1294 1278 1261 1257 1256 1253 1250 1248 1248 1248 1247 1244 1241 1238 1229 1202 1185 1167 1152 1143 1139 1136 1134 1133 1132 1131 1129 1128 1127 1126 1125 1124 1122 1121 1120 1116 1111 1102 1087 1080 1075 1068 1067 1067 1063 1063 1063 1063 1063 1062 1062 1062 1061 1058 1054 1048 1048 1048 1056 1060 1064 1067 1070 1074 1076 1078 1079 1079 1079 1079 1078 1078 1076 1075 1075 1073 1072 1071 1070 1069 1068 1067 1065 1063 1062 1062 1060 1060 1058 1054 1052 1050 1048 1042 1034 1027 1024 1020 1016 1013 1010 1009 1008 1007 1006 1006 1005 1003 1002 1001 1001 1001 1001 1002 1003 1003 1003 1003 1003 1003 1003 1005 1007 1008 1010 1012 1012 1013 1013 1013 1013 1013 1013 1013 1012 1011 1010 1008 1006 1006 1006 1005 1004 1002 999 997 997 997 996 996 996 994 991 990 987 984 981 977 974 968 962 956 950 945 942 940 940 939 939 938 937 937 936 936 936 934 934 933 932 931 931 930 929 929 929 929 929 929 929 929 928 928 928 935 935 0 0 0 0 0 0 0 0 0 0 0 0 0 0 0 0 0 0 0 0 0 0 0 0 0 0 0 0 0 0 0 0 0 0 0 0 0 0 0 906 907 906 904 904 900 899 899 898 897 897 896 896 895 895 895 895 895 895 895 895 895 894 893 892 892 890 889 888 887 886 885 884 884 884 881 878 878 878 881 0 0 0 0 0 0 0 0 0 0 0 0 0 0 0 0 0 0 0 0 0 0 0 0 0 0 0 0 0 0 0 0 0 0 0 854 854 845 816 796 785 785 785 792 795 801 815 837 852 867 891 903 910 911 911 922 923 969 969 969 969 969 965 965 967 961 960 958 0 0 0 0 0 0 0 0 0 0 0 0 1011 1015 1018 1020 1020 1020 1037 1045 1045 1045 1041 1041 1041 1059 1062 1062 1064 1063 1062 1059 1042 1022 1015 1015 1013 1013 1013 999 993 993 993 999 1029 1030 1034 1034 1040 1041 1061 1086 1086 1089 1089 1082 1077 1058 1054 0 0 0 993 993 1006 1006 1006 986 961 950 948 925 0 0 0 0 0 0 0 0 0 0 0 0 0 0 0 0 0 0 0 0 0
365 365 360 365 365 365 370 374 376 376 376 375 375 375 379 380 384 388 395 399 405 421 435 442 451 463 0 0 0 0 0 0 0 0 0 0 0 0 0 0 0 0 0 0 0 0 0 0 0 1262 1274 1281 1285 1289 1298 1309 1325 1344 1351 1360 1376 1386 1391 1392 1396 1397 1403 1408 1416 1420 1423 1426 1430 1433 1437 1442 1444 1447 1448 1449 1453 1458 1464 1470 1474 1476 1477 1480 1482 1486 1490 1492 1493 1494 1494 1494 1494 1494 1494 1493 1493 1490 1486 1486 1486 1488 1492 1496 1505 1505 1506 1506 1506 1506 1502 1490 0 0 0 0 0 1243 1232 1232 1232 1233 1239 1243 1243 1243 1236 1236 1236 1236 1236 1231 1231 1231 1248 1251 1251 1251 1248 1248 1248 1248 1251 1253 1254 1255 1255 1258 1260 1266 1266 1266 1267 1266 1266 1259 1259 1259 1260 1261 1261 1261 1255 1255 1254 1251 1249 1229 1227 1225 1225 1227 1228 1241 1254 1254 1260 1261 1260 1254 1254 1254 1254 1253 1255 1256 1260 1260 1260 1260 1260 1260 1262 1262 1269 1283 1284 1291 1296 1301 1301 1301 1301 1300 1287 1265 1254 1250 1248 1248 1247 1244 1221 1217 1212 1203 1189 1177 1161 1151 1143 1138 1135 1134 1133 1133 1131 1130 1129 1127 1127 1126 1125 1122 1121 1121 1119 1116 1114 1100 1091 1088 1080 1080 1080 1083 1083 1083 1073 1069 1067 1065 1065 1065 1063 1062 1059 1059 1059 1065 1065 1068 1068 1071 1076 1077 1078 1078 1078 1078 1077 1076 1076 1075 1074 1072 1071 1070 1069 1068 1068 1068 1066 1065 1063 1062 1061 1059 1059 1056 1054 1052 1050 1048 1042 1036 1029 1025 1021 1017 1014 1012 1012 1010 1009 1009 1007 1006 1005 1004 1003 1003 1003 1003 1003 1005 1005 1005 1004 1004 1004 1004 1008 1009 1010 1010 1012 1012 1013 1013 1013 1013 1013 1013 1012 1011 1010 1009 1008 1007 1006 1006 1005 1004 1002 1002 999 999 998 998 998 997 995 993 991 988 984 981 977 974 970 966 959 953 948 944 943 942 940 940 938 938 938 937 937 936 936 935 934 933 932 931 930 929 929 928 927 927 927 927 926 926 926 928 936 0 0 0 0 0 0 0 0 0 0 0 0 0 0 0 0 0 0 0 0 0 0 0 0 0 0 0 0 0 0 0 0 0 0 0 0 0 0 0 0 907 907 906 904 904 899 899 898 898 897 897 896 896 895 895 895 895 895 895 895 895 894 894 893 892 891 890 889 888 886 886 884 884 884 884 881 879 879 879 877 0 0 0 0 0 0 0 0 0 0 0 0 0 0 0 0 0 0 0 0 0 0 0 0 0 0 0 0 0 0 0 0 0 0 0 847 847 846 828 800 785 783 779 779 783 796 815 837 852 867 891 910 916 918 925 926 949 971 975 975 975 975 976 976 976 979 979 972 0 0 0 0 0 0 0 0 0 0 0 0 1030 1030 1030 1020 1020 1020 1037 1044 1044 1045 1048 1048 1049 1064 1065 1065 1069 1066 1065 1065 1042 1022 1022 1018 1013 1013 1013 1007 993 993 993 1008 1029 1030 1034 1034 1040 1041 1063 1088 1088 1088 1073 1058 1054 1053 1053 1043 0 0 0 0 0 1006 1006 984 961 950 948 939 0 0 0 0 0 0 0 0 0 0 0 0 0 0 0 0 0 0 0 0 0
365 365 366 367 368 369 370 374 376 376 376 375 375 375 380 381 389 397 400 403 405 407 417 429 440 452 460 470 483 0 0 0 0 0 0 0 0 0 0 0 0 0 0 0 0 0 0 0 1245 1271 1283 1289 1294 1297 1305 1318 1335 1344 1351 1360 1376 1386 1391 1392 1396 1397 1403 1408 1416 1417 1421 1426 1430 1434 1441 1444 1447 1449 1451 1453 1457 1461 1466 1471 1474 1477 1480 1482 1486 1488 1491 1493 1495 1495 1496 1496 1496 1496 1496 1496 1496 1493 1490 1490 1490 1492 1494 1501 1508 1509 1511 1511 1513 1513 1513 1507 1499 0 0 0 0 1247 1234 1233 1233 1234 1238 1238 1238 1235 1231 1231 1231 1231 1231 1229 1229 1229 1240 1245 1245 1245 1245 1245 1246 1248 1251 1253 1254 1255 1255 1258 1260 1266 1269 1270 1271 1272 1271 1271 1267 1265 1264 1264 1264 1264 1264 1263 1263 1263 1254 1243 1243 1243 1260 1262 1264 1268 1274 1276 1276 1276 1267 1261 1254 1254 1254 1253 1255 1256 1260 1260 1260 1260 1256 1252 1250 1246 1246 1246 1260 1274 1296 1301 1301 1301 1301 1300 1295 1290 1286 1280 1270 1259 1247 1244 1221 1217 1209 1194 1180 1162 1155 1146 1141 1138 1135 1134 1133 1133 1131 1130 1129 1128 1127 1126 1125 1124 1122 1121 1119 1117 1114 1108 1100 1099 1096 1096 1096 1096 1096 1089 1083 1079 1076 1074 1073 1071 1068 1068 1067 1067 1067 1068 1068 1069 1069 1075 1077 1079 1079 1079 1078 1077 1077 1074 1073 1073 1072 1071 1070 1068 1068 1068 1067 1067 1066 1064 1062 1061 1060 1059 1058 1056 1054 1052 1050 1048 1042 1036 1031 1027 1023 1019 1016 1015 1014 1013 1013 1010 1009 1008 1007 1007 1006 1006 1005 1005 1005 1005 1005 1005 1005 1005 1005 1005 1008 1009 1010 1012 1013 1013 1013 1013 1014 1014 1014 1013 1012 1011 1010 1009 1007 1007 1006 1006 1004 1004 1002 1002 1001 999 999 999 998 997 995 993 991 988 984 981 977 974 970 966 960 953 949 947 945 944 943 941 939 938 938 938 938 937 937 935 934 933 932 931 930 929 929 928 927 927 927 926 926 926 926 931 931 0 0 0 0 0 0 0 0 0 0 0 0 0 0 0 0 0 0 0 0 0 0 0 0 0 0 0 0 0 0 0 0 0 0 0 0 0 0 0 907 907 907 906 905 903 899 898 898 898 897 897 896 896 895 895 894 894 894 894 894 894 894 894 893 892 891 890 888 887 886 885 884 884 883 883 881 880 880 880 880 0 0 0 0 0 0 0 0 0 0 0 0 0 0 0 0 0 0 0 0 0 0 0 0 0 0 0 0 0 0 0 0 0 0 0 847 847 847 841 800 785 776 776 776 778 796 815 837 863 896 932 933 934 934 949 949 949 971 975 975 975 975 976 976 976 981 981 985 991 991 991 983 0 0 0 0 0 0 0 0 1032 1032 1032 1026 1026 1026 1037 1042 1042 1045 1045 1049 1049 1067 1075 1075 1075 1075 1072 1066 1037 1030 1023 1023 1021 1021 1021 1018 1018 1018 1032 1032 1032 1040 1034 1034 1040 1045 1070 1087 1087 1087 1053 1053 1053 1058 1059 1076 1086 0 0 0 0 1041 1006 984 967 957 948 939 0 0 0 0 775 773 771 0 0 0 0 0 0 0 0 0 0 0 0 0 0
