851 851 853 869 881 889 899 903 903 908 916 928 947 966 982 987 1002 1018 1031 1039 1043 1053 1067 1081 1097 1118 1138 1157 1175 1181 1212 1228 1240 1250 1268 1287 1302 1312 1321 1330 1341 1350 1361 1370 1376 1380 1383 1386 1391 1395 1398 1400 1402 1405 1409 1413 1417 1420 1424 1427 1430 1434 1437 1440 1441 1444 1446 1449 1450 1452 1456 1460 1464 1467 1470 1471 1473 1474 1476 1478 1479 1482 1485 1487 1489 1491 1493 1495 1497 1499 1500 1502 1504 1507 1508 1511 1512 1515 1517 1520 1522 1525 1527 1530 1533 1536 1538 1541 1544 1546 1548 1550 1552 1554 1555 1557 1559 1562 1565 1567 1568 1569 1572 1572 1575 1576 1577 1579 1580 1581 1582 1583 1584 1585 1585 1585 1585 1585 1585 1585 1585 1585 1582 1581 1580 1578 1574 1570 1564 1555 0 0 0 0 0 1304 1248 1229 1229 1227 1227 1229 1230 1236 1244 1253 1257 1261 1268 1268 1268 1267 1257 1253 1236 1198 0 0 1065 1042 1026 1017 1016 1016 1016 1015 1015 1015 1014 1014 1014 1014 1014 1014 1013 1013 1013 1013 1013 1014 1014 1014 1014 1015 1015 1015 1015 1016 1016 1016 1016 1016 1016 1016 1015 1015 1015 1016 1016 1016 1017 1017 1017 1017 1017 1017 0 0 0 0 0 0 1028 1029 1030 1033 1033 1033 1032 1032 1032 1033 1033 1033 1034 1034 1033 1033 1033 1032 1032 1032 1031 1031 1031 1031 1030 1029 1028 1028 1028 1028 1028 1027 1023 1023 1023 1023 1027 1028 1030 1030 1031 1033 1034 1036 1037 1038 1038 1040 1040 1040 1041 1045 1048 1048 1048 1048 1048 1048 1050 1051 1051 1051 1052 1052 1052 1052 1052 1052 1052 1051 1051 1050 1049 1048 1047 1046 1045 1044 1041 1040 1039 1036 1035 1034 1034 1034 1034 1034 1035 1036 1036 1036 1036 1036 1037 1039 1044 1045 1045 1046 1046 1047 1049 1053 1054 1054 1054 1056 1057 1058 1058 1059 1060 1060 1060 1059 1058 1057 1053 1050 1050 1049 1046 1038 1034 1033 1031 1029 1026 1023 1022 1022 1021 1021 1021 1019 1016 1016 1016 1016 1016 1016 1016 1016 1019 1022 1025 1028 1030 1031 1035 1036 1040 1041 1043 1047 1047 1053 1065 1069 1070 1072 1075 1075 1075 1075 1075 1074 1067 1059 1056 1051 1045 1037 1034 1032 1032 1031 1029 1029 1024 1024 1024 1025 1025 1027 1029 1030 1032 1033 1033 1033 1029 1029 1029 1031 1041 1048 1060 1077 1084 1085 1085 1087 1090 1092 1093 1095 1095 1096 1096 1096 1097 1098 1098 1099 1099 1099 1099 1098 1098 1098 1098 1098 1098 1096 1095 1095 1094 1094 1092 1088 1083 1082 1081 1080 1074 1074 1074 1079 1090 1097 1101 1104 1105 1106 1106 1107 1107 1109 1110 1111 1112 1112 1113 1114 1114 1115 1116 1116 1117 1117 1118 1118 1118 1118 1118 1118 1118 1118 1117 1116 1114 1112 1110 1108 1105 1103 1102 1092 1075 1071 1065 1063 1063 1063 1063 1063 1071 1078 1087 1095 1102 1109 1116 1116 1118 1120 1120 1122 1124 1126 1127 1128 1128 1128 1128 1128 1128 1128 1128 1128 1126 1125 1125 1124 1123 1117 1108 1092 1069 1059 1053 1049 1047 1044 1042 1039 1033 1025 1018 1018 1018 1026 1032 1032 1032 1031 1026 1026 1026 1026 1025 1027 1028 1035 1036 1037 0 1072 1118 1131 1137 1141 1144 1148 1151 1153 1153 1153 1153 1153 1153 1154 1155 1155 1155 1155 1155 1155 1155 1155 1155 1155 1156 1156 1156 1155 1155 1153 1151 1150 1148 1145 1145 1145 1147 1149 1149 1149 1146 1138 1136 1136 1134 0 0 0 0 0 0 0 0 0 0 0 0 0
863 863 864 873 882 890 899 900 902 907 915 926 947 966 981 987 1003 1021 1033 1042 1046 1053 1067 1081 1104 1119 1139 1157 1179 1184 1214 1230 1241 1251 1268 1287 1304 1315 1323 1333 1342 1353 1363 1370 1377 1380 1384 1386 1390 1395 1398 1400 1402 1405 1409 1413 1417 1420 1423 1426 1430 1434 1437 1440 1441 1444 1446 1448 1450 1452 1455 1459 1464 1466 1470 1471 1472 1474 1475 1477 1479 1482 1485 1487 1489 1491 1493 1494 1496 1498 1500 1502 1504 1506 1508 1510 1512 1514 1517 1520 1522 1525 1527 1530 1533 1536 1538 1540 1543 1546 1547 1550 1552 1553 1555 1557 1559 1562 1564 1567 1568 1569 1570 1572 1573 1575 1575 1577 1578 1579 1581 1582 1583 1584 1585 1585 1585 1585 1585 1585 1585 1585 1582 1582 1581 1580 1577 1575 1571 1565 1562 1558 1552 0 0 0 0 0 0 0 0 1229 1230 1236 1242 1245 1249 1255 1265 1269 1269 1269 1267 1249 0 0 0 1084 1051 1033 1022 1018 1017 1017 1016 1016 1016 1016 1016 1015 1015 1015 1015 1015 1014 1014 1014 1014 1014 1014 1014 1015 1015 1016 1016 1016 1016 1016 1017 1017 1017 1017 1017 1017 1016 1016 1016 1017 1019 1022 1022 1022 1021 1019 1019 1018 0 0 0 1029 1029 1029 1029 1029 1030 1033 1033 1033 1033 1033 1033 1034 1034 1034 1034 1034 1034 1034 1034 1033 1033 1033 1033 1033 1033 1032 1032 1031 1029 1029 1029 1029 1028 1028 1023 1023 1023 1023 1027 1028 1030 1030 1031 1032 1033 1035 1037 1038 1040 1040 1040 1040 1042 1047 1048 1048 1048 1048 1048 1048 1050 1051 1052 1052 1052 1052 1052 1052 1052 1052 1052 1051 1051 1050 1049 1048 1047 1045 1043 1042 1040 1039 1037 1035 1033 1033 1033 1033 1033 1034 1035 1035 1036 1036 1036 1036 1036 1038 1040 1040 1041 1042 1043 1043 1047 1052 1053 1053 1054 1054 1056 1057 1058 1059 1059 1059 1059 1059 1058 1057 1053 1048 1048 1047 1039 1034 1033 1033 1031 1028 1026 1023 1022 1022 1021 1021 1021 1017 1014 1014 1014 1017 1017 1017 1018 1018 1019 1022 1026 1028 1030 1031 1035 1039 1040 1041 1043 1047 1047 1053 1067 1070 1074 1077 1078 1078 1078 1078 1078 1078 1073 1068 1066 1063 1058 1052 1041 1033 1032 1031 1031 1029 1029 1029 1029 1029 1030 1031 1032 1033 1034 1036 1036 1036 1033 1033 1033 1034 1044 1055 1067 1081 1086 1087 1089 1092 1093 1094 1095 1096 1097 1097 1098 1098 1099 1099 1099 1100 1100 1101 1101 1101 1101 1100 1100 1100 1099 1099 1099 1099 1098 1097 1095 1095 1094 1090 1086 1084 1080 1080 1080 1090 1098 1099 1101 1104 1105 1106 1107 1108 1109 1110 1112 1112 1113 1114 1115 1115 1116 1116 1117 1117 1117 1118 1119 1119 1119 1119 1119 1119 1118 1118 1117 1116 1114 1112 1110 1108 1105 1098 1092 1084 1075 1067 1065 1063 1063 1063 1062 1059 1059 1059 1069 1084 1094 1099 1108 1114 1117 1120 1121 1123 1124 1125 1127 1127 1128 1128 1128 1128 1128 1128 1128 1128 1126 1125 1125 1123 1118 1106 1091 1075 1058 1057 1053 1051 1049 1047 1042 1039 1033 1025 1018 1018 1018 1024 1029 1029 1029 1025 1025 1025 1025 1025 1025 1028 1028 1028 1029 1035 1037 0 1118 1133 1138 1141 1146 1149 1152 1154 1155 1155 1155 1155 1155 1156 1156 1157 1157 1156 1156 1156 1156 1156 1156 1156 1157 1157 1157 1156 1155 1153 1152 1151 1148 1146 1146 1146 1147 1150 1151 1151 1151 1147 1143 1143 1143 1142 1134 0 0 0 0 0 0 0 0 0 0 0
863 863 864 873 882 890 899 900 902 907 915 926 947 965 983 988 1004 1021 1033 1045 1050 1055 1069 1092 1108 1124 1142 1163 1179 1185 1217 1230 1241 1253 1268 1287 1305 1319 1328 1336 1344 1354 1363 1370 1377 1380 1384 1387 1390 1395 1398 1400 1402 1405 1409 1413 1417 1420 1423 1426 1430 1434 1437 1440 1441 1444 1446 1448 1450 1452 1455 1459 1464 1466 1468 1471 1472 1474 1475 1477 1479 1482 1484 1487 1489 1490 1492 1493 1496 1497 1499 1502 1504 1506 1508 1510 1512 1513 1517 1520 1522 1525 1527 1530 1532 1535 1538 1540 1543 1545 1547 1549 1551 1553 1555 1557 1559 1561 1563 1565 1567 1569 1569 1571 1573 1573 1575 1575 1577 1578 1580 1581 1582 1583 1583 1584 1585 1585 1585 1585 1585 1585 1584 1583 1583 1581 1578 1576 1576 1573 1571 1569 1564 1560 0 0 0 0 0 0 0 0 1230 1236 1242 1245 1249 1253 1255 1269 1269 1269 1267 1238 0 0 0 1080 1048 1031 1022 1018 1018 1018 1018 1018 1017 1017 1016 1016 1016 1016 1016 1015 1015 1015 1016 1016 1016 1016 1016 1016 1016 1016 1016 1016 1017 1017 1017 1018 1018 1018 1017 1017 1017 1017 1017 1018 1021 1023 1023 1023 1023 1022 1022 1022 0 0 0 1029 1029 1029 1029 1029 1030 1035 1035 1035 1035 1035 1035 1035 1035 1035 1035 1035 1035 1035 1034 1034 1034 1034 1034 1034 1034 1034 1033 1032 1031 1030 1030 1030 1030 1029 1026 1023 1023 1023 1027 1028 1028 1029 1031 1032 1033 1034 1036 1039 1041 1041 1041 1042 1042 1045 1048 1048 1048 1048 1048 1049 1050 1051 1052 1052 1052 1052 1052 1052 1052 1052 1052 1051 1050 1050 1049 1048 1046 1044 1043 1042 1038 1038 1035 1034 1033 1033 1033 1033 1033 1033 1033 1035 1036 1036 1036 1036 1036 1036 1036 1038 1039 1039 1039 1040 1045 1048 1048 1049 1050 1052 1055 1056 1058 1059 1059 1059 1059 1059 1059 1057 1053 1048 1047 1038 1034 1033 1033 1033 1031 1028 1026 1023 1022 1022 1022 1021 1020 1017 1014 1014 1014 1017 1017 1018 1019 1019 1021 1024 1027 1028 1029 1032 1035 1039 1041 1042 1043 1047 1047 1054 1069 1072 1074 1077 1078 1080 1080 1080 1080 1080 1080 1075 1073 1070 1070 1066 1053 1041 1033 1033 1033 1032 1033 1033 1033 1033 1033 1034 1035 1035 1035 1036 1037 1037 1037 1037 1037 1049 1061 1067 1074 1082 1087 1087 1089 1092 1094 1095 1096 1097 1098 1098 1099 1099 1099 1100 1101 1102 1102 1102 1102 1102 1102 1102 1102 1102 1101 1101 1100 1100 1099 1099 1097 1095 1095 1094 1089 1085 1085 1085 1089 1095 1099 1100 1101 1105 1106 1107 1107 1109 1110 1111 1113 1114 1114 1116 1116 1116 1117 1117 1118 1118 1119 1119 1119 1120 1120 1120 1119 1119 1118 1118 1117 1115 1113 1111 1109 1104 1098 1090 1084 1078 1070 1065 1062 1061 1059 1058 1056 1050 1048 1048 1048 1056 1074 1087 1098 1108 1110 1111 1119 1123 1123 1124 1125 1126 1128 1128 1128 1128 1128 1128 1127 1127 1125 1124 1121 1117 1105 1090 1073 1060 1055 1053 1051 1050 1049 1047 1042 1039 1033 1025 1017 1017 1017 1022 1022 1022 1022 1022 1022 1023 1025 1025 1028 1029 1029 1029 1030 1035 1037 0 1118 1138 1150 1151 1152 1154 1155 1156 1156 1157 1157 1157 1157 1157 1157 1158 1158 1158 1157 1157 1157 1157 1157 1157 1157 1157 1157 1156 1156 1155 1153 1152 1150 1149 1149 1149 1149 1150 1156 1156 1156 1157 1157 1161 1161 1161 1142 0 0 0 0 0 0 0 0 0 0 0
863 863 864 873 882 890 899 900 900 907 915 926 946 965 981 987 1004 1021 1036 1048 1061 1072 1086 1099 1114 1130 1155 1177 1200 1205 1219 1232 1242 1254 1271 1288 1306 1319 1330 1339 1347 1355 1364 1370 1377 1380 1384 1387 1390 1395 1398 1400 1402 1405 1409 1413 1417 1420 1423 1426 1431 1434 1437 1440 1441 1443 1446 1448 1450 1452 1455 1459 1462 1465 1468 1471 1472 1474 1475 1477 1479 1482 1484 1487 1488 1490 1492 1493 1495 1497 1499 1501 1504 1505 1507 1509 1511 1513 1515 1519 1522 1524 1527 1530 1532 1535 1538 1540 1542 1545 1547 1549 1551 1553 1554 1556 1559 1561 1563 1564 1566 1567 1568 1571 1571 1572 1573 1575 1576 1577 1579 1579 1580 1581 1583 1584 1584 1585 1585 1585 1585 1585 1584 1584 1584 1581 1578 1578 1578 1578 1578 1578 1572 1564 1558 1547 0 0 0 0 0 0 0 1247 1247 1247 1246 1246 1249 1253 1257 1257 1257 0 0 0 0 1064 1040 1027 1022 1021 1020 1019 1019 1018 1018 1017 1017 1017 1017 1016 1016 1016 1016 1017 1017 1016 1016 1016 1016 1016 1016 1016 1017 1017 1018 1018 1018 1018 1018 1018 1018 1018 1018 1018 1019 1020 1022 1023 1023 1024 1024 1024 1025 1025 1026 1027 1027 1030 1030 1030 1030 1030 1031 1036 1037 1037 1037 1036 1036 1036 1036 1035 1035 1035 1035 1035 1035 1035 1035 1034 1034 1034 1034 1034 1034 1033 1032 1032 1031 1031 1031 1029 1027 1022 1022 1022 1022 1023 1027 1027 1028 1030 1031 1032 1035 1038 1040 1040 1040 1040 1041 1044 1048 1048 1048 1048 1049 1049 1051 1051 1052 1052 1052 1052 1052 1053 1053 1052 1052 1051 1050 1050 1049 1048 1045 1043 1041 1041 1037 1036 1035 1034 1033 1033 1032 1032 1032 1032 1033 1034 1036 1036 1036 1036 1036 1035 1032 1032 1032 1037 1037 1038 1041 1043 1043 1043 1048 1051 1054 1056 1058 1059 1059 1059 1059 1059 1059 1057 1053 1048 1047 1038 1034 1033 1033 1033 1031 1028 1026 1024 1023 1023 1022 1022 1020 1017 1014 1014 1014 1018 1020 1020 1021 1022 1025 1027 1027 1029 1029 1032 1035 1039 1042 1047 1053 1053 1056 1067 1071 1074 1075 1078 1081 1082 1082 1082 1082 1082 1082 1078 1075 1074 1073 1068 1056 1048 1042 1041 1041 1038 1035 1035 1035 1035 1037 1037 1037 1037 1038 1038 1038 1041 1041 1042 1048 1059 1070 1074 1081 1085 1087 1090 1091 1093 1094 1096 1098 1099 1100 1100 1100 1101 1101 1102 1102 1103 1103 1103 1103 1103 1103 1103 1103 1103 1103 1102 1102 1101 1100 1100 1100 1098 1097 1094 1093 1091 1090 1090 1090 1095 1099 1100 1101 1105 1106 1107 1108 1110 1112 1113 1115 1115 1116 1116 1117 1117 1117 1118 1118 1119 1119 1119 1119 1120 1120 1120 1120 1119 1118 1117 1116 1115 1113 1111 1105 1101 1097 1084 1069 1061 1060 1057 1057 1057 1055 1053 1051 1045 1045 1045 1048 1052 1060 1070 1086 1099 1104 1111 1116 1121 1122 1123 1124 1126 1128 1128 1128 1128 1127 1127 1127 1126 1124 1123 1121 1108 1093 1078 1064 1057 1050 1050 1050 1048 1047 1047 1042 1039 1034 1026 1017 1017 1017 1017 1017 1018 1019 1019 1022 1022 1024 1024 1025 1029 1024 1028 1034 1038 1038 0 1128 1144 1151 1152 1153 1154 1158 1158 1158 1158 1158 1158 1158 1158 1158 1158 1158 1158 1158 1158 1158 1158 1158 1158 1158 1158 1158 1158 1158 1157 1155 1154 1152 1152 1152 1152 1153 1153 1156 1159 1161 1161 1161 1161 1161 1161 1159 1137 0 0 0 0 0 0 0 0 0 0
854 854 855 869 876 884 887 890 897 904 910 923 945 963 980 985 1004 1021 1036 1052 1067 1082 1092 1105 1119 1138 1167 1186 1200 1205 1220 1232 1242 1254 1275 1289 1307 1319 1331 1341 1349 1355 1364 1369 1376 1379 1384 1387 1390 1393 1396 1400 1402 1405 1409 1413 1416 1419 1423 1427 1431 1434 1437 1439 1441 1443 1445 1447 1449 1452 1455 1459 1462 1465 1468 1470 1472 1474 1475 1477 1479 1482 1484 1486 1488 1490 1491 1493 1495 1497 1499 1501 1504 1505 1507 1509 1511 1513 1515 1518 1522 1524 1527 1530 1532 1534 1536 1540 1542 1545 1547 1549 1550 1552 1554 1556 1557 1559 1561 1563 1564 1567 1568 1569 1571 1571 1573 1574 1575 1577 1579 1579 1580 1580 1581 1582 1583 1583 1585 1585 1585 1585 1584 1584 1584 1581 1579 1578 1578 1578 1578 1578 1575 1565 1558 1557 1553 0 0 0 0 0 0 0 0 1255 1254 1253 1246 1242 1240 1240 0 0 0 0 0 1042 1028 1024 1022 1021 1021 1021 1019 1019 1018 1018 1018 1018 1018 1018 1018 1018 1017 1017 1018 1017 1017 1017 1017 1017 1018 1018 1018 1018 1018 1019 1019 1019 1019 1019 1019 1019 1019 1019 1020 1022 1023 1023 1023 1024 1024 1025 1025 1027 1027 1028 1028 1029 1029 1030 1030 1031 1032 1036 1037 1037 1037 1036 1036 1036 1036 1036 1036 1035 1035 1035 1035 1035 1035 1035 1035 1035 1035 1034 1034 1033 1033 1032 1031 1031 1031 1029 1027 1022 1019 1019 1019 1023 1024 1026 1027 1028 1030 1030 1034 1036 1039 1040 1040 1040 1041 1044 1045 1046 1047 1047 1049 1050 1051 1052 1052 1052 1053 1053 1053 1053 1053 1053 1052 1051 1050 1050 1048 1047 1045 1043 1040 1040 1037 1036 1035 1034 1033 1032 1032 1032 1032 1032 1032 1032 1033 1036 1036 1036 1035 1033 1030 1030 1030 1032 1033 1034 1036 1039 1039 1042 1047 1051 1052 1056 1057 1059 1060 1060 1060 1059 1059 1057 1054 1053 1052 1038 1036 1035 1034 1034 1033 1030 1026 1025 1023 1023 1023 1022 1020 1017 1015 1015 1015 1020 1024 1024 1025 1027 1028 1028 1028 1029 1030 1032 1035 1039 1046 1053 1054 1055 1060 1069 1074 1075 1077 1080 1083 1083 1084 1084 1083 1082 1082 1081 1079 1077 1075 1069 1067 1062 1055 1052 1044 1042 1037 1037 1037 1038 1041 1044 1044 1044 1042 1042 1042 1044 1046 1047 1053 1068 1078 1079 1084 1087 1089 1092 1094 1095 1097 1097 1099 1099 1101 1101 1101 1102 1102 1103 1103 1104 1104 1104 1105 1105 1105 1105 1105 1105 1105 1104 1104 1103 1101 1100 1100 1100 1097 1094 1093 1092 1092 1092 1092 1095 1099 1099 1101 1105 1106 1107 1108 1111 1112 1113 1115 1116 1116 1117 1118 1118 1118 1119 1119 1120 1120 1120 1120 1120 1120 1120 1120 1119 1118 1117 1115 1115 1114 1110 1104 1099 1095 1067 1053 1051 1051 1051 1051 1051 1051 1050 1049 1045 1045 1045 1048 1052 1055 1061 1067 1078 1088 1103 1112 1112 1115 1119 1121 1125 1128 1128 1128 1128 1127 1127 1127 1126 1124 1122 1112 1099 1089 1060 1052 1052 1050 1050 1044 1043 1042 1041 1040 1039 1034 1026 1019 1015 1014 1013 1013 1013 1015 1018 1020 1021 1021 1022 1023 1023 1024 1034 1038 1041 0 0 1136 1148 1153 1153 1154 1155 1159 1159 1159 1159 1159 1159 1159 1159 1159 1159 1159 1159 1159 1159 1159 1159 1159 1159 1159 1160 1160 1160 1159 1158 1156 1155 1154 1153 1153 1153 1155 1156 1156 1159 1161 1161 1161 1161 1161 1161 1159 1152 1137 0 0 0 0 0 0 0 0 0
843 843 845 862 871 877 877 882 890 898 909 922 944 962 976 982 1001 1022 1038 1056 1071 1084 1097 1109 1123 1145 1169 1187 1200 1205 1222 1232 1245 1257 1278 1297 1309 1320 1331 1341 1349 1356 1363 1369 1375 1378 1383 1387 1390 1392 1396 1399 1402 1405 1410 1413 1416 1419 1423 1427 1431 1433 1435 1438 1441 1443 1445 1447 1449 1452 1455 1459 1462 1465 1467 1470 1472 1474 1476 1477 1480 1482 1484 1486 1488 1490 1491 1493 1495 1496 1499 1501 1504 1505 1507 1509 1511 1513 1515 1518 1522 1524 1527 1530 1532 1534 1536 1539 1542 1544 1547 1549 1550 1551 1553 1554 1556 1558 1560 1562 1564 1565 1567 1568 1569 1571 1571 1574 1574 1576 1577 1579 1579 1579 1579 1579 1580 1581 1583 1584 1584 1584 1584 1584 1584 1581 1579 1578 1578 1578 1578 1578 1575 1568 1561 1560 1558 1556 1541 1526 0 0 0 0 0 0 0 1255 1246 1240 1240 0 0 0 0 1079 1058 1032 1024 1024 1022 1021 1021 1021 1020 1020 1019 1019 1019 1019 1019 1019 1019 1019 1019 1019 1019 1019 1018 1019 1018 1019 1019 1019 1019 1019 1019 1019 1019 1019 1019 1019 1019 1019 1020 1020 1020 1022 1023 1023 1023 1023 1023 1024 1025 1027 1027 1028 1028 1029 1029 1031 1031 1032 1033 1036 1037 1037 1037 1036 1036 1036 1036 1036 1036 1036 1036 1036 1036 1036 1036 1036 1036 1036 1035 1035 1034 1033 1033 1032 1032 1031 1031 1029 1027 1019 1016 1016 1016 1017 1021 1024 1025 1027 1027 1030 1034 1036 1038 1038 1039 1040 1041 1042 1043 1044 1046 1047 1049 1050 1051 1052 1052 1053 1053 1053 1053 1053 1053 1053 1052 1051 1050 1050 1048 1046 1044 1040 1038 1038 1035 1035 1034 1034 1033 1032 1032 1032 1031 1031 1031 1031 1032 1033 1034 1034 1034 1032 1030 1030 1030 1031 1032 1034 1036 1039 1039 1041 1046 1048 1050 1052 1056 1059 1060 1060 1060 1059 1058 1054 1054 1053 1052 1044 1038 1038 1037 1036 1034 1031 1027 1025 1025 1024 1024 1024 1020 1019 1019 1019 1024 1029 1029 1030 1029 1029 1029 1029 1029 1029 1031 1032 1034 1039 1052 1057 1058 1059 1066 1073 1078 1079 1081 1083 1085 1085 1085 1085 1085 1084 1084 1083 1081 1080 1077 1076 1076 1075 1070 1065 1056 1048 1044 1042 1042 1042 1047 1049 1049 1049 1042 1042 1042 1045 1047 1052 1063 1079 1082 1084 1087 1091 1093 1095 1096 1097 1098 1099 1100 1101 1102 1103 1103 1104 1104 1104 1104 1105 1105 1106 1106 1106 1106 1106 1106 1106 1105 1105 1105 1104 1101 1101 1101 1100 1098 1096 1094 1092 1091 1091 1091 1095 1096 1098 1101 1105 1106 1107 1108 1111 1112 1114 1115 1116 1117 1118 1118 1119 1119 1120 1120 1121 1121 1121 1121 1121 1121 1120 1120 1119 1117 1116 1115 1115 1114 1108 1102 1099 1073 1043 1043 1043 1046 1047 1047 1047 1049 1049 1049 1046 1046 1046 1049 1052 1055 1061 1067 1076 1077 1086 1098 1104 1110 1117 1118 1123 1128 1128 1128 1128 1127 1127 1127 1124 1119 1114 1102 1093 1072 1051 1050 1050 1049 1049 1043 1039 1032 1032 1032 1026 1026 1026 1020 1015 1014 1010 1010 1010 1011 1016 1016 1016 1016 1018 1019 1025 1028 1040 1042 1050 0 1121 1139 1149 1154 1156 1157 1159 1161 1161 1161 1161 1161 1160 1160 1160 1160 1160 1160 1161 1161 1162 1162 1162 1160 1160 1160 1161 1161 1161 1160 1159 1157 1156 1156 1156 1155 1155 1155 1156 1156 1159 1161 1161 1161 1160 1159 1159 1159 1156 1150 1138 0 0 0 0 0 0 0 0
831 831 834 855 864 866 867 875 883 896 909 921 943 961 976 981 1001 1022 1042 1057 1072 1085 1097 1111 1128 1149 1169 1188 1204 1209 1226 1239 1252 1266 1289 1303 1313 1322 1331 1341 1349 1356 1363 1369 1373 1377 1382 1385 1389 1391 1394 1398 1402 1406 1410 1413 1416 1419 1423 1427 1430 1433 1435 1438 1440 1443 1445 1447 1449 1452 1455 1459 1462 1465 1467 1470 1472 1474 1476 1478 1480 1482 1484 1486 1488 1490 1491 1493 1495 1496 1499 1501 1504 1505 1507 1509 1511 1514 1516 1518 1522 1524 1527 1530 1532 1534 1536 1539 1542 1544 1547 1548 1549 1551 1553 1554 1556 1558 1560 1561 1562 1564 1566 1568 1569 1570 1571 1572 1573 1575 1576 1577 1577 1577 1577 1578 1579 1580 1581 1582 1583 1583 1583 1583 1582 1580 1578 1577 1576 1576 1575 1575 1575 1568 1561 1560 1560 1556 1552 1542 1518 1514 0 0 0 0 0 0 0 0 0 0 0 0 1087 1066 1047 1031 1024 1024 1022 1021 1021 1021 1021 1020 1020 1020 1020 1020 1020 1020 1020 1020 1020 1020 1020 1020 1020 1020 1019 1019 1019 1019 1019 1020 1020 1020 1020 1020 1020 1020 1020 1020 1020 1020 1021 1022 1023 1023 1023 1023 1023 1023 1025 1027 1027 1028 1028 1029 1029 1031 1032 1032 1034 1035 1037 1037 1037 1037 1037 1036 1036 1036 1036 1036 1036 1036 1037 1037 1037 1037 1036 1036 1036 1035 1035 1034 1033 1033 1032 1032 1030 1028 1027 1019 1012 1012 1012 1016 1019 1022 1024 1024 1025 1028 1034 1034 1034 1035 1036 1039 1040 1042 1042 1044 1046 1047 1048 1049 1051 1052 1052 1053 1053 1053 1053 1053 1053 1053 1052 1051 1050 1050 1047 1045 1043 1038 1036 1033 1033 1033 1033 1033 1032 1032 1031 1030 1030 1030 1030 1030 1030 1031 1032 1032 1032 1032 1031 1031 1031 1031 1032 1034 1036 1039 1039 1041 1045 1047 1049 1052 1054 1057 1060 1060 1060 1060 1058 1055 1054 1053 1052 1047 1044 1041 1038 1036 1034 1032 1028 1026 1026 1026 1025 1024 1021 1021 1021 1025 1029 1031 1031 1031 1031 1031 1029 1029 1029 1031 1032 1033 1034 1039 1054 1062 1064 1070 1077 1079 1080 1082 1084 1085 1086 1086 1087 1087 1087 1087 1086 1086 1085 1084 1082 1081 1081 1081 1079 1077 1075 1066 1059 1050 1050 1050 1056 1056 1056 1049 1042 1042 1042 1045 1051 1065 1076 1081 1083 1089 1095 1095 1096 1097 1098 1099 1099 1101 1102 1103 1103 1103 1103 1104 1105 1105 1106 1106 1106 1107 1107 1107 1108 1108 1108 1108 1108 1107 1105 1105 1103 1102 1101 1101 1100 1097 1094 1092 1091 1091 1091 1091 1092 1096 1099 1103 1106 1107 1108 1111 1112 1114 1115 1116 1117 1118 1119 1120 1120 1120 1121 1121 1121 1121 1121 1121 1121 1121 1120 1119 1117 1116 1115 1114 1113 1106 1094 1081 1055 1040 1040 1040 1044 1045 1046 1047 1048 1048 1048 1048 1048 1048 1051 1052 1055 1061 1067 1073 1074 1078 1091 1094 1100 1108 1118 1123 1128 1128 1128 1128 1128 1127 1126 1122 1115 1105 1093 1062 1054 1050 1049 1049 1049 1049 1049 1039 1025 1021 1021 1021 1021 1021 1020 1019 1014 1010 1006 1006 1006 1008 1008 1009 1010 1013 1016 1026 1046 1047 1051 1062 1107 1130 1141 1150 1157 1158 1158 1160 1161 1161 1161 1162 1161 1161 1161 1161 1161 1162 1163 1163 1163 1165 1165 1165 1162 1162 1162 1162 1162 1162 1161 1160 1158 1157 1157 1157 1157 1156 1156 1156 1157 1158 1160 1160 1160 1156 1156 1156 1156 1153 1153 1152 1125 0 0 0 0 0 0 0
822 822 824 842 846 848 858 870 881 896 908 921 941 959 974 979 1001 1024 1045 1060 1074 1087 1098 1114 1134 1149 1169 1188 1200 1205 1229 1246 1260 1278 1294 1307 1317 1325 1332 1341 1348 1356 1362 1365 1370 1374 1379 1384 1387 1390 1394 1398 1402 1406 1410 1413 1416 1419 1423 1427 1430 1432 1435 1437 1440 1443 1445 1447 1449 1452 1456 1459 1462 1465 1467 1469 1472 1474 1476 1478 1480 1482 1484 1486 1488 1490 1491 1493 1495 1496 1498 1501 1504 1505 1507 1509 1511 1514 1516 1519 1522 1524 1528 1530 1532 1534 1536 1539 1542 1544 1547 1548 1549 1551 1552 1554 1556 1558 1559 1560 1562 1563 1565 1567 1568 1569 1570 1571 1573 1574 1575 1575 1576 1576 1576 1577 1578 1578 1579 1580 1580 1581 1581 1581 1580 1580 1577 1577 1576 1574 1572 1570 1570 1568 1561 1560 1560 1558 1556 1555 1546 1545 1542 0 0 0 0 0 0 0 0 0 0 0 1067 1048 1036 1025 1024 1024 1022 1022 1022 1021 1021 1020 1020 1020 1020 1020 1020 1020 1020 1020 1020 1020 1020 1020 1020 1020 1021 1021 1021 1021 1021 1021 1021 1021 1021 1021 1021 1021 1021 1021 1021 1021 1021 1022 1023 1023 1023 1023 1023 1023 1025 1027 1028 1028 1029 1029 1030 1032 1033 1033 1034 1035 1036 1036 1037 1037 1037 1037 1037 1037 1037 1037 1037 1037 1038 1038 1038 1038 1037 1037 1037 1037 1035 1035 1034 1033 1032 1032 1030 1027 1027 1016 1012 1012 1012 1015 1018 1022 1023 1023 1023 1024 1028 1029 1029 1030 1034 1039 1039 1041 1041 1043 1045 1046 1048 1049 1050 1052 1053 1053 1053 1054 1054 1054 1054 1053 1052 1051 1050 1050 1047 1043 1041 1038 1032 1031 1031 1031 1032 1032 1032 1030 1030 1030 1029 1029 1029 1029 1029 1029 1030 1030 1031 1031 1031 1031 1031 1031 1032 1033 1035 1037 1039 1041 1043 1044 1049 1052 1054 1054 1058 1059 1059 1059 1058 1057 1054 1054 1053 1049 1046 1042 1039 1036 1034 1032 1028 1026 1026 1026 1025 1024 1024 1024 1025 1028 1030 1033 1034 1034 1034 1033 1030 1030 1030 1033 1034 1035 1036 1045 1060 1065 1070 1076 1079 1081 1082 1083 1085 1086 1088 1088 1088 1088 1088 1088 1088 1088 1088 1088 1088 1087 1086 1084 1082 1082 1082 1082 1070 1055 1055 1055 1058 1058 1058 1052 1046 1046 1046 1046 1054 1066 1081 1087 1089 1095 1098 1098 1099 1099 1099 1100 1101 1103 1104 1104 1104 1105 1105 1105 1106 1106 1107 1107 1108 1108 1108 1108 1108 1109 1109 1109 1109 1108 1107 1107 1105 1103 1103 1101 1100 1098 1094 1084 1079 1079 1079 1079 1088 1093 1097 1102 1102 1104 1108 1111 1112 1114 1115 1116 1117 1119 1120 1120 1120 1121 1122 1122 1122 1122 1122 1122 1121 1121 1120 1120 1117 1115 1114 1113 1108 1094 1081 1061 1045 1040 1040 1040 1042 1045 1045 1045 1048 1049 1049 1049 1049 1049 1051 1055 1061 1063 1067 1072 1072 1073 1076 1082 1094 1105 1116 1120 1124 1127 1129 1129 1129 1127 1126 1117 1113 1089 1075 1058 1052 1050 1049 1049 1049 1049 1049 1039 1025 1017 1017 1017 1017 1019 1019 1019 1014 1006 1006 1005 1004 1002 1002 1002 1006 1011 1016 1028 1055 1055 1055 1092 1126 1142 1148 1153 1157 1159 1159 1160 1161 1162 1162 1162 1162 1162 1162 1162 1163 1163 1164 1164 1165 1168 1168 1168 1164 1164 1163 1163 1163 1163 1162 1161 1159 1158 1158 1158 1158 1158 1157 1157 1157 1157 1157 1157 1156 1155 1154 1154 1154 1158 1158 1158 1140 1113 0 0 0 0 0 0
810 810 812 817 822 838 855 870 881 895 908 921 936 954 974 979 1003 1028 1048 1064 1076 1088 1100 1116 1134 1149 1168 1186 1200 1205 1229 1255 1269 1285 1301 1312 1322 1329 1334 1341 1348 1353 1358 1361 1367 1371 1376 1382 1386 1390 1393 1397 1402 1406 1410 1412 1416 1419 1424 1427 1430 1432 1435 1437 1440 1443 1446 1447 1449 1453 1456 1459 1461 1465 1467 1469 1471 1474 1476 1477 1480 1482 1485 1487 1488 1490 1491 1493 1495 1496 1498 1501 1504 1505 1507 1509 1511 1514 1516 1519 1522 1524 1528 1531 1532 1534 1536 1539 1541 1544 1547 1548 1549 1551 1552 1555 1556 1558 1559 1560 1562 1563 1565 1566 1567 1568 1570 1571 1571 1573 1574 1574 1575 1575 1575 1576 1577 1578 1578 1579 1579 1579 1579 1579 1579 1578 1577 1576 1575 1574 1570 1569 1569 1565 1561 1561 1560 1561 1560 1560 1560 1560 1555 1552 1552 0 0 0 0 0 0 0 0 0 1051 1038 1030 1025 1024 1023 1022 1022 1022 1021 1021 1021 1021 1021 1021 1021 1021 1022 1022 1022 1021 1021 1021 1021 1021 1021 1021 1021 1021 1021 1022 1022 1022 1022 1022 1022 1022 1021 1021 1021 1021 1021 1021 1022 1022 1022 1022 1023 1023 1023 1025 1027 1028 1028 1029 1030 1031 1033 1034 1034 1034 1035 1036 1036 1037 1037 1037 1037 1037 1038 1038 1038 1038 1038 1038 1038 1038 1038 1038 1038 1037 1037 1036 1036 1034 1033 1032 1032 1028 1019 1011 1010 1010 1010 1011 1014 1018 1022 1022 1022 1023 1023 1023 1023 1024 1026 1032 1036 1038 1039 1041 1043 1045 1046 1048 1049 1050 1052 1053 1053 1054 1054 1054 1054 1054 1053 1052 1051 1050 1050 1047 1041 1034 1031 1030 1030 1029 1029 1029 1029 1028 1027 1027 1027 1028 1028 1028 1028 1028 1028 1029 1029 1030 1032 1032 1032 1031 1031 1031 1033 1035 1037 1039 1041 1043 1044 1050 1053 1054 1054 1058 1059 1059 1059 1058 1058 1058 1057 1054 1052 1050 1046 1040 1036 1034 1032 1029 1026 1026 1026 1026 1025 1025 1025 1028 1030 1031 1033 1035 1036 1036 1036 1034 1034 1034 1039 1040 1040 1050 1060 1068 1072 1075 1076 1082 1083 1083 1085 1087 1088 1089 1090 1090 1090 1090 1090 1090 1090 1090 1089 1089 1089 1089 1088 1088 1088 1088 1088 1083 1075 1074 1070 1064 1063 1062 1054 1046 1046 1046 1048 1059 1069 1085 1088 1091 1097 1100 1100 1100 1100 1102 1103 1104 1104 1105 1106 1106 1106 1106 1107 1107 1107 1107 1108 1109 1109 1109 1109 1110 1110 1109 1109 1109 1108 1107 1107 1106 1104 1103 1102 1100 1098 1092 1078 1067 1067 1067 1079 1081 1082 1096 1099 1101 1104 1107 1111 1112 1114 1115 1116 1117 1119 1120 1121 1121 1122 1123 1123 1123 1123 1123 1122 1121 1121 1120 1120 1117 1115 1112 1111 1106 1091 1072 1049 1045 1042 1042 1042 1042 1045 1045 1045 1048 1049 1049 1049 1049 1050 1051 1055 1061 1063 1067 1071 1072 1073 1074 1075 1079 1090 1107 1119 1123 1124 1129 1129 1129 1127 1119 1112 1105 1087 1075 1053 1050 1047 1043 1043 1043 1043 1043 1038 1025 1017 1010 1010 1010 1014 1014 1014 1014 1006 1005 1003 1002 1000 1000 1000 1001 1009 1016 1034 1066 1066 1083 1107 1131 1147 1149 1154 1157 1159 1160 1161 1162 1162 1162 1162 1162 1163 1163 1164 1165 1165 1165 1166 1167 1169 1169 1169 1166 1165 1165 1165 1164 1164 1163 1162 1159 1159 1159 1159 1159 1159 1159 1159 1158 1158 1158 1157 1156 1155 1154 1154 1154 1162 1162 1162 1141 1120 1109 1104 0 0 0 0
788 788 793 796 814 838 855 870 881 895 905 920 936 954 976 982 1008 1036 1054 1067 1080 1092 1102 1118 1136 1149 1162 1181 1200 1205 1230 1260 1276 1291 1306 1318 1328 1334 1337 1342 1348 1353 1358 1361 1366 1369 1375 1380 1386 1388 1393 1397 1402 1406 1410 1412 1416 1419 1424 1428 1431 1432 1435 1437 1440 1443 1446 1448 1450 1453 1456 1459 1461 1465 1466 1468 1471 1474 1476 1477 1480 1482 1485 1487 1489 1490 1491 1493 1495 1497 1499 1501 1504 1505 1507 1509 1511 1514 1517 1519 1522 1525 1528 1531 1533 1535 1536 1539 1541 1544 1547 1548 1549 1551 1553 1555 1556 1558 1559 1560 1561 1563 1564 1565 1566 1568 1569 1570 1570 1572 1573 1574 1574 1574 1575 1575 1576 1576 1577 1577 1577 1577 1577 1577 1577 1576 1576 1575 1572 1569 1568 1567 1564 1560 1560 1560 1561 1561 1561 1562 1562 1562 1564 1565 1561 1561 1560 0 0 0 0 0 0 0 1043 1027 1024 1024 1024 1023 1022 1022 1021 1021 1021 1021 1021 1021 1021 1022 1022 1022 1022 1022 1022 1022 1022 1023 1022 1022 1022 1022 1022 1022 1022 1023 1023 1023 1023 1023 1022 1021 1021 1021 1021 1021 1021 1021 1022 1022 1022 1022 1023 1025 1028 1028 1029 1029 1029 1031 1031 1033 1034 1034 1035 1035 1036 1037 1037 1038 1038 1038 1038 1038 1039 1039 1039 1039 1040 1040 1040 1039 1039 1039 1038 1037 1036 1036 1034 1033 1032 1030 1025 1017 1002 1002 1002 1007 1010 1014 1018 1022 1022 1022 1021 1021 1021 1023 1024 1026 1030 1033 1038 1038 1040 1043 1045 1046 1047 1049 1050 1052 1053 1054 1055 1055 1055 1055 1055 1053 1052 1051 1050 1050 1047 1040 1033 1031 1029 1029 1029 1026 1024 1024 1024 1025 1025 1027 1027 1027 1027 1027 1027 1027 1027 1028 1030 1032 1032 1032 1031 1031 1031 1033 1035 1036 1038 1040 1043 1044 1050 1054 1054 1056 1058 1059 1064 1064 1064 1064 1063 1059 1058 1057 1057 1052 1044 1036 1035 1033 1030 1027 1027 1027 1027 1025 1025 1025 1028 1031 1033 1033 1035 1037 1038 1039 1039 1041 1043 1044 1044 1051 1061 1067 1069 1073 1077 1080 1082 1085 1086 1087 1088 1090 1090 1091 1091 1092 1092 1092 1091 1091 1091 1091 1090 1090 1090 1090 1090 1090 1092 1092 1092 1091 1085 1071 1067 1067 1062 1055 1047 1047 1047 1053 1063 1078 1088 1090 1094 1101 1101 1101 1102 1103 1104 1104 1105 1106 1107 1107 1107 1108 1108 1108 1108 1108 1108 1109 1110 1110 1110 1111 1111 1111 1111 1111 1110 1109 1108 1107 1106 1104 1103 1102 1098 1098 1090 1059 1059 1059 1063 1072 1077 1078 1086 1096 1100 1102 1107 1110 1111 1114 1115 1116 1118 1119 1120 1121 1122 1122 1123 1123 1123 1123 1123 1122 1121 1120 1120 1120 1116 1113 1109 1108 1093 1071 1060 1049 1045 1043 1042 1042 1042 1045 1045 1046 1048 1050 1050 1050 1050 1050 1051 1055 1061 1061 1062 1063 1064 1070 1072 1073 1079 1086 1096 1107 1111 1120 1126 1126 1126 1117 1109 1106 1102 1084 1050 1050 1048 1043 1039 1039 1039 1035 1035 1035 1025 1017 1007 1007 1007 1007 1007 1007 1003 1003 1003 1001 1001 1000 1000 1000 1001 1009 1017 1060 1084 1098 1114 1129 1143 1150 1150 1155 1158 1159 1160 1161 1162 1162 1162 1162 1162 1163 1163 1164 1165 1166 1166 1167 1169 1169 1169 1169 1167 1167 1166 1166 1166 1166 1164 1164 1161 1161 1161 1161 1161 1161 1160 1160 1160 1159 1158 1157 1156 1155 1155 1155 1157 1162 1162 1162 1141 1120 1116 1109 1101 0 0 0
766 766 787 789 814 838 855 871 884 895 905 920 936 954 989 994 1026 1042 1054 1067 1080 1093 1107 1121 1136 1149 1162 1181 1200 1205 1234 1261 1279 1294 1308 1320 1330 1334 1340 1344 1349 1353 1358 1361 1366 1369 1375 1380 1386 1388 1393 1397 1402 1406 1409 1412 1416 1419 1424 1428 1432 1434 1436 1438 1441 1443 1446 1448 1450 1453 1456 1459 1461 1464 1466 1468 1471 1474 1476 1477 1480 1482 1485 1487 1489 1490 1492 1493 1495 1497 1499 1501 1504 1505 1507 1510 1513 1514 1518 1520 1522 1525 1528 1531 1533 1535 1537 1539 1541 1544 1547 1548 1550 1551 1553 1555 1556 1558 1559 1560 1561 1562 1564 1565 1566 1567 1568 1569 1570 1570 1571 1572 1573 1573 1574 1574 1574 1575 1575 1575 1575 1575 1575 1575 1574 1573 1572 1570 1566 1563 1561 1559 1559 1559 1559 1560 1561 1561 1562 1562 1565 1573 1580 1582 1582 1582 1580 1552 0 0 0 0 0 0 1032 1024 1024 1023 1023 1022 1021 1021 1021 1021 1021 1022 1022 1022 1022 1023 1023 1023 1024 1024 1024 1024 1024 1024 1024 1024 1024 1024 1024 1023 1023 1024 1023 1023 1023 1023 1023 1021 1021 1021 1020 1020 1020 1020 1022 1022 1022 1023 1023 1025 1028 1028 1029 1029 1031 1031 1031 1033 1034 1035 1036 1036 1036 1037 1037 1038 1039 1039 1039 1039 1040 1040 1040 1040 1040 1040 1040 1040 1040 1039 1039 1038 1038 1036 1034 1032 1031 1029 1024 1013 1001 1000 1000 1000 1003 1009 1017 1021 1021 1021 1020 1020 1020 1022 1024 1026 1028 1033 1037 1038 1038 1040 1043 1046 1047 1048 1050 1052 1053 1054 1055 1055 1055 1055 1055 1053 1052 1050 1050 1049 1047 1039 1033 1031 1029 1028 1027 1026 1024 1024 1024 1024 1025 1025 1026 1026 1026 1026 1026 1026 1026 1026 1030 1032 1032 1032 1031 1031 1031 1031 1033 1035 1036 1038 1043 1048 1055 1055 1056 1058 1061 1064 1066 1067 1068 1068 1068 1064 1061 1060 1059 1059 1046 1037 1036 1035 1032 1029 1028 1028 1028 1025 1025 1025 1029 1032 1033 1036 1037 1037 1039 1039 1042 1047 1054 1054 1055 1064 1073 1076 1076 1077 1081 1084 1087 1087 1088 1088 1090 1091 1092 1093 1093 1093 1093 1093 1093 1093 1092 1092 1092 1092 1092 1092 1092 1092 1092 1092 1092 1092 1088 1078 1072 1069 1063 1060 1060 1060 1060 1070 1078 1083 1088 1095 1101 1102 1102 1102 1104 1104 1105 1106 1106 1107 1108 1108 1108 1109 1109 1109 1109 1109 1110 1110 1110 1111 1112 1112 1112 1112 1111 1111 1110 1109 1109 1107 1106 1104 1103 1102 1098 1093 1083 1049 1049 1049 1057 1062 1071 1072 1073 1076 1080 1090 1101 1107 1110 1113 1113 1116 1118 1120 1120 1121 1122 1123 1123 1124 1124 1124 1124 1122 1120 1120 1120 1118 1114 1107 1099 1088 1078 1068 1054 1049 1049 1046 1046 1046 1046 1047 1047 1048 1048 1050 1050 1050 1050 1050 1051 1055 1061 1061 1061 1062 1062 1067 1071 1072 1077 1086 1096 1098 1107 1114 1122 1122 1122 1117 1109 1101 1086 1084 1050 1048 1034 1032 1028 1028 1028 1028 1028 1026 1025 1017 1007 999 999 999 999 999 990 990 990 1001 1002 1002 1002 1002 1002 1009 1047 1081 1104 1124 1136 1143 1149 1153 1157 1157 1159 1160 1161 1161 1162 1162 1163 1163 1163 1163 1164 1164 1165 1167 1167 1168 1170 1170 1170 1169 1169 1167 1167 1167 1167 1167 1167 1166 1163 1162 1162 1162 1162 1161 1161 1161 1160 1160 1159 1158 1156 1155 1155 1155 1157 1157 1157 1156 1141 1120 1116 1115 1105 0 0 0
764 764 784 786 812 835 855 874 891 895 905 920 943 966 996 1003 1026 1042 1055 1068 1080 1096 1112 1125 1136 1149 1162 1181 1200 1205 1234 1262 1280 1297 1311 1322 1330 1335 1340 1344 1350 1355 1359 1362 1366 1369 1375 1380 1386 1388 1393 1397 1402 1406 1409 1412 1416 1419 1424 1428 1432 1435 1437 1439 1441 1443 1446 1448 1450 1453 1456 1459 1461 1464 1466 1468 1471 1474 1476 1477 1480 1482 1485 1487 1489 1490 1492 1493 1495 1497 1499 1501 1504 1506 1508 1511 1513 1515 1518 1521 1523 1525 1528 1531 1532 1535 1537 1539 1541 1544 1547 1549 1550 1551 1553 1555 1556 1558 1559 1560 1561 1561 1563 1564 1565 1567 1567 1569 1570 1570 1570 1571 1572 1572 1572 1573 1573 1573 1573 1573 1573 1573 1572 1570 1569 1569 1569 1567 1562 1559 1558 1558 1558 1559 1559 1560 1561 1561 1562 1566 1575 1582 1585 1586 1586 1586 1580 1554 0 0 0 0 0 0 1027 1024 1023 1022 1022 1022 1022 1022 1022 1022 1022 1022 1022 1023 1023 1024 1024 1025 1025 1025 1025 1025 1025 1025 1025 1025 1025 1025 1025 1025 1025 1025 1025 1025 1024 1024 1023 1021 1021 1021 1020 1020 1020 1020 1021 1021 1022 1022 1023 1025 1028 1028 1029 1029 1031 1031 1031 1033 1034 1035 1036 1037 1037 1037 1037 1038 1039 1039 1040 1040 1041 1041 1041 1041 1041 1041 1041 1041 1041 1040 1039 1038 1038 1036 1034 1031 1029 1024 1021 1013 1001 1000 1000 1000 1003 1009 1017 1021 1021 1021 1020 1020 1020 1022 1023 1026 1028 1031 1035 1036 1037 1038 1040 1045 1046 1047 1050 1052 1053 1054 1055 1055 1055 1055 1055 1054 1052 1050 1046 1043 1040 1039 1033 1031 1029 1028 1027 1026 1024 1024 1024 1024 1025 1025 1025 1025 1025 1026 1026 1026 1026 1026 1028 1028 1028 1028 1028 1028 1029 1031 1033 1035 1036 1038 1044 1048 1056 1059 1060 1063 1066 1068 1068 1068 1068 1068 1068 1068 1065 1065 1063 1059 1052 1041 1039 1038 1035 1033 1033 1031 1031 1031 1030 1030 1030 1032 1033 1036 1038 1039 1040 1040 1044 1053 1059 1061 1061 1071 1076 1078 1081 1084 1085 1086 1087 1089 1090 1090 1091 1092 1093 1093 1094 1094 1094 1094 1094 1094 1094 1094 1094 1094 1094 1094 1094 1094 1094 1094 1092 1092 1089 1082 1080 1080 1076 1073 1073 1073 1082 1085 1090 1092 1095 1100 1101 1102 1102 1103 1104 1105 1106 1107 1108 1108 1108 1109 1110 1110 1110 1110 1110 1110 1110 1111 1112 1112 1113 1113 1113 1113 1112 1112 1111 1110 1109 1108 1106 1103 1103 1102 1096 1090 1077 1044 1044 1044 1053 1062 1067 1068 1069 1069 1076 1078 1088 1105 1110 1112 1113 1115 1119 1119 1120 1121 1122 1123 1123 1124 1124 1124 1124 1122 1119 1118 1115 1111 1104 1098 1089 1073 1066 1062 1053 1052 1051 1050 1050 1050 1050 1052 1052 1052 1052 1052 1053 1053 1053 1053 1053 1055 1061 1061 1061 1061 1061 1061 1064 1071 1076 1086 1093 1098 1107 1114 1122 1122 1122 1117 1109 1101 1086 1084 1050 1048 1034 1032 1027 1025 1022 1021 1019 1018 1008 1006 1002 996 995 995 994 992 983 983 983 998 1005 1007 1007 1011 1022 1046 1067 1089 1112 1128 1143 1148 1153 1156 1157 1158 1160 1161 1162 1162 1162 1163 1163 1164 1164 1164 1164 1165 1165 1167 1167 1168 1170 1170 1170 1170 1170 1169 1169 1169 1170 1170 1170 1168 1166 1164 1163 1163 1163 1163 1162 1162 1161 1161 1160 1159 1156 1155 1155 1155 1154 1150 1144 1137 1128 1120 1116 1115 1111 0 0 0
764 764 784 786 810 835 855 874 891 898 915 928 945 968 999 1003 1027 1044 1055 1068 1084 1102 1117 1128 1139 1153 1174 1194 1216 1245 1251 1267 1282 1304 1320 1327 1331 1335 1340 1344 1350 1355 1359 1363 1366 1370 1375 1381 1387 1390 1394 1398 1402 1406 1409 1412 1416 1419 1423 1427 1432 1435 1437 1439 1441 1443 1446 1448 1450 1453 1456 1458 1461 1464 1466 1468 1471 1473 1476 1478 1480 1482 1485 1488 1489 1491 1492 1493 1495 1497 1500 1502 1504 1506 1509 1511 1514 1516 1519 1521 1523 1525 1528 1530 1532 1535 1536 1539 1541 1544 1547 1549 1551 1552 1553 1555 1556 1558 1559 1560 1560 1561 1563 1564 1565 1565 1567 1567 1568 1569 1569 1570 1571 1571 1571 1572 1572 1572 1572 1571 1571 1570 1568 1566 1565 1565 1565 1563 1560 1558 1558 1558 1558 1559 1560 1561 1562 1563 1567 1572 1580 1582 1586 1589 1589 1589 1580 1554 0 0 0 0 0 0 1027 1024 1023 1022 1022 1022 1022 1022 1022 1022 1022 1022 1023 1024 1024 1024 1024 1025 1025 1025 1026 1026 1026 1026 1026 1026 1026 1026 1026 1026 1026 1026 1026 1025 1025 1024 1023 1021 1021 1020 1020 1020 1019 1019 1020 1020 1020 1021 1022 1024 1027 1028 1028 1029 1030 1031 1031 1032 1034 1035 1036 1037 1037 1037 1038 1038 1039 1040 1041 1041 1042 1042 1042 1042 1042 1042 1042 1042 1041 1041 1039 1038 1038 1035 1032 1029 1025 1017 1015 1010 1002 1000 1000 1000 1003 1009 1017 1021 1021 1021 1019 1019 1019 1020 1023 1025 1027 1028 1030 1033 1035 1038 1040 1043 1045 1047 1050 1052 1053 1054 1055 1055 1055 1055 1054 1054 1052 1050 1045 1039 1037 1036 1034 1031 1029 1028 1027 1027 1026 1026 1025 1025 1025 1025 1025 1025 1025 1025 1025 1025 1025 1025 1027 1027 1027 1027 1027 1027 1029 1031 1033 1035 1036 1038 1046 1052 1056 1062 1065 1068 1070 1070 1070 1070 1070 1069 1068 1068 1068 1067 1066 1065 1061 1052 1051 1050 1045 1041 1041 1040 1040 1036 1032 1032 1032 1032 1034 1036 1040 1041 1043 1043 1046 1055 1062 1064 1064 1071 1078 1078 1082 1085 1087 1087 1089 1090 1091 1092 1092 1093 1093 1095 1095 1095 1095 1095 1096 1096 1096 1095 1095 1095 1095 1095 1095 1095 1094 1094 1094 1093 1091 1087 1087 1085 1081 1079 1079 1079 1084 1088 1092 1095 1098 1100 1101 1102 1102 1104 1105 1106 1107 1108 1109 1109 1110 1110 1110 1110 1110 1111 1111 1111 1112 1112 1113 1113 1114 1114 1114 1113 1113 1112 1111 1111 1109 1108 1105 1103 1103 1102 1094 1083 1044 1044 1044 1044 1053 1060 1064 1064 1066 1067 1070 1072 1074 1086 1107 1112 1113 1115 1118 1119 1120 1120 1122 1123 1123 1124 1124 1124 1124 1122 1119 1118 1115 1111 1100 1095 1086 1067 1055 1053 1052 1052 1052 1053 1053 1055 1056 1057 1057 1057 1055 1055 1055 1055 1055 1055 1055 1058 1061 1061 1061 1061 1061 1061 1064 1067 1076 1086 1092 1098 1107 1114 1122 1122 1122 1122 1121 1101 1087 1086 1085 1064 1034 1032 1027 1025 1020 1012 1010 1010 1006 1004 1002 996 995 995 994 992 983 983 983 996 1006 1014 1016 1028 1056 1071 1073 1121 1124 1137 1147 1151 1155 1156 1159 1160 1162 1162 1163 1163 1163 1164 1164 1164 1164 1165 1165 1165 1166 1167 1167 1168 1171 1171 1171 1171 1171 1171 1171 1172 1172 1172 1171 1169 1167 1166 1165 1165 1164 1163 1163 1162 1162 1161 1160 1159 1156 1155 1155 1154 1153 1150 1144 1137 1128 1121 1116 1115 1111 0 0 0
762 762 778 780 807 832 849 874 891 898 915 928 947 970 999 1022 1028 1044 1055 1069 1095 1111 1126 1135 1142 1155 1174 1205 1225 1253 1260 1274 1289 1310 1324 1330 1332 1335 1338 1343 1350 1355 1359 1364 1367 1372 1375 1381 1387 1392 1396 1399 1403 1406 1410 1412 1417 1420 1423 1427 1431 1435 1437 1439 1441 1443 1446 1448 1450 1452 1455 1458 1461 1464 1466 1468 1471 1473 1476 1478 1480 1483 1485 1488 1490 1491 1492 1494 1495 1498 1500 1503 1505 1507 1509 1512 1515 1516 1519 1521 1523 1525 1528 1530 1532 1534 1536 1539 1541 1544 1547 1549 1551 1552 1553 1554 1556 1557 1558 1560 1560 1561 1563 1564 1564 1565 1566 1567 1568 1569 1569 1570 1570 1570 1570 1570 1570 1570 1569 1568 1567 1566 1565 1564 1564 1564 1563 1561 1559 1558 1558 1558 1558 1559 1560 1562 1564 1566 1570 1575 1581 1582 1586 1586 1586 1585 1567 0 0 0 0 0 0 1051 1027 1025 1024 1024 1022 1022 1022 1022 1022 1022 1023 1023 1023 1024 1025 1025 1025 1026 1026 1026 1027 1027 1027 1027 1027 1027 1027 1027 1027 1027 1027 1026 1026 1026 1025 1024 1023 1021 1021 1020 1020 1020 1019 1016 1016 1016 1016 1019 1020 1020 1023 1024 1026 1028 1028 1029 1029 1031 1033 1034 1035 1037 1037 1037 1038 1039 1040 1040 1042 1042 1042 1043 1043 1043 1043 1043 1043 1042 1042 1041 1040 1039 1037 1034 1032 1027 1019 1014 1012 1010 1006 1004 1004 1004 1006 1010 1016 1022 1022 1022 1019 1019 1019 1019 1020 1023 1024 1025 1027 1027 1028 1035 1040 1043 1043 1044 1048 1050 1051 1053 1054 1054 1054 1054 1054 1053 1052 1049 1043 1039 1036 1036 1034 1031 1029 1028 1028 1028 1028 1028 1027 1025 1025 1025 1025 1025 1025 1025 1025 1025 1025 1025 1026 1026 1027 1027 1027 1027 1029 1030 1032 1035 1037 1040 1046 1053 1057 1063 1067 1071 1071 1071 1071 1071 1072 1072 1072 1072 1071 1071 1070 1070 1069 1069 1066 1065 1062 1053 1052 1051 1049 1041 1035 1035 1034 1034 1035 1037 1042 1044 1045 1047 1049 1056 1064 1068 1070 1075 1079 1082 1085 1087 1088 1089 1090 1091 1092 1092 1093 1094 1095 1095 1096 1096 1096 1096 1097 1097 1097 1097 1097 1097 1097 1097 1097 1097 1096 1096 1096 1095 1095 1092 1091 1090 1086 1086 1086 1086 1086 1089 1092 1097 1100 1100 1101 1101 1102 1104 1105 1106 1108 1109 1109 1110 1111 1111 1111 1112 1112 1112 1112 1112 1113 1114 1114 1114 1114 1114 1114 1114 1113 1113 1112 1112 1110 1108 1105 1101 1095 1094 1088 1060 1012 1012 1012 1044 1053 1057 1061 1061 1063 1066 1067 1069 1071 1073 1092 1111 1112 1115 1118 1119 1120 1120 1122 1122 1122 1123 1124 1124 1124 1123 1119 1117 1114 1107 1098 1092 1081 1059 1051 1051 1051 1052 1053 1054 1056 1058 1059 1060 1060 1060 1058 1057 1057 1057 1057 1057 1058 1059 1062 1063 1063 1063 1063 1063 1064 1067 1076 1086 1093 1106 1117 1121 1129 1129 1130 1130 1130 1124 1116 1114 1111 1087 1065 1045 1036 1032 1020 1012 1010 1009 1006 1004 1002 1001 998 995 995 992 983 983 983 996 1009 1024 1027 1059 1075 1080 1092 1127 1147 1147 1150 1153 1155 1157 1161 1162 1162 1163 1163 1164 1164 1165 1165 1165 1165 1165 1165 1166 1167 1167 1168 1170 1171 1171 1172 1172 1172 1172 1173 1173 1173 1172 1171 1169 1168 1167 1167 1166 1165 1164 1164 1163 1162 1161 1161 1159 1157 1155 1154 1153 1152 1150 1142 1134 1128 1121 1115 1115 1111 0 0 0
756 756 770 771 791 819 842 866 884 898 915 928 947 970 1003 1027 1032 1048 1062 1079 1105 1124 1137 1143 1148 1155 1177 1210 1229 1257 1263 1281 1294 1310 1324 1330 1332 1334 1336 1342 1348 1353 1358 1364 1367 1372 1375 1381 1387 1392 1396 1400 1404 1407 1411 1414 1418 1420 1423 1427 1431 1435 1438 1440 1442 1444 1446 1448 1450 1452 1455 1458 1460 1463 1466 1468 1471 1473 1476 1478 1481 1483 1486 1488 1490 1491 1493 1494 1496 1498 1501 1503 1506 1508 1510 1513 1515 1516 1519 1521 1523 1526 1528 1530 1532 1534 1536 1538 1541 1544 1547 1549 1551 1552 1553 1554 1556 1557 1558 1559 1560 1561 1562 1563 1564 1565 1566 1567 1568 1569 1569 1569 1569 1569 1570 1569 1569 1569 1568 1567 1566 1565 1565 1564 1563 1562 1560 1560 1559 1558 1558 1558 1558 1559 1561 1562 1564 1567 1570 1575 1581 1583 1585 1585 1585 1574 0 0 0 0 0 0 0 1043 1027 1025 1025 1024 1024 1023 1023 1023 1023 1023 1023 1024 1024 1025 1025 1026 1026 1027 1027 1027 1027 1027 1027 1027 1028 1028 1028 1028 1028 1028 1028 1027 1027 1026 1025 1024 1023 1021 1021 1019 1019 1017 1016 1013 1013 1013 1014 1018 1018 1019 1020 1021 1025 1027 1028 1028 1029 1029 1031 1032 1034 1036 1037 1037 1038 1039 1040 1041 1042 1042 1043 1043 1043 1043 1044 1044 1043 1043 1042 1041 1040 1038 1036 1034 1031 1025 1018 1012 1010 1009 1007 1007 1007 1007 1010 1011 1016 1021 1021 1021 1019 1019 1019 1019 1020 1023 1024 1024 1025 1026 1026 1028 1032 1036 1037 1041 1047 1050 1051 1052 1054 1054 1054 1054 1053 1053 1051 1048 1043 1037 1036 1035 1034 1032 1030 1030 1029 1029 1029 1028 1027 1027 1026 1025 1025 1025 1024 1024 1024 1025 1025 1025 1025 1025 1027 1027 1027 1028 1029 1030 1032 1035 1037 1041 1048 1054 1060 1068 1073 1073 1073 1073 1073 1073 1073 1074 1074 1074 1074 1073 1073 1073 1072 1072 1072 1070 1070 1069 1059 1057 1052 1046 1042 1042 1042 1042 1043 1043 1045 1047 1049 1049 1052 1058 1066 1071 1077 1080 1083 1088 1090 1090 1090 1090 1092 1092 1093 1093 1094 1095 1096 1096 1096 1097 1097 1098 1098 1098 1098 1098 1099 1099 1099 1098 1098 1098 1098 1097 1097 1096 1096 1095 1092 1091 1091 1089 1087 1087 1087 1088 1092 1097 1100 1100 1101 1101 1102 1104 1106 1107 1108 1109 1110 1111 1112 1112 1112 1113 1113 1113 1113 1114 1114 1114 1114 1115 1115 1115 1115 1115 1114 1114 1114 1113 1111 1108 1105 1095 1089 1086 1076 1051 1012 1012 1012 1042 1049 1051 1056 1056 1058 1066 1066 1067 1068 1072 1088 1110 1111 1112 1117 1119 1119 1119 1121 1122 1122 1122 1123 1124 1124 1124 1120 1117 1112 1103 1095 1081 1061 1049 1049 1049 1049 1051 1052 1054 1058 1059 1060 1061 1061 1061 1059 1059 1059 1059 1059 1059 1061 1061 1062 1063 1063 1063 1063 1063 1064 1067 1076 1086 1096 1108 1121 1126 1133 1133 1137 1137 1137 1131 1128 1127 1124 1113 1086 1060 1043 1036 1020 1011 1010 1009 1009 1009 1010 1010 1010 997 993 989 987 987 989 996 1011 1038 1039 1067 1095 1101 1104 1131 1148 1151 1153 1154 1155 1158 1162 1164 1164 1164 1164 1164 1164 1166 1166 1166 1166 1166 1166 1167 1168 1168 1168 1170 1171 1172 1172 1172 1172 1172 1173 1173 1173 1172 1171 1170 1169 1168 1167 1166 1165 1165 1165 1165 1164 1162 1161 1159 1157 1155 1154 1153 1152 1145 1140 1132 1124 1121 1115 1113 0 0 0 0
745 745 759 762 783 816 841 861 877 891 906 925 949 987 1013 1033 1037 1055 1071 1090 1113 1129 1151 1159 1161 1162 1184 1212 1244 1262 1266 1283 1297 1310 1324 1330 1332 1334 1336 1341 1345 1350 1357 1364 1368 1372 1375 1381 1386 1392 1396 1400 1404 1408 1412 1415 1418 1421 1424 1427 1431 1435 1438 1441 1443 1444 1447 1448 1450 1452 1455 1458 1460 1464 1466 1468 1471 1473 1476 1478 1481 1484 1486 1488 1490 1492 1494 1495 1497 1499 1502 1505 1506 1508 1510 1513 1515 1517 1519 1521 1523 1526 1528 1530 1532 1534 1536 1538 1541 1544 1547 1549 1550 1552 1553 1554 1555 1557 1558 1559 1560 1561 1562 1563 1564 1565 1566 1567 1568 1569 1569 1569 1569 1569 1569 1569 1569 1569 1568 1566 1565 1565 1564 1563 1562 1561 1560 1560 1558 1558 1558 1558 1558 1559 1561 1562 1565 1567 1570 1575 1581 1583 1583 1583 1575 1556 0 0 0 0 0 0 1036 1033 1027 1025 1025 1024 1024 1024 1024 1023 1023 1023 1024 1024 1025 1026 1026 1026 1027 1027 1028 1028 1028 1028 1028 1028 1028 1028 1029 1029 1029 1028 1028 1027 1027 1026 1025 1024 1023 1022 1021 1019 1018 1015 1010 1000 1000 1000 1000 1007 1011 1011 1013 1015 1021 1025 1027 1027 1029 1029 1030 1031 1033 1035 1037 1037 1039 1039 1040 1042 1042 1043 1044 1044 1044 1044 1044 1044 1044 1044 1043 1041 1040 1038 1036 1033 1030 1022 1015 1011 1010 1009 1009 1009 1009 1009 1010 1011 1015 1019 1020 1020 1020 1019 1019 1019 1020 1023 1024 1024 1024 1024 1025 1025 1029 1033 1034 1039 1046 1050 1051 1052 1053 1054 1054 1054 1054 1053 1049 1044 1041 1038 1036 1035 1034 1032 1030 1030 1030 1029 1029 1028 1027 1027 1027 1026 1026 1025 1023 1022 1022 1022 1022 1023 1025 1025 1027 1027 1029 1029 1029 1030 1031 1035 1038 1042 1049 1056 1063 1069 1075 1075 1075 1075 1075 1075 1076 1077 1077 1077 1076 1075 1075 1075 1075 1075 1075 1074 1074 1074 1070 1061 1052 1049 1048 1048 1047 1047 1048 1048 1048 1050 1050 1050 1052 1058 1068 1073 1079 1082 1085 1089 1090 1091 1091 1092 1093 1093 1094 1095 1095 1095 1097 1097 1098 1098 1098 1099 1099 1099 1100 1100 1100 1100 1100 1100 1100 1100 1100 1099 1099 1098 1097 1095 1092 1091 1091 1089 1087 1086 1086 1086 1090 1097 1098 1098 1101 1101 1102 1104 1106 1107 1108 1109 1110 1111 1112 1113 1113 1113 1114 1114 1114 1115 1115 1115 1115 1116 1116 1116 1115 1115 1115 1114 1114 1113 1111 1108 1100 1092 1087 1085 1069 1051 1012 1012 1012 1042 1049 1049 1049 1053 1053 1061 1062 1063 1064 1064 1072 1085 1088 1091 1111 1112 1114 1117 1121 1121 1122 1122 1123 1124 1124 1124 1122 1117 1112 1102 1086 1069 1056 1049 1049 1049 1049 1051 1052 1056 1059 1059 1060 1062 1062 1062 1061 1061 1061 1061 1062 1062 1063 1063 1063 1066 1066 1067 1067 1067 1068 1070 1081 1097 1107 1118 1124 1131 1141 1142 1142 1142 1141 1140 1135 1132 1132 1122 1103 1080 1047 1040 1024 1013 1013 1013 1013 1023 1023 1023 1012 997 993 992 987 987 992 996 1036 1051 1053 1105 1134 1137 1140 1147 1152 1153 1154 1154 1156 1160 1163 1165 1165 1165 1165 1165 1165 1166 1166 1166 1166 1167 1168 1168 1168 1169 1170 1171 1172 1172 1172 1172 1172 1173 1173 1173 1173 1172 1171 1170 1169 1168 1167 1167 1166 1166 1166 1166 1164 1163 1161 1159 1157 1155 1154 1152 1149 1145 1140 1132 1123 1115 1113 1097 0 0 0 0
745 745 758 761 777 816 841 860 873 882 897 921 952 998 1021 1038 1042 1060 1078 1094 1113 1129 1151 1167 1180 1186 1197 1222 1244 1262 1266 1286 1299 1309 1319 1324 1327 1330 1334 1339 1344 1350 1357 1364 1369 1373 1376 1381 1385 1390 1396 1400 1404 1408 1412 1416 1419 1422 1426 1429 1433 1435 1439 1442 1444 1446 1447 1448 1450 1452 1455 1458 1460 1463 1466 1468 1471 1473 1476 1478 1481 1484 1487 1489 1490 1492 1494 1497 1499 1500 1503 1506 1507 1508 1511 1513 1515 1517 1519 1521 1524 1526 1528 1529 1532 1534 1536 1538 1541 1544 1546 1548 1549 1552 1553 1554 1555 1556 1557 1558 1559 1561 1562 1563 1564 1565 1565 1567 1568 1568 1569 1569 1569 1569 1569 1569 1569 1569 1567 1566 1565 1564 1563 1562 1561 1560 1560 1559 1558 1558 1558 1558 1558 1559 1561 1563 1566 1567 1568 1569 1574 1574 1574 1574 1562 0 0 0 0 0 0 1045 1032 1027 1027 1025 1025 1024 1024 1024 1024 1024 1024 1025 1025 1025 1026 1026 1027 1027 1027 1027 1028 1028 1029 1029 1029 1029 1029 1029 1029 1029 1029 1029 1029 1028 1027 1026 1026 1024 1022 1021 1020 1018 1014 1008 998 984 984 984 987 993 997 1002 1006 1008 1015 1020 1024 1026 1027 1029 1030 1031 1032 1034 1035 1037 1038 1040 1040 1042 1043 1044 1044 1044 1044 1044 1044 1044 1044 1044 1043 1041 1039 1038 1036 1032 1026 1018 1014 1011 1010 1009 1009 1009 1009 1009 1010 1011 1014 1016 1018 1019 1019 1020 1020 1021 1022 1022 1023 1023 1023 1022 1022 1022 1029 1033 1034 1039 1044 1050 1051 1053 1054 1054 1054 1054 1054 1053 1048 1044 1041 1038 1036 1035 1034 1032 1031 1031 1031 1030 1029 1027 1027 1027 1027 1027 1027 1025 1023 1022 1022 1022 1022 1023 1025 1025 1027 1029 1030 1030 1030 1030 1031 1035 1038 1043 1049 1060 1069 1072 1076 1076 1076 1077 1077 1077 1078 1078 1078 1078 1078 1078 1078 1078 1078 1077 1077 1077 1076 1075 1072 1070 1066 1058 1056 1056 1056 1056 1053 1051 1051 1051 1051 1051 1060 1065 1068 1073 1080 1082 1088 1089 1091 1092 1092 1093 1094 1094 1095 1096 1096 1097 1098 1098 1098 1099 1099 1099 1100 1100 1101 1101 1101 1102 1102 1102 1102 1101 1101 1101 1100 1098 1097 1095 1093 1092 1091 1089 1087 1085 1084 1084 1084 1089 1094 1098 1099 1100 1102 1104 1106 1107 1108 1109 1110 1111 1112 1113 1113 1114 1115 1115 1116 1116 1116 1116 1117 1117 1117 1116 1115 1115 1115 1114 1114 1113 1111 1103 1095 1091 1082 1068 1060 1051 1029 1029 1029 1042 1042 1042 1047 1047 1047 1053 1054 1055 1056 1056 1057 1062 1069 1090 1100 1104 1105 1114 1117 1117 1120 1121 1122 1123 1123 1123 1122 1117 1108 1089 1076 1068 1056 1049 1049 1049 1049 1051 1055 1059 1059 1060 1060 1063 1065 1065 1065 1062 1062 1062 1065 1065 1066 1067 1069 1071 1072 1072 1072 1074 1076 1080 1098 1113 1124 1131 1136 1141 1145 1146 1146 1146 1146 1146 1144 1138 1134 1125 1120 1107 1082 1057 1031 1014 1014 1014 1014 1025 1025 1025 1012 997 997 997 1000 1022 1046 1048 1050 1083 1085 1127 1135 1142 1145 1152 1153 1155 1155 1155 1157 1160 1164 1165 1165 1166 1166 1166 1166 1167 1167 1167 1168 1168 1169 1169 1170 1170 1170 1171 1173 1173 1173 1173 1173 1173 1173 1173 1173 1172 1171 1170 1169 1169 1167 1167 1167 1166 1166 1166 1164 1163 1162 1161 1160 1158 1157 1153 1146 1131 1120 1117 1116 1109 1084 1081 0 0 0 0
744 744 755 757 775 0 840 859 867 877 894 921 0 998 1021 1038 1042 1060 1078 1094 1113 1129 1151 1167 1184 1199 1215 1230 1244 1262 1266 1288 1299 1307 1314 1319 1322 1327 1332 1337 1343 1350 1357 1364 1369 1373 1376 1381 1385 1390 1395 1400 1404 1409 1412 1416 1420 1424 1427 1431 1434 1437 1439 1443 1445 1447 1449 1449 1450 1452 1455 1458 1460 1464 1466 1468 1471 1473 1476 1479 1481 1484 1487 1489 1491 1493 1495 1497 1499 1501 1503 1506 1507 1508 1511 1512 1515 1517 1519 1521 1524 1526 1528 1530 1532 1534 1536 1538 1541 1543 1545 1547 1549 1551 1552 1553 1555 1556 1557 1558 1559 1561 1562 1563 1564 1565 1565 1567 1567 1568 1569 1569 1569 1569 1569 1568 1568 1568 1567 1566 1565 1563 1562 1561 1560 1559 1559 1558 1558 1558 1558 1558 1559 1560 1563 1567 1568 1568 1567 1567 1568 1573 1573 1573 1549 0 0 0 0 0 0 1037 1030 1027 1025 1025 1025 1025 1025 1025 1025 1025 1025 1025 1025 1026 1027 1027 1027 1028 1028 1029 1029 1029 1029 1029 1029 1030 1030 1030 1030 1030 1029 1029 1029 1028 1027 1026 1026 1024 1022 1021 1019 1017 1013 1002 985 976 976 976 977 981 983 987 994 1001 1006 1011 1018 1026 1026 1028 1029 1029 1030 1033 1035 1037 1038 1040 1041 1042 1043 1044 1044 1044 1045 1045 1045 1045 1044 1044 1043 1041 1039 1037 1035 1029 1023 1018 1014 1011 1010 1010 1010 1009 1010 1010 1010 1011 1013 1014 1016 1019 1020 1020 1020 1021 1022 1022 1022 1022 1022 1019 1019 1019 1028 1033 1034 1041 1041 1049 1051 1053 1053 1054 1054 1054 1054 1053 1048 1044 1041 1038 1036 1035 1034 1032 1032 1032 1032 1030 1029 1027 1027 1027 1028 1028 1028 1027 1024 1022 1022 1022 1022 1023 1025 1025 1027 1030 1033 1033 1033 1033 1033 1035 1041 1046 1055 1066 1073 1073 1076 1077 1077 1078 1080 1080 1081 1081 1081 1081 1081 1081 1081 1081 1081 1080 1080 1080 1080 1080 1079 1076 1072 1065 1064 1064 1063 1060 1059 1055 1052 1052 1052 1061 1066 1066 1072 1077 1080 1085 1088 1089 1091 1093 1093 1094 1095 1096 1096 1097 1097 1098 1098 1099 1100 1100 1100 1100 1102 1102 1102 1102 1102 1102 1103 1103 1103 1102 1102 1101 1100 1099 1097 1095 1093 1091 1090 1085 1084 1083 1077 1077 1077 1079 1088 1097 1099 1100 1102 1103 1105 1107 1107 1108 1110 1111 1112 1113 1114 1115 1115 1117 1117 1117 1117 1117 1117 1117 1117 1116 1115 1115 1115 1114 1114 1113 1106 1096 1086 1079 1074 1068 1060 1050 1039 1039 1039 1042 1042 1042 1042 1042 1042 1047 1047 1047 1049 1049 1049 1054 1061 1068 1081 1090 1104 1108 1108 1114 1118 1120 1122 1123 1123 1123 1122 1106 1084 1080 1076 1068 1056 1054 1053 1053 1054 1054 1057 1060 1061 1061 1064 1065 1065 1065 1065 1064 1064 1064 1065 1066 1067 1070 1075 1076 1076 1077 1078 1078 1080 1089 1113 1122 1130 1135 1138 1144 1145 1146 1148 1148 1148 1148 1147 1143 1137 1134 1134 1126 1105 1079 1064 1046 1017 1017 1017 1025 1025 1025 1012 996 996 996 1005 1031 1049 1051 1055 1103 1105 1136 1146 1146 1151 1156 1156 1156 1157 1157 1157 1161 1164 1166 1167 1167 1167 1168 1168 1168 1169 1169 1169 1170 1171 1171 1172 1173 1173 1173 1173 1174 1174 1174 1174 1174 1173 1173 1173 1172 1171 1171 1169 1169 1167 1167 1167 1167 1167 1167 1165 1164 1164 1164 1163 1160 1159 1155 1146 1131 1120 1116 1107 1079 1072 0 0 0 0 0
743 743 755 757 775 815 838 853 861 875 894 0 0 998 1021 1038 1042 1060 1078 1094 1106 1122 1145 1167 1186 1206 1220 1232 1246 1265 1270 1289 1299 1306 1312 1317 1322 1326 1330 1336 1342 1350 1356 1362 1369 1373 1376 1381 1385 1390 1395 1399 1403 1409 1413 1417 1421 1426 1429 1431 1435 1437 1440 1443 1446 1447 1449 1451 1453 1454 1456 1459 1461 1464 1466 1468 1471 1473 1476 1479 1481 1485 1487 1489 1492 1494 1495 1498 1500 1502 1504 1506 1507 1508 1510 1512 1515 1517 1519 1521 1524 1526 1528 1530 1531 1534 1536 1538 1540 1542 1545 1546 1548 1550 1551 1553 1554 1555 1557 1558 1559 1560 1562 1563 1564 1564 1565 1566 1567 1568 1569 1569 1569 1569 1569 1568 1568 1567 1566 1565 1564 1563 1562 1560 1560 1559 1558 1556 1556 1556 1557 1558 1559 1562 1566 1567 1568 1568 1567 1567 1565 1564 1561 1553 0 0 0 0 0 0 1050 1035 1030 1026 1026 1026 1026 1026 1026 1025 1025 1025 1025 1026 1027 1027 1027 1028 1028 1029 1029 1029 1029 1030 1030 1030 1030 1030 1030 1030 1030 1030 1030 1029 1029 1028 1027 1026 1026 1024 1023 1020 1019 1015 1009 992 982 972 967 958 958 958 970 974 983 983 983 993 1009 1018 1020 1024 1028 1029 1030 1033 1034 1036 1037 1040 1041 1042 1043 1044 1044 1045 1045 1045 1045 1045 1044 1044 1043 1041 1039 1035 1033 1028 1023 1018 1014 1011 1010 1010 1010 1010 1009 1009 1009 1011 1013 1014 1016 1020 1021 1021 1022 1022 1021 1022 1022 1022 1021 1019 1019 1019 1029 1038 1041 1042 1045 1049 1052 1053 1053 1055 1055 1055 1055 1053 1052 1052 1050 1050 1041 1039 1035 1033 1033 1032 1032 1030 1029 1028 1028 1028 1029 1029 1029 1028 1024 1024 1024 1025 1026 1027 1028 1029 1031 1033 1035 1036 1037 1038 1043 1046 1049 1061 1070 1072 1073 1075 1077 1079 1080 1081 1081 1082 1083 1083 1083 1083 1083 1084 1084 1084 1083 1083 1083 1083 1083 1083 1083 1080 1078 1074 1073 1071 1066 1066 1063 1062 1057 1057 1057 1063 1069 1074 1080 1085 1086 1089 1090 1092 1093 1094 1095 1096 1096 1097 1097 1098 1099 1099 1100 1100 1100 1101 1101 1102 1102 1103 1103 1103 1104 1104 1104 1104 1104 1104 1103 1102 1100 1099 1097 1095 1092 1091 1089 1082 1079 1077 1073 1073 1073 1077 1088 1090 1093 1099 1100 1102 1104 1106 1106 1108 1109 1112 1113 1114 1114 1115 1116 1117 1117 1117 1118 1118 1118 1117 1117 1116 1115 1114 1114 1112 1111 1105 1099 1092 1079 1076 1074 1068 1059 1050 1039 1039 1039 1040 1042 1042 1042 1042 1042 1041 1041 1041 1041 1041 1042 1049 1053 1054 1060 1072 1082 1084 1098 1111 1118 1118 1118 1118 1117 1114 1110 1097 1084 1080 1076 1069 1064 1064 1062 1062 1062 1061 1061 1061 1064 1065 1065 1066 1066 1066 1066 1064 1064 1064 1066 1066 1067 1070 1076 1078 1078 1080 1080 1084 1101 1127 1128 1131 1131 1136 1140 1144 1145 1146 1148 1149 1149 1149 1149 1149 1148 1142 1138 1138 1131 1117 1113 0 0 1035 1031 1026 1026 1026 1011 996 996 996 1005 1036 1053 0 1101 1129 1130 1142 1152 1153 1157 1158 1158 1158 1158 1158 1160 1163 1165 1167 1168 1168 1169 1169 1169 1170 1171 1171 1171 1172 1173 1174 1174 1174 1175 1175 1176 1176 1176 1176 1175 1174 1174 1173 1173 1172 1171 1171 1170 1169 1168 1168 1168 1168 1168 1168 1168 1167 1167 1166 1163 1160 1159 1155 1146 1131 1120 1112 1081 1062 0 0 0 0 0 0
743 743 753 754 767 802 829 844 856 872 892 0 0 994 1017 1035 1039 1055 1072 1087 1103 1122 1145 1167 1187 1206 1224 1232 1248 1265 1270 1289 1299 1306 1311 1316 1322 1326 1330 1335 1342 1349 1356 1361 1367 1373 1376 1381 1386 1390 1395 1399 1403 1409 1413 1418 1423 1426 1429 1432 1435 1437 1441 1444 1447 1449 1450 1452 1454 1456 1457 1460 1462 1464 1466 1469 1472 1473 1476 1480 1482 1485 1488 1490 1493 1494 1496 1498 1501 1502 1504 1506 1507 1508 1510 1512 1515 1517 1519 1521 1523 1525 1527 1529 1531 1534 1536 1538 1540 1542 1544 1546 1548 1550 1551 1553 1554 1555 1556 1557 1559 1560 1562 1562 1563 1564 1565 1566 1567 1568 1569 1569 1569 1569 1569 1568 1567 1566 1566 1565 1564 1563 1562 1560 1559 1558 1556 1556 1556 1556 1556 1557 1559 1562 1566 1568 1569 1569 1569 1567 1561 1554 1537 1521 0 0 0 0 0 1052 1038 1033 1030 1027 1027 1027 1026 1026 1026 1026 1026 1026 1026 1027 1027 1027 1028 1028 1029 1029 1030 1030 1030 1030 1031 1031 1031 1031 1031 1031 1031 1031 1030 1029 1029 1028 1027 1026 1026 1024 1022 1019 1014 1005 998 989 971 969 963 958 957 957 957 967 971 973 973 981 987 993 1005 1017 1023 1025 1027 1031 1033 1035 1037 1039 1041 1041 1043 1044 1044 1045 1045 1045 1045 1044 1044 1044 1043 1041 1038 1035 1032 1027 1023 1019 1016 1012 1011 1010 1010 1010 1009 1009 1009 1011 1013 1014 1016 1020 1021 1021 1022 1022 1021 1022 1022 1022 1021 1020 1020 1020 1029 1039 1041 1042 1045 1045 1051 1053 1054 1056 1057 1057 1057 1055 1055 1054 1054 1054 1048 1040 1040 1035 1034 1034 1033 1032 1030 1030 1030 1030 1030 1030 1030 1028 1026 1026 1026 1027 1029 1031 1033 1034 1036 1037 1038 1039 1040 1042 1047 1049 1053 1065 1071 1075 1076 1078 1080 1081 1082 1083 1083 1084 1085 1085 1085 1085 1086 1086 1086 1086 1086 1085 1085 1085 1085 1085 1085 1084 1082 1078 1075 1075 1068 1067 1067 1064 1063 1063 1063 1068 1074 1083 1086 1088 1089 1091 1092 1094 1095 1096 1097 1097 1097 1098 1099 1099 1099 1100 1100 1101 1102 1102 1102 1103 1103 1104 1104 1105 1105 1105 1105 1105 1105 1104 1103 1102 1101 1099 1097 1095 1092 1088 1086 1081 1079 1074 1071 1069 1069 1069 1074 1077 1080 1089 1099 1099 1101 1103 1105 1108 1109 1112 1113 1114 1115 1116 1117 1117 1118 1118 1118 1118 1118 1118 1117 1116 1115 1114 1114 1111 1110 1105 1098 1091 1077 1076 1071 1067 1059 1050 1041 1035 1035 1035 1042 1042 1042 1042 1042 1041 1041 1041 1032 1032 1032 1041 1049 1054 1058 1060 1063 1065 1085 1104 1108 1112 1117 1117 1117 1114 1110 1097 1084 1080 1077 1074 1074 1074 1071 1070 1068 1063 1063 1063 1067 1067 1067 1067 1067 1067 1067 1066 1066 1066 1067 1067 1068 1071 1076 1078 1079 1081 1082 1096 1120 1131 1132 1132 1137 1141 1144 1145 1146 1147 1149 1149 1150 1150 1150 1150 1150 1149 1142 1142 1142 1140 1140 1132 0 0 1035 1031 1026 1026 1011 996 996 996 1011 0 0 0 1137 1138 1144 1153 1154 1155 1157 1160 1161 1161 1162 1163 1165 1165 1166 1167 1168 1170 1170 1172 1172 1172 1172 1173 1173 1174 1175 1176 1176 1176 1176 1176 1176 1177 1177 1177 1177 1175 1174 1174 1173 1172 1172 1171 1170 1170 1170 1169 1169 1168 1168 1168 1169 1169 1169 1166 1163 1160 1159 1155 1146 1138 1126 1111 1080 0 0 0 0 0 0 0
729 729 743 743 760 789 812 831 850 869 892 0 0 988 1010 1031 1036 1052 1069 1087 1103 1122 1145 1167 1188 1209 1228 1236 1248 1268 1271 1289 1296 1303 1308 1316 1321 1325 1329 1335 1342 1349 1356 1361 1366 1372 1376 1381 1386 1391 1395 1399 1403 1409 1413 1418 1423 1427 1430 1432 1435 1438 1441 1444 1447 1449 1451 1453 1455 1456 1458 1460 1463 1465 1468 1471 1472 1475 1478 1481 1484 1486 1488 1490 1493 1495 1497 1499 1501 1502 1504 1505 1507 1508 1510 1512 1515 1517 1519 1521 1522 1525 1527 1529 1531 1533 1536 1537 1539 1541 1543 1546 1547 1549 1551 1552 1553 1554 1556 1556 1557 1559 1561 1561 1563 1563 1564 1565 1567 1567 1568 1569 1569 1569 1569 1568 1567 1566 1566 1565 1564 1563 1562 1560 1559 1558 1556 1556 1556 1556 1556 1557 1558 1562 1566 1569 1569 1569 1569 1567 1561 1541 1518 0 0 0 0 0 0 1038 1036 1032 1029 1027 1027 1027 1027 1027 1027 1027 1027 1027 1027 1028 1028 1028 1029 1029 1030 1030 1030 1031 1031 1031 1032 1032 1032 1032 1032 1032 1031 1031 1030 1029 1029 1028 1027 1026 1025 1023 1022 1018 1011 996 988 964 964 962 960 954 951 951 951 962 967 968 970 979 987 989 995 1011 1020 1023 1024 1025 1027 1033 1036 1038 1039 1040 1042 1043 1044 1045 1045 1045 1045 1044 1044 1044 1042 1040 1038 1033 1027 1026 1023 1019 1016 1013 1013 1013 1013 1013 1009 1009 1009 1011 1015 1015 1016 1020 1021 1021 1022 1022 1021 1022 1022 1022 1021 1022 1022 1022 1030 1039 1043 1044 1045 1045 1051 1053 1055 1056 1058 1058 1058 1059 1059 1059 1059 1059 1051 1045 1042 1041 1037 1036 1035 1034 1032 1030 1030 1030 1032 1032 1032 1030 1029 1029 1029 1031 1031 1034 1036 1039 1041 1041 1042 1042 1042 1046 1051 1059 1065 1068 1072 1076 1079 1081 1082 1083 1083 1084 1084 1085 1086 1086 1086 1087 1087 1088 1088 1088 1088 1088 1088 1088 1088 1088 1088 1087 1087 1084 1080 1075 1075 1075 1074 1074 1074 1070 1070 1070 1080 1086 1089 1090 1091 1093 1094 1096 1097 1098 1098 1099 1099 1099 1099 1100 1101 1101 1102 1102 1103 1103 1104 1104 1104 1105 1105 1105 1106 1106 1106 1106 1105 1104 1104 1102 1101 1099 1096 1095 1091 1085 1079 1076 1075 1072 1070 1069 1069 1069 1074 1077 1079 1084 1091 1095 1096 1100 1105 1107 1108 1112 1113 1114 1115 1116 1117 1117 1118 1118 1118 1118 1118 1118 1118 1117 1114 1113 1111 1111 1109 1102 1098 1091 1077 1071 1071 1067 1059 1050 1041 1032 1032 1032 1041 1043 1043 1043 1043 1042 1042 1041 1032 1032 1032 1040 1049 1054 1058 1060 1062 1064 1071 1085 1090 1096 1109 1114 1114 1114 1110 1097 1084 1084 1083 1083 1083 1080 1077 1075 1070 1070 1070 1070 1070 1069 1069 1069 1069 1069 1066 1066 1066 1067 1069 1071 1072 1074 1076 1081 1085 1086 1087 1097 1121 1131 1133 1137 1141 1143 1147 1147 1148 1149 1150 1152 1153 1153 1154 1154 1154 1153 1150 1147 1146 1143 1143 1137 1128 0 0 0 1031 1026 1011 1006 1006 1006 0 0 0 1149 1150 1150 1151 1153 1155 1155 1158 1161 1162 1165 1165 1166 1168 1169 1169 1169 1169 1170 1172 1173 1173 1174 1175 1175 1175 1176 1176 1176 1177 1177 1178 1178 1178 1178 1178 1178 1177 1176 1174 1174 1173 1173 1172 1172 1171 1170 1170 1170 1169 1168 1168 1168 1170 1170 1170 1166 1161 1159 1156 1155 1146 1138 1126 0 0 0 0 0 0 0 0 0
720 720 732 732 748 768 794 815 836 861 890 0 0 980 1004 1025 1030 1049 1069 1087 1103 1124 1149 1171 1194 1213 1228 1240 1253 1268 1271 1285 1294 1299 1307 1314 1321 1325 1329 1335 1342 1349 1355 1361 1366 1372 1376 1381 1387 1391 1396 1400 1406 1410 1415 1419 1423 1427 1430 1432 1436 1440 1442 1445 1447 1450 1452 1453 1455 1457 1459 1460 1463 1466 1469 1471 1473 1476 1478 1481 1484 1486 1488 1490 1493 1495 1497 1499 1501 1502 1504 1505 1507 1508 1510 1512 1514 1517 1518 1520 1522 1524 1526 1528 1530 1532 1534 1536 1538 1540 1541 1544 1546 1549 1550 1551 1552 1553 1554 1555 1557 1558 1559 1561 1562 1563 1564 1565 1566 1567 1568 1569 1569 1569 1569 1568 1567 1566 1565 1564 1564 1563 1562 1560 1559 1558 1556 1556 1556 1556 1556 1557 1558 1562 1567 1569 1569 1569 1569 1567 1555 1534 1504 0 0 0 0 0 1042 1038 1036 1032 1029 1028 1028 1028 1028 1028 1028 1028 1028 1028 1028 1028 1029 1029 1030 1030 1031 1031 1032 1032 1032 1032 1032 1032 1032 1032 1032 1032 1032 1031 1030 1030 1029 1029 1027 1025 1024 1022 1020 1015 1005 987 972 964 961 960 959 954 951 951 951 962 967 967 969 974 986 987 991 1003 1014 1018 1021 1021 1023 1028 1034 1037 1038 1039 1041 1043 1043 1044 1045 1045 1045 1044 1044 1042 1041 1040 1036 1031 1025 1025 1023 1019 1017 1016 1016 1016 1016 1016 1012 1012 1012 1012 1015 1015 1016 1020 1021 1021 1022 1022 1022 1022 1023 1024 1024 1024 1024 1029 1035 1041 1045 1045 1046 1046 1051 1053 1055 1057 1058 1059 1059 1059 1059 1059 1059 1059 1055 1046 1046 1045 1042 1039 1038 1036 1034 1032 1032 1032 1032 1034 1034 1034 1031 1031 1031 1033 1033 1035 1036 1039 1041 1041 1044 1045 1045 1061 1062 1066 1072 1074 1075 1078 1080 1082 1084 1085 1085 1085 1086 1087 1087 1087 1088 1088 1089 1090 1090 1090 1090 1090 1090 1090 1090 1090 1090 1090 1089 1087 1084 1083 1083 1083 1081 1081 1081 1077 1077 1077 1082 1086 1089 1091 1093 1095 1096 1097 1098 1099 1099 1099 1100 1101 1102 1102 1102 1102 1102 1104 1104 1105 1105 1105 1106 1106 1106 1106 1106 1106 1106 1106 1106 1105 1104 1102 1101 1099 1096 1095 1090 1083 1079 1076 1071 1069 1069 1067 1067 1067 1072 1072 1074 1076 1081 1087 1089 1094 1100 1103 1106 1110 1114 1114 1115 1116 1117 1117 1118 1118 1118 1118 1119 1119 1119 1117 1114 1113 1110 1104 1092 1089 1086 1083 1074 1071 1071 1067 1058 1050 1041 1031 1031 1031 1039 1043 1044 1044 1045 1045 1045 1042 1032 1032 1032 1040 1049 1054 1058 1059 1062 1064 1071 1080 1085 1096 1109 1117 1117 1117 1112 1107 1101 1092 1089 1088 1088 1081 1077 1075 1075 1075 1076 1076 1076 1073 1070 1069 1069 1069 1067 1067 1067 1069 1072 1074 1074 1075 1077 1082 1088 1096 1101 1116 1134 1141 1143 1143 1144 1147 1148 1150 1150 1151 1151 1153 1155 1156 1157 1157 1157 1156 1153 1150 1150 1149 1149 1149 1141 1124 0 0 0 0 0 0 0 0 0 0 1150 1155 1155 1155 1155 1155 1157 1158 1159 1161 1162 1165 1166 1168 1170 1170 1171 1171 1171 1172 1173 1174 1175 1176 1176 1177 1177 1177 1177 1178 1178 1178 1178 1178 1178 1178 1178 1178 1177 1176 1176 1174 1173 1173 1172 1172 1171 1170 1170 1170 1169 1168 1168 1168 1170 1170 1170 1165 1156 1153 1141 1139 1139 1138 1126 0 0 0 0 0 0 0 0 0
720 720 729 732 742 754 780 803 826 851 878 0 0 980 1004 1025 1030 1049 1069 1090 1108 1125 1150 1180 1199 1218 1230 1242 1253 1268 1271 1283 1292 1298 1305 1313 1320 1325 1329 1335 1342 1349 1355 1361 1366 1371 1375 1381 1387 1391 1396 1401 1406 1411 1415 1419 1424 1428 1433 1435 1437 1441 1443 1445 1448 1450 1452 1453 1455 1458 1460 1462 1464 1467 1470 1472 1474 1476 1479 1481 1484 1486 1488 1490 1493 1495 1498 1499 1501 1503 1504 1505 1507 1508 1510 1512 1514 1517 1518 1520 1522 1524 1526 1528 1530 1531 1533 1535 1537 1538 1540 1542 1545 1547 1548 1550 1551 1552 1553 1555 1556 1558 1559 1560 1562 1563 1564 1565 1566 1567 1568 1568 1569 1569 1569 1568 1567 1566 1565 1564 1564 1563 1561 1560 1558 1557 1556 1555 1555 1555 1556 1556 1558 1561 1567 1569 1569 1569 1569 1564 1545 1525 0 0 0 0 0 1050 1041 1037 1036 1032 1029 1028 1028 1028 1028 1028 1029 1028 1028 1029 1030 1030 1030 1030 1030 1031 1032 1032 1032 1032 1033 1033 1033 1033 1033 1032 1032 1032 1032 1031 1031 1030 1029 1029 1027 1025 1023 1020 1014 1009 1000 983 972 964 959 959 959 954 951 951 951 962 965 967 968 973 979 984 987 994 1003 1005 1012 1018 1022 1024 1028 1034 1036 1037 1040 1041 1043 1043 1044 1044 1044 1044 1043 1042 1041 1038 1032 1027 1025 1023 1021 1019 1017 1017 1017 1017 1017 1017 1013 1013 1013 1013 1015 1015 1015 1018 1019 1021 1021 1021 1023 1025 1025 1025 1026 1026 1030 1032 1035 1041 1045 1046 1047 1051 1054 1055 1059 1060 1061 1062 1063 1063 1063 1063 1063 1063 1056 1052 1050 1049 1048 1046 1043 1040 1035 1034 1034 1034 1034 1035 1035 1035 1035 1035 1036 1036 1036 1036 1036 1039 1041 1043 1046 1047 1049 1062 1067 1071 1076 1079 1081 1081 1083 1083 1084 1086 1086 1087 1087 1088 1088 1089 1089 1090 1091 1091 1091 1092 1092 1092 1092 1092 1092 1092 1091 1091 1090 1088 1086 1085 1083 1083 1083 1083 1083 1081 1081 1081 1086 1088 1089 1092 1095 1096 1096 1097 1098 1099 1100 1101 1102 1102 1102 1102 1103 1104 1104 1104 1105 1106 1106 1106 1107 1107 1107 1107 1108 1108 1108 1106 1106 1105 1105 1102 1101 1099 1096 1095 1089 1082 1077 1073 1068 1067 1067 1067 1067 1067 1066 1065 1065 1065 1069 1076 1081 1087 1093 1099 1103 1109 1114 1114 1114 1115 1117 1117 1118 1118 1118 1118 1119 1119 1119 1117 1114 1113 1108 1095 1083 1083 1082 1073 1069 1067 1067 1067 1058 1050 1044 1031 1031 1031 1036 1038 1041 1043 1045 1047 1047 1047 1043 1040 1040 1040 1046 1054 1059 1061 1062 1064 1071 1080 1085 1096 1109 1118 1121 1121 1121 1121 1117 1104 1103 1101 1094 1082 1077 1075 1075 1075 1080 1080 1080 1076 1070 1070 1070 1069 1067 1067 1067 1071 1074 1078 1078 1078 1078 1085 1094 1101 1113 1125 1140 1146 1147 1147 1147 1149 1150 1152 1152 1153 1154 1155 1157 1158 1159 1159 1159 1158 1155 1154 1154 1154 1154 1154 1152 1140 1132 1121 0 0 0 0 0 0 0 0 1157 1158 1158 1158 1158 1161 1161 1162 1164 1164 1165 1165 1167 1169 1171 1171 1172 1173 1173 1174 1175 1176 1176 1177 1178 1178 1178 1179 1179 1179 1179 1179 1179 1179 1178 1178 1178 1178 1177 1177 1176 1174 1173 1173 1172 1172 1171 1171 1170 1170 1168 1167 1167 1167 1170 1170 1170 1165 1152 1149 1132 1131 1127 1125 0 0 0 0 0 0 0 0 0 0
720 720 729 732 739 751 774 795 819 848 877 0 0 979 1004 1025 1030 1049 1075 1096 1110 1128 1154 1185 1204 1218 1230 1242 1253 1262 1267 1278 1288 1296 1304 1312 1320 1325 1329 1335 1342 1348 1353 1361 1366 1371 1375 1380 1387 1391 1396 1401 1407 1411 1416 1419 1424 1428 1434 1437 1438 1441 1444 1447 1448 1451 1452 1454 1456 1458 1461 1464 1465 1468 1470 1473 1475 1477 1479 1481 1484 1487 1488 1490 1493 1495 1498 1499 1501 1503 1504 1505 1507 1508 1510 1512 1514 1516 1518 1520 1522 1524 1526 1527 1529 1530 1531 1534 1535 1537 1539 1540 1543 1545 1546 1548 1549 1551 1553 1555 1556 1557 1558 1559 1562 1562 1564 1564 1566 1567 1567 1568 1569 1569 1569 1568 1567 1566 1565 1564 1564 1563 1561 1559 1558 1557 1556 1555 1555 1555 1555 1555 1557 1561 1566 1567 1567 1567 1567 1553 1533 0 0 0 0 0 0 1041 1038 1037 1036 1032 1030 1029 1029 1029 1029 1029 1029 1029 1029 1029 1030 1030 1031 1031 1031 1032 1032 1033 1033 1033 1033 1033 1033 1033 1033 1033 1033 1033 1032 1032 1031 1030 1029 1029 1027 1024 1023 1019 1008 990 985 979 972 963 959 958 955 953 953 953 958 963 965 966 967 971 976 980 982 989 999 1004 1006 1011 1018 1022 1022 1027 1032 1036 1038 1039 1041 1043 1044 1044 1044 1043 1042 1042 1041 1035 1027 1027 1027 1023 1020 1018 1017 1017 1017 1017 1017 1017 1013 1013 1013 1013 1015 1015 1015 1018 1019 1021 1021 1021 1023 1025 1027 1027 1028 1029 1035 1037 1038 1041 1046 1048 1048 1052 1059 1062 1063 1064 1064 1066 1068 1068 1068 1069 1069 1069 1065 1060 1058 1058 1054 1053 1050 1046 1043 1040 1036 1036 1036 1036 1036 1037 1038 1038 1038 1038 1038 1038 1038 1038 1041 1046 1048 1048 1055 1068 1073 1078 1079 1080 1083 1083 1084 1085 1086 1087 1088 1089 1089 1090 1090 1091 1091 1092 1093 1093 1093 1093 1094 1093 1093 1093 1093 1093 1092 1092 1091 1091 1089 1087 1087 1087 1086 1084 1084 1084 1084 1085 1086 1087 1089 1092 1095 1096 1096 1097 1098 1099 1100 1101 1102 1102 1102 1104 1104 1104 1105 1106 1106 1106 1107 1107 1107 1108 1108 1108 1108 1108 1108 1107 1106 1106 1105 1103 1101 1098 1096 1093 1088 1082 1077 1072 1068 1066 1066 1066 1065 1064 1062 1058 1057 1057 1057 1066 1076 1087 1091 1096 1102 1109 1113 1113 1114 1114 1117 1117 1118 1118 1118 1118 1119 1119 1119 1117 1114 1112 1105 1091 1083 1083 1070 1066 1066 1066 1066 1066 1057 1052 1045 1035 1032 1032 1032 1032 1036 1041 1045 1047 1047 1047 1046 1045 1045 1046 1046 1054 1059 1061 1062 1073 1080 1085 1086 1098 1119 1126 1127 1129 1129 1129 1125 1111 1107 1103 1095 1087 1077 1076 1076 1076 1083 1083 1083 1076 1070 1070 1070 1069 1068 1068 1068 1074 1077 1078 1078 1082 1086 1099 1102 1113 1122 1132 1145 1148 1148 1148 1149 1151 1153 1153 1154 1155 1155 1157 1158 1160 1160 1160 1160 1159 1158 1157 1157 1157 1158 1158 1158 1157 1152 1150 1139 1135 1125 1104 1104 1104 1123 1158 1158 1158 1162 1161 1161 1162 1162 1165 1166 1167 1167 1167 1168 1170 1171 1172 1173 1174 1174 1175 1176 1177 1177 1178 1179 1180 1180 1180 1181 1181 1180 1180 1180 1180 1180 1179 1179 1178 1178 1177 1176 1175 1173 1173 1172 1172 1171 1171 1170 1168 1166 1166 1166 1167 1170 1170 1170 1153 1151 1133 1121 1115 1107 0 0 0 0 0 0 0 0 0 0 0
720 720 729 732 739 751 771 792 814 839 871 0 0 0 1002 1032 1036 1060 1080 1096 1111 1131 1160 1190 1206 1218 1230 1242 1251 1260 1266 1274 1285 1294 1303 1312 1320 1325 1329 1335 1342 1348 1353 1361 1366 1371 1375 1380 1386 1391 1395 1401 1407 1412 1416 1420 1424 1429 1434 1437 1439 1442 1444 1447 1449 1451 1453 1455 1457 1460 1463 1465 1467 1469 1470 1473 1475 1477 1479 1481 1484 1486 1488 1490 1493 1495 1497 1499 1501 1502 1504 1505 1507 1509 1510 1512 1514 1516 1518 1520 1522 1524 1525 1527 1529 1530 1531 1533 1534 1536 1537 1540 1541 1543 1545 1546 1548 1550 1552 1554 1555 1556 1557 1559 1560 1562 1563 1564 1565 1566 1567 1568 1569 1569 1569 1568 1567 1566 1565 1565 1564 1563 1561 1559 1558 1557 1555 1555 1554 1553 1553 1553 1555 1557 1560 1564 1564 1564 1557 1539 0 0 0 0 0 0 1039 1038 1038 1037 1036 1034 1034 1032 1031 1031 1030 1030 1030 1030 1030 1030 1031 1031 1032 1032 1032 1032 1033 1034 1034 1034 1034 1034 1034 1034 1034 1034 1033 1033 1032 1032 1031 1030 1029 1028 1026 1023 1023 1016 1005 987 982 979 972 963 958 956 954 953 953 953 958 963 965 966 967 969 974 978 981 985 995 1001 1004 1007 1012 1018 1020 1021 1027 1033 1036 1037 1040 1041 1042 1042 1042 1042 1041 1040 1038 1030 1027 1027 1027 1023 1019 1016 1016 1016 1016 1017 1017 1017 1016 1015 1015 1015 1015 1015 1015 1018 1019 1021 1021 1021 1023 1025 1027 1028 1031 1034 1038 1039 1040 1044 1051 1052 1052 1057 1062 1064 1066 1067 1067 1068 1069 1069 1070 1071 1071 1071 1068 1067 1066 1062 1057 1056 1054 1054 1051 1048 1044 1039 1037 1037 1037 1038 1040 1040 1040 1040 1039 1038 1038 1038 1040 1048 1049 1061 1073 1073 1074 1078 1080 1081 1083 1085 1086 1086 1088 1089 1089 1090 1091 1091 1091 1092 1093 1093 1093 1094 1094 1094 1094 1095 1095 1095 1094 1094 1093 1093 1093 1092 1091 1090 1088 1088 1087 1085 1085 1085 1085 1086 1086 1087 1089 1092 1095 1096 1096 1097 1098 1099 1100 1101 1103 1103 1104 1104 1105 1106 1106 1107 1107 1108 1108 1109 1109 1109 1109 1109 1109 1109 1108 1107 1106 1106 1105 1103 1100 1097 1090 1089 1084 1076 1074 1071 1066 1065 1065 1064 1063 1061 1058 1054 1049 1049 1049 1054 1068 1079 1090 1090 1093 1103 1109 1110 1110 1113 1116 1117 1117 1118 1118 1118 1119 1119 1119 1117 1114 1112 1104 1087 1075 1066 1059 1059 1059 1062 1062 1062 1057 1053 1049 1044 1032 1032 1032 1032 1035 1041 1044 1044 1044 1044 1045 1045 1045 1046 1046 1048 1055 1061 1067 1076 1095 1096 1106 1124 1130 1131 1132 1132 1132 1131 1127 1123 1115 1111 1106 1097 1086 1080 1080 1080 1083 1083 1083 1077 1072 1070 1070 1069 1069 1069 1073 1077 1078 1078 1078 1083 1100 1112 1117 1124 1132 1141 1146 1149 1150 1151 1152 1154 1154 1156 1156 1157 1157 1158 1159 1160 1161 1161 1161 1161 1160 1160 1160 1160 1160 1161 1161 1161 1160 1152 1152 1151 1135 1119 1119 1119 1138 1165 1165 1165 1162 1162 1162 1162 1163 1165 1167 1168 1169 1170 1171 1171 1172 1173 1174 1175 1175 1176 1176 1177 1178 1180 1181 1181 1182 1182 1182 1182 1182 1182 1182 1181 1181 1181 1180 1180 1179 1177 1176 1175 1174 1173 1172 1171 1171 1171 1170 1168 1166 1166 1166 1167 1167 1167 1157 1141 1138 1127 1119 0 0 0 0 0 0 0 0 0 0 0 0 0
724 724 734 736 739 751 771 792 812 832 857 885 0 0 0 1040 1044 1066 1083 1096 1112 1133 1174 1193 1206 1218 1229 1238 1246 1255 1264 1271 1280 1290 1301 1310 1318 1324 1329 1336 1342 1348 1353 1361 1366 1371 1375 1380 1386 1391 1395 1401 1408 1413 1416 1420 1424 1429 1434 1437 1439 1442 1444 1447 1449 1451 1454 1457 1458 1462 1464 1467 1468 1469 1471 1474 1475 1477 1479 1481 1484 1487 1488 1490 1493 1495 1497 1499 1501 1502 1504 1505 1507 1509 1510 1512 1514 1516 1518 1520 1521 1523 1525 1527 1528 1530 1531 1532 1533 1534 1537 1538 1540 1541 1542 1544 1547 1549 1551 1552 1554 1556 1557 1558 1560 1561 1562 1563 1565 1566 1567 1568 1569 1569 1569 1568 1567 1566 1565 1565 1564 1563 1561 1559 1558 1557 1555 1554 1552 1551 1551 1551 1552 1552 1552 1554 1554 1554 1549 1529 0 0 0 0 0 0 1037 1036 1036 1036 1035 1034 1034 1033 1033 1031 1031 1031 1031 1031 1031 1031 1031 1032 1032 1033 1033 1033 1033 1034 1034 1034 1034 1034 1034 1034 1034 1034 1034 1033 1032 1032 1031 1030 1029 1027 1025 1023 1021 1015 996 982 978 978 972 960 956 954 951 951 951 953 958 963 964 965 967 969 973 976 980 984 991 995 1000 1002 1005 1011 1015 1019 1024 1033 1034 1036 1039 1040 1040 1041 1041 1041 1040 1038 1038 1031 1030 1030 1027 1027 1019 1016 1016 1016 1016 1016 1016 1016 1016 1016 1016 1016 1016 1017 1018 1021 1022 1022 1022 1022 1022 1023 1028 1030 1036 1042 1042 1042 1042 1049 1052 1053 1054 1060 1063 1067 1068 1069 1069 1069 1071 1072 1072 1072 1072 1071 1071 1071 1070 1065 1059 1059 1059 1056 1056 1055 1052 1045 1041 1041 1041 1041 1043 1043 1043 1043 1041 1038 1038 1038 1040 1049 1053 1061 1074 1075 1077 1078 1083 1084 1085 1087 1088 1089 1090 1090 1090 1092 1092 1093 1093 1094 1094 1094 1095 1095 1095 1096 1096 1096 1096 1095 1095 1095 1094 1094 1093 1093 1092 1090 1089 1089 1087 1086 1086 1085 1085 1085 1086 1087 1090 1091 1094 1095 1096 1097 1098 1099 1101 1103 1103 1104 1105 1105 1106 1106 1107 1108 1108 1108 1108 1109 1109 1109 1109 1109 1109 1109 1108 1107 1107 1106 1105 1103 1098 1088 1082 1082 1075 1073 1070 1068 1065 1064 1064 1064 1061 1058 1055 1051 1048 1048 1048 1048 1052 1062 1071 1077 1079 1088 1105 1107 1108 1111 1115 1116 1117 1118 1118 1118 1118 1118 1117 1116 1114 1112 1101 1084 1072 1060 1056 1056 1056 1059 1059 1059 1057 1054 1054 1051 1047 1042 1035 1035 1035 1041 1041 1041 1043 1043 1043 1045 1046 1046 1047 1048 1055 1063 1069 1081 1099 1116 1128 1133 1134 1134 1134 1133 1133 1133 1132 1132 1132 1127 1120 1110 1096 1088 1085 1084 1083 1083 1083 1079 1078 1075 1074 1074 1074 1074 1078 1078 1079 1080 1082 1086 1100 1118 1123 1133 1141 1145 1148 1151 1152 1154 1154 1156 1157 1157 1158 1158 1158 1159 1160 1161 1161 1162 1162 1163 1163 1163 1163 1163 1164 1164 1164 1162 1160 1159 1155 1153 1153 1130 1130 1130 1150 1164 1164 1164 1164 1163 1163 1163 1163 1165 1167 1169 1170 1170 1171 1172 1173 1174 1175 1176 1176 1177 1177 1179 1179 1180 1183 1183 1183 1183 1183 1183 1183 1183 1183 1183 1183 1182 1182 1181 1180 1179 1176 1175 1174 1173 1172 1171 1171 1170 1170 1168 1165 1165 1164 1164 1164 1152 1130 1127 1123 1119 0 0 0 0 0 0 0 0 0 0 0 0 0 0
733 733 747 747 750 753 771 792 811 830 857 883 911 0 0 1040 1048 1069 1084 1098 1113 1146 1176 1195 1206 1218 1228 1237 1245 1254 1263 1267 1276 1286 1299 1310 1317 1323 1329 1337 1343 1350 1355 1362 1368 1373 1377 1380 1386 1391 1395 1401 1409 1414 1417 1420 1424 1429 1434 1437 1439 1442 1445 1447 1449 1452 1455 1457 1459 1462 1464 1467 1469 1471 1472 1474 1475 1478 1479 1481 1484 1486 1488 1490 1493 1495 1497 1499 1500 1502 1504 1505 1507 1509 1510 1512 1514 1515 1517 1519 1521 1523 1524 1527 1528 1529 1531 1532 1532 1534 1535 1536 1538 1540 1541 1543 1546 1548 1550 1552 1553 1555 1556 1558 1559 1560 1561 1563 1564 1566 1567 1568 1569 1569 1569 1569 1568 1567 1566 1565 1564 1563 1561 1560 1558 1557 1555 1553 1552 1551 1551 1551 1552 1552 1552 1551 1547 1536 1526 0 0 0 0 0 0 1040 1036 1036 1036 1036 1035 1034 1034 1033 1033 1032 1032 1032 1032 1032 1032 1032 1033 1033 1034 1034 1034 1034 1034 1035 1035 1035 1035 1035 1036 1035 1035 1035 1034 1033 1032 1032 1031 1030 1029 1027 1025 1020 1008 995 986 964 962 961 961 959 955 953 951 951 951 953 956 960 961 964 967 969 971 973 977 983 988 993 997 1000 1002 1006 1009 1014 1023 1031 1031 1032 1033 1038 1040 1040 1040 1040 1040 1038 1038 1031 1031 1031 1031 1031 1019 1016 1016 1016 1016 1016 1016 1016 1016 1016 1016 1016 1016 1018 1020 1023 1023 1023 1023 1023 1023 1023 1028 1031 1043 1044 1044 1046 1046 1050 1058 1058 1059 1062 1065 1069 1071 1071 1071 1071 1072 1073 1073 1073 1074 1074 1073 1073 1071 1070 1069 1067 1065 1064 1064 1064 1063 1055 1045 1041 1041 1041 1047 1048 1048 1048 1044 1039 1039 1039 1040 1054 1058 1064 1076 1081 1081 1083 1085 1087 1087 1088 1090 1090 1091 1092 1092 1093 1094 1094 1094 1094 1096 1096 1096 1096 1096 1097 1097 1097 1097 1097 1096 1096 1096 1096 1094 1093 1092 1091 1090 1089 1088 1088 1085 1084 1083 1083 1084 1086 1089 1090 1091 1094 1096 1097 1098 1100 1102 1103 1104 1105 1106 1106 1108 1108 1108 1108 1109 1109 1110 1110 1110 1110 1110 1110 1109 1109 1108 1107 1107 1106 1104 1102 1098 1088 1080 1079 1075 1070 1067 1063 1061 1061 1060 1060 1058 1056 1051 1050 1048 1048 1048 1048 1052 1058 1062 1067 1068 1070 1086 1103 1106 1111 1112 1114 1117 1118 1118 1118 1118 1118 1117 1116 1113 1111 1101 1084 1071 1060 1056 1056 1056 1057 1057 1057 1055 1055 1054 1053 1048 1044 1041 1041 1041 1041 1041 1041 1040 1040 1040 1042 1046 1046 1048 1048 1055 1064 1070 1089 1111 1122 1131 1136 1136 1137 1137 1138 1138 1138 1138 1137 1136 1134 1127 1117 1107 1102 1095 1087 1085 1084 1083 1081 1080 1080 1080 1080 1080 1080 1080 1080 1082 1082 1082 1090 1106 1120 1130 1138 1146 1149 1151 1152 1154 1155 1156 1157 1157 1159 1159 1159 1160 1160 1161 1162 1163 1164 1164 1165 1165 1165 1165 1165 1166 1169 1169 1169 1162 1160 1159 1156 1153 1133 1133 1133 1150 1164 1164 1164 1164 1163 1163 1163 1164 1166 1167 1169 1171 1173 1174 1175 1176 1177 1177 1177 1177 1178 1178 1180 1180 1182 1183 1184 1184 1184 1184 1184 1184 1184 1184 1184 1184 1183 1182 1181 1181 1180 1177 1175 1174 1173 1172 1171 1170 1169 1169 1167 1165 1164 1163 1162 1154 1130 1120 1106 1102 1097 0 0 0 0 0 0 0 0 546 546 546 546 595 0
740 740 754 759 761 761 775 793 811 830 857 883 911 0 0 1040 1065 1070 1085 1100 1118 1156 1187 1197 1207 1218 1228 1235 1243 1254 1262 1267 1276 1286 1299 1310 1317 1323 1329 1337 1345 1350 1357 1362 1370 1374 1379 1384 1388 1393 1395 1401 1410 1414 1417 1421 1424 1429 1434 1437 1439 1442 1445 1448 1450 1453 1455 1457 1459 1462 1464 1467 1469 1471 1473 1474 1476 1478 1479 1481 1483 1486 1488 1490 1493 1494 1497 1499 1500 1502 1504 1505 1507 1509 1510 1512 1514 1515 1517 1519 1521 1523 1524 1526 1527 1529 1530 1531 1532 1533 1534 1535 1537 1537 1539 1542 1544 1546 1549 1551 1552 1555 1555 1557 1558 1559 1560 1562 1563 1565 1566 1568 1569 1569 1569 1569 1568 1567 1567 1566 1564 1563 1561 1560 1558 1557 1555 1553 1552 1551 1551 1551 1551 1551 1551 1549 1538 1525 1494 0 0 0 0 0 1040 1035 1035 1035 1035 1035 1035 1034 1034 1033 1033 1033 1033 1033 1033 1033 1033 1034 1034 1034 1034 1034 1034 1035 1035 1035 1036 1036 1036 1036 1036 1036 1036 1036 1036 1034 1033 1032 1031 1030 1027 1027 1023 1017 1006 992 976 963 961 960 958 958 955 953 951 951 951 951 955 958 960 963 967 969 970 970 974 980 987 991 993 994 999 1002 1003 1007 1021 1030 1030 1030 1031 1038 1040 1040 1040 1040 1040 1039 1038 1036 1034 1031 1031 1031 1024 1019 1017 1017 1016 1016 1015 1015 1015 1015 1015 1016 1016 1018 1022 1025 1025 1025 1024 1023 1023 1023 1028 1031 1047 1049 1049 1050 1050 1051 1062 1064 1064 1067 1068 1071 1072 1073 1073 1074 1075 1075 1075 1075 1075 1075 1075 1075 1073 1073 1072 1072 1071 1067 1066 1065 1065 1063 1059 1055 1049 1049 1049 1051 1051 1051 1049 1044 1044 1044 1053 1058 1067 1075 1079 1082 1084 1086 1088 1089 1090 1090 1091 1091 1092 1093 1094 1094 1094 1095 1096 1096 1097 1097 1098 1098 1098 1098 1098 1098 1098 1098 1097 1097 1097 1096 1096 1094 1093 1091 1090 1089 1088 1088 1085 1081 1080 1080 1081 1082 1087 1089 1089 1093 1096 1097 1098 1100 1102 1103 1104 1105 1106 1107 1108 1109 1109 1109 1110 1110 1111 1111 1111 1111 1110 1110 1110 1109 1109 1108 1107 1104 1101 1099 1097 1084 1079 1077 1070 1066 1059 1058 1058 1058 1056 1054 1054 1053 1051 1049 1048 1048 1048 1048 1052 1058 1060 1062 1067 1070 1076 1089 1106 1111 1111 1113 1116 1118 1118 1118 1118 1116 1116 1112 1111 1110 1101 1084 1071 1060 1056 1056 1056 1057 1057 1057 1055 1055 1055 1053 1049 1047 1047 1047 1048 1048 1048 1042 1038 1038 1038 1042 1046 1049 1054 1061 1068 1080 1104 1114 1123 1129 1136 1137 1138 1139 1140 1141 1142 1142 1142 1141 1138 1136 1134 1130 1127 1118 1102 1094 1087 1084 1083 1083 1083 1083 1086 1089 1089 1089 1088 1086 1082 1082 1082 1091 1109 1125 1143 1146 1149 1154 1154 1155 1156 1157 1157 1159 1159 1160 1160 1160 1161 1161 1163 1164 1164 1165 1166 1166 1166 1166 1166 1166 1166 1169 1169 1169 1164 1160 1160 1159 1153 1133 1133 1133 1150 1164 1164 1164 1164 1163 1163 1163 1165 1167 1169 1170 1171 1173 1174 1176 1177 1178 1178 1179 1179 1180 1180 1181 1181 1183 1184 1184 1185 1185 1185 1185 1185 1185 1185 1185 1185 1184 1183 1181 1181 1181 1179 1176 1175 1174 1173 1172 1169 1168 1168 1167 1165 1162 1161 1158 1139 1130 1116 1104 1100 0 0 0 0 0 0 0 0 561 561 561 562 562 599 0
740 740 764 772 774 775 783 798 812 832 856 882 914 0 0 0 1065 1070 1087 1111 1138 1177 1196 1206 1215 1221 1228 1235 1243 1250 1259 1265 1276 1286 1299 1310 1317 1324 1330 1339 1347 1354 1359 1364 1372 1376 1382 1386 1390 1394 1397 1404 1411 1415 1418 1421 1425 1429 1434 1437 1440 1443 1446 1448 1451 1454 1456 1457 1459 1462 1464 1467 1469 1471 1473 1474 1476 1477 1479 1481 1483 1486 1488 1490 1492 1494 1496 1498 1500 1502 1504 1505 1507 1508 1510 1512 1513 1515 1516 1518 1521 1523 1523 1526 1527 1529 1529 1530 1531 1532 1533 1535 1535 1537 1539 1541 1543 1546 1548 1551 1552 1554 1554 1556 1557 1558 1560 1562 1563 1564 1566 1568 1568 1569 1569 1569 1569 1568 1567 1566 1565 1563 1562 1560 1559 1557 1555 1553 1552 1551 1551 1551 1551 1551 1550 1542 1529 1513 0 0 0 0 0 1043 1037 1035 1035 1035 1036 1036 1036 1034 1034 1034 1033 1033 1033 1033 1033 1034 1034 1034 1035 1035 1035 1035 1035 1036 1036 1036 1037 1037 1037 1037 1037 1037 1037 1037 1036 1035 1033 1032 1031 1029 1028 1027 1022 1017 999 977 971 962 961 960 958 957 955 953 951 951 951 951 955 958 960 963 967 969 970 970 974 979 985 988 989 990 993 999 1003 1006 1018 1028 1029 1029 1031 1038 1042 1042 1042 1042 1042 1042 1042 1039 1035 1035 1034 1031 1026 1023 1022 1021 1016 1016 1014 1013 1013 1013 1015 1015 1016 1018 1023 1028 1028 1028 1027 1027 1027 1028 1040 1042 1047 1053 1055 1055 1057 1059 1066 1066 1067 1068 1071 1073 1074 1075 1076 1077 1077 1077 1077 1077 1077 1077 1078 1078 1078 1077 1077 1076 1073 1071 1069 1068 1067 1067 1066 1066 1061 1058 1058 1058 1057 1056 1054 1054 1054 1059 1063 1065 1071 1080 1083 1084 1086 1087 1089 1090 1092 1092 1092 1093 1094 1094 1094 1095 1096 1097 1097 1097 1098 1098 1099 1099 1099 1100 1100 1099 1099 1099 1099 1098 1098 1096 1096 1095 1093 1092 1090 1089 1088 1088 1083 1075 1075 1075 1076 1078 1082 1086 1088 1092 1096 1097 1099 1100 1102 1103 1104 1105 1106 1107 1108 1109 1110 1110 1110 1110 1111 1111 1111 1111 1111 1111 1111 1111 1110 1109 1105 1102 1098 1094 1085 1079 1076 1072 1068 1063 1059 1058 1058 1057 1056 1053 1052 1050 1049 1049 1049 1050 1050 1053 1055 1058 1060 1062 1067 1070 1076 1082 1103 1109 1111 1112 1116 1117 1117 1117 1115 1115 1115 1112 1112 1110 1103 1092 1071 1062 1062 1062 1061 1061 1061 1057 1055 1055 1055 1053 1050 1050 1050 1051 1051 1051 1050 1044 1039 1039 1039 1042 1054 1057 1059 1066 1076 1095 1117 1128 1131 1135 1137 1138 1140 1142 1144 1144 1145 1145 1145 1145 1142 1141 1139 1134 1132 1126 1115 1108 1101 1091 1088 1085 1085 1085 1087 1095 1095 1095 1095 1088 1088 1088 1099 1103 1123 1146 1152 1153 1156 1156 1157 1158 1159 1159 1160 1161 1161 1161 1161 1162 1163 1163 1163 1165 1165 1167 1167 1168 1168 1168 1167 1167 1167 1169 1169 1169 1164 1160 1159 1158 1144 1133 1133 1133 1134 1152 1155 1155 1156 1156 1160 1162 1165 1170 1170 1170 1172 1173 1174 1177 1178 1179 1180 1181 1181 1182 1182 1182 1183 1183 1184 1185 1185 1185 1185 1185 1185 1185 1185 1185 1185 1184 1183 1181 1181 1181 1180 1179 1177 1176 1175 1173 1169 1166 1165 1164 1163 1161 1161 1155 1135 1126 1113 1088 0 0 0 0 0 0 0 0 542 542 542 542 562 562 599 0
744 744 772 788 790 794 799 803 813 833 856 882 914 949 0 0 1065 1070 1090 1129 1163 1188 1206 1215 1225 1230 1231 1235 1243 1250 1259 1265 1276 1288 1299 1310 1319 1324 1331 1343 1349 1356 1362 1371 1375 1379 1383 1387 1392 1395 1400 1405 1411 1415 1419 1422 1426 1429 1434 1437 1440 1443 1446 1448 1451 1454 1456 1458 1460 1462 1464 1467 1469 1471 1473 1474 1476 1477 1479 1481 1483 1485 1488 1490 1492 1494 1496 1498 1500 1502 1504 1505 1507 1508 1510 1512 1513 1515 1516 1518 1520 1522 1523 1525 1526 1528 1529 1529 1531 1532 1533 1534 1535 1537 1539 1541 1543 1545 1548 1550 1551 1552 1554 1555 1557 1558 1559 1561 1563 1564 1566 1567 1568 1569 1569 1569 1569 1568 1568 1567 1566 1565 1563 1561 1559 1557 1555 1554 1552 1552 1552 1553 1553 1553 1549 1538 1523 0 0 0 0 0 0 1041 1037 1035 1035 1035 1036 1036 1036 1035 1034 1034 1034 1034 1034 1034 1034 1034 1035 1035 1035 1036 1036 1036 1036 1036 1036 1037 1037 1037 1038 1038 1037 1037 1037 1037 1037 1035 1033 1032 1030 1029 1028 1027 1022 1004 974 969 964 962 960 960 958 957 955 953 951 951 951 951 955 958 960 962 966 969 970 970 974 978 983 987 988 990 993 997 1000 1006 1012 1020 1024 1025 1030 1039 1042 1042 1043 1043 1043 1043 1043 1043 1038 1036 1035 1032 1030 1027 1026 1026 1025 1024 1014 1013 1013 1013 1015 1015 1017 1021 1028 1031 1031 1031 1031 1031 1040 1042 1042 1045 1047 1053 1055 1056 1057 1062 1066 1070 1072 1072 1074 1076 1076 1077 1078 1078 1078 1079 1079 1080 1080 1080 1080 1080 1080 1080 1080 1079 1077 1075 1074 1074 1071 1071 1070 1069 1069 1066 1064 1060 1059 1058 1057 1059 1059 1061 1069 1071 1074 1080 1084 1085 1086 1088 1090 1091 1092 1093 1094 1094 1095 1095 1095 1096 1097 1098 1098 1099 1099 1099 1099 1100 1101 1101 1101 1101 1101 1099 1099 1099 1098 1097 1096 1096 1093 1092 1090 1088 1086 1084 1081 1073 1070 1070 1070 1072 1075 1080 1080 1085 1095 1097 1099 1100 1102 1103 1104 1105 1106 1107 1108 1109 1110 1110 1110 1110 1111 1111 1111 1111 1111 1111 1111 1111 1110 1109 1104 1100 1097 1092 1082 1078 1071 1067 1065 1062 1059 1057 1057 1056 1055 1053 1052 1050 1049 1049 1049 1051 1053 1056 1059 1060 1061 1062 1068 1070 1075 1080 1090 1096 1100 1104 1116 1116 1116 1115 1115 1114 1113 1112 1110 1108 1103 1094 1086 1074 1068 1063 1062 1062 1062 1060 1056 1056 1055 1054 1053 1053 1053 1054 1054 1054 1052 1045 1040 1040 1040 1045 1057 1063 1064 1074 1093 1110 1124 1136 1138 1140 1140 1140 1142 1145 1147 1148 1148 1148 1148 1148 1147 1146 1142 1139 1135 1129 1122 1118 1118 1109 1103 1091 1090 1090 1090 1098 1098 1098 1098 1098 1098 1112 1125 1130 1146 1153 1154 1155 1158 1158 1159 1160 1161 1161 1162 1162 1162 1162 1163 1163 1164 1164 1165 1166 1166 1168 1168 1169 1169 1169 1169 1171 1170 1169 1169 1169 1164 1160 1159 1153 1137 1121 1103 1103 1103 1133 1149 1149 1149 1149 1149 1157 1171 1172 1172 1172 1172 1173 1174 1177 1179 1180 1181 1181 1182 1183 1184 1184 1184 1184 1185 1185 1185 1185 1185 1185 1185 1185 1185 1185 1185 1185 1183 1181 1181 1181 1182 1182 1182 1178 1176 1174 1169 1164 1163 1163 1161 1161 1160 1148 0 0 0 0 0 0 0 0 0 0 0 0 537 539 542 542 562 562 599 0
