655 655 665 675 691 713 0 0 0 0 0 0 830 830 830 830 832 867 903 926 928 943 964 991 0 0 0 0 0 1071 1077 1087 1095 1103 1107 1139 1175 1194 1213 1224 1247 1279 1303 1323 1350 1375 1404 1426 1431 1456 1469 1476 1480 1492 1502 1506 1511 1516 1522 1527 1532 1535 1538 1548 1551 1556 1561 1571 1577 1582 1582 1582 1585 1588 1591 1592 1595 1598 1603 1609 1615 1622 1628 1632 1638 1646 1656 1663 1668 1673 1678 1685 1696 1705 1711 1716 1719 1723 1727 1732 1738 1740 1742 1745 1746 1748 1752 1754 1757 1758 1759 1760 1761 1764 1767 1769 1771 1773 1773 1775 1778 1781 1783 1783 1783 1783 1783 1784 1784 1784 1781 1778 1771 1769 1767 1763 1760 1752 1748 1747 1746 1746 1746 1744 1744 1743 1742 0 0 0 0 0 0 0 2097 2120 2136 2149 2149 2165 2166 2176 2178 2181 2188 2197 2204 2204 2204 2204 2197 2189 2179 2161 0 0 0 1765 1763 1758 1745 1744 1744 1741 1734 1725 1719 1717 1715 1713 1712 1712 1711 1711 1710 1710 1710 1710 1710 1710 1712 1712 1712 1713 1714 1714 1715 1716 1717 1719 1720 1721 1722 1723 1724 1724 1724 1724 1724 1724 1724 1724 1724 1725 1725 1725 1725 1725 1725 1726 1726 1726 1727 1727 1727 1728 1729 1730 1731 1732 1733 1734 1734 1735 1735 1737 1738 1738 1740 1741 1743 1745 1746 1747 1750 1751 1753 1755 1756 1757 1758 1760 1761 1763 1764 1765 1766 1767 1769 1770 1771 1773 1774 1776 1777 1780 1781 1783 1784 1785 1786 1786 1788 1788 1790 1790 1791 1792 1793 1794 1795 1796 1796 1797 1797 1798 1798 1799 1799 1799 1799 1800 1800 1800 1801 1803 1807 1810 1811 1814 1814 1815 1816 1817 1818 1818 1818 1817 1799 1783 0 0 0 0 0 0 0 0 0 1295 1281 1281 1280 1274 1276 1274 1274 1274 1272 1269 1268 1265 1263 1260 1259 1256 1253 1250 1247 1241 1231 1226 1220 1214 1210 1209 1208 1200 1192 1184 1182 1181 1181 1181 1183 1186 1186 1186 1185 1185 1185 1188 1190 1192 1194 1195 1198 1210 1218 1223 1228 1230 1235 1238 1241 1242 1244 1246 1248 1248 1249 1250 1250 1250 1250 1250 1250 1250 1250 1250 1250 1249 1249 1247 1245 1244 1243 1241 1240 1238 1232 1222 1212 1210 1206 1204 1203 1198 1190 1182 1179 1177 1177 1176 1171 1169 1168 1166 1163 1158 1154 1151 1150 1150 1150 1155 1162 1169 1180 1195 1203 1207 1210 1215 1220 1224 1226 1228 1229 1231 1232 1233 1233 1234 1234 1234 1234 1234 1234 1234 1233 1233 1233 1234 1234 1234 1233 1232 1230 1230 1228 1225 1223 1217 1210 1202 1193 1187 1183 1178 1177 1174 1169 1167 1166 1166 1166 1166 1162 1162 1160 1160 1159 1157 1155 1155 1155 1153 1153 1152 1152 1152 1160 1185 1187 1189 1195 1197 1207 1208 1211 1214 1218 1218 1218 1217 1216 1215 1215 1215 1215 1217 1218 1218 1218 1217 1217 1216 1216 1215 1215 1215 1214 1214 1214 1214 1214 1214 1204 1192 1188 1180 1180 1175 1162 1141 1134 1127 1126 1124 1123 1118 1112 1111 1111 1112 1114 1118 1121 1121 1121 1119 1118 1118 1118 1126 1131 1141 1144 1153 1156 1156 1167 1170 1176 1178 1181 1187 1189 1193 1197 1198 1200 1201 1202 1202 1203 1203 1203 1202 1202 1201 1200 1200 1199 1199 1197 1196 1192 0 0 1069 1050 1050 1026 983 970 969 969 969 969 960 931 931 931 937 937 952 981 991 995 995 994 991 985 976 976 976 971 971 961 919 895 891 882 878 871 870 834 834
641 641 654 671 0 0 0 0 0 0 0 0 0 798 805 812 831 861 891 914 916 926 948 0 0 0 0 0 0 0 1061 1073 1084 1101 1105 1130 1165 1193 1205 1219 1236 1263 1290 1311 1349 1375 1404 1429 1451 1456 1472 1476 1479 1487 1495 1500 1506 1513 1520 1525 1528 1528 1529 1540 1548 1551 1557 1564 1572 1576 1578 1580 1582 1583 1584 1586 1589 1592 1599 1605 1612 1622 1626 1630 1636 1642 1650 1655 1661 1667 1672 1679 1690 1697 1704 1709 1714 1717 1720 1725 1730 1734 1736 1738 1740 1742 1745 1747 1749 1751 1752 1756 1759 1761 1763 1766 1769 1769 1770 1775 1777 1780 1783 1783 1783 1781 1781 1780 1780 1779 1777 1769 1764 1759 1758 1754 1749 1748 1743 1741 1741 1739 1737 1737 1737 1737 1737 0 0 0 0 0 0 0 2100 2116 2120 2147 2149 2162 2166 2171 2177 2180 2186 2191 2198 2198 2198 2192 2183 2176 2172 2156 0 0 0 1765 1758 1744 1739 1741 1741 1738 1733 1724 1719 1716 1714 1712 1712 1711 1710 1709 1709 1709 1709 1709 1709 1709 1710 1711 1711 1713 1713 1714 1714 1716 1717 1719 1720 1721 1722 1723 1724 1724 1724 1724 1724 1724 1724 1724 1725 1725 1725 1725 1725 1725 1725 1726 1726 1726 1727 1727 1728 1729 1730 1730 1731 1732 1733 1734 1734 1735 1736 1737 1738 1739 1740 1741 1743 1745 1746 1748 1750 1752 1753 1755 1756 1757 1759 1760 1761 1763 1764 1765 1766 1767 1769 1771 1772 1773 1774 1776 1778 1780 1781 1783 1784 1785 1786 1787 1788 1789 1790 1791 1791 1792 1793 1795 1796 1796 1797 1798 1798 1799 1799 1799 1800 1800 1800 1800 1801 1801 1801 1804 1807 1810 1814 1814 1816 1817 1818 1819 1821 1818 1818 1817 1792 1759 0 0 0 0 0 0 0 0 0 1295 1283 1281 1280 1280 1277 1275 1274 1274 1273 1271 1268 1266 1264 1262 1259 1258 1255 1253 1248 1241 1232 1225 1221 1216 1212 1212 1209 1203 1192 1184 1182 1182 1182 1184 1186 1186 1186 1186 1185 1185 1185 1188 1190 1192 1194 1195 1200 1211 1218 1223 1228 1231 1235 1238 1241 1242 1244 1246 1247 1248 1249 1249 1249 1250 1250 1250 1250 1250 1249 1249 1248 1247 1247 1246 1245 1243 1243 1241 1240 1237 1232 1224 1217 1213 1208 1205 1204 1199 1193 1190 1187 1187 1185 1181 1173 1170 1170 1168 1163 1158 1154 1151 1150 1150 1150 1162 1170 1174 1183 1195 1205 1207 1214 1218 1223 1225 1227 1228 1231 1231 1232 1232 1232 1232 1233 1234 1234 1234 1234 1234 1233 1232 1232 1232 1233 1233 1233 1230 1230 1230 1228 1223 1222 1217 1210 1202 1194 1190 1185 1182 1180 1174 1170 1167 1167 1167 1166 1166 1166 1163 1162 1162 1162 1162 1162 1158 1156 1156 1156 1156 1156 1160 1168 1190 1190 1192 1196 1198 1208 1212 1212 1214 1218 1218 1218 1216 1213 1213 1213 1213 1214 1214 1215 1215 1215 1215 1214 1214 1214 1214 1213 1213 1213 1212 1210 1210 1207 1200 1197 1192 1188 1175 1163 1158 1151 1141 1134 1128 1126 1126 1123 1119 1116 1116 1116 1121 1125 1127 1132 1132 1132 1128 1128 1128 1132 1141 1145 1149 1153 1157 1159 1168 1169 1180 1184 1185 1185 1190 1193 1195 1198 1201 1202 1202 1203 1203 1203 1203 1203 1203 1203 1202 1201 1201 1200 1196 1193 1193 1188 0 0 1047 1045 1026 1018 966 960 948 948 948 935 931 931 931 931 937 937 952 981 991 999 999 994 991 985 976 976 976 968 968 961 0 880 880 879 871 871 870 834 834
628 628 643 0 0 0 0 0 0 0 0 0 0 0 0 0 0 0 886 893 896 900 902 0 0 0 0 0 0 0 0 1061 1071 1094 1105 1130 1157 1181 1199 1219 1236 1258 1287 1301 1349 1373 1404 1429 1451 1460 1472 1476 1478 1483 1489 1496 1501 1509 1518 1524 1527 1528 1529 1534 1543 1547 1552 1556 1562 1567 1571 1575 1578 1579 1580 1584 1588 1591 1596 1602 1609 1615 1621 1626 1629 1634 1641 1648 1652 1658 1665 1673 1680 1687 1692 1700 1706 1711 1714 1720 1726 1730 1731 1732 1733 1735 1736 1738 1742 1744 1746 1751 1753 1755 1758 1760 1761 1765 1768 1772 1777 1780 1782 1782 1782 1780 1778 1776 1774 1768 1762 1761 1759 1755 1751 1750 1744 1741 1739 1738 1735 1732 1732 1732 1732 1732 1732 0 0 0 0 0 0 0 2080 2100 2120 2147 2149 2158 2161 2168 2177 2180 2183 2187 2191 2191 2191 2181 2171 2167 2160 2147 0 0 0 1774 1759 1758 1741 1741 1738 1737 1729 1722 1719 1716 1714 1712 1711 1710 1710 1708 1707 1707 1707 1707 1707 1708 1708 1709 1710 1711 1712 1713 1714 1716 1717 1718 1720 1721 1722 1722 1723 1723 1723 1723 1723 1724 1724 1724 1724 1725 1725 1725 1725 1725 1725 1726 1726 1727 1727 1727 1728 1729 1730 1730 1732 1732 1733 1734 1734 1735 1736 1737 1738 1739 1740 1742 1743 1745 1747 1748 1750 1752 1753 1755 1756 1758 1759 1760 1761 1763 1764 1765 1766 1768 1769 1771 1772 1773 1774 1776 1779 1780 1782 1783 1784 1785 1786 1787 1788 1789 1790 1791 1791 1792 1793 1795 1796 1797 1798 1799 1799 1799 1800 1801 1801 1802 1802 1802 1802 1802 1803 1805 1808 1811 1814 1816 1816 1820 1820 1820 1818 1816 1814 1793 0 0 0 0 0 0 0 0 0 0 0 1298 1283 1280 1280 1280 1277 1275 1275 1274 1273 1271 1269 1267 1265 1263 1262 1258 1256 1253 1249 1240 1232 1225 1220 1214 1212 1212 1210 1203 1198 1191 1186 1186 1186 1187 1187 1187 1187 1185 1185 1185 1185 1188 1190 1195 1196 1197 1209 1218 1220 1224 1228 1232 1235 1238 1240 1242 1244 1246 1247 1247 1247 1248 1249 1249 1249 1249 1249 1248 1248 1248 1247 1246 1245 1244 1243 1243 1242 1241 1240 1237 1232 1224 1219 1217 1212 1206 1204 1200 1198 1196 1193 1192 1192 1185 1174 1171 1171 1169 1164 1160 1160 1160 1161 1162 1167 1175 1178 1178 1184 1195 1207 1209 1214 1220 1227 1228 1228 1229 1231 1231 1231 1231 1232 1232 1232 1233 1233 1233 1231 1231 1230 1229 1229 1229 1229 1229 1228 1228 1228 1228 1225 1223 1221 1216 1209 1200 1194 1192 1188 1185 1181 1175 1170 1168 1168 1168 1167 1167 1166 1163 1163 1163 1165 1167 1167 1167 1169 1169 1170 1170 1171 1173 1174 1194 1194 1195 1203 1203 1209 1212 1213 1213 1214 1216 1216 1216 1213 1211 1211 1211 1212 1213 1213 1213 1211 1208 1207 1207 1207 1207 1205 1205 1205 1207 1207 1207 1203 1193 1190 1189 1188 1175 1163 1158 1151 1142 1141 1141 1140 1136 1134 1121 1121 1121 1123 1124 1127 1133 1137 1140 1141 1141 1141 1141 1143 1144 1151 1159 1160 1162 1164 1172 1178 1182 1187 1191 1191 1194 1195 1197 1200 1202 1203 1203 1203 1204 1204 1204 1204 1204 1204 1203 1203 1202 1200 1196 1193 1193 1183 0 0 1036 1021 1016 1016 966 951 937 936 936 931 931 931 931 931 937 940 952 980 990 1005 1005 1002 997 997 981 978 972 961 961 0 0 862 862 861 851 851 848 809 809
0 0 0 0 0 0 0 0 0 0 0 0 0 0 0 0 0 0 0 876 877 878 0 0 0 0 0 0 0 0 0 0 0 1066 1105 1130 1157 1181 1199 1219 1236 1258 1286 1298 1349 1371 1399 1429 1451 1460 1472 1476 1477 1480 1485 1491 1499 1506 1514 1520 1525 1527 1529 1531 1533 1539 1543 1551 1555 1559 1564 1568 1572 1575 1578 1582 1585 1589 1595 1599 1604 1608 1613 1616 1620 1628 1634 1643 1649 1652 1659 1665 1672 1682 1686 1689 1697 1704 1710 1717 1722 1724 1724 1727 1729 1731 1735 1738 1742 1744 1746 1748 1751 1755 1758 1760 1761 1765 1767 1771 1775 1778 1778 1778 1778 1775 1773 1773 1767 1761 1757 1755 1754 1754 1747 1747 1739 1736 1736 1729 1727 1723 1719 1717 1717 1716 1704 0 0 0 0 0 0 2074 2093 2100 2119 2136 2146 2149 2159 2167 2173 2176 2177 2181 2181 2181 2181 2174 2167 2164 2160 2141 0 0 0 1781 1762 1752 1741 1741 1737 1736 1725 1719 1718 1716 1714 1711 1710 1709 1708 1707 1706 1706 1706 1706 1706 1707 1708 1709 1709 1710 1711 1712 1714 1715 1717 1718 1720 1721 1722 1722 1723 1723 1723 1723 1723 1723 1723 1724 1724 1724 1724 1724 1725 1725 1725 1726 1726 1727 1727 1728 1728 1729 1730 1730 1732 1732 1733 1734 1735 1735 1736 1737 1738 1739 1740 1742 1743 1745 1747 1748 1750 1752 1753 1755 1756 1758 1759 1760 1761 1763 1764 1765 1767 1768 1770 1771 1772 1773 1776 1777 1779 1780 1782 1783 1784 1785 1786 1787 1789 1789 1790 1791 1792 1792 1794 1795 1796 1798 1799 1799 1800 1801 1801 1801 1803 1803 1803 1802 1802 1802 1804 1806 1810 1811 1814 1816 1816 1820 1820 1820 1815 1809 1795 1766 0 0 0 0 0 0 0 0 0 0 0 1298 1288 1283 1281 1281 1278 1276 1276 1275 1274 1271 1269 1268 1266 1265 1263 1260 1258 1254 1249 1240 1232 1225 1220 1214 1212 1212 1210 1203 1198 1191 1188 1188 1188 1188 1188 1188 1187 1185 1182 1182 1182 1185 1190 1195 1197 1204 1210 1219 1222 1225 1229 1232 1235 1238 1240 1242 1244 1246 1246 1246 1246 1247 1248 1248 1249 1249 1249 1248 1246 1246 1244 1243 1242 1241 1241 1241 1239 1239 1238 1236 1232 1224 1219 1217 1214 1207 1206 1202 1200 1199 1198 1198 1196 1187 1176 1173 1173 1172 1168 1168 1168 1169 1176 1181 1186 1186 1186 1190 1190 1199 1208 1210 1217 1225 1227 1228 1228 1229 1229 1230 1230 1230 1229 1229 1229 1229 1229 1229 1228 1228 1228 1228 1228 1226 1226 1226 1226 1226 1226 1226 1225 1223 1219 1214 1207 1200 1195 1193 1190 1185 1183 1178 1178 1178 1177 1175 1174 1171 1166 1166 1166 1168 1172 1175 1176 1177 1179 1180 1184 1187 1187 1189 1190 1198 1207 1208 1209 1212 1212 1212 1212 1212 1212 1211 1211 1210 1208 1205 1203 1203 1203 1203 1203 1203 1197 1197 1195 1196 1196 1195 1195 1195 1195 1196 1196 1196 1196 1188 1187 1185 1183 1172 1161 1158 1152 1152 1152 1160 1169 1169 1169 1164 1160 1154 1150 1147 1147 1147 1150 1161 1164 1169 1174 1174 1177 1177 1176 1174 1172 1172 1172 1177 1183 1186 1188 1193 1195 1196 1199 1201 1202 1203 1203 1204 1204 1204 1204 1204 1204 1204 1204 1203 1203 1202 1200 1196 1192 1192 1182 0 0 0 1004 987 987 965 950 921 921 921 918 918 927 927 927 937 940 952 980 982 990 1005 1007 1007 1007 982 964 959 957 956 0 0 821 819 819 819 819 794 769 769
0 0 0 0 0 0 0 0 0 0 0 0 0 0 0 0 0 0 0 0 0 0 0 0 0 0 0 0 0 0 0 0 0 0 0 1130 1157 1181 1199 1221 1238 1244 1286 1298 1353 1371 1395 1421 1445 1456 1464 1472 1473 1477 1483 1490 1497 1503 1510 1519 1524 1527 1529 1531 1533 1539 1543 1548 1553 1556 1562 1567 1571 1573 1575 1579 1582 1587 1590 1595 1598 1603 1608 1612 1617 1621 1629 1634 1637 1641 1650 1656 1660 1666 1670 1676 1683 1693 1697 1700 1706 1711 1716 1721 1725 1729 1734 1738 1742 1744 1745 1746 1749 1753 1758 1760 1761 1765 1766 1771 1774 1774 1774 1774 1771 1766 1764 1763 1757 1755 1751 1748 1747 1746 1740 1734 1733 1731 1725 1719 1713 1707 1705 1701 1697 1693 0 0 0 0 0 0 0 2072 2074 2093 2119 2133 2140 2149 2152 2157 2161 2163 2167 2172 2172 2172 2168 2168 2167 2164 2160 0 0 0 0 1781 1762 1752 1740 1740 1737 1736 1725 1719 1717 1715 1713 1711 1709 1707 1706 1704 1704 1704 1704 1704 1705 1705 1706 1708 1708 1709 1710 1711 1713 1714 1716 1718 1720 1720 1720 1721 1722 1722 1722 1722 1722 1722 1723 1723 1723 1724 1724 1724 1724 1725 1725 1726 1726 1727 1728 1728 1728 1729 1730 1730 1732 1732 1733 1734 1735 1735 1736 1737 1738 1740 1741 1742 1743 1745 1747 1748 1750 1752 1753 1755 1757 1758 1760 1760 1761 1763 1765 1766 1767 1769 1770 1771 1773 1774 1776 1777 1779 1780 1782 1783 1784 1785 1787 1788 1789 1790 1791 1792 1792 1794 1795 1796 1797 1799 1799 1800 1801 1801 1802 1802 1804 1804 1804 1803 1803 1803 1804 1809 1811 1814 1815 1816 1816 1817 1817 1817 1815 1802 1781 0 0 0 0 0 0 0 0 0 0 0 0 1305 1288 1284 1283 1282 1278 1278 1277 1275 1275 1273 1270 1269 1267 1266 1265 1262 1260 1256 1251 1240 1234 1225 1219 1213 1211 1211 1210 1203 1198 1195 1190 1190 1190 1193 1193 1193 1187 1185 1182 1182 1182 1185 1190 1196 1202 1205 1213 1219 1223 1226 1230 1232 1235 1238 1240 1241 1244 1244 1244 1245 1245 1247 1247 1247 1247 1247 1247 1247 1245 1243 1240 1239 1239 1239 1239 1239 1235 1233 1232 1232 1231 1224 1223 1221 1216 1211 1207 1206 1204 1200 1200 1200 1200 1200 1199 1189 1189 1189 1190 1190 1191 1197 1203 1204 1204 1204 1202 1202 1202 1212 1222 1223 1227 1227 1228 1228 1228 1228 1228 1227 1227 1226 1223 1222 1222 1222 1223 1224 1224 1224 1224 1224 1224 1222 1220 1220 1220 1222 1223 1223 1223 1217 1214 1209 1203 1200 1196 1195 1191 1190 1185 1184 1184 1184 1190 1190 1190 1188 1186 1185 1185 1185 1185 1185 1184 1184 1184 1185 1190 1191 1192 1194 1203 1209 1209 1211 1212 1212 1212 1212 1212 1207 1206 1204 1203 1202 1200 1199 1195 1190 1190 1190 1189 1186 1186 1186 1185 1185 1185 1185 1185 1186 1187 1189 1189 1189 1182 1182 1181 1177 1177 1172 1161 1158 1158 1158 1162 1174 1186 1186 1186 1186 1181 1181 1181 1179 1181 1181 1181 1185 1190 1194 1195 1196 1196 1196 1196 1193 1190 1189 1185 1185 1185 1192 1197 1198 1198 1201 1201 1202 1203 1204 1204 1205 1205 1205 1205 1205 1205 1204 1204 1203 1203 1202 1198 1195 1193 1192 1181 0 0 0 984 956 956 951 937 909 901 901 901 908 918 927 927 940 951 952 981 982 987 1005 1007 1007 1007 982 958 934 930 930 0 0 812 812 812 812 812 794 769 769
0 0 0 0 0 0 0 0 0 0 0 0 0 0 0 0 0 0 0 0 0 0 0 0 0 0 0 0 0 0 0 0 0 0 0 1164 1167 1191 1206 1222 1242 1244 1287 1298 1354 1372 1394 1417 1436 1454 1464 1468 1473 1477 1482 1489 1495 1502 1509 1516 1523 1526 1530 1531 1533 1539 1543 1548 1553 1556 1558 1562 1564 1565 1569 1575 1580 1585 1586 1590 1594 1600 1604 1609 1615 1620 1625 1631 1634 1636 1638 1644 1652 1660 1666 1674 1682 1688 1693 1697 1701 1707 1713 1720 1725 1729 1734 1738 1742 1744 1745 1746 1748 1753 1758 1760 1761 1763 1766 1770 1774 1774 1774 1771 1767 1760 1755 1754 1752 1748 1744 1742 1738 1729 1722 1718 1717 1714 1710 1704 1700 1696 1695 1693 1690 1681 0 0 0 0 0 0 0 2068 2071 2074 2116 2119 2125 2140 2142 2146 2151 2156 2159 2160 2160 2164 2164 2164 2164 2164 2160 0 0 0 1816 1781 1759 1749 1741 1741 1737 1734 1725 1719 1716 1713 1712 1710 1707 1705 1705 1703 1703 1702 1702 1702 1703 1704 1705 1706 1706 1707 1708 1710 1711 1713 1716 1718 1720 1720 1720 1720 1720 1721 1721 1721 1721 1722 1722 1722 1723 1723 1723 1724 1724 1725 1725 1726 1727 1727 1728 1728 1729 1729 1730 1731 1732 1732 1733 1734 1735 1735 1736 1738 1738 1740 1741 1742 1744 1745 1747 1748 1750 1752 1754 1756 1758 1758 1760 1761 1762 1763 1765 1766 1767 1769 1770 1772 1774 1775 1777 1778 1779 1781 1782 1783 1785 1786 1788 1788 1789 1791 1792 1793 1794 1795 1796 1797 1798 1799 1800 1800 1801 1801 1802 1803 1804 1804 1804 1804 1804 1804 1804 1810 1814 1814 1816 1816 1816 1816 1816 1816 1807 1787 0 0 0 0 0 0 0 0 0 0 0 0 0 1305 1289 1285 1283 1280 1280 1279 1278 1277 1277 1275 1272 1269 1268 1267 1266 1264 1263 1260 1254 1242 1234 1225 1219 1213 1211 1211 1210 1204 1203 1199 1199 1199 1199 1200 1200 1199 1191 1186 1185 1185 1185 1186 1193 1205 1209 1212 1218 1222 1226 1233 1236 1236 1236 1238 1240 1241 1241 1241 1242 1242 1242 1243 1243 1243 1243 1242 1241 1240 1240 1240 1239 1237 1235 1234 1232 1230 1228 1228 1228 1228 1228 1226 1225 1223 1217 1212 1211 1211 1210 1206 1206 1206 1205 1205 1205 1200 1200 1200 1210 1210 1210 1210 1210 1214 1216 1216 1216 1216 1216 1220 1229 1229 1230 1230 1230 1226 1223 1223 1223 1222 1220 1219 1217 1214 1214 1214 1214 1214 1216 1216 1219 1219 1219 1216 1214 1213 1213 1213 1219 1219 1219 1211 1210 1208 1202 1202 1202 1199 1199 1191 1191 1191 1196 1200 1205 1208 1209 1209 1209 1207 1206 1206 1204 1201 1199 1199 1199 1205 1205 1206 1206 1206 1210 1212 1213 1213 1213 1214 1214 1212 1212 1206 1203 1201 1199 1197 1195 1191 1184 1174 1170 1170 1170 1174 1174 1174 1174 1174 1175 1176 1176 1176 1182 1182 1182 1176 1176 1176 1176 1176 1176 1172 1163 1163 1163 1174 1180 1189 1195 1195 1197 1197 1201 1201 1201 1203 1203 1204 1204 1204 1207 1208 1208 1208 1207 1205 1203 1203 1201 1201 1201 1197 1197 1197 1201 1202 1202 1204 1204 1204 1205 1205 1206 1206 1206 1205 1205 1205 1204 1203 1202 1202 1201 1199 1196 1195 1193 1192 1181 0 0 0 944 944 944 943 913 898 898 898 902 908 918 927 927 951 971 982 984 987 987 1003 1005 1003 1003 981 955 934 916 903 885 851 812 812 812 812 812 794 767 767
0 0 0 0 0 0 0 0 0 0 0 0 0 0 0 0 0 0 0 0 0 0 0 0 0 0 0 0 0 0 0 0 0 0 0 0 1194 1206 1213 1227 1242 1244 1299 1331 1355 1372 1392 1414 1432 1448 1463 1467 1473 1477 1482 1487 1493 1502 1509 1516 1521 1525 1530 1535 1536 1540 1545 1548 1553 1556 1558 1561 1563 1565 1568 1571 1574 1579 1584 1588 1592 1597 1602 1609 1615 1619 1624 1629 1632 1635 1638 1643 1650 1657 1665 1674 1681 1686 1691 1694 1700 1706 1712 1718 1724 1729 1734 1738 1742 1744 1745 1746 1748 1753 1758 1760 1761 1763 1766 1770 1771 1771 1771 1765 1760 1757 1750 1748 1745 1743 1739 1735 1723 1719 1715 1709 1705 1703 1700 1697 1691 1686 1685 1683 1682 1679 0 0 0 0 0 0 2055 2066 2068 2080 2099 2106 2125 2132 2136 2140 2150 2155 2157 2160 2160 2162 2164 2166 2166 2166 2163 0 0 0 1790 1750 1749 1741 1741 1741 1737 1733 1725 1719 1715 1712 1709 1707 1704 1703 1703 1702 1701 1701 1701 1701 1701 1702 1703 1704 1705 1707 1707 1708 1710 1711 1714 1717 1719 1719 1719 1719 1720 1720 1721 1721 1721 1721 1721 1721 1722 1723 1723 1724 1724 1725 1725 1726 1727 1727 1727 1728 1729 1729 1730 1731 1732 1732 1733 1734 1735 1736 1736 1738 1739 1740 1741 1742 1744 1745 1747 1750 1751 1753 1755 1756 1758 1758 1760 1761 1762 1764 1765 1766 1768 1769 1771 1772 1774 1775 1777 1778 1779 1781 1783 1784 1785 1787 1788 1789 1790 1791 1792 1794 1795 1796 1796 1798 1798 1799 1800 1801 1801 1801 1802 1803 1804 1804 1804 1804 1804 1804 1806 1810 1814 1814 1814 1814 1813 1812 1812 1808 0 0 0 0 0 0 0 0 0 0 0 0 0 0 0 1305 1289 1287 1282 1281 1279 1279 1279 1278 1278 1276 1273 1271 1270 1268 1267 1266 1264 1263 1258 1251 1235 1228 1219 1213 1211 1211 1210 1204 1203 1203 1203 1203 1203 1203 1202 1201 1192 1192 1192 1191 1192 1195 1207 1221 1222 1223 1223 1225 1228 1233 1236 1238 1238 1240 1240 1241 1240 1239 1239 1239 1239 1239 1239 1239 1239 1237 1237 1237 1237 1237 1237 1235 1232 1229 1223 1223 1223 1223 1227 1227 1227 1225 1225 1224 1222 1218 1217 1216 1216 1216 1219 1221 1225 1228 1228 1229 1230 1230 1230 1231 1231 1231 1230 1230 1227 1226 1226 1226 1226 1227 1230 1230 1230 1230 1227 1221 1221 1217 1215 1215 1214 1214 1211 1209 1208 1205 1205 1205 1205 1206 1206 1206 1207 1207 1207 1206 1206 1206 1207 1208 1208 1208 1208 1206 1206 1206 1207 1208 1211 1211 1211 1213 1215 1216 1217 1217 1218 1218 1218 1220 1223 1223 1223 1223 1223 1217 1217 1217 1219 1219 1221 1221 1221 1220 1217 1215 1215 1214 1214 1214 1209 1202 1197 1195 1193 1187 1183 1176 1165 1162 1161 1160 1159 1159 1156 1156 1154 1154 1158 1163 1163 1163 1154 1154 1154 1158 1159 1167 1174 1175 1176 1180 1180 1181 1183 1189 1193 1195 1197 1197 1200 1203 1204 1207 1210 1211 1211 1211 1212 1212 1213 1214 1214 1216 1216 1216 1213 1210 1206 1204 1203 1202 1202 1202 1203 1206 1206 1206 1206 1205 1205 1205 1206 1206 1206 1206 1206 1205 1204 1203 1202 1202 1200 1197 1196 1194 1192 1192 1181 0 0 0 943 932 905 894 892 892 892 892 916 918 931 938 954 969 994 1013 1013 1013 1012 1009 1005 1003 1003 978 944 927 916 899 876 851 830 814 814 812 811 791 767 767
0 0 0 0 0 0 0 0 0 0 0 0 0 0 0 0 0 0 0 0 0 0 0 0 0 0 0 0 0 0 0 0 0 0 0 0 1194 1206 1213 1229 1254 1272 1300 1334 1356 1372 1391 1407 1427 1444 1457 1467 1472 1478 1482 1486 1490 1498 1507 1515 1519 1524 1530 1535 1539 1543 1547 1550 1554 1557 1558 1560 1562 1565 1568 1571 1574 1576 1580 1583 1590 1595 1601 1608 1614 1619 1624 1628 1630 1634 1637 1643 1649 1656 1664 1674 1680 1684 1688 1693 1699 1705 1709 1715 1720 1725 1731 1735 1738 1741 1743 1746 1748 1751 1755 1759 1761 1763 1765 1768 1768 1768 1765 1759 1754 1750 1747 1746 1744 1738 1733 1722 1716 1715 1710 1699 1698 1697 1695 1693 1686 1677 1670 1665 1664 0 0 0 0 0 0 0 2055 2066 2072 2083 2099 2106 2115 2125 2131 2139 2149 2154 2155 2160 2160 2161 2164 2166 2166 2166 2163 0 0 0 1790 1750 1749 1740 1740 1740 1732 1730 1725 1718 1714 1710 1707 1705 1703 1701 1701 1701 1700 1699 1699 1699 1700 1700 1702 1703 1704 1705 1707 1707 1708 1710 1713 1716 1717 1718 1718 1719 1719 1719 1719 1720 1720 1720 1720 1720 1721 1722 1723 1724 1724 1725 1725 1726 1726 1727 1728 1728 1729 1729 1730 1731 1731 1732 1733 1734 1735 1736 1737 1738 1739 1740 1742 1742 1744 1746 1748 1750 1751 1753 1755 1756 1758 1758 1760 1761 1763 1764 1765 1766 1768 1770 1772 1773 1774 1775 1777 1778 1780 1781 1783 1784 1785 1787 1788 1789 1790 1791 1793 1794 1795 1796 1797 1798 1799 1800 1800 1801 1801 1801 1802 1803 1803 1803 1803 1804 1804 1804 1808 1810 1810 1810 1811 1807 1807 1807 1806 1790 0 0 0 0 0 0 0 0 0 0 0 0 0 0 0 1305 1289 1289 1282 1281 1279 1280 1279 1279 1279 1276 1274 1273 1272 1270 1267 1266 1265 1263 1260 1252 1246 1240 1238 1238 1237 1234 1227 1219 1212 1212 1212 1228 1228 1228 1221 1216 1215 1215 1215 1224 1225 1226 1230 1234 1238 1238 1238 1238 1238 1238 1238 1239 1239 1239 1239 1239 1238 1235 1234 1233 1233 1232 1232 1231 1230 1229 1227 1226 1226 1226 1226 1225 1220 1216 1216 1216 1217 1223 1225 1225 1225 1225 1225 1226 1227 1227 1228 1228 1228 1230 1230 1232 1235 1238 1240 1241 1242 1242 1242 1242 1242 1243 1242 1242 1242 1240 1236 1235 1235 1235 1235 1235 1232 1229 1226 1219 1216 1214 1207 1206 1205 1202 1201 1200 1199 1197 1195 1194 1188 1188 1188 1189 1189 1189 1189 1189 1191 1192 1192 1192 1195 1197 1198 1198 1202 1206 1207 1208 1211 1212 1215 1217 1218 1222 1223 1224 1226 1226 1226 1226 1226 1226 1230 1230 1230 1229 1224 1224 1224 1224 1224 1223 1222 1222 1221 1220 1215 1214 1214 1212 1207 1194 1183 1176 1176 1171 1162 1156 1150 1149 1149 1149 1146 1146 1146 1143 1140 1147 1147 1149 1149 1149 1134 1131 1131 1131 1140 1161 1169 1171 1174 1178 1187 1189 1192 1197 1202 1203 1203 1203 1203 1206 1208 1210 1211 1214 1215 1216 1217 1217 1217 1217 1217 1217 1217 1217 1217 1214 1210 1209 1208 1205 1205 1205 1207 1208 1208 1208 1207 1207 1207 1207 1207 1207 1207 1206 1206 1205 1204 1203 1202 1201 1198 1197 1196 1194 1190 1184 1180 0 0 0 0 905 888 888 889 891 891 892 916 924 931 940 955 969 994 1013 1021 1021 1014 1013 1009 1003 998 976 955 930 916 899 876 851 834 830 817 814 811 791 767 767
476 476 472 0 0 0 0 460 469 469 472 472 475 483 510 529 545 0 0 0 0 0 0 0 0 0 0 0 0 0 0 0 0 0 0 0 1194 1206 1213 1229 1254 1279 1302 1334 1357 1372 1384 1402 1418 1438 1454 1463 1472 1478 1482 1485 1490 1495 1502 1509 1517 1524 1530 1535 1539 1544 1549 1552 1554 1557 1558 1560 1562 1564 1568 1571 1574 1576 1580 1582 1587 1593 1600 1607 1613 1617 1621 1625 1628 1632 1637 1643 1649 1656 1664 1673 1678 1682 1686 1691 1697 1702 1707 1714 1719 1724 1728 1732 1736 1738 1742 1745 1747 1749 1753 1756 1757 1760 1761 1762 1762 1762 1758 1751 1746 1743 1742 1741 1740 1733 1722 1716 1714 1712 1701 1696 1694 1694 1693 1689 1682 1672 1661 1658 1643 0 0 0 0 0 0 2055 2066 2066 2085 2087 2099 2106 2110 2113 2119 2132 2148 2153 2155 2159 2166 2168 2169 2169 2169 2168 2163 0 0 0 1790 1750 1749 1734 1734 1734 1725 1716 1716 1714 1711 1707 1705 1703 1701 1700 1699 1699 1699 1698 1698 1698 1698 1699 1701 1702 1703 1704 1706 1707 1708 1709 1712 1713 1716 1717 1717 1717 1718 1719 1719 1719 1719 1719 1719 1720 1720 1722 1722 1723 1724 1724 1725 1726 1726 1727 1728 1728 1729 1729 1730 1731 1731 1732 1733 1734 1735 1736 1737 1738 1740 1741 1742 1743 1744 1746 1748 1750 1751 1753 1754 1755 1757 1758 1760 1762 1763 1764 1765 1767 1768 1770 1772 1773 1774 1776 1777 1778 1780 1781 1782 1784 1785 1787 1788 1789 1790 1792 1794 1794 1795 1796 1797 1798 1799 1800 1800 1800 1801 1801 1801 1801 1802 1802 1803 1803 1803 1804 1808 1810 1810 1810 1807 1804 1804 1797 1778 1735 0 0 0 0 0 0 2101 0 0 0 0 0 0 0 0 1305 1291 1290 1283 1282 1282 1282 1281 1280 1280 1278 1276 1274 1272 1270 1268 1267 1266 1265 1262 1260 1257 1253 1250 1250 1250 1249 1248 1248 1244 1244 1244 1246 1246 1246 1243 1241 1241 1241 1244 1244 1244 1244 1244 1244 1248 1248 1248 1247 1247 1244 1240 1240 1239 1238 1238 1235 1230 1230 1226 1225 1218 1213 1213 1213 1214 1214 1214 1212 1206 1206 1206 1206 1208 1208 1208 1209 1210 1215 1216 1217 1222 1223 1227 1227 1227 1230 1230 1231 1232 1237 1239 1240 1241 1243 1245 1245 1245 1246 1247 1247 1247 1246 1245 1245 1245 1245 1244 1241 1241 1240 1239 1239 1234 1229 1218 1217 1213 1208 1201 1195 1192 1189 1189 1189 1186 1186 1182 1182 1182 1182 1182 1182 1174 1167 1167 1167 1171 1173 1177 1181 1184 1189 1195 1196 1202 1206 1208 1209 1212 1212 1215 1218 1219 1222 1225 1227 1229 1230 1230 1230 1231 1231 1233 1233 1233 1231 1229 1228 1228 1226 1224 1224 1223 1223 1222 1221 1220 1214 1211 1210 1203 1192 1182 1172 1167 1159 1152 1139 1133 1128 1128 1126 1126 1128 1135 1135 1135 1131 1131 1129 1126 1126 1118 1118 1118 1123 1128 1144 1158 1169 1171 1178 1189 1193 1201 1202 1204 1205 1205 1208 1212 1215 1215 1215 1216 1217 1220 1220 1220 1220 1219 1218 1218 1218 1218 1218 1217 1216 1213 1211 1210 1209 1209 1209 1209 1209 1209 1209 1208 1208 1208 1208 1208 1207 1207 1207 1206 1205 1204 1203 1202 1200 1198 1197 1196 1194 1188 1176 1158 0 0 0 0 880 880 888 889 891 891 892 916 931 931 948 962 969 994 1013 1021 1036 1036 1025 1025 1002 995 968 958 934 916 899 876 853 834 830 817 814 811 786 750 750
458 458 458 458 438 438 438 455 468 468 469 472 472 483 510 529 544 565 599 0 0 0 0 0 0 0 0 0 0 0 0 0 0 0 0 0 1184 1209 1216 1229 1254 1284 1312 1341 1358 1372 1384 1398 1414 1430 1447 1458 1466 1478 1481 1484 1488 1492 1498 1505 1514 1520 1526 1533 1539 1544 1549 1552 1554 1557 1557 1558 1561 1564 1568 1571 1574 1576 1580 1582 1586 1591 1598 1605 1609 1614 1618 1622 1626 1632 1637 1643 1649 1656 1663 1670 1676 1680 1684 1689 1694 1699 1706 1713 1718 1722 1727 1730 1734 1736 1740 1743 1745 1746 1750 1754 1756 1757 1757 1757 1756 1755 1754 1749 1743 1742 1741 1739 1737 1730 1719 1713 1709 1704 1699 1692 1692 1687 1679 1679 1671 1663 1658 1652 0 0 0 0 0 0 0 2049 2057 2066 2085 2088 2102 2106 2108 2110 2119 2131 2141 2149 2152 2159 2166 2170 2173 2173 2173 2170 2163 0 0 0 1803 1748 1746 1744 1729 1729 1721 1712 1708 1707 1706 1705 1702 1701 1700 1698 1697 1697 1697 1697 1697 1697 1697 1698 1700 1700 1702 1703 1705 1705 1706 1707 1710 1713 1714 1715 1716 1716 1717 1718 1718 1718 1718 1718 1718 1718 1719 1719 1721 1722 1723 1723 1725 1726 1726 1727 1727 1728 1729 1729 1730 1730 1731 1732 1733 1734 1735 1736 1737 1738 1740 1741 1742 1743 1744 1746 1748 1750 1751 1753 1754 1755 1757 1758 1760 1762 1763 1764 1766 1767 1768 1770 1772 1774 1775 1777 1777 1778 1780 1781 1782 1784 1785 1785 1787 1788 1790 1792 1794 1795 1796 1796 1797 1798 1799 1800 1800 1800 1800 1800 1801 1801 1801 1801 1800 1800 1800 1804 1806 1807 1807 1806 1802 1799 1793 1774 1731 0 0 0 0 0 0 0 2132 2151 0 0 0 0 0 0 0 1316 1294 1290 1283 1282 1283 1284 1283 1282 1282 1278 1277 1275 1272 1272 1270 1269 1267 1266 1265 1264 1262 1258 1257 1257 1257 1258 1258 1258 1256 1252 1252 1252 1253 1253 1253 1252 1251 1250 1250 1251 1251 1252 1252 1252 1252 1252 1252 1251 1250 1248 1241 1237 1237 1236 1235 1232 1228 1227 1222 1214 1202 1191 1191 1191 1195 1195 1195 1188 1188 1188 1189 1194 1196 1198 1198 1198 1198 1198 1207 1216 1222 1223 1227 1231 1233 1233 1234 1234 1235 1239 1243 1246 1247 1247 1248 1248 1248 1249 1251 1251 1251 1248 1248 1248 1247 1246 1244 1243 1243 1242 1242 1242 1236 1229 1216 1203 1196 1193 1191 1185 1179 1179 1179 1176 1176 1176 1169 1169 1169 1170 1170 1170 1162 1162 1162 1162 1163 1164 1164 1172 1180 1183 1188 1196 1201 1211 1214 1215 1216 1218 1220 1220 1221 1225 1229 1232 1233 1234 1234 1234 1234 1234 1234 1234 1234 1232 1232 1231 1231 1230 1227 1225 1225 1225 1224 1224 1223 1214 1205 1200 1198 1192 1182 1169 1161 1152 1147 1134 1124 1122 1121 1121 1119 1119 1119 1118 1117 1116 1111 1110 1109 1105 1105 1105 1116 1120 1127 1139 1153 1169 1171 1178 1190 1201 1202 1203 1205 1205 1205 1208 1214 1217 1217 1218 1218 1218 1222 1222 1222 1222 1221 1219 1219 1219 1219 1219 1218 1218 1216 1213 1213 1213 1212 1212 1211 1211 1211 1211 1211 1210 1210 1210 1209 1209 1208 1208 1206 1206 1205 1204 1202 1200 1198 1197 1197 1193 1186 1176 1158 0 0 0 0 880 880 892 903 908 925 945 975 975 975 969 968 968 969 970 1003 1004 1026 1026 1026 1002 994 968 958 944 937 919 884 853 834 830 817 808 791 0 734 734
445 445 445 445 437 437 437 451 464 464 465 466 473 493 508 514 544 565 570 573 0 0 0 0 0 0 0 0 0 0 0 0 0 0 0 0 1184 1209 1216 1229 1254 1284 1315 1341 1359 1372 1384 1395 1409 1424 1439 1456 1460 1471 1477 1478 1483 1489 1496 1505 1512 1516 1520 1528 1536 1544 1549 1552 1553 1555 1555 1556 1559 1562 1568 1571 1574 1576 1580 1582 1585 1590 1596 1603 1608 1611 1615 1621 1625 1632 1637 1643 1648 1653 1659 1667 1672 1678 1682 1686 1692 1696 1703 1710 1716 1721 1725 1728 1733 1736 1739 1739 1740 1743 1748 1752 1752 1752 1751 1750 1749 1748 1748 1745 1741 1740 1739 1737 1733 1722 1715 1710 1703 1702 1698 1687 1672 1661 1657 1656 1648 1643 0 0 0 0 0 0 0 0 0 2049 2062 2072 2085 2088 2102 2106 2107 2110 2116 2131 2141 2145 2147 2154 2166 2170 2174 2174 2174 2170 2163 0 0 0 1803 1748 1746 1743 1729 1729 1721 1709 1704 1704 1703 1702 1701 1700 1697 1696 1696 1695 1694 1694 1694 1695 1696 1696 1697 1699 1701 1701 1703 1703 1705 1706 1709 1712 1713 1714 1714 1714 1715 1716 1716 1716 1716 1716 1716 1717 1717 1719 1719 1720 1721 1722 1724 1725 1726 1726 1727 1727 1728 1729 1729 1730 1731 1732 1733 1734 1735 1736 1737 1738 1740 1741 1742 1742 1744 1746 1748 1750 1751 1753 1754 1755 1757 1758 1760 1762 1763 1764 1766 1767 1768 1770 1772 1774 1775 1777 1778 1779 1780 1781 1782 1784 1784 1785 1787 1788 1790 1792 1794 1795 1796 1796 1797 1798 1799 1799 1800 1800 1800 1800 1800 1800 1799 1797 1797 1797 1799 1804 1804 1804 1797 1796 1794 1794 1777 1732 1702 0 0 0 0 0 0 0 2180 2180 2180 0 0 0 0 0 0 1323 1299 1293 1290 1285 1285 1285 1285 1283 1283 1279 1277 1275 1274 1273 1271 1270 1268 1267 1266 1266 1264 1260 1260 1260 1261 1262 1262 1262 1260 1257 1257 1257 1256 1256 1256 1256 1256 1257 1258 1258 1259 1260 1260 1260 1258 1257 1254 1254 1253 1248 1242 1237 1234 1231 1229 1228 1227 1226 1221 1205 1184 1172 1171 1171 1170 1170 1171 1171 1171 1171 1171 1172 1172 1178 1184 1190 1191 1191 1207 1216 1218 1222 1227 1231 1234 1235 1236 1239 1240 1243 1245 1250 1251 1251 1251 1251 1251 1252 1252 1252 1252 1253 1253 1253 1252 1249 1247 1244 1243 1243 1242 1242 1240 1229 1214 1202 1194 1189 1188 1184 1177 1169 1167 1166 1163 1159 1159 1159 1161 1161 1161 1158 1157 1157 1157 1156 1156 1156 1156 1156 1171 1183 1184 1191 1201 1211 1214 1215 1218 1222 1222 1223 1223 1227 1231 1233 1235 1235 1235 1235 1235 1235 1235 1235 1235 1233 1233 1233 1233 1232 1232 1229 1228 1227 1227 1226 1223 1214 1201 1199 1196 1186 1173 1165 1156 1149 1140 1127 1119 1119 1119 1119 1119 1119 1118 1115 1112 1107 1104 1099 1099 1098 1099 1099 1102 1111 1118 1137 1152 1169 1171 1177 1190 1201 1202 1204 1205 1206 1206 1211 1215 1218 1218 1219 1220 1220 1222 1222 1222 1222 1222 1222 1222 1222 1219 1219 1219 1219 1218 1218 1217 1216 1214 1214 1214 1213 1213 1213 1212 1212 1212 1212 1210 1210 1209 1208 1207 1206 1206 1204 1202 1200 1198 1198 1197 1193 1186 1176 1154 0 0 0 0 883 883 909 916 925 931 963 996 996 996 976 969 968 955 955 955 0 0 1029 1029 993 965 964 959 959 947 919 884 853 826 822 815 808 791 0 726 726
443 443 443 443 432 432 432 445 459 460 464 464 473 493 508 514 539 543 544 546 0 0 0 0 0 0 0 0 0 0 0 0 0 0 0 0 1184 1211 1216 1229 1254 1284 1315 1341 1359 1372 1383 1393 1407 1414 1426 1441 1454 1457 1464 1468 1472 1484 1495 1504 1511 1514 1517 1523 1533 1540 1546 1550 1551 1553 1553 1553 1555 1562 1568 1571 1574 1576 1580 1582 1585 1588 1593 1598 1604 1609 1614 1620 1625 1633 1638 1644 1648 1653 1659 1664 1669 1674 1679 1682 1686 1693 1699 1707 1714 1720 1723 1727 1731 1734 1734 1737 1737 1738 1741 1742 1742 1741 1741 1741 1741 1740 1740 1739 1736 1734 1731 1731 1724 1717 1710 1704 1701 1699 1689 1663 1638 1630 1621 1605 1605 0 0 0 0 0 0 0 0 0 0 2049 2062 2072 2079 2091 2104 2107 2107 2110 2116 2128 2137 2139 2143 2147 2157 2164 2174 2174 2174 2170 2160 0 0 0 1803 1748 1746 1735 1729 1729 1721 1709 1702 1701 1700 1700 1699 1698 1696 1694 1693 1693 1693 1693 1693 1693 1696 1696 1696 1697 1699 1699 1700 1701 1703 1705 1707 1710 1711 1712 1712 1712 1713 1714 1714 1714 1715 1715 1715 1715 1716 1717 1719 1720 1720 1722 1724 1724 1725 1725 1726 1727 1728 1728 1729 1730 1731 1731 1733 1734 1734 1736 1736 1738 1740 1741 1741 1743 1744 1746 1748 1749 1751 1752 1754 1755 1757 1758 1760 1762 1763 1764 1766 1767 1768 1770 1772 1774 1775 1777 1778 1780 1780 1782 1782 1783 1784 1785 1786 1788 1790 1792 1794 1795 1796 1796 1797 1798 1798 1799 1799 1799 1799 1799 1799 1799 1798 1797 1797 1797 1799 1806 1806 1806 1797 1789 1786 1777 1736 1699 1699 0 0 0 0 0 2180 2185 2192 2192 2192 2171 0 0 0 0 0 1323 1301 1293 1290 1289 1289 1286 1286 1285 1283 1280 1278 1276 1275 1274 1272 1271 1269 1269 1269 1268 1267 1264 1263 1263 1263 1263 1264 1264 1264 1261 1261 1261 1261 1261 1261 1261 1261 1262 1263 1263 1263 1263 1262 1262 1260 1258 1258 1256 1253 1250 1243 1237 1232 1221 1212 1212 1212 1212 1212 1202 1184 1172 1167 1161 1161 1161 1163 1167 1168 1168 1170 1171 1171 1172 1177 1179 1182 1191 1207 1216 1218 1222 1227 1231 1234 1236 1239 1241 1243 1246 1248 1251 1253 1254 1254 1254 1254 1254 1255 1255 1254 1254 1254 1254 1253 1251 1249 1247 1245 1245 1244 1244 1240 1229 1212 1202 1193 1186 1184 1181 1174 1169 1165 1161 1158 1158 1157 1157 1158 1157 1157 1157 1154 1154 1154 1153 1152 1150 1150 1150 1164 1180 1181 1187 1199 1211 1214 1215 1218 1222 1223 1224 1224 1227 1232 1234 1235 1236 1237 1237 1237 1237 1237 1237 1236 1236 1236 1236 1235 1235 1233 1232 1230 1229 1228 1227 1223 1213 1200 1198 1196 1183 1171 1164 1156 1145 1135 1127 1119 1118 1118 1118 1118 1118 1116 1114 1109 1102 1088 1088 1088 1092 1097 1098 1101 1104 1106 1122 1152 1174 1178 1181 1190 1201 1204 1205 1206 1207 1209 1212 1216 1219 1220 1221 1221 1222 1223 1223 1223 1223 1223 1223 1223 1222 1221 1220 1219 1219 1219 1219 1218 1218 1217 1216 1216 1216 1216 1214 1213 1213 1213 1213 1212 1211 1210 1209 1208 1207 1206 1204 1202 1200 1199 1198 1198 1193 1186 1177 1154 0 0 0 0 895 895 951 951 961 976 976 998 998 998 979 971 968 955 937 937 0 0 1019 1019 962 962 959 959 959 947 0 0 837 819 817 813 808 791 0 0 715
438 438 438 438 432 432 432 444 458 459 461 463 473 493 508 513 524 525 530 533 0 0 0 0 0 0 0 0 0 0 0 0 0 0 0 0 1171 1211 1226 1236 1254 1282 1315 1337 1358 1371 1381 1390 1400 1411 1414 1427 1439 1442 1452 1458 1464 1476 1491 1501 1507 1511 1515 1521 1528 1534 1540 1544 1546 1546 1550 1550 1553 1559 1565 1569 1573 1576 1580 1582 1583 1586 1591 1595 1601 1605 1612 1618 1624 1633 1638 1644 1648 1653 1659 1664 1667 1671 1676 1680 1683 1689 1693 1701 1709 1717 1720 1723 1728 1729 1731 1731 1731 1731 1731 1731 1731 1731 1731 1731 1731 1731 1731 1726 1724 1722 1720 1717 1714 1707 1702 1697 1694 1692 1685 1641 1624 1602 1602 1571 0 0 0 0 0 0 0 0 0 0 1994 2046 2057 2062 2073 2091 2101 2102 2104 2108 2115 2124 2130 2132 2136 2140 2143 2153 2161 2170 2170 2170 2148 0 0 0 1778 1746 1734 1733 1732 1732 1721 1709 1702 1700 1699 1698 1697 1696 1694 1692 1692 1691 1691 1691 1692 1693 1694 1694 1695 1695 1697 1697 1698 1700 1701 1703 1705 1707 1710 1710 1710 1711 1711 1712 1713 1714 1714 1714 1714 1715 1715 1717 1717 1719 1720 1721 1722 1723 1724 1725 1726 1726 1727 1728 1729 1729 1730 1731 1732 1733 1734 1735 1736 1738 1739 1739 1741 1743 1744 1746 1748 1748 1750 1751 1753 1754 1757 1758 1760 1762 1763 1764 1765 1766 1768 1770 1772 1773 1775 1777 1779 1780 1781 1782 1783 1783 1784 1785 1786 1788 1790 1791 1793 1795 1796 1796 1797 1798 1798 1798 1798 1797 1797 1797 1797 1797 1796 1797 1797 1797 1801 1807 1807 1807 1793 1776 1766 1732 1704 1704 0 0 0 0 0 2167 2180 2187 2197 2197 2197 2171 0 0 0 0 0 1323 1306 1293 1291 1289 1289 1286 1286 1286 1283 1280 1279 1277 1276 1274 1273 1272 1271 1271 1270 1270 1269 1266 1266 1265 1265 1265 1265 1265 1266 1267 1267 1267 1267 1267 1266 1266 1266 1266 1266 1265 1265 1265 1264 1263 1262 1262 1258 1256 1254 1250 1244 1239 1230 1220 1208 1197 1197 1195 1192 1192 1184 1172 1167 1161 1157 1157 1157 1163 1164 1166 1170 1170 1171 1171 1172 1173 1176 1190 1203 1216 1218 1223 1227 1231 1236 1238 1241 1243 1246 1248 1249 1252 1255 1255 1255 1255 1256 1256 1256 1256 1256 1255 1255 1255 1254 1253 1252 1250 1250 1248 1247 1246 1240 1229 1212 1198 1191 1185 1184 1181 1174 1169 1165 1161 1157 1153 1153 1153 1153 1153 1154 1154 1154 1152 1151 1150 1148 1143 1141 1141 1141 1153 1179 1187 1199 1209 1212 1216 1218 1222 1224 1224 1225 1229 1233 1235 1236 1238 1238 1238 1239 1239 1239 1239 1239 1239 1239 1238 1237 1236 1234 1233 1232 1231 1229 1227 1222 1210 1198 1198 1195 1180 1168 1162 1154 1143 1135 1127 1119 1118 1118 1118 1118 1118 1112 1105 1099 1091 1087 1087 1087 1092 1096 1098 1101 1104 1106 1122 1146 1174 1178 1181 1187 1197 1202 1206 1208 1211 1213 1214 1217 1219 1221 1222 1223 1224 1224 1225 1225 1225 1224 1224 1224 1223 1221 1221 1220 1220 1220 1220 1220 1219 1218 1218 1217 1217 1217 1216 1215 1215 1215 1214 1213 1212 1211 1210 1209 1208 1206 1205 1203 1200 1199 1199 1199 1199 1195 1177 1155 0 0 0 939 939 939 958 958 979 979 979 998 998 998 979 971 968 955 937 937 937 0 0 978 951 951 951 951 0 0 0 0 808 808 808 806 805 0 0 0 0
438 438 438 438 431 431 431 440 444 446 447 447 458 474 487 492 500 509 513 0 0 0 0 0 0 0 0 0 0 0 0 0 0 0 0 0 1171 1211 1231 1236 1253 1277 1304 1330 1353 1371 1379 1383 1391 1400 1411 1423 1428 1436 1440 1447 1453 1465 1481 1492 1500 1505 1509 1515 1522 1528 1533 1540 1543 1545 1548 1549 1552 1559 1564 1567 1569 1573 1576 1580 1582 1585 1588 1592 1598 1604 1610 1618 1624 1633 1638 1644 1648 1654 1660 1663 1666 1670 1672 1676 1681 1683 1689 1696 1703 1710 1713 1716 1718 1720 1722 1724 1724 1724 1724 1723 1723 1723 1724 1725 1725 1725 1725 1718 1712 1712 1710 1705 1701 1698 1693 1690 1681 1669 1651 1636 1622 1551 1551 0 0 0 0 0 0 0 0 0 0 0 2034 2046 2047 2057 2073 2091 2094 2096 2098 2098 2102 2110 2122 2125 2128 2129 2138 2143 2145 2146 2145 2143 2140 0 0 0 1761 1746 1734 1732 1732 1732 1721 1709 1701 1699 1698 1697 1695 1694 1691 1691 1691 1690 1690 1690 1691 1692 1693 1693 1694 1694 1695 1696 1697 1699 1701 1702 1703 1706 1708 1709 1709 1709 1709 1710 1710 1712 1713 1713 1713 1713 1713 1715 1717 1718 1719 1720 1722 1722 1724 1724 1725 1725 1727 1728 1728 1729 1730 1731 1731 1732 1733 1735 1736 1738 1739 1739 1741 1742 1744 1746 1747 1748 1748 1750 1753 1754 1756 1758 1760 1761 1762 1764 1765 1766 1768 1770 1771 1773 1775 1778 1779 1780 1781 1782 1783 1783 1784 1784 1786 1787 1789 1789 1792 1794 1795 1796 1797 1798 1798 1798 1798 1797 1796 1796 1796 1796 1796 1796 1797 1800 1803 1803 1803 1799 1781 1743 1716 1706 1704 0 0 0 0 0 2126 2167 2168 2187 2187 2187 2186 2154 0 0 0 0 0 1320 1306 1291 1291 1291 1291 1287 1286 1286 1283 1281 1280 1279 1277 1276 1275 1274 1273 1273 1271 1271 1270 1269 1268 1267 1267 1267 1267 1267 1268 1268 1270 1270 1270 1269 1269 1268 1267 1267 1267 1267 1267 1266 1265 1265 1264 1262 1261 1258 1257 1255 1244 1239 1229 1217 1208 1197 1194 1192 1191 1191 1183 1175 1169 1161 1157 1156 1156 1156 1163 1166 1166 1167 1167 1169 1170 1170 1172 1182 1203 1215 1218 1223 1229 1231 1235 1238 1242 1245 1247 1249 1251 1254 1255 1256 1256 1257 1257 1257 1257 1257 1257 1257 1256 1256 1255 1254 1253 1253 1252 1250 1248 1247 1238 1217 1210 1198 1191 1184 1174 1172 1172 1169 1165 1161 1155 1152 1152 1148 1148 1148 1149 1149 1149 1149 1147 1147 1145 1143 1140 1140 1140 1153 1179 1187 1199 1209 1212 1216 1219 1223 1224 1225 1227 1231 1235 1237 1238 1239 1240 1240 1240 1241 1241 1241 1241 1241 1241 1239 1238 1238 1236 1234 1233 1232 1229 1226 1221 1206 1196 1195 1192 1177 1155 1142 1137 1135 1135 1128 1120 1118 1118 1115 1115 1112 1103 1097 1092 1088 1086 1086 1086 1090 1095 1098 1101 1104 1105 1122 1146 1174 1181 1184 1187 1197 1202 1206 1210 1211 1214 1215 1219 1221 1222 1223 1225 1225 1225 1225 1225 1225 1225 1225 1224 1223 1222 1221 1221 1221 1220 1220 1220 1220 1219 1218 1218 1218 1218 1217 1215 1215 1215 1214 1214 1213 1212 1211 1210 1208 1208 1205 1203 1201 1201 1201 1199 1199 1198 1180 1155 0 0 0 957 957 957 958 958 979 979 979 995 995 995 979 971 968 955 932 932 932 0 0 0 947 946 943 0 0 0 0 0 800 800 800 800 800 0 0 0 0
433 433 433 433 427 427 427 427 427 428 428 433 445 447 460 479 481 486 0 0 0 0 0 0 0 0 0 0 0 0 0 0 0 0 0 0 1155 1209 1231 1241 1252 1273 1297 1323 1346 1362 1370 1373 1382 1394 1404 1413 1425 1426 1430 1434 1440 1448 1467 1481 1486 1491 1499 1508 1517 1522 1529 1537 1541 1545 1546 1549 1552 1559 1563 1566 1567 1570 1574 1577 1581 1584 1587 1591 1597 1602 1607 1614 1622 1627 1636 1641 1648 1654 1660 1663 1665 1666 1667 1669 1673 1678 1681 1686 1690 1694 1697 1699 1699 1702 1708 1710 1711 1712 1712 1718 1720 1720 1722 1722 1722 1722 1720 1718 1712 1707 1702 1700 1694 1691 1687 1679 1662 1642 1627 1610 0 0 0 0 0 0 0 0 0 0 0 0 0 0 1994 2015 2030 2052 2073 2084 2094 2096 2098 2098 2099 2102 2103 2119 2121 2123 2128 2128 2128 2130 2135 2126 2126 0 0 0 1761 1739 1734 1732 1732 1732 1719 1707 1699 1697 1695 1692 1691 1690 1689 1689 1689 1689 1689 1690 1690 1691 1692 1693 1693 1694 1694 1695 1697 1699 1701 1701 1702 1704 1705 1707 1707 1707 1707 1707 1708 1710 1711 1712 1712 1712 1713 1714 1715 1717 1719 1720 1721 1722 1723 1724 1725 1725 1726 1727 1727 1728 1729 1730 1731 1732 1733 1735 1736 1737 1738 1739 1741 1741 1743 1744 1745 1746 1747 1749 1752 1754 1756 1758 1760 1761 1762 1763 1764 1766 1768 1770 1771 1773 1775 1778 1779 1780 1781 1782 1783 1783 1784 1784 1785 1786 1788 1789 1791 1793 1795 1796 1797 1797 1798 1798 1798 1797 1796 1796 1796 1795 1796 1796 1796 1800 1803 1803 1803 1797 1774 1725 1704 1704 0 0 0 0 0 2115 2136 2147 2167 2185 2185 2185 2175 2135 0 0 0 0 0 1309 1307 1291 1291 1290 1289 1289 1287 1286 1284 1283 1281 1279 1278 1277 1276 1275 1274 1273 1273 1273 1271 1271 1270 1270 1270 1270 1270 1270 1270 1270 1270 1270 1270 1270 1269 1269 1268 1268 1268 1268 1268 1267 1266 1266 1265 1264 1263 1262 1258 1255 1244 1239 1229 1218 1208 1197 1192 1191 1190 1185 1183 1175 1171 1164 1157 1155 1155 1155 1161 1165 1166 1167 1167 1169 1169 1170 1171 1180 1196 1210 1217 1224 1231 1233 1235 1238 1245 1246 1248 1250 1253 1256 1257 1258 1258 1258 1258 1258 1258 1258 1257 1257 1257 1257 1256 1256 1256 1255 1254 1251 1248 1247 1238 1217 1210 1198 1191 1184 1174 1169 1169 1169 1167 1161 1155 1151 1149 1142 1139 1139 1139 1141 1142 1143 1143 1143 1143 1143 1140 1140 1140 1153 1179 1198 1203 1209 1212 1217 1222 1224 1226 1227 1230 1233 1237 1238 1239 1240 1240 1241 1242 1242 1243 1243 1243 1243 1242 1241 1240 1239 1238 1236 1235 1233 1230 1226 1220 1206 1190 1190 1186 1175 1153 1140 1137 1137 1137 1130 1123 1119 1115 1112 1106 1102 1096 1092 1090 1088 1085 1085 1085 1090 1093 1096 1101 1104 1105 1122 1146 1170 1181 1183 1187 1197 1203 1206 1211 1211 1214 1217 1220 1222 1224 1225 1226 1226 1226 1227 1227 1227 1226 1226 1225 1224 1223 1223 1222 1222 1222 1221 1221 1221 1219 1219 1219 1219 1218 1218 1216 1215 1215 1215 1214 1213 1212 1211 1211 1210 1208 1206 1203 1202 1202 1202 1199 1199 1198 1180 0 0 0 0 957 957 957 958 958 977 977 979 992 992 992 969 968 964 955 932 932 925 917 0 0 0 0 0 0 865 839 0 801 797 797 796 793 793 0 0 0 0
424 424 424 424 424 422 420 415 406 406 406 432 433 440 456 0 0 0 0 0 0 0 0 0 0 0 0 0 0 0 0 0 0 0 0 0 1154 1199 1231 1242 1251 1264 1290 1310 1337 1355 1363 1367 1380 1392 1402 1411 1417 1424 1425 1427 1430 1437 1451 1464 1474 1483 1493 1504 1514 1521 1528 1534 1540 1543 1546 1549 1551 1557 1562 1564 1565 1568 1573 1577 1581 1584 1587 1591 1595 1599 1605 1611 1618 1625 1630 1640 1646 1654 1660 1660 1661 1662 1662 1663 1666 1669 1673 1676 1678 1682 1684 1684 1685 1689 1698 1700 1705 1711 1712 1718 1720 1720 1721 1721 1721 1721 1720 1717 1711 1704 1699 1697 1694 1682 1673 1663 0 0 0 0 0 0 0 0 0 0 0 0 0 0 0 0 0 0 0 1992 2028 2044 2047 2074 2084 2084 2101 2096 2096 2096 2095 2095 2095 2098 2113 2114 2126 2126 2124 2114 2098 0 0 0 1761 1744 1740 1732 1732 1731 1714 1701 1694 1693 1690 1689 1688 1687 1687 1687 1688 1688 1688 1689 1690 1690 1692 1692 1692 1693 1693 1694 1696 1698 1700 1701 1701 1701 1702 1704 1705 1705 1706 1706 1706 1707 1708 1708 1709 1709 1710 1712 1715 1717 1717 1718 1720 1722 1722 1723 1723 1725 1726 1727 1727 1728 1729 1730 1731 1732 1733 1735 1736 1736 1738 1738 1738 1740 1740 1742 1744 1744 1746 1749 1751 1754 1756 1758 1759 1761 1762 1763 1764 1766 1768 1770 1771 1773 1775 1778 1779 1780 1781 1782 1783 1783 1783 1784 1785 1786 1787 1788 1790 1792 1794 1794 1796 1797 1798 1798 1798 1797 1796 1795 1795 1794 1794 1795 1796 1800 1803 1803 1803 1783 1736 1697 1697 0 0 0 0 0 2101 2102 2146 2147 2157 2159 2168 2168 2168 2132 0 0 0 0 0 1309 1304 1294 1294 1290 1289 1289 1287 1286 1286 1283 1281 1280 1279 1278 1277 1276 1275 1275 1275 1274 1273 1273 1272 1272 1272 1272 1272 1272 1272 1272 1272 1271 1271 1271 1270 1270 1270 1270 1270 1270 1270 1268 1268 1266 1266 1264 1264 1263 1258 1255 1244 1235 1228 1218 1209 1203 1197 1191 1186 1184 1183 1175 1171 1166 1160 1155 1155 1155 1161 1164 1166 1167 1167 1167 1168 1169 1170 1178 1187 1193 1216 1231 1231 1233 1236 1241 1246 1247 1249 1251 1254 1257 1257 1259 1259 1259 1259 1259 1259 1259 1259 1259 1259 1259 1258 1257 1256 1255 1254 1252 1248 1247 1238 1217 1210 1199 1195 1184 1174 1169 1169 1169 1167 1161 1155 1151 1145 1141 1138 1138 1138 1138 1139 1140 1140 1141 1142 1142 1142 1142 1142 1162 1179 1198 1204 1210 1215 1221 1224 1225 1228 1232 1232 1235 1238 1240 1241 1241 1242 1242 1243 1244 1244 1244 1244 1244 1244 1242 1242 1241 1239 1239 1238 1234 1230 1227 1220 1206 1188 1184 1179 1173 1153 1140 1137 1137 1137 1132 1124 1119 1115 1108 1102 1097 1092 1090 1088 1086 1085 1085 1085 1088 1089 1091 1097 1102 1105 1123 1158 1169 1181 1187 1191 1197 1203 1206 1209 1214 1216 1218 1221 1223 1225 1225 1226 1227 1228 1228 1228 1227 1227 1226 1225 1225 1224 1224 1223 1223 1222 1222 1221 1221 1220 1220 1220 1220 1219 1218 1216 1215 1215 1215 1215 1213 1213 1212 1211 1211 1209 1207 1206 1204 1202 1202 1201 1199 1198 1180 0 0 0 0 952 952 952 951 951 951 946 937 0 0 0 0 0 936 934 932 925 917 901 875 875 875 875 875 875 861 839 819 801 797 791 791 791 791 0 0 0 0
418 418 392 409 409 409 409 409 406 406 406 417 419 440 0 0 0 0 0 0 0 0 0 0 0 0 0 0 0 0 0 0 0 0 0 0 1153 1191 1219 1243 1251 1264 1290 1304 1323 1352 1362 1367 1377 1392 1401 1408 1414 1417 1420 1423 1423 1429 1440 1454 1465 1475 1487 1500 1513 1521 1527 1533 1537 1541 1543 1547 1550 1554 1558 1562 1565 1568 1573 1577 1580 1583 1587 1589 1592 1596 1601 1606 1613 1621 1629 1636 1645 1653 1656 1656 1656 1655 1655 1655 1657 1658 1661 1663 1668 1672 1674 1674 1676 1680 1689 1699 1705 1711 1712 1718 1719 1720 1720 1720 1720 1718 1718 1716 1709 1698 1694 1693 1682 1671 1650 0 0 0 0 0 0 0 0 0 0 0 0 0 0 0 0 0 0 0 0 0 0 0 0 0 0 0 2094 2055 2049 2049 2049 2049 2053 2086 2092 2099 2099 2092 2079 2071 2068 0 0 0 1754 1744 1740 1731 1731 1721 1707 1696 1690 1689 1687 1687 1686 1686 1686 1686 1686 1686 1688 1688 1688 1689 1689 1691 1692 1692 1693 1693 1695 1696 1698 1698 1699 1699 1701 1702 1703 1703 1704 1704 1704 1705 1706 1706 1707 1707 1708 1710 1713 1715 1717 1717 1718 1720 1721 1723 1723 1724 1725 1725 1726 1727 1728 1730 1730 1732 1733 1734 1735 1736 1736 1737 1738 1738 1740 1742 1743 1744 1745 1747 1750 1753 1755 1757 1758 1758 1760 1762 1764 1766 1768 1770 1772 1774 1775 1778 1779 1780 1781 1782 1782 1783 1783 1783 1784 1786 1787 1788 1790 1791 1793 1793 1795 1796 1797 1797 1797 1796 1796 1795 1793 1793 1793 1794 1796 1798 1798 1798 1798 1765 1699 1699 1699 0 0 0 0 0 2102 2131 2147 2150 2157 2159 2163 2163 2163 2132 0 0 0 0 0 1309 1304 1296 1296 1290 1289 1289 1288 1286 1286 1285 1282 1281 1280 1279 1278 1277 1276 1276 1276 1275 1275 1275 1275 1274 1274 1274 1274 1274 1274 1273 1273 1272 1272 1272 1272 1272 1271 1271 1271 1271 1271 1270 1269 1267 1267 1265 1264 1264 1259 1253 1244 1234 1225 1216 1209 1207 1200 1189 1184 1181 1177 1174 1171 1166 1160 1155 1155 1155 1159 1164 1165 1165 1165 1165 1165 1166 1167 1176 1187 1193 1217 1232 1233 1234 1237 1241 1248 1249 1250 1253 1255 1258 1259 1260 1260 1260 1261 1261 1261 1261 1261 1261 1261 1259 1259 1258 1257 1256 1255 1252 1249 1247 1238 1219 1211 1200 1195 1184 1174 1169 1168 1167 1167 1161 1147 1142 1142 1140 1137 1137 1137 1138 1139 1140 1140 1141 1144 1144 1145 1146 1151 1171 1179 1198 1204 1210 1215 1221 1224 1227 1228 1233 1234 1237 1239 1240 1241 1243 1244 1244 1244 1245 1245 1245 1244 1244 1244 1244 1243 1241 1241 1239 1238 1235 1231 1227 1219 1206 1188 1184 1178 1173 1155 1140 1140 1140 1137 1132 1124 1119 1112 1105 1099 1093 1088 1087 1084 1083 1083 1083 1084 1086 1088 1089 1090 1092 1105 1123 1158 1169 1180 1194 1199 1201 1203 1206 1209 1214 1216 1219 1222 1224 1225 1226 1227 1227 1228 1228 1228 1228 1227 1226 1226 1225 1224 1224 1223 1223 1223 1223 1222 1221 1221 1221 1221 1221 1220 1219 1217 1216 1216 1215 1215 1214 1214 1213 1212 1211 1210 1209 1208 1206 1202 1201 1201 1201 1187 1180 0 0 0 0 962 957 931 928 927 928 927 927 0 0 0 0 891 889 889 889 899 899 899 875 862 858 858 850 849 848 838 837 802 798 781 781 781 781 0 0 0 0
390 390 376 390 390 398 398 398 403 403 403 416 417 435 0 0 0 0 0 0 0 0 0 0 0 0 0 0 0 0 0 0 0 0 0 0 1153 1183 1216 1243 1251 1264 1290 1304 1314 1325 1337 1353 1371 1385 1395 1404 1409 1411 1417 1422 1423 1429 1437 1447 1459 1470 1482 1497 1513 1521 1527 1532 1536 1539 1541 1544 1547 1550 1554 1559 1563 1568 1572 1576 1580 1583 1586 1588 1590 1593 1598 1604 1610 1618 1626 1634 1643 1650 1650 1650 1647 1646 1646 1646 1647 1649 1651 1652 1653 1658 1667 1672 1674 1680 1689 1697 1705 1711 1716 1718 1719 1719 1719 1717 1716 1716 1716 1715 1703 1692 1685 1677 0 0 0 0 0 0 0 0 0 0 0 0 0 0 0 0 0 0 0 0 0 0 0 0 0 0 0 0 0 0 0 0 0 0 0 0 0 0 2045 2063 2065 2065 2065 2050 0 0 0 0 1747 1744 1738 1727 1727 1712 1699 1691 1689 1689 1686 1685 1684 1684 1684 1684 1684 1685 1686 1687 1688 1688 1689 1689 1690 1691 1692 1692 1694 1695 1696 1697 1697 1697 1699 1700 1701 1702 1702 1702 1703 1703 1703 1704 1705 1706 1706 1708 1711 1713 1715 1716 1716 1718 1719 1720 1723 1723 1725 1725 1725 1726 1728 1729 1730 1731 1732 1733 1733 1734 1735 1735 1736 1736 1739 1741 1742 1743 1745 1747 1750 1752 1754 1755 1757 1758 1759 1761 1763 1766 1768 1770 1772 1774 1775 1778 1779 1780 1781 1782 1782 1782 1783 1783 1784 1785 1787 1788 1790 1791 1791 1792 1794 1795 1795 1796 1797 1797 1797 1796 1793 1793 1792 1792 1792 1792 1791 1789 1752 1709 1700 1700 0 0 0 0 0 0 2131 2146 2157 2159 2161 2161 2160 2160 2160 2132 2090 0 0 0 0 1317 1304 1301 1298 1290 1290 1290 1289 1286 1286 1285 1283 1282 1281 1280 1279 1279 1278 1278 1278 1277 1277 1277 1276 1276 1276 1276 1275 1275 1275 1275 1275 1274 1274 1273 1273 1273 1273 1273 1272 1272 1272 1271 1270 1269 1267 1266 1265 1264 1259 1253 1244 1233 1224 1215 1209 1207 1200 1187 1181 1175 1172 1166 1165 1164 1160 1155 1155 1155 1159 1163 1164 1164 1164 1163 1162 1162 1162 1170 1187 1193 1216 1229 1232 1234 1239 1242 1249 1250 1251 1254 1257 1259 1260 1261 1261 1261 1262 1262 1262 1262 1262 1262 1261 1261 1260 1259 1257 1256 1255 1253 1251 1249 1241 1223 1214 1200 1195 1184 1175 1172 1168 1166 1158 1150 1145 1140 1140 1139 1137 1137 1137 1138 1139 1140 1140 1140 1141 1145 1145 1147 1160 1172 1178 1193 1204 1213 1215 1221 1225 1227 1229 1233 1235 1237 1240 1241 1242 1243 1244 1244 1244 1245 1245 1246 1246 1246 1246 1245 1244 1243 1243 1240 1238 1236 1232 1227 1219 1206 1188 1184 1178 1172 1160 1144 1141 1140 1137 1132 1124 1116 1107 1098 1096 1093 1088 1084 1081 1080 1080 1080 1081 1085 1088 1088 1088 1090 1093 1123 1158 1167 1180 1194 1199 1201 1203 1206 1209 1214 1217 1220 1222 1224 1226 1226 1228 1228 1228 1228 1228 1228 1228 1227 1226 1226 1225 1225 1224 1224 1223 1223 1223 1222 1222 1221 1221 1221 1220 1219 1218 1217 1217 1216 1215 1214 1214 1213 1212 1212 1210 1210 1209 1206 1202 1202 1202 1200 1187 1176 0 0 0 0 0 914 903 903 903 903 891 897 0 0 0 897 891 889 889 889 889 889 889 875 862 854 825 825 825 837 838 838 837 802 780 780 780 0 0 0 0 0
390 390 368 378 378 378 393 394 394 397 403 416 416 416 0 0 0 0 0 0 0 0 0 0 0 0 0 0 881 891 931 0 0 0 0 0 1153 1183 1216 1247 1269 1272 1293 1304 1314 1325 1337 1353 1371 1380 1384 1393 1402 1410 1417 1422 1423 1429 1437 1447 1458 1469 1482 1496 1512 1521 1527 1532 1536 1539 1541 1543 1546 1547 1552 1556 1560 1565 1570 1575 1578 1581 1583 1585 1588 1591 1596 1602 1607 1615 1624 1633 1637 1643 1643 1643 1643 1638 1638 1638 1639 1643 1646 1650 1653 1658 1667 1672 1674 1680 1689 1697 1705 1711 1716 1718 1718 1718 1716 1714 1713 1710 1706 1700 1688 1681 1673 1663 0 0 0 0 0 0 0 0 0 0 0 0 0 0 0 0 0 0 0 0 0 0 0 0 0 0 0 0 0 0 0 0 0 0 0 0 0 0 0 0 0 0 0 0 0 0 0 0 1740 1736 1729 1725 1714 1703 1695 1691 1688 1686 1684 1683 1681 1681 1681 1681 1682 1683 1685 1686 1686 1687 1687 1687 1689 1690 1691 1692 1694 1695 1696 1696 1696 1697 1697 1698 1699 1700 1700 1700 1700 1700 1701 1702 1703 1704 1705 1707 1709 1711 1712 1713 1715 1716 1718 1719 1720 1722 1723 1723 1724 1724 1726 1727 1729 1730 1731 1731 1732 1732 1733 1733 1734 1734 1735 1736 1740 1741 1744 1746 1749 1752 1753 1754 1755 1756 1757 1760 1762 1766 1768 1770 1772 1774 1775 1777 1779 1780 1781 1782 1782 1782 1782 1783 1783 1785 1786 1787 1788 1790 1790 1791 1792 1792 1793 1794 1796 1796 1796 1796 1793 1793 1792 1792 1790 1790 1777 1736 1697 0 0 0 0 0 0 0 0 2100 2153 2173 2176 2176 2176 2168 2161 2159 2158 2139 2122 0 0 0 0 1317 1312 1301 1298 1290 1290 1290 1290 1287 1287 1287 1285 1283 1282 1281 1280 1280 1279 1279 1279 1279 1278 1278 1278 1278 1278 1277 1277 1277 1277 1276 1276 1276 1276 1275 1275 1275 1274 1274 1274 1274 1274 1273 1271 1270 1269 1268 1266 1265 1259 1253 1246 1233 1215 1207 1206 1204 1202 1187 1181 1174 1167 1165 1165 1164 1162 1158 1158 1158 1158 1162 1162 1162 1162 1162 1162 1162 1162 1170 1185 1199 1216 1229 1231 1232 1242 1245 1249 1252 1252 1255 1257 1259 1261 1262 1262 1262 1262 1262 1262 1263 1263 1263 1262 1262 1261 1259 1258 1256 1256 1255 1255 1251 1242 1223 1214 1200 1192 1182 1176 1172 1169 1164 1157 1150 1145 1140 1140 1139 1138 1138 1138 1139 1141 1141 1141 1141 1141 1146 1152 1169 1172 1173 1178 1190 1201 1212 1212 1220 1225 1229 1230 1234 1236 1238 1240 1241 1242 1243 1244 1244 1245 1246 1247 1247 1247 1247 1246 1246 1245 1244 1243 1242 1240 1238 1233 1228 1219 1206 1192 1184 1176 1171 1160 1149 1146 1140 1135 1126 1115 1106 1099 1098 1096 1093 1088 1084 1078 1077 1077 1077 1080 1082 1087 1087 1088 1088 1089 1120 1152 1167 1180 1194 1199 1201 1203 1206 1209 1214 1217 1221 1223 1225 1226 1227 1228 1228 1229 1229 1229 1228 1228 1227 1226 1226 1226 1226 1225 1224 1224 1224 1223 1223 1223 1222 1222 1221 1221 1219 1218 1218 1218 1217 1215 1215 1214 1213 1212 1212 1211 1210 1209 1206 1203 1202 1202 1199 1187 1173 1150 0 0 0 0 898 896 896 891 889 887 887 0 0 914 914 891 883 883 883 889 889 889 875 862 854 825 822 822 822 837 837 837 0 0 0 0 0 0 0 0 0
388 388 362 362 358 358 358 362 381 393 402 402 402 394 392 376 376 376 376 386 0 0 0 0 0 0 0 856 881 891 932 954 0 0 0 1122 1153 1183 1215 1247 1269 1277 1293 1306 1314 1325 1337 1353 1371 1380 1384 1391 1397 1409 1417 1422 1426 1431 1437 1447 1458 1469 1482 1496 1506 1519 1527 1532 1534 1537 1539 1541 1543 1545 1548 1551 1556 1561 1566 1572 1575 1578 1580 1583 1586 1591 1594 1600 1605 1611 1617 1624 1627 1633 1633 1633 1633 1633 1633 1634 1638 1643 1646 1650 1653 1658 1667 1676 1681 1682 1689 1697 1705 1711 1715 1715 1715 1709 1705 1704 1704 1701 1698 1689 1679 1672 1664 1652 0 0 0 0 0 1184 1208 1224 1245 1267 1269 1303 1316 0 0 0 1404 1404 1394 1390 0 0 0 0 0 0 0 0 0 0 0 0 0 0 0 0 0 0 0 0 0 0 0 0 0 0 0 0 1693 1693 1693 1697 1697 1697 1693 1689 1687 1685 1683 1680 1678 1678 1678 1679 1680 1681 1683 1683 1684 1685 1685 1686 1688 1689 1690 1691 1693 1694 1696 1696 1696 1696 1697 1698 1698 1698 1698 1698 1698 1698 1699 1700 1700 1703 1705 1706 1707 1709 1710 1711 1712 1714 1715 1716 1717 1719 1721 1721 1722 1723 1725 1726 1728 1729 1730 1730 1730 1731 1731 1731 1732 1732 1734 1735 1738 1740 1742 1745 1748 1751 1752 1753 1753 1754 1757 1759 1761 1764 1768 1769 1771 1772 1774 1777 1778 1780 1780 1781 1782 1782 1782 1782 1782 1783 1784 1785 1787 1788 1788 1788 1789 1789 1791 1792 1794 1797 1797 1797 1797 1793 1792 1792 1790 1781 0 0 0 0 0 0 0 0 0 2079 2081 2141 2171 2188 2188 2188 2187 2171 2160 2157 2155 2148 2143 0 0 0 0 0 1312 1301 1301 1296 1296 1296 1292 1290 1289 1288 1286 1285 1284 1283 1282 1281 1281 1281 1280 1280 1280 1280 1279 1279 1279 1279 1278 1278 1278 1277 1277 1277 1277 1276 1276 1276 1275 1275 1275 1275 1275 1274 1273 1271 1271 1269 1267 1265 1261 1256 1247 1233 1215 1207 1205 1204 1202 1187 1181 1174 1167 1165 1165 1164 1162 1158 1158 1158 1158 1162 1162 1162 1160 1160 1160 1162 1162 1168 1185 1200 1217 1227 1229 1237 1242 1246 1251 1253 1253 1255 1258 1259 1261 1262 1263 1263 1263 1263 1263 1264 1264 1264 1263 1263 1262 1260 1259 1258 1257 1257 1256 1252 1244 1223 1214 1200 1192 1182 1177 1174 1170 1164 1157 1150 1145 1140 1140 1139 1139 1139 1139 1141 1141 1141 1141 1141 1141 1146 1159 1172 1174 1174 1177 1188 1200 1212 1212 1220 1225 1229 1230 1234 1236 1238 1240 1241 1243 1244 1244 1245 1246 1247 1248 1248 1248 1248 1248 1247 1247 1246 1245 1243 1242 1239 1234 1228 1219 1206 1193 1184 1175 1171 1160 1149 1146 1140 1133 1121 1108 1101 1098 1096 1095 1091 1091 1084 1078 1077 1077 1077 1080 1082 1086 1086 1089 1089 1089 1119 1151 1169 1180 1189 1198 1200 1203 1206 1210 1215 1218 1221 1223 1225 1226 1228 1228 1228 1229 1229 1229 1228 1228 1228 1227 1227 1226 1226 1226 1226 1225 1224 1224 1224 1223 1223 1222 1222 1221 1219 1219 1218 1218 1217 1216 1216 1215 1213 1213 1212 1211 1210 1209 1206 1203 1202 1198 1197 1186 1173 1150 1142 0 0 0 880 871 871 877 878 878 0 0 917 917 917 895 889 889 889 889 889 889 877 871 854 825 822 822 822 822 822 822 0 0 0 0 0 0 0 0 0
382 382 349 349 346 338 338 0 0 384 397 397 397 392 390 376 376 376 391 395 399 0 0 0 0 0 0 856 880 891 932 954 0 0 0 1132 1154 1185 1212 1247 1269 1288 1295 1311 1320 1331 1345 1360 1371 1380 1384 1391 1397 1409 1417 1429 1435 1439 1444 1449 1459 1470 1481 1494 1506 1517 1523 1527 1529 1533 1535 1538 1539 1542 1544 1547 1551 1557 1563 1569 1572 1574 1576 1580 1583 1586 1592 1595 1600 1604 1607 1611 1617 1619 1627 1627 1628 1628 1628 1630 1638 1642 1646 1650 1653 1659 1667 1676 1681 1682 1689 1694 1698 1700 1700 1700 1700 1696 1696 1696 1695 1693 1690 1683 1676 1666 1654 1634 0 0 0 0 1172 1172 1200 1225 1245 1263 1267 1285 1302 1328 1335 1352 1379 1385 1385 1385 1359 1352 1352 1352 1369 1377 1377 1383 0 0 0 0 0 0 0 0 0 0 0 0 0 0 0 0 0 0 0 0 1676 1676 1681 1686 1688 1688 1688 1688 1684 1682 1680 1677 1676 1676 1676 1677 1679 1679 1680 1681 1683 1684 1684 1685 1687 1688 1690 1690 1692 1694 1694 1695 1695 1696 1696 1696 1697 1697 1697 1696 1696 1696 1697 1698 1699 1701 1703 1704 1705 1707 1709 1709 1710 1711 1712 1713 1715 1717 1718 1718 1720 1722 1723 1725 1726 1728 1728 1729 1729 1729 1729 1730 1731 1732 1733 1735 1737 1739 1741 1745 1747 1749 1750 1751 1753 1754 1756 1758 1761 1763 1766 1767 1769 1771 1772 1775 1777 1778 1779 1780 1781 1781 1781 1781 1782 1782 1782 1784 1785 1785 1786 1786 1786 1787 1789 1791 1792 1795 1799 1799 1799 1799 1796 1794 1786 0 0 0 0 0 0 0 0 0 2096 2097 2139 2165 2173 2188 2193 2193 2193 2177 2160 2160 2157 2155 2153 0 0 0 0 0 1312 1304 1304 1298 1298 1298 1294 1292 1291 1290 1288 1287 1286 1285 1283 1283 1282 1281 1281 1281 1281 1281 1281 1281 1280 1280 1280 1280 1279 1278 1278 1278 1278 1277 1276 1276 1276 1276 1276 1275 1275 1274 1274 1274 1272 1271 1268 1265 1262 1258 1251 1233 1215 1207 1205 1204 1202 1191 1182 1174 1167 1166 1165 1164 1164 1159 1158 1158 1158 1160 1160 1160 1159 1159 1159 1162 1164 1168 1185 1200 1217 1226 1229 1237 1242 1246 1251 1253 1253 1256 1258 1260 1261 1262 1263 1263 1264 1264 1264 1264 1264 1264 1264 1263 1263 1261 1260 1259 1259 1258 1256 1252 1244 1233 1211 1200 1192 1182 1178 1174 1171 1164 1157 1153 1149 1145 1142 1142 1141 1141 1141 1141 1141 1141 1141 1141 1141 1146 1159 1172 1174 1174 1175 1183 1200 1212 1213 1220 1227 1229 1231 1235 1238 1240 1241 1242 1244 1244 1245 1245 1247 1247 1248 1248 1248 1248 1248 1248 1247 1247 1245 1244 1243 1240 1235 1228 1219 1206 1194 1183 1173 1156 1153 1149 1146 1140 1132 1121 1106 1099 1096 1095 1094 1092 1091 1087 1078 1077 1077 1077 1080 1082 1086 1089 1089 1089 1092 1119 1151 1169 1181 1188 1196 1199 1203 1206 1211 1216 1219 1221 1223 1226 1227 1228 1228 1228 1229 1229 1229 1228 1228 1228 1227 1227 1227 1227 1226 1226 1225 1225 1224 1224 1223 1223 1222 1222 1221 1219 1219 1218 1218 1217 1217 1216 1216 1214 1213 1212 1211 1210 1208 1206 1203 1199 1197 1196 1185 1173 1155 1149 0 0 0 867 854 854 867 877 877 0 0 0 964 940 938 893 844 844 844 869 880 880 880 854 829 825 825 822 813 813 0 0 0 0 0 0 0 0 0 0
382 382 349 349 339 332 332 332 0 378 393 393 393 392 390 376 376 376 399 411 416 0 0 0 0 0 0 856 881 904 942 954 0 0 0 1137 1162 1186 1212 1241 1268 1290 1296 1314 1327 1340 1354 1371 1386 1389 1390 1391 1397 1405 1417 1431 1441 1445 1450 1455 1462 1471 1481 1494 1504 1515 1520 1522 1524 1527 1530 1533 1533 1535 1538 1541 1546 1552 1558 1563 1568 1570 1572 1575 1578 1581 1585 1590 1592 1594 1595 1597 1603 1609 1616 1621 1622 1622 1625 1629 1634 1641 1646 1650 1653 1659 1667 1676 1681 1681 1682 1684 1688 1691 1692 1692 1692 1692 1692 1690 1689 1686 1686 1683 1675 1663 1648 1623 0 0 0 0 1176 1176 1202 1225 1255 1262 1267 1285 1300 1309 1317 1325 1339 1356 1356 1356 1356 1349 1349 1349 1355 1364 1365 1365 1370 1376 1389 1401 1411 1423 1448 1461 1464 0 0 0 0 0 0 0 0 0 1612 1633 1657 1670 1674 1675 1685 1685 1685 1685 1681 1679 1676 1675 1674 1674 1674 1675 1678 1679 1680 1681 1682 1683 1684 1685 1687 1688 1689 1690 1691 1693 1694 1695 1695 1695 1695 1695 1694 1694 1694 1694 1694 1694 1694 1695 1696 1698 1700 1701 1702 1704 1706 1706 1708 1709 1710 1711 1713 1714 1716 1717 1718 1720 1723 1724 1726 1726 1727 1728 1728 1728 1728 1729 1731 1731 1733 1734 1737 1738 1740 1743 1746 1748 1749 1750 1752 1753 1755 1758 1760 1762 1765 1766 1768 1770 1772 1774 1776 1777 1778 1780 1781 1781 1781 1781 1781 1781 1782 1782 1783 1784 1784 1785 1786 1787 1789 1790 1792 1794 1799 1803 1804 1804 1804 1794 0 0 0 0 0 0 0 0 0 2116 2121 2145 2164 2170 2173 2188 2193 2193 2193 2180 2167 2167 2157 2155 2153 0 0 0 0 0 1312 1304 1304 1298 1298 1298 1295 1294 1293 1291 1290 1288 1288 1286 1284 1284 1284 1283 1283 1282 1282 1281 1281 1281 1281 1281 1281 1281 1280 1280 1279 1278 1278 1278 1278 1277 1277 1277 1277 1276 1276 1275 1275 1275 1273 1271 1268 1265 1262 1260 1252 1237 1222 1207 1207 1207 1205 1198 1188 1178 1173 1173 1171 1171 1169 1163 1159 1159 1159 1158 1158 1157 1157 1157 1159 1162 1165 1166 1177 1199 1217 1226 1229 1237 1242 1245 1251 1253 1254 1256 1259 1261 1262 1263 1263 1264 1264 1264 1264 1265 1265 1265 1264 1264 1263 1263 1262 1261 1260 1259 1257 1253 1244 1234 1211 1200 1192 1184 1181 1178 1176 1170 1160 1153 1149 1148 1148 1147 1147 1147 1145 1143 1140 1137 1137 1137 1140 1146 1159 1164 1173 1174 1174 1179 1201 1213 1215 1222 1228 1230 1232 1235 1238 1240 1242 1243 1244 1245 1245 1246 1247 1248 1248 1248 1248 1248 1248 1248 1247 1247 1245 1245 1244 1242 1235 1228 1220 1209 1194 1178 1164 1156 1153 1149 1146 1141 1132 1121 1106 1094 1094 1094 1093 1093 1093 1088 1080 1080 1080 1081 1084 1084 1085 1086 1095 1099 1099 1120 1151 1169 1181 1186 1193 1199 1203 1207 1213 1216 1219 1222 1224 1226 1227 1228 1228 1229 1229 1229 1229 1229 1229 1228 1228 1227 1227 1227 1227 1226 1226 1225 1225 1224 1224 1223 1222 1222 1221 1220 1219 1218 1218 1217 1217 1217 1217 1214 1213 1212 1211 1210 1207 1205 1203 1199 1197 1196 1186 1174 1170 1164 0 0 0 867 854 854 859 867 885 0 0 966 966 952 0 0 844 844 844 863 873 873 873 854 829 825 822 811 794 0 0 0 0 0 0 0 0 0 0 0
366 366 349 349 336 330 330 330 0 0 391 399 399 399 390 384 384 384 399 411 416 0 0 0 0 0 0 875 881 905 943 966 0 0 0 1141 1162 1186 1210 1240 1265 1290 1297 1314 1336 1352 1366 1381 1386 1390 1393 1395 1398 1405 1417 1431 1441 1447 1453 1457 1464 1471 1480 1492 1503 1513 1517 1519 1520 1522 1525 1526 1528 1531 1533 1537 1541 1547 1552 1557 1562 1565 1568 1570 1573 1575 1580 1585 1589 1590 1590 1593 1600 1606 1612 1616 1618 1619 1622 1626 1633 1639 1646 1650 1653 1659 1666 1669 1669 1669 1671 1671 1673 1678 1683 1688 1690 1690 1690 1689 1684 1681 1681 1679 1672 1658 1645 1621 0 0 0 0 1176 1176 1202 1225 1255 1262 1266 1279 1299 1307 1310 1315 1326 1342 1345 1345 1345 1341 1341 1341 1342 1351 1356 1357 1359 1367 1378 1387 1396 1402 1415 1426 1438 1447 1453 1453 1453 1453 0 0 0 1584 1592 1620 1649 1653 1664 1669 1675 1678 1678 1678 1676 1674 1672 1671 1671 1671 1671 1674 1676 1679 1680 1680 1681 1682 1683 1685 1687 1688 1689 1690 1691 1692 1694 1694 1695 1695 1695 1694 1694 1693 1693 1693 1693 1693 1693 1693 1693 1696 1697 1700 1700 1702 1704 1705 1705 1707 1708 1710 1711 1714 1714 1716 1717 1718 1721 1722 1724 1725 1725 1726 1726 1726 1727 1728 1729 1731 1733 1734 1736 1737 1739 1742 1745 1747 1749 1750 1751 1753 1755 1756 1759 1762 1764 1765 1767 1769 1771 1773 1775 1777 1778 1778 1780 1780 1780 1780 1780 1780 1781 1782 1782 1782 1783 1785 1786 1787 1788 1789 1790 1790 1799 1807 1807 1807 1804 0 0 0 0 0 0 0 0 2116 2133 2134 2146 2172 2175 2176 2176 2180 2193 2193 2193 2180 2175 2173 2167 2166 2153 0 0 0 0 0 1312 1305 1305 1301 1300 1300 1297 1296 1295 1294 1291 1290 1288 1288 1286 1285 1285 1284 1284 1284 1284 1284 1283 1283 1283 1282 1282 1282 1282 1281 1280 1280 1280 1279 1278 1278 1278 1278 1278 1278 1277 1277 1276 1275 1274 1272 1269 1266 1264 1260 1253 1241 1227 1216 1213 1212 1211 1207 1199 1184 1173 1173 1172 1171 1171 1166 1162 1160 1160 1159 1158 1157 1157 1157 1159 1163 1165 1166 1175 1197 1217 1221 1233 1237 1241 1245 1252 1253 1254 1257 1260 1261 1263 1263 1264 1264 1265 1265 1265 1265 1265 1265 1265 1265 1265 1264 1262 1262 1262 1262 1258 1254 1247 1234 1211 1203 1196 1189 1185 1182 1181 1175 1164 1154 1149 1148 1148 1148 1148 1148 1147 1143 1140 1137 1137 1137 1140 1145 1145 1146 1147 1156 1167 1176 1201 1215 1221 1225 1228 1230 1232 1236 1238 1241 1243 1243 1244 1246 1247 1247 1248 1248 1248 1248 1248 1248 1248 1248 1247 1247 1246 1245 1244 1242 1235 1229 1223 1212 1194 1178 1164 1156 1153 1149 1146 1141 1132 1122 1106 1094 1094 1094 1094 1094 1094 1089 1081 1081 1081 1081 1084 1084 1085 1086 1099 1106 1109 1125 1151 1169 1181 1188 1193 1199 1204 1210 1213 1217 1219 1222 1224 1226 1228 1228 1228 1229 1229 1229 1229 1229 1229 1229 1228 1228 1228 1227 1227 1226 1226 1225 1225 1225 1224 1223 1223 1222 1221 1220 1219 1218 1218 1217 1217 1217 1217 1215 1213 1212 1210 1208 1206 1205 1203 1199 1196 1195 1185 1177 1170 1166 0 0 0 867 854 853 854 867 885 0 969 969 969 965 938 909 869 863 863 863 873 873 873 852 0 0 0 0 0 0 0 0 0 0 0 0 0 0 0 0
345 345 338 338 334 329 329 329 340 0 0 399 399 399 395 384 384 384 399 411 416 0 0 0 0 0 0 879 932 933 944 966 0 0 0 1147 1168 1187 1206 1234 1264 1288 1296 1318 1337 1352 1366 1381 1387 1391 1394 1397 1400 1405 1417 1431 1441 1447 1453 1457 1464 1471 1480 1490 1501 1510 1514 1516 1516 1517 1518 1518 1522 1527 1531 1534 1537 1540 1545 1552 1557 1560 1564 1567 1569 1572 1576 1581 1584 1585 1586 1590 1598 1605 1608 1612 1614 1617 1619 1624 1631 1638 1643 1644 1648 1650 1656 1656 1657 1657 1657 1660 1664 1669 1676 1680 1683 1683 1683 1683 1675 1674 1673 1672 1667 1657 1642 1616 0 0 0 0 1124 1172 1202 1225 1255 1262 1266 1279 1299 1305 1308 1312 1319 1329 1331 1333 1334 1334 1335 1336 1336 1342 1343 1344 1347 1355 1363 1369 1378 1389 1407 1419 1428 1440 1450 1450 1452 1452 1452 0 0 1584 1592 1615 1637 1644 1656 1663 1666 1666 1671 1671 1671 1669 1668 1668 1668 1669 1670 1674 1676 1678 1679 1680 1680 1681 1683 1685 1686 1688 1688 1690 1690 1692 1693 1694 1695 1695 1695 1694 1693 1693 1693 1693 1693 1693 1692 1692 1692 1693 1696 1699 1700 1701 1704 1705 1705 1705 1707 1708 1710 1711 1713 1714 1716 1717 1719 1721 1723 1724 1724 1724 1725 1725 1726 1728 1728 1731 1732 1734 1736 1736 1738 1741 1744 1746 1747 1749 1751 1752 1754 1755 1758 1759 1761 1763 1765 1768 1771 1773 1775 1775 1777 1778 1778 1778 1778 1778 1779 1779 1779 1780 1780 1780 1782 1784 1785 1787 1788 1788 1789 1790 1799 1807 1807 1807 1804 0 0 0 0 0 0 0 2108 2118 2146 2153 2173 2173 2176 2177 2177 2178 2184 2184 2184 2180 2175 2175 2173 2173 2145 0 0 0 0 0 1329 1307 1307 1306 1301 1301 1298 1296 1296 1295 1293 1291 1290 1288 1288 1287 1286 1286 1286 1285 1285 1284 1284 1283 1283 1283 1283 1283 1282 1282 1281 1281 1281 1280 1280 1279 1279 1279 1278 1278 1278 1277 1276 1275 1274 1272 1270 1269 1265 1261 1253 1241 1234 1224 1215 1213 1211 1208 1202 1185 1174 1173 1172 1171 1171 1169 1165 1162 1160 1160 1158 1157 1157 1157 1161 1166 1166 1166 1172 1193 1217 1221 1233 1237 1240 1245 1252 1253 1255 1257 1260 1262 1263 1264 1264 1264 1265 1265 1265 1266 1266 1266 1266 1266 1265 1264 1264 1263 1263 1263 1259 1254 1247 1235 1219 1211 1205 1195 1190 1184 1182 1177 1165 1155 1149 1148 1148 1148 1148 1148 1147 1144 1140 1137 1137 1137 1140 1145 1145 1146 1147 1156 1167 1174 1200 1215 1223 1225 1228 1230 1234 1237 1239 1242 1244 1244 1244 1246 1247 1247 1248 1249 1249 1249 1249 1249 1248 1248 1248 1247 1246 1245 1244 1242 1237 1229 1226 1214 1193 1178 1164 1160 1154 1150 1147 1139 1132 1123 1108 1094 1094 1094 1094 1094 1094 1089 1082 1081 1081 1081 1082 1084 1085 1086 1099 1109 1112 1129 1151 1164 1181 1188 1193 1199 1205 1211 1214 1217 1219 1222 1225 1227 1228 1229 1229 1229 1229 1229 1229 1229 1229 1229 1229 1229 1228 1228 1228 1227 1226 1226 1226 1225 1225 1224 1223 1222 1221 1221 1221 1219 1219 1218 1218 1218 1217 1215 1213 1211 1210 1208 1206 1205 1203 1199 1196 1195 1185 1177 1170 1166 0 0 0 882 875 853 875 885 885 0 974 974 974 966 934 912 885 863 863 863 863 863 851 0 0 0 0 0 0 0 0 0 0 0 0 0 0 545 547 547
337 337 328 328 326 326 323 323 323 0 0 392 395 395 395 384 382 382 383 383 0 0 0 0 0 0 896 897 933 943 957 978 0 0 0 1158 1180 1194 1203 1233 1261 1286 1307 1320 1337 1352 1366 1381 1390 1391 1396 1403 1405 1409 1417 1427 1441 1447 1453 1457 1464 1470 1477 1489 1499 1506 1512 1514 1514 1514 1514 1515 1517 1523 1526 1529 1532 1535 1541 1547 1551 1555 1559 1562 1564 1568 1573 1577 1580 1581 1582 1586 1593 1599 1604 1607 1611 1614 1616 1618 1622 1627 1633 1637 1640 1642 1643 1646 1646 1649 1650 1654 1657 1662 1667 1670 1671 1674 1674 1674 1669 1668 1666 1665 1663 1647 1626 1586 0 0 0 1128 1128 1152 1200 1222 1243 1252 1266 1279 1298 1305 1308 1312 1319 1319 1319 1321 1321 1321 1321 1323 1329 1335 1337 1340 1341 1345 1349 1354 1364 1378 1398 1416 1422 1430 1444 1444 1445 1452 1452 0 0 1584 1592 1610 1620 1637 1654 1660 1662 1662 1662 1663 1664 1664 1664 1664 1666 1667 1670 1673 1676 1677 1677 1678 1680 1681 1682 1684 1685 1686 1688 1690 1690 1691 1693 1694 1695 1695 1695 1694 1693 1692 1692 1692 1692 1692 1692 1692 1692 1693 1696 1698 1699 1700 1701 1703 1703 1704 1706 1707 1708 1709 1712 1714 1715 1717 1719 1720 1722 1723 1724 1724 1725 1725 1725 1727 1727 1727 1730 1732 1734 1735 1738 1739 1742 1744 1745 1747 1750 1752 1754 1755 1757 1759 1761 1762 1765 1767 1769 1770 1771 1774 1775 1775 1776 1776 1775 1775 1776 1776 1778 1778 1778 1779 1779 1781 1785 1787 1787 1787 1788 1790 1799 1807 1807 1807 0 0 0 0 0 0 0 0 2118 2127 2146 2173 2176 2176 2176 2177 2177 2178 2178 2178 2178 2177 2175 2175 2172 2172 2139 0 0 0 0 0 1329 1307 1305 1303 1302 1302 1300 1299 1299 1296 1293 1293 1291 1289 1289 1288 1287 1287 1287 1286 1286 1285 1284 1284 1284 1284 1283 1283 1283 1283 1282 1282 1282 1281 1281 1280 1280 1280 1280 1280 1279 1279 1278 1276 1275 1274 1272 1271 1266 1261 1254 1241 1234 1224 1216 1213 1211 1208 1202 1189 1176 1174 1173 1171 1171 1169 1165 1162 1160 1160 1157 1157 1157 1157 1161 1166 1166 1168 1171 1184 1216 1221 1233 1237 1240 1245 1251 1253 1255 1257 1260 1262 1264 1264 1265 1265 1266 1266 1266 1267 1267 1267 1267 1267 1266 1266 1265 1264 1263 1263 1259 1254 1247 1235 1225 1218 1209 1198 1190 1184 1182 1177 1168 1156 1147 1147 1147 1149 1149 1149 1147 1145 1144 1139 1139 1139 1140 1145 1145 1146 1147 1156 1167 1174 1200 1215 1223 1226 1228 1231 1236 1239 1240 1242 1244 1245 1246 1247 1247 1248 1248 1249 1249 1249 1249 1249 1249 1248 1248 1247 1246 1245 1244 1242 1237 1233 1228 1214 1190 1178 1172 1168 1165 1158 1151 1139 1135 1126 1114 1103 1096 1096 1096 1096 1096 1093 1086 1078 1076 1070 1070 1070 1082 1086 1101 1110 1113 1131 1151 1164 1182 1193 1200 1201 1208 1212 1214 1217 1219 1222 1225 1227 1228 1229 1229 1229 1229 1230 1230 1230 1230 1230 1229 1229 1229 1228 1228 1228 1227 1227 1226 1226 1226 1225 1224 1223 1222 1222 1222 1221 1220 1219 1218 1218 1218 1216 1214 1211 1210 1208 1206 1205 1203 1199 1196 1195 1185 1177 1166 1166 0 0 0 892 882 864 882 885 885 0 974 974 974 973 934 913 903 902 880 879 879 873 847 0 0 0 0 0 0 0 0 0 0 0 0 515 515 516 518 518
324 328 324 324 320 309 306 306 309 0 0 0 395 395 395 381 373 369 369 369 0 0 0 0 0 892 898 914 936 951 957 978 0 0 0 1170 1187 1197 1201 1209 1246 1279 1307 1331 1342 1352 1364 1374 1388 1396 1403 1406 1411 1415 1419 1425 1434 1445 1453 1458 1464 1468 1474 1484 1494 1503 1508 1511 1512 1512 1512 1513 1514 1518 1521 1524 1526 1531 1538 1543 1546 1549 1553 1555 1558 1563 1568 1573 1576 1576 1578 1581 1587 1592 1599 1602 1605 1607 1609 1609 1614 1617 1620 1627 1633 1637 1638 1640 1641 1643 1646 1648 1651 1654 1657 1658 1662 1665 1666 1666 1666 1664 1661 1654 1616 1607 0 0 0 0 0 1152 1152 1164 1186 1203 1220 1242 1259 1278 1298 1305 1308 1312 1319 1319 1319 1321 1321 1321 1321 1321 1323 1326 1332 1336 1339 1344 1347 1350 1359 1366 1384 1408 1411 1412 1430 1433 1444 1452 1452 0 1567 1584 1592 1608 1618 1636 1653 1656 1658 1658 1658 1659 1660 1660 1660 1662 1664 1667 1670 1672 1674 1675 1676 1677 1678 1679 1682 1683 1685 1686 1688 1689 1690 1690 1691 1693 1694 1694 1694 1694 1692 1692 1692 1691 1691 1691 1691 1691 1692 1693 1696 1697 1698 1698 1700 1701 1701 1703 1705 1706 1708 1709 1711 1712 1714 1716 1719 1719 1721 1722 1722 1723 1723 1723 1725 1725 1725 1726 1727 1729 1731 1734 1736 1739 1741 1741 1743 1744 1746 1749 1751 1754 1757 1759 1760 1762 1764 1766 1768 1769 1769 1771 1772 1773 1773 1773 1773 1773 1774 1776 1776 1776 1777 1777 1779 1781 1785 1787 1787 1787 1787 1790 1804 1804 1804 1794 0 0 0 0 0 0 0 0 2118 2127 2134 2173 2176 2176 2176 2176 2176 2175 2169 2164 2164 2164 2168 2168 2168 2161 2138 0 0 0 0 0 1330 1310 1306 1303 1302 1302 1301 1300 1298 1296 1294 1293 1291 1291 1290 1289 1289 1288 1288 1288 1287 1286 1286 1285 1285 1285 1284 1284 1284 1284 1283 1283 1282 1282 1282 1282 1282 1282 1281 1281 1281 1280 1279 1278 1277 1275 1273 1271 1268 1265 1256 1243 1235 1226 1217 1213 1209 1208 1202 1192 1181 1174 1173 1171 1171 1169 1165 1162 1160 1160 1157 1157 1157 1157 1161 1166 1166 1171 1171 1184 1216 1234 1236 1237 1242 1246 1252 1253 1255 1258 1261 1264 1265 1265 1265 1266 1266 1267 1267 1267 1267 1267 1267 1267 1267 1266 1265 1264 1264 1263 1260 1256 1247 1235 1227 1219 1210 1198 1190 1184 1182 1177 1170 1156 1147 1147 1147 1149 1149 1149 1148 1147 1146 1141 1140 1140 1140 1147 1152 1155 1156 1161 1163 1171 1195 1214 1221 1226 1228 1234 1238 1239 1242 1243 1245 1246 1246 1248 1248 1248 1249 1249 1249 1249 1249 1249 1249 1249 1248 1247 1246 1245 1244 1242 1241 1238 1228 1214 1190 1182 1177 1177 1174 1169 1152 1144 1139 1129 1118 1108 1100 1100 1100 1098 1098 1098 1086 1078 1065 1065 1065 1070 1082 1086 1101 1111 1115 1132 1151 1164 1183 1196 1204 1205 1211 1212 1215 1218 1220 1223 1225 1227 1228 1229 1229 1230 1230 1230 1230 1231 1231 1231 1230 1230 1230 1229 1228 1228 1227 1227 1227 1227 1227 1225 1224 1223 1223 1222 1222 1221 1221 1220 1219 1219 1218 1217 1214 1211 1209 1208 1207 1205 1203 1198 1195 1192 1186 1174 1153 1147 0 0 0 892 888 883 883 885 0 0 985 985 985 967 934 917 915 912 911 898 881 873 847 0 0 0 0 0 0 0 0 0 0 0 497 497 498 497 505 505
324 324 324 324 320 309 0 0 309 313 0 0 389 389 389 381 373 369 369 369 0 0 0 0 0 892 908 914 936 951 957 978 0 0 0 1170 1187 1197 1199 1209 1234 1278 1306 1331 1339 1350 1360 1369 1388 1398 1407 1411 1414 1416 1419 1425 1431 1441 1451 1457 1463 1467 1470 1480 1491 1499 1504 1508 1510 1510 1510 1511 1511 1514 1518 1520 1523 1527 1533 1538 1542 1544 1548 1550 1554 1558 1566 1570 1570 1571 1573 1576 1580 1584 1589 1593 1594 1596 1597 1600 1604 1604 1606 1612 1620 1626 1629 1634 1637 1639 1642 1643 1645 1649 1652 1654 1655 1658 1658 1658 1656 1651 1644 1619 1586 0 0 0 0 1170 1151 1151 1152 1170 1183 1203 1220 1242 1254 1278 1298 1305 1309 1310 1321 1321 1321 1321 1321 1321 1321 1321 1323 1326 1329 1334 1338 1344 1347 1350 1359 1360 1365 1369 1384 1396 1414 1430 1431 1435 0 0 1567 1584 1592 1604 1617 1635 1651 1654 1655 1656 1656 1656 1658 1658 1658 1660 1662 1666 1669 1670 1672 1674 1675 1676 1677 1678 1680 1683 1683 1685 1687 1688 1689 1690 1690 1691 1693 1693 1693 1693 1692 1691 1691 1691 1691 1691 1691 1691 1692 1693 1695 1696 1697 1698 1699 1700 1701 1703 1704 1705 1707 1708 1709 1711 1714 1715 1719 1719 1720 1721 1722 1722 1722 1722 1723 1724 1724 1725 1727 1729 1731 1733 1736 1738 1738 1739 1740 1741 1745 1748 1750 1754 1756 1759 1759 1761 1762 1765 1767 1769 1769 1771 1771 1772 1772 1772 1772 1772 1773 1775 1775 1775 1775 1777 1779 1781 1783 1785 1786 1787 1787 1798 1804 1804 1804 0 0 0 0 0 0 0 0 0 2118 2118 2129 2159 2165 2165 2173 2174 2174 2174 2158 2147 2144 2144 2144 2148 2148 2148 2138 0 0 0 0 0 1330 1310 1306 1303 1303 1303 1301 1300 1299 1296 1295 1294 1293 1292 1290 1290 1290 1289 1289 1289 1289 1288 1287 1287 1286 1286 1286 1285 1285 1285 1285 1283 1283 1283 1283 1283 1282 1282 1282 1282 1281 1281 1280 1279 1277 1275 1273 1271 1269 1266 1259 1244 1234 1227 1217 1213 1209 1205 1201 1192 1181 1174 1171 1170 1170 1167 1161 1159 1159 1158 1157 1154 1154 1154 1159 1166 1171 1172 1173 1184 1205 1234 1236 1237 1242 1247 1252 1254 1257 1260 1262 1265 1265 1266 1266 1266 1267 1267 1267 1268 1268 1268 1268 1268 1267 1266 1265 1264 1264 1263 1261 1257 1248 1237 1228 1220 1210 1198 1183 1176 1175 1172 1170 1159 1148 1148 1148 1149 1149 1149 1149 1147 1146 1144 1144 1144 1146 1156 1164 1164 1167 1167 1169 1174 1194 1214 1221 1225 1228 1235 1240 1242 1243 1244 1245 1247 1248 1249 1249 1249 1249 1249 1249 1249 1249 1249 1249 1249 1248 1248 1246 1246 1245 1243 1242 1239 1229 1214 1190 1185 1185 1183 1181 1176 1152 1152 1144 1132 1119 1113 1106 1106 1106 1105 1105 1101 1089 1079 1065 1065 1065 1070 1090 1095 1101 1111 1128 1140 1158 1178 1190 1196 1204 1206 1212 1215 1217 1219 1221 1224 1226 1228 1228 1229 1229 1230 1230 1231 1231 1231 1231 1231 1231 1230 1230 1229 1229 1228 1228 1228 1228 1228 1227 1226 1225 1224 1224 1223 1222 1221 1221 1221 1220 1219 1219 1217 1214 1211 1209 1208 1207 1205 1200 1195 1193 1190 1186 1174 1152 0 0 0 917 917 897 897 917 933 0 0 991 991 991 968 936 922 915 912 911 899 896 893 879 0 0 0 0 0 0 0 0 0 0 0 475 491 494 494 501 501
324 324 324 324 320 309 0 0 308 308 0 0 389 389 389 381 373 370 370 0 0 0 0 0 899 908 910 914 933 951 953 972 0 0 0 1170 1187 1197 1199 1209 1234 1275 1304 1331 1337 1348 1356 1366 1388 1398 1407 1411 1414 1417 1421 1425 1430 1440 1450 1456 1462 1465 1468 1475 1488 1494 1498 1501 1505 1507 1508 1509 1510 1513 1516 1519 1522 1525 1528 1534 1537 1539 1541 1545 1549 1555 1563 1568 1569 1569 1571 1573 1576 1578 1582 1583 1585 1587 1590 1592 1593 1596 1600 1605 1611 1618 1624 1628 1632 1634 1634 1635 1639 1643 1645 1645 1645 1642 1640 1634 1633 1631 1621 1599 1566 0 0 0 1203 1179 1156 1156 1157 1179 1183 1203 1220 1242 1254 1278 1305 1309 1312 1315 1323 1323 1323 1326 1328 1328 1328 1326 1326 1326 1329 1334 1338 1343 1347 1350 1354 1356 1359 1360 1373 1392 1406 1407 1418 1423 0 0 1567 1584 1588 1602 1617 1635 1644 1652 1652 1652 1652 1654 1654 1656 1657 1658 1661 1665 1669 1669 1670 1670 1673 1674 1676 1677 1679 1681 1683 1685 1686 1687 1688 1689 1689 1691 1691 1692 1692 1692 1691 1690 1690 1690 1690 1690 1690 1691 1692 1693 1695 1695 1697 1698 1699 1700 1701 1703 1704 1705 1706 1707 1709 1711 1712 1715 1716 1719 1720 1721 1721 1721 1721 1721 1722 1722 1723 1724 1726 1728 1731 1733 1735 1736 1737 1737 1739 1741 1744 1747 1750 1752 1753 1756 1757 1758 1759 1760 1763 1767 1768 1770 1771 1771 1771 1771 1771 1771 1773 1773 1774 1774 1774 1776 1778 1780 1782 1783 1785 1787 1796 1803 1803 1803 1794 0 0 0 0 0 0 0 0 0 2106 2109 2118 2125 2141 2147 2158 2162 2162 2162 2146 2133 2130 2130 2130 2130 2130 2127 2121 0 0 0 0 0 1330 1314 1307 1306 1305 1305 1301 1300 1299 1297 1295 1295 1293 1293 1291 1291 1290 1290 1290 1290 1290 1289 1289 1288 1288 1287 1287 1287 1286 1286 1286 1285 1284 1284 1284 1284 1284 1283 1283 1283 1282 1282 1281 1279 1278 1276 1273 1272 1269 1267 1260 1244 1234 1227 1220 1213 1208 1202 1198 1192 1181 1174 1171 1170 1170 1167 1161 1159 1158 1154 1148 1148 1148 1150 1154 1163 1171 1173 1176 1185 1205 1234 1236 1238 1243 1248 1252 1256 1260 1262 1264 1266 1267 1267 1267 1267 1267 1267 1268 1268 1268 1268 1268 1268 1268 1267 1266 1265 1264 1263 1262 1257 1249 1237 1229 1221 1210 1198 1183 1174 1172 1171 1170 1163 1156 1153 1152 1151 1151 1151 1149 1147 1146 1144 1144 1144 1149 1161 1169 1169 1171 1171 1171 1175 1194 1214 1220 1227 1229 1236 1240 1242 1244 1246 1247 1248 1249 1249 1250 1250 1250 1250 1250 1250 1250 1250 1250 1250 1248 1248 1248 1246 1245 1244 1243 1241 1230 1214 1205 1191 1189 1189 1187 1181 1167 1153 1149 1140 1127 1115 1110 1109 1109 1109 1107 1103 1091 1079 1068 1068 1068 1089 1100 1105 1115 1122 1134 1145 1169 1185 1193 1197 1204 1211 1217 1221 1221 1222 1224 1226 1226 1228 1229 1229 1229 1230 1230 1231 1232 1232 1232 1232 1231 1231 1230 1229 1229 1229 1229 1229 1228 1228 1228 1226 1226 1225 1224 1223 1222 1222 1221 1221 1220 1220 1220 1218 1214 1211 1209 1208 1207 1204 1195 1193 1191 1190 1189 1172 1148 0 0 0 938 938 938 942 946 960 968 991 992 992 992 968 945 923 915 912 912 912 914 914 914 0 0 0 0 0 0 0 0 0 0 0 462 462 494 494 499 499
332 332 330 330 320 306 289 289 0 308 0 0 388 388 389 389 389 389 391 0 0 0 0 0 899 906 908 910 922 927 932 972 0 0 1134 1162 1180 1192 1199 1209 1234 1275 1304 1326 1335 1344 1355 1366 1388 1398 1407 1411 1414 1417 1421 1424 1430 1438 1449 1455 1460 1463 1465 1470 1480 1490 1492 1497 1501 1505 1506 1507 1507 1511 1516 1518 1521 1524 1525 1530 1531 1535 1537 1541 1545 1553 1561 1568 1568 1569 1569 1570 1570 1570 1570 1573 1576 1577 1579 1580 1583 1588 1594 1600 1604 1610 1615 1620 1625 1629 1630 1630 1631 1631 1630 1628 1623 1622 1618 1617 1616 1613 1603 1582 0 0 0 0 1173 1173 1176 1176 1178 1180 1183 1220 1233 1246 1254 1295 1310 1311 1314 1318 1324 1324 1328 1329 1332 1333 1333 1332 1329 1329 1329 1334 1338 1343 1347 1350 1354 1356 1359 1360 1370 1390 1399 1403 1406 1411 0 0 1566 1580 1588 1604 1615 1631 1640 1644 1648 1648 1649 1651 1652 1654 1655 1655 1658 1662 1667 1669 1669 1669 1671 1674 1674 1677 1679 1680 1681 1684 1685 1687 1688 1688 1689 1689 1690 1691 1691 1691 1691 1690 1690 1690 1690 1690 1690 1691 1692 1693 1695 1695 1697 1698 1699 1700 1702 1703 1703 1704 1705 1707 1709 1710 1711 1714 1716 1717 1718 1719 1720 1720 1720 1720 1721 1721 1722 1724 1725 1728 1730 1731 1732 1733 1734 1736 1739 1741 1744 1746 1748 1748 1750 1752 1757 1757 1757 1758 1759 1764 1767 1767 1767 1767 1767 1768 1769 1770 1771 1771 1772 1773 1774 1776 1777 1780 1781 1783 1785 1793 1798 1798 1798 1766 1763 0 0 0 0 0 0 0 0 2047 2100 2105 2118 2125 2127 2131 2147 2148 2148 2148 2130 2121 2117 2116 2114 2110 2110 2102 2089 0 0 0 0 0 1330 1317 1308 1306 1303 1303 1301 1300 1299 1299 1297 1295 1294 1294 1292 1292 1291 1291 1291 1291 1291 1291 1290 1289 1289 1288 1287 1287 1287 1286 1286 1286 1286 1285 1285 1285 1285 1284 1284 1283 1283 1282 1282 1281 1280 1277 1275 1273 1271 1269 1261 1244 1232 1228 1225 1216 1204 1197 1191 1187 1182 1177 1174 1173 1171 1167 1161 1159 1158 1154 1146 1146 1146 1150 1154 1163 1173 1177 1177 1188 1207 1230 1234 1238 1244 1248 1254 1259 1260 1262 1265 1266 1267 1268 1268 1268 1268 1268 1269 1269 1269 1269 1269 1269 1268 1268 1267 1266 1265 1264 1262 1257 1250 1237 1230 1224 1212 1198 1183 1173 1172 1171 1170 1165 1162 1157 1154 1153 1153 1151 1149 1146 1146 1144 1144 1144 1150 1162 1169 1169 1171 1171 1172 1177 1195 1215 1220 1228 1232 1238 1240 1243 1246 1247 1249 1250 1250 1251 1251 1251 1251 1251 1251 1251 1251 1251 1251 1250 1250 1249 1248 1247 1245 1245 1244 1242 1232 1228 1206 1193 1192 1190 1190 1181 1167 1156 1150 1140 1127 1115 1113 1112 1112 1110 1109 1103 1098 1098 1098 1102 1107 1109 1109 1113 1122 1132 1142 1153 1173 1185 1194 1197 1205 1213 1222 1224 1225 1225 1226 1226 1227 1228 1229 1229 1229 1230 1231 1232 1232 1232 1232 1232 1231 1231 1231 1230 1230 1230 1229 1229 1229 1228 1228 1226 1226 1225 1225 1224 1223 1222 1222 1222 1222 1221 1220 1218 1215 1211 1209 1208 1207 1203 1195 1193 1191 1190 1190 1170 1148 0 0 0 965 965 965 965 972 974 977 1000 1002 1002 1002 968 952 925 915 912 912 912 914 921 921 0 0 0 0 0 0 0 0 0 0 0 0 462 495 495 499 499
336 336 336 336 320 306 289 0 289 0 0 0 380 381 390 390 393 396 0 0 0 0 0 0 886 899 903 910 910 911 914 914 0 0 1134 1151 1168 1192 1204 1213 1234 1277 1298 1312 1332 1343 1354 1365 1382 1391 1398 1407 1412 1417 1421 1424 1429 1434 1443 1452 1455 1459 1461 1466 1475 1482 1488 1493 1497 1501 1503 1505 1506 1509 1513 1518 1520 1522 1524 1526 1527 1529 1533 1537 1543 1551 1561 1567 1568 1568 1568 1567 1566 1566 1566 1568 1570 1572 1572 1573 1579 1584 1589 1595 1601 1602 1609 1610 1612 1616 1618 1622 1627 1627 1627 1620 1609 1602 1599 1597 1595 1594 1582 0 0 0 0 0 1159 1159 1178 1180 1183 1194 1228 1242 1262 1283 1300 1304 1311 1315 1317 1317 1323 1325 1328 1335 1344 1345 1345 1344 1338 1337 1337 1337 1339 1344 1347 1355 1355 1356 1362 1362 1370 1389 1393 1399 1403 1406 0 0 1566 1577 1588 1604 1615 1630 1640 1643 1647 1647 1647 1649 1651 1653 1653 1654 1655 1657 1661 1666 1667 1668 1670 1672 1674 1676 1677 1679 1680 1682 1684 1686 1686 1688 1688 1689 1689 1689 1689 1689 1689 1689 1689 1689 1689 1690 1690 1691 1692 1693 1694 1695 1697 1698 1699 1701 1702 1703 1703 1704 1705 1707 1709 1710 1711 1713 1714 1716 1717 1718 1718 1718 1719 1719 1720 1720 1720 1722 1723 1726 1727 1728 1730 1731 1733 1736 1738 1740 1743 1743 1746 1748 1750 1752 1755 1756 1756 1757 1758 1760 1762 1762 1762 1763 1765 1766 1767 1768 1769 1770 1771 1772 1774 1776 1776 1776 1777 1783 1785 1794 1797 1797 1797 1762 0 0 0 0 0 0 0 0 2026 2047 2097 2100 2100 2108 2109 2114 2116 2126 2126 2126 2122 2121 2116 2108 2104 2097 2089 2088 2085 0 0 0 0 0 1330 1317 1309 1309 1306 1306 1301 1301 1300 1299 1298 1295 1295 1294 1293 1292 1292 1292 1292 1292 1292 1291 1291 1290 1289 1288 1288 1287 1287 1287 1287 1286 1286 1286 1285 1285 1285 1285 1285 1284 1283 1283 1282 1282 1280 1279 1276 1274 1273 1271 1262 1244 1234 1228 1225 1216 1204 1194 1191 1187 1182 1178 1177 1174 1174 1172 1170 1166 1162 1154 1146 1146 1146 1150 1154 1163 1173 1187 1188 1194 1207 1230 1235 1240 1244 1250 1257 1260 1261 1263 1265 1267 1268 1268 1269 1269 1269 1269 1269 1269 1269 1269 1269 1269 1269 1269 1268 1268 1267 1265 1264 1259 1250 1240 1235 1225 1217 1205 1184 1173 1173 1171 1170 1166 1165 1163 1160 1154 1153 1151 1149 1146 1146 1146 1147 1148 1152 1163 1169 1169 1172 1172 1182 1189 1200 1215 1220 1228 1234 1242 1245 1247 1248 1250 1250 1251 1251 1251 1251 1252 1252 1252 1252 1251 1251 1251 1251 1251 1250 1250 1249 1249 1248 1246 1245 1242 1235 1231 1206 1195 1193 1190 1190 1181 1168 1156 1151 1142 1128 1117 1117 1117 1114 1114 1114 1114 1116 1138 1138 1138 1137 1123 1123 1123 1132 1138 1155 1162 1175 1185 1195 1197 1206 1215 1224 1226 1226 1227 1227 1227 1228 1229 1229 1230 1230 1231 1232 1232 1232 1232 1232 1232 1232 1232 1231 1231 1230 1230 1229 1229 1229 1228 1228 1226 1226 1225 1225 1224 1223 1222 1222 1222 1222 1221 1220 1218 1215 1212 1210 1209 1207 1203 1195 1193 1191 1190 1190 1169 1146 0 0 0 965 965 974 974 975 976 977 1026 1026 1026 1006 968 952 933 917 913 913 913 914 921 921 921 0 0 0 0 0 0 0 0 0 0 0 0 491 491 492 491
349 349 349 349 330 0 0 0 323 0 0 378 378 379 388 388 398 0 0 0 0 0 0 0 871 877 893 896 908 908 908 0 0 0 1129 1151 1168 1192 1205 1220 1243 1277 1296 1304 1314 1337 1354 1365 1377 1385 1392 1398 1406 1415 1421 1423 1427 1432 1439 1445 1449 1454 1459 1464 1472 1479 1485 1491 1495 1498 1499 1502 1504 1507 1511 1515 1518 1520 1522 1522 1523 1526 1528 1533 1538 1547 1557 1565 1566 1566 1566 1564 1564 1564 1565 1566 1568 1568 1570 1572 1575 1580 1586 1590 1594 1600 1602 1605 1606 1607 1612 1617 1623 1623 1623 1603 1595 1587 1580 1574 1567 1566 1558 0 0 0 0 0 1159 1159 1179 1187 1195 1217 1249 1270 1286 1299 1309 1312 1313 1315 1317 1318 1323 1328 1332 1347 1355 1355 1355 1355 1353 1351 1346 1344 1344 1344 1350 1357 1362 1362 1369 1370 1370 1389 1393 1399 1403 0 0 1530 1565 1575 1588 1600 1615 1628 1636 1641 1644 1644 1645 1645 1646 1649 1651 1652 1652 1655 1658 1662 1665 1667 1669 1671 1673 1675 1676 1677 1679 1681 1683 1685 1686 1686 1688 1688 1688 1689 1689 1689 1689 1689 1689 1689 1689 1690 1690 1691 1692 1693 1694 1695 1697 1698 1699 1701 1702 1703 1703 1704 1705 1707 1709 1710 1711 1712 1714 1715 1715 1716 1717 1717 1717 1718 1719 1719 1720 1720 1722 1723 1725 1728 1730 1731 1733 1735 1737 1740 1743 1743 1745 1747 1749 1751 1752 1753 1753 1753 1754 1754 1756 1759 1761 1763 1764 1765 1766 1768 1769 1770 1770 1771 1774 1775 1776 1776 1777 1783 1785 1795 1795 1795 1784 1754 0 0 0 0 0 0 0 1999 2026 2047 2055 2080 2092 2092 2094 2096 2098 2104 2107 2117 2108 2107 2107 2097 2096 2086 2085 2063 0 0 0 0 0 0 1328 1321 1311 1311 1306 1306 1302 1301 1301 1300 1298 1297 1297 1295 1294 1293 1293 1293 1293 1293 1293 1292 1291 1291 1290 1290 1289 1289 1288 1288 1288 1287 1287 1287 1286 1286 1286 1286 1285 1285 1285 1284 1282 1282 1280 1279 1279 1276 1274 1273 1266 1244 1234 1231 1227 1216 1200 1194 1191 1187 1182 1181 1181 1180 1180 1180 1176 1174 1163 1155 1151 1151 1151 1159 1164 1172 1180 1187 1199 1202 1207 1230 1235 1241 1248 1252 1257 1260 1261 1264 1265 1267 1268 1270 1270 1270 1271 1271 1271 1271 1271 1271 1271 1270 1270 1270 1270 1270 1268 1266 1264 1263 1254 1242 1235 1225 1217 1207 1191 1182 1176 1173 1170 1170 1169 1167 1166 1159 1153 1152 1151 1147 1147 1147 1147 1150 1155 1167 1169 1172 1173 1173 1193 1196 1203 1215 1222 1230 1239 1244 1247 1248 1249 1251 1251 1251 1252 1252 1252 1252 1252 1252 1252 1252 1252 1252 1252 1252 1251 1250 1250 1250 1249 1246 1245 1242 1240 1233 1209 1195 1193 1191 1190 1181 1168 1158 1153 1143 1129 1125 1125 1125 1129 1130 1134 1140 1152 1168 1170 1170 1170 1148 1135 1135 1135 1151 1166 1168 1177 1187 1196 1202 1207 1218 1224 1227 1227 1228 1228 1228 1229 1229 1231 1231 1231 1231 1232 1232 1232 1233 1233 1233 1233 1232 1232 1231 1231 1230 1230 1229 1229 1228 1227 1226 1226 1225 1225 1224 1223 1222 1222 1222 1222 1222 1221 1218 1215 1213 1211 1209 1207 1203 1198 1195 1195 1193 1190 1169 1144 0 0 0 0 965 974 975 976 979 1002 1046 1046 1046 1007 982 975 965 952 909 909 909 910 922 922 922 0 0 0 0 0 0 0 0 0 0 0 0 485 488 485 485
