758 758 768 0 0 842 859 869 874 878 906 940 970 991 991 991 978 978 978 994 1006 1017 1027 1053 1083 1105 1120 1131 1136 1142 1148 1161 1173 1193 1221 1247 1271 1275 1285 1304 1311 1314 1332 1348 1363 1397 1421 1421 1423 1425 1427 1433 1451 1459 1468 1486 1511 1538 1544 1555 1568 1578 1593 1604 1607 1610 1617 1618 1621 1629 1638 1645 1650 1653 1661 1669 1677 1687 1698 1705 1705 1707 1707 1714 1734 1759 1781 1794 1794 1794 1791 1791 1791 1805 1812 1824 1837 1848 1860 1873 1883 1887 1901 1914 1926 1926 1926 1925 1925 1925 1932 1936 1939 1944 1956 1972 1987 1991 2001 2001 2001 1997 1997 1997 2006 2019 2034 2034 2034 2031 2031 2031 2041 2054 2071 2085 2103 2103 2103 2095 2082 2081 2081 2081 2089 2098 2103 2111 2117 2130 2147 2159 2171 2180 2185 2185 2185 2182 2182 2182 2186 2187 2196 2196 0 0 0 0 0 0 0 0 0 1352 1342 1342 1342 1352 1361 1370 1378 1378 1378 1378 1378 1388 1391 1391 1391 1389 1389 1389 1390 1390 1390 1380 1372 1366 1363 1366 1372 1377 1410 1419 1421 1421 1422 1431 1442 1447 1448 1449 1451 1451 1451 1449 1449 1449 1450 1462 1470 1472 1480 1480 1480 1471 1471 1471 1482 1489 1489 1489 1489 1489 1490 1492 1492 1494 1495 1495 1498 1499 1505 1506 1512 1515 1515 1518 1519 1521 1522 1526 1528 1530 1538 1545 1545 1545 1537 1537 1537 1560 1561 1563 1571 1573 1573 1573 1573 1573 1574 1577 1577 1577 1569 1565 1558 1552 1552 1552 1552 1552 1551 1547 1544 1541 1541 1541 1544 1544 1544 1555 1555 1556 1557 1557 1575 1578 1578 1579 1579 1579 1582 1583 1583 1583 1583 1583 1585 1589 1594 1598 1599 1602 1605 1610 1613 1614 1614 1614 1614 1614 1613 1612 1610 1608 1606 1606 1605 1605 1600 1599 1599 1599 1604 1606 1606 1606 1603 1597 1593 1590 1586 1584 1583 1583 1583 1587 1587 1587 1586 1585 1585 1584 1583 1583 1583 1583 1585 1585 1588 1588 1588 1588 1588 1588 1584 1584 1564 0 0 0 0 0 0 0 0 0 0 1291 1287 1280 1280 1275 1275 1272 1266 1265 1265 1264 1262 1260 1259 1258 1256 1256 1256 1256 1258 1258 1259 1259 1258 1256 1256 1256 0 0 0 1420 1439 1468 1489 1501 1506 1509 1512 1518 1522 1526 1528 1533 1538 1538 1538 1526 1526 1526 1531 1542 1551 1553 1555 1556 1557 1557 1563 1564 1568 1568 1568 1563 1560 1559 1559 1559 1562 1567 1567 1567 1566 1558 1552 1546 1546 1546 1547 1547 1547 1545 1545 1545 1549 1550 1550 1551 1556 1558 1565 1565 1565 1562 1559 1557 1548 1548 1548 1557 1557 1559 1560 1566 1572 1572 1572 1568 1562 1553 1551 1550 1548 1550 1551 1553 1558 1558 1558 1547 1530 1511 1495 1483 1464 1457 1444 1428 1414 1402 1402 1400 1400 1400 1383 1379 1379 1376 1348 0 0 0 0 0 0 0 0 0 0 0 1590 1601 1601 1601 1576 1573 1573 1573 1579 1600 1623 1623 1623 1623 1621 1606 1584 1580 1580 1580 1593 1596 1596 1596 1570 1550 1529 1502 1499 1499 1499 1518 1530 1530 1530 1523 1523 1523 1537 1537 1537 1515 1501 1453 1417 1393 1386 1379 1379 1379 1391 1405 1405 1405 1375 1346 1320 0 0 0 0 0 0 0 0 0 0 0 0 0 0 0 0 0 0 0 0 0 0 0 0 0 0 0 0 0 0 0 0 0 0 0 0 0 0 0 0 0 0 0 0 0 0 0 0 0 0 0 0 756 715 0
758 758 768 787 0 828 843 858 866 883 906 940 970 991 1009 1009 1009 1009 1009 1009 1024 1029 1036 1054 1084 1110 1123 1131 1136 1142 1148 1161 1173 1193 1221 1247 1271 1275 1289 1309 1319 1328 1332 1348 1363 1396 1412 1415 1415 1416 1423 1433 1451 1459 1468 1487 1511 1538 1544 1555 1568 1578 1593 1604 1610 1613 1617 1618 1622 1634 1646 1650 1650 1653 1661 1669 1679 1688 1698 1707 1708 1709 1712 1723 1745 1769 1786 1795 1795 1795 1797 1798 1813 1827 1831 1841 1850 1861 1873 1877 1886 1896 1904 1914 1924 1924 1924 1922 1922 1922 1932 1936 1939 1944 1963 1979 1994 1997 2011 2022 2027 2027 2027 2027 2027 2035 2046 2046 2046 2046 2041 2041 2041 2051 2060 2082 2103 2104 2104 2104 2093 2086 2086 2086 2089 2097 2104 2111 2121 2133 2148 2159 2172 2186 2195 2195 2195 2183 2182 2178 2178 2178 2178 2178 0 0 0 0 0 0 0 0 1361 1346 1340 1340 1340 1352 1361 1370 1380 1380 1380 1382 1382 1388 1391 1391 1391 1392 1392 1392 1395 1395 1395 1392 1392 1392 1402 1414 1414 1420 1425 1425 1429 1429 1429 1438 1446 1448 1449 1449 1451 1451 1451 1449 1449 1449 1450 1463 1472 1477 1482 1482 1482 1483 1483 1483 1490 1490 1490 1489 1489 1489 1490 1494 1497 1497 1497 1495 1495 1495 1498 1506 1510 1515 1515 1518 1524 1524 1526 1528 1534 1537 1543 1550 1558 1562 1564 1564 1564 1564 1565 1569 1573 1573 1573 1573 1573 1573 1574 1577 1577 1577 1569 1565 1558 1550 1546 1546 1544 1542 1539 1539 1539 1540 1541 1543 1544 1546 1549 1556 1556 1557 1557 1557 1576 1587 1587 1587 1583 1583 1582 1582 1583 1584 1588 1589 1590 1593 1596 1598 1600 1602 1603 1603 1605 1610 1611 1611 1611 1611 1611 1611 1610 1608 1606 1606 1605 1605 1600 1599 1599 1599 1602 1606 1606 1606 1603 1598 1593 1590 1586 1584 1583 1583 1583 1587 1590 1590 1597 1597 1597 1591 1583 1583 1583 1585 1588 1588 1588 1587 1580 1576 1573 1556 0 0 0 0 0 0 0 0 0 0 0 1304 1282 1279 1278 1267 1267 1267 1265 1265 1264 1264 1263 1263 1262 1259 1259 1258 1256 1255 1255 1254 1252 1252 1252 1255 1255 1255 1255 1255 0 0 0 0 1434 1468 1489 1501 1503 1509 1512 1517 1523 1528 1532 1538 1538 1538 1538 1526 1526 1526 1533 1541 1544 1545 1551 1554 1555 1556 1559 1564 1566 1566 1566 1563 1561 1561 1561 1564 1564 1568 1568 1568 1566 1558 1552 1547 1547 1547 1547 1547 1547 1545 1545 1545 1550 1551 1552 1552 1556 1558 1565 1565 1565 1563 1562 1558 1556 1556 1556 1566 1566 1567 1569 1577 1577 1577 1572 1568 1557 1549 1549 1549 1549 1553 1553 1553 1558 1558 1558 1547 1530 1511 1495 1476 1464 1453 1439 1424 1410 1398 1373 1373 1373 1373 1373 1370 1368 1366 1337 1307 0 0 0 0 0 0 0 0 0 0 0 1572 1572 1572 1570 1570 1570 1573 1579 1600 1631 1632 1632 1631 1628 1606 1586 1586 1586 1587 1595 1603 1603 1603 1570 1553 1534 1518 1517 1517 1517 1528 1529 1529 1529 1481 1481 1481 1527 1527 1527 1522 1501 1469 1446 1418 1393 1381 1381 1381 1391 1405 1405 1405 1375 1346 1323 0 0 0 0 0 0 0 0 0 0 0 0 0 0 0 0 0 0 0 0 0 0 0 0 0 0 0 0 0 0 0 0 0 0 0 0 0 0 0 0 0 0 0 0 0 0 0 0 0 0 0 0 0 711 711
741 741 750 774 0 826 843 858 866 883 899 940 970 991 1009 1009 1009 1009 1009 1009 1041 1045 1059 1066 1087 1110 1125 1131 1140 1143 1148 1161 1173 1193 1215 1230 1254 1274 1294 1311 1326 1334 1338 1348 1363 1378 1391 1399 1407 1415 1425 1440 1451 1461 1469 1487 1511 1517 1537 1551 1568 1578 1593 1604 1610 1615 1617 1621 1626 1634 1646 1650 1650 1653 1661 1668 1681 1692 1702 1710 1712 1720 1726 1740 1759 1775 1788 1795 1797 1797 1800 1809 1823 1831 1849 1858 1864 1870 1877 1886 1895 1899 1905 1914 1923 1923 1923 1922 1922 1922 1932 1939 1942 1963 1980 1996 2000 2014 2027 2040 2067 2068 2068 2068 2056 2050 2050 2050 2050 2050 2041 2041 2041 2051 2060 2063 2086 2109 2109 2109 2107 2099 2089 2089 2089 2099 2107 2116 2124 2134 2148 2162 2173 2189 2199 2199 2199 2189 2182 2173 2167 2166 2163 0 0 0 0 0 0 0 0 0 1325 1327 1327 1327 1340 1356 1374 1379 1380 1380 1380 1383 1383 1388 1391 1391 1391 1392 1394 1396 1399 1403 1403 1404 1404 1410 1420 1421 1421 1425 1427 1427 1432 1432 1432 1444 1454 1457 1459 1460 1460 1459 1459 1452 1450 1450 1450 1463 1475 1478 1483 1483 1485 1488 1488 1489 1495 1495 1495 1492 1492 1492 1492 1497 1499 1499 1499 1495 1495 1495 1498 1506 1510 1515 1522 1525 1527 1527 1528 1529 1536 1542 1547 1553 1560 1567 1571 1571 1572 1572 1572 1574 1575 1575 1575 1573 1573 1572 1572 1572 1577 1577 1577 1567 1561 1553 1546 1544 1533 1531 1531 1531 1539 1541 1543 1544 1547 1558 1571 1571 1571 1562 1562 1562 1576 1588 1589 1589 1589 1585 1583 1583 1583 1584 1588 1590 1594 1595 1597 1598 1600 1602 1603 1603 1605 1609 1609 1609 1608 1608 1607 1607 1607 1606 1606 1605 1605 1605 1600 1597 1597 1597 1600 1603 1603 1603 1603 1598 1593 1590 1585 1584 1583 1583 1583 1587 1595 1596 1597 1597 1597 1591 1583 1583 1583 1583 1588 1588 1588 1582 1580 1576 1548 0 0 0 0 0 0 0 0 0 1303 1296 1280 1275 1274 1273 1268 1260 1260 1260 1260 1260 1260 1260 1260 1260 1260 1259 1258 1258 1256 1255 1253 1253 1251 1248 1248 1248 1246 1245 1241 1241 1241 0 0 0 0 1444 1482 1496 1503 1507 1510 1517 1525 1528 1532 1539 1539 1539 1538 1527 1527 1527 1534 1541 1544 1545 1551 1554 1555 1556 1556 1560 1565 1565 1565 1562 1561 1561 1561 1564 1565 1568 1568 1568 1565 1557 1552 1549 1549 1549 1548 1547 1544 1544 1544 1547 1550 1551 1552 1552 1555 1556 1557 1558 1562 1562 1562 1560 1560 1560 1567 1572 1573 1576 1580 1589 1589 1589 1576 1568 1557 1555 1555 1555 1555 1558 1558 1558 1561 1561 1561 1547 1530 1511 1495 1476 1464 1453 1439 1424 1410 1398 1369 1363 1361 1358 1358 1358 1357 1355 1337 1307 0 0 0 0 0 0 0 0 0 0 0 0 1551 1559 1567 1570 1570 1573 1589 1614 1647 1658 1658 1658 1634 1610 1586 1586 1586 1587 1597 1603 1603 1603 1570 1553 1534 1524 1524 1524 1530 1530 1530 1512 1491 1481 1481 1481 1521 1522 1522 1522 1513 1498 1469 1427 1394 1383 1383 1383 1383 1383 1371 1344 1341 1341 1341 1350 1350 0 0 0 0 0 0 0 0 0 0 0 0 0 0 0 0 0 0 0 0 0 0 0 0 0 0 0 0 0 0 0 0 0 0 0 0 0 0 0 0 0 0 0 0 0 0 0 0 0 0 0 711 711
716 732 732 735 0 0 843 858 866 883 899 924 964 967 1009 1009 1009 1012 1012 1012 1043 1067 1073 1088 1089 1110 1125 1131 1142 1144 1148 1157 1171 1193 1215 1230 1252 1274 1296 1316 1330 1334 1338 1348 1357 1375 1391 1399 1403 1414 1432 1454 1469 1471 1474 1488 1509 1516 1534 1551 1562 1573 1586 1598 1610 1616 1622 1627 1633 1638 1647 1651 1654 1656 1660 1669 1687 1706 1722 1731 1732 1737 1746 1754 1767 1780 1791 1798 1800 1801 1806 1815 1826 1837 1856 1868 1868 1873 1883 1893 1901 1903 1907 1914 1919 1919 1919 1919 1919 1922 1937 1946 1956 1987 2004 2021 2025 2034 2043 2056 2082 2090 2090 2090 2077 2065 2054 2054 2054 2055 2056 2056 2056 2058 2060 2063 2081 2096 2112 2114 2114 2114 2092 2092 2092 2102 2108 2122 2130 2137 2153 2176 2183 2196 2200 2200 2200 2192 2183 2173 2166 2157 0 0 0 0 0 0 0 0 1293 1293 1303 1309 1309 1316 1336 1371 1382 1384 1384 1383 1383 1384 1386 1393 1394 1395 1396 1396 1396 1401 1403 1412 1412 1413 1416 1419 1424 1425 1427 1428 1429 1430 1434 1434 1436 1449 1461 1475 1475 1477 1477 1475 1468 1452 1445 1445 1445 1463 1476 1482 1486 1489 1489 1490 1490 1494 1495 1495 1495 1494 1494 1494 1495 1498 1499 1499 1499 1499 1499 1499 1502 1506 1510 1516 1522 1525 1527 1527 1529 1531 1536 1543 1549 1553 1560 1567 1572 1578 1578 1578 1578 1576 1575 1575 1574 1573 1572 1570 1570 1570 1577 1577 1577 1577 1567 1557 1549 1544 1533 1531 1531 1531 1539 1543 1547 1551 1559 1569 1576 1576 1576 1568 1568 1568 1576 1588 1591 1591 1591 1586 1583 1583 1583 1586 1591 1592 1595 1596 1597 1598 1601 1603 1603 1603 1605 1607 1607 1607 1607 1607 1606 1606 1606 1603 1601 1601 1600 1600 1599 1596 1596 1596 1598 1598 1599 1599 1599 1598 1592 1585 1579 1577 1577 1577 1586 1593 1601 1602 1602 1602 1597 1591 1579 1571 1571 1571 1588 1588 0 0 0 0 0 0 0 0 0 0 0 1326 1304 1290 1288 1284 1271 1268 1267 1262 1257 1256 1256 1257 1258 1258 1258 1258 1258 1258 1258 1258 1257 1256 1253 1253 1252 1250 1248 1246 1244 1244 1243 1240 1236 1236 1236 1259 0 0 0 1423 1460 1489 1499 1506 1510 1517 1526 1532 1537 1541 1544 1544 1544 1532 1532 1532 1537 1541 1544 1545 1551 1554 1555 1556 1556 1559 1563 1563 1563 1562 1561 1561 1561 1564 1565 1566 1566 1566 1562 1556 1552 1550 1549 1549 1549 1549 1546 1546 1546 1549 1550 1552 1552 1552 1551 1551 1551 1557 1562 1562 1564 1565 1566 1576 1584 1585 1586 1588 1593 1598 1598 1598 1582 1572 1564 1564 1564 1568 1568 1568 1564 1564 1564 1563 1561 1549 1538 1523 1503 1476 1465 1453 1439 1424 1410 1400 1368 1363 1361 1358 1358 1358 1357 1355 1337 1323 0 0 0 0 0 0 0 0 0 0 0 0 0 1559 1567 1574 1576 1581 1612 1647 1682 1682 1682 1659 1648 1611 1586 1586 1586 1587 1597 1603 1603 1603 1584 1553 1534 1534 1534 1537 1537 1537 1524 1509 1491 1481 1481 1481 1517 1547 1547 1547 1537 1516 1483 1442 1394 1386 1386 1382 1381 1381 1344 1324 1324 1324 1340 1351 1351 1351 0 0 0 0 0 0 0 0 0 0 0 0 0 0 0 0 0 0 0 0 0 0 0 0 0 0 0 0 0 0 0 0 0 0 0 0 0 0 0 0 0 0 0 0 0 0 0 0 0 0 665 671
716 732 732 735 0 0 856 880 896 898 899 900 934 937 979 997 1000 1003 1003 1012 1043 1073 1081 1088 1089 1110 1125 1131 1142 1144 1148 1157 1171 1193 1215 1230 1252 1275 1299 1321 1333 1337 1342 1346 1357 1375 1391 1399 1403 1414 1437 1459 1473 1477 1480 1489 1500 1516 1534 1547 1555 1572 1586 1598 1610 1616 1624 1634 1641 1642 1647 1653 1654 1657 1660 1669 1689 1709 1722 1731 1738 1749 1757 1766 1775 1782 1793 1804 1812 1813 1813 1819 1828 1838 1859 1871 1877 1884 1890 1898 1907 1912 1913 1915 1918 1918 1918 1919 1919 1926 1945 1967 1984 2008 2031 2035 2052 2052 2059 2072 2097 2101 2101 2101 2092 2075 2056 2056 2056 2067 2077 2077 2077 2067 2067 2067 2081 2092 2107 2118 2118 2118 2103 2103 2103 2103 2117 2132 2140 2144 2162 2187 2199 2205 2205 2205 2202 2201 2198 2173 2162 0 0 0 0 0 0 0 0 1293 1293 1293 1294 1296 1303 1315 1336 1376 1392 1392 1392 1386 1386 1386 1386 1393 1398 1400 1402 1403 1403 1403 1407 1416 1416 1419 1421 1421 1428 1429 1430 1435 1439 1439 1440 1440 1443 1451 1465 1489 1489 1489 1482 1480 1479 1452 1431 1431 1431 1463 1476 1489 1496 1497 1498 1500 1500 1502 1503 1503 1503 1504 1504 1504 1502 1502 1502 1502 1505 1506 1509 1514 1514 1515 1516 1521 1522 1525 1527 1528 1529 1532 1538 1543 1549 1553 1560 1567 1572 1578 1583 1583 1583 1578 1575 1574 1573 1572 1572 1570 1570 1570 1577 1581 1581 1581 1569 1559 1551 1544 1533 1531 1531 1531 1539 1543 1549 1554 1561 1569 1577 1577 1577 1568 1567 1567 1567 1573 1592 1592 1592 1589 1589 1589 1590 1590 1591 1594 1598 1599 1600 1600 1601 1604 1605 1605 1606 1607 1607 1607 1607 1607 1606 1606 1606 1600 1600 1600 1599 1599 1596 1594 1594 1594 1594 1594 1596 1598 1598 1598 1590 1583 1579 1577 1577 1577 1586 1593 1604 1604 1604 1602 1592 1580 1566 1551 1537 0 0 0 0 0 0 0 0 0 0 1314 1312 1298 1296 1290 1286 1274 1272 1268 1264 1264 1262 1257 1255 1255 1255 1256 1258 1258 1258 1258 1257 1257 1255 1255 1254 1253 1251 1251 1251 1249 1248 1246 1242 1240 1239 1238 1236 1236 1238 1250 1280 0 0 0 1444 1469 1491 1499 1510 1522 1535 1537 1538 1541 1545 1548 1548 1548 1546 1546 1546 1547 1547 1549 1554 1556 1556 1557 1557 1559 1562 1562 1562 1561 1561 1561 1561 1564 1564 1564 1562 1560 1558 1555 1553 1551 1551 1550 1549 1549 1546 1546 1546 1548 1549 1550 1550 1550 1551 1551 1551 1557 1562 1566 1566 1572 1581 1591 1591 1593 1594 1594 1600 1607 1607 1607 1592 1583 1580 1578 1577 1577 1574 1571 1568 1567 1567 1567 1565 1551 1538 1537 1516 1485 1477 1468 1453 1436 1418 1401 1369 1363 1361 1358 1358 1358 1358 1357 1357 1357 1334 0 0 0 0 0 0 0 0 0 0 0 0 1571 1571 1574 1582 1601 1617 1647 1682 1682 1682 1659 1648 1619 1589 1586 1586 1586 1595 1619 1619 1619 1584 1553 1530 1530 1530 1541 1541 1541 1524 1506 1491 1481 1481 1481 1488 1544 1544 1544 1537 1516 1484 1442 1394 1386 1386 1381 1381 1381 1344 1318 1318 1318 1340 1351 1351 1351 0 0 0 0 0 0 0 0 0 0 0 0 0 0 0 0 0 0 0 0 0 0 0 0 0 0 0 0 0 0 0 0 0 0 0 0 0 0 0 0 0 0 0 0 0 0 0 0 0 0 648 671
716 732 732 735 0 0 856 880 896 896 901 901 901 919 945 977 990 997 1000 1014 1044 1073 1081 1089 1089 1110 1121 1131 1145 1150 1151 1157 1171 1199 1220 1232 1252 1282 1310 1328 1334 1338 1342 1346 1357 1375 1399 1401 1403 1415 1438 1460 1473 1482 1487 1492 1500 1515 1533 1546 1555 1572 1586 1598 1610 1617 1631 1641 1646 1649 1652 1654 1654 1657 1660 1673 1692 1710 1722 1731 1738 1752 1764 1772 1776 1787 1800 1813 1824 1824 1825 1826 1830 1846 1863 1875 1883 1887 1891 1901 1912 1915 1918 1918 1919 1918 1919 1919 1919 1931 1960 1990 2010 2035 2064 2069 2070 2073 2075 2089 2099 2101 2102 2102 2101 2088 2071 2071 2071 2075 2080 2080 2080 2077 2077 2077 2081 2092 2101 2122 2122 2122 2117 2114 2114 2114 2130 2149 2164 2165 2174 2201 2206 2206 2206 2205 2202 2202 2198 2173 0 0 0 0 0 0 0 0 1326 1298 1298 1295 1295 1298 1303 1310 1336 1376 1395 1395 1395 1391 1388 1388 1388 1393 1399 1407 1413 1413 1413 1417 1417 1417 1422 1422 1425 1425 1429 1433 1437 1443 1449 1449 1449 1451 1451 1456 1473 1490 1490 1490 1489 1488 1482 1444 1420 1420 1420 1438 1475 1496 1502 1505 1506 1507 1512 1514 1515 1517 1517 1517 1517 1515 1509 1506 1505 1505 1505 1506 1513 1520 1523 1526 1526 1526 1526 1526 1527 1530 1530 1532 1538 1543 1549 1551 1554 1563 1571 1578 1583 1583 1583 1579 1575 1572 1572 1572 1571 1569 1569 1569 1577 1586 1586 1586 1572 1561 1554 1547 1541 1539 1539 1539 1539 1543 1551 1560 1568 1577 1582 1582 1582 1570 1567 1567 1567 1569 1584 1595 1596 1597 1597 1596 1596 1597 1598 1606 1606 1606 1602 1602 1602 1605 1605 1605 1606 1607 1607 1607 1607 1607 1606 1606 1606 1600 1599 1597 1595 1593 1593 1591 1591 1591 1591 1591 1594 1596 1596 1596 1588 1582 1579 1577 1577 1577 1577 1582 1604 1604 1604 1601 1584 1546 0 0 0 0 0 0 0 0 0 0 0 0 1313 1308 1300 1295 1292 1279 1268 1264 1264 1264 1261 1258 1255 1253 1253 1253 1254 1256 1258 1258 1258 1258 1257 1255 1255 1253 1252 1251 1250 1248 1248 1248 1248 1245 1242 1239 1238 1237 1234 1234 1238 1242 1260 0 0 0 0 1447 1477 1496 1509 1522 1535 1537 1538 1541 1544 1552 1552 1552 1557 1557 1557 1557 1557 1558 1558 1558 1559 1559 1559 1559 1561 1561 1561 1559 1559 1559 1561 1564 1564 1564 1559 1556 1555 1553 1553 1551 1551 1550 1549 1549 1548 1548 1548 1548 1550 1550 1550 1550 1551 1551 1551 1562 1566 1571 1582 1583 1596 1600 1600 1602 1602 1602 1609 1611 1611 1611 1600 1597 1596 1594 1589 1583 1575 1571 1569 1569 1567 1565 1565 1551 1546 1542 1541 1503 1495 1494 1479 1463 1452 1423 0 0 1369 1365 1365 1365 1365 1386 1386 1386 1374 0 0 0 0 0 0 0 0 0 0 0 0 0 1607 1611 1613 1613 1617 1647 1682 1682 1682 1659 1648 1626 1592 1571 1571 1571 1595 1619 1619 1619 1584 1547 1530 1530 1530 1547 1547 1547 1524 1505 1499 1489 1487 1487 1487 1503 1537 1537 1537 1517 1485 1442 1390 1386 1386 1379 1379 1379 1344 1318 1318 1318 1327 1343 1343 1343 0 0 0 0 0 0 0 0 0 0 0 0 0 0 0 0 0 0 0 0 0 0 0 0 0 0 0 0 0 0 0 0 0 0 0 0 0 0 0 0 0 0 0 0 0 0 0 0 0 0 641 641
728 732 732 747 0 0 856 880 896 896 901 901 901 909 928 956 982 997 1001 1016 1044 1068 1078 1081 1094 1105 1121 1144 1155 1160 1164 1172 1199 1221 1232 1243 1264 1286 1310 1328 1334 1338 1343 1346 1361 1397 1409 1417 1417 1417 1439 1460 1474 1486 1488 1495 1500 1516 1530 1544 1555 1572 1589 1604 1613 1623 1637 1647 1651 1654 1658 1664 1667 1671 1675 1685 1697 1710 1719 1726 1739 1753 1766 1775 1782 1791 1806 1822 1834 1836 1836 1837 1839 1849 1867 1879 1885 1892 1893 1902 1914 1916 1918 1921 1921 1923 1926 1927 1929 1948 1979 2001 2017 2035 2064 2074 2083 2085 2085 2089 2099 2104 2105 2105 2104 2098 2087 2084 2084 2084 2084 2084 2084 2084 2084 2090 2092 2092 2098 2122 2124 2124 2124 2124 2124 2124 2142 2162 2168 2175 2185 2201 2206 2206 2206 2202 2202 2200 2198 0 0 0 0 0 0 0 0 1346 1315 1301 1298 1297 1297 1298 1298 1307 1338 1376 1395 1395 1395 1393 1391 1391 1391 1397 1403 1411 1416 1419 1419 1420 1421 1422 1427 1430 1430 1432 1432 1435 1441 1445 1450 1454 1455 1456 1456 1460 1473 1490 1490 1490 1490 1488 1482 1444 1420 1420 1420 1430 1470 1496 1504 1509 1509 1512 1520 1520 1521 1523 1523 1521 1521 1520 1514 1510 1509 1509 1509 1513 1519 1526 1530 1530 1530 1526 1526 1526 1527 1531 1534 1535 1538 1541 1544 1545 1547 1559 1569 1577 1583 1583 1583 1579 1575 1572 1570 1570 1569 1566 1566 1566 1577 1586 1586 1586 1583 1563 1555 1548 1543 1540 1540 1540 1540 1545 1553 1562 1568 1577 1584 1584 1584 1574 1570 1569 1569 1569 1581 1595 1603 1603 1603 1603 1603 1603 1609 1610 1610 1610 1603 1603 1603 1605 1605 1605 1606 1607 1607 1607 1607 1607 1609 1609 1609 1599 1593 1593 1592 1591 1590 1586 1586 1586 1587 1588 1589 1595 1595 1595 1585 1581 1576 1575 1574 1574 1574 1578 1590 1590 0 0 0 0 0 0 0 0 0 0 0 0 0 1312 1309 1295 1293 1291 1284 1275 1275 1268 1259 1257 1257 1257 1257 1256 1254 1251 1251 1251 1254 1255 1256 1256 1256 1255 1254 1254 1252 1250 1249 1247 1246 1245 1245 1244 1244 1243 1240 1239 1237 1233 1233 1233 1233 1233 1240 1247 0 0 0 0 1464 1489 1509 1522 1535 1535 1537 1538 1541 1552 1558 1558 1561 1562 1569 1569 1569 1562 1561 1560 1560 1560 1560 1560 1560 1560 1560 1559 1559 1559 1561 1562 1562 1562 1559 1556 1555 1553 1553 1551 1551 1551 1550 1549 1549 1549 1548 1550 1550 1551 1557 1558 1559 1561 1566 1568 1572 1578 1593 1604 1605 1605 1605 1603 1603 1603 1611 1611 1611 1611 1605 1599 1597 1596 1591 1585 1576 1572 1572 1569 1567 1565 1565 1551 1551 1551 1547 1546 1534 1501 1479 1475 1465 1458 0 0 0 0 1404 1395 1395 1395 1399 1399 1399 1344 0 0 0 0 0 0 0 0 0 0 0 0 1633 1633 1633 1633 1633 1633 1649 1650 1650 1650 1632 1626 1592 1562 1562 1562 1592 1619 1619 1619 1579 1547 1531 1531 1531 1547 1547 1547 1524 1505 1499 1496 1487 1487 1487 1489 1518 1519 1519 1519 1487 0 1378 1374 1374 1374 1374 1374 1345 1338 1334 1334 1334 1327 1327 1306 1287 0 0 0 0 0 0 0 0 0 0 0 0 0 0 0 0 0 0 0 0 0 0 0 0 0 0 0 0 0 0 0 0 0 0 0 0 0 0 0 0 0 0 0 0 0 0 0 0 0 641 641
734 734 741 757 783 818 847 873 895 896 901 901 901 909 922 949 979 997 1011 1027 1045 1068 1078 1085 1095 1112 1121 1146 1163 1170 1177 1190 1220 1232 1241 1251 1270 1286 1310 1328 1334 1338 1346 1357 1371 1397 1420 1424 1425 1431 1442 1461 1476 1487 1492 1496 1505 1516 1529 1543 1554 1575 1594 1604 1613 1623 1640 1649 1653 1656 1663 1671 1675 1681 1686 1695 1704 1714 1719 1726 1739 1753 1768 1782 1791 1800 1814 1828 1840 1842 1843 1844 1850 1858 1869 1881 1890 1892 1897 1906 1915 1922 1923 1924 1929 1937 1942 1945 1951 1971 1989 2001 2017 2035 2064 2074 2085 2087 2087 2089 2099 2100 2104 2105 2105 2105 2097 2097 2097 2096 2096 2089 2085 2085 2085 2094 2095 2096 2098 2110 2122 2125 2126 2136 2136 2139 2152 2170 2174 2175 2185 2201 2201 2201 2202 2202 2200 2198 0 0 0 0 0 0 0 0 1339 1325 1306 1301 1298 1297 1297 1298 1298 1303 1338 1376 1388 1394 1394 1394 1391 1391 1391 1397 1406 1411 1418 1421 1424 1425 1426 1427 1430 1434 1436 1437 1438 1439 1442 1445 1452 1454 1456 1459 1460 1464 1476 1481 1489 1490 1490 1490 1481 1444 1420 1420 1420 1426 1469 1496 1504 1509 1510 1515 1521 1521 1521 1523 1523 1521 1521 1520 1516 1515 1515 1515 1516 1519 1524 1528 1531 1531 1531 1527 1527 1527 1528 1534 1536 1536 1539 1541 1543 1544 1547 1559 1566 1572 1574 1577 1577 1577 1575 1571 1568 1566 1564 1561 1561 1561 1569 1581 1583 1583 1583 1573 1556 1549 1544 1544 1544 1544 1545 1549 1554 1565 1572 1577 1585 1585 1585 1582 1576 1575 1575 1575 1581 1593 1603 1603 1603 1603 1603 1604 1613 1613 1613 1612 1607 1605 1604 1604 1604 1604 1604 1606 1606 1606 1607 1607 1609 1609 1609 1597 1593 1592 1592 1590 1589 1585 1581 1581 1581 1583 1587 1595 1595 1595 1577 1576 1575 1575 1571 1563 0 0 0 0 0 0 0 0 0 0 0 0 0 0 0 0 1291 1290 1287 1281 1279 1278 1268 1264 1261 1256 1252 1252 1252 1254 1254 1254 1252 1251 1251 1251 1251 1253 1254 1254 1254 1252 1252 1251 1249 1248 1248 1245 1244 1244 1244 1242 1241 1240 1239 1236 1235 1233 1233 1233 1233 1231 1233 1237 0 0 0 0 0 1476 1505 1518 1524 1535 1535 1538 1539 1552 1558 1558 1561 1567 1569 1569 1569 1562 1561 1560 1560 1560 1560 1560 1560 1560 1558 1558 1558 1559 1562 1562 1562 1562 1559 1556 1555 1553 1553 1551 1551 1550 1550 1550 1550 1550 1554 1555 1557 1565 1567 1568 1568 1571 1575 1575 1577 1582 1593 1604 1605 1605 1605 1603 1603 1603 1611 1611 1611 1611 1605 1599 1597 1596 1591 1589 1584 1575 1572 1569 1567 1552 1551 1551 1551 1551 1548 1548 1534 1501 1479 1475 1469 1468 1468 1465 1465 1465 1435 1414 1406 1406 1406 1406 1404 1389 1380 0 0 0 0 0 0 0 0 0 0 0 0 1650 1650 1617 1617 1617 1623 1628 1629 1629 1629 1626 1592 1553 1553 1553 1561 1586 1586 1586 1565 1547 1547 1547 1548 1548 1548 1547 1524 1505 1501 1496 1487 1479 1479 1479 1493 1517 1517 1517 1491 0 1378 1357 1357 1357 1357 1349 1348 1346 1338 1343 1343 1329 1327 1306 1287 1251 0 0 0 0 0 0 0 0 0 0 0 0 0 0 0 0 0 0 0 0 0 0 0 0 0 0 0 0 0 743 743 750 0 0 0 0 0 0 0 0 0 0 0 0 0 0 0 0 0 648
749 749 760 774 794 818 836 855 872 891 901 901 905 909 922 949 978 997 1011 1035 1054 1068 1078 1085 1098 1116 1125 1148 1170 1181 1201 1220 1231 1239 1248 1261 1273 1286 1293 1298 1321 1338 1346 1357 1371 1397 1424 1436 1439 1441 1449 1462 1476 1489 1493 1499 1510 1516 1527 1542 1554 1575 1594 1604 1613 1624 1640 1650 1654 1659 1667 1671 1679 1686 1691 1699 1707 1717 1719 1726 1739 1753 1771 1787 1795 1804 1815 1829 1840 1845 1848 1850 1856 1860 1869 1881 1891 1898 1907 1913 1919 1923 1929 1935 1945 1959 1968 1973 1974 1979 1990 2006 2017 2032 2064 2081 2087 2090 2091 2094 2099 2100 2104 2111 2111 2111 2111 2111 2116 2116 2116 2099 2086 2086 2086 2097 2098 2100 2104 2104 2111 2124 2128 2140 2151 2151 2173 2177 2177 2179 2186 2196 2196 2196 2186 2186 2184 2183 0 0 0 0 0 0 0 1336 1324 1307 1297 1297 1287 1282 1266 1266 1266 1297 1338 1368 1377 1382 1393 1393 1393 1393 1393 1399 1406 1411 1419 1425 1428 1430 1431 1433 1433 1436 1441 1443 1443 1443 1443 1447 1452 1453 1457 1462 1465 1469 1477 1481 1489 1492 1492 1492 1480 1446 1431 1420 1420 1420 1467 1487 1504 1509 1511 1517 1523 1523 1523 1525 1525 1525 1525 1524 1522 1522 1522 1522 1523 1525 1528 1530 1531 1531 1531 1527 1527 1527 1531 1536 1536 1537 1539 1540 1543 1544 1547 1559 1566 1566 1567 1567 1572 1572 1572 1568 1567 1565 1561 1558 1558 1558 1562 1570 1578 1578 1578 1573 1564 1550 1550 1550 1554 1556 1557 1560 1562 1565 1572 1575 1579 1585 1588 1589 1589 1589 1584 1584 1584 1593 1595 1600 1602 1603 1603 1604 1613 1613 1613 1612 1607 1605 1604 1604 1603 1604 1604 1603 1604 1604 1604 1606 1609 1609 1609 1597 1593 1591 1590 1590 1588 1585 1579 1578 1578 1578 1587 1594 1594 1594 1574 1569 1567 1562 1535 0 0 0 0 0 0 0 0 0 0 0 1305 1300 1300 1289 1278 1269 1269 1269 1265 1265 1265 1261 1260 1257 1256 1253 1248 1248 1248 1250 1250 1250 1250 1249 1249 1249 1249 1250 1250 1250 1250 1249 1249 1247 1247 1246 1245 1245 1243 1242 1241 1240 1239 1238 1236 1234 1233 1233 1231 1231 1231 1231 1231 1231 1232 0 0 0 0 1452 1483 1503 1524 1535 1535 1538 1539 1546 1550 1554 1561 1567 1569 1569 1569 1562 1561 1560 1560 1560 1560 1560 1559 1558 1558 1558 1559 1559 1562 1562 1562 1562 1560 1560 1558 1557 1553 1550 1549 1549 1549 1549 1550 1555 1563 1569 1574 1574 1575 1575 1575 1582 1582 1584 1584 1584 1593 1604 1605 1605 1605 1603 1603 1603 1611 1611 1611 1610 1605 1599 1593 1591 1591 1589 1584 1575 1572 1564 1561 1551 1551 1551 1551 1551 1550 1550 1534 1501 1488 1477 1475 1475 1475 1478 1478 1478 1447 1420 1408 1408 1408 1414 1422 1422 1414 1407 1407 1400 0 0 0 0 0 0 0 0 0 1651 1651 1619 1619 1619 1617 1611 1611 1606 1604 1574 1573 1535 1535 1535 1546 1563 1565 1565 1563 1555 1550 1549 1548 1542 1542 1535 1516 1505 1501 1496 1481 1475 1472 1472 1472 1500 1500 1500 1491 1439 1378 1357 1355 1347 1347 1347 1347 1347 1359 1359 1359 1349 1344 1306 1287 1266 1266 1264 1264 0 0 0 0 0 0 0 0 0 0 0 0 0 0 0 0 0 0 0 0 0 0 0 823 790 789 786 786 778 778 0 0 0 0 0 0 0 0 0 0 0 0 0 0 0 0 0
774 774 792 803 809 818 835 845 858 880 901 901 920 922 927 949 978 997 1011 1043 1068 1085 1093 1100 1108 1117 1134 1160 1185 1207 1228 1238 1239 1243 1251 1265 1274 1282 1293 1298 1321 1338 1351 1357 1371 1395 1424 1442 1448 1450 1450 1462 1477 1490 1495 1507 1513 1515 1525 1536 1550 1575 1594 1603 1613 1626 1641 1654 1660 1668 1677 1681 1688 1692 1696 1700 1708 1719 1728 1739 1748 1762 1777 1791 1798 1805 1817 1829 1842 1847 1851 1855 1865 1869 1872 1881 1892 1902 1914 1921 1925 1930 1936 1943 1954 1965 1977 1983 1985 1989 1992 2006 2017 2032 2064 2082 2090 2091 2093 2094 2099 2100 2104 2112 2114 2115 2116 2119 2125 2125 2125 2120 2096 2096 2096 2099 2099 2104 2106 2106 2111 2124 2129 2140 2151 2159 2173 2181 2188 2190 2197 2197 2197 2195 2179 2168 2158 2129 0 0 0 0 0 0 0 1336 1324 1307 1281 1278 1274 1274 1266 1266 1266 1291 1318 1352 1368 1382 1394 1394 1395 1396 1396 1399 1406 1412 1420 1428 1433 1435 1436 1437 1438 1442 1447 1448 1448 1448 1448 1448 1450 1450 1457 1464 1470 1474 1477 1481 1489 1492 1492 1492 1480 1465 1439 1420 1420 1420 1453 1485 1501 1510 1512 1518 1525 1525 1525 1526 1526 1526 1526 1526 1527 1527 1527 1528 1530 1532 1532 1533 1534 1534 1534 1533 1533 1533 1534 1537 1538 1538 1539 1540 1543 1549 1557 1563 1564 1564 1566 1566 1566 1566 1566 1566 1560 1555 1554 1554 1555 1556 1558 1560 1565 1573 1573 1573 1564 1563 1563 1563 1564 1564 1567 1567 1570 1572 1573 1575 1576 1583 1588 1590 1591 1591 1591 1591 1592 1593 1595 1598 1598 1599 1601 1604 1613 1613 1613 1612 1607 1604 1604 1604 1603 1604 1604 1602 1602 1602 1602 1602 1602 1602 1602 1594 1590 1590 1590 1590 1584 1580 1575 1573 1573 1573 1582 1593 1593 1593 1557 1544 1541 1510 1477 0 0 0 0 0 0 0 0 0 0 1291 1291 1288 1287 1285 1272 1262 1256 1256 1256 1256 1256 1255 1255 1254 1251 1249 1247 1246 1246 1246 1247 1247 1247 1247 1247 1247 1247 1247 1247 1247 1246 1246 1245 1245 1245 1244 1244 1243 1242 1241 1239 1238 1237 1236 1235 1232 1232 1232 1231 1231 1231 1231 1231 1231 1231 0 0 0 0 1428 1455 1501 1522 1535 1539 1539 1540 1540 1540 1546 1556 1567 1567 1567 1565 1563 1561 1560 1560 1560 1560 1560 1558 1558 1558 1559 1561 1562 1564 1564 1564 1564 1564 1562 1562 1562 1554 1550 1548 1548 1548 1552 1556 1564 1574 1587 1587 1588 1588 1595 1595 1595 1594 1588 1588 1588 1595 1607 1607 1607 1605 1603 1603 1603 1608 1608 1608 1607 1602 1592 1589 1589 1588 1587 1584 1575 1564 1558 1552 1551 1551 1550 1551 1550 1550 1547 1521 1501 1488 1483 1483 1483 1490 1490 1490 1481 1448 1425 1424 1424 1424 1424 1427 1431 1431 1432 1432 1432 1428 0 0 0 0 0 0 0 0 1653 1653 1645 1635 1623 1620 1611 1611 1597 1592 1574 1563 1535 1535 1535 1544 1547 1547 1556 1564 1564 1564 1559 1548 1540 1538 1529 1512 1505 1501 1493 1480 1475 1472 1472 1472 1492 1492 1492 1491 1436 1413 1384 1357 1344 1344 1344 1347 1358 1364 1367 1367 1367 1361 1339 1310 1281 1280 1270 1266 1264 0 0 0 0 0 0 0 0 0 0 0 0 0 0 0 0 0 0 0 0 0 825 825 791 790 786 786 786 800 800 0 0 0 0 0 0 0 0 0 0 0 0 0 0 0 0
784 784 802 811 819 825 832 843 858 880 898 902 921 928 939 957 979 997 1018 1045 1077 1097 1111 1114 1118 1129 1150 1173 1195 1215 1232 1246 1247 1248 1252 1266 1275 1282 1293 1298 1321 1338 1351 1357 1371 1391 1415 1442 1448 1450 1455 1466 1481 1491 1500 1509 1514 1518 1525 1536 1550 1571 1589 1602 1613 1628 1648 1664 1673 1681 1686 1693 1699 1702 1702 1704 1710 1722 1740 1749 1756 1766 1778 1791 1799 1806 1818 1832 1842 1847 1853 1862 1873 1876 1876 1883 1893 1905 1914 1926 1934 1937 1943 1950 1959 1970 1981 1989 1994 1998 2002 2006 2017 2032 2074 2091 2105 2107 2109 2110 2111 2117 2121 2122 2123 2123 2123 2129 2133 2133 2133 2125 2100 2099 2099 2099 2109 2109 2111 2111 2111 2124 2129 2140 2151 2159 2173 2181 2188 2201 2202 2202 2202 2192 2171 0 0 0 0 0 0 0 1401 1370 1349 1336 1324 1307 1281 1278 1274 1274 1266 1266 1266 1290 1318 1351 1368 1382 1393 1396 1396 1397 1397 1400 1408 1412 1422 1432 1437 1441 1443 1443 1444 1449 1451 1451 1451 1450 1450 1450 1450 1450 1459 1467 1475 1480 1481 1483 1490 1493 1493 1493 1480 1470 1450 1423 1423 1423 1453 1483 1499 1510 1512 1518 1525 1528 1528 1528 1528 1528 1530 1530 1530 1530 1530 1530 1531 1534 1537 1539 1541 1542 1542 1542 1540 1540 1539 1538 1539 1539 1539 1540 1543 1551 1558 1566 1566 1566 1564 1561 1560 1558 1555 1550 1539 1539 1539 1546 1548 1551 1552 1553 1554 1557 1562 1562 1562 1563 1563 1563 1564 1564 1567 1567 1570 1575 1575 1575 1576 1583 1589 1591 1591 1591 1591 1594 1595 1596 1596 1596 1598 1599 1601 1601 1605 1610 1610 1610 1605 1603 1603 1603 1603 1603 1604 1603 1602 1601 1599 1598 1598 1598 1594 1594 1590 1589 1589 1587 1583 1575 1570 1570 1570 0 0 0 0 0 0 0 0 0 0 1362 1344 1335 1318 1318 1316 1293 1267 1266 1266 1266 1268 1268 1268 1266 1260 1255 1253 1253 1252 1251 1251 1250 1250 1249 1247 1245 1245 1244 1244 1244 1244 1245 1245 1245 1245 1245 1245 1244 1244 1244 1244 1243 1242 1242 1242 1242 1242 1242 1241 1240 1238 1237 1235 1234 1232 1231 1231 1230 1230 1230 1230 1229 1229 1222 1222 1222 1276 0 0 0 0 0 1518 1535 1539 1539 1539 1539 1539 1541 1553 1563 1565 1565 1565 1563 1561 1560 1560 1560 1560 1560 1558 1558 1558 1560 1561 1562 1564 1564 1564 1565 1565 1566 1566 1566 1555 1551 1549 1549 1549 1556 1566 1574 1591 1595 1598 1599 1599 1603 1603 1603 1600 1593 1593 1593 1595 1607 1607 1607 1605 1603 1602 1602 1602 1602 1602 1601 1596 1590 1589 1588 1586 1586 1583 1575 1564 1558 1552 1551 1551 1551 1550 1550 1549 1532 1521 1501 1488 1488 1488 1491 1495 1499 1499 1499 1466 1436 1436 1436 1437 1438 1448 1448 1455 1455 1460 1460 1460 0 0 0 0 0 0 0 0 1666 1679 1687 1687 1687 1658 1620 1611 1597 1592 1574 1563 1535 1535 1535 1544 1547 1547 1556 1563 1563 1563 1559 1548 1540 1536 1513 1509 1503 1501 1493 1480 1475 1472 1472 1472 1492 1492 1492 1462 1444 1414 1384 1357 1340 1340 1340 1347 1351 1364 1367 1367 1367 1361 1339 1310 1281 1280 1266 1241 1207 1175 1164 1157 1141 0 0 0 0 0 0 0 0 0 0 0 0 0 0 0 0 0 0 0 0 795 787 787 787 832 832 832 0 0 0 0 0 0 0 0 0 0 0 0 700 700 710
784 784 802 814 820 826 831 841 858 880 885 901 921 944 958 970 981 997 1020 1050 1077 1097 1111 1114 1124 1139 1161 1185 1202 1216 1233 1246 1252 1253 1259 1271 1276 1282 1293 1298 1326 1341 1351 1357 1371 1385 1410 1442 1448 1450 1455 1469 1481 1492 1502 1509 1514 1518 1525 1536 1550 1570 1586 1602 1616 1636 1659 1671 1678 1683 1692 1699 1706 1710 1711 1713 1719 1731 1748 1758 1764 1771 1782 1793 1799 1808 1818 1833 1843 1849 1862 1867 1879 1881 1884 1887 1896 1905 1916 1927 1937 1942 1948 1953 1964 1974 1985 1994 2001 2007 2016 2020 2043 2073 2099 2115 2122 2128 2129 2129 2130 2133 2133 2130 2133 2133 2133 2136 2149 2149 2149 2145 2125 2106 2106 2106 2113 2115 2115 2115 2115 2125 2135 2140 2148 2159 2169 2181 2188 2201 2202 2202 2202 2188 2162 0 0 0 0 0 0 0 1351 1339 1334 1333 1324 1307 1281 1278 1274 1274 1267 1267 1267 1285 1316 1351 1368 1384 1394 1396 1398 1399 1399 1400 1408 1412 1428 1437 1443 1446 1449 1452 1453 1455 1455 1455 1455 1452 1450 1450 1450 1452 1460 1473 1482 1485 1486 1488 1498 1498 1498 1498 1492 1485 1476 1435 1435 1435 1461 1483 1499 1518 1529 1530 1530 1530 1533 1534 1534 1534 1533 1532 1532 1530 1530 1530 1531 1534 1541 1546 1547 1548 1548 1550 1550 1550 1550 1546 1541 1541 1541 1541 1544 1551 1560 1567 1567 1567 1564 1561 1558 1555 1553 1548 1532 1532 1532 1536 1541 1546 1546 1546 1546 1546 1553 1558 1558 1559 1561 1563 1567 1567 1568 1568 1571 1575 1576 1576 1577 1583 1589 1591 1591 1591 1592 1594 1596 1596 1597 1598 1598 1599 1601 1601 1605 1605 1605 1605 1604 1602 1602 1602 1602 1603 1603 1603 1602 1600 1596 1596 1594 1592 1588 1587 1587 1584 1582 1581 1578 1573 1566 1566 1563 0 0 0 0 0 0 0 0 0 0 1311 1302 1299 1294 1291 1285 1267 1261 1261 1260 1260 1260 1260 1258 1257 1254 1253 1252 1251 1250 1249 1249 1247 1247 1246 1244 1244 1243 1243 1243 1243 1244 1244 1244 1244 1244 1244 1242 1241 1241 1241 1241 1241 1240 1240 1240 1240 1239 1239 1239 1238 1237 1235 1234 1232 1230 1229 1229 1229 1228 1228 1228 1226 1223 1222 1222 1222 1228 0 0 0 0 0 1518 1535 1539 1539 1539 1539 1539 1541 1553 1563 1565 1565 1565 1563 1561 1560 1560 1560 1560 1560 1558 1558 1558 1560 1562 1562 1564 1564 1564 1565 1565 1566 1569 1569 1569 1564 1549 1549 1549 1564 1570 1578 1605 1605 1605 1603 1603 1603 1605 1605 1605 1601 1596 1596 1596 1607 1608 1608 1608 1606 1601 1601 1600 1598 1596 1596 1596 1587 1587 1587 1586 1586 1583 1575 1564 1558 1552 1552 1552 1551 1550 1546 1541 1532 1521 1515 1506 1505 1504 1504 1504 1504 1504 1499 1468 1462 1462 1462 1467 1467 1467 1467 1467 1467 1467 1467 1460 0 0 0 0 0 0 0 0 0 1680 1718 1718 1718 1688 1644 1617 1597 1592 1586 1563 1561 1553 1548 1547 1547 1547 1555 1563 1563 1563 1559 1543 1529 1525 1511 1509 1506 1503 1493 1482 1481 1481 1482 1483 1489 1489 1489 1462 1444 1415 1387 1353 1353 1350 1350 1351 1354 1364 1367 1367 1367 1361 1339 1310 1281 1280 1256 1210 1207 1175 1161 1157 0 0 0 0 0 0 0 0 0 0 0 0 0 0 0 0 0 0 0 0 0 795 787 787 787 832 832 0 0 0 0 0 0 0 0 0 0 0 0 0 0 676 676
784 784 802 817 825 828 829 839 858 880 883 901 921 944 963 982 995 1018 1033 1053 1077 1097 1111 1114 1124 1150 1172 1185 1202 1218 1234 1248 1255 1261 1268 1282 1299 1316 1321 1335 1346 1354 1361 1367 1372 1385 1409 1430 1439 1447 1455 1469 1481 1492 1502 1509 1514 1517 1530 1539 1550 1570 1586 1602 1623 1644 1661 1671 1678 1684 1694 1699 1707 1716 1723 1726 1731 1742 1755 1764 1771 1780 1792 1803 1805 1814 1825 1837 1846 1861 1880 1891 1896 1897 1897 1898 1900 1906 1917 1928 1938 1946 1952 1960 1968 1981 1991 2001 2009 2018 2026 2034 2057 2079 2099 2115 2122 2130 2144 2150 2152 2152 2150 2146 2146 2146 2146 2147 2153 2162 2162 2162 2143 2130 2125 2125 2125 2125 2125 2126 2126 2126 2135 2137 2142 2147 2153 2165 2181 2201 2202 2202 2202 2174 0 0 0 0 0 0 0 0 1312 1312 1323 1323 1323 1307 1297 1288 1284 1278 1267 1267 1267 1285 1316 1345 1373 1388 1395 1397 1399 1399 1401 1404 1411 1424 1434 1442 1449 1452 1454 1456 1457 1458 1459 1459 1459 1455 1453 1452 1452 1452 1468 1480 1490 1495 1496 1497 1504 1511 1519 1523 1523 1523 1495 1450 1450 1450 1467 1485 1499 1525 1536 1536 1536 1536 1536 1537 1537 1537 1536 1535 1535 1533 1532 1532 1532 1536 1548 1550 1551 1551 1552 1553 1559 1559 1559 1553 1545 1543 1543 1543 1545 1552 1562 1567 1567 1567 1564 1561 1558 1555 1553 1548 1532 1532 1532 1536 1541 1542 1544 1545 1545 1546 1546 1553 1554 1556 1556 1563 1567 1568 1569 1570 1573 1577 1580 1581 1581 1584 1589 1591 1592 1592 1593 1594 1596 1596 1597 1598 1601 1601 1605 1605 1602 1602 1603 1602 1602 1600 1598 1598 1598 1602 1603 1603 1602 1600 1596 1596 1594 1592 1588 1586 1583 1573 1567 1567 1566 1566 1565 1543 0 0 0 0 0 0 0 0 1320 1312 1302 1285 1281 1277 1276 1270 1262 1258 1255 1254 1253 1253 1252 1251 1251 1251 1251 1251 1250 1250 1250 1248 1248 1247 1245 1244 1244 1243 1243 1242 1242 1242 1242 1242 1243 1243 1243 1242 1241 1240 1240 1239 1239 1239 1238 1238 1238 1238 1237 1236 1235 1235 1234 1234 1232 1230 1229 1228 1228 1227 1227 1227 1225 1224 1223 1222 1222 1222 1222 0 0 0 0 0 0 1534 1534 1534 1533 1533 1533 1541 1553 1563 1565 1565 1565 1563 1563 1563 1564 1564 1564 1563 1561 1561 1561 1562 1562 1562 1564 1564 1564 1564 1564 1566 1569 1569 1569 1569 1571 1571 1571 1577 1581 1595 1609 1609 1609 1603 1603 1603 1605 1606 1606 1606 1597 1597 1597 1609 1609 1609 1608 1606 1602 1601 1599 1596 1596 1596 1593 1587 1587 1587 1587 1587 1583 1577 1571 1568 1564 1556 1554 1554 1550 1546 1541 1532 1526 1522 1517 1516 1516 1513 1508 1506 1505 1500 1474 1472 1472 1472 1475 1475 1476 1477 1477 1477 1477 1471 0 0 0 0 0 0 0 0 0 0 1680 1718 1718 1718 1697 1669 1648 1627 1627 1626 1625 1613 1611 1600 1573 1555 1555 1555 1563 1564 1564 1564 1543 1529 1525 1511 1509 1506 1504 1504 1503 1500 1493 1492 1492 1489 1489 1489 1462 1453 1434 1387 1353 1353 1352 1352 1354 1358 1364 1364 1364 1360 1356 1330 1307 1281 1257 1235 1210 1207 1175 1161 0 0 0 0 0 0 0 0 0 0 0 0 0 0 0 0 0 0 0 0 0 0 802 792 792 792 825 825 0 0 0 0 0 0 0 0 0 0 0 0 0 0 0 0
782 782 801 819 829 830 830 839 858 880 883 899 921 944 963 982 1005 1022 1038 1055 1072 1088 1108 1112 1124 1158 1172 1185 1202 1218 1234 1252 1263 1268 1276 1291 1314 1317 1339 1351 1358 1363 1369 1373 1374 1385 1402 1426 1438 1444 1454 1471 1477 1492 1502 1508 1513 1518 1532 1540 1551 1571 1586 1604 1627 1646 1661 1675 1682 1687 1694 1701 1710 1721 1732 1735 1739 1744 1761 1771 1782 1793 1795 1807 1819 1827 1834 1848 1852 1873 1886 1895 1901 1908 1909 1911 1912 1912 1917 1929 1938 1950 1962 1966 1973 1985 1999 2009 2013 2018 2026 2034 2057 2079 2099 2115 2122 2130 2144 2154 2156 2159 2162 2162 2162 2161 2159 2159 2161 2172 2172 2172 2169 2146 2146 2146 2150 2150 2150 2150 2136 2136 2136 2135 2135 2137 2139 2146 2163 2190 2190 2190 2188 0 0 0 0 0 0 0 0 1311 1311 1311 1313 1318 1318 1318 1297 1292 1284 1278 1267 1267 1267 1279 1316 1345 1377 1389 1396 1397 1400 1402 1405 1412 1422 1431 1440 1446 1452 1459 1460 1460 1461 1461 1461 1463 1463 1463 1461 1461 1461 1467 1479 1489 1497 1504 1505 1505 1507 1515 1524 1531 1531 1531 1511 1472 1471 1471 1471 1487 1503 1530 1540 1540 1540 1539 1539 1539 1540 1540 1541 1541 1543 1543 1543 1543 1543 1545 1554 1554 1554 1555 1556 1558 1565 1565 1565 1555 1546 1545 1545 1545 1549 1556 1562 1567 1567 1567 1564 1560 1557 1555 1553 1545 1537 1536 1536 1536 1541 1542 1544 1545 1545 1546 1546 1548 1550 1550 1556 1562 1567 1568 1570 1576 1589 1596 1596 1596 1594 1594 1592 1592 1593 1593 1593 1594 1597 1598 1599 1608 1610 1610 1610 1609 1607 1605 1602 1600 1598 1595 1594 1593 1593 1593 1598 1600 1600 1600 1596 1595 1594 1592 1588 1586 1583 1573 1564 1555 1554 1554 0 0 0 0 0 0 1323 1306 1292 1281 1281 1280 1279 1274 1267 1262 1261 1256 1253 1252 1252 1250 1250 1249 1247 1247 1247 1247 1247 1247 1248 1248 1248 1248 1246 1243 1243 1243 1242 1242 1241 1240 1240 1240 1240 1241 1241 1241 1241 1240 1239 1238 1237 1237 1236 1236 1235 1235 1235 1235 1235 1234 1233 1233 1232 1231 1230 1228 1228 1227 1226 1225 1225 1224 1222 1222 1222 1222 1220 1216 1215 1215 0 0 0 0 0 1509 1525 1525 1529 1530 1530 1545 1558 1563 1565 1565 1565 1565 1564 1564 1565 1565 1564 1564 1562 1562 1562 1562 1562 1562 1563 1563 1563 1564 1565 1566 1569 1569 1571 1578 1579 1580 1583 1585 1589 1599 1611 1611 1611 1605 1604 1604 1605 1608 1608 1608 1606 1606 1606 1609 1609 1609 1608 1606 1604 1601 1599 1596 1596 1596 1593 1588 1588 1588 1588 1588 1583 1579 1575 1573 1570 1564 1559 1556 1550 1546 1541 1537 1534 1527 1527 1526 1526 1525 1513 1508 1506 1505 1479 1479 1479 1480 1480 1481 0 0 0 0 0 0 0 0 0 0 0 0 0 0 0 0 0 1718 1718 1718 1697 1677 1663 1648 1648 1648 1661 1661 1661 1612 1610 1558 1556 1555 1555 1556 1556 1551 1543 1529 1525 1518 1518 1511 1518 1518 1518 1518 1518 1513 1512 1512 1509 1482 1467 1464 1458 1391 1353 1353 1353 1354 1354 1358 1358 1358 1357 1351 1325 1322 1298 1273 1251 1235 1211 1210 1192 0 0 0 0 0 0 0 0 0 0 0 0 0 0 0 0 0 0 0 0 0 0 0 0 813 793 791 791 0 0 0 0 0 0 0 0 0 0 0 0 0 0 0 0 598
772 772 797 820 829 830 838 839 859 880 885 899 917 940 964 986 1006 1022 1040 1055 1071 1088 1099 1112 1130 1158 1172 1188 1202 1219 1241 1259 1267 1273 1281 1298 1315 1327 1350 1363 1371 1372 1375 1375 1378 1385 1402 1426 1438 1444 1454 1471 1477 1492 1503 1508 1514 1522 1534 1543 1557 1574 1592 1612 1633 1649 1661 1676 1682 1687 1694 1705 1717 1730 1738 1742 1742 1748 1763 1780 1793 1795 1810 1823 1835 1843 1852 1856 1866 1881 1890 1898 1906 1916 1920 1920 1922 1922 1923 1933 1947 1959 1964 1966 1974 1988 2004 2013 2013 2018 2026 2034 2057 2079 2093 2106 2119 2136 2148 2154 2160 2163 2169 2169 2169 2165 2164 2164 2165 2175 2177 2181 2181 2182 2182 2182 2182 2182 2173 2173 2153 2137 2137 2135 2127 2113 2113 2113 2128 2166 2170 2170 0 0 0 0 0 0 0 0 1314 1311 1311 1310 1310 1310 1310 1310 1301 1297 1284 1265 1247 1247 1247 1279 1316 1351 1396 1403 1404 1405 1406 1409 1414 1423 1433 1441 1446 1450 1456 1463 1463 1463 1463 1463 1463 1465 1468 1468 1468 1468 1468 1474 1484 1489 1497 1504 1508 1508 1510 1517 1524 1531 1531 1531 1514 1483 1473 1473 1473 1488 1510 1531 1542 1542 1542 1541 1541 1541 1542 1543 1544 1547 1547 1550 1554 1555 1555 1558 1559 1559 1559 1561 1561 1561 1565 1565 1565 1555 1547 1547 1547 1548 1551 1556 1562 1564 1564 1564 1562 1560 1557 1554 1553 1545 1540 1540 1540 1541 1541 1542 1544 1545 1545 1546 1546 1548 1550 1550 1553 1560 1566 1570 1576 1587 1598 1601 1601 1601 1599 1599 1598 1598 1598 1594 1594 1594 1597 1600 1603 1610 1613 1613 1613 1610 1608 1605 1601 1598 1595 1595 1594 1593 1593 1593 1593 1593 1595 1593 1593 1593 1590 1589 1589 1586 1583 1573 1564 1549 1546 0 0 0 0 0 0 1310 1294 1281 1273 1273 1273 1267 1267 1267 1259 1259 1255 1252 1252 1252 1251 1249 1248 1247 1245 1245 1245 1245 1246 1246 1246 1246 1246 1244 1243 1242 1241 1240 1240 1240 1239 1238 1237 1237 1237 1238 1238 1238 1237 1237 1236 1236 1236 1235 1234 1234 1233 1233 1232 1232 1232 1232 1231 1231 1231 1229 1228 1227 1226 1225 1225 1224 1224 1222 1220 1220 1220 1220 1220 1216 1209 1209 1209 0 0 0 0 0 1507 1520 1529 1530 1537 1560 1560 1563 1563 1563 1564 1564 1564 1564 1565 1565 1564 1564 1562 1562 1562 1562 1562 1563 1563 1563 1563 1564 1566 1566 1569 1569 1571 1582 1588 1597 1597 1600 1601 1601 1611 1611 1611 1608 1606 1606 1606 1608 1610 1610 1610 1611 1611 1611 1611 1610 1608 1606 1604 1601 1599 1597 1596 1596 1593 1592 1592 1591 1591 1591 1585 1582 1578 1575 1572 1571 1567 1564 1561 1559 1556 1545 1539 1539 1539 1535 1529 1529 1518 1514 1511 1506 1498 1498 1494 1494 1494 0 0 0 0 0 0 0 0 0 0 0 0 0 0 0 0 0 0 1715 1715 1715 1697 1677 1663 1648 1648 1648 1661 1661 1661 1638 1621 1566 1556 1555 0 1556 1576 0 0 0 0 0 0 1543 1537 1537 1537 1537 1537 1533 1516 1513 1512 1482 1467 1464 1458 1431 1421 1393 1357 1357 1357 1358 1358 1358 1355 1345 1325 1322 1298 1273 1251 1251 1251 1235 1234 0 0 0 0 0 0 0 0 0 0 0 0 0 0 0 0 0 0 0 0 0 0 0 0 0 0 0 0 0 0 0 0 0 0 0 0 0 0 0 0 0 0 0 576 576
764 764 792 820 835 838 846 852 874 882 887 899 917 940 964 989 1008 1027 1046 1059 1071 1088 1099 1112 1141 1158 1171 1188 1202 1227 1249 1265 1273 1280 1289 1306 1315 1327 1352 1366 1371 1372 1375 1379 1381 1386 1402 1426 1438 1444 1454 1471 1477 1492 1503 1508 1514 1526 1535 1548 1563 1581 1602 1630 1648 1661 1669 1677 1682 1690 1702 1716 1726 1739 1744 1746 1746 1749 1764 1783 1796 1810 1824 1836 1851 1865 1870 1874 1878 1886 1894 1901 1909 1919 1923 1926 1926 1927 1932 1942 1955 1963 1965 1968 1974 1996 2015 2015 2016 2023 2026 2043 2060 2079 2093 2106 2119 2136 2149 2154 2160 2166 2171 2176 2176 2176 2176 2176 2176 2180 2189 2200 2205 2208 2209 2209 2216 2216 2216 2204 2166 2153 2138 2137 2127 2109 2109 2109 2125 2152 2152 0 0 0 0 0 0 0 0 1327 1314 1313 1311 1310 1310 1310 1310 1310 1310 1289 1266 1260 1247 1247 1247 1264 1316 1354 1409 1410 1414 1414 1414 1418 1425 1434 1444 1452 1454 1455 1459 1467 1467 1467 1464 1464 1464 1466 1470 1472 1472 1474 1474 1477 1485 1489 1497 1504 1513 1513 1515 1518 1524 1531 1531 1531 1514 1495 1478 1478 1478 1494 1510 1531 1543 1543 1544 1544 1544 1546 1546 1546 1549 1549 1550 1553 1558 1561 1562 1564 1566 1566 1566 1563 1563 1563 1568 1568 1568 1556 1549 1549 1549 1552 1555 1556 1558 1560 1561 1561 1561 1557 1556 1554 1553 1545 1540 1540 1540 1541 1544 1544 1546 1550 1553 1553 1553 1550 1550 1550 1556 1559 1564 1570 1586 1593 1601 1604 1604 1604 1604 1604 1603 1603 1602 1596 1596 1596 1597 1600 1606 1610 1613 1613 1613 1612 1611 1608 1601 1598 1595 1594 1594 1593 1593 1591 1591 1590 1590 1590 1586 1589 1589 1589 1586 1586 1583 1573 1556 1548 1535 0 0 0 0 1298 1274 1273 1267 1261 1261 1260 1259 1258 1257 1255 1252 1252 1252 1252 1252 1250 1249 1248 1248 1247 1245 1245 1245 1245 1245 1245 1244 1243 1243 1242 1240 1239 1239 1238 1238 1237 1237 1237 1237 1236 1236 1236 1236 1236 1236 1236 1234 1234 1232 1232 1232 1232 1232 1231 1231 1230 1229 1229 1228 1228 1227 1227 1226 1226 1224 1223 1223 1221 1220 1219 1218 1217 1217 1217 1217 1216 1211 1207 1207 1207 0 0 0 0 1487 1506 1528 1545 1560 1563 1564 1564 1563 1563 1564 1564 1564 1564 1564 1564 1564 1564 1562 1562 1562 1563 1563 1563 1563 1563 1566 1569 1571 1571 1572 1573 1574 1583 1594 1605 1605 1605 1608 1611 1611 1611 1611 1610 1609 1609 1610 1611 1614 1615 1615 1615 1614 1613 1612 1610 1608 1606 1604 1601 1601 1600 1600 1599 1595 1595 1595 1596 1596 1596 1590 1585 1581 1577 1575 1575 1575 1574 1574 1574 1567 1557 1557 1557 1557 1557 1557 1546 1537 1537 1537 1541 1545 1545 1545 1541 1541 0 0 0 0 0 0 0 0 0 0 0 0 0 0 0 0 0 0 1700 1700 1700 1689 1677 1663 1648 1648 1648 1661 1661 1661 1648 1635 1567 1556 1556 0 1556 1629 0 0 0 0 0 0 0 1542 1542 1542 1542 1542 1533 1516 1513 1502 1475 1467 1464 1458 1432 1423 1393 1357 1357 1357 1365 1365 1365 1354 1338 1325 1322 1298 1273 1271 1271 1271 1271 1271 0 0 0 0 0 0 0 0 0 0 0 0 0 0 0 0 0 0 0 0 0 0 0 0 0 0 0 0 0 0 0 0 0 0 0 0 0 0 0 0 0 0 0 576 576
764 764 792 819 835 838 846 869 874 889 895 901 917 940 964 992 1018 1041 1055 1064 1072 1096 1099 1129 1148 1158 1171 1188 1213 1240 1257 1269 1281 1291 1300 1306 1315 1327 1352 1366 1371 1372 1375 1380 1389 1405 1426 1444 1454 1459 1467 1473 1487 1502 1506 1511 1515 1532 1563 1574 1579 1590 1617 1641 1663 1668 1670 1677 1682 1694 1707 1723 1737 1746 1749 1752 1754 1764 1767 1792 1808 1822 1834 1847 1858 1865 1877 1886 1890 1899 1903 1908 1916 1921 1926 1926 1931 1935 1944 1955 1966 1968 1968 1969 1975 2002 2015 2017 2019 2023 2026 2043 2060 2079 2093 2106 2119 2136 2149 2159 2164 2169 2175 2179 2180 2180 2180 2180 2181 2181 2189 2200 2210 2217 2223 2225 2231 2231 2231 2228 2197 2159 2154 2137 2127 2109 2109 2109 2109 2114 0 0 0 0 0 0 0 0 0 1338 1324 1321 1317 1310 1310 1310 1310 1310 1310 1287 1266 1260 1247 1247 1247 1264 1321 0 1409 1416 1417 1418 1418 1426 1434 1448 1460 1460 1461 1462 1462 1468 1468 1468 1467 1466 1466 1466 1471 1474 1475 1476 1477 1479 1485 1491 1494 1498 1513 1518 1519 1519 1521 1524 1524 1524 1516 1503 1481 1481 1481 1495 1511 1534 1544 1546 1549 1551 1553 1554 1554 1554 1554 1554 1554 1555 1559 1562 1563 1564 1566 1566 1566 1566 1566 1569 1569 1569 1569 1564 1558 1557 1557 1556 1557 1557 1556 1556 1556 1555 1555 1553 1551 1550 1548 1544 1540 1540 1540 1541 1544 1545 1548 1552 1558 1558 1558 1558 1558 1558 1558 1560 1568 1570 1586 1594 1602 1605 1605 1605 1605 1605 1605 1605 1602 1599 1599 1599 1601 1603 1606 1610 1613 1613 1613 1613 1612 1610 1601 1598 1596 1595 1594 1594 1594 1594 1592 1590 1581 1571 1571 1571 1577 1583 1586 1586 1583 1573 1556 1540 0 0 0 0 1308 1271 1263 1260 1254 1254 1253 1253 1252 1250 1248 1248 1248 1248 1248 1248 1248 1248 1248 1246 1246 1244 1244 1243 1243 1242 1242 1241 1241 1241 1239 1238 1238 1237 1236 1236 1236 1235 1235 1235 1235 1235 1234 1234 1234 1234 1234 1233 1233 1231 1231 1231 1230 1230 1230 1230 1228 1227 1227 1227 1227 1226 1226 1225 1224 1223 1223 1222 1221 1219 1217 1215 1213 1213 1213 1212 1212 1212 1209 1206 1206 1206 0 0 0 0 0 1493 1521 1545 1560 1560 1560 1560 1560 1560 1561 1562 1564 1564 1564 1564 1563 1561 1560 1560 1560 1564 1564 1565 1566 1566 1573 1576 1578 1578 1578 1578 1578 1587 1600 1605 1609 1611 1612 1615 1615 1615 1615 1615 1612 1614 1617 1617 1617 1620 1620 1620 1617 1615 1612 1610 1608 1608 1605 1605 1604 1604 1603 1602 1600 1600 1600 1600 1600 1600 1593 1589 1581 1580 1580 1580 1580 1580 1580 1580 1579 1566 1566 1566 1572 1572 1572 1568 1547 1547 1547 1547 1557 1567 1567 1582 1592 1619 1650 1653 1653 1653 1648 0 0 0 0 0 0 0 0 0 0 0 1670 1680 1682 1682 1680 1675 1652 1619 1615 1615 1615 1656 1656 1656 1637 1609 1609 1609 1630 1638 1651 1688 1688 1688 1681 1661 0 0 1542 1542 1542 1542 1542 1533 1516 1491 1488 1463 1459 1458 1458 1432 1423 1393 1357 1357 1357 1367 1367 1367 1354 1335 1325 1322 1321 1309 1290 1290 1283 1277 1277 1233 0 0 0 0 0 0 0 0 0 0 0 0 0 0 0 0 0 0 0 0 0 0 0 0 0 0 0 0 0 0 0 0 0 0 0 0 0 0 0 0 0 0 589 589
764 764 792 819 825 835 848 869 874 889 903 917 929 955 979 1008 1038 1062 1073 1078 1087 1098 1109 1134 1148 1158 1171 1193 1222 1242 1258 1272 1282 1291 1300 1306 1312 1325 1350 1363 1369 1370 1371 1380 1395 1417 1440 1460 1469 1471 1480 1483 1496 1511 1518 1523 1533 1552 1584 1594 1597 1604 1623 1645 1663 1669 1672 1677 1682 1694 1711 1726 1738 1750 1755 1756 1757 1766 1778 1801 1816 1829 1838 1849 1858 1865 1877 1886 1899 1909 1911 1917 1921 1925 1926 1934 1937 1947 1959 1970 1971 1971 1975 1975 1975 2006 2021 2022 2023 2023 2028 2044 2062 2083 2104 2120 2128 2140 2155 2163 2167 2172 2175 2181 2182 2183 2183 2183 2183 2183 2189 2200 2210 2217 2225 2235 2238 2238 2238 2232 2225 2205 2171 2159 2133 2109 2092 2082 2071 0 0 0 0 0 0 0 0 1396 1378 1356 1339 1329 1323 1320 1319 1318 1316 1314 1310 1287 1266 1260 1254 1254 1254 1270 1321 0 1409 1420 1421 1421 1422 1432 1445 1457 1465 1465 1465 1465 1465 1468 1469 1469 1469 1467 1467 1467 1471 1476 1478 1481 1483 1484 1486 1491 1494 1498 1513 1518 1519 1519 1520 1520 1520 1520 1516 1509 1499 1499 1499 1499 1513 1542 1552 1553 1554 1557 1560 1560 1561 1561 1561 1558 1558 1558 1560 1563 1564 1565 1566 1566 1566 1566 1569 1583 1586 1586 1586 1576 1568 1565 1562 1559 1559 1556 1555 1552 1552 1551 1550 1545 1543 1542 1542 1541 1541 1541 1541 1543 1544 1546 1549 1553 1558 1563 1563 1563 1562 1562 1562 1562 1571 1577 1588 1595 1602 1605 1605 1605 1605 1605 1605 1605 1602 1601 1601 1601 1605 1606 1606 1606 1608 1608 1610 1611 1611 1611 1602 1596 1595 1594 1594 1594 1594 1594 1593 1590 1581 1571 1562 1560 1560 1562 1556 1556 1556 0 0 0 0 0 0 0 1289 1268 1261 1256 1253 1252 1251 1250 1248 1246 1246 1246 1246 1246 1246 1247 1246 1246 1246 1245 1244 1243 1242 1241 1241 1240 1239 1239 1238 1238 1237 1236 1236 1235 1235 1234 1234 1233 1233 1233 1233 1233 1233 1233 1233 1233 1232 1232 1231 1230 1230 1229 1228 1228 1228 1228 1228 1226 1226 1226 1225 1225 1224 1224 1222 1221 1221 1221 1219 1218 1217 1214 1212 1212 1210 1210 1208 1207 1206 1204 1204 1204 1211 0 0 0 0 0 0 1545 1553 1553 1560 1560 1556 1559 1560 1560 1561 1561 1561 1560 1559 1559 1559 1559 1560 1565 1567 1569 1569 1573 1577 1579 1580 1582 1583 1584 1590 1598 1603 1605 1609 1611 1612 1616 1616 1617 1617 1617 1619 1622 1622 1622 1624 1625 1625 1625 1622 1617 1615 1613 1611 1608 1607 1607 1606 1606 1604 1602 1602 1602 1602 1603 1603 1603 1598 1593 1583 1581 1580 1580 1580 1580 1580 1580 1579 1579 1579 1580 1580 1580 1580 1570 1560 1556 1556 1556 1578 1597 1609 1618 1626 1635 1650 1653 1653 1653 1648 1633 0 0 0 0 0 0 0 0 0 0 1627 1639 1644 1647 1647 1647 1631 1594 1594 1594 1604 1641 1659 1659 1659 1659 1644 1639 1639 1639 1651 1688 1688 1688 1681 1661 1660 1620 1559 1550 1547 1538 1538 1524 1499 1472 1469 1455 1450 1446 1444 1431 1421 1383 1350 1350 1350 1370 1370 1370 1354 1335 1321 1320 1318 1317 1317 1304 1292 1291 1272 1233 1192 0 0 0 0 0 0 0 0 0 0 0 0 0 0 0 0 0 0 0 0 0 0 0 0 0 0 0 0 0 0 0 0 0 0 0 0 0 0 0 0 0 0 589
772 772 798 815 825 834 848 869 871 889 904 918 931 957 989 1019 1051 1076 1081 1087 1088 1098 1109 1134 1148 1158 1171 1193 1223 1243 1258 1272 1282 1291 1300 1304 1308 1323 1337 1349 1357 1360 1371 1384 1404 1426 1448 1468 1472 1476 1481 1490 1504 1519 1527 1531 1539 1552 1584 1606 1608 1612 1627 1649 1664 1673 1673 1678 1684 1695 1712 1726 1740 1751 1756 1756 1757 1766 1786 1804 1820 1832 1841 1849 1860 1867 1877 1888 1903 1915 1920 1924 1926 1926 1927 1935 1948 1962 1973 1984 1984 1984 1979 1979 1979 2007 2027 2030 2040 2047 2058 2075 2088 2101 2116 2128 2134 2145 2155 2163 2168 2172 2177 2183 2188 2188 2188 2187 2183 2183 2183 2191 2204 2217 2225 2235 2238 2239 2239 2239 2236 2235 2234 2208 2184 2137 2105 2078 0 0 0 0 0 0 0 0 1380 1376 1372 1372 1361 1345 1330 1330 1330 1330 1330 1314 1310 1287 1273 1270 1269 1269 1269 1282 1321 1355 1387 1421 1423 1431 1433 1440 1446 1457 1467 1468 1468 1468 1469 1469 1472 1475 1475 1476 1476 1476 1482 1486 1488 1490 1490 1490 1490 1492 1494 1498 1499 1517 1517 1519 1519 1519 1519 1519 1520 1518 1516 1516 1516 1516 1539 1552 1559 1562 1562 1562 1564 1565 1568 1568 1568 1564 1563 1563 1563 1564 1565 1565 1565 1565 1565 1565 1576 1597 1597 1597 1588 1582 1575 1568 1562 1559 1559 1556 1552 1548 1547 1547 1540 1537 1537 1537 1538 1539 1540 1540 1541 1543 1546 1548 1550 1553 1558 1563 1563 1566 1566 1566 1566 1569 1571 1577 1589 1596 1602 1605 1605 1605 1605 1605 1605 1604 1599 1599 1599 1601 1605 1605 1605 1605 1605 1605 1610 1612 1612 1612 1602 1596 1596 1596 1596 1596 1596 1594 1593 1592 1581 1571 1555 1549 1542 1541 1527 0 0 0 0 0 0 0 0 0 1282 1263 1261 1254 1252 1252 1251 1248 1246 1245 1244 1244 1244 1244 1244 1244 1244 1242 1241 1241 1241 1241 1240 1238 1238 1237 1236 1236 1235 1235 1235 1234 1234 1233 1233 1233 1232 1232 1231 1231 1231 1230 1230 1230 1230 1230 1229 1229 1229 1228 1228 1228 1227 1227 1226 1226 1226 1225 1224 1224 1224 1223 1223 1222 1220 1220 1219 1219 1218 1217 1215 1213 1212 1210 1209 1206 1206 1204 1202 1202 1199 1199 1199 0 0 0 0 0 0 1539 1545 1551 1553 1553 1556 1556 1558 1558 1558 1558 1559 1559 1559 1559 1559 1559 1560 1565 1568 1573 1577 1580 1580 1581 1582 1583 1585 1588 1596 1603 1606 1607 1609 1612 1613 1617 1617 1618 1619 1619 1623 1631 1631 1631 1629 1628 1627 1627 1625 1621 1619 1616 1613 1610 1609 1608 1607 1607 1605 1604 1603 1603 1603 1603 1603 1603 1599 1595 1585 1582 1582 1580 1580 1580 1580 1580 1580 1580 1585 1586 1586 1586 1583 1576 1576 1576 1585 1594 1604 1612 1622 1630 1638 1645 1652 1652 1652 1652 1648 1641 0 0 0 0 0 0 0 0 0 0 1598 1598 1598 1607 1631 1631 1631 1594 1594 1594 1599 1631 1654 1659 1659 1659 1652 1642 1642 1642 1645 1686 1686 1686 1681 1663 1661 1623 1559 1543 1543 1534 1534 1519 1485 1447 1442 1438 1435 1435 1430 1420 1401 1381 1350 1350 1350 1371 1371 1371 1356 1335 1327 1323 1323 1327 1327 1323 1318 1292 1272 1233 1196 1196 0 0 0 0 0 0 0 0 0 0 0 0 0 0 0 0 0 0 0 0 0 0 0 0 0 0 0 0 0 0 0 0 0 0 0 0 0 0 0 0 0 0
782 782 808 815 825 834 848 868 871 889 906 919 931 957 993 1026 1057 1081 1081 1087 1088 1098 1109 1134 1148 1158 1178 1205 1227 1243 1258 1272 1282 1289 1297 1303 1306 1312 1324 1338 1354 1360 1371 1393 1420 1441 1456 1469 1472 1477 1481 1492 1510 1526 1536 1536 1539 1555 1584 1606 1615 1623 1637 1653 1666 1673 1673 1678 1686 1697 1714 1727 1740 1751 1756 1757 1757 1766 1786 1805 1821 1835 1844 1850 1860 1867 1877 1889 1905 1917 1926 1930 1932 1933 1934 1943 1957 1973 1994 2006 2006 2006 1994 1994 1994 2013 2042 2047 2065 2078 2094 2107 2114 2118 2126 2131 2137 2145 2155 2163 2168 2172 2177 2183 2196 2201 2201 2201 2186 2186 2186 2191 2204 2217 2225 2235 2238 2245 2245 2246 2246 2246 2246 2233 2195 2168 2122 0 0 0 0 0 0 0 0 0 1365 1368 1368 1368 1361 1347 1341 1341 1339 1337 1335 1321 1310 1296 1281 1273 1269 1269 1269 1279 1308 1332 1381 1419 1430 1439 1441 1442 1446 1457 1467 1468 1469 1469 1471 1471 1479 1486 1486 1490 1490 1490 1497 1501 1501 1501 1501 1501 1501 1501 1501 1501 1501 1502 1509 1514 1516 1519 1520 1522 1522 1523 1523 1524 1527 1532 1550 1559 1568 1569 1569 1570 1571 1571 1571 1571 1570 1569 1568 1568 1567 1567 1567 1565 1565 1565 1565 1566 1579 1597 1597 1597 1588 1582 1575 1569 1562 1559 1557 1552 1549 1547 1545 1541 1537 1536 1536 1536 1538 1539 1540 1540 1541 1544 1548 1548 1550 1553 1558 1563 1563 1566 1566 1567 1568 1574 1581 1585 1589 1596 1602 1605 1605 1605 1603 1601 1601 1600 1596 1596 1596 1601 1603 1603 1603 1603 1603 1605 1608 1612 1612 1612 1602 1594 1594 1594 1594 1594 1596 1594 1593 1592 1581 1571 1555 1538 1536 0 0 0 0 0 0 0 0 1307 1291 1273 1272 1263 1256 1253 1252 1251 1249 1246 1245 1245 1243 1243 1242 1242 1242 1240 1239 1239 1239 1238 1238 1237 1236 1235 1234 1233 1233 1233 1233 1233 1233 1233 1232 1232 1231 1231 1231 1230 1230 1229 1229 1229 1229 1229 1229 1228 1227 1227 1227 1227 1227 1227 1226 1225 1225 1225 1225 1223 1223 1223 1223 1221 1221 1220 1219 1217 1217 1217 1216 1214 1213 1212 1211 1210 1207 1204 1202 1202 1201 1200 1197 1197 1197 1201 0 0 0 0 0 0 1525 1526 1533 1549 1556 1556 1556 1556 1556 1556 1558 1558 1559 1559 1559 1559 1560 1571 1576 1580 1580 1580 1581 1583 1584 1586 1589 1593 1599 1604 1608 1609 1611 1612 1613 1614 1615 1617 1618 1619 1628 1632 1632 1632 1629 1628 1627 1627 1625 1621 1620 1618 1614 1610 1609 1608 1608 1607 1606 1605 1604 1604 1603 1603 1603 1603 1599 1595 1588 1583 1582 1580 1576 1576 1576 1578 1579 1579 1585 1590 1592 1592 1592 1592 1592 1596 1603 1609 1624 1631 1639 1644 1645 1647 1652 1652 1652 1652 1642 1641 1632 0 0 0 0 0 0 0 0 0 1594 1598 1598 1599 1631 1631 1631 1594 1583 1583 1583 1614 1654 1659 1659 1659 1652 1651 1651 1647 1647 1647 1616 1616 1616 1620 1620 1620 1559 1543 1534 1534 1532 1519 1451 1442 1438 1435 1435 1435 1424 1408 1392 1381 1365 1365 1365 1372 1394 1394 1394 1331 1327 1325 1325 1327 1346 1346 1346 1297 1272 1233 1233 1233 0 0 0 0 0 0 0 0 0 0 0 0 0 0 0 0 0 0 0 0 0 0 0 0 0 0 0 0 0 0 0 0 0 0 0 0 0 0 0 0 0 0
787 787 812 819 826 834 848 868 871 889 908 920 938 958 0 1032 1063 1081 1084 1085 1088 1093 1111 1128 1145 1158 1182 1208 1230 1244 1258 1266 1276 1285 1295 1301 1303 1311 1324 1338 1354 1360 1374 1402 1427 1451 1463 1471 1475 1477 1483 1495 1516 1533 1540 1541 1541 1555 1591 1607 1621 1636 1645 1656 1667 1670 1678 1687 1696 1706 1716 1729 1740 1752 1758 1759 1762 1772 1790 1805 1824 1840 1849 1856 1860 1867 1877 1889 1905 1919 1929 1936 1937 1938 1941 1950 1968 1993 2008 2017 2017 2017 2017 2017 2017 2036 2043 2062 2085 2106 2123 2130 2131 2131 2131 2132 2138 2145 2154 2162 2169 2172 2177 2187 2203 2208 2208 2208 2191 2191 2191 2191 2204 2217 2225 2236 2239 2246 2251 2251 2251 2248 2246 2233 2195 2168 2122 0 0 0 0 0 0 0 0 1323 1323 1361 1361 1361 1361 1347 1347 1347 1346 1346 1346 1322 1315 1314 1310 1279 1269 1269 1269 1279 1299 1326 1375 1384 1430 1441 1442 1447 1447 1460 1469 1469 1470 1471 1472 1476 1486 1499 1500 1502 1503 1503 1512 1514 1514 1514 1511 1511 1511 1511 1511 1508 1508 1508 1509 1514 1516 1519 1522 1522 1523 1524 1527 1537 1543 1548 1557 1575 1581 1581 1581 1580 1577 1577 1573 1572 1572 1572 1572 1572 1572 1572 1569 1565 1565 1565 1565 1568 1579 1597 1597 1597 1588 1582 1575 1569 1558 1553 1552 1550 1548 1546 1545 1541 1537 1536 1536 1536 1538 1540 1543 1544 1545 1548 1548 1549 1550 1550 1553 1558 1563 1564 1565 1567 1573 1582 1590 1594 1596 1596 1601 1604 1604 1604 1598 1594 1593 1592 1591 1591 1591 1595 1599 1599 1599 1600 1600 1604 1608 1612 1612 1612 1587 1587 1587 1590 1593 1594 1596 1594 1593 1592 1581 1571 0 0 0 0 0 0 0 0 0 0 1287 1274 1271 1261 1260 1257 1254 1253 1250 1248 1245 1244 1243 1243 1242 1241 1241 1239 1238 1238 1237 1237 1237 1237 1237 1236 1234 1233 1232 1232 1232 1232 1232 1231 1231 1230 1230 1229 1229 1229 1229 1229 1228 1228 1228 1228 1227 1227 1227 1226 1225 1225 1225 1225 1225 1225 1225 1224 1224 1223 1222 1222 1221 1221 1220 1219 1219 1218 1217 1216 1216 1215 1214 1213 1212 1212 1210 1208 1206 1204 1201 1201 1200 1197 1195 1195 1195 1195 1199 0 0 0 0 0 0 1511 1525 1547 1558 1558 1558 1556 1556 1556 1558 1561 1562 1563 1565 1569 1574 1579 1582 1584 1584 1584 1584 1585 1587 1589 1593 1596 1600 1604 1610 1614 1614 1614 1614 1614 1614 1617 1618 1621 1632 1632 1632 1632 1629 1628 1627 1627 1625 1621 1620 1618 1615 1610 1609 1609 1609 1608 1606 1606 1605 1604 1604 1603 1602 1601 1599 1595 1589 1583 1582 1580 1576 1576 1576 1578 1579 1581 1585 1594 1597 1597 1603 1603 1607 1617 1628 1646 1655 1655 1655 1653 1653 1653 1654 1654 1654 1648 1642 1641 1632 0 0 0 0 0 0 0 0 0 1594 1598 1598 1598 1633 1633 1633 1618 1583 1583 1583 1613 1651 1653 1653 1653 1652 1645 1645 1645 1645 1645 1616 1616 1616 1618 1618 1618 0 1532 1525 1521 1517 1485 1451 1442 1438 1435 1435 1435 1417 1398 1392 1383 1374 1372 1372 1372 1394 1394 1394 1328 1328 1328 1330 1333 1346 1346 1346 1297 1251 1238 1238 0 0 0 0 0 0 0 0 0 0 0 0 0 0 0 0 986 986 986 0 0 0 0 0 0 0 0 0 0 0 0 0 0 0 0 0 0 0 0 0 0 0 0
796 796 817 834 842 847 848 868 871 894 925 931 938 958 0 1049 1077 1081 1085 1088 1088 1093 1111 1126 1141 1160 1183 1209 1231 1247 1258 1266 1274 1283 1287 1296 1302 1309 1324 1338 1354 1365 1383 1406 1435 1457 1469 1475 1479 1483 1488 1500 1518 1537 1547 1548 1548 1555 1591 1609 1630 1642 1649 1656 1667 1670 1678 1687 1702 1714 1725 1729 1740 1754 1759 1762 1764 1777 1791 1812 1827 1844 1855 1864 1869 1877 1887 1900 1914 1925 1933 1937 1938 1940 1947 1962 1980 2000 2017 2024 2028 2032 2034 2038 2053 2071 2075 2092 2109 2127 2137 2139 2139 2139 2138 2138 2138 2145 2153 2162 2170 2175 2183 2194 2208 2209 2209 2209 2196 2196 2196 2202 2210 2217 2225 2236 2241 2249 2254 2254 2254 2248 2246 2233 2195 2168 0 0 0 0 0 0 0 0 1307 1307 1323 1353 1355 1355 1355 1349 1349 1349 1349 1349 1349 1344 1340 1333 1323 1283 1269 1269 1269 1279 1284 1314 1317 0 1423 1444 1450 1452 1452 1461 1469 1471 1471 1471 1472 1477 1486 1507 1510 1512 1513 1516 1522 1522 1522 1521 1516 1515 1512 1511 1511 1510 1509 1509 1509 1514 1516 1524 1524 1525 1526 1526 1527 1538 1547 1554 1566 1589 1589 1589 1587 1582 1580 1578 1575 1575 1575 1582 1582 1582 1581 1579 1579 1578 1576 1573 1573 1573 1585 1596 1596 1596 1587 1579 1575 1568 1558 1550 1547 1547 1546 1544 1544 1541 1537 1536 1536 1536 1538 1544 1547 1550 1550 1550 1548 1548 1547 1547 1547 1552 1557 1562 1564 1568 1577 1586 1593 1596 1598 1598 1599 1604 1604 1604 1597 1591 1591 1590 1590 1590 1589 1589 1589 1593 1596 1596 1596 1601 1603 1606 1606 1603 1587 1580 1580 1580 1592 1593 1595 0 0 0 0 0 0 0 0 0 0 0 0 1315 1301 1287 1274 1271 1263 1258 1254 1253 1250 1247 1247 1244 1242 1241 1241 1241 1240 1239 1239 1238 1237 1235 1233 1233 1233 1233 1233 1232 1232 1231 1230 1230 1230 1230 1230 1230 1229 1229 1228 1227 1227 1227 1226 1226 1226 1226 1226 1225 1225 1225 1225 1225 1224 1223 1223 1223 1223 1223 1223 1222 1221 1221 1221 1221 1220 1219 1219 1218 1217 1217 1216 1215 1214 1214 1213 1212 1210 1210 1208 1206 1205 1203 1201 1200 1199 1197 1194 1192 1192 1191 1192 1192 0 0 0 0 0 0 1524 1545 1559 1559 1559 1556 1556 1556 1559 1561 1564 1565 1569 1575 1580 1587 1591 1592 1592 1592 1591 1591 1591 1593 1596 1598 1600 1605 1614 1617 1617 1617 1614 1614 1614 1617 1621 1626 1632 1632 1632 1627 1624 1624 1623 1623 1623 1621 1620 1618 1616 1615 1612 1610 1610 1608 1607 1607 1605 1604 1604 1602 1599 1597 1595 1595 1589 1585 1584 1580 1576 1576 1576 1578 1587 1594 1594 1597 1597 1605 1616 1628 1637 1641 1643 1650 1655 1655 1655 1653 1653 1653 1659 1659 1659 1648 1642 1627 1625 0 0 0 0 0 0 0 0 0 1594 1598 1612 1618 1643 1656 1656 1656 1583 1583 1583 1612 1629 1637 1637 1637 1633 1633 1633 1645 1645 1645 1613 1613 1613 1601 1601 1601 1540 1509 1508 1501 1488 1476 1451 1444 1430 1427 1427 1427 1415 1397 1397 1396 1390 1387 1387 1387 1394 1394 1394 1327 1327 1327 1330 1333 0 0 0 0 0 0 0 0 0 0 0 0 0 0 0 0 0 0 0 0 0 0 976 986 986 986 986 0 0 0 0 0 0 0 0 0 0 0 0 0 0 0 0 0 0 0 0 0 0 0
816 816 825 835 843 853 861 870 915 944 944 952 954 958 996 1049 1077 1081 1085 1088 1088 1093 1111 1126 1141 1161 1184 1211 1234 1252 1261 1266 1274 1283 1285 1287 1297 1307 1329 1347 1365 1384 1402 1423 1443 1463 1478 1485 1490 1495 1501 1511 1528 1547 1560 1569 1570 1574 1591 1612 1633 1643 1649 1656 1667 1670 1678 1687 1702 1719 1727 1736 1749 1760 1766 1769 1771 1779 1798 1819 1835 1849 1863 1868 1880 1891 1901 1914 1925 1932 1935 1937 1938 1940 1955 1973 1991 2010 2022 2029 2034 2043 2052 2064 2087 2091 2108 2121 2128 2134 2137 2142 2142 2142 2140 2140 2140 2148 2153 2162 2172 2184 2194 2204 2217 2217 2217 2214 2214 2214 2214 2219 2222 2227 2228 2237 2248 2254 2260 2260 2260 2248 2236 2225 0 0 0 0 0 0 0 0 0 1301 1301 1301 1323 1353 1355 1355 1355 1350 1350 1350 1352 1352 1352 1346 1345 1342 1332 1283 1272 1269 1268 1265 1265 1265 1317 0 0 1452 1456 1459 1460 1463 1471 1475 1478 1478 1479 1479 1487 1512 1517 1520 1524 1525 1527 1527 1527 1523 1518 1515 1512 1512 1511 1511 1511 1511 1511 1516 1525 1527 1527 1527 1527 1527 1529 1538 1550 1558 1575 1589 1589 1589 1587 1584 1581 1579 1578 1578 1578 1586 1586 1586 1586 1583 1583 1582 1582 1582 1582 1582 1586 1595 1595 1595 1587 1578 1573 1565 1555 1547 1544 1543 1543 1542 1542 1541 1539 1539 1539 1541 1543 1545 1547 1550 1550 1550 1549 1546 1546 1546 1547 1552 1557 1562 1564 1568 1577 1586 1595 1596 1597 1598 1598 1602 1602 1602 1594 1589 1589 1589 1589 1589 1586 1586 1586 1590 1593 1593 1594 1598 1601 1601 1601 1595 1580 1577 1577 1573 1571 0 0 0 0 0 0 0 0 0 0 0 0 1309 1296 1286 1274 1267 1261 1259 1256 1253 1251 1249 1245 1242 1241 1241 1239 1239 1238 1238 1238 1237 1237 1236 1234 1233 1231 1231 1231 1230 1230 1230 1229 1229 1228 1228 1228 1228 1228 1228 1228 1227 1226 1226 1225 1225 1224 1224 1224 1224 1224 1224 1224 1223 1223 1223 1223 1222 1222 1221 1221 1221 1221 1221 1220 1219 1219 1219 1219 1218 1217 1217 1216 1215 1214 1214 1213 1212 1211 1210 1209 1207 1206 1204 1203 1202 1200 1199 1199 1196 1193 1191 1191 1191 1191 1191 1192 0 0 0 0 0 1511 1537 1551 1555 1559 1559 1559 1559 1559 1562 1564 1566 1570 1575 1582 1589 1593 1595 1595 1595 1594 1594 1594 1594 1596 1599 1602 1607 1614 1619 1619 1619 1614 1614 1614 1617 1621 1626 1626 1626 1624 1620 1620 1620 1620 1620 1620 1619 1619 1618 1617 1616 1613 1613 1611 1609 1609 1607 1605 1604 1604 1601 1597 1595 1595 1593 1593 1593 1593 1592 1591 1591 1591 1601 1605 1611 1615 1621 1622 1624 1628 1636 1641 1641 1643 1650 1655 1655 1655 1653 1653 1653 1659 1659 1659 1648 1634 1627 1575 0 0 0 0 0 0 0 0 0 1643 1643 1643 1645 1645 1664 1664 1664 1637 1621 1621 1617 1617 1617 1617 1618 1621 1621 1622 1645 1645 1645 1613 1582 1582 1571 1571 1561 1527 1508 1506 1501 1488 1476 1451 1445 1440 1430 1427 1425 1404 1398 1398 1392 1392 1387 1387 1387 1368 1368 1350 1318 1318 1318 1312 0 0 0 0 0 0 0 0 0 0 0 0 0 0 0 0 0 0 0 0 0 0 0 984 995 995 995 995 0 0 0 0 0 0 0 0 0 0 0 0 0 0 0 0 0 0 0 0 0 0 0
824 824 832 836 843 858 865 892 920 956 980 980 985 1000 1009 1049 1077 1097 1099 1101 1101 1110 1117 1126 1141 1165 1193 1219 1247 1258 1261 1268 1274 1285 1285 1287 1297 1309 1331 1358 1381 1403 1421 1435 1452 1471 1487 1492 1500 1503 1511 1526 1544 1565 1582 1591 1593 1597 1606 1621 1634 1645 1651 1656 1665 1670 1678 1689 1703 1720 1733 1746 1758 1771 1778 1780 1786 1795 1809 1827 1843 1858 1874 1877 1893 1907 1920 1933 1935 1937 1937 1937 1937 1940 1955 1977 1999 2015 2028 2035 2042 2051 2067 2085 2109 2115 2129 2133 2134 2134 2137 2142 2146 2148 2149 2150 2150 2151 2153 2163 2180 2194 2206 2217 2226 2226 2226 2228 2228 2228 2234 2237 2238 2238 2239 2249 2258 2262 2262 2262 2260 2238 2222 0 0 0 0 0 0 0 0 0 1296 1296 1296 1315 1329 1353 1355 1356 1356 1356 1356 1356 1356 1355 1354 1352 1349 1342 1337 1330 1307 1285 1272 1265 1265 1265 1281 0 0 1440 1452 1459 1460 1466 1474 1480 1480 1481 1484 1484 1490 1514 1520 1527 1527 1528 1528 1528 1527 1524 1518 1515 1512 1512 1512 1512 1512 1516 1521 1528 1533 1533 1533 1529 1529 1529 1529 1539 1551 1562 1575 1589 1589 1589 1589 1586 1583 1579 1579 1579 1582 1587 1587 1587 1586 1583 1583 1583 1586 1588 1588 1589 1591 1592 1592 1592 1585 1578 1571 1558 1547 1543 1543 1542 1541 1541 1541 1541 1542 1543 1543 1543 1544 1545 1547 1550 1550 1550 1549 1546 1546 1546 1547 1552 1557 1562 1566 1574 1580 1587 1595 1595 1596 1598 1598 1598 1598 1598 1592 1589 1589 1589 1589 1589 1586 1584 1584 1586 1591 1591 1593 1591 1591 1593 1593 1591 1580 1573 0 0 0 0 0 0 0 0 0 0 0 0 0 0 1297 1284 1275 1268 1266 1260 1254 1248 1246 1246 1245 1244 1244 1241 1238 1237 1237 1236 1236 1236 1236 1236 1234 1233 1232 1231 1231 1230 1230 1230 1229 1227 1226 1226 1226 1226 1226 1226 1227 1227 1227 1225 1225 1224 1223 1223 1223 1222 1222 1222 1222 1221 1221 1221 1221 1220 1220 1220 1220 1220 1220 1220 1219 1219 1219 1218 1218 1218 1217 1217 1216 1215 1215 1214 1213 1212 1212 1211 1210 1208 1207 1206 1204 1203 1202 1201 1199 1199 1198 1196 1193 1191 1191 1190 1190 1191 1192 1196 0 0 0 0 0 1520 1545 1554 1555 1559 1559 1561 1566 1566 1567 1567 1571 1577 1585 1592 1595 1596 1596 1596 1596 1596 1596 1596 1596 1600 1604 1607 1614 1619 1619 1619 1616 1616 1616 1617 1621 1625 1625 1625 1624 1620 1620 1620 1620 1620 1618 1618 1618 1618 1618 1618 1616 1614 1613 1612 1609 1608 1605 1604 1602 1599 1596 1595 1595 1595 1599 1601 1603 1603 1604 1605 1609 1615 1619 1624 1626 1631 1636 1638 1639 1641 1641 1646 1647 1648 1648 1648 1647 1647 1647 1648 1659 1659 1659 1652 1632 1622 0 0 0 0 0 0 0 0 0 0 1647 1648 1648 1658 1658 1664 1664 1664 1653 1649 1641 1617 1617 1617 1617 1618 1621 1621 1621 1638 1638 1638 1613 1570 1541 1531 1525 1520 1512 1508 1505 1501 1488 1476 1466 1458 1450 1444 1414 1410 1399 1399 1399 1392 1392 1387 1372 1372 1362 1350 1350 1318 1318 1316 1312 0 0 0 0 0 0 0 0 0 0 0 0 0 0 0 0 0 0 0 0 0 0 0 984 986 986 984 984 0 0 0 0 0 0 0 0 0 0 0 0 0 0 0 0 0 0 0 0 0 0 0
830 830 838 839 847 858 866 892 920 956 986 1001 1012 1014 1018 1047 1071 1099 1103 1106 1116 1116 1121 1134 1154 1177 1210 1239 1248 1259 1267 1274 1281 1285 1285 1288 1297 1311 1347 1374 1393 1412 1430 1443 1452 1471 1487 1492 1501 1508 1518 1538 1559 1579 1597 1610 1614 1615 1619 1626 1649 1649 1651 1656 1665 1670 1678 1689 1705 1721 1733 1747 1764 1780 1793 1799 1812 1815 1822 1838 1856 1872 1876 1894 1909 1924 1926 1933 1939 1939 1939 1939 1939 1940 1956 1979 2005 2026 2033 2035 2046 2061 2080 2100 2113 2130 2135 2135 2137 2137 2137 2143 2148 2154 2159 2163 2163 2163 2165 2171 2185 2200 2215 2228 2233 2233 2235 2242 2254 2255 2255 2255 2252 2252 2252 2257 2262 2263 2263 2262 2249 2225 0 0 0 0 0 0 0 0 0 1300 1300 1300 1322 1337 1344 1347 1356 1357 1364 1364 1364 1362 1357 1355 1355 1355 1351 1345 1339 1333 1329 1316 1303 1265 1265 1265 1281 0 0 1400 1445 1459 1460 1468 1477 1484 1484 1484 1484 1484 1504 1514 1521 1528 1528 1528 1528 1528 1527 1524 1519 1515 1512 1512 1512 1513 1517 1525 1531 1536 1539 1541 1541 1541 1541 1539 1539 1539 1553 1564 1575 1579 1583 1587 1587 1587 1586 1583 1583 1583 1585 1588 1588 1588 1586 1583 1583 1583 1588 1593 1593 1594 1594 1594 1591 1589 1579 1571 1557 1540 1540 1540 1540 1540 1540 1540 1540 1540 1542 1543 1543 1544 1545 1546 1549 1552 1552 1552 1549 1546 1546 1546 1553 1558 1563 1567 1571 1575 1581 1588 1596 1596 1596 1596 1595 1595 1595 1595 1590 1589 1589 1589 1589 1589 1588 1581 1581 1581 1582 1582 1582 1581 1581 1581 1581 1581 0 0 0 0 0 0 0 0 1325 1289 1289 1284 1278 1277 1273 1262 1262 1262 1258 1258 1256 1250 1242 1241 1239 1239 1239 1239 1239 1237 1235 1235 1235 1235 1235 1235 1234 1233 1232 1232 1231 1230 1229 1228 1228 1228 1226 1224 1224 1224 1225 1225 1226 1226 1226 1225 1224 1223 1222 1222 1221 1221 1221 1220 1220 1220 1220 1220 1220 1220 1219 1219 1219 1219 1219 1218 1218 1218 1218 1218 1217 1217 1217 1216 1216 1216 1214 1213 1213 1212 1211 1211 1210 1209 1208 1207 1206 1205 1203 1203 1201 1200 1199 1198 1197 1195 1193 1191 1191 1189 1189 1189 1191 1195 1207 0 0 0 0 0 1533 1546 1553 1555 1559 1561 1569 1569 1570 1571 1574 1586 1593 1594 1597 1597 1597 1599 1598 1597 1597 1598 1598 1601 1604 1608 1610 1615 1617 1617 1617 1615 1615 1615 1619 1623 1624 1624 1624 1620 1620 1620 1620 1620 1617 1617 1617 1618 1618 1618 1616 1616 1613 1613 1610 1608 1605 1603 1600 1599 1596 1596 1596 1599 1604 1609 1613 1614 1615 1617 1629 1632 1634 1635 1635 1637 1641 1641 1641 1641 1642 1646 1647 1648 1648 1648 1647 1647 1647 1647 1658 1658 1658 1652 1628 1590 0 0 0 0 0 0 0 0 0 0 1647 1648 1648 1658 1658 1661 1661 1661 1653 1649 1643 1618 1618 1618 1617 1618 1618 1618 1618 1624 1624 1624 1595 1552 1503 1494 1494 1494 1504 1505 1505 1505 1505 1489 1479 1468 1452 1445 1414 1410 1399 1399 1399 1391 1391 1387 1372 1372 1362 1350 1350 1318 1318 1312 1310 0 0 0 0 0 0 0 0 0 0 0 0 0 0 0 0 0 0 0 0 0 0 0 976 976 976 974 971 0 0 0 0 0 0 0 0 0 0 0 0 0 0 0 0 0 0 0 0 0 0 0
836 836 842 842 853 860 866 892 920 956 986 1001 1012 1019 1019 1047 1071 1097 1103 1110 1118 1124 1132 1148 1168 1202 1236 1240 1252 1259 1267 1283 1295 1298 1303 1303 1319 1343 1368 1387 1404 1419 1432 1443 1454 1471 1489 1495 1502 1510 1526 1546 1567 1580 1598 1617 1623 1628 1630 1655 1657 1660 1665 1665 1665 1670 1680 1691 1706 1721 1735 1748 1768 1787 1803 1818 1827 1832 1836 1854 1878 1894 1899 1909 1920 1924 1926 1933 1941 1947 1947 1947 1947 1947 1956 1979 2022 2032 2034 2035 2046 2067 2093 2100 2119 2133 2135 2135 2136 2136 2136 2143 2150 2155 2162 2168 2170 2173 2173 2182 2188 2200 2216 2232 2239 2242 2249 2262 2273 2273 2273 2272 2270 2265 2265 2262 2260 2260 2258 2231 2218 2206 0 0 0 0 0 0 0 0 1316 1316 1316 1320 1339 1339 1344 1346 1352 1355 1369 1369 1369 1368 1360 1357 1356 1356 1356 1351 1344 1341 1338 1320 1307 1289 1289 1289 1289 1307 1330 1369 1401 1421 1460 1474 1483 1487 1488 1489 1489 1504 1510 1515 1523 1529 1531 1531 1531 1530 1529 1526 1519 1515 1512 1512 1512 1517 1525 1536 1541 1543 1545 1549 1553 1553 1553 1551 1551 1551 1559 1571 1575 1578 1579 1587 1590 1590 1590 1590 1590 1590 1589 1589 1589 1588 1586 1583 1583 1583 1588 1593 1593 1593 1591 1589 1582 1573 1548 1530 1525 1525 1525 1534 1534 1534 1536 1536 1539 1543 1544 1544 1544 1545 1545 1546 1549 1552 1552 1552 1551 1547 1547 1547 1555 1565 1570 1574 1577 1579 1586 1590 1596 1596 1596 1596 1595 1595 1593 1593 1590 1589 1589 1589 1589 1589 1588 1581 1576 1576 1576 1576 1575 1573 1566 0 0 0 0 0 0 0 0 0 1326 1298 1296 1280 1273 1266 1264 1252 1247 1247 1247 1247 1247 1247 1246 1241 1238 1238 1238 1237 1236 1236 1236 1235 1234 1233 1233 1233 1233 1233 1233 1231 1230 1230 1230 1229 1228 1227 1226 1224 1223 1222 1222 1222 1224 1224 1224 1224 1224 1223 1222 1220 1220 1220 1220 1219 1219 1219 1218 1218 1218 1218 1218 1218 1217 1217 1217 1217 1217 1217 1217 1217 1217 1216 1216 1216 1216 1215 1214 1214 1213 1212 1212 1211 1210 1209 1208 1207 1207 1205 1205 1203 1202 1201 1200 1199 1198 1196 1196 1195 1193 1191 1191 1189 1188 1188 1188 1188 1200 1226 0 0 0 0 0 0 1542 1548 1553 1561 1569 1572 1576 1579 1587 1593 1597 1597 1599 1601 1602 1603 1605 1605 1606 1605 1605 1605 1606 1608 1610 1615 1617 1617 1617 1615 1615 1615 1619 1623 1623 1623 1623 1622 1622 1622 1620 1618 1617 1617 1617 1618 1618 1618 1616 1616 1614 1614 1611 1609 1605 1603 1600 1599 1598 1598 1598 1601 1604 1609 1614 1619 1623 1629 1646 1647 1647 1647 1644 1644 1643 1643 1643 1643 1643 1646 1647 1648 1648 1648 1647 1646 1646 1646 1652 1652 1652 1652 1616 1584 0 0 0 0 0 0 0 0 0 0 1647 1648 1648 1648 1627 1627 1627 1642 1643 1643 1643 1626 1621 1621 1621 1621 1621 1619 1619 1614 1614 1589 1558 1511 1486 1472 1472 1472 1475 1506 1516 1516 1516 1508 1498 1495 1477 1444 1414 1402 1390 1390 1390 1398 1398 1398 1372 1372 1362 1353 1353 1318 1311 1306 1304 0 0 0 0 0 0 0 0 0 0 0 0 0 0 0 0 0 0 0 0 0 0 974 974 974 971 967 0 0 0 0 0 0 0 0 0 0 0 0 0 0 0 0 0 0 0 0 0 0 0 0
839 839 845 845 853 864 867 892 910 945 986 1001 1012 1021 1037 1047 1071 1097 1106 1116 1120 1129 1145 1166 1192 1203 1237 1241 1252 1259 1270 1292 1295 1316 1325 1325 1329 1346 1368 1390 1407 1424 1433 1443 1457 1471 1490 1495 1504 1518 1537 1555 1573 1583 1603 1617 1630 1637 1649 1667 1683 1686 1686 1683 1683 1686 1692 1700 1711 1724 1737 1752 1772 1789 1806 1824 1836 1850 1871 1888 1902 1911 1914 1915 1920 1924 1926 1930 1943 1952 1952 1955 1957 1957 1972 2010 2029 2034 2035 2038 2047 2067 2093 2100 2119 2133 2135 2135 2136 2136 2136 2145 2151 2156 2162 2169 2176 2181 2184 2186 2189 2200 2218 2235 2242 2248 2255 2264 2275 2283 2286 2286 2283 2274 2269 2267 2266 2260 2239 2206 2185 0 0 0 0 0 0 0 0 1323 1316 1316 1316 1331 1339 1342 1342 1344 1354 1357 1370 1370 1370 1369 1364 1363 1362 1362 1362 1358 1357 1352 1342 1339 1333 1331 1314 1307 1307 1307 1327 1361 1381 1421 1456 1476 1488 1488 1490 1490 1490 1504 1510 1517 1523 1529 1533 1535 1535 1535 1532 1529 1524 1521 1519 1519 1519 1524 1534 1538 1541 1543 1547 1552 1555 1555 1555 1552 1552 1552 1563 1571 1575 1575 1579 1586 1592 1592 1592 1591 1591 1591 1589 1589 1589 1587 1584 1583 1583 1583 1588 1593 1593 1593 1591 1580 1567 1550 1531 1524 1515 1515 1515 1524 1524 1528 1529 1529 1536 1542 1545 1545 1545 1547 1547 1550 1553 1553 1553 1552 1552 1552 1552 1552 1555 1571 1577 1578 1582 1584 1591 1595 1597 1598 1598 1597 1596 1595 1593 1590 1590 1589 1589 1589 1589 1589 1588 1581 1573 1567 1564 1564 1562 0 0 0 0 0 0 0 0 1314 1313 1303 1281 1267 1267 1265 1264 1254 1244 1243 1243 1241 1241 1241 1241 1241 1240 1237 1237 1236 1236 1235 1234 1234 1232 1232 1231 1229 1229 1229 1230 1230 1230 1230 1228 1227 1227 1227 1222 1221 1221 1219 1218 1218 1218 1219 1220 1220 1220 1219 1219 1219 1219 1219 1219 1219 1218 1218 1217 1216 1216 1216 1216 1216 1216 1216 1215 1215 1215 1215 1215 1215 1215 1215 1214 1214 1214 1214 1214 1214 1214 1213 1212 1210 1210 1210 1208 1207 1207 1206 1206 1205 1204 1203 1201 1200 1200 1198 1197 1195 1194 1193 1192 1191 1188 1188 1187 1187 1187 1187 1196 1196 0 0 0 0 0 0 1534 1542 1552 1559 1569 1572 1576 1579 1587 1593 1599 1601 1602 1604 1608 1613 1613 1613 1613 1611 1610 1608 1608 1608 1610 1615 1618 1618 1618 1615 1615 1615 1619 1623 1623 1623 1623 1623 1622 1622 1620 1618 1615 1615 1615 1618 1618 1618 1616 1615 1615 1615 1612 1610 1605 1603 1601 1601 1601 1601 1603 1603 1605 1609 1617 1622 1629 1640 1653 1658 1658 1658 1655 1654 1652 1649 1648 1648 1648 1655 1655 1655 1652 1651 1651 1651 1647 1647 1647 1647 1647 1642 1616 1584 0 0 0 0 0 0 0 0 0 0 0 1612 1612 1612 1601 1601 1601 1615 1622 1622 1622 1632 1638 1638 1650 1650 1650 1620 1599 1596 1577 1557 1534 1507 1486 1467 1456 1456 1456 1488 1529 1529 1529 1528 1523 1495 1477 1444 1414 1402 1388 1388 1388 1388 1385 1385 1381 1376 1375 1368 1353 1318 1301 1291 0 0 0 0 0 0 0 0 0 0 0 0 0 0 0 0 0 0 0 0 0 0 978 974 969 969 959 0 0 0 0 0 0 0 0 0 0 0 0 0 0 0 0 0 0 0 0 0 0 0 0 0
842 842 849 851 858 865 869 892 910 0 986 1001 1012 1025 1038 1056 1072 1097 1106 1116 1121 1135 1152 1174 1194 1209 1237 1241 1252 1256 1270 1292 1300 1320 1330 1331 1336 1348 1368 1390 1408 1425 1434 1443 1457 1471 1490 1495 1508 1527 1548 1575 1588 1601 1613 1627 1634 1640 1650 1667 1694 1694 1694 1692 1692 1692 1705 1716 1723 1731 1746 1771 1781 1792 1807 1824 1840 1858 1874 1890 1902 1911 1914 1915 1920 1921 1925 1930 1942 1959 1969 1970 1971 1979 2000 2018 2031 2036 2037 2038 2047 2067 2093 2100 2119 2133 2135 2135 2138 2138 2138 2147 2157 2165 2168 2172 2179 2189 2194 2198 2202 2210 2224 2239 2248 2250 2255 2264 2275 2284 2290 2290 2284 2280 2275 2273 2269 2255 2223 2180 0 0 0 0 0 0 0 0 1323 1318 1318 1323 1327 1337 1344 1344 1345 1350 1354 1360 1373 1373 1373 1370 1370 1370 1369 1371 1371 1369 1361 1356 1354 1352 1352 1352 1343 1332 1327 1327 1327 1343 1371 1414 1455 1476 1488 1488 1490 1491 1491 1504 1510 1517 1525 1530 1533 1536 1537 1537 1537 1532 1529 1527 1527 1527 1528 1530 1535 1539 1541 1543 1547 1552 1555 1555 1555 1552 1552 1552 1563 1571 1571 1574 1579 1585 1592 1592 1592 1591 1591 1591 1589 1589 1589 1586 1584 1582 1582 1582 1584 1584 1584 1580 1571 1559 1544 1526 1523 1520 1514 1514 1514 1516 1520 1522 1524 1527 1535 1542 1545 1547 1548 1549 1549 1553 1553 1553 1553 1553 1553 1557 1558 1560 1565 1574 1579 1584 1587 1589 1594 1595 1597 1598 1598 1597 1596 1594 1590 1589 1587 1586 1586 1585 1585 1585 1578 1566 1554 1547 1547 0 0 0 0 0 0 0 0 0 1316 1296 1283 1275 1270 1263 1259 1252 1246 1238 1238 1238 1239 1240 1240 1239 1238 1237 1237 1237 1236 1233 1233 1232 1232 1232 1230 1230 1229 1227 1227 1227 1227 1227 1227 1226 1225 1225 1222 1220 1217 1217 1217 1213 1210 1210 1210 1214 1217 1217 1217 1216 1216 1216 1216 1216 1216 1216 1216 1216 1216 1215 1215 1215 1214 1214 1214 1214 1213 1213 1213 1213 1213 1213 1213 1213 1213 1213 1212 1212 1211 1211 1211 1210 1209 1209 1207 1207 1206 1206 1206 1205 1204 1203 1202 1201 1199 1199 1199 1197 1196 1194 1193 1192 1192 1191 1188 1188 1187 1186 1186 1186 1190 1194 0 0 0 0 0 0 1520 1539 1552 1557 1564 1572 1576 1579 1587 1593 1599 1601 1606 1611 1622 1622 1622 1622 1619 1618 1616 1613 1613 1613 1614 1619 1621 1621 1621 1620 1620 1620 1621 1624 1624 1624 1623 1623 1622 1622 1618 1614 1613 1613 1613 1616 1616 1617 1617 1617 1616 1616 1614 1612 1609 1606 1604 1603 1603 1603 1603 1604 1605 1611 1617 1625 1636 1642 1653 1662 1662 1662 1661 1659 1659 1658 1657 1657 1657 1657 1657 1656 1656 1655 1655 1655 1652 1645 1639 1639 1639 1638 1616 1584 0 0 0 0 0 0 0 0 0 0 0 1595 1595 1595 1589 1584 1554 1554 1554 1596 1602 1607 1618 1638 1650 1650 1650 1620 1590 1558 1555 1533 1521 1507 1486 1467 1444 1444 1444 1458 1529 1529 1529 1528 1523 1495 1477 1444 1414 1399 1373 1373 1373 1375 1381 1381 1381 1376 1375 1368 0 0 0 0 0 0 0 0 0 0 0 0 0 0 0 0 0 0 0 0 0 0 0 0 0 0 960 955 944 933 917 0 0 0 0 0 0 0 0 0 0 0 0 0 0 0 0 0 0 0 0 0 0 0 0 0
845 845 855 862 866 868 879 893 910 945 986 1001 1012 1025 1045 1062 1084 1102 1106 1129 1141 1148 1154 1176 1197 1209 1237 1241 1249 1256 1270 1292 1303 1320 1331 1336 1340 1351 1368 1392 1411 1425 1436 1447 1460 1487 1492 1506 1518 1537 1566 1584 1588 1610 1624 1641 1642 1644 1651 1668 1694 1710 1715 1716 1718 1722 1723 1728 1731 1740 1757 1777 1786 1795 1809 1824 1841 1858 1876 1890 1902 1911 1914 1919 1920 1921 1925 1930 1942 1959 1970 1987 1998 2009 2015 2024 2032 2039 2040 2040 2047 2070 2083 2095 2117 2131 2135 2137 2138 2139 2143 2155 2170 2176 2179 2182 2187 2194 2201 2210 2215 2221 2233 2247 2251 2251 2255 2264 2275 2284 2290 2290 2289 2286 2286 2273 2268 2247 2206 0 0 0 0 0 0 0 0 0 1323 1323 1336 1341 1347 1349 1349 1347 1347 1350 1354 1367 1377 1377 1377 1378 1378 1381 1384 1384 1384 1376 1375 1374 1374 1374 1373 1372 1368 1353 1346 1335 1335 1335 1365 1404 1448 1476 1488 1488 1490 1491 1491 1504 1510 1517 1528 1532 1534 1537 1537 1537 1537 1534 1532 1531 1531 1532 1532 1534 1537 1539 1541 1544 1547 1552 1555 1555 1555 1552 1552 1552 1563 1566 1567 1571 1575 1583 1592 1592 1592 1591 1586 1586 1586 1586 1586 1584 1581 1580 1580 1580 1580 1580 1576 1560 1552 1542 1528 1517 1516 1515 1509 1509 1509 1513 1514 1517 1521 1525 1534 1542 1550 1550 1551 1552 1554 1555 1555 1555 1554 1554 1554 1561 1565 1567 1569 1574 1582 1589 1594 1595 1595 1597 1597 1598 1598 1597 1595 1593 1589 1587 1583 1580 1579 1579 1578 1576 1566 1555 1548 0 0 0 0 0 0 0 1317 1305 1286 1280 1279 1274 1273 1261 1252 1251 1250 1245 1236 1236 1235 1235 1235 1235 1235 1234 1234 1234 1233 1233 1232 1232 1231 1230 1229 1228 1228 1226 1226 1226 1226 1226 1226 1226 1224 1223 1223 1222 1218 1215 1213 1213 1211 1211 1200 1200 1200 1204 1209 1213 1214 1214 1214 1214 1214 1214 1214 1214 1214 1214 1214 1213 1213 1213 1213 1212 1212 1211 1211 1211 1211 1211 1211 1211 1211 1211 1210 1210 1210 1210 1209 1209 1209 1208 1207 1207 1206 1205 1205 1204 1204 1203 1202 1202 1200 1200 1199 1198 1196 1196 1195 1193 1191 1190 1190 1190 1188 1187 1186 1185 1183 1183 1183 1188 1193 0 0 0 0 0 1506 1539 1552 1557 1559 1563 1567 1572 1579 1589 1599 1601 1609 1628 1629 1629 1629 1627 1625 1624 1624 1622 1619 1619 1619 1619 1622 1624 1624 1624 1624 1624 1624 1624 1624 1624 1623 1623 1622 1621 1616 1612 1612 1612 1613 1615 1615 1616 1617 1616 1616 1616 1615 1614 1612 1610 1608 1606 1605 1605 1605 1605 1605 1612 1622 1631 1638 1643 1653 1662 1665 1665 1665 1663 1659 1659 1659 1660 1660 1660 1659 1657 1657 1657 1658 1658 1658 1645 1639 1639 1633 1627 1616 1595 0 0 0 0 0 0 0 0 0 0 0 1594 1594 1594 1586 1562 1543 1543 1543 1585 1596 1600 1603 1638 1650 1650 1650 1619 1577 1542 1540 1520 1515 1507 1491 1470 1444 1444 1444 1458 0 0 0 0 0 0 0 0 1378 1367 1358 1356 1356 1356 1360 1368 1376 1376 1375 0 0 0 0 0 0 0 0 1131 1113 1109 0 0 0 0 0 0 0 0 0 0 0 0 0 0 0 0 960 938 929 912 897 0 0 0 0 0 0 0 0 0 0 0 0 0 0 0 0 0 0 0 0 0 0 0 0 0
849 849 865 875 876 885 896 909 927 950 987 1015 1034 1050 1062 1075 1096 1107 1126 1149 1151 1158 1162 1180 1198 1220 1228 1237 1241 1251 1269 1275 1303 1321 1333 1341 1346 1353 1368 1392 1412 1426 1440 1452 1474 1490 1501 1511 1524 1550 1571 1585 1591 1610 1626 1641 1648 1652 1653 1668 1695 1710 1718 1732 1743 1743 1743 1743 1743 1747 1764 1782 1793 1803 1816 1830 1843 1859 1879 1890 1894 1905 1911 1919 1920 1921 1925 1931 1943 1959 1970 1987 2001 2017 2030 2036 2043 2046 2049 2050 2057 2071 2083 2095 2114 2128 2137 2140 2141 2146 2152 2181 2188 2189 2191 2191 2195 2203 2213 2218 2223 2230 2242 2248 2252 2252 2254 2255 2258 2270 2272 2284 2286 2286 2286 2273 2262 2227 0 0 0 0 0 0 0 0 0 1336 1336 1336 1349 1358 1365 1365 1365 1357 1357 1357 1368 1377 1380 1380 1382 1382 1382 1388 1388 1388 1387 1383 1383 1383 1388 1388 1388 1388 1378 1365 1358 1347 1347 1347 1357 1376 1430 1468 1485 1490 1490 1491 1491 1501 1509 1517 1528 1535 1540 1540 1540 1540 1538 1536 1535 1535 1534 1534 1534 1535 1537 1539 1541 1543 1545 1547 1547 1547 1548 1549 1550 1552 1557 1560 1565 1570 1574 1581 1586 1586 1586 1581 1581 1581 1581 1581 1581 1580 1579 1579 1579 1579 1578 1577 1571 1557 1536 1525 1519 1515 1512 1509 1508 1508 1509 1510 1512 1512 1516 1527 1534 1545 1554 1557 1557 1559 1559 1559 1559 1560 1560 1562 1562 1563 1568 1569 1571 1579 1588 1597 1597 1602 1602 1602 1597 1597 1592 1590 1589 1587 1587 1583 1575 1563 1563 1563 1562 1561 1543 0 0 0 0 0 0 0 0 1287 1285 1278 1276 1272 1265 1256 1251 1245 1245 1245 1243 1238 1235 1235 1233 1232 1232 1231 1230 1230 1231 1231 1232 1232 1232 1231 1229 1227 1226 1226 1225 1225 1225 1224 1223 1222 1221 1220 1220 1219 1216 1213 1207 1201 1194 1190 1189 1189 1189 1192 1198 1199 1201 1206 1210 1212 1212 1212 1213 1213 1213 1213 1213 1213 1212 1211 1211 1211 1211 1210 1210 1210 1209 1209 1209 1209 1209 1209 1209 1209 1209 1208 1208 1207 1207 1207 1206 1206 1204 1203 1202 1202 1202 1202 1201 1201 1200 1200 1199 1198 1197 1196 1196 1194 1193 1192 1190 1189 1189 1188 1188 1186 1186 1184 1184 1184 1184 1188 1190 0 0 0 0 0 0 1535 1556 1556 1556 1557 1557 1561 1571 1577 1585 1596 1613 1632 1632 1632 1629 1627 1625 1624 1624 1622 1619 1619 1619 1619 1622 1624 1629 1629 1629 1624 1624 1624 1624 1624 1623 1621 1620 1618 1614 1612 1611 1611 1611 1614 1614 1614 1615 1616 1616 1616 1616 1616 1615 1614 1612 1608 1606 1606 1606 1608 1615 1619 1626 1633 1638 1646 1653 1658 1667 1667 1667 1664 1664 1664 1664 1664 1664 1660 1660 1658 1658 1658 1664 1664 1664 1647 1639 1639 1633 1627 1620 1611 0 0 0 0 0 0 0 0 0 0 0 0 1585 1585 1561 1526 1526 1526 1543 1585 1585 1596 1603 1604 1604 1604 0 0 0 1500 1500 1500 1495 1495 1495 1475 1444 1430 1430 0 0 0 0 0 0 0 0 1359 1341 1340 1339 1326 1324 1324 1324 1326 0 0 0 0 0 0 0 0 0 0 1113 1113 1113 1095 1061 0 0 0 0 0 0 0 0 0 0 0 0 0 0 0 0 919 918 899 0 0 0 0 0 0 0 0 0 0 0 0 0 0 0 0 0 0 0 0 0 0 0 0 0 0
849 849 869 885 887 907 927 943 953 972 987 1015 1034 1054 1072 1085 1103 1110 1134 1152 1160 1164 1172 1189 1201 1220 1228 1237 1241 1251 1271 1275 1305 1321 1333 1346 1352 1357 1368 1392 1418 1434 1450 1467 1482 1490 1502 1515 1533 1555 1576 1587 1597 1611 1626 1641 1652 1654 1661 1668 1695 1710 1718 1733 1744 1748 1748 1752 1752 1752 1769 1785 1799 1813 1827 1841 1856 1867 1879 1888 1892 1901 1911 1919 1927 1932 1934 1936 1946 1959 1974 1987 2002 2021 2041 2055 2056 2059 2061 2062 2069 2074 2083 2095 2111 2125 2136 2141 2150 2162 2170 2186 2192 2195 2196 2201 2206 2215 2222 2229 2232 2236 2242 2248 2252 2253 2254 2255 2258 2270 2272 2275 2286 2286 2286 2268 0 0 0 0 0 0 0 0 0 1351 1336 1336 1336 1336 1349 1369 1384 1384 1384 1369 1369 1369 1376 1382 1383 1383 1387 1387 1387 1392 1393 1393 1393 1393 1393 1399 1399 1400 1400 1395 1395 1400 1395 1390 1376 1376 1376 1376 1383 1438 1462 1479 1490 1490 1491 1499 1508 1513 1528 1535 1540 1540 1540 1540 1539 1538 1537 1537 1537 1536 1536 1536 1539 1542 1542 1542 1543 1543 1544 1545 1546 1546 1547 1552 1557 1560 1564 1569 1574 1575 1575 1575 1572 1572 1572 1576 1578 1578 1578 1577 1577 1577 1578 1578 1578 1576 1571 1557 1536 1521 1516 1514 1508 1507 1507 1507 1507 1507 1510 1512 1516 1527 1534 1546 1556 1562 1562 1563 1563 1563 1563 1563 1563 1567 1569 1569 1572 1574 1579 1583 1588 1597 1601 1604 1604 1602 1601 1593 1586 1584 1584 1583 1581 1577 1568 1549 1540 1540 0 0 0 0 0 0 0 1332 1316 1290 1270 1267 1267 1266 1263 1256 1247 1243 1241 1236 1235 1235 1234 1231 1231 1231 1231 1231 1230 1228 1228 1228 1228 1228 1228 1228 1228 1228 1228 1226 1225 1225 1225 1225 1225 1223 1218 1214 1213 1213 1212 1211 1209 1199 1191 1175 1151 1151 1151 1151 1158 1184 1192 1192 1194 1199 1206 1209 1210 1211 1211 1212 1212 1212 1211 1211 1210 1210 1210 1209 1209 1208 1208 1208 1207 1207 1207 1207 1208 1208 1208 1207 1207 1206 1205 1205 1205 1204 1203 1203 1201 1201 1200 1200 1199 1199 1199 1199 1199 1198 1197 1196 1195 1194 1194 1193 1192 1190 1188 1188 1187 1187 1186 1186 1185 1183 1183 1183 1183 1188 1188 0 0 0 0 0 0 1535 1556 1556 1556 1556 1556 1561 1571 1577 1585 1596 1613 1632 1632 1632 1629 1627 1625 1624 1624 1622 1619 1618 1618 1618 1618 1624 1629 1629 1629 1623 1623 1623 1623 1623 1621 1621 1619 1617 1614 1612 1610 1610 1610 1610 1610 1610 1611 1614 1615 1616 1616 1616 1616 1616 1616 1611 1611 1611 1612 1616 1619 1625 1631 1638 1642 1646 1653 1658 1667 1667 1667 1665 1664 1664 1664 1664 1664 1663 1660 1659 1659 1659 1671 1671 1671 1657 1640 1637 1633 1627 1623 1611 0 0 0 0 0 0 0 0 0 0 0 0 1523 1523 1521 1514 1514 1514 1550 1585 1585 1585 1585 1585 1585 0 0 0 0 1453 1453 1480 1483 1490 1490 1490 1465 1430 0 0 1378 1378 1379 1393 1393 1393 1389 1338 1338 1326 1324 1324 1324 1314 1293 1293 1293 1295 1295 1295 0 0 0 0 0 0 1112 1110 1104 1095 1061 0 0 0 0 0 0 0 0 0 0 0 0 0 0 0 0 0 0 0 0 0 0 0 0 0 0 0 0 0 0 0 0 0 0 0 0 0 0 0 0 0 0 0 0 0
851 851 871 885 890 915 941 961 967 972 987 1015 1034 1054 1075 1087 1103 1112 1134 1152 1160 1173 1181 1194 1208 1220 1228 1237 1241 1251 1271 1275 1305 1322 1342 1356 1365 1365 1378 1402 1423 1441 1455 1467 1482 1490 1502 1518 1538 1566 1579 1587 1599 1611 1626 1639 1653 1655 1663 1671 1697 1708 1719 1734 1746 1755 1757 1759 1759 1761 1773 1788 1806 1821 1845 1871 1874 1876 1881 1888 1892 1901 1911 1924 1932 1938 1942 1945 1947 1959 1975 1989 2006 2025 2055 2073 2073 2073 2073 2073 2079 2085 2086 2095 2107 2117 2128 2141 2157 2175 2186 2187 2198 2199 2199 2206 2215 2223 2231 2235 2236 2238 2242 2248 2253 2254 2255 2256 2258 2269 2270 2272 2272 2269 2262 0 0 0 0 0 0 0 0 0 1373 1351 1338 1338 1338 1340 1352 1383 1386 1386 1386 1382 1382 1382 1384 1387 1387 1387 1389 1389 1389 1396 1396 1397 1397 1397 1402 1404 1404 1407 1408 1409 1418 1418 1418 1415 1412 1396 1383 1383 1383 1403 1443 1471 1485 1490 1491 1499 1505 1512 1525 1535 1540 1540 1540 1540 1540 1540 1540 1540 1540 1540 1540 1542 1543 1543 1543 1543 1540 1540 1540 1541 1542 1544 1547 1552 1557 1560 1563 1568 1570 1570 1570 1570 1568 1568 1568 1573 1573 1573 1573 1573 1573 1573 1577 1577 1577 1575 1571 1557 1536 1521 1515 1514 1502 1502 1502 1507 1507 1507 1510 1512 1516 1530 1540 1548 1560 1566 1566 1566 1566 1565 1564 1564 1564 1567 1569 1571 1574 1576 1579 1583 1588 1597 1604 1606 1606 1606 1602 1593 1585 1582 1579 1577 1571 1566 1559 1539 1535 0 0 0 0 0 0 0 1329 1315 1297 1273 1263 1260 1255 1252 1251 1246 1244 1241 1237 1232 1232 1232 1231 1231 1230 1230 1230 1230 1230 1228 1227 1227 1226 1226 1226 1226 1226 1226 1225 1224 1223 1222 1220 1220 1219 1217 1215 1214 1209 1201 1194 1192 1189 1173 1170 1151 1139 1133 1131 1131 1131 1139 1175 1187 1191 1198 1203 1204 1209 1210 1210 1210 1210 1210 1209 1209 1208 1208 1208 1208 1208 1207 1207 1206 1206 1206 1206 1206 1206 1206 1206 1205 1205 1204 1204 1203 1203 1203 1202 1200 1200 1199 1198 1197 1197 1197 1197 1197 1196 1196 1195 1194 1194 1194 1193 1191 1190 1189 1187 1186 1186 1185 1184 1184 1184 1183 1183 1183 1183 1183 1187 1188 0 0 0 0 0 0 1554 1556 1556 1556 1556 1561 1571 1577 1585 1596 1609 1630 1630 1630 1626 1626 1626 1623 1621 1616 1612 1612 1612 1615 1617 1622 1629 1629 1629 1622 1622 1622 1620 1620 1620 1619 1618 1616 1614 1611 1610 1610 1609 1608 1608 1608 1608 1609 1610 1613 1615 1617 1619 1619 1619 1614 1614 1614 1618 1620 1625 1630 1638 1645 1648 1648 1653 1658 1660 1662 1662 1662 1664 1664 1664 1664 1664 1664 1662 1662 1662 1665 1671 1671 1671 1664 1652 1639 1639 1637 1625 1618 0 0 0 0 0 0 0 0 0 0 0 1475 1489 1498 1503 1506 1507 1512 1550 1583 1583 1583 1555 1535 0 0 0 0 1441 1441 1441 1476 1483 1507 1507 1507 1505 0 0 1374 1367 1367 1367 1372 1388 1388 1388 1338 1338 1326 1324 1324 1324 1314 1274 1274 1274 1287 1287 1287 1249 1235 0 0 0 0 1112 1110 1104 1095 1092 0 0 0 0 0 0 1146 1175 1175 0 0 0 0 0 0 0 0 0 860 860 819 0 0 0 0 0 0 0 0 0 0 0 0 0 0 0 0 0 0 0 0 0 0 0 0
