664 664 670 680 698 726 749 771 788 807 824 837 850 864 878 879 879 879 0 0 0 0 743 731 729 729 729 733 735 737 739 743 744 747 751 756 764 765 767 772 776 781 788 796 801 804 806 808 810 815 818 821 824 826 827 829 831 832 833 836 836 838 839 840 841 843 843 844 845 845 846 846 846 847 847 847 847 848 848 848 848 849 849 849 849 850 850 850 851 851 851 851 851 851 851 851 851 850 849 848 847 846 842 837 828 817 808 797 788 784 782 782 780 778 776 774 770 765 765 765 767 768 768 769 769 770 770 770 772 774 775 775 775 772 772 772 772 772 770 769 768 768 768 770 772 772 773 778 780 785 804 0 0 0 0 0 0 0 0 0 0 0 0 0 0 0 0 0 0 0 0 0 0 0 0 0 0 0 0 0 0 0 0 0 0 0 0 0 0 0 859 860 859 859 860 864 865 865 864 863 857 0 0 0 0 0 0 0 0 0 0 0 0 0 0 0 0 0 0 0 0 0 0 0 0 0 0 0 0 0 0 0 0 0 0 0 0 0 0 0 0 0 0 0 872 868 863 861 854 853 851 849 849 847 843 841 840 840 840 840 841 844 846 846 848 848 848 846 846 846 846 848 850 851 851 852 852 853 855 855 855 854 851 847 845 845 845 849 865 867 878 882 0 0 0 0 0 895 895 895 895 892 892 890 888 888 885 884 883 883 883 884 887 887 887 887 887 887 887 887 885 885 885 885 885 885 883 882 878 878 878 881 890 897 907 907 907 906 0 0 0 0 0 0 0 0 0 0 0 0 0 0 0 0 0 0 0 0 0 0 0 0 0 0 0 0 0 0 0 0 0 0 0 0 0 0 0 904 904 902 900 900 898 898 890 880 880 878 874 874 874 888 888 888 879 879 879 883 883 885 890 890 892 892 892 892 892 908 911 915 917 917 917 917 917 915 914 914 914 913 913 913 910 906 904 896 894 892 882 881 881 881 884 884 884 882 882 881 880 879 878 878 878 878 879 882 882 882 879 877 876 876 877 877 880 884 884 884 884 884 886 890 891 904 920 924 925 926 931 932 934 935 935 936 937 937 938 938 939 939 939 939 939 939 939 938 937 937 935 935 934 933 933 931 925 919 912 910 902 901 900 900 901 906 914 918 921 921 924 929 934 937 939 942 943 944 944 946 946 948 949 950 950 951 951 952 953 954 955 955 955 956 957 957 958 959 959 959 959 960 960 960 960 960 960 960 960 960 961 961 961 962 962 963 964 964 964 965 965 965 965 965 965 965 965 965 965 965 965 964 964 963 963 962 962 961 961 961 960 959 961 961 957 0 0 0 0 0 0 659 659 659 0 0 0 0 0 0 0 0 0 0 0 0 0 0 0 0 0 0 0 0 0 0 0 499 489 494 494 492 485 0 0 0 0 0 0 0 0 0 0 0 0 0 0 0 0 0 0 0
673 673 674 686 704 727 752 771 788 810 828 842 858 870 883 885 893 893 893 0 0 0 766 746 732 732 732 734 736 738 742 743 744 747 751 757 764 765 767 769 776 780 787 794 797 800 804 807 809 811 816 819 822 824 825 827 829 830 832 833 835 837 839 839 840 842 842 843 843 844 845 845 845 846 846 846 846 846 846 847 847 847 848 848 848 848 849 849 850 850 850 850 851 851 851 851 849 849 849 847 847 844 841 835 828 816 804 794 787 782 781 780 779 778 776 773 769 764 764 764 767 767 768 768 768 768 770 770 770 772 773 773 773 771 771 771 771 771 770 769 768 766 766 766 768 768 769 769 769 782 804 817 0 0 0 0 0 0 0 0 0 0 0 0 0 0 0 0 0 0 0 0 0 0 0 0 0 0 0 0 0 0 0 0 0 0 0 0 0 865 865 859 858 858 858 863 864 864 864 863 857 0 0 0 0 0 0 0 0 0 0 0 0 0 0 0 0 0 0 0 0 0 0 0 0 0 0 0 0 0 0 0 0 0 0 0 0 0 0 0 0 0 0 0 0 871 871 864 854 853 851 849 849 845 844 842 840 840 840 840 841 844 845 845 846 846 846 843 843 843 843 845 846 847 848 848 850 852 854 854 854 854 851 847 844 844 844 846 865 867 876 880 886 887 887 889 895 895 895 892 892 891 890 889 887 885 884 881 877 877 877 878 884 884 884 884 884 884 883 881 881 881 882 884 884 884 883 880 878 878 878 878 882 887 888 888 890 890 0 0 0 0 0 0 0 0 0 0 0 0 0 0 0 0 0 0 0 0 0 0 0 0 0 0 0 0 0 0 0 0 0 0 0 0 0 0 0 907 907 904 903 900 898 898 890 880 880 880 880 880 884 888 888 888 890 890 891 891 891 890 890 890 892 0 0 0 0 0 0 0 0 0 0 917 917 914 914 914 916 917 918 918 918 910 904 896 894 894 883 881 881 881 883 884 884 884 882 882 881 880 879 879 879 879 880 882 882 882 882 879 879 879 880 880 881 884 884 884 884 884 886 890 891 902 914 921 922 926 931 931 933 933 935 935 936 936 937 937 937 937 937 937 937 937 937 936 934 934 933 931 929 927 921 920 918 911 908 899 892 892 891 891 891 891 897 907 914 918 923 929 934 937 939 941 942 944 944 945 946 947 948 949 950 950 951 952 952 953 954 954 955 955 956 957 957 957 957 958 958 958 958 958 958 959 959 959 959 959 960 960 960 961 961 962 962 962 963 963 964 964 964 964 964 964 964 964 964 964 964 963 963 962 961 961 961 961 961 960 960 960 960 960 956 952 0 0 0 0 0 0 0 0 0 0 0 0 0 0 0 0 0 0 0 0 0 0 0 0 0 0 0 0 0 0 0 0 0 494 498 494 0 0 0 0 0 0 0 0 0 0 0 0 0 0 0 0 0 0 0 0
676 676 678 693 709 731 752 771 788 813 830 844 861 875 884 886 894 894 894 884 0 0 790 765 749 735 735 735 739 740 745 747 748 748 752 760 764 764 767 769 776 780 786 790 795 798 802 805 808 811 814 816 820 822 824 825 828 829 831 833 834 836 837 838 839 840 841 842 843 843 843 845 845 845 845 845 846 846 846 846 846 846 847 847 847 847 848 849 849 849 849 849 849 849 849 849 849 849 849 847 846 843 841 835 828 816 804 794 787 782 780 779 777 775 772 771 769 764 764 764 767 767 767 767 767 767 767 767 768 770 770 770 770 769 769 769 769 769 769 769 768 766 765 765 765 766 769 769 769 781 803 815 815 0 0 0 0 0 0 0 0 0 0 0 0 0 0 0 0 0 0 0 0 0 0 0 0 0 0 0 0 0 0 0 0 0 862 862 865 865 865 857 857 857 857 860 860 863 860 857 857 0 0 0 0 0 0 0 0 0 0 0 0 0 0 0 0 0 0 0 0 0 0 0 0 0 0 0 0 0 0 0 0 0 0 0 0 0 0 0 0 0 0 0 0 871 871 864 854 853 851 845 844 844 844 844 842 840 840 840 841 841 841 842 843 843 843 840 840 840 840 841 841 842 842 845 849 851 853 854 854 854 849 847 844 844 844 846 864 867 873 879 885 887 887 890 892 892 892 890 889 887 887 887 886 884 882 873 873 873 874 875 878 879 880 881 881 881 880 877 877 877 879 882 882 882 880 879 878 878 878 878 880 885 885 886 886 897 0 0 0 0 0 0 0 0 0 0 0 0 0 0 0 0 0 0 0 0 0 0 0 0 0 0 0 0 0 0 0 0 0 0 0 0 0 0 0 907 907 904 904 900 898 898 891 880 880 880 880 880 884 888 888 888 890 890 899 899 899 0 0 0 897 0 0 0 0 0 0 0 0 0 0 0 0 0 0 0 921 923 923 923 921 912 904 896 895 894 890 884 884 884 884 884 884 884 883 882 881 881 881 880 880 880 881 884 884 884 884 882 882 882 882 883 883 884 885 885 885 885 886 890 891 900 909 916 921 925 929 930 931 932 933 934 935 935 935 936 936 936 936 935 935 934 933 932 931 931 930 929 925 917 910 910 906 903 899 893 887 886 885 880 880 880 888 901 907 913 919 926 934 937 939 940 942 943 943 944 945 946 947 948 949 950 950 951 951 952 953 953 954 955 955 956 956 956 957 957 957 957 957 957 957 958 958 958 958 958 958 958 959 959 960 961 962 962 962 962 962 963 963 963 963 963 963 963 963 963 963 963 963 962 961 961 960 960 960 960 960 960 960 960 961 961 961 0 0 0 0 0 0 0 0 0 0 0 0 0 0 0 0 0 0 0 0 0 0 0 0 0 0 0 0 0 0 0 0 0 0 0 0 0 0 0 0 0 0 0 0 0 0 0 0 0 0 0 0 0 0 0
676 676 679 696 716 733 753 768 787 813 830 847 863 876 885 887 894 894 894 888 0 0 805 781 763 748 741 741 741 743 750 752 753 753 755 760 762 764 767 769 774 779 783 787 791 795 800 804 806 809 812 815 817 820 823 825 827 828 829 831 834 834 836 837 838 839 840 841 842 842 843 843 843 844 844 845 845 845 845 845 845 845 846 846 846 847 847 848 848 848 848 848 848 848 848 848 848 848 848 847 845 843 840 835 828 816 804 794 787 784 780 779 777 775 771 771 769 767 767 767 767 767 767 767 766 766 766 766 766 767 767 767 767 768 768 767 768 768 768 768 768 766 765 765 765 766 769 769 769 781 798 811 811 0 0 0 0 0 0 0 0 0 0 0 0 0 0 0 0 0 0 0 0 0 0 0 0 0 0 0 0 0 0 0 0 859 860 862 862 862 860 856 851 851 851 855 855 856 857 855 851 0 0 0 0 0 0 0 0 0 0 0 0 0 0 0 0 0 0 0 0 0 0 0 0 0 0 0 0 0 0 0 0 0 0 0 0 0 0 0 0 0 0 0 0 871 871 863 854 850 845 844 844 844 844 844 842 840 840 840 840 840 840 840 840 840 840 840 836 836 836 838 840 841 842 845 848 849 852 852 852 851 849 847 844 844 844 846 864 867 872 875 883 886 886 887 890 890 887 887 887 885 883 883 882 880 875 866 866 866 872 872 872 873 873 875 876 876 876 874 874 874 875 878 878 878 877 877 877 877 877 878 878 882 882 883 886 892 892 0 0 0 0 0 0 0 0 0 0 0 0 0 0 0 0 0 0 0 0 0 0 0 0 0 0 0 0 0 0 0 0 0 0 0 0 0 907 907 907 905 904 898 898 896 895 889 881 881 881 881 884 888 0 0 0 0 0 899 899 0 0 0 0 0 0 0 0 0 0 0 0 0 0 0 0 0 0 0 921 923 923 923 923 916 907 898 896 895 894 888 884 884 884 884 884 884 884 883 883 883 882 881 881 881 882 884 884 884 884 884 884 885 885 885 885 885 885 885 885 885 887 890 891 899 906 909 914 924 928 929 930 930 931 933 933 934 934 934 934 934 934 932 932 932 930 928 927 926 926 921 911 904 901 896 893 892 891 889 883 878 872 868 868 868 882 894 902 910 917 918 925 935 938 939 941 943 943 943 944 946 947 947 949 949 950 950 950 951 952 952 952 953 954 954 955 955 956 956 956 957 957 957 957 957 957 957 957 957 957 958 958 959 959 959 960 961 961 961 961 962 962 962 962 962 962 962 962 962 962 961 961 961 961 960 960 960 960 960 960 960 959 959 959 959 959 0 0 0 0 0 0 0 0 0 0 0 0 0 0 0 0 0 0 0 0 0 0 0 0 0 0 0 0 0 0 0 0 0 0 0 0 0 0 0 0 0 0 0 0 0 0 0 0 0 0 0 0 0 0 0
678 678 679 697 721 742 753 768 786 813 830 848 866 878 885 887 895 898 898 898 865 0 822 800 778 759 746 743 743 743 750 756 756 758 758 760 762 764 767 771 774 777 782 786 790 794 799 803 805 806 809 813 816 817 821 823 826 827 828 831 832 834 835 836 837 838 839 840 841 841 842 842 842 843 843 843 843 843 844 844 844 845 845 845 846 846 846 846 847 847 847 847 847 848 848 848 848 848 848 846 844 842 841 837 830 816 806 805 793 785 780 779 777 775 771 771 770 769 768 768 768 768 767 767 766 766 766 766 766 766 766 766 766 766 766 766 767 767 768 767 767 766 765 765 765 766 769 773 775 785 792 805 818 0 0 0 0 0 0 0 0 0 0 0 0 0 0 0 0 0 0 0 0 0 0 0 0 0 0 0 0 0 0 859 859 859 859 859 859 859 851 850 848 845 845 844 844 844 844 844 844 0 0 0 0 0 0 0 0 0 0 0 0 0 0 0 0 0 0 0 0 0 0 0 0 0 0 0 0 0 0 0 0 0 0 0 0 0 0 0 0 0 0 0 0 0 867 863 854 850 845 842 842 842 842 842 842 839 838 838 838 838 838 838 838 838 838 838 831 831 831 835 840 841 842 843 844 845 848 851 851 851 851 851 847 847 851 852 864 867 871 875 880 884 885 885 885 881 878 878 878 879 879 879 879 870 865 865 865 865 866 866 867 867 867 870 871 871 871 871 871 872 873 875 876 876 876 876 876 876 875 875 875 877 881 881 885 890 890 0 0 0 0 0 0 0 0 0 0 0 0 0 0 0 0 0 0 0 0 0 0 0 0 0 0 0 0 0 0 0 0 0 0 0 0 0 0 0 898 898 898 898 898 896 895 892 882 882 881 881 881 0 0 0 0 0 0 0 908 909 908 0 0 0 0 0 0 0 0 0 0 0 0 0 0 0 0 0 0 0 0 923 923 921 912 902 901 900 897 893 885 885 885 886 886 886 886 886 886 885 883 881 881 881 882 884 884 884 885 885 886 889 890 890 890 887 886 886 886 888 890 892 894 899 901 908 911 922 927 928 929 929 929 930 932 932 932 933 933 933 933 932 931 930 926 923 920 918 918 910 903 902 899 893 889 886 883 883 877 871 862 862 862 868 878 886 889 892 904 910 925 934 938 939 941 941 941 943 944 945 946 947 948 948 949 949 949 951 951 952 952 952 953 953 954 954 954 955 955 956 956 956 956 956 956 956 956 956 957 957 957 957 958 958 959 959 959 960 960 960 961 961 961 961 961 961 961 961 961 960 960 960 960 960 960 960 960 960 960 960 960 960 960 958 958 947 927 0 0 0 0 0 0 0 0 0 0 0 0 0 0 0 0 0 0 0 0 0 0 0 0 0 0 0 0 0 0 0 0 0 0 0 0 0 0 0 0 0 0 0 0 0 0 0 0 0 0 0 0 0
679 679 681 702 725 746 757 768 786 812 830 849 869 882 887 889 895 902 902 902 879 0 0 819 790 774 757 745 745 745 750 757 757 760 760 760 762 765 768 771 773 776 778 784 790 792 797 798 802 804 806 810 815 817 819 822 824 826 828 829 831 832 834 835 836 837 838 838 840 840 841 841 841 841 842 842 842 842 843 843 843 844 844 844 845 845 845 845 845 846 846 846 846 847 847 848 848 848 848 845 844 842 841 838 836 831 820 809 793 789 782 781 780 777 771 771 771 771 770 769 768 768 767 767 766 766 766 766 766 766 765 765 765 765 766 766 767 767 767 767 766 766 765 765 765 765 769 773 777 781 791 792 802 802 0 0 0 0 0 0 0 0 0 0 0 0 0 0 0 0 0 0 0 0 0 0 0 0 0 0 0 0 857 857 857 857 857 856 853 841 841 839 836 836 836 836 836 837 838 840 840 0 0 0 0 0 0 0 0 0 0 0 0 0 0 0 0 0 0 0 0 0 0 0 0 0 0 0 0 0 0 0 0 0 0 0 0 0 0 0 0 0 0 0 0 0 0 863 854 850 845 839 839 839 840 840 840 839 836 834 834 834 836 837 838 838 838 835 824 824 824 835 840 842 842 843 843 844 848 851 851 852 852 858 858 858 861 861 0 0 0 0 0 880 880 878 875 873 869 869 869 870 872 872 872 868 865 865 863 862 860 860 860 860 861 865 866 866 867 867 867 869 871 873 873 874 875 875 875 875 873 871 871 871 874 878 881 888 889 0 0 0 0 0 0 0 0 0 0 0 0 0 0 0 0 0 0 0 0 0 0 0 0 0 0 0 0 0 0 0 0 0 0 0 0 0 0 0 897 898 898 898 898 898 896 896 885 884 0 0 0 0 0 0 0 0 0 0 0 0 0 0 0 0 0 0 0 0 0 0 0 0 0 0 0 0 0 0 0 0 0 923 923 921 916 911 905 902 902 900 891 890 889 888 888 887 887 887 887 887 884 882 882 882 882 883 884 884 884 884 886 891 896 896 896 892 890 890 890 892 895 896 896 897 900 903 905 915 921 926 928 928 928 929 929 929 930 930 930 929 929 928 928 927 922 916 913 910 906 902 901 900 899 891 884 881 881 875 867 860 860 860 862 866 872 880 884 887 898 909 920 932 936 937 939 941 941 942 943 944 945 946 946 947 947 948 948 949 950 951 951 951 951 952 953 953 953 953 954 955 955 955 955 955 955 955 955 955 955 955 955 956 956 957 958 958 958 959 959 959 959 960 960 960 960 960 960 960 960 960 960 959 959 959 959 959 959 960 961 961 961 960 959 958 956 948 932 922 0 0 0 0 0 0 0 0 0 0 0 0 0 0 0 0 0 0 0 0 0 0 0 0 0 0 0 0 0 0 0 0 0 0 0 0 0 0 0 0 0 0 0 0 0 0 0 0 0 0 0 0
685 685 687 710 733 751 761 770 786 809 829 849 870 885 892 894 902 907 912 912 912 872 0 0 0 789 763 746 746 746 748 757 757 757 757 757 762 766 768 771 773 776 777 781 789 791 794 796 798 802 805 807 812 816 818 820 823 825 826 829 831 832 833 834 835 836 837 838 838 839 840 840 840 841 841 841 841 841 842 842 842 842 843 843 844 844 844 844 844 845 845 845 846 846 847 847 847 847 845 845 844 842 842 841 840 837 823 809 795 789 786 782 781 779 777 773 771 771 770 769 768 768 767 766 765 765 765 765 765 765 765 765 765 765 766 766 767 767 767 766 766 765 765 764 764 764 768 773 777 781 784 788 796 796 0 0 0 0 0 0 0 0 0 0 0 0 0 0 0 0 0 0 0 0 0 0 0 0 0 0 0 856 856 856 851 848 843 843 837 835 831 831 830 830 831 831 831 833 835 839 839 0 0 0 0 0 0 0 0 0 0 0 0 0 0 0 0 0 0 0 0 0 0 0 0 0 0 0 0 0 0 0 0 0 0 0 0 0 0 0 0 0 0 0 0 0 0 864 864 863 857 839 839 837 839 838 837 837 835 834 834 834 836 837 838 838 838 835 824 824 824 835 841 842 842 843 843 844 848 853 853 854 860 861 861 0 0 0 0 0 0 0 0 0 878 878 873 868 861 861 861 863 865 866 866 866 865 864 863 861 860 859 859 859 860 863 863 863 864 864 864 867 869 869 870 872 873 874 874 874 872 869 869 869 873 873 881 885 888 893 0 0 0 0 0 0 0 0 0 0 0 0 0 0 0 0 0 0 0 0 0 0 0 0 0 0 0 0 0 0 0 0 0 0 0 0 892 892 897 898 898 898 896 896 895 895 893 892 0 0 0 0 0 0 0 0 0 0 0 0 0 0 0 0 0 0 0 0 0 0 0 0 0 0 0 0 0 0 0 0 0 923 923 921 917 913 909 904 903 902 898 894 891 890 889 889 889 888 888 887 885 882 882 882 882 883 884 884 884 884 887 892 897 897 897 897 895 895 895 895 898 898 898 898 900 902 904 909 918 923 925 927 927 927 927 927 927 927 926 926 926 925 925 922 914 910 907 905 901 899 899 896 891 885 880 879 875 866 862 860 860 860 863 866 872 875 878 883 896 907 917 927 931 933 936 941 941 941 942 942 944 944 946 946 946 947 948 948 949 950 950 950 951 952 952 952 952 953 954 954 954 954 954 954 954 954 954 954 954 954 954 955 956 956 956 957 958 958 958 958 958 958 959 959 959 959 959 959 959 959 959 959 959 959 959 959 959 959 961 961 961 960 958 956 956 949 940 928 919 0 0 0 0 0 0 0 0 0 0 0 0 0 0 0 0 0 0 0 0 0 0 0 0 0 0 0 0 0 0 0 0 0 0 0 0 0 0 0 0 0 0 0 0 0 0 0 0 0 0 0
696 696 698 720 740 754 763 774 790 809 829 849 871 888 899 902 908 913 918 918 918 918 0 0 0 0 0 750 748 748 748 760 760 760 762 762 762 766 768 771 773 775 777 780 784 787 792 793 795 798 803 806 809 813 815 818 821 824 825 827 829 830 831 833 834 835 835 836 838 838 839 839 839 840 840 840 840 841 841 841 841 841 842 843 843 843 844 844 844 844 845 845 845 846 847 847 847 846 844 844 844 844 844 842 842 838 831 809 797 789 786 782 781 779 777 773 771 771 770 768 768 768 767 766 765 765 765 765 765 765 765 765 765 765 765 766 767 767 767 766 766 765 765 764 764 764 768 772 777 781 782 782 796 809 0 0 0 0 0 0 0 0 0 0 0 0 0 0 0 0 0 0 0 0 0 0 0 0 843 843 843 842 842 841 841 841 841 838 834 831 830 828 827 825 821 821 821 830 833 834 834 0 0 0 0 0 0 0 0 0 0 0 0 0 0 0 0 0 0 0 0 0 0 0 0 0 0 0 0 0 0 0 0 0 0 0 0 0 0 0 0 0 0 0 0 0 0 863 863 863 861 840 839 839 838 837 837 836 833 833 833 834 837 837 838 838 838 835 826 826 826 838 841 841 841 841 841 849 859 862 862 862 864 861 0 0 0 0 0 0 0 0 0 0 0 875 873 868 860 860 860 861 862 862 864 864 864 864 862 861 859 859 859 859 860 861 861 861 861 861 861 863 865 866 867 868 870 872 872 872 869 868 868 868 870 871 874 875 876 882 892 0 0 0 0 0 0 0 0 0 0 0 0 0 0 0 0 0 0 0 0 0 0 0 0 0 0 0 0 0 0 0 0 0 0 0 895 895 895 896 896 896 896 896 895 894 894 894 0 0 0 0 0 0 0 0 0 0 0 0 0 0 0 0 0 0 0 0 0 0 0 0 0 0 0 0 0 0 0 0 0 921 921 920 917 914 913 907 907 906 905 905 897 891 890 889 889 889 888 887 885 884 882 882 882 883 884 884 884 885 888 892 897 899 899 899 897 897 897 897 898 898 899 899 900 902 904 908 916 918 922 925 926 926 926 925 924 923 923 923 923 923 920 911 907 904 900 897 891 891 890 884 881 879 877 874 873 866 862 860 860 860 863 866 866 867 870 873 885 895 910 921 926 929 933 938 940 940 940 941 943 943 944 945 945 946 947 947 948 949 949 950 950 951 951 951 951 952 952 953 953 953 953 953 953 953 953 953 953 953 953 954 955 955 956 956 956 957 957 957 957 957 957 958 958 958 958 958 958 958 958 958 958 958 958 958 959 959 960 960 960 960 958 956 956 949 940 934 928 0 0 0 0 0 0 0 0 0 0 0 0 0 0 0 0 0 0 0 0 0 0 0 0 0 0 0 0 0 0 0 0 0 0 0 0 0 0 0 0 0 0 0 0 0 0 0 0 0 0 0
706 706 707 727 744 758 768 782 793 809 829 849 872 890 903 905 915 921 926 929 931 931 931 0 0 0 0 763 748 748 748 760 760 760 762 762 762 765 768 771 773 775 776 778 780 783 787 790 792 793 798 803 808 811 813 816 818 822 824 826 828 829 831 831 833 834 835 835 837 837 838 838 839 839 839 839 839 840 840 840 840 841 841 841 841 842 842 842 843 843 843 843 843 843 843 843 0 0 0 0 0 0 844 843 842 838 831 812 797 789 786 782 781 779 777 773 770 768 768 768 768 767 766 766 765 765 765 765 765 765 765 764 764 764 765 766 766 766 766 766 766 765 765 765 765 765 768 771 775 779 780 782 795 808 808 0 0 0 0 0 0 0 0 0 0 0 0 0 0 0 0 0 0 0 0 844 853 843 843 841 841 840 839 838 838 836 834 834 830 828 826 826 825 824 819 819 819 828 833 834 834 834 0 0 0 0 0 0 0 0 0 0 0 0 0 0 0 0 0 0 0 0 0 0 0 0 0 0 0 0 0 0 0 0 0 0 0 0 0 0 0 0 0 0 0 0 0 0 868 868 868 855 840 839 836 836 835 831 829 829 829 834 839 841 841 841 841 840 839 838 838 839 841 841 843 843 843 855 862 862 862 0 0 0 0 0 0 0 0 0 0 0 0 0 0 873 873 868 860 860 860 860 861 862 864 864 864 864 861 860 858 857 857 857 859 859 859 858 858 858 858 859 862 863 865 866 867 868 868 868 866 866 866 866 867 868 869 869 872 875 881 881 0 0 0 0 0 0 0 0 0 0 0 0 0 0 0 0 0 0 0 0 0 0 0 0 0 0 0 0 0 0 0 0 0 0 894 894 894 894 892 891 892 893 893 894 895 895 0 0 0 0 0 0 0 0 0 0 0 0 0 0 0 0 0 0 0 0 0 0 0 0 0 0 0 0 0 0 0 0 0 921 921 919 917 914 913 910 910 909 907 907 899 898 893 891 889 889 888 887 887 885 884 884 884 884 884 884 885 885 888 891 896 899 900 900 900 897 897 897 898 899 899 900 900 902 904 908 915 918 919 922 924 925 925 925 921 921 918 915 915 913 909 905 900 897 893 883 881 881 880 880 879 878 875 874 872 866 862 861 861 861 862 863 863 862 863 863 869 888 899 910 922 928 928 932 936 938 938 940 942 942 943 943 945 945 946 947 947 948 948 949 949 949 950 950 951 951 951 951 952 952 952 952 952 952 952 952 952 952 952 953 953 954 954 955 955 956 956 956 956 956 956 956 956 957 957 957 957 957 957 957 957 957 957 958 959 959 959 959 959 959 957 956 956 953 949 942 942 937 0 0 0 0 0 0 0 0 0 0 0 0 0 0 0 0 0 0 0 0 0 0 0 0 0 0 0 0 0 0 0 0 0 0 0 0 0 0 0 0 0 0 0 0 0 0 0 0 0 0
708 708 711 729 745 760 775 788 800 813 830 851 872 891 906 909 920 928 934 935 936 939 939 939 0 0 0 0 768 768 766 766 765 765 765 765 765 765 768 771 773 774 776 777 780 781 785 787 788 790 793 801 806 809 813 815 817 820 822 824 827 828 829 830 832 833 834 835 836 836 837 837 838 838 838 838 839 839 839 839 839 840 840 840 840 841 842 842 843 843 843 841 841 841 0 0 0 0 0 0 0 0 0 844 843 840 833 822 798 791 788 781 778 777 775 772 769 768 767 767 767 767 765 765 764 764 764 764 764 764 764 764 764 764 765 766 766 766 766 766 766 766 766 766 766 766 768 771 775 779 780 782 791 804 804 0 0 0 0 0 0 0 0 0 0 0 0 0 0 0 0 0 846 846 844 844 844 843 843 837 833 832 826 826 826 831 831 831 823 819 819 819 819 819 818 818 818 822 822 822 823 823 0 0 0 0 0 0 0 0 0 0 0 0 0 0 0 0 0 0 0 0 0 0 0 0 0 0 0 0 0 0 0 0 0 0 0 0 0 0 0 0 0 0 0 0 0 0 0 868 868 864 856 842 837 829 829 828 828 829 829 838 841 845 846 848 849 849 848 845 845 845 841 841 843 843 843 855 0 0 0 0 0 0 0 0 0 0 0 0 0 0 0 0 0 877 877 877 866 860 860 860 861 862 864 864 864 861 858 856 856 856 857 857 857 857 857 857 855 855 855 856 858 861 863 864 864 864 864 864 864 864 864 864 864 864 864 867 870 871 879 879 0 0 0 0 0 0 0 0 0 0 0 0 0 0 0 0 0 0 0 0 0 0 0 0 0 0 0 0 0 0 899 899 895 894 894 894 890 888 888 888 888 889 891 894 895 895 0 0 0 0 0 0 0 0 0 0 0 0 0 0 0 0 0 0 0 0 0 0 0 0 0 0 0 0 0 0 0 0 0 921 921 919 916 914 914 914 912 910 910 907 899 898 896 891 889 889 888 887 887 885 884 884 884 884 884 885 885 885 888 891 894 897 899 899 899 898 898 898 898 899 900 902 902 903 904 908 914 917 918 922 922 922 921 921 919 916 912 910 908 908 905 900 896 889 884 878 878 878 879 879 879 877 875 874 872 868 864 862 861 860 860 860 861 861 862 862 862 873 883 895 912 924 928 929 930 935 936 937 939 940 942 943 944 944 945 946 946 947 948 948 948 948 949 949 950 950 950 950 951 951 951 951 951 950 950 951 951 951 952 952 953 953 954 954 954 954 955 955 955 955 955 955 955 955 955 955 956 956 956 956 956 956 956 956 958 958 958 958 958 958 957 956 956 953 949 948 946 944 940 0 0 0 0 0 0 0 0 0 0 0 0 0 0 0 0 0 0 0 0 0 0 0 0 0 0 0 0 0 0 0 0 0 0 0 0 0 0 0 0 0 0 0 0 0 0 0 0 0
710 710 712 729 746 767 784 798 809 822 838 858 877 895 910 914 925 936 941 942 942 948 948 948 0 0 0 0 0 788 770 770 767 765 765 762 762 762 768 770 773 774 776 777 778 781 784 786 786 789 792 798 804 806 809 812 814 817 820 823 825 827 828 829 831 832 833 834 834 835 836 837 837 837 837 837 837 837 838 838 838 838 839 840 840 841 841 842 842 842 842 841 840 839 0 0 0 0 0 0 0 0 0 0 843 840 834 827 805 793 788 781 778 776 774 771 769 767 767 766 766 766 764 764 764 764 764 764 764 763 763 763 763 763 765 766 766 766 766 766 766 766 767 767 767 768 769 771 774 777 777 780 789 801 801 0 0 0 0 0 0 0 0 0 0 0 0 0 0 0 0 844 844 844 841 841 841 833 832 831 828 825 825 825 826 826 826 826 818 816 816 816 817 817 818 818 818 818 818 818 819 819 0 0 0 0 0 0 0 0 0 0 0 0 0 0 0 0 0 0 0 0 0 0 0 0 0 0 0 0 0 0 0 0 0 0 0 0 0 0 0 0 0 0 0 0 0 0 0 0 868 865 860 843 837 829 829 829 829 830 837 838 841 845 848 849 850 850 850 845 845 845 844 844 843 0 0 0 0 0 0 0 0 0 0 0 0 0 0 0 0 0 0 0 0 0 877 877 870 862 862 859 862 862 862 861 861 859 856 855 854 854 854 855 855 855 855 854 854 853 853 853 856 859 861 861 861 861 861 861 861 864 864 864 860 860 860 861 864 867 867 880 0 0 0 0 0 0 0 0 0 0 0 0 0 0 0 0 0 0 0 0 0 0 0 0 0 0 0 0 0 900 900 900 894 891 890 889 887 886 885 885 885 885 885 889 892 892 0 0 0 0 0 0 0 0 0 0 0 0 0 0 0 0 0 0 0 0 0 0 0 0 0 0 0 0 0 0 0 0 0 0 919 919 916 916 916 915 915 910 910 907 900 898 896 891 889 888 887 887 887 886 885 885 885 885 885 886 886 886 889 891 892 895 897 899 899 899 898 898 898 899 901 902 904 907 908 911 915 915 916 920 920 920 918 916 914 914 912 907 903 901 899 898 896 889 883 876 876 876 878 878 878 876 875 874 872 868 866 864 861 860 860 859 859 859 859 859 862 865 870 888 900 914 926 927 928 930 934 936 937 939 940 941 942 943 944 944 945 946 947 948 948 948 948 948 948 949 950 950 950 950 950 950 950 950 950 950 950 950 951 952 952 952 953 953 953 954 954 954 954 954 954 954 954 955 955 955 955 955 955 955 955 955 956 956 956 957 957 957 957 957 956 956 956 954 954 953 953 953 942 932 925 0 0 0 0 0 0 0 0 0 0 0 0 0 0 0 0 0 0 0 0 0 0 0 0 0 0 0 0 0 0 0 0 0 0 0 0 0 0 0 0 0 0 0 0 0 0 0
716 716 719 736 754 773 790 809 825 833 849 866 885 902 917 920 930 941 946 950 952 958 968 968 0 0 0 0 0 0 784 770 770 768 765 762 762 762 762 769 772 774 776 776 778 781 783 784 786 788 791 797 803 804 806 810 814 817 820 822 825 825 827 829 830 831 832 833 834 834 835 836 836 837 837 837 837 837 837 837 838 838 838 839 839 840 840 842 842 842 842 841 840 839 838 0 0 0 0 0 0 0 0 0 840 840 834 827 810 793 792 782 778 776 771 766 765 765 765 765 765 765 764 763 763 764 764 764 764 763 763 763 763 763 765 766 766 766 766 766 766 767 769 769 770 770 770 771 772 774 775 779 787 801 807 0 0 0 0 0 0 0 0 0 0 0 0 0 841 841 841 839 839 833 833 832 832 831 830 830 826 823 820 820 820 821 821 821 817 815 815 815 815 815 816 816 816 818 818 818 819 819 826 0 0 0 0 0 0 0 0 0 0 0 0 0 0 0 0 0 0 0 0 0 0 0 0 0 0 0 0 0 0 0 0 0 0 0 0 0 0 0 0 0 0 0 0 0 0 0 865 865 862 859 850 829 829 829 834 835 837 838 841 845 850 850 851 851 851 849 849 847 0 0 0 0 0 0 0 0 0 0 0 0 0 0 0 0 0 0 0 0 0 0 0 0 0 876 870 862 862 862 860 860 859 859 857 856 855 854 853 852 852 852 852 852 852 852 852 850 850 850 852 856 858 858 858 858 858 858 859 862 862 862 859 855 853 853 853 856 864 869 875 0 0 0 0 0 0 0 0 0 0 0 0 0 0 0 0 0 0 0 0 0 0 0 0 0 891 891 894 897 897 897 887 881 880 880 880 879 879 879 879 880 882 882 891 891 0 0 0 0 0 0 0 0 0 0 0 0 0 0 0 0 0 0 0 0 0 0 0 0 0 0 0 0 0 0 0 0 0 0 0 917 916 916 916 915 915 913 910 908 900 898 896 891 888 887 887 887 887 886 885 885 885 886 886 887 887 887 889 891 892 894 896 898 898 898 899 899 899 900 901 902 906 909 909 912 915 915 916 920 920 920 917 915 914 913 910 906 899 898 897 896 896 889 881 875 875 875 877 877 877 875 874 873 872 868 866 865 861 860 860 859 860 860 861 861 862 865 870 882 895 905 918 925 926 928 931 933 935 937 938 940 941 942 943 944 944 945 946 946 946 947 947 947 948 948 948 949 949 948 948 948 948 949 949 949 949 950 950 950 951 952 952 952 953 953 953 953 953 953 953 954 954 954 954 954 955 955 955 955 955 955 955 955 955 955 956 956 956 956 956 956 956 955 955 954 954 953 945 940 936 934 0 0 0 0 0 0 0 0 0 0 0 0 0 0 0 0 0 0 0 0 0 0 0 0 0 0 0 0 0 0 0 0 0 0 0 0 0 0 0 0 0 0 0 0 0 0
722 722 724 740 761 780 799 818 833 846 859 874 895 913 926 929 936 945 952 963 977 984 994 994 994 0 0 0 0 0 0 778 771 770 758 758 758 758 761 764 771 774 775 776 778 780 782 783 785 787 791 796 803 804 805 809 813 816 819 820 823 824 826 828 829 831 831 832 832 834 834 835 835 835 835 836 836 836 836 836 836 837 837 838 838 838 838 839 839 841 841 841 839 839 839 0 0 0 0 0 0 0 0 0 840 840 835 829 822 800 792 782 778 775 770 765 765 765 764 764 764 763 763 762 762 762 763 763 763 763 763 763 763 763 765 766 766 766 766 767 767 769 772 772 772 771 771 771 771 772 772 773 785 801 807 814 0 0 0 0 0 0 0 0 0 0 0 841 841 832 831 828 828 829 828 829 829 830 829 829 824 823 820 820 820 820 820 820 817 815 814 813 812 812 812 813 815 818 819 819 819 819 819 819 0 0 0 0 0 0 0 0 0 0 0 0 0 0 0 0 0 0 0 0 0 0 0 0 0 0 0 0 0 0 0 0 0 0 0 0 0 0 0 0 0 0 0 0 0 0 862 862 862 862 856 855 853 837 837 837 837 841 842 846 851 852 852 852 852 845 845 0 0 0 0 0 0 0 0 0 0 0 0 0 0 0 0 0 0 0 0 0 0 0 0 0 0 873 873 864 862 862 862 857 854 854 854 854 854 853 853 852 851 851 850 850 850 849 848 846 846 846 846 853 855 855 855 855 855 855 856 859 859 859 858 854 853 851 851 851 852 857 868 880 0 0 0 0 0 0 0 0 0 0 0 0 0 0 0 0 0 0 0 0 0 0 0 888 891 891 894 897 897 897 885 874 874 872 872 870 870 866 866 866 870 880 887 891 0 0 0 0 0 0 0 0 0 0 0 0 0 0 0 0 0 0 0 0 0 0 0 0 0 0 0 0 0 0 0 0 0 0 0 0 0 0 915 916 916 916 911 908 900 898 897 889 888 886 886 886 886 886 886 886 886 886 887 889 891 891 892 892 892 892 893 896 898 898 899 901 901 903 904 907 911 912 912 914 915 915 917 919 919 919 917 915 914 913 910 905 897 897 897 896 896 889 881 875 875 875 877 877 877 875 873 872 871 869 867 866 863 861 861 861 861 861 862 862 863 865 870 877 892 905 914 919 922 926 929 931 933 935 937 939 939 941 941 943 943 944 944 945 945 946 946 946 947 947 947 948 948 948 948 948 948 948 948 948 949 949 950 950 951 951 951 951 952 952 953 953 953 953 953 953 953 953 953 953 954 954 954 954 954 954 954 954 954 955 955 955 955 955 955 955 954 954 954 954 954 953 950 945 937 935 0 0 0 0 0 0 0 0 0 0 0 0 0 0 0 0 0 0 0 0 0 0 0 0 0 0 0 0 0 0 0 0 0 0 0 0 0 0 0 0 0 0 0 0 0 0
723 723 725 742 761 784 802 820 836 852 865 883 903 921 933 936 944 951 963 978 990 999 1003 1005 1005 1005 0 0 0 0 0 0 783 770 758 753 753 753 760 764 766 770 773 775 777 778 780 783 785 786 789 795 800 801 804 809 813 815 817 820 822 823 825 826 828 829 830 831 832 832 833 834 834 835 835 835 835 835 835 835 836 836 836 836 836 836 836 836 838 840 840 840 840 839 0 0 0 0 0 0 0 0 0 0 840 840 835 830 822 801 792 782 778 773 767 761 761 761 762 762 762 760 760 760 761 761 763 763 763 763 762 762 762 763 764 764 765 766 766 767 769 773 774 774 774 771 771 771 771 772 772 773 785 796 807 814 817 0 0 0 0 0 839 838 838 845 840 840 840 830 824 824 824 824 823 823 824 824 823 823 821 820 820 820 820 820 820 819 817 815 814 813 811 811 811 811 815 818 819 819 819 819 819 817 0 0 0 0 0 0 0 0 0 0 0 0 0 0 0 0 0 0 0 0 0 0 0 0 0 0 0 0 0 0 0 0 0 0 0 0 0 0 0 0 0 0 0 0 0 0 0 862 862 862 860 857 855 840 837 837 840 841 842 846 851 851 853 851 0 0 0 0 0 0 0 0 0 0 0 0 0 0 0 0 0 0 0 0 0 0 0 0 0 0 0 0 0 873 873 867 865 863 858 849 849 849 850 852 852 852 852 851 849 848 848 847 847 846 845 843 843 843 845 849 851 851 852 852 853 853 853 856 857 857 857 854 852 849 842 842 842 842 860 877 877 0 0 0 0 0 0 0 0 0 0 0 0 0 0 0 0 0 0 0 0 0 886 885 878 875 875 875 875 871 870 867 858 858 858 859 859 859 855 855 855 866 883 888 890 0 0 0 0 0 0 0 0 0 0 0 0 0 0 0 0 0 0 0 0 0 0 0 0 0 0 0 0 0 0 0 0 0 0 0 0 0 912 915 915 915 911 908 901 900 898 889 888 886 886 886 886 886 886 886 886 886 887 889 892 894 894 894 892 891 891 891 895 898 902 903 903 905 905 909 912 912 913 915 916 917 918 918 918 918 917 915 914 913 910 905 897 897 897 896 896 890 881 876 876 876 877 877 877 875 873 870 869 868 868 866 865 865 864 864 862 862 862 863 864 867 871 876 882 889 903 912 920 923 927 927 929 933 936 937 939 940 940 941 942 943 944 944 944 944 945 946 946 946 946 946 946 946 946 946 946 947 947 947 947 948 949 949 950 950 951 951 951 952 952 952 952 952 952 952 952 953 953 953 953 953 953 953 953 953 953 953 954 954 954 954 955 955 955 955 953 953 953 953 953 953 951 947 943 941 0 0 0 0 0 0 0 0 0 0 0 0 0 0 0 0 0 0 0 0 0 0 0 0 0 0 0 0 0 0 0 0 0 0 0 0 0 0 0 0 0 0 0 0 0 0
724 724 726 742 763 785 803 820 836 852 871 886 909 927 939 942 951 960 974 989 1000 1006 1011 1017 1017 1017 1017 0 0 0 0 0 802 779 758 752 752 752 759 764 764 768 771 773 775 777 778 781 782 785 787 792 797 798 803 808 811 812 814 817 819 822 823 825 826 828 828 830 831 832 833 833 833 834 834 834 834 834 834 835 835 835 835 835 835 835 835 836 838 839 840 840 0 0 0 0 0 0 0 0 0 0 0 0 0 840 835 833 823 805 787 782 773 767 765 760 760 760 759 759 759 758 758 758 758 760 762 763 763 763 762 762 762 762 764 764 765 766 766 768 772 777 777 777 774 771 771 771 771 772 772 773 785 803 807 812 812 817 827 839 839 840 839 838 835 835 835 835 835 828 824 823 823 820 817 817 817 817 816 816 817 817 817 817 817 817 817 817 815 815 814 813 811 810 810 810 812 817 819 819 819 819 819 825 0 0 0 0 0 0 0 0 0 0 0 0 0 0 0 0 0 0 0 0 0 0 0 0 0 0 0 0 0 0 0 0 0 0 0 0 0 0 0 0 0 0 0 0 0 0 0 862 862 862 862 861 859 846 840 840 840 842 845 850 850 0 0 0 0 0 0 0 0 0 0 0 0 0 0 0 0 0 0 0 0 0 0 0 0 0 0 0 0 0 0 0 0 0 869 867 867 865 858 849 848 848 848 849 852 852 852 851 849 848 848 847 847 846 845 843 842 842 842 846 848 850 850 851 851 851 852 854 855 855 855 853 851 849 841 832 832 832 849 865 865 0 0 0 0 0 0 0 0 0 0 0 0 0 0 0 0 886 886 886 885 885 880 876 875 868 867 866 866 866 865 858 854 846 846 846 848 848 848 848 848 857 875 885 886 886 0 0 0 0 0 0 0 0 0 0 0 0 0 0 0 0 0 0 0 0 0 0 0 0 0 0 0 0 0 0 0 0 0 0 0 0 910 915 915 915 911 908 904 902 898 889 889 886 884 884 884 885 885 886 886 886 887 890 893 895 895 895 892 891 891 891 893 898 902 904 905 905 907 909 912 913 913 915 916 918 919 919 919 919 917 915 915 913 910 905 897 897 897 896 896 890 884 879 878 878 878 878 878 876 873 870 868 868 868 866 866 865 865 864 862 862 862 863 864 867 871 876 880 888 899 904 918 922 926 927 928 930 934 936 938 938 939 940 941 942 943 943 943 943 944 944 945 945 945 945 945 945 945 945 945 946 946 946 947 948 948 949 949 949 950 950 950 951 951 951 951 951 951 952 952 952 952 952 952 952 952 952 952 952 952 953 953 953 954 954 954 954 954 954 953 953 953 953 953 953 952 948 944 942 931 0 0 0 0 0 0 0 0 0 0 0 0 0 0 0 0 0 0 0 0 0 0 0 0 0 0 0 0 0 0 0 0 0 0 0 0 0 0 0 0 0 0 0 0 0
725 725 726 742 764 785 803 821 837 853 871 890 912 930 942 946 956 968 986 1003 1013 1017 1023 1032 1035 1035 1035 1021 0 0 0 0 0 799 776 752 752 752 758 763 764 765 766 770 770 772 774 779 781 782 786 792 794 796 800 806 809 811 813 816 818 821 823 824 826 826 828 829 830 831 832 832 833 833 833 833 833 833 833 833 834 834 835 835 835 834 835 835 836 839 839 839 0 0 0 0 0 0 0 0 0 0 0 0 0 835 835 833 828 806 787 784 771 765 760 758 758 758 758 758 758 756 756 756 756 759 760 762 762 762 762 760 760 760 764 764 764 766 766 769 775 780 780 780 774 770 770 770 775 776 777 782 790 805 810 812 812 816 827 834 834 834 833 824 824 824 829 829 829 826 824 820 820 818 811 811 811 811 813 815 815 815 815 815 814 814 814 814 813 813 813 812 811 810 810 810 810 813 817 817 817 817 817 824 824 0 0 0 0 0 0 0 0 0 0 0 0 0 0 0 0 0 0 0 0 0 0 0 0 0 0 0 0 0 0 0 0 0 0 0 0 0 0 0 0 0 0 0 0 0 0 862 864 864 864 863 859 846 842 842 842 842 0 0 0 0 0 0 0 0 0 0 0 0 0 0 0 0 0 0 0 0 0 0 0 0 0 0 0 0 0 0 0 0 0 0 0 0 0 867 866 864 858 849 848 848 848 849 852 852 852 850 849 848 848 847 847 846 845 843 842 842 842 844 846 847 848 849 850 851 852 854 854 854 854 853 851 849 840 832 832 832 846 865 865 0 0 0 0 0 0 0 0 0 0 0 0 0 0 0 885 886 886 886 883 881 874 869 867 865 863 860 855 853 847 838 838 838 838 841 843 843 843 843 844 850 866 874 883 889 890 0 0 0 0 0 0 0 0 0 0 0 0 0 0 0 0 0 0 0 0 0 0 0 0 0 0 0 0 0 0 0 0 0 0 0 0 914 914 914 911 908 906 903 903 899 892 888 884 882 882 882 885 886 886 887 888 890 894 895 895 895 893 891 891 891 893 898 903 904 906 909 909 909 913 914 916 916 916 918 919 919 919 919 917 915 915 913 910 909 903 899 897 897 897 890 884 879 879 879 878 878 878 876 873 870 868 868 868 866 865 865 865 864 862 862 862 863 866 867 871 873 880 888 893 902 906 918 924 925 926 927 931 934 936 936 938 940 940 941 941 942 943 943 943 943 943 944 944 944 944 945 945 945 945 945 945 946 946 946 946 948 948 949 949 949 950 950 951 951 951 951 951 951 951 951 951 951 952 952 952 952 952 952 952 952 953 953 953 953 953 953 953 953 953 953 953 953 953 953 953 950 944 942 937 0 0 0 0 0 0 0 0 0 0 0 0 0 0 0 0 0 0 0 0 0 0 0 0 0 0 0 0 0 0 0 0 0 0 0 0 0 0 0 0 0 0 0 0 0
725 725 726 742 764 786 805 821 837 853 874 895 916 932 943 947 960 977 1000 1018 1028 1036 1039 1043 1048 1048 1048 1044 1028 0 0 0 0 0 777 752 752 752 757 763 764 764 765 769 770 771 774 779 780 780 785 790 793 795 799 804 808 810 812 815 818 819 822 824 824 826 827 828 829 830 830 832 832 833 833 833 832 832 832 832 833 834 834 834 834 834 834 834 836 838 838 838 0 0 0 0 0 0 0 0 0 0 0 0 0 836 836 833 828 814 787 784 771 764 759 756 756 756 756 756 756 754 754 754 755 757 758 760 762 762 762 760 760 760 764 766 767 767 768 770 777 780 780 780 773 769 769 769 778 782 783 787 793 805 812 812 813 815 827 827 827 826 823 816 816 816 818 822 822 822 816 816 814 810 808 808 808 809 812 814 814 814 813 813 811 810 810 810 811 811 811 811 811 811 810 809 809 809 815 815 815 816 816 816 816 0 0 0 0 0 0 0 0 0 0 0 0 0 0 0 0 0 0 0 0 0 0 0 0 0 0 0 0 0 0 0 0 0 0 0 0 0 0 0 0 0 0 0 0 0 0 864 865 864 864 864 859 849 845 0 0 0 0 0 0 0 0 0 0 0 0 0 0 0 0 0 0 0 0 0 0 0 0 0 0 0 0 0 0 0 0 0 0 0 0 0 0 0 0 0 867 864 863 850 848 848 848 849 852 852 852 851 849 849 848 848 847 846 845 844 843 843 843 844 845 846 846 846 848 850 851 853 854 854 854 852 851 848 840 832 832 832 846 860 868 868 0 0 0 0 0 0 0 0 0 0 0 0 0 884 884 884 882 881 881 881 872 865 861 858 858 852 846 839 837 837 836 836 836 837 838 839 839 839 840 842 858 860 861 873 890 891 0 0 0 0 0 0 0 0 0 0 0 0 0 0 0 0 0 0 0 0 0 0 0 0 0 0 0 0 0 0 0 0 0 0 0 0 908 907 907 907 906 903 903 899 893 889 884 881 881 881 884 886 890 891 892 893 894 895 897 897 895 895 893 893 893 898 903 904 908 909 910 911 914 916 917 917 918 918 919 919 919 919 917 917 916 913 911 910 905 899 897 896 896 889 884 879 878 878 878 878 878 876 874 871 868 868 868 866 865 865 865 863 862 862 862 863 866 867 869 872 875 883 888 895 899 906 916 917 919 925 930 932 933 935 937 938 939 940 940 941 941 942 942 942 943 943 943 943 943 943 944 944 944 945 945 945 945 946 946 947 948 948 948 949 950 950 950 950 950 950 950 950 950 951 951 951 951 951 951 951 951 951 951 951 952 952 953 953 953 953 953 953 953 952 952 952 952 952 952 950 944 943 939 0 0 0 0 0 0 0 0 0 0 0 0 0 0 0 0 0 0 0 0 0 0 0 0 0 0 0 0 0 0 0 0 0 0 0 0 0 0 0 0 0 0 0 0 0
725 725 728 742 765 787 805 822 838 855 875 897 917 932 945 948 961 978 1002 1020 1030 1037 1041 1046 1050 1050 1050 1046 1030 0 0 0 0 0 0 778 757 757 757 759 759 759 759 759 767 768 771 775 777 779 784 788 790 792 798 802 805 808 811 814 816 819 820 821 823 824 826 827 828 829 830 831 832 832 832 832 831 831 831 831 833 833 833 833 834 834 834 834 836 836 836 0 0 0 0 0 0 0 0 0 0 0 0 0 0 0 834 833 828 821 808 787 771 764 759 756 752 752 752 752 752 753 753 753 753 755 756 757 761 761 761 760 760 760 764 769 770 771 771 773 777 780 780 780 773 772 772 772 781 787 790 793 794 803 812 812 813 816 822 822 822 820 818 812 811 811 811 816 816 816 812 810 810 808 806 806 806 809 811 812 812 812 812 812 810 808 808 808 809 810 811 811 811 811 811 809 809 809 815 815 815 815 815 815 831 0 0 0 0 0 0 0 0 0 0 0 0 0 0 0 0 0 0 0 0 0 0 0 0 0 0 0 0 0 0 0 0 0 0 0 0 0 0 0 0 0 0 0 0 0 0 862 862 864 864 864 859 850 0 0 0 0 0 0 0 0 0 0 0 0 0 0 0 0 0 0 0 0 0 0 0 0 0 0 0 0 0 0 0 0 0 0 0 0 0 0 0 0 0 0 0 865 865 852 851 851 851 854 854 854 854 851 849 849 849 849 847 847 846 845 845 844 844 844 845 845 846 846 846 849 850 851 851 851 850 850 848 847 840 840 840 840 846 860 862 868 868 0 0 0 0 0 0 0 0 0 889 886 885 883 883 877 877 871 865 864 861 861 861 856 853 843 839 837 835 835 833 833 833 834 835 836 836 837 837 841 850 855 856 863 883 891 891 0 0 0 0 0 0 0 0 0 0 0 0 0 0 0 0 0 0 0 0 0 0 0 0 0 0 0 0 0 0 0 0 0 0 0 0 907 907 906 906 904 903 900 894 889 884 880 880 880 883 885 890 892 897 897 898 897 898 898 895 895 895 895 897 904 909 911 915 916 916 916 917 918 918 918 918 919 919 919 919 919 918 917 916 914 913 911 905 898 897 894 887 884 882 877 877 877 877 877 877 876 874 871 868 868 868 866 865 865 865 863 863 863 864 864 865 867 869 869 870 871 876 881 885 892 905 916 918 923 927 930 933 935 936 937 938 939 939 940 940 940 941 941 941 942 942 942 942 943 943 943 943 943 944 944 944 944 946 946 947 947 948 949 949 949 950 950 950 950 950 950 950 950 950 950 950 951 951 951 951 951 951 951 951 952 952 952 953 953 953 953 953 952 952 951 951 951 951 950 945 944 940 933 913 0 0 0 0 0 0 0 0 0 0 0 0 0 0 0 0 0 0 0 0 0 0 0 0 0 0 0 0 0 0 0 0 0 0 0 0 0 0 0 0 0 0 0
730 730 731 747 775 795 813 825 838 858 879 902 920 934 947 950 964 983 1003 1022 1035 1043 1050 1056 1061 1066 1066 1066 1066 1065 0 0 0 0 0 0 775 761 758 758 759 759 759 759 765 767 769 772 774 779 784 786 790 792 797 800 803 807 809 812 815 817 819 821 822 824 825 826 827 828 829 830 830 831 831 831 831 831 831 831 833 833 833 833 833 833 834 834 836 836 0 0 0 0 0 0 0 0 0 0 0 0 0 0 0 0 0 833 828 822 818 798 774 765 759 756 752 748 748 748 749 749 749 749 749 752 755 757 760 760 760 760 760 760 764 769 773 773 774 774 777 780 780 780 778 778 778 778 783 787 790 0 0 0 0 0 0 0 822 822 822 820 817 812 811 810 808 807 805 805 805 805 805 805 805 805 806 808 811 812 812 812 811 810 809 807 807 807 808 809 811 811 812 813 813 813 813 813 815 815 815 815 815 815 828 842 0 0 0 0 0 0 0 0 0 0 0 0 0 0 0 0 0 0 0 0 0 0 0 0 0 0 0 0 0 0 0 0 0 0 0 0 0 0 0 0 0 0 0 0 0 860 861 863 863 863 0 0 0 0 0 0 0 0 0 0 0 0 0 0 0 0 0 0 0 0 0 0 0 0 0 0 0 0 0 0 0 0 0 0 0 0 0 0 0 0 0 0 0 0 0 871 871 865 853 853 853 855 855 855 854 852 851 850 850 849 848 847 847 847 846 846 846 846 846 845 845 845 845 847 847 847 847 847 846 845 844 842 839 839 839 843 846 847 852 861 863 877 0 0 0 0 0 878 889 889 889 886 883 883 877 872 864 860 860 860 858 858 858 855 851 837 835 835 834 831 831 831 831 831 833 833 834 834 835 841 843 850 850 861 883 884 884 0 0 0 0 0 0 0 0 0 0 0 0 0 0 0 0 0 0 0 0 0 0 0 0 0 0 0 0 0 0 0 0 0 0 0 0 0 906 906 906 904 903 900 894 891 884 880 880 880 882 885 890 892 898 898 898 899 898 898 897 895 895 895 906 908 910 913 916 916 917 917 918 918 918 918 918 919 919 919 920 920 920 918 916 915 914 911 907 906 897 895 880 875 872 872 872 875 876 876 876 875 874 871 868 868 868 868 868 866 865 864 864 864 864 865 865 865 867 868 869 871 876 879 879 884 904 914 917 922 925 929 932 934 936 936 937 938 938 939 939 939 939 940 940 941 941 941 942 942 942 942 943 943 943 943 944 944 944 945 946 947 947 948 948 949 949 949 950 950 950 950 950 950 950 950 950 950 950 950 950 950 950 951 951 951 951 952 952 952 953 953 953 952 952 951 951 951 951 948 945 944 940 933 913 902 0 0 0 0 0 0 0 0 0 0 0 0 0 0 0 0 0 0 0 0 0 0 0 0 0 0 0 0 0 0 0 0 0 0 0 0 0 0 0 0 0 0
735 735 737 761 784 803 819 830 845 865 887 906 922 937 949 953 965 983 1003 1022 1036 1046 1054 1061 1067 1072 1075 1075 1078 1078 1078 0 0 0 0 0 0 780 761 761 759 759 759 759 764 766 769 770 772 777 781 785 787 791 796 799 801 805 808 811 813 815 817 819 821 823 825 826 826 827 828 829 830 830 830 830 830 830 830 830 831 832 833 833 833 833 833 834 835 0 0 0 0 0 0 0 0 0 0 0 0 0 0 0 0 0 0 828 828 826 818 804 778 767 759 756 752 748 745 744 744 744 744 744 746 751 755 756 759 760 760 762 762 762 764 769 777 777 778 780 780 789 789 789 789 788 783 783 0 0 0 0 0 0 0 0 0 0 0 822 822 812 809 809 803 802 798 796 796 796 797 798 800 802 802 804 805 808 811 811 811 810 809 808 807 807 807 807 808 809 810 811 812 813 814 814 814 815 815 815 815 815 815 815 826 838 838 0 0 0 0 0 0 0 0 0 0 0 0 0 0 0 0 0 0 0 0 0 0 0 0 0 0 0 0 0 0 0 0 0 0 0 0 0 0 0 0 0 0 0 859 859 860 862 862 862 0 0 0 0 0 0 0 0 0 0 0 0 0 0 0 0 0 0 0 0 0 0 0 0 0 0 0 0 0 0 0 0 0 0 0 0 0 0 0 0 0 0 0 0 0 871 871 866 853 853 853 855 855 855 854 853 852 850 850 850 849 849 848 848 848 847 847 846 846 845 845 845 845 846 846 846 844 843 843 843 842 842 839 839 839 846 846 846 846 846 862 872 875 875 875 875 875 878 889 889 889 886 878 874 859 858 857 855 855 855 854 853 853 852 847 832 831 831 831 831 830 828 828 828 831 832 832 833 834 838 842 842 845 859 883 883 885 0 0 0 0 0 0 0 0 0 0 0 0 0 0 0 0 0 0 0 0 0 0 0 0 0 0 0 0 0 0 0 0 0 0 0 0 0 905 905 904 904 903 900 895 894 889 888 882 882 882 883 890 891 898 898 898 897 897 897 897 896 901 902 906 911 912 916 918 918 918 918 918 918 919 919 919 919 919 919 920 920 920 920 919 917 915 911 908 907 897 895 880 875 869 869 869 871 873 873 873 873 873 871 870 870 869 869 868 866 865 865 865 865 865 865 865 865 867 867 868 871 876 878 879 879 900 914 915 920 925 927 932 933 934 935 936 937 938 938 938 938 939 939 940 940 941 941 941 941 941 941 941 942 942 943 943 944 944 945 945 946 947 947 948 948 948 949 949 949 949 949 949 949 950 950 950 950 950 950 950 950 950 951 951 951 951 951 952 952 952 952 952 952 952 951 951 951 949 949 949 948 940 933 913 902 889 0 0 0 0 0 0 0 0 0 0 0 0 0 0 0 0 0 0 0 0 0 0 0 0 0 0 0 0 0 0 0 0 0 0 0 0 0 0 0 0 0
740 740 742 766 791 811 827 840 856 875 895 910 928 939 951 954 965 983 1003 1022 1036 1049 1057 1065 1072 1075 1076 1077 1089 1090 1090 1090 0 0 0 0 0 0 0 763 761 761 761 761 764 766 768 769 770 777 779 782 784 789 794 796 801 804 807 809 811 814 817 818 820 822 823 824 825 826 826 827 829 829 829 829 829 829 830 830 831 832 832 832 832 832 832 832 832 0 0 0 0 0 0 0 0 0 0 0 0 0 0 0 0 0 0 827 827 826 819 808 796 771 766 757 753 748 745 743 739 738 738 739 743 749 754 756 759 759 761 761 761 763 768 772 778 778 780 783 783 791 791 791 789 0 0 0 0 0 0 0 0 0 0 0 0 0 0 827 827 811 809 809 803 799 794 794 794 796 797 798 799 800 801 802 804 806 807 807 807 807 807 806 806 806 806 806 807 808 809 810 812 813 814 815 815 816 816 816 816 817 818 818 825 837 837 0 0 0 0 0 0 0 0 0 0 0 0 0 0 0 0 0 0 0 0 0 0 0 0 0 0 0 0 0 0 0 0 0 0 0 0 0 0 0 0 0 0 860 860 860 854 854 858 858 0 0 0 0 0 0 0 0 0 0 0 0 0 0 0 0 0 0 0 0 0 0 0 0 0 0 0 0 0 0 0 0 0 0 0 0 0 0 0 0 0 0 0 0 0 0 871 869 859 855 855 855 855 855 855 853 852 850 850 850 850 850 850 849 849 849 848 847 846 845 845 845 845 845 845 845 844 843 843 843 842 842 839 839 839 846 846 846 846 846 852 872 875 875 875 875 873 872 872 872 866 866 861 858 856 856 855 855 853 850 848 846 845 844 839 831 829 829 829 829 828 826 826 826 830 831 831 832 832 834 836 837 841 853 876 879 879 885 0 0 0 0 0 0 0 0 0 0 0 0 0 0 0 0 0 0 0 0 0 0 0 0 0 0 0 0 0 0 0 0 0 0 0 0 905 905 905 905 903 900 897 895 891 890 890 883 883 883 889 891 895 896 897 897 897 899 899 899 901 902 906 912 912 917 920 920 920 919 919 919 919 919 919 919 919 919 919 920 920 920 920 919 915 911 908 907 897 895 880 875 869 865 865 865 868 869 871 871 871 870 870 870 869 869 868 866 866 866 868 868 868 866 866 866 867 867 868 871 877 877 879 879 887 902 911 919 925 927 931 931 933 934 935 936 936 937 937 937 938 938 939 939 939 940 940 940 940 940 940 940 940 941 942 942 944 944 945 946 946 947 947 947 948 948 948 948 949 949 949 949 949 949 949 949 949 949 950 950 950 950 950 950 950 951 951 951 951 951 952 952 952 951 950 949 949 949 950 950 950 934 907 905 898 875 0 0 0 0 0 0 0 0 0 0 0 0 0 0 0 0 0 0 0 0 0 0 0 0 0 0 0 0 0 0 0 0 0 0 0 0 0 0 0 0
743 743 745 768 792 815 831 846 863 885 902 917 931 941 951 955 965 978 1000 1020 1036 1050 1062 1071 1077 1078 1080 1082 1096 1098 1116 1116 1116 0 0 0 0 0 0 0 772 762 761 759 759 759 761 767 769 777 779 780 784 788 791 794 798 804 806 809 811 813 815 817 819 821 822 823 824 825 825 826 827 828 828 828 829 829 829 829 828 828 828 828 828 830 830 830 0 0 0 0 0 0 0 0 0 0 0 0 0 0 0 0 0 0 0 0 825 824 820 809 797 780 773 764 756 753 751 743 737 737 737 737 742 749 754 756 757 759 761 761 761 763 768 772 778 784 784 784 784 784 0 0 0 0 0 0 0 0 0 0 0 0 0 0 0 0 0 827 827 811 809 809 803 799 793 793 793 795 796 796 798 798 798 799 801 801 803 803 803 803 804 804 804 804 804 805 806 808 809 810 811 812 814 815 815 816 816 817 818 818 819 820 825 833 833 0 0 0 0 0 0 0 0 0 0 0 0 0 0 0 0 0 0 0 0 0 0 0 0 0 0 0 0 0 0 0 0 0 0 0 0 0 0 0 854 857 857 857 853 851 851 851 851 856 0 0 0 0 0 0 0 0 0 0 0 0 0 0 0 0 0 0 0 0 0 0 0 0 0 0 0 0 0 0 0 0 0 0 0 0 0 0 0 0 0 0 0 0 0 0 0 869 860 855 855 855 856 856 856 855 852 851 851 851 851 851 851 850 850 850 849 847 846 846 846 845 845 845 845 845 844 843 843 843 843 843 841 841 841 849 849 849 849 849 851 864 870 872 872 870 870 862 862 859 857 857 855 849 847 847 847 847 847 841 841 838 837 837 835 831 828 826 826 826 825 825 825 825 826 828 828 828 828 829 830 833 834 843 867 867 868 885 885 0 0 0 0 0 0 0 0 0 0 0 0 0 0 0 0 0 0 0 0 0 0 0 0 0 0 0 0 0 0 0 0 0 0 0 0 904 903 903 903 901 900 898 893 892 891 885 885 885 889 889 890 890 895 899 904 904 904 903 0 0 0 913 915 917 920 920 920 920 919 919 919 919 919 919 918 918 918 920 920 920 920 919 915 912 909 906 898 895 890 877 871 865 865 865 868 869 871 871 871 870 870 870 869 869 868 865 865 865 868 868 868 866 866 866 867 867 870 876 879 879 879 879 879 887 895 915 924 927 931 931 932 932 934 934 935 936 936 937 937 937 938 939 939 939 939 939 939 940 940 940 940 941 941 942 943 944 945 945 946 947 947 947 947 948 948 948 948 948 948 948 948 948 948 949 949 949 949 949 949 950 949 950 950 950 950 950 950 950 950 950 950 950 950 949 949 949 952 952 952 934 907 899 890 875 0 0 0 0 0 0 0 0 0 0 0 0 0 0 0 0 0 0 0 0 0 0 0 0 0 0 0 0 0 0 0 0 0 0 0 0 0 0 0 0
747 747 748 771 794 816 832 848 867 890 907 922 934 944 951 955 965 978 1000 1020 1037 1051 1066 1079 1086 1092 1103 1109 1117 1120 1126 1126 1126 1118 0 0 0 0 0 0 0 780 766 760 759 758 758 759 769 777 779 780 784 788 790 794 798 802 806 809 810 812 814 816 818 819 820 822 823 824 825 825 826 827 827 827 828 828 828 827 824 824 824 827 827 828 830 830 0 0 0 0 0 0 0 0 0 0 0 0 0 0 0 0 0 0 0 0 0 821 819 813 799 787 777 767 761 753 751 748 737 737 737 737 742 749 755 756 757 759 761 761 761 766 769 776 786 786 786 784 784 0 0 0 0 0 0 0 0 0 0 0 0 0 0 0 0 0 0 829 829 816 812 809 806 799 793 792 792 792 792 792 793 796 796 797 799 799 799 800 800 800 802 803 804 804 804 804 806 808 809 810 811 812 813 814 815 816 816 818 818 820 820 820 819 819 819 819 0 0 0 0 0 0 0 0 0 0 0 0 0 0 0 0 0 0 0 0 0 0 0 0 0 0 0 0 0 0 0 0 0 0 0 0 0 854 854 857 857 857 852 848 848 848 850 850 0 0 0 0 0 0 0 0 0 0 0 0 0 0 0 0 0 0 0 0 0 0 0 0 0 0 0 0 0 0 0 0 0 0 0 0 0 0 0 0 0 0 0 0 0 0 0 0 863 856 856 856 856 856 856 856 853 852 852 852 852 853 853 853 852 852 851 848 847 846 846 845 845 845 845 845 845 845 845 845 843 843 842 842 842 850 850 850 850 850 851 864 867 869 869 869 869 855 855 855 850 850 845 842 842 842 842 842 842 838 834 833 831 831 831 828 826 824 823 822 821 821 821 822 823 824 825 825 825 825 825 825 826 827 839 847 860 885 885 0 0 0 0 0 0 0 0 0 0 0 0 0 0 0 0 0 0 0 0 0 0 0 0 0 0 0 0 0 0 0 0 0 0 0 0 0 0 901 901 902 902 902 902 902 901 891 891 891 890 886 890 890 893 895 896 899 901 901 0 0 0 913 918 920 920 920 920 920 919 919 919 918 918 916 915 915 915 918 920 920 920 919 915 912 910 906 902 896 892 881 872 867 867 867 868 869 871 871 871 871 870 869 869 867 866 863 863 863 868 868 868 866 866 866 868 870 875 878 879 879 879 879 879 886 889 900 921 927 930 930 932 932 932 933 934 935 936 936 936 937 937 937 938 938 938 938 938 939 939 939 939 940 941 942 943 944 944 945 945 946 947 947 947 947 947 947 948 948 948 948 948 948 948 948 949 949 949 949 949 949 949 949 949 949 949 949 949 949 949 949 949 949 949 948 948 948 952 952 952 934 907 895 889 875 0 0 0 0 0 0 0 0 0 0 0 0 0 0 0 0 0 0 0 0 0 0 0 0 0 0 0 0 0 0 0 0 0 0 0 0 0 0 0 0
750 750 753 776 799 819 835 852 871 890 908 923 935 946 955 958 965 978 1000 1020 1037 1054 1070 1084 1095 1104 1110 1115 1119 1122 1126 1126 1126 1125 1109 0 0 0 0 0 0 0 776 760 758 758 758 758 768 777 780 780 785 788 790 794 797 801 806 807 809 812 813 815 817 818 819 821 822 823 823 824 824 825 826 826 827 827 827 826 824 824 824 826 826 827 829 0 0 0 0 0 0 0 0 0 0 0 0 0 0 0 0 0 0 0 0 0 0 0 819 813 808 792 777 769 761 753 751 748 744 744 742 742 742 748 755 756 757 763 768 768 769 772 772 783 786 786 0 0 0 0 0 0 0 0 0 0 0 0 0 0 0 0 0 0 0 0 0 829 829 829 825 819 812 800 793 787 785 785 785 785 787 793 794 795 799 799 799 799 799 799 800 802 803 803 804 804 806 808 809 810 811 812 812 814 815 816 816 818 818 820 820 820 817 817 817 815 0 0 0 0 0 0 0 0 0 0 0 0 0 0 0 0 0 0 0 0 0 0 0 0 0 0 0 0 0 0 0 0 0 0 850 853 853 854 854 854 854 854 851 846 846 846 846 848 0 0 0 0 0 0 0 0 0 0 0 0 0 0 0 0 0 0 0 0 0 0 0 0 0 0 0 0 0 0 0 0 0 0 0 0 0 0 0 0 0 0 0 0 0 0 0 0 865 865 865 858 858 856 856 856 855 853 853 853 853 853 855 855 855 855 853 849 848 847 846 846 846 846 855 855 855 848 848 848 844 844 844 844 844 850 850 850 0 0 0 0 0 868 868 867 867 845 835 835 835 837 837 837 837 836 835 835 835 831 828 827 827 827 826 826 823 821 820 819 818 818 818 818 820 820 821 822 822 822 822 822 823 825 834 843 860 885 885 0 0 0 0 0 0 0 0 0 0 0 0 0 0 0 0 0 0 0 0 0 0 0 0 0 0 0 0 0 0 0 0 0 0 0 0 0 0 900 900 902 902 902 902 902 901 895 892 891 0 0 0 0 0 0 0 0 0 904 904 905 908 914 919 921 921 921 920 919 919 918 917 917 917 916 915 915 915 915 917 918 918 918 914 912 910 906 902 899 893 882 873 867 867 867 868 871 874 874 874 872 871 869 868 863 863 862 862 862 867 867 867 868 868 868 869 871 875 878 878 878 871 871 871 879 886 900 921 927 928 929 930 932 932 932 933 934 935 935 935 936 936 936 937 937 937 937 937 937 938 939 939 939 940 941 942 942 944 944 945 945 946 946 946 946 947 947 947 947 948 948 948 948 948 948 949 949 949 949 949 949 949 949 949 949 949 948 948 948 948 947 947 946 944 944 944 948 950 950 950 922 903 890 889 0 0 0 0 0 0 0 0 0 0 0 0 0 0 0 0 0 0 0 0 0 0 0 0 0 0 0 0 0 0 0 0 0 0 0 0 0 0 0 0 0
756 756 759 779 803 823 840 858 879 896 909 923 936 950 959 962 965 990 1009 1026 1043 1061 1080 1094 1103 1112 1116 1117 1119 1122 1126 1126 1126 1125 1110 1102 0 0 0 0 0 0 0 767 758 758 758 758 768 777 781 782 785 788 790 794 797 800 804 806 808 810 812 814 816 817 818 820 821 821 822 822 823 824 824 824 826 826 826 826 824 824 824 0 0 0 0 0 0 0 0 0 0 0 0 0 0 0 0 0 0 0 0 0 0 0 0 0 0 0 819 819 813 792 777 769 761 753 753 749 748 744 744 744 744 748 762 767 777 777 777 775 772 772 772 0 0 0 0 0 0 0 0 0 0 0 0 0 0 0 0 0 0 0 0 0 0 0 0 0 827 827 827 820 812 800 791 784 784 784 784 784 787 788 792 794 797 797 797 797 797 797 799 799 800 802 803 804 805 808 809 810 811 811 812 813 815 815 816 818 818 818 818 818 814 814 814 820 0 0 0 0 0 0 0 0 0 0 0 0 0 0 0 0 0 0 0 0 0 0 0 0 0 0 0 0 0 0 0 0 0 843 846 847 847 847 847 847 847 846 844 844 844 844 846 851 0 0 0 0 0 0 0 0 0 0 0 0 0 0 0 0 0 0 0 0 0 0 0 0 0 0 0 0 0 0 0 0 0 0 0 0 0 0 0 0 0 0 0 0 0 0 0 0 865 865 865 861 858 858 856 856 855 854 853 853 853 855 857 859 859 859 857 851 848 848 847 847 847 847 855 855 855 848 848 848 846 846 850 849 849 0 0 0 0 0 0 0 0 0 867 867 867 845 832 830 830 830 833 833 833 832 831 830 830 828 827 824 823 823 822 822 822 820 819 819 818 817 817 817 818 818 819 819 820 820 820 820 820 825 833 839 860 878 878 880 0 0 0 0 0 0 0 0 0 0 0 0 0 0 0 0 0 0 0 0 0 0 0 0 0 0 0 0 0 0 0 0 0 0 0 0 0 900 900 901 901 902 902 902 901 898 894 891 0 0 0 0 0 0 0 0 0 0 904 905 908 917 920 921 921 921 918 917 917 917 917 917 917 916 915 915 915 915 915 915 914 914 912 912 910 906 902 899 895 886 878 874 874 874 874 876 876 876 874 871 871 869 868 863 858 858 858 859 863 866 866 867 868 868 869 871 875 878 878 878 871 871 871 877 886 899 918 926 927 927 928 930 931 932 932 934 934 934 934 935 935 935 936 936 936 936 937 937 938 938 938 939 940 941 942 942 943 943 944 945 946 946 946 946 946 946 947 947 947 948 948 948 948 948 948 948 949 949 949 949 948 948 948 948 948 948 948 946 946 945 945 945 941 935 935 934 934 934 934 922 903 890 0 0 0 0 0 0 0 0 0 0 0 0 0 0 0 0 0 0 0 0 0 0 0 0 0 0 0 0 0 0 0 0 0 0 0 0 0 0 0 0 0 0
759 759 760 783 803 824 845 863 882 900 910 924 939 954 967 971 993 1013 1029 1042 1061 1077 1094 1101 1108 1113 1118 1120 1120 1123 1127 1127 1127 1125 1110 1103 1087 0 0 0 0 0 0 774 759 758 758 759 768 777 782 782 785 788 791 795 797 800 802 805 807 809 811 813 815 816 817 819 820 820 821 821 822 822 823 824 824 824 824 821 0 0 0 0 0 0 0 0 0 0 0 0 0 0 0 0 0 0 0 0 0 0 0 0 0 0 0 0 0 0 814 814 814 792 775 770 761 753 753 749 748 746 746 746 746 755 766 784 784 784 778 775 0 0 0 0 0 0 0 0 0 0 0 0 0 0 0 0 0 0 0 0 0 0 0 0 0 0 0 0 0 828 828 824 812 800 789 784 784 782 784 784 784 786 789 792 792 793 793 794 795 796 798 798 799 799 801 803 805 807 808 810 811 811 811 812 813 813 815 816 818 818 818 818 814 814 814 819 826 0 0 0 0 0 0 0 0 0 0 0 0 0 0 0 0 0 0 0 0 0 0 0 0 0 0 0 0 0 848 847 843 842 842 842 844 844 844 844 842 842 841 840 841 842 846 848 848 0 0 0 0 0 0 0 0 0 0 0 0 0 0 0 0 0 0 0 0 0 0 0 0 0 0 0 0 0 0 0 0 0 0 0 0 0 0 0 0 0 0 0 0 0 0 0 0 864 864 861 861 857 856 856 854 854 854 854 854 856 859 863 863 863 859 854 849 848 848 848 848 849 855 855 855 851 851 851 846 846 851 849 0 0 0 0 0 0 0 0 0 0 0 866 864 845 832 830 830 830 833 833 833 832 830 830 829 828 827 824 820 819 819 819 819 819 819 818 818 817 817 817 818 818 819 819 819 819 819 819 819 822 827 833 860 867 873 879 873 0 0 0 0 0 0 0 0 0 0 0 0 0 0 0 0 0 0 0 0 0 0 0 0 0 0 0 0 0 0 0 0 0 0 0 0 896 898 899 899 901 901 901 897 897 896 896 0 0 0 0 0 0 0 0 0 0 0 905 908 917 919 919 919 919 917 915 915 915 917 917 917 917 916 915 915 914 914 914 913 912 911 911 910 906 904 901 897 893 891 885 878 878 877 877 877 876 874 872 872 871 868 863 858 858 858 859 861 863 866 866 866 868 869 871 873 874 874 873 871 871 871 874 886 897 911 920 924 926 928 930 930 931 931 933 933 934 934 934 934 935 935 935 935 935 936 937 937 937 938 938 940 941 941 942 943 943 944 944 945 945 945 946 946 946 946 946 947 947 948 948 948 948 948 948 948 948 948 948 948 948 948 948 948 948 946 945 945 943 941 940 932 915 915 915 931 931 0 0 0 0 0 0 0 0 0 0 0 0 0 0 0 0 0 0 0 0 0 0 0 0 0 0 0 0 0 0 0 0 0 0 0 0 0 0 0 0 0 0 0 0 0 0
759 759 760 785 805 826 845 863 882 900 915 927 942 958 978 983 1005 1021 1040 1058 1078 1092 1102 1106 1109 1113 1119 1122 1124 1125 1127 1127 1127 1118 1113 1103 1091 1071 0 0 0 0 0 0 767 766 766 767 768 777 782 784 786 788 791 795 798 799 802 804 807 808 811 812 814 815 816 818 818 819 819 820 820 820 820 822 822 822 820 819 0 0 0 0 0 0 0 0 0 0 0 0 0 0 0 0 0 0 0 0 0 0 0 0 0 0 0 0 0 0 0 815 815 792 775 771 761 753 753 751 751 751 755 755 756 758 777 784 0 0 0 0 0 0 0 0 0 0 0 0 0 0 0 0 0 0 0 0 0 0 0 0 0 0 0 0 0 0 0 0 0 828 828 825 812 798 788 785 782 781 781 783 783 786 788 790 791 791 792 792 794 794 797 798 798 799 800 802 804 806 807 809 809 809 811 811 811 812 813 814 815 817 817 817 814 811 811 811 819 819 0 0 0 0 0 0 0 0 0 0 0 0 0 0 0 0 0 0 0 0 0 0 0 0 0 852 852 852 848 847 843 841 841 841 841 841 841 841 841 841 840 840 841 841 842 847 847 848 0 0 0 0 0 0 0 0 0 0 0 0 0 0 0 0 0 0 0 0 0 0 0 0 0 0 0 0 0 0 0 0 0 0 0 0 0 0 0 0 0 0 0 0 0 0 0 0 864 862 861 857 856 855 855 855 855 855 855 857 860 863 863 863 859 855 849 849 849 854 854 854 854 854 849 848 848 851 847 0 0 0 0 0 0 0 0 0 0 0 0 0 0 0 864 859 842 832 832 832 833 833 833 831 829 828 828 828 827 824 820 818 818 818 818 818 818 818 817 817 817 817 817 817 817 817 817 817 817 817 819 822 827 833 860 860 864 870 864 0 0 0 0 0 0 0 0 0 0 0 0 0 0 0 0 0 0 0 0 0 0 0 0 0 0 0 0 0 0 0 0 0 0 0 0 891 891 894 896 896 896 896 896 898 895 895 0 0 0 0 0 0 0 0 0 0 0 0 0 0 0 0 0 0 0 0 0 0 0 0 0 915 915 915 914 914 913 913 913 912 911 911 909 908 906 904 902 898 898 893 882 879 878 877 877 875 872 872 872 871 871 866 858 858 858 859 861 861 864 865 866 866 868 869 870 871 873 873 873 873 878 878 883 895 907 919 923 923 924 925 929 930 930 931 932 933 933 933 933 933 934 934 935 935 935 936 936 937 937 938 938 940 941 941 942 943 944 944 944 945 945 945 945 946 946 946 947 947 947 948 948 948 948 948 948 948 948 947 947 947 948 948 948 947 946 945 945 941 933 924 916 907 907 0 0 0 0 0 0 0 0 0 0 0 0 0 0 0 0 0 0 0 0 0 0 0 0 0 0 0 0 0 0 0 0 0 0 0 0 0 0 0 0 0 0 0 0 0 0 0 0 0
760 760 762 786 806 826 845 863 882 900 915 927 946 962 987 991 1015 1035 1048 1063 1078 1092 1102 1107 1109 1114 1119 1123 1127 1128 1128 1128 1124 1118 1113 1105 1097 1084 1062 0 0 0 0 0 0 784 769 769 769 777 783 784 786 788 791 795 798 800 802 804 805 808 809 811 812 813 815 816 817 818 818 819 820 820 820 821 821 821 818 817 0 0 0 0 0 0 0 0 0 0 0 0 0 0 0 0 0 0 0 0 0 0 0 0 0 0 0 0 0 0 0 816 816 802 775 772 761 758 758 758 760 761 767 767 772 777 778 784 0 0 0 0 0 0 0 0 0 0 0 0 0 0 0 0 0 0 0 0 0 0 0 0 0 0 0 0 0 0 0 0 0 827 827 824 812 798 788 785 784 783 783 783 783 785 787 788 790 791 792 792 793 793 795 797 797 797 799 801 804 805 807 808 808 808 808 809 810 810 810 811 812 813 814 814 814 811 811 811 819 819 0 0 0 0 0 0 0 0 0 0 0 0 0 0 0 0 0 0 0 0 0 0 0 0 852 852 852 850 845 844 841 841 841 841 841 841 837 837 837 838 838 838 837 837 837 844 845 847 847 0 0 0 0 0 0 0 0 0 0 0 0 0 0 0 0 0 0 0 0 0 0 0 0 0 0 0 0 0 0 0 0 0 0 0 0 0 0 0 0 0 0 0 0 0 0 0 0 862 862 859 856 856 855 855 856 856 859 859 860 863 863 863 860 855 853 853 853 854 856 856 854 854 849 848 0 0 0 0 0 0 0 0 0 0 0 0 0 0 0 0 0 0 864 864 856 846 838 836 836 835 833 831 828 828 827 827 827 824 820 818 818 818 818 818 818 818 817 817 817 817 817 817 817 817 816 816 816 816 818 818 822 828 836 837 847 848 863 0 0 0 0 0 0 0 0 0 0 0 0 0 0 0 0 0 0 0 0 0 0 0 0 0 0 0 0 0 0 0 898 898 898 894 890 890 887 887 887 887 887 893 895 896 896 896 0 0 0 0 0 0 0 0 0 0 0 0 0 0 0 0 0 0 0 0 0 0 0 0 0 915 915 915 914 913 912 912 912 911 910 909 908 908 908 907 904 899 898 893 883 879 878 878 876 872 872 872 872 872 872 868 863 862 862 861 862 862 862 863 863 864 866 867 869 870 872 875 875 877 879 879 883 895 905 915 920 921 922 924 926 928 928 931 931 932 932 933 933 933 933 934 934 934 935 935 935 936 937 938 938 940 941 941 942 942 942 943 944 944 945 945 945 945 946 946 946 946 947 947 947 947 947 947 947 947 947 946 946 946 946 946 946 946 945 943 943 939 927 917 916 904 883 0 0 0 0 0 0 0 0 0 0 0 0 0 0 0 0 0 0 0 0 0 0 0 0 0 0 0 0 0 0 0 0 0 0 0 0 0 0 0 0 0 0 0 0 0 0 0 0 0
764 764 766 789 806 826 845 863 882 898 915 927 949 969 998 1003 1023 1040 1052 1064 1078 1092 1102 1108 1112 1116 1121 1126 1128 1129 1129 1129 1124 1118 1114 1112 1109 1101 1084 0 0 0 0 0 0 0 783 779 779 779 783 784 787 788 792 796 799 800 802 803 805 807 809 810 811 812 813 814 815 817 817 818 820 820 820 821 821 821 817 817 0 0 0 0 0 0 0 0 0 0 0 0 0 0 0 0 0 0 0 0 0 0 0 0 0 0 0 0 0 0 0 816 816 814 797 778 773 773 773 773 773 773 772 772 772 0 0 0 0 0 0 0 0 0 0 0 0 0 0 0 0 0 0 0 0 0 0 0 0 0 0 0 0 0 0 0 0 0 0 0 0 0 828 825 818 798 788 785 784 783 781 781 781 782 786 788 789 791 792 792 792 793 794 796 797 797 798 801 803 805 806 807 807 807 807 807 807 807 808 809 809 810 813 813 813 810 810 810 817 829 0 0 0 0 0 0 0 0 0 0 0 0 0 0 0 0 0 0 0 0 0 844 845 844 840 841 841 841 841 841 841 841 841 840 834 832 832 832 835 837 837 837 836 831 831 831 836 839 839 0 0 0 0 0 0 0 0 0 0 0 0 0 0 0 0 0 0 0 0 0 0 0 0 0 0 0 0 0 0 0 0 0 0 0 0 0 0 0 0 0 0 0 0 0 0 0 0 861 861 857 856 856 856 856 857 859 859 859 860 863 863 863 860 856 856 856 857 859 859 859 856 851 847 0 0 0 0 0 0 0 0 0 0 0 0 0 0 0 0 0 0 0 864 864 863 855 845 844 840 836 832 828 828 828 827 827 827 824 820 818 818 818 817 817 817 817 817 817 817 817 817 817 817 816 815 815 815 815 815 814 814 814 818 821 835 843 859 874 0 0 0 0 0 0 0 0 0 0 0 0 0 0 0 0 0 0 0 0 0 0 0 0 0 0 0 0 0 896 898 898 898 894 889 884 882 881 872 872 872 888 892 896 896 896 0 0 0 0 0 0 0 0 0 0 0 0 0 0 0 0 0 0 0 0 0 0 0 0 0 910 910 910 910 910 910 911 911 910 910 909 908 908 908 907 904 899 899 894 887 884 879 878 876 872 872 872 872 872 872 868 864 864 863 862 859 859 859 861 862 864 866 867 869 870 872 878 878 878 881 882 883 895 902 907 913 920 922 923 925 927 928 929 930 931 931 932 932 932 933 933 933 934 934 934 934 935 936 936 938 939 939 940 940 941 941 942 942 943 944 944 944 945 945 945 946 946 947 947 947 947 947 947 946 946 946 946 945 945 944 944 944 942 940 939 939 931 927 916 901 893 883 0 0 0 0 0 0 0 0 0 0 0 0 0 0 0 0 0 0 0 0 0 0 0 0 0 0 0 0 0 0 0 0 0 0 0 0 0 0 0 0 0 0 0 0 0 0 0 0 0
772 772 774 794 813 829 845 863 882 898 915 930 951 979 1003 1007 1028 1045 1054 1065 1078 1089 1099 1108 1115 1120 1125 1127 1128 1128 1128 1128 1123 1119 1119 1118 1117 1112 1100 1084 0 0 0 0 0 0 813 786 786 785 786 786 789 789 793 796 799 800 802 803 805 806 807 809 810 811 812 814 814 815 816 817 819 821 821 821 821 819 817 817 0 0 0 0 0 0 0 0 0 0 0 0 0 0 0 0 0 0 0 0 0 0 0 0 0 0 0 0 0 0 0 815 815 814 805 790 782 779 776 775 775 773 0 0 0 0 0 0 0 0 0 0 0 0 0 0 0 0 0 0 0 0 0 0 0 0 0 0 0 0 0 0 0 0 0 0 0 0 0 0 0 0 824 824 821 805 789 786 785 785 781 781 781 782 785 787 789 790 792 792 792 793 793 796 796 797 798 800 802 803 805 806 806 806 806 806 806 806 806 806 806 808 812 812 812 809 809 809 817 829 832 0 0 0 0 0 0 0 0 0 0 0 0 0 0 0 0 0 836 837 838 844 844 844 838 838 838 838 840 840 841 841 840 833 829 829 829 832 834 834 834 833 831 829 829 829 834 834 835 0 0 0 0 0 0 0 0 0 0 0 0 0 0 0 0 0 0 0 0 0 0 0 0 0 0 0 0 0 0 0 0 0 0 0 0 0 0 0 0 0 0 0 0 0 0 0 0 859 859 856 856 856 857 857 858 859 859 859 859 859 859 858 858 857 857 857 857 857 857 854 834 0 0 0 0 0 0 0 0 0 0 0 0 0 0 0 0 0 0 0 0 0 866 866 866 855 846 845 842 836 827 824 824 824 826 826 826 824 820 818 818 818 817 816 815 815 815 815 816 816 816 816 816 816 815 815 814 814 812 811 811 809 811 811 811 834 851 864 876 0 0 0 0 0 0 0 0 0 0 0 0 0 0 0 0 0 0 0 0 0 0 0 0 0 895 895 895 895 895 895 890 884 880 879 872 870 867 867 867 881 885 896 896 896 0 0 0 0 0 0 0 0 0 0 0 0 0 0 0 0 0 0 0 0 0 0 0 0 0 907 906 0 0 0 909 910 910 910 910 909 908 908 908 907 905 901 899 894 888 885 879 877 875 872 872 872 872 872 872 870 868 865 864 862 859 859 859 860 862 864 866 867 869 870 872 878 885 886 894 895 895 899 902 907 913 918 921 922 925 927 928 928 929 930 931 931 931 932 932 932 932 933 933 934 934 934 935 936 937 938 939 939 940 940 940 942 942 943 943 943 944 944 944 945 945 946 946 946 946 946 946 946 946 945 945 944 944 944 943 941 939 939 936 936 936 924 921 907 893 890 875 0 0 0 0 0 0 0 0 0 0 0 0 0 0 0 0 0 0 0 0 0 0 0 0 0 0 0 0 0 0 0 0 0 0 0 0 0 0 0 0 0 0 0 0 0 0 0 0 0
782 782 784 802 820 835 849 863 883 898 915 930 953 987 1007 1012 1029 1047 1059 1069 1078 1089 1099 1109 1116 1121 1125 1127 1128 1128 1128 1127 1123 1122 1122 1122 1122 1122 1117 1104 0 0 0 0 0 0 847 801 791 790 790 790 790 792 794 796 799 800 801 803 805 806 807 808 809 811 812 813 814 814 815 816 819 821 821 821 819 817 816 816 0 0 0 0 0 0 0 0 0 0 0 0 0 0 0 0 0 0 0 0 0 0 0 0 0 0 0 0 0 0 0 812 814 814 814 807 800 795 782 776 775 773 0 0 0 0 0 0 0 0 0 0 0 0 0 0 0 0 0 0 0 0 0 0 0 0 0 0 0 0 0 0 0 0 0 0 0 0 0 0 0 0 823 823 823 813 798 792 786 786 781 781 781 782 785 787 788 790 791 792 792 793 793 795 796 797 797 798 799 801 803 805 806 806 806 806 805 803 802 802 802 805 809 809 809 809 809 809 817 828 833 833 0 0 0 0 0 0 0 0 0 0 0 0 0 0 0 833 835 836 836 836 839 839 836 836 836 836 836 836 835 832 829 827 827 827 828 829 833 833 833 831 829 828 828 828 828 829 831 831 0 0 0 0 0 0 0 0 0 0 0 0 0 0 0 0 0 0 0 0 0 0 0 0 0 0 0 0 0 0 0 0 0 0 0 0 0 0 0 0 0 0 0 0 0 0 0 860 860 862 862 861 861 861 859 856 856 856 857 857 858 857 857 857 857 857 857 857 857 854 834 0 0 0 0 0 0 0 0 0 0 0 0 0 0 0 0 0 0 0 0 0 866 866 866 855 850 846 842 830 824 824 824 824 826 826 826 823 820 818 818 818 817 816 815 815 815 815 816 816 816 816 815 815 814 814 814 814 812 811 811 809 806 806 806 818 840 861 876 876 0 0 0 0 0 0 0 0 0 0 0 0 0 0 0 0 0 0 0 0 0 0 0 895 895 892 885 885 881 880 878 878 876 874 870 867 866 866 866 871 875 879 888 888 888 0 0 0 0 0 0 0 0 0 0 0 0 0 0 0 0 0 0 0 0 0 0 0 907 903 903 0 0 0 907 909 910 910 910 909 909 909 908 907 906 903 899 894 889 886 880 877 875 872 872 872 872 872 872 870 869 866 864 862 859 859 859 860 862 866 867 870 874 874 874 881 889 895 896 898 898 900 902 907 912 918 921 921 924 926 927 927 929 929 929 930 930 931 931 931 931 932 932 933 933 934 935 935 936 937 938 939 939 939 940 940 941 941 942 942 942 943 944 944 944 945 945 945 945 945 945 945 945 944 944 944 943 943 942 936 936 936 934 934 926 922 914 902 890 886 882 0 0 0 0 0 0 0 0 0 0 0 0 0 0 0 0 0 0 0 0 0 0 0 0 0 0 0 0 0 0 0 0 0 0 0 0 0 0 0 0 0 0 0 0 0 0 0 0 0
794 794 795 811 826 841 855 872 891 908 925 947 971 990 1007 1012 1029 1048 1062 1074 1081 1089 1099 1109 1116 1121 1125 1127 1128 1128 1128 1125 1123 1123 1123 1125 1129 1129 1129 1121 1107 1086 0 0 0 0 0 0 820 806 798 792 792 792 794 797 799 801 801 803 805 806 807 808 808 810 811 812 813 813 813 815 818 820 820 820 819 816 816 816 816 816 816 0 0 0 0 0 0 0 0 0 0 0 0 0 0 0 0 0 0 0 0 0 0 0 0 0 0 0 0 0 0 0 0 0 0 0 0 0 0 0 0 0 0 0 0 0 0 0 0 0 0 0 0 0 0 0 0 0 0 0 0 0 0 0 0 0 0 0 0 0 0 0 0 0 0 0 0 0 0 0 0 0 814 814 800 792 789 789 788 788 786 786 786 787 788 789 791 792 792 792 793 794 794 796 797 798 799 800 801 802 803 805 805 805 804 802 799 799 799 803 805 805 805 805 805 807 811 820 828 828 0 0 0 0 0 0 0 0 0 832 832 831 831 833 833 833 833 834 833 832 833 833 833 833 836 836 836 833 832 831 828 825 825 825 828 828 829 829 828 828 828 826 826 826 826 826 828 828 823 0 0 0 0 0 0 0 0 0 0 0 0 0 0 0 0 0 0 0 0 0 0 0 0 0 0 0 0 0 0 0 0 0 0 0 0 0 0 0 0 0 0 0 0 0 0 0 0 859 862 861 861 861 859 856 856 856 857 857 858 858 858 858 0 0 0 0 0 0 0 0 0 0 0 0 0 0 0 0 0 0 0 0 0 0 0 0 0 0 0 0 0 0 0 858 852 847 840 829 822 822 822 823 826 826 826 823 820 818 818 817 817 816 815 815 815 815 815 815 816 816 815 815 814 814 814 814 812 811 811 809 806 806 806 817 831 858 870 870 870 0 0 0 0 0 0 0 0 0 0 0 0 0 0 0 0 0 0 0 880 894 894 894 893 889 878 871 869 869 869 869 869 869 868 867 865 862 859 859 859 864 881 888 889 889 0 0 0 0 0 0 0 0 0 0 0 0 0 0 0 0 0 0 0 0 0 907 907 903 903 901 901 901 904 905 908 909 910 910 909 909 908 907 906 906 905 900 893 892 890 878 875 872 872 871 871 871 871 871 870 867 864 862 859 859 859 860 864 868 869 872 875 881 884 885 890 896 898 898 898 900 902 907 912 917 919 921 924 925 925 926 928 928 929 929 930 930 930 930 931 931 931 932 933 933 934 935 936 937 937 938 938 939 940 940 941 941 942 942 942 942 943 943 944 944 944 944 944 944 944 944 944 944 944 943 943 942 939 934 934 932 932 932 922 903 878 878 878 874 874 0 786 779 726 726 726 727 727 0 0 0 641 633 638 641 656 666 666 666 666 645 0 0 0 0 0 0 0 0 0 0 0 0 0 0 0 0 0 0 0 0 0 0 0 0 0 0 0 0
803 803 804 814 832 848 863 880 902 917 934 954 972 991 1007 1012 1029 1049 1065 1078 1087 1094 1102 1109 1116 1121 1125 1126 1126 1126 1126 1124 1122 1122 1122 1128 1137 1137 1137 1132 1124 1116 1107 0 0 0 0 0 0 809 808 793 793 793 795 799 800 801 801 803 805 806 807 807 808 810 811 812 812 812 813 814 816 819 819 819 818 816 814 814 814 816 0 0 0 0 0 0 0 0 0 0 0 0 0 0 0 0 0 0 0 0 0 0 0 0 0 0 0 0 0 0 0 0 0 0 0 0 0 0 0 0 0 0 0 0 0 0 0 0 0 0 0 0 0 0 0 0 0 0 0 0 0 0 0 0 0 0 0 0 0 0 0 0 0 0 0 0 0 0 0 0 0 0 815 815 804 797 791 790 789 789 786 786 786 786 788 789 790 791 792 792 793 793 794 795 797 798 799 800 800 801 801 803 803 803 801 800 799 799 799 802 805 805 805 802 802 802 802 808 826 826 0 0 0 0 0 0 0 0 0 833 832 831 831 833 833 833 833 833 831 830 830 830 830 832 834 834 834 832 832 830 825 823 823 823 823 823 823 823 823 825 825 826 826 826 826 826 827 827 823 0 0 0 0 0 0 0 0 0 0 0 0 0 0 0 0 0 0 0 0 0 0 0 0 0 0 0 0 0 0 0 0 0 0 0 0 0 0 0 0 0 0 0 0 0 0 0 0 863 863 863 863 861 859 856 856 856 857 857 857 857 857 0 0 0 0 0 0 0 0 0 0 0 0 0 0 0 0 0 0 0 0 0 0 0 0 0 0 0 0 0 0 0 0 855 855 847 840 829 822 822 822 823 824 824 824 821 819 817 817 816 816 816 815 815 815 815 815 815 815 815 815 815 815 815 815 814 814 813 811 811 806 806 806 808 825 846 857 868 868 0 0 0 0 0 0 0 0 0 0 0 0 0 0 0 0 0 0 0 884 889 891 891 889 882 876 871 866 866 866 863 863 863 862 862 862 862 858 857 856 856 856 879 888 888 888 887 0 0 0 0 0 0 0 0 0 0 0 0 0 0 0 0 0 0 0 0 905 903 902 901 901 901 904 904 904 907 909 909 909 909 908 907 906 906 905 900 896 896 895 890 880 873 872 871 871 871 870 870 870 867 864 864 861 861 861 862 866 869 871 876 881 884 888 888 891 897 899 900 900 900 903 907 913 915 917 920 922 924 925 926 927 927 927 928 928 929 929 929 930 930 931 931 931 932 933 933 934 935 936 937 937 938 938 939 940 940 941 942 942 942 942 942 942 943 944 944 944 944 943 943 943 943 943 943 942 942 937 926 926 926 926 926 918 874 872 872 872 872 872 0 0 779 764 739 739 727 727 0 0 0 0 633 638 656 656 679 681 681 681 652 0 0 0 0 0 0 0 0 0 0 0 0 0 0 0 0 0 0 0 0 0 0 0 0 0 0 0 0
803 803 804 821 836 856 874 892 909 923 939 955 973 991 1006 1011 1027 1049 1065 1078 1087 1096 1102 1109 1116 1121 1124 1126 1126 1126 1125 1122 1122 1122 1122 1129 1138 1143 1143 1143 1139 1134 1125 1113 0 0 0 0 0 811 808 805 797 797 797 800 800 802 803 804 805 806 806 807 808 809 810 810 811 812 812 812 814 817 817 817 817 815 812 812 0 0 0 0 0 0 0 0 0 0 0 0 0 0 0 0 0 0 0 0 0 0 0 0 0 0 0 0 0 0 0 0 0 0 0 0 0 0 0 0 0 0 0 0 0 0 0 0 0 0 0 0 0 0 0 0 0 0 0 0 0 0 0 0 0 0 0 0 0 0 0 0 0 0 0 0 0 0 0 0 0 0 0 0 0 816 805 800 793 791 790 789 786 786 786 786 787 788 789 791 792 792 793 793 794 795 797 798 800 800 800 801 801 802 802 802 801 800 799 799 799 801 804 804 804 802 800 800 802 807 824 825 826 0 0 827 830 830 834 834 834 832 831 826 826 826 826 825 829 829 826 826 826 826 826 832 832 832 831 830 829 827 824 821 821 821 821 821 820 820 820 821 824 824 824 824 824 823 824 827 838 0 0 0 0 0 0 0 0 0 0 0 0 0 0 0 0 0 0 0 0 0 0 0 0 0 0 0 0 0 0 0 0 0 0 0 0 0 0 0 0 0 0 0 0 0 0 0 0 863 865 865 865 861 859 854 854 854 856 856 0 0 0 0 0 0 0 0 0 0 0 0 0 0 0 0 0 0 0 0 0 0 0 0 0 0 0 0 0 0 0 0 0 0 0 855 855 848 842 829 822 822 822 823 823 823 823 819 816 816 816 816 816 816 816 815 815 815 815 815 815 815 815 815 815 815 816 816 816 815 814 811 806 800 800 800 805 841 847 860 871 0 0 0 0 0 0 0 0 0 0 0 0 0 0 0 0 0 880 880 880 880 885 885 885 878 874 870 863 863 862 862 862 858 858 857 856 856 855 853 853 853 853 867 882 889 890 890 0 0 0 0 0 0 0 0 0 0 0 0 0 0 0 0 0 0 0 0 0 0 901 901 901 902 903 904 904 907 909 909 909 909 907 907 906 905 905 900 897 897 897 892 890 882 875 873 873 873 873 872 870 867 864 864 862 862 862 863 871 872 876 881 886 888 889 889 893 897 899 900 901 902 907 909 913 915 916 919 921 923 924 925 926 926 926 927 928 928 928 928 929 929 929 930 930 931 932 933 934 934 935 935 936 937 937 939 939 940 941 941 941 941 942 942 942 943 943 943 943 943 943 943 942 942 942 942 942 941 922 922 922 921 921 0 0 843 843 843 857 857 857 0 0 0 764 734 733 732 732 717 0 0 0 0 0 686 686 686 684 684 684 680 0 0 0 0 0 0 0 0 0 0 0 0 0 0 0 0 0 0 0 0 0 0 0 0 0 0 0 0
803 803 804 823 845 864 883 899 912 930 945 960 976 992 1006 1011 1027 1049 1065 1078 1087 1096 1102 1109 1114 1119 1124 1125 1125 1125 1124 1122 1122 1122 1125 1131 1139 1147 1150 1150 1150 1147 1144 1134 1114 0 0 0 0 0 817 810 800 800 800 800 800 802 804 805 806 806 806 807 807 809 810 810 810 811 811 811 812 815 815 815 815 815 811 0 0 0 0 0 0 0 0 0 0 0 0 0 0 0 0 0 0 0 0 0 0 0 0 0 0 0 0 0 0 0 0 0 0 0 0 0 0 0 0 0 0 0 0 0 0 0 0 0 0 0 0 0 0 0 0 0 0 0 0 0 0 0 0 0 0 0 0 0 0 0 0 0 0 0 0 0 0 0 0 0 0 0 0 0 0 817 817 809 793 792 790 789 786 784 784 784 787 788 789 790 792 792 792 793 794 795 796 798 800 800 800 800 801 801 801 800 800 800 797 797 797 799 804 805 805 805 804 804 804 806 819 820 823 0 831 831 832 835 835 834 834 826 821 821 821 823 823 823 822 822 821 821 822 825 825 828 828 828 826 826 826 823 822 818 818 818 818 818 818 818 818 818 819 819 819 820 820 820 824 829 839 839 0 0 0 0 0 0 0 0 0 0 0 0 0 0 0 0 0 0 0 0 0 0 0 0 0 0 0 0 0 0 0 0 0 0 0 0 0 0 0 0 0 0 0 0 0 0 0 863 865 865 865 861 859 854 854 0 0 0 0 0 0 0 0 0 0 0 0 0 0 0 0 0 0 0 0 0 0 0 0 0 0 0 0 0 0 0 0 0 0 0 0 0 0 0 857 855 854 845 826 823 823 823 823 823 819 817 816 816 816 817 817 817 816 816 815 815 815 815 815 815 815 815 815 816 816 816 816 816 814 810 806 800 800 800 805 817 828 838 859 868 0 0 0 0 0 0 0 0 0 0 0 0 0 0 0 874 874 874 873 873 873 877 877 877 874 865 863 862 861 857 856 855 855 856 855 855 855 853 853 853 853 866 879 888 889 889 0 0 0 0 0 0 0 0 0 0 0 0 0 0 0 0 0 0 0 0 0 0 0 899 900 901 901 902 903 905 905 905 905 905 905 905 907 907 907 904 901 898 897 893 891 882 875 874 873 873 873 871 869 866 865 864 864 864 864 866 872 873 876 882 886 890 892 894 896 899 901 903 904 906 909 911 913 915 916 918 920 922 923 923 924 925 925 925 926 926 927 927 927 928 928 929 930 930 932 932 933 933 934 934 935 935 936 937 938 938 940 941 941 941 941 941 941 943 943 943 943 943 941 941 941 940 940 940 940 940 0 0 0 0 0 0 0 0 827 827 854 854 0 0 0 0 764 733 731 727 720 720 0 0 0 0 0 686 686 686 684 684 684 680 0 0 0 0 0 0 0 0 0 0 0 0 0 0 0 0 0 0 0 0 0 0 0 0 0 0 0 0
796 796 798 823 848 869 887 901 917 935 952 967 983 996 1006 1011 1025 1042 1063 1077 1087 1096 1102 1107 1112 1116 1120 1120 1121 1122 1122 1122 1124 1125 1130 1137 1143 1151 1155 1158 1159 1159 1159 1154 1136 1134 0 0 0 0 821 813 805 800 800 800 801 802 804 805 806 806 806 807 807 809 810 810 810 811 811 811 812 812 815 815 815 815 0 0 0 0 0 0 0 0 0 0 0 0 0 0 0 0 0 0 0 0 0 0 0 0 0 0 0 0 0 0 0 0 0 0 0 0 0 0 0 0 0 0 0 0 0 0 0 0 0 0 0 0 0 0 0 0 0 0 0 0 0 0 0 0 0 0 0 0 0 0 0 0 0 0 0 0 0 0 0 0 0 0 0 0 0 0 0 819 819 813 802 792 790 789 786 784 784 784 786 788 789 790 792 792 792 793 793 795 796 798 799 799 800 800 801 801 801 799 798 798 797 796 796 796 804 806 806 806 806 806 806 807 819 823 825 0 830 830 830 832 832 830 829 825 815 815 815 815 814 812 810 810 810 815 817 820 823 823 823 822 821 821 820 819 817 813 813 813 814 815 815 815 815 815 816 816 816 817 817 817 824 829 839 839 0 0 0 0 0 0 0 0 0 0 0 0 0 0 0 0 0 0 0 0 0 0 0 0 0 0 0 0 0 0 0 0 0 0 0 0 0 0 0 0 0 0 0 0 0 0 0 861 865 865 865 861 854 854 0 0 0 0 0 0 0 0 0 0 0 0 0 0 0 0 0 0 0 0 0 0 0 0 0 0 0 0 0 0 0 0 0 0 0 0 0 0 0 0 0 856 855 849 833 823 823 823 823 823 818 815 815 815 817 817 817 817 816 816 815 815 815 815 814 814 814 814 816 816 816 816 816 816 815 810 806 800 800 800 805 817 824 836 845 860 868 0 0 0 0 0 0 0 0 0 0 0 867 867 869 874 874 874 864 863 863 864 874 874 874 865 860 857 856 856 855 855 855 855 855 855 855 853 852 852 852 865 868 869 882 888 0 0 0 0 0 0 0 0 0 0 0 0 0 0 0 0 0 0 0 0 0 0 0 0 0 0 0 0 0 0 0 0 903 0 0 0 905 905 905 902 901 898 897 893 891 884 876 876 873 873 873 871 870 867 867 867 867 867 870 873 874 876 880 885 888 892 895 897 900 902 903 905 906 908 910 911 913 915 916 918 919 920 921 922 923 923 923 925 925 925 926 927 927 927 928 928 929 929 931 931 931 932 933 933 934 934 935 936 936 937 938 941 941 941 940 940 940 940 940 940 940 939 940 939 939 935 935 931 0 0 0 0 0 0 0 0 0 0 0 0 0 0 0 0 0 0 0 731 726 726 720 720 0 0 0 0 0 646 646 646 661 680 680 0 0 0 0 0 0 0 0 0 0 0 0 0 0 0 0 0 0 0 0 0 0 0 0 0 0 0 0 0
794 794 796 823 848 869 887 903 919 942 960 977 991 1000 1006 1011 1025 1041 1060 1072 1083 1093 1100 1103 1106 1108 1112 1114 1117 1120 1124 1127 1130 1133 1138 1145 1151 1158 1161 1163 1165 1166 1166 1166 1147 1147 0 0 0 0 834 826 814 806 802 802 802 802 804 805 805 806 806 807 807 808 809 810 810 811 811 811 812 812 815 815 0 0 0 0 0 0 0 0 0 0 0 0 0 0 0 0 0 0 0 0 0 0 0 0 0 0 0 0 0 0 0 0 0 0 0 0 0 0 0 0 0 0 0 0 0 0 0 0 0 0 0 0 0 0 0 0 0 0 0 0 0 0 0 0 0 0 0 0 0 0 0 0 0 0 0 0 0 0 0 0 0 0 0 0 0 0 0 0 0 0 818 813 802 794 792 790 786 784 784 784 786 788 788 790 792 792 792 792 793 794 795 796 797 797 798 798 798 797 797 796 796 796 796 796 796 796 804 807 808 808 808 806 806 806 817 818 0 0 826 829 829 832 832 829 829 823 814 814 812 811 807 806 806 806 808 812 816 816 818 818 818 817 816 816 815 815 815 812 811 811 811 813 813 813 813 813 813 814 815 815 815 815 815 829 834 834 0 0 0 0 0 0 0 0 0 0 0 0 0 0 0 0 0 0 0 0 0 0 0 0 0 0 0 0 0 0 0 0 0 0 0 0 0 0 0 0 0 0 0 0 0 0 0 0 863 863 863 0 0 0 0 0 0 0 0 0 0 0 0 0 0 0 0 0 0 0 0 0 0 0 0 0 0 0 0 0 0 0 0 0 0 0 0 0 0 0 0 0 0 0 0 0 856 856 836 822 822 822 822 822 815 815 815 816 817 817 817 817 816 815 814 814 814 814 814 814 814 814 816 816 816 817 817 816 815 810 808 808 808 808 813 817 822 831 843 860 862 868 0 0 0 0 0 0 0 0 0 868 868 868 870 872 872 872 863 860 860 860 865 865 865 856 856 856 856 856 855 855 855 855 855 855 855 855 852 852 852 864 867 868 873 887 0 0 0 0 0 0 0 0 0 0 0 0 0 0 0 0 0 0 0 0 0 0 0 0 0 0 0 0 0 0 0 0 0 0 0 0 904 904 904 901 900 898 897 893 891 886 878 877 876 874 873 873 871 871 871 871 873 873 877 881 882 884 885 888 891 893 895 897 901 903 904 905 906 909 911 912 913 915 916 918 919 919 921 921 922 922 923 923 924 924 925 925 926 926 926 927 927 928 929 930 931 931 931 932 932 933 933 934 935 935 937 937 939 939 939 939 939 939 939 938 938 937 937 934 930 924 924 924 0 0 0 0 0 0 0 0 0 0 0 0 0 0 0 0 0 0 0 689 695 695 715 715 0 0 0 0 0 655 649 649 655 650 650 0 0 0 0 0 0 0 0 0 0 0 0 0 0 0 0 0 0 0 0 0 0 0 0 0 0 0 0 0
793 793 796 823 848 869 887 903 921 948 966 982 995 1003 1010 1015 1025 1041 1056 1067 1077 1085 1090 1095 1095 1098 1104 1110 1117 1119 1126 1133 1138 1142 1148 1152 1158 1163 1165 1167 1171 1176 1176 1176 1162 1161 0 0 0 0 0 841 825 818 806 804 804 804 805 805 805 805 804 804 805 808 808 810 810 811 811 812 812 813 815 815 0 0 0 0 0 0 0 0 0 0 0 0 0 0 0 0 0 0 0 0 0 0 0 0 0 0 0 0 0 0 0 0 0 0 0 0 0 0 0 0 0 0 0 0 0 0 0 0 0 0 0 0 0 0 0 0 0 0 0 0 0 0 0 0 0 0 0 0 0 0 0 0 0 0 0 0 0 0 0 0 0 0 0 0 0 0 0 0 0 0 0 815 805 805 797 792 787 782 782 782 783 783 788 790 792 792 792 792 792 792 792 795 797 797 797 797 795 794 794 790 790 790 791 794 796 796 808 808 809 809 808 806 0 0 0 0 0 0 0 824 824 831 831 824 823 823 814 811 808 805 803 803 803 804 808 812 814 815 815 815 813 812 812 812 812 812 812 810 810 810 810 812 812 812 812 812 812 812 813 814 814 814 815 825 834 834 834 0 0 0 0 0 0 0 0 0 0 0 0 0 0 0 0 0 0 0 0 0 0 0 0 0 0 0 0 0 0 0 0 0 0 0 0 0 0 0 0 0 0 0 0 0 0 0 0 0 0 0 0 0 0 0 0 0 0 0 0 0 0 0 0 0 0 0 0 0 0 0 0 0 0 0 0 0 0 0 0 0 0 0 0 0 0 0 0 0 0 0 0 0 0 0 858 858 837 821 821 821 821 821 815 815 815 816 817 817 817 816 816 815 814 814 814 814 814 814 814 814 816 816 817 817 817 816 816 811 808 808 808 810 814 817 822 831 835 844 861 865 876 0 0 0 0 0 876 876 873 868 868 868 869 869 869 858 856 854 854 854 855 855 855 853 853 853 855 855 855 854 851 851 851 852 854 854 854 854 854 856 861 862 871 886 890 0 0 0 0 0 0 0 0 0 0 0 0 0 0 0 0 0 0 0 0 0 0 0 0 0 0 0 0 0 0 0 0 890 895 0 0 0 901 901 901 898 897 893 892 890 888 878 878 877 876 876 874 874 874 875 876 876 879 881 882 885 889 891 893 896 897 900 903 905 906 906 908 909 911 912 913 915 916 917 918 919 919 920 921 921 921 922 923 923 924 924 925 925 925 925 926 927 928 929 929 930 930 930 931 931 932 933 933 934 934 935 936 936 937 937 937 936 936 934 931 931 930 926 923 911 904 896 0 0 0 0 0 0 0 0 0 0 0 0 0 0 0 0 0 0 0 0 684 693 695 0 0 0 0 0 0 655 649 646 645 642 639 0 0 0 0 0 0 0 0 0 0 0 0 0 0 0 0 0 0 0 0 0 0 0 0 0 0 0 0 0
792 792 796 820 843 864 886 904 922 948 969 985 996 1004 1011 1015 1026 1041 1054 1062 1070 1075 1082 1084 1088 1091 1099 1107 1116 1119 1126 1133 1138 1147 1154 1158 1163 1169 1170 1173 1177 1179 1179 1179 1171 1169 0 0 0 0 0 0 834 827 817 807 807 806 806 805 805 804 804 804 804 807 808 809 810 811 811 812 813 814 816 816 0 0 0 0 0 0 0 0 0 0 0 0 0 0 0 0 0 0 0 0 0 0 0 0 0 0 0 0 0 0 0 0 0 0 0 0 0 0 0 0 0 0 0 0 0 0 0 0 0 0 0 0 0 0 0 0 0 0 0 0 0 0 0 0 0 0 0 0 0 0 0 0 0 0 0 0 0 0 0 0 0 0 0 0 0 0 0 0 0 0 0 809 809 805 797 792 787 782 781 781 781 782 785 790 792 792 792 792 792 792 792 794 796 797 797 797 795 794 791 787 787 787 791 796 798 806 808 809 809 0 0 0 0 0 0 0 0 0 0 0 824 827 827 824 821 821 814 808 805 804 802 802 802 804 808 811 812 812 812 812 811 809 809 809 809 810 810 810 810 810 810 812 812 812 811 811 811 812 812 813 813 814 815 825 833 833 833 832 0 0 0 0 0 0 0 0 0 0 0 0 0 0 0 0 0 0 0 0 0 0 0 0 0 0 0 0 0 0 0 0 0 0 0 0 0 0 0 0 0 0 0 0 0 858 859 859 0 0 0 0 0 0 0 0 0 0 0 0 0 0 0 0 0 0 0 0 0 0 0 0 0 0 0 0 0 0 0 0 0 0 0 0 0 0 0 0 0 0 0 0 0 0 856 856 839 823 823 821 820 820 815 815 815 816 817 817 817 816 815 815 814 814 814 814 814 814 815 816 817 817 817 817 816 816 816 812 810 810 810 813 816 818 824 830 831 844 858 860 871 879 879 879 877 877 876 876 873 867 865 865 859 857 856 855 854 851 850 850 850 850 851 852 852 852 854 854 854 852 848 848 848 849 855 855 855 856 856 856 858 861 871 881 886 886 0 0 0 0 0 0 0 0 0 0 0 0 0 0 0 0 0 0 0 0 0 0 0 0 0 0 0 0 0 0 0 890 895 0 0 0 900 900 900 899 898 897 893 890 890 883 879 878 878 878 878 878 879 880 881 881 883 884 886 890 894 894 896 898 900 903 905 905 906 907 908 909 911 912 913 914 915 916 917 918 919 919 919 920 920 921 921 922 922 923 923 923 924 924 925 926 927 927 928 928 929 929 930 931 932 932 932 932 931 931 931 932 933 933 933 934 931 931 929 907 906 899 898 898 883 881 0 0 0 0 0 0 0 0 0 0 0 0 0 0 0 0 0 0 0 0 0 0 0 0 0 0 0 0 0 0 649 645 645 642 0 0 0 0 0 0 0 0 0 0 0 0 0 0 0 0 0 0 0 0 0 0 0 0 0 0 0 0 0 0
783 783 798 814 836 861 884 905 926 950 970 985 998 1006 1012 1017 1028 1040 1052 1060 1065 1071 1078 1082 1085 1088 1091 1100 1112 1116 1126 1133 1138 1147 1156 1163 1169 1173 1176 1180 1184 1184 1184 1182 1177 1176 1173 0 0 0 0 0 0 840 823 811 811 809 807 807 806 804 804 804 804 807 808 808 810 811 811 813 813 814 815 815 0 0 0 0 0 0 0 0 0 0 0 0 0 0 0 0 0 0 0 0 0 0 0 0 0 0 0 0 0 0 0 0 0 0 0 0 0 0 0 0 0 0 0 0 0 0 0 0 0 0 0 0 0 0 0 0 0 0 0 0 0 0 0 0 0 0 0 0 0 0 0 0 0 0 0 0 0 0 0 0 0 0 0 0 0 0 0 0 0 0 0 810 810 806 797 792 787 781 780 780 780 780 784 787 788 792 792 792 792 792 792 794 796 797 797 797 795 794 791 787 787 787 791 796 798 806 0 0 0 0 0 0 0 0 0 0 0 0 0 0 0 825 825 824 820 816 810 807 805 803 802 802 802 803 806 808 808 808 808 808 807 807 807 807 808 808 808 808 808 809 809 810 810 810 810 810 810 812 812 812 813 813 815 824 830 832 832 831 0 0 0 0 0 0 0 0 0 0 0 0 0 0 0 0 0 0 0 0 0 0 0 0 0 0 0 0 0 0 0 0 0 0 0 0 0 0 0 0 0 0 0 0 853 857 858 853 852 0 0 0 0 0 0 0 0 0 0 0 0 0 0 0 0 0 0 0 0 0 0 0 0 0 0 0 0 0 0 0 0 0 0 0 0 0 0 0 0 0 0 0 0 0 0 855 852 845 824 821 821 818 815 815 815 815 816 816 816 816 816 816 815 815 815 814 814 814 817 818 818 818 817 817 816 815 815 815 814 814 814 816 818 818 819 820 830 840 850 854 870 877 877 877 876 876 874 874 868 865 859 859 856 854 853 852 851 850 850 850 850 850 851 852 852 852 852 852 852 849 847 847 847 848 854 856 856 856 856 856 857 859 861 875 884 888 888 0 0 0 0 0 0 0 0 0 0 0 0 0 0 0 0 0 0 0 0 0 0 0 0 0 0 0 0 0 0 895 895 895 895 897 897 897 899 898 897 897 897 892 891 884 881 879 878 878 878 878 880 881 883 883 885 885 888 892 894 897 899 901 902 903 905 906 906 907 908 909 911 912 913 914 914 915 917 917 918 918 918 918 919 919 920 921 921 921 921 922 922 923 924 925 925 926 927 927 928 928 929 930 930 930 931 930 930 930 930 926 926 926 924 922 920 918 909 890 888 866 866 866 869 869 0 0 0 0 0 0 0 0 0 0 0 0 0 0 0 0 0 0 0 0 0 0 0 0 0 0 0 0 0 0 0 0 0 0 0 0 0 0 0 0 0 0 0 0 0 0 0 0 0 0 0 0 0 0 0 0 0 0 0 0 0 0 0 0
776 776 798 803 831 858 883 908 930 950 970 985 1000 1010 1017 1022 1030 1040 1051 1055 1062 1071 1077 1081 1084 1086 1089 1093 1101 1107 1118 1128 1137 1147 1158 1167 1175 1180 1183 1186 1191 1196 1196 1196 1195 1194 1188 1188 0 0 0 0 0 0 0 817 813 813 813 813 813 811 804 804 804 807 808 808 810 811 811 812 813 814 815 815 0 0 0 0 0 0 0 0 0 0 0 0 0 0 0 0 0 0 0 0 0 0 0 0 0 0 0 0 0 0 0 0 0 0 0 0 0 0 0 0 0 0 0 0 0 0 0 0 0 0 0 0 0 0 0 0 0 0 0 0 0 0 0 0 0 0 0 0 0 0 0 0 0 0 0 0 0 0 0 0 0 0 0 0 0 0 0 0 0 0 0 0 811 808 800 795 787 781 779 779 779 779 779 780 785 792 792 792 792 792 792 793 797 798 799 799 799 799 793 791 791 791 791 0 0 0 0 0 0 0 0 0 0 0 0 0 0 0 0 0 0 825 825 824 822 813 809 807 805 803 802 802 802 803 804 806 806 806 805 804 804 804 804 805 805 806 806 806 807 807 808 808 809 809 809 809 810 811 811 811 811 812 815 819 826 828 828 828 0 0 0 0 0 0 0 0 0 0 0 0 0 0 0 0 0 0 0 0 0 0 0 0 0 0 0 0 0 0 0 0 0 0 0 0 0 0 0 0 0 0 0 847 847 857 857 851 851 0 0 0 0 0 0 0 0 0 0 0 0 0 0 0 0 0 0 0 0 0 0 0 0 0 0 0 0 0 0 0 0 0 0 0 0 0 0 0 0 0 0 0 0 0 0 0 850 847 828 824 821 818 814 814 814 815 815 816 816 816 816 816 816 816 816 816 817 818 820 820 820 819 817 817 816 816 816 816 816 816 816 819 820 820 820 820 830 840 850 854 870 875 875 875 869 869 867 864 865 864 859 852 848 848 848 849 849 849 849 849 849 850 852 852 852 852 852 851 851 848 847 847 847 848 852 853 856 856 856 856 855 855 857 868 881 888 888 888 0 0 0 0 0 0 0 0 0 0 0 0 0 0 0 0 0 0 0 0 0 0 0 0 0 0 0 0 895 895 895 896 896 898 898 898 898 898 897 897 897 896 891 885 882 880 879 880 880 880 881 883 883 885 885 887 890 894 897 898 900 901 902 904 905 906 906 907 908 909 910 911 912 913 914 914 915 916 917 917 917 917 918 918 918 919 919 919 920 920 920 921 923 923 923 924 925 926 927 927 929 929 929 929 928 928 926 928 925 924 924 924 912 895 893 890 874 859 859 858 858 858 858 857 0 0 0 0 0 0 0 0 0 0 0 0 0 0 0 0 0 0 0 0 0 0 0 0 0 0 0 0 0 0 0 0 0 0 0 0 0 0 0 0 0 0 0 0 0 0 0 0 0 0 0 0 0 0 0 0 0 0 0 0 0 0 0 0
