913 913 937 957 963 986 995 0 0 0 0 0 0 0 0 0 0 0 0 0 0 762 780 788 789 799 810 810 816 833 850 864 866 879 898 909 924 940 954 969 986 1001 1014 1027 1035 1046 1059 1074 1077 1094 1114 1129 1135 1141 1152 1158 1163 1170 1181 1193 1202 1211 1221 1238 1246 1258 1263 1267 1270 1278 1286 1293 1300 1305 1313 1323 1332 1335 1335 1335 1332 1329 1329 1329 1332 1337 1340 1345 1361 1379 1379 1379 1372 0 0 0 0 0 0 0 0 0 0 0 0 0 0 0 0 0 2132 2165 2170 2175 2178 2178 2180 2185 2190 2190 2190 2188 2183 2173 2167 2167 2167 2167 2172 2181 2186 2186 2186 0 0 0 0 0 0 0 1234 1224 1224 1224 1226 1227 1227 1227 1231 1231 1231 1227 1220 1212 1208 1205 1202 1200 1200 1200 1200 1200 1199 1182 0 0 0 0 976 964 961 958 958 958 958 957 957 957 957 957 957 957 956 956 955 955 954 953 951 949 947 941 937 935 935 935 935 935 934 934 934 933 933 933 934 935 936 936 936 936 936 935 935 935 935 935 936 936 937 939 939 939 933 931 931 930 929 920 898 883 883 883 887 887 887 883 869 869 869 874 880 881 882 884 886 891 891 891 884 882 881 881 882 882 898 901 904 904 909 911 911 919 935 946 947 947 947 947 947 947 947 947 947 946 946 946 946 946 946 945 945 944 944 944 944 944 944 944 944 944 944 944 944 944 945 944 944 944 942 940 938 937 935 930 924 910 900 899 898 897 897 897 902 902 902 902 902 900 892 883 883 883 884 890 890 890 887 882 882 882 885 887 889 890 892 894 896 901 908 911 914 920 924 928 932 935 935 936 936 936 936 936 937 937 937 937 937 937 937 937 936 936 936 936 936 936 936 936 936 936 936 935 935 935 934 933 933 933 932 931 929 923 919 912 899 882 876 876 876 876 876 875 874 874 874 876 877 877 877 873 869 868 867 866 863 860 860 860 863 867 867 867 866 862 862 862 864 869 874 880 892 907 918 922 925 926 926 928 929 930 930 930 930 930 930 930 930 929 929 929 929 930 930 930 929 929 929 929 929 929 928 928 928 928 928 928 928 928 928 928 928 928 928 927 927 927 927 926 926 925 925 925 924 924 923 923 923 922 922 921 920 920 920 919 918 918 918 918 918 918 919 920 920 921 922 933 944 966 0 0 0 0 0 1390 1397 1402 1402 1402 1386 0 0 0 0 0 0 0 0 0 0 0 0 0 0 0 0 0 0 0 0 0 0 0 0 0 0 0 0 587 616 616 616 606 606 606 616 616 0 0 0 0 0 0 0 0 0 0 527 527 527 520 516 0 0 0 0 0 0 0 0 0 491 472 472 469 463 472 473 0 0 0 0 0 0 0 0 0 0 0 0 0 0 0 0 0 0 0 423 423 440 440 425 425 0 0 0 0 0 0 0 0 0 0 0 0 0 0 0 0 0 0 0 0 0 0 0 481 481 481 0 0 0 0 0 0 0 0 0 0 0 0
891 891 908 957 0 0 0 0 0 0 0 0 0 0 0 0 0 730 730 730 742 756 772 781 787 799 810 810 828 845 859 875 878 897 899 909 924 940 954 969 986 1002 1014 1027 1035 1046 1059 1074 1077 1097 1114 1129 1135 1141 1152 1164 1170 1175 1183 1194 1201 1211 1221 1239 1252 1259 1263 1267 1270 1278 1286 1294 1300 1305 1312 1321 1328 1333 1333 1333 1332 1330 1330 1330 1332 1337 1340 1345 1352 1367 1367 1367 1364 0 0 0 0 0 0 0 0 0 0 0 0 0 0 0 0 0 2132 2165 2170 2170 2170 2174 2174 2174 2184 2184 2184 2183 2172 2160 2157 2157 2157 2157 2161 2161 2161 2161 0 0 0 0 0 0 0 0 1221 1221 1221 1224 1226 1226 1227 1227 1227 1227 1227 1219 1209 1203 1202 1201 1200 1200 1201 1201 1201 1201 1198 0 0 0 0 989 973 962 957 955 955 955 955 956 956 956 955 955 955 955 954 954 953 952 952 952 951 949 946 945 942 942 942 942 942 942 941 938 937 937 937 938 940 940 940 940 940 940 939 939 939 939 939 940 940 940 941 942 942 942 938 931 931 931 924 914 893 872 867 865 865 862 859 857 857 857 861 868 873 874 874 875 879 880 880 880 878 850 850 850 864 878 879 880 881 881 885 892 900 911 925 934 943 946 946 946 947 947 947 947 947 947 946 946 946 946 946 946 945 945 945 945 945 945 944 944 944 945 945 945 945 945 945 945 944 944 942 940 938 936 932 929 922 909 899 898 896 895 895 895 897 897 898 898 897 896 889 883 881 881 881 884 884 884 882 878 878 878 883 886 888 888 890 892 895 899 902 910 912 920 924 928 932 934 935 935 936 936 936 936 936 936 936 936 937 937 936 936 936 936 936 936 935 935 935 935 935 935 935 935 935 934 934 933 932 931 930 929 927 923 917 911 898 882 875 874 874 874 874 874 874 874 874 876 876 876 876 872 868 864 862 859 857 857 857 859 860 862 862 862 860 860 860 862 864 869 874 880 889 907 917 921 924 924 925 927 928 929 929 929 929 929 929 929 929 928 928 928 928 928 928 928 928 928 928 928 927 927 927 927 927 927 927 927 927 926 926 926 926 926 926 926 926 926 925 925 924 924 924 922 922 922 922 921 921 920 920 919 919 919 918 918 917 917 917 916 916 916 915 916 917 920 921 933 944 961 975 0 0 0 0 1390 1397 1397 1397 1393 1361 0 0 0 0 0 0 0 0 0 0 0 0 0 0 0 0 0 0 0 0 0 0 0 0 0 0 0 0 590 616 619 619 619 616 616 616 616 0 0 0 0 0 0 0 0 0 509 544 0 0 544 544 0 0 0 0 0 0 0 0 491 489 489 489 478 472 472 0 0 0 0 0 0 0 0 0 0 0 0 0 0 0 0 0 0 0 0 423 423 437 437 425 425 0 0 0 0 0 0 0 0 0 0 0 0 0 0 0 0 0 0 0 0 0 0 449 449 460 481 491 0 0 0 0 0 0 0 0 0 0 0
0 0 0 0 0 0 0 0 0 0 0 0 0 0 0 0 728 728 728 728 735 750 768 778 786 799 815 828 840 852 861 882 885 900 907 910 922 937 954 969 992 1008 1021 1032 1040 1051 1065 1078 1084 1097 1114 1126 1131 1141 1152 1164 1170 1177 1186 1193 1201 1211 1229 1245 1253 1259 1263 1267 1270 1279 1288 1297 1302 1305 1307 1313 1322 1327 1330 1330 1331 1331 1331 1331 1332 1337 1340 1345 1350 1351 1351 1351 1336 0 0 0 0 0 0 0 0 0 0 0 0 0 0 0 0 0 2132 2155 2157 2157 2157 2157 2157 2167 2176 2176 2176 2170 2156 2143 2138 2136 2136 2136 0 0 0 0 0 0 0 0 0 0 0 1237 1221 1221 1221 1223 1223 1223 1224 1224 1223 1223 1220 1212 1205 1200 1200 1200 1200 1201 1202 1203 1201 1201 1194 0 0 0 0 962 959 958 953 952 952 952 952 953 953 953 953 953 953 953 953 953 952 951 950 950 949 948 946 945 944 943 943 943 942 942 942 941 941 941 941 941 941 941 941 941 943 943 943 943 942 942 942 944 944 944 944 944 944 944 940 935 931 931 921 909 880 862 860 859 859 858 857 857 857 857 860 866 867 867 868 870 874 876 876 876 872 850 850 850 859 870 876 878 879 880 885 892 895 911 922 929 941 943 944 944 945 947 947 947 947 947 946 946 947 947 946 946 946 946 946 946 945 945 945 945 945 945 945 945 945 945 945 945 944 944 941 940 938 935 929 925 917 906 899 898 896 894 893 893 893 893 893 894 894 894 887 883 879 879 879 882 882 882 881 877 877 877 880 883 885 886 889 891 894 898 901 909 912 919 924 928 931 934 934 935 935 935 935 936 936 936 936 936 936 936 936 936 936 936 936 935 935 935 935 935 935 935 935 934 934 933 933 933 931 930 928 928 926 921 915 907 897 882 875 870 869 869 869 872 872 873 873 874 874 874 872 867 862 858 856 855 852 852 852 854 857 858 858 858 859 859 860 862 864 869 874 880 889 906 916 921 923 924 924 926 927 928 928 928 928 928 928 928 927 927 927 927 927 926 926 926 926 926 926 926 926 926 926 926 926 926 926 926 925 925 925 925 925 925 925 925 925 924 924 923 923 922 922 921 921 920 920 919 919 919 918 917 917 916 916 915 915 914 914 914 914 914 914 914 914 917 920 925 936 947 954 0 0 0 0 0 1396 1396 1396 1393 1361 0 0 0 0 0 0 0 0 0 0 0 1103 1103 1103 1100 0 0 0 0 0 0 0 0 0 0 0 0 0 618 624 632 632 632 632 632 656 656 0 0 0 0 0 0 0 0 0 549 549 0 0 544 544 0 0 0 0 0 486 482 482 482 491 491 491 478 472 472 0 0 0 0 0 0 0 0 0 0 0 0 0 352 359 361 0 0 0 0 412 412 412 412 412 406 0 0 0 0 0 0 0 0 0 0 0 0 0 0 0 0 0 0 0 0 0 0 449 449 457 476 476 0 0 0 0 0 0 0 0 0 0 0
0 0 0 0 0 0 0 0 0 0 0 0 0 0 0 711 711 713 713 716 734 749 762 771 784 802 823 839 851 863 869 882 885 900 907 910 922 933 951 969 992 1009 1024 1039 1049 1061 1071 1078 1084 1097 1114 1122 1129 1138 1150 1164 1170 1177 1186 1193 1200 1213 1231 1245 1253 1259 1263 1264 1270 1279 1288 1297 1302 1302 1302 1306 1312 1319 1325 1330 1330 1330 1331 1331 1335 1341 1342 1342 1342 1342 1341 1330 0 0 0 0 0 0 0 0 0 0 0 0 0 0 0 0 0 0 0 2123 2129 2129 2129 2129 2136 0 0 0 0 0 0 0 0 0 0 0 0 0 0 0 0 0 0 0 0 0 0 1220 1220 1220 1221 1221 1221 1217 1214 1211 1211 1210 1210 1210 1203 1198 1198 1198 1202 1202 1203 1202 1201 1196 1177 0 0 0 973 956 955 954 952 951 950 950 950 950 951 951 951 951 951 951 951 951 950 949 948 948 948 947 946 945 944 943 943 943 943 943 942 942 942 942 943 943 943 943 943 944 944 945 945 945 945 945 945 945 945 945 944 944 944 944 940 935 931 928 920 902 867 860 859 859 858 857 856 855 855 855 859 862 862 862 864 869 873 874 874 874 865 850 850 850 859 864 872 876 879 880 885 892 894 908 918 929 938 940 942 943 943 945 945 946 946 947 947 947 947 947 947 946 946 946 946 946 945 945 945 945 945 945 945 945 945 945 945 943 943 942 941 940 938 933 926 922 912 901 898 898 895 892 889 889 888 888 888 888 888 888 886 881 879 879 879 879 880 880 880 876 876 876 877 879 880 882 885 889 891 896 901 904 912 919 923 926 930 932 933 933 934 934 935 935 935 936 936 936 936 936 935 935 935 935 935 935 935 934 934 934 934 934 933 933 933 932 932 932 931 929 927 925 924 920 912 905 897 884 878 869 865 865 865 870 871 871 871 868 865 863 860 856 855 855 855 852 849 849 849 851 853 855 856 856 857 859 860 863 867 874 878 880 889 902 914 920 920 920 922 924 926 927 927 927 927 927 926 926 926 925 925 925 925 925 925 925 925 925 925 924 924 924 924 924 924 924 924 924 924 924 924 923 923 923 923 923 922 922 922 921 921 921 920 920 919 919 919 918 918 917 916 915 915 915 914 914 913 913 913 912 912 912 912 912 913 914 915 922 932 938 943 0 0 0 0 0 1395 1395 1395 1385 1354 0 0 0 0 0 0 0 0 0 0 1103 1103 1104 1104 1104 1111 1123 1133 1133 0 0 0 0 0 0 0 0 0 0 635 637 637 648 653 653 665 0 0 0 0 0 0 0 0 0 0 577 554 554 554 544 544 0 0 0 474 482 482 482 482 482 491 491 491 491 478 478 0 0 0 0 0 0 0 0 0 0 0 0 361 361 362 362 362 362 0 0 0 395 390 412 412 0 0 0 0 0 0 0 0 0 0 0 0 0 0 0 0 0 0 0 0 0 0 0 449 449 457 457 457 0 0 0 0 0 0 0 0 0 0 0
0 0 0 0 0 0 0 0 0 0 632 633 641 652 683 685 689 691 699 714 733 745 751 762 783 802 823 839 851 863 869 882 885 900 907 910 914 929 945 968 992 1009 1026 1039 1049 1061 1071 1078 1084 1095 1106 1115 1123 1131 1141 1154 1167 1177 1186 1191 1200 1216 1231 1245 1253 1256 1258 1261 1268 1279 1288 1297 1297 1298 1300 1300 1306 1313 1321 1326 1328 1330 1330 1331 1335 1341 1341 1341 1336 1325 1325 1306 0 0 0 0 0 0 0 0 0 0 0 0 0 0 0 0 0 0 0 0 0 0 0 0 0 0 0 0 0 0 0 0 0 0 0 0 0 0 0 0 0 0 0 0 0 0 0 1220 1220 1220 1220 1220 1220 1215 1208 1199 1199 1199 1200 1200 1200 1196 1196 1196 1202 1202 1202 1201 1199 1180 0 0 0 0 968 956 953 953 951 950 950 949 949 949 949 949 949 949 949 949 949 949 949 948 947 947 947 946 945 945 944 943 943 943 943 943 943 943 944 944 944 944 944 944 944 944 944 945 945 945 945 945 945 945 945 945 944 944 944 943 940 935 931 928 920 890 864 859 858 858 857 856 856 855 855 855 859 861 861 862 864 866 868 868 868 865 864 856 856 856 859 864 869 874 878 880 885 892 894 907 918 929 938 939 940 942 943 944 945 946 946 947 947 947 947 947 946 946 946 946 946 946 945 945 945 945 945 945 945 945 945 944 944 943 942 940 939 939 937 931 925 918 907 896 896 896 893 889 887 884 882 882 882 882 883 883 883 881 879 879 878 878 878 878 878 876 876 876 876 876 877 879 881 883 887 892 895 902 912 919 922 925 929 931 931 932 933 933 934 934 934 934 934 934 934 934 934 934 934 934 933 933 933 933 933 932 932 932 932 932 932 931 931 930 929 928 927 924 923 919 910 903 897 886 879 869 865 865 865 866 866 866 865 864 858 855 854 854 854 852 852 851 849 849 849 849 850 852 852 854 855 857 860 863 867 874 878 880 889 900 910 913 915 916 919 923 925 925 925 925 925 925 925 924 924 924 923 923 923 923 923 923 923 923 923 923 923 922 922 922 922 923 923 922 922 922 922 922 921 921 921 921 921 921 921 919 919 919 919 918 917 917 917 916 916 915 915 914 913 913 912 912 911 911 911 911 911 911 911 911 911 912 914 921 929 934 935 0 0 0 0 0 1385 1385 1385 1384 1353 0 0 0 0 0 0 0 0 0 1087 1103 1103 1104 1104 1104 1116 1130 1145 1145 1145 0 0 0 0 0 0 0 0 0 0 0 0 0 0 0 0 0 0 0 0 0 0 0 0 0 577 577 562 562 562 553 553 0 0 474 474 474 474 471 471 471 491 491 491 491 464 464 0 0 0 0 0 0 0 0 0 0 0 393 365 364 362 362 362 362 362 0 0 0 0 0 0 0 0 0 0 0 0 0 0 0 0 0 0 0 0 0 0 0 0 0 0 0 0 0 481 481 479 457 457 0 0 0 0 0 0 0 0 0 0 0
0 0 0 0 0 0 0 0 0 613 613 615 626 628 654 669 677 679 694 711 730 737 742 755 776 802 823 839 851 863 869 877 884 890 894 903 914 929 943 961 980 1009 1026 1039 1049 1061 1071 1075 1080 1088 1095 1106 1118 1125 1134 1143 1157 1172 1184 1191 1200 1217 1231 1243 1249 1251 1254 1256 1262 1273 1285 1290 1291 1292 1293 1295 1301 1310 1317 1318 1319 1321 1321 1329 1335 1339 1339 1339 1329 1308 1308 0 0 0 0 0 0 0 0 0 0 0 0 0 0 0 0 0 0 0 0 0 0 0 0 0 0 0 0 0 0 0 0 0 0 0 0 0 0 0 0 0 0 0 0 0 0 0 0 1179 1218 1219 1219 1219 1218 1214 1207 1199 1199 1196 1195 1195 1192 1192 1192 1195 1202 1202 1202 1200 1195 0 0 0 0 0 965 951 950 949 949 949 949 949 948 948 948 948 948 948 948 948 948 948 947 946 946 946 946 945 945 944 943 943 943 943 943 943 943 943 944 944 944 944 944 944 944 944 944 945 945 945 945 945 945 945 945 944 943 943 943 943 940 934 929 928 919 885 861 859 857 857 857 856 854 854 854 855 859 861 861 861 862 863 865 865 865 863 858 858 858 860 862 863 867 871 876 880 884 889 894 908 918 929 938 938 939 942 943 943 945 945 946 946 946 946 946 946 946 946 946 946 946 945 945 945 945 945 945 944 944 944 944 943 943 942 941 940 938 938 934 927 919 905 899 896 893 893 891 887 884 881 879 877 877 877 878 881 881 881 879 877 875 874 874 874 874 874 874 874 874 874 874 876 878 879 884 891 895 901 911 917 922 925 927 930 930 931 932 933 933 933 933 933 933 933 933 933 933 933 933 933 932 932 932 932 931 931 931 931 931 931 930 929 929 929 927 926 925 922 921 917 909 903 897 886 879 869 865 861 861 861 861 861 861 860 854 852 851 851 851 851 851 851 848 848 848 849 849 849 849 849 851 856 859 863 867 874 878 880 889 899 904 909 913 916 919 922 923 923 924 924 924 923 923 922 922 922 922 921 921 921 921 922 922 922 922 922 921 921 921 921 921 921 921 921 921 920 920 920 920 920 919 919 919 919 918 918 918 918 918 917 916 915 915 914 914 913 913 913 912 911 911 911 910 909 909 909 909 909 909 910 910 910 911 914 920 921 933 952 0 0 0 0 0 1384 1384 1384 0 0 0 0 0 0 0 0 0 0 1094 1103 1103 1107 1107 1107 1120 1137 1155 1155 1155 0 0 0 0 0 0 0 0 0 0 0 0 0 0 0 0 0 0 0 0 0 0 0 0 0 577 577 567 567 560 553 553 0 0 474 474 474 474 471 471 471 501 501 0 0 0 0 0 0 0 0 0 0 0 0 0 0 0 0 380 380 375 375 368 368 362 0 0 0 0 0 0 0 0 0 0 0 0 0 0 0 0 0 0 0 0 0 0 0 0 0 0 0 0 0 510 509 509 488 486 0 0 0 0 0 0 0 0 0 0 0
0 0 0 545 545 546 558 559 565 589 593 595 603 617 642 660 671 675 687 707 721 733 742 755 765 790 814 831 843 853 855 860 871 886 894 903 914 929 942 951 963 994 1026 1037 1046 1056 1065 1069 1074 1077 1082 1096 1112 1120 1125 1138 1155 1172 1184 1191 1201 1217 1231 1240 1244 1247 1250 1252 1257 1265 1275 1280 1281 1282 1286 1290 1297 1305 1305 1305 1305 1305 1305 1314 1327 1329 1329 1329 1319 1290 0 0 0 0 0 0 0 0 0 0 0 0 0 0 0 0 0 0 0 0 0 0 0 0 0 0 0 0 0 0 0 0 0 0 0 0 0 0 0 0 0 0 1239 1236 1231 1203 1176 1168 1168 1168 1199 1208 1216 1216 1216 1212 1207 1199 1199 1196 1195 1195 1191 1191 1191 1190 1191 1193 1193 1190 1176 0 0 0 0 982 960 949 946 946 946 947 947 947 946 946 946 946 946 946 946 946 946 946 946 946 946 945 945 944 944 943 943 943 943 943 943 943 943 943 944 944 944 944 944 944 944 944 944 944 944 944 944 944 944 944 944 943 943 942 942 940 938 933 928 921 910 879 861 858 857 856 855 854 852 852 852 853 857 860 860 861 861 862 863 863 863 858 858 858 860 863 863 863 864 867 872 878 884 891 894 906 920 929 932 936 938 940 941 943 944 945 945 945 945 945 945 945 945 945 945 945 945 945 944 944 944 944 943 943 943 943 942 942 942 941 939 938 937 936 931 926 917 903 898 896 891 891 888 885 881 879 876 875 875 875 876 877 877 877 873 872 871 870 870 870 870 871 871 871 872 872 873 875 876 877 884 891 894 901 911 916 920 924 925 928 929 930 930 931 931 931 932 932 932 931 931 931 931 931 931 931 931 930 930 930 930 930 930 930 929 929 929 928 928 926 926 924 924 921 919 915 908 903 897 886 879 868 864 861 860 859 858 857 857 856 853 852 850 850 850 850 849 849 848 848 848 848 848 848 848 848 848 852 858 863 866 869 872 876 886 896 904 908 912 915 918 920 921 921 922 922 921 921 921 920 920 920 920 920 920 919 919 919 919 919 920 920 920 920 920 919 920 919 919 919 919 919 919 919 918 918 918 918 917 917 917 917 916 916 916 916 915 914 913 913 913 912 911 910 910 910 909 908 908 908 908 908 908 908 908 909 909 909 909 909 911 917 931 941 0 0 0 0 0 0 0 0 0 0 0 0 0 0 0 0 0 0 1110 1110 1110 1109 1109 1109 1128 1151 1180 1180 1180 0 0 0 0 0 0 0 0 0 0 0 758 746 740 735 735 724 703 0 0 0 0 0 0 537 567 567 567 560 560 553 553 511 511 0 486 486 486 471 471 471 470 0 0 0 0 0 0 0 0 0 0 0 0 0 0 0 0 0 393 401 390 390 389 391 385 0 0 0 0 0 0 0 0 0 0 0 0 0 0 0 0 0 0 0 0 0 0 0 0 0 0 0 0 0 0 510 510 510 0 0 0 0 0 0 0 0 0 0 0 0
518 518 518 519 519 538 545 550 551 570 582 587 595 617 636 656 671 675 687 707 721 733 742 755 765 784 800 820 832 841 849 854 871 886 894 903 914 929 942 951 957 986 1025 1034 1041 1051 1060 1064 1068 1069 1074 1084 1100 1109 1114 1122 1155 1170 1184 1191 1203 1217 1230 1238 1242 1244 1248 1250 1254 1260 1267 1270 1272 1274 1278 1284 1292 1297 1301 1301 1301 1301 1301 1305 1311 1316 1316 1316 0 0 0 0 0 0 0 0 0 0 0 0 0 0 0 0 0 0 0 0 0 0 0 0 0 0 0 0 0 0 0 0 0 0 0 0 0 0 0 0 0 0 0 1232 1219 1210 1203 1193 1169 1167 1167 1167 1179 1193 1206 1212 1212 1212 1207 1206 1203 1203 1201 1196 1191 1188 1188 1188 1188 1188 1182 1182 0 0 0 0 999 964 945 943 943 945 945 945 945 945 944 944 944 944 944 944 944 944 944 944 944 944 944 943 943 943 942 942 942 942 942 942 943 943 943 943 944 944 943 943 943 943 943 943 944 944 944 943 944 943 943 943 943 943 942 942 942 939 937 932 928 921 906 879 861 855 855 854 853 850 850 850 850 851 854 856 858 859 860 861 861 861 859 855 855 855 860 863 863 863 863 864 869 877 883 892 898 906 918 929 931 934 937 939 941 942 943 944 944 944 944 944 944 944 944 944 944 944 944 943 943 943 943 943 942 942 942 942 941 940 940 939 938 938 936 934 930 925 916 903 897 893 890 888 885 882 880 877 875 873 873 873 875 875 875 872 870 869 868 867 867 867 868 868 869 869 869 870 872 874 875 877 884 891 894 901 908 913 918 922 925 927 928 928 929 930 931 931 931 931 930 930 930 930 930 930 929 929 929 929 928 928 928 928 928 928 928 928 928 927 926 925 924 923 922 921 918 914 908 903 892 881 876 868 864 861 860 859 858 857 857 856 853 852 850 850 849 849 849 848 848 848 849 849 849 848 848 848 848 848 854 859 861 862 862 867 878 895 904 907 907 912 915 918 919 920 920 920 920 919 919 919 919 919 919 918 918 918 918 918 918 918 918 918 918 918 917 917 917 917 917 917 917 917 917 917 917 916 916 916 915 915 915 915 914 914 914 913 913 912 911 911 911 910 910 909 909 908 907 907 906 906 906 906 906 906 907 908 908 908 908 908 909 916 926 941 0 0 0 0 0 0 0 0 0 0 0 0 0 0 0 0 0 0 1126 1126 1126 1126 1126 1129 1146 1179 1210 1210 1210 0 0 0 0 0 0 0 0 0 0 773 758 746 740 735 735 732 725 709 0 0 0 0 537 537 567 567 567 535 535 522 519 519 521 516 0 510 0 0 0 0 0 0 0 0 0 0 0 0 0 0 0 0 0 0 0 0 0 0 0 401 390 390 389 391 0 0 0 0 0 0 0 0 0 0 0 0 0 0 0 0 0 0 0 0 0 0 0 0 0 0 0 0 0 0 0 0 0 0 0 0 0 0 0 0 0 0 0 0 0 0
492 506 506 507 507 529 540 541 544 569 582 587 595 617 636 656 671 675 687 707 721 733 747 762 765 784 800 810 822 833 849 854 871 886 896 905 916 930 943 951 957 0 1025 1032 1040 1051 1060 1064 1068 1069 1074 1084 1100 1109 1111 1121 1147 1168 1184 1192 1206 1217 1230 1236 1241 1243 1247 1248 1251 1256 1261 1264 1266 1269 1274 1278 1282 1286 1293 1293 1297 1297 1298 1298 1301 1301 1301 0 0 0 0 0 0 0 0 0 0 0 0 0 0 0 0 0 0 0 0 0 0 0 0 0 0 0 0 1183 1146 1130 1130 1130 1171 1191 1199 0 0 0 0 0 1231 1221 1213 1200 1195 1186 1177 1175 1159 1159 1159 1166 1176 1187 1198 1207 1209 1212 1212 1212 1210 1210 1207 1202 1191 1188 1188 1188 1188 1188 1180 1162 0 0 0 1006 980 949 943 943 943 943 943 943 943 943 942 942 942 942 942 942 943 942 942 943 943 943 943 942 942 942 942 942 942 942 942 942 942 943 943 943 943 943 943 943 943 943 942 943 943 943 942 942 942 942 942 942 942 942 942 941 941 938 935 928 928 917 900 879 861 855 853 851 851 850 850 850 850 851 851 853 853 853 854 854 854 854 854 854 854 855 860 862 862 863 863 864 869 877 883 892 898 908 920 928 931 933 936 938 939 940 942 943 943 943 943 943 943 943 943 943 943 943 942 942 942 942 941 941 941 941 940 940 940 939 937 937 936 936 935 933 929 925 916 901 897 892 889 885 882 879 878 876 874 872 872 872 872 872 872 870 868 867 867 867 867 867 867 867 866 867 867 868 871 873 875 877 885 891 894 901 906 910 916 921 924 926 926 926 928 929 929 929 929 929 929 929 929 928 928 928 928 927 927 927 927 927 927 927 927 926 926 926 925 925 925 923 922 921 920 919 916 913 908 901 892 881 874 868 864 861 859 858 858 857 857 856 853 852 851 850 849 849 848 848 848 849 850 850 850 848 848 848 848 848 850 855 856 857 858 864 871 891 903 907 907 910 913 916 917 917 918 918 918 918 918 917 917 917 917 916 917 916 916 916 916 916 916 916 916 916 916 916 916 916 916 916 916 915 915 915 915 915 914 914 914 914 913 913 913 912 912 912 911 910 910 909 909 909 908 908 907 906 906 905 905 905 904 904 904 905 906 906 906 907 907 908 909 916 926 941 0 0 0 0 0 0 0 0 0 0 0 0 0 0 0 0 0 0 1159 1159 1159 1153 1153 1153 1169 1193 1210 1234 0 0 0 0 0 0 0 0 0 0 0 773 758 757 746 740 740 741 735 732 0 0 0 537 537 537 562 562 562 523 523 523 531 531 531 526 521 0 0 0 0 0 0 0 0 0 0 0 0 0 0 0 0 0 0 0 0 0 0 0 0 0 0 0 0 0 0 0 0 0 0 0 0 0 0 0 0 0 0 0 0 0 0 0 0 0 0 0 0 0 0 0 0 0 0 0 0 0 0 0 0 0 0 0 0 0 0 0 0 0 0 0
490 498 498 506 507 529 540 541 544 569 582 587 599 617 636 656 674 677 697 711 721 734 749 764 775 784 800 810 818 832 849 854 877 892 903 910 918 931 944 952 957 986 1025 1031 1040 1049 1059 1063 1068 1069 1074 1084 1100 1109 1111 1121 1142 1165 1184 1192 1206 1218 1228 1235 1238 1242 1244 1248 1249 1253 1257 1262 1265 1267 1269 1270 1270 1275 1283 1290 1291 1293 1293 1293 1293 1292 1285 0 0 0 0 0 0 0 0 0 0 0 0 0 0 0 0 0 0 0 0 0 0 0 0 1236 1213 1194 1179 1156 1139 1121 1121 1121 1139 1155 1163 1180 0 0 0 0 1209 1201 1180 1163 1157 1156 1156 1156 1156 1157 1160 1166 1176 1185 1198 1207 1212 1213 1213 1212 1212 1210 1208 1206 1197 1188 1188 1188 1188 1188 1176 0 0 0 0 987 964 946 943 942 941 941 941 941 940 940 940 940 940 941 941 941 941 941 941 941 941 941 941 941 941 940 940 940 940 940 940 941 941 942 942 942 942 942 942 942 942 942 942 942 942 942 942 942 942 942 941 941 941 941 940 940 940 936 929 928 927 917 883 871 862 855 853 851 851 850 849 849 849 849 850 851 851 851 851 850 850 850 852 852 855 857 858 860 862 862 862 864 869 877 883 892 900 908 921 928 930 932 936 937 938 939 940 941 941 941 941 941 942 942 942 942 941 941 941 941 940 940 940 940 939 938 938 938 937 937 935 934 934 934 933 932 927 925 916 901 891 885 882 881 880 878 874 872 871 871 871 871 871 871 871 869 867 867 867 867 867 866 866 866 866 866 866 867 870 873 875 879 885 891 894 898 903 908 916 919 922 924 924 925 926 927 927 927 927 927 927 926 926 926 926 926 926 926 925 925 925 925 925 925 925 925 924 924 924 923 923 921 921 919 918 917 914 910 906 899 892 881 873 867 862 859 858 858 858 858 857 855 853 852 851 851 850 849 848 848 848 849 850 850 850 850 849 849 849 849 850 853 854 855 856 864 871 885 902 904 906 909 911 913 915 915 916 917 917 917 916 916 915 915 915 915 915 915 915 914 914 914 914 914 915 914 914 914 914 914 914 914 914 914 913 913 913 913 912 912 912 912 912 912 911 910 910 910 909 909 909 907 907 907 907 906 906 905 904 904 903 903 903 903 903 903 903 904 906 906 906 909 911 917 931 942 966 0 0 0 0 0 0 0 0 0 0 0 0 0 0 0 0 0 1175 1175 1175 1164 1164 1164 1180 1193 1210 1234 0 0 0 0 0 0 0 0 0 0 0 769 754 726 709 709 709 732 732 732 0 0 0 547 547 570 570 570 554 523 523 523 539 539 539 532 524 0 0 0 0 0 0 0 0 0 0 0 0 0 0 0 0 0 0 0 0 0 0 0 0 0 0 0 0 0 0 0 0 0 0 0 0 0 0 0 0 0 0 0 0 0 0 0 0 0 0 0 0 0 0 0 0 0 0 0 0 0 0 0 0 0 0 0 0 0 0 0 0 0 0 0
484 484 489 506 507 529 540 541 544 569 587 594 605 617 638 660 674 683 697 711 724 737 753 769 781 791 797 809 816 830 855 859 882 898 907 916 925 935 946 958 975 1009 1028 1031 1036 1048 1057 1061 1067 1069 1076 1090 1102 1110 1111 1122 1142 1158 1176 1192 1206 1217 1226 1231 1235 1238 1241 1244 1246 1251 1257 1262 1264 1266 1266 1267 1270 1275 1283 1286 1290 1290 1290 1289 1287 1280 1268 0 0 0 0 0 0 0 0 0 0 0 0 0 0 0 0 0 0 0 0 0 0 0 1243 1217 1191 1175 1163 1154 1139 1120 1120 1120 1132 1134 1136 1144 1152 0 0 0 1159 1159 1136 1136 1136 1137 1140 1154 1155 1157 1160 1166 1176 1185 1198 1207 1212 1214 1214 1212 1212 1210 1208 1208 1206 1205 1198 1192 1192 1188 0 0 0 0 990 969 954 942 942 941 940 940 940 939 939 939 939 939 939 939 939 939 939 940 940 940 940 939 939 939 939 939 939 939 939 939 939 940 940 940 940 941 941 941 941 941 940 940 940 941 941 941 941 941 940 940 940 940 940 939 938 938 938 935 928 926 924 907 883 871 862 855 853 851 851 851 849 848 848 848 848 849 850 850 850 850 850 850 852 855 858 859 859 859 860 862 863 868 875 878 884 896 902 912 920 927 929 932 934 936 937 937 939 939 940 940 940 940 940 940 940 940 939 939 939 939 938 938 938 937 937 937 937 936 936 935 935 933 933 932 931 930 926 922 914 899 889 880 880 880 880 878 874 872 871 871 871 871 870 870 870 868 867 867 867 867 866 866 866 866 866 866 866 866 868 870 874 879 885 891 894 897 902 908 914 918 920 922 923 924 925 925 926 926 926 925 925 925 925 925 924 924 924 924 924 923 923 923 923 923 923 923 922 922 921 921 920 919 918 916 916 915 912 910 903 899 890 880 873 867 862 858 858 858 858 858 857 855 853 852 851 851 850 849 848 848 848 849 850 851 851 851 851 850 850 850 850 852 852 853 856 863 871 879 886 898 905 906 907 910 912 913 914 914 914 915 915 915 914 913 913 913 913 913 913 913 913 913 913 912 912 912 912 912 912 912 912 912 912 912 912 912 911 911 911 910 910 910 910 909 909 908 908 908 907 907 907 906 906 906 905 904 904 904 903 903 902 902 902 901 901 901 901 902 904 905 906 908 909 916 931 942 951 0 0 0 0 0 0 0 0 0 0 0 0 0 0 0 0 1146 1175 1175 1175 1173 1173 1173 1188 1190 1193 0 0 0 0 0 0 0 0 0 0 0 0 744 739 726 699 699 699 711 711 711 0 0 0 547 547 564 564 564 554 535 535 535 539 539 539 532 521 0 0 0 0 0 0 0 0 0 0 0 0 0 0 0 0 0 0 0 0 0 0 0 0 0 0 0 0 0 0 0 0 0 0 0 0 0 0 0 0 0 0 0 0 0 0 0 0 0 0 0 0 0 0 0 0 0 0 0 0 0 0 0 0 0 0 0 0 0 0 0 0 0 0 0
478 478 489 499 511 535 545 549 551 569 587 594 605 617 638 660 674 683 697 711 724 739 758 773 781 791 797 807 816 830 855 859 883 901 912 918 928 938 949 963 996 1015 1028 1030 1032 1043 1055 1059 1068 1070 1077 1090 1102 1111 1114 1123 1142 1155 1171 1189 1206 1217 1225 1229 1231 1235 1238 1240 1243 1248 1255 1262 1264 1265 1265 1267 1270 1275 1283 1284 1284 1284 1284 1284 1280 1269 1248 0 0 0 0 0 0 0 786 780 780 0 0 0 0 0 0 0 1292 1292 1291 1277 1263 1247 1226 1207 1184 1169 1157 1147 1139 1133 1122 1120 1120 1113 1113 1113 1122 1123 1131 1131 1131 1127 1113 1113 1113 1127 1140 1154 1155 1157 1160 1166 1176 1185 1204 1216 1218 1218 1218 1216 1212 1211 1209 1209 1209 1208 1208 1207 1204 1183 0 0 0 1003 981 961 947 941 939 939 939 938 938 937 937 937 937 937 937 938 938 938 938 938 938 938 938 938 938 938 938 938 938 937 937 937 937 938 938 938 939 939 939 939 939 939 940 940 940 940 940 940 940 940 939 939 939 938 937 936 935 935 934 932 926 924 922 905 883 867 862 858 853 852 851 851 849 846 843 843 843 844 848 848 848 849 850 850 855 859 859 859 859 859 859 861 863 871 875 878 886 896 902 912 918 926 929 930 933 934 936 937 937 938 938 938 938 938 938 938 938 938 938 937 937 936 936 936 936 936 936 935 935 934 934 934 932 932 931 929 929 927 923 919 912 899 889 879 879 879 878 878 874 872 871 871 871 870 869 869 868 868 867 867 867 866 866 866 866 866 866 866 866 866 867 868 871 879 884 887 891 894 902 908 913 916 918 920 921 922 923 923 924 924 924 924 924 923 923 922 922 922 922 921 921 921 921 921 921 921 921 920 920 920 920 919 918 918 916 915 913 912 911 905 902 898 889 880 874 867 862 858 858 858 858 858 857 854 853 852 851 851 850 849 848 847 847 847 848 850 851 851 851 851 851 851 851 851 852 853 854 863 871 879 881 887 894 903 904 907 910 911 912 912 912 912 912 912 912 912 912 912 912 912 912 912 911 911 911 911 911 911 911 911 911 911 910 910 909 909 909 909 909 909 909 908 908 908 908 907 907 907 907 906 906 906 905 905 904 904 904 903 902 902 901 901 900 900 900 900 900 900 901 901 902 905 906 908 909 916 926 942 951 0 0 0 0 0 0 0 0 0 0 0 0 0 0 0 0 1146 1175 1175 1175 1179 1179 1180 1180 1180 1153 0 0 0 0 0 0 0 0 0 729 710 710 710 709 695 695 694 694 694 694 694 0 0 0 547 547 555 555 555 554 539 539 539 539 539 539 532 521 0 0 0 0 0 0 0 0 0 0 0 0 0 0 0 0 0 0 0 0 0 0 0 0 0 0 0 0 0 0 0 0 0 0 0 0 0 0 0 0 413 418 418 397 0 0 0 0 0 0 0 0 0 0 0 0 0 0 0 0 0 0 0 0 0 0 0 0 0 0 0 0 0 0 0
478 478 490 499 515 540 547 549 551 569 587 594 605 616 638 660 667 683 695 708 724 739 758 773 781 791 798 807 816 830 855 859 883 907 919 926 932 940 949 967 996 1015 1027 1028 1028 1039 1047 1059 1068 1072 1078 1090 1103 1114 1120 1129 1141 1154 1168 1185 1203 1215 1222 1227 1229 1232 1235 1238 1241 1246 1252 1258 1262 1264 1265 1265 1268 1276 1282 1282 1282 1281 1280 1279 1270 1254 1231 0 0 0 0 0 0 794 794 795 798 818 0 0 0 0 0 1287 1287 1287 1278 1265 1253 1235 1214 1195 1174 1163 1157 1147 1139 1138 1129 1120 1102 1089 1089 1089 1092 1093 1104 1114 1114 1114 1113 1113 1113 1127 1140 1155 1161 1165 1166 1167 1180 1209 1222 1228 1228 1228 1224 1217 1212 1212 1212 1212 1215 1215 1215 1214 1204 1164 0 0 0 989 971 959 946 940 937 936 936 936 936 935 935 935 935 935 936 936 936 936 936 936 936 936 936 936 936 936 936 936 936 936 936 936 936 936 936 936 937 937 938 938 938 938 938 938 938 938 938 938 938 938 938 937 937 937 935 934 933 931 931 929 922 921 920 901 879 867 862 858 854 852 851 851 847 843 838 838 838 844 845 846 846 846 847 851 856 861 861 861 859 859 859 860 863 871 875 879 886 896 902 912 918 924 929 930 930 933 934 934 935 936 936 936 936 936 936 936 936 936 936 935 935 935 935 934 934 934 934 934 933 933 932 932 930 930 928 927 927 926 923 917 910 899 887 879 879 879 878 878 877 874 872 871 871 870 869 868 868 868 868 868 867 867 866 866 866 867 867 867 867 867 867 868 871 877 882 884 889 894 902 907 910 914 915 917 918 919 921 921 922 922 922 922 921 921 921 921 920 920 920 920 920 920 919 919 919 919 919 919 919 918 918 917 917 916 914 913 912 910 908 904 901 898 888 880 874 869 863 859 858 858 858 857 857 854 853 852 851 851 850 849 848 847 847 847 848 850 851 853 853 854 854 854 854 854 854 854 854 863 871 878 881 887 894 902 904 905 907 909 909 909 910 910 910 910 910 910 910 910 910 910 910 910 909 909 909 908 908 908 909 909 909 908 908 908 908 907 907 907 907 907 907 907 907 907 906 906 906 905 905 905 904 904 903 902 902 902 902 901 900 900 899 899 899 899 899 898 898 898 898 898 900 901 902 902 908 916 925 939 942 948 0 0 0 0 0 0 0 0 0 0 0 0 0 0 1110 1142 1149 1150 1159 1160 1162 1180 1180 1180 1138 0 0 0 0 0 0 0 0 729 727 710 710 710 709 690 690 690 690 668 668 668 0 0 0 529 529 541 551 551 551 547 522 522 518 518 524 524 518 0 0 0 0 0 0 0 0 0 0 0 0 0 0 0 0 0 0 0 0 0 0 0 0 0 0 0 0 0 0 0 0 0 0 0 0 0 0 0 405 405 410 418 397 397 0 0 0 0 0 0 0 0 0 0 0 0 0 0 0 0 0 0 0 0 0 0 0 0 0 0 0 0 0 0
478 478 492 501 515 541 547 549 552 570 584 590 605 616 638 661 666 679 689 701 719 739 758 773 781 791 798 807 818 827 832 853 883 907 926 932 939 945 951 969 996 1015 1022 1022 1027 1039 1045 1059 1068 1081 1087 1097 1107 1115 1122 1129 1142 1153 1166 1180 1194 1207 1216 1222 1225 1228 1232 1237 1239 1241 1246 1254 1257 1260 1264 1265 1268 1276 1278 1278 1280 1280 1278 1277 0 0 0 0 0 0 0 0 0 0 0 0 0 0 0 0 1189 1247 1263 1286 1286 1286 1272 1258 1246 1230 1201 1184 1174 1163 1157 1147 1147 1143 1134 1120 1102 1089 1086 1085 1085 1085 1087 1102 1113 1113 1113 1113 1113 1127 1141 1159 1168 1169 1170 1176 1207 1220 1226 1231 1232 1232 1232 1229 1228 1226 1222 1221 1218 1218 1218 1214 0 0 0 0 1008 979 959 947 941 937 937 935 935 935 934 934 934 934 934 934 934 934 934 934 934 934 934 935 935 935 935 935 935 935 935 935 935 935 935 935 935 935 936 936 936 936 937 937 937 937 937 937 937 937 937 937 937 936 936 935 933 932 930 928 926 924 920 916 908 897 879 867 862 858 854 852 851 849 846 841 838 838 838 844 844 844 846 846 847 851 856 861 861 861 859 858 858 858 863 871 875 880 886 895 900 912 918 923 927 928 929 930 931 933 934 934 934 934 935 934 934 934 934 934 934 933 933 933 933 932 932 931 931 931 931 931 931 930 929 927 926 926 925 924 922 917 909 898 887 879 879 879 878 878 877 875 873 871 871 871 869 868 868 868 868 868 868 867 867 867 868 868 868 868 868 868 868 868 871 877 882 884 887 894 902 906 908 911 913 915 916 917 919 919 920 920 920 920 920 920 920 919 919 918 918 918 918 917 917 917 917 916 916 917 917 916 916 915 914 914 912 911 910 907 906 903 901 894 885 879 874 869 863 862 860 859 858 857 857 854 854 854 853 851 850 849 848 847 847 847 848 850 851 853 855 856 857 857 857 857 851 851 851 853 870 874 875 880 893 898 901 903 905 905 905 906 907 908 908 908 908 908 908 909 909 909 908 908 908 908 907 906 906 906 906 906 906 906 905 905 904 904 904 904 904 904 904 904 904 904 904 904 903 903 902 902 902 902 901 901 901 900 900 900 899 899 898 898 897 897 897 897 897 897 895 895 895 897 899 901 907 912 914 917 921 946 962 0 0 0 0 0 0 0 841 841 0 0 0 0 1109 1119 1126 1150 1153 1158 1159 1180 1180 1180 0 0 0 0 0 0 0 0 731 729 727 710 710 709 709 690 690 685 682 671 0 0 0 0 0 0 0 0 0 0 0 0 0 0 0 0 0 0 0 0 0 0 0 0 0 0 0 0 0 0 0 0 0 0 0 0 0 0 0 0 0 0 0 0 0 0 0 0 0 0 0 0 0 0 0 0 0 0 0 0 0 0 0 358 358 357 355 355 355 0 378 378 373 374 373 0 0 0 0 0 0 0 0 0 0 0 0 0 0 0 0 0 0 0
478 478 493 501 517 541 544 547 552 570 583 590 605 616 638 661 666 679 689 700 716 735 755 770 780 789 798 808 818 827 832 846 876 907 926 938 942 945 952 969 992 1002 1008 1017 1025 1038 1044 1061 1077 1094 1101 1107 1112 1117 1123 1130 1142 1153 1163 1176 1186 1197 1207 1215 1221 1224 1230 1235 1238 1239 1243 1249 1253 1255 1257 1261 1268 1276 1276 1277 1278 1278 1277 1277 0 0 0 0 0 0 0 0 0 0 0 0 0 0 0 0 1221 1247 1263 1278 1278 1278 1265 1251 1239 1209 1201 1184 1174 1163 1157 1156 1156 1151 1138 1125 1102 1089 1086 1085 1085 1085 1087 1096 1112 1123 1123 1124 1124 1130 1147 1162 1172 1176 1182 1201 1213 1220 1230 1233 1233 1233 1232 1232 1229 1228 1228 1224 1223 1221 1218 1214 0 0 0 0 992 964 944 934 934 934 934 934 933 933 933 933 932 932 932 933 933 933 933 933 933 933 933 933 933 933 933 933 933 933 934 934 934 934 934 934 934 934 934 934 934 935 935 935 935 935 936 936 935 935 935 935 934 934 934 933 932 930 929 927 925 924 919 911 900 883 863 861 860 857 854 852 850 848 846 841 838 838 838 846 846 846 846 846 847 853 856 861 861 861 861 858 858 858 863 871 876 881 886 894 900 912 918 923 926 927 928 929 930 931 931 932 932 933 933 933 933 933 933 932 932 931 931 931 930 930 930 930 930 930 930 929 928 928 927 926 924 924 923 922 921 917 908 898 884 880 880 879 879 879 877 877 876 873 872 871 869 868 868 868 868 868 868 867 867 867 868 869 869 869 869 869 870 871 874 877 882 884 887 894 902 904 904 907 911 914 915 915 916 917 917 918 918 918 918 918 918 917 917 917 916 916 916 916 916 915 915 915 914 914 914 914 914 913 912 911 910 909 908 905 903 901 899 893 884 878 874 869 863 862 860 859 858 858 857 857 857 856 855 854 853 851 849 848 848 848 849 850 851 853 857 860 861 861 861 860 856 853 853 853 867 874 874 880 892 896 896 901 902 902 903 904 905 906 906 906 906 906 906 906 906 907 907 907 906 906 905 905 904 904 904 904 903 903 903 902 902 902 902 902 902 902 902 902 902 902 902 902 902 901 901 900 900 899 899 899 899 899 898 898 897 897 897 897 896 895 895 895 894 894 893 893 893 895 897 899 899 899 895 895 895 920 945 0 0 0 0 0 0 0 0 838 0 0 0 0 1093 1105 1126 1153 1153 1154 1159 1160 1160 1160 0 0 0 0 0 0 0 0 738 734 729 729 726 719 713 709 695 680 671 661 0 0 0 0 0 0 0 0 0 0 0 0 0 0 0 0 0 0 0 0 0 0 0 0 0 0 0 0 0 0 0 0 0 0 0 0 0 0 0 0 0 0 0 0 0 0 0 0 0 0 0 0 0 0 0 0 0 0 0 0 0 0 0 0 358 357 347 330 0 0 0 384 384 384 0 0 0 0 0 0 0 0 0 0 0 0 0 0 0 0 0 0 0 0
484 484 497 501 520 541 544 545 557 572 583 590 608 625 644 660 664 678 689 700 716 735 752 767 779 786 801 817 826 827 832 846 868 907 926 939 945 947 952 969 981 990 995 1006 1025 1039 1044 1062 1080 1094 1103 1110 1114 1118 1123 1131 1143 1153 1162 1172 1181 1191 1203 1210 1218 1221 1229 1235 1236 1238 1241 1247 1251 1253 1254 1256 1259 1266 1268 1268 1269 1277 1277 1277 0 0 0 0 0 0 0 0 0 0 0 0 0 0 0 0 1227 1247 1252 1254 1254 1254 1254 1245 1231 1208 1201 1184 1177 1173 1172 1168 1167 1161 1148 1137 1115 1096 1089 1085 1085 1085 1087 1096 1112 1124 1130 1130 1131 1138 1156 1173 1186 1190 1198 1205 1214 1222 1230 1233 1233 1233 1232 1232 1229 1228 1228 1225 1225 1221 1217 1205 0 0 0 0 971 947 936 931 931 931 931 931 931 931 931 931 931 931 931 931 931 931 931 931 931 931 931 931 931 931 931 931 931 931 932 932 932 932 932 932 932 932 932 933 933 933 933 934 934 934 934 934 934 934 934 933 933 932 932 931 930 929 927 926 922 921 919 910 892 866 856 855 854 851 851 850 850 848 846 841 841 841 844 848 848 848 847 847 847 853 854 858 861 861 861 860 860 860 863 871 878 881 886 892 900 912 915 918 925 927 927 927 928 928 930 930 931 931 931 931 931 930 930 930 930 930 929 928 928 928 928 928 928 927 927 927 927 926 925 923 922 921 920 919 917 910 903 890 884 882 882 881 880 880 880 879 879 877 875 872 869 869 869 870 870 870 868 867 867 867 868 870 870 872 873 873 874 875 876 880 883 884 887 893 902 902 903 905 910 912 913 913 914 915 916 916 916 916 916 916 916 915 915 915 914 914 914 914 913 913 913 912 912 912 912 912 912 911 910 908 908 907 905 902 901 899 898 893 884 876 871 867 862 862 861 860 860 860 860 860 860 860 859 858 855 853 850 850 850 852 852 853 853 854 858 861 862 863 863 862 860 853 853 853 867 874 877 884 892 895 896 898 900 900 900 901 903 904 904 904 904 904 904 904 904 906 906 906 905 904 903 903 902 901 901 900 900 900 900 900 900 899 899 899 899 899 899 899 899 899 899 899 899 899 899 899 898 898 897 897 897 897 897 896 896 896 896 895 895 894 893 893 893 893 893 893 893 893 894 894 894 892 892 892 894 896 921 0 0 0 0 0 0 0 0 0 0 0 0 0 1087 1105 1124 1146 1150 1150 1150 1140 1140 1138 0 0 0 0 0 0 0 0 758 740 740 730 728 721 713 708 694 690 672 649 0 0 0 0 0 0 0 0 0 0 0 0 0 0 0 0 0 0 0 0 0 0 0 0 0 0 0 0 0 0 0 0 0 0 0 0 0 0 0 0 0 0 0 0 0 0 0 0 0 0 0 0 0 0 0 0 0 0 0 0 0 0 0 0 0 0 0 0 0 0 0 0 0 0 0 0 0 0 0 0 0 0 0 0 0 0 0 0 0 0 0 0 0 0
493 493 499 501 520 537 543 543 557 573 583 593 613 634 651 660 664 677 689 700 716 735 752 765 776 786 801 817 826 833 838 846 868 905 925 939 945 947 953 959 970 977 987 1002 1021 1039 1044 1062 1080 1094 1103 1110 1115 1121 1126 1135 1144 1153 1162 1168 1180 1191 1203 1210 1217 1220 1228 1233 1234 1235 1237 1247 1251 1253 1253 1254 1257 1261 1262 1264 1265 1277 1277 1277 0 0 0 0 0 0 0 0 0 0 0 0 0 0 0 0 1227 1241 1242 1243 1247 1247 1247 1239 1228 1208 1204 1198 1198 1197 1192 1189 1181 1171 1157 1149 1135 1114 1107 1105 1093 1093 1093 1096 1114 1127 1142 1148 1152 1161 1171 1184 1188 1192 1198 1209 1215 1222 1230 1231 1231 1231 1228 1228 1228 1228 1228 1225 1225 1219 1200 0 0 0 0 969 954 944 932 928 928 928 929 929 929 929 929 929 929 929 929 929 930 930 930 930 930 930 930 929 929 929 929 929 929 929 930 930 930 930 931 931 931 931 931 931 931 931 931 931 931 932 932 932 932 932 932 931 931 931 930 929 928 927 925 923 919 918 916 907 891 862 853 853 851 851 851 850 850 848 846 844 844 844 847 848 848 848 848 848 851 853 854 856 860 860 860 860 860 860 866 871 878 881 886 892 900 910 914 918 922 926 926 926 927 928 928 929 929 929 929 929 929 929 928 928 928 927 927 926 926 926 926 926 926 926 926 925 924 924 923 922 921 919 919 917 913 909 901 889 886 886 884 884 883 882 882 881 880 877 876 873 871 871 871 871 871 870 868 867 867 867 869 871 871 872 873 874 876 878 879 882 883 886 887 893 894 901 902 903 907 910 911 911 912 913 913 913 913 914 914 914 913 913 913 913 913 912 912 911 910 910 910 910 910 910 910 910 910 909 907 906 905 904 903 901 899 898 896 892 884 876 871 867 862 862 862 862 863 863 863 863 861 860 860 860 859 855 853 853 853 857 860 860 860 861 861 863 865 865 865 865 864 859 859 859 867 874 877 883 890 895 895 897 899 899 899 899 899 899 899 899 899 899 900 901 901 902 902 902 902 901 900 899 899 897 897 897 896 896 896 896 896 896 897 897 898 898 897 897 897 897 897 897 897 897 897 897 897 897 897 896 896 896 896 896 895 894 894 893 893 893 892 892 891 891 891 891 891 891 891 890 890 889 889 889 890 892 898 0 0 0 0 0 0 0 0 0 0 0 0 0 1087 1105 1124 1146 1150 1150 1150 1140 1133 1131 0 0 0 0 0 0 0 817 788 768 742 731 730 729 714 704 694 687 675 0 0 0 0 0 0 0 0 0 0 0 0 0 0 0 0 0 0 466 473 473 0 0 0 0 0 0 0 0 0 0 0 0 0 0 0 0 0 0 0 0 0 0 0 0 0 0 0 0 0 0 0 0 0 0 0 0 0 0 0 0 0 0 0 0 0 0 0 0 0 0 0 0 0 0 0 0 0 0 0 0 0 0 0 0 0 0 0 0 0 0 0 0 0 0
493 493 499 501 520 529 538 543 557 573 583 595 616 639 651 660 664 677 692 705 718 735 752 765 773 786 801 817 826 833 838 849 868 905 925 939 945 947 953 959 968 977 987 1002 1018 1038 1043 1062 1080 1093 1103 1110 1115 1124 1132 1141 1148 1154 1162 1168 1180 1191 1203 1210 1216 1219 1226 1233 1233 1234 1237 1246 1251 1253 1253 1253 1256 1261 1261 1262 1264 1261 1260 0 0 0 0 0 0 0 0 0 0 0 0 0 0 0 0 1219 1227 1234 1235 1242 1242 1242 1241 1235 1228 1209 1208 1208 1207 1205 1205 1197 1189 1180 1169 1162 1150 1133 1125 1123 1123 1121 1121 1121 1142 1155 1166 1172 1175 1187 1193 1193 1195 1198 1205 1218 1223 1227 1229 1229 1229 1225 1223 1223 1223 1225 1225 1225 1223 1216 0 0 0 0 0 962 941 934 928 927 927 927 927 927 927 927 927 927 927 928 928 928 928 928 928 928 928 928 928 928 928 927 927 927 927 927 927 927 928 928 928 929 929 929 929 929 929 929 929 929 929 929 930 930 930 930 930 930 929 929 929 927 926 924 923 921 919 916 911 900 879 862 853 853 851 851 851 851 851 850 849 846 846 846 848 848 848 849 849 849 853 854 855 855 859 860 860 860 860 860 866 871 878 883 885 890 898 909 913 916 921 923 924 924 925 926 926 927 927 927 927 927 927 926 926 926 926 925 925 925 924 924 924 924 924 923 923 923 921 921 921 920 919 918 916 916 911 907 901 889 886 886 886 886 885 883 883 882 880 877 876 874 873 873 872 872 871 870 868 867 867 867 870 872 872 872 873 875 876 878 879 882 883 886 887 891 893 898 901 903 906 908 909 909 911 911 911 911 911 911 911 911 911 911 911 911 911 909 909 909 908 907 907 907 907 907 907 907 907 906 905 904 903 902 901 900 897 895 895 892 885 876 871 867 864 864 864 864 864 864 864 863 863 862 861 860 860 859 859 859 859 859 862 864 864 866 866 867 870 871 872 872 872 868 868 868 871 874 877 880 889 892 893 894 895 896 896 896 896 897 898 898 898 897 897 897 897 897 897 896 896 895 894 894 893 892 892 892 892 892 891 890 890 890 890 892 893 895 895 895 895 894 894 894 894 894 894 895 895 895 895 894 894 894 894 894 894 893 893 892 892 891 891 890 890 889 889 889 889 889 889 888 888 888 888 888 888 888 888 0 0 0 0 0 0 0 0 0 0 0 0 0 1087 1105 1129 1149 1150 1150 1150 1139 1129 0 0 0 0 0 0 0 839 817 788 768 746 743 736 734 716 708 699 698 687 0 0 0 0 0 0 0 0 0 0 0 0 0 0 0 0 0 465 465 473 473 473 0 0 0 0 0 0 0 0 0 0 0 0 0 0 0 0 0 0 0 0 0 0 0 0 0 0 0 0 0 0 0 0 0 0 0 0 0 0 0 0 0 0 0 0 0 0 0 0 0 0 0 0 0 0 0 0 0 0 0 0 0 0 0 0 0 0 0 0 0 0 0 0 0
493 493 499 500 513 522 534 543 557 573 582 595 616 639 651 656 661 677 693 707 721 737 751 764 772 783 796 811 823 833 838 851 872 905 924 937 940 947 952 958 968 977 987 1001 1017 1037 1042 1061 1077 1091 1101 1110 1115 1124 1132 1141 1150 1157 1163 1168 1180 1194 1205 1211 1216 1219 1223 1225 1230 1233 1237 1242 1246 1249 1249 1253 1255 1260 1260 1260 1246 1220 0 0 0 0 0 0 0 0 0 0 0 0 0 0 0 0 1218 1222 1227 1230 1230 1233 1236 1236 1236 1234 1227 1217 1216 1214 1213 1209 1206 1201 1193 1183 1175 1167 1162 1149 1149 1149 1150 1152 1153 1159 1180 1188 1196 1198 1199 1204 1208 1209 1214 1222 1223 1227 1227 1228 1227 1227 1227 1223 1222 1222 1222 1224 1224 1224 1218 1203 0 0 0 0 995 961 937 929 927 927 927 926 926 925 925 925 925 926 926 926 926 927 927 927 927 927 927 926 926 926 926 926 926 926 925 925 925 925 925 926 926 926 927 927 928 928 928 928 928 927 927 927 927 928 928 928 928 928 928 927 926 924 923 922 921 919 917 912 908 897 876 862 853 853 852 853 853 853 853 853 851 848 848 848 847 848 847 847 848 851 853 855 855 855 857 857 857 858 858 859 866 872 875 880 885 890 898 904 909 915 920 920 921 922 923 924 924 924 924 925 925 925 924 924 924 924 923 923 922 922 922 922 922 921 921 921 920 920 920 919 919 919 918 916 914 913 910 905 899 890 887 886 886 886 885 883 883 882 880 878 876 874 874 874 874 874 872 870 870 870 870 872 872 873 873 873 874 875 876 878 880 882 884 887 890 890 891 896 899 902 904 906 906 907 907 907 908 908 908 908 908 908 907 907 907 906 906 906 906 906 906 905 903 903 903 903 903 903 903 903 902 902 901 900 899 897 895 893 892 892 885 881 877 873 870 870 870 870 870 870 870 869 866 864 862 861 861 861 863 863 866 867 869 870 870 870 871 871 873 873 873 873 872 871 871 871 875 876 877 881 886 890 890 892 893 893 893 893 894 894 894 894 893 892 890 889 889 889 889 890 890 890 890 890 888 888 888 889 889 889 886 886 886 886 887 888 888 890 890 890 890 890 890 891 891 892 892 892 892 892 892 893 893 893 893 893 892 892 891 891 890 890 889 888 888 888 887 887 887 886 886 886 886 886 884 883 876 874 871 848 0 0 0 0 0 0 0 0 0 0 0 0 1099 1113 1129 1146 1150 1150 1150 1136 1115 0 0 0 0 0 0 851 839 817 788 768 751 743 737 734 721 708 705 700 687 0 0 0 0 0 0 0 0 0 0 0 0 0 0 0 0 0 435 435 442 451 451 0 0 0 0 0 0 0 0 0 0 0 0 0 0 0 0 0 0 0 0 0 0 0 0 0 0 0 0 0 0 0 0 0 0 0 0 0 0 0 0 0 0 0 0 0 0 0 0 0 0 0 0 0 0 0 0 0 0 0 0 0 0 0 0 0 0 0 0 0 0 0 0 0
496 498 498 498 508 518 527 540 557 573 582 595 616 639 648 654 658 676 693 707 721 737 751 763 769 777 793 807 819 831 836 853 876 907 924 931 933 942 950 957 965 978 989 1001 1011 1030 1035 1050 1069 1084 1098 1108 1115 1124 1132 1141 1150 1160 1169 1176 1186 1194 1205 1211 1215 1219 1221 1222 1224 1228 1231 1235 1239 1244 1245 1247 1254 1256 1256 1256 1245 0 0 0 0 0 0 0 0 0 0 0 0 0 0 0 0 1212 1220 1223 1227 1227 1227 1228 1231 1233 1233 1233 1227 1223 1220 1216 1213 1209 1206 1204 1204 1190 1179 1178 1177 1177 1179 1180 1180 1190 1193 1196 1200 1209 1210 1210 1211 1211 1211 1214 1222 1228 1228 1228 1227 1227 1226 1226 1225 1221 1219 1219 1219 1219 1219 1218 1212 1189 0 0 0 0 980 954 936 928 926 925 925 924 924 924 924 924 924 924 924 924 924 924 924 925 925 925 925 924 924 924 924 924 924 924 923 923 923 923 924 924 924 924 925 925 926 926 926 926 926 926 925 925 925 925 927 927 927 926 926 925 924 922 921 919 918 918 916 910 902 892 874 858 855 855 855 855 855 855 854 854 852 850 849 849 848 848 848 848 852 855 855 855 855 855 856 856 856 856 856 859 866 871 875 880 885 890 891 902 905 910 916 917 919 921 921 922 922 922 922 923 923 923 922 922 922 922 921 920 920 920 919 919 919 919 919 919 918 918 918 918 917 917 915 913 912 911 910 905 899 890 887 887 886 886 885 884 883 882 880 878 876 876 876 875 875 874 873 873 873 876 879 879 879 878 877 877 877 877 877 878 881 882 884 887 890 890 891 895 897 899 900 903 904 904 904 904 904 904 904 905 905 905 904 904 904 904 904 903 903 902 901 899 899 899 898 898 898 899 900 900 899 898 897 896 894 893 892 890 890 888 885 882 878 874 874 874 874 874 874 874 874 874 873 870 868 868 868 869 871 871 871 871 871 871 871 873 873 873 873 873 874 874 874 873 873 873 877 879 879 882 882 884 887 891 891 891 889 889 889 889 887 887 886 886 884 884 884 885 887 887 887 887 887 885 885 885 885 884 884 883 882 882 882 884 884 885 888 888 888 885 884 884 884 886 888 888 889 890 890 890 891 891 891 891 891 891 891 890 889 889 889 888 888 887 886 886 886 885 885 885 885 884 883 883 881 876 872 871 865 846 816 809 798 0 0 0 0 0 0 0 0 0 1099 1113 1117 1144 1144 1144 1143 1136 0 0 0 0 0 0 0 817 810 800 769 755 754 751 748 747 747 712 712 712 712 0 0 0 0 0 0 0 0 0 0 0 0 0 0 0 0 0 0 420 442 449 0 0 0 0 0 0 0 0 0 0 0 0 0 0 0 0 0 0 0 0 0 0 0 0 0 0 0 0 0 0 0 0 0 0 0 0 0 0 0 0 0 0 0 0 0 0 0 0 0 0 0 0 0 0 0 0 0 0 0 0 0 0 0 0 0 0 0 0 0 0 0 0 0 0
496 497 497 498 505 516 523 539 556 574 583 595 611 636 642 649 653 674 693 707 721 737 751 758 765 775 793 807 819 831 836 853 876 907 922 928 929 937 946 957 965 978 989 1001 1011 1017 1022 1037 1056 1074 1088 1097 1105 1116 1125 1136 1150 1160 1169 1177 1186 1194 1205 1211 1215 1219 1221 1222 1223 1225 1228 1232 1235 1237 1240 1245 1250 1255 1255 1255 0 0 0 0 0 0 0 0 0 0 0 0 0 0 0 0 1201 1213 1220 1224 1225 1225 1225 1225 1225 1228 1228 1228 1227 1224 1220 1217 1213 1208 1206 1205 1204 1204 1205 1204 1203 1201 1201 1201 1202 1205 1205 1207 1208 1210 1210 1211 1212 1212 1213 1219 1223 1228 1228 1228 1223 1223 1222 1220 1220 1220 1215 1211 1210 1208 1208 1204 1197 1180 0 0 0 996 965 941 932 926 922 922 922 922 922 922 922 922 922 922 922 922 922 923 923 923 923 922 922 922 922 922 922 922 921 921 922 921 921 922 922 922 922 922 922 923 923 924 924 924 924 924 924 923 923 923 924 924 924 923 923 922 922 919 918 916 915 915 913 908 899 889 874 858 855 855 855 857 857 857 857 857 856 852 849 849 848 848 848 848 852 855 855 855 855 855 856 856 856 856 856 859 866 871 875 879 884 890 891 898 903 906 911 912 915 918 918 919 919 919 920 920 920 920 919 919 919 918 918 918 917 916 916 916 916 916 916 917 917 917 916 915 915 915 914 912 910 909 907 905 898 891 888 887 887 886 885 884 883 882 880 880 880 880 883 883 883 882 882 882 882 884 886 886 887 887 887 886 885 885 885 887 887 888 888 888 890 890 890 892 893 895 896 897 899 901 901 901 901 901 901 903 903 903 901 900 899 899 898 898 896 896 895 895 895 895 895 895 896 895 895 895 893 893 892 890 890 889 888 887 885 884 883 883 882 881 880 880 880 880 880 880 879 879 878 878 877 876 876 876 876 875 873 873 873 875 876 876 876 876 876 876 878 878 878 880 880 880 880 880 880 882 882 882 883 884 884 884 883 881 881 881 881 881 881 881 880 878 878 878 880 881 881 881 876 874 874 873 873 873 869 869 869 872 872 872 875 875 875 875 875 874 874 874 877 884 884 884 886 886 888 888 888 889 889 890 890 890 890 889 888 888 888 887 887 886 884 884 883 883 883 882 882 881 880 880 878 875 871 870 864 839 816 797 793 772 744 0 0 0 0 0 0 0 1099 1109 1113 1120 1133 1133 1133 1127 0 0 0 0 0 0 0 0 810 800 769 761 761 761 768 768 768 746 739 737 717 717 0 0 0 0 0 0 0 0 0 0 0 0 0 0 0 0 0 0 0 0 0 0 0 0 0 0 0 0 0 0 0 0 0 0 0 0 0 0 0 0 0 0 0 0 0 0 0 0 0 0 0 0 0 0 0 0 0 0 0 0 0 0 0 0 0 0 0 0 0 0 0 0 0 0 0 0 0 0 0 0 0 0 0 0 0 0 0 0 0 0 0 0 0 0
493 493 496 498 502 510 514 535 556 574 583 595 611 629 636 646 650 667 690 707 719 734 749 758 763 772 791 804 817 829 834 852 876 907 921 926 927 932 943 953 965 978 989 998 1011 1017 1022 1035 1050 1068 1083 1096 1105 1115 1123 1131 1144 1160 1169 1177 1186 1194 1201 1208 1214 1216 1220 1221 1223 1225 1228 1231 1233 1234 1235 1240 1243 1243 1243 1213 0 0 0 0 0 0 0 0 0 0 0 0 0 0 0 0 1220 1223 1224 1224 1225 1225 1225 1225 1225 1225 1225 1226 1226 1225 1222 1218 1213 1204 1204 1204 1204 1204 1205 1204 1204 1206 1206 1207 1209 1210 1210 1210 1210 1211 1211 1211 1212 1212 1215 1219 1223 1223 1223 1218 1214 1214 1214 1217 1217 1217 1208 1204 1203 1203 1199 1192 1183 1162 0 0 0 977 944 931 925 922 920 919 919 919 920 920 920 920 920 920 920 920 921 921 921 921 921 920 920 920 919 919 919 919 919 919 919 919 919 920 920 920 920 920 920 920 921 922 922 922 922 921 921 921 922 922 923 923 923 921 920 919 918 917 915 914 913 912 911 907 899 885 874 863 861 861 861 864 864 864 861 861 861 860 859 856 852 849 849 849 854 855 855 855 855 855 856 856 857 857 859 864 867 872 875 880 883 885 890 897 901 903 908 909 910 914 916 916 917 917 917 917 917 917 917 916 916 915 915 915 914 914 914 914 914 914 914 914 914 914 913 912 911 911 910 910 908 907 906 903 898 891 889 889 888 887 885 884 884 883 882 881 881 881 885 887 887 887 886 886 886 886 887 887 889 889 889 888 888 888 888 889 890 890 890 890 890 890 890 890 890 890 893 894 894 895 899 899 899 900 900 899 899 899 896 896 896 896 896 896 895 894 894 893 891 891 891 890 890 890 890 890 889 887 887 886 886 886 886 885 883 882 882 883 882 883 884 884 883 883 883 882 882 882 881 881 879 879 878 878 878 878 878 878 878 879 880 880 880 880 881 881 882 882 882 882 882 882 882 882 882 882 881 880 880 877 872 869 868 867 856 856 856 865 876 876 876 858 852 852 852 852 852 852 844 840 840 840 844 844 844 847 852 857 857 858 858 858 857 859 859 860 863 865 873 875 876 879 882 883 886 887 887 887 887 887 887 887 887 887 886 886 886 885 885 884 883 882 882 881 881 880 880 879 879 878 877 873 870 864 860 839 816 797 793 772 744 744 0 0 0 0 0 0 1074 1081 1096 1113 1131 1131 1131 1111 0 0 0 0 0 0 0 0 0 0 770 770 770 785 785 785 782 746 745 739 728 728 0 0 0 0 0 0 0 0 0 0 0 0 0 0 0 0 0 0 0 0 0 0 0 0 0 0 0 0 0 0 0 0 0 0 0 0 0 0 0 0 0 0 0 0 0 0 0 0 0 0 0 0 0 0 0 0 0 0 0 0 0 0 0 0 0 0 0 0 0 0 0 0 0 0 0 0 0 0 0 0 0 0 0 0 0 0 0 0 0 0 0 0 0 0
493 493 495 495 496 497 506 531 554 574 583 593 609 625 636 646 650 666 683 701 715 731 748 753 755 770 789 802 815 829 833 852 874 899 915 922 926 932 941 949 960 972 986 998 1011 1017 1022 1035 1050 1068 1083 1095 1103 1114 1122 1128 1138 1155 1168 1177 1177 1185 1195 1204 1207 1213 1217 1221 1223 1223 1225 1228 1230 1230 1233 1234 1234 1234 1225 1192 0 0 0 0 0 0 0 0 0 0 0 0 0 0 0 1221 1227 1230 1230 1230 1227 1226 1225 1225 1225 1225 1225 1225 1225 1226 1226 1226 1213 1199 1199 1199 1203 1204 1205 1204 1204 1206 1206 1207 1209 1210 1210 1210 1210 1210 1210 1211 1211 1212 1215 1219 1223 1223 1223 1214 1208 1208 1208 1209 1209 1209 1203 1202 1201 1200 1192 1191 1169 0 0 0 0 959 936 928 921 919 919 917 917 917 918 918 918 918 918 918 919 919 919 919 919 919 919 919 919 918 916 916 916 916 916 916 916 916 917 917 917 917 917 917 917 917 918 919 919 919 919 918 918 918 918 919 919 919 919 919 917 916 915 913 913 913 912 912 909 903 895 885 874 871 871 871 872 873 873 873 871 870 870 869 869 860 856 851 851 851 854 855 855 857 857 857 866 868 868 869 873 875 875 875 875 880 883 886 890 896 901 903 904 907 910 912 914 914 914 915 915 915 914 914 913 913 913 913 913 913 912 912 912 912 912 912 912 910 910 910 910 908 905 905 905 905 904 904 903 901 898 893 892 891 890 888 888 887 887 887 887 887 887 887 888 889 890 890 890 890 890 890 890 890 890 890 890 890 890 891 891 891 891 891 890 890 890 890 890 889 889 889 889 889 890 890 893 893 893 890 890 890 891 891 892 892 895 895 895 895 893 890 889 887 883 883 883 884 884 884 885 885 885 885 884 884 884 882 881 881 881 881 882 883 883 884 884 884 885 885 884 884 884 883 883 883 882 881 881 881 881 881 881 881 881 881 881 882 882 882 882 883 883 883 883 883 884 884 884 884 883 882 881 880 877 877 871 858 849 846 845 845 845 851 857 857 857 843 834 834 834 837 837 837 835 833 832 832 832 833 834 837 839 843 845 846 848 850 851 852 852 858 861 864 867 871 872 876 880 882 884 885 885 885 885 886 886 886 886 885 885 885 884 884 884 882 882 881 880 879 879 878 877 876 876 873 870 870 869 864 857 839 816 797 793 772 744 744 744 788 0 0 0 0 1033 1056 1077 1105 1129 1129 1129 0 0 0 0 0 0 0 866 853 852 0 0 0 797 795 795 795 783 763 763 748 746 744 0 0 0 0 0 0 0 0 0 0 0 0 0 0 0 0 0 0 0 0 0 0 0 0 0 0 0 0 0 0 0 0 0 0 0 0 0 0 0 0 0 0 0 0 0 0 0 0 0 0 0 0 0 0 0 0 0 0 0 0 0 0 0 0 0 0 0 0 0 0 0 0 0 0 0 0 0 0 0 0 0 0 0 0 0 0 0 0 0 0 0 0 0 0
493 493 493 495 496 497 506 528 552 574 583 593 608 624 636 644 650 666 681 696 710 730 745 753 753 768 782 800 815 826 830 844 859 881 900 911 919 930 938 943 950 963 981 998 1013 1019 1024 1035 1050 1068 1083 1092 1102 1113 1121 1126 1131 1142 1161 1163 1163 1166 1182 1198 1201 1207 1212 1216 1218 1218 1221 1224 1226 1227 1228 1228 1228 1226 1209 1191 0 0 0 0 0 0 0 0 0 0 0 0 0 0 0 1221 1227 1230 1230 1230 1227 1226 1225 1225 1225 1224 1224 1225 1225 1226 1226 1226 1212 1199 1191 1191 1191 1195 1200 1204 1204 1204 1204 1207 1209 1210 1210 1210 1210 1210 1210 1211 1211 1212 1215 1216 1218 1218 1218 1214 1208 1206 1204 1197 1196 1196 1196 1196 1196 1195 1192 1184 1166 0 0 0 0 944 930 924 918 917 916 916 915 915 916 916 916 916 916 916 917 917 917 917 917 917 917 917 917 915 914 914 914 914 914 913 912 912 912 913 913 913 912 912 912 913 913 913 913 912 911 911 911 911 912 914 914 914 914 914 914 914 912 911 911 910 910 909 907 901 893 885 879 877 876 876 877 877 878 879 879 879 877 876 874 874 872 866 863 863 863 869 869 871 873 874 878 878 878 877 877 877 877 879 880 880 882 886 890 895 901 902 904 905 905 907 908 909 910 910 911 911 911 911 911 910 909 909 908 908 908 908 908 909 909 909 909 908 906 906 904 904 904 902 901 900 900 900 900 899 897 894 894 893 892 890 890 890 889 889 890 890 892 892 892 892 891 891 891 891 891 891 891 891 891 890 891 891 891 892 892 892 891 891 891 891 890 889 888 888 886 881 877 876 875 872 871 866 862 862 862 867 871 872 872 877 881 882 882 882 882 880 872 866 866 866 866 869 872 876 876 876 872 872 872 872 872 874 875 875 876 880 882 883 884 884 884 885 885 885 885 885 886 885 885 885 885 884 884 884 883 883 883 883 883 883 883 883 883 883 884 884 884 884 884 884 884 884 884 884 883 882 880 878 877 877 871 858 846 844 839 833 833 833 843 843 843 835 829 829 829 831 831 831 831 831 831 831 831 830 830 830 831 831 834 835 836 840 845 846 852 857 861 863 864 869 869 874 878 879 879 881 882 883 883 884 884 884 884 884 883 883 883 882 882 881 881 879 879 878 877 874 874 874 873 869 869 869 867 862 851 836 816 797 793 772 734 734 734 776 0 0 0 0 0 1056 1077 1105 1123 1123 1123 0 0 0 0 0 0 887 867 867 867 872 872 872 829 810 798 796 796 791 788 788 769 742 0 0 0 0 0 0 0 0 0 0 0 0 0 0 0 0 0 0 0 0 0 0 0 0 0 0 0 0 0 0 0 0 0 0 0 0 0 0 0 0 0 0 0 0 0 0 0 0 0 0 0 0 0 0 0 0 0 0 0 0 0 0 0 0 0 397 404 0 0 0 0 0 0 0 0 0 0 0 0 0 0 0 0 0 0 0 0 0 0 0 0 0 0 0
486 486 490 494 495 495 506 528 549 570 583 593 608 624 637 646 652 666 680 691 704 725 745 749 753 759 776 792 807 821 825 834 841 848 881 898 911 926 936 943 946 957 977 1003 1022 1029 1038 1044 1057 1069 1082 1092 1101 1111 1117 1124 1128 1135 1149 1158 1158 1160 1170 1188 1192 1200 1205 1210 1212 1213 1214 1219 1223 1224 1226 1226 1226 1221 1199 1172 0 0 0 0 0 0 0 0 0 0 0 0 0 0 1205 1221 1227 1230 1230 1230 1227 1226 1225 1225 1222 1222 1222 1223 1223 1226 1226 1226 1212 1199 1188 1188 1188 1191 1199 1203 1203 1203 1203 1203 1204 1208 1210 1210 1210 1210 1210 1210 1210 1211 1211 1211 1212 1212 1212 1210 1208 1205 1203 1195 1187 1187 1187 1192 1192 1192 1187 1184 0 0 0 0 951 930 925 921 917 915 914 913 913 913 913 914 914 914 915 915 915 915 915 915 915 915 915 915 914 913 913 913 913 913 913 912 912 912 912 912 912 911 911 911 912 912 912 910 910 909 908 908 908 908 908 908 909 909 909 909 909 910 910 910 910 910 907 905 903 897 893 888 884 882 882 882 881 882 883 883 883 883 884 887 887 887 886 882 882 882 884 884 884 884 884 884 884 884 884 884 884 884 884 884 884 882 882 882 887 892 895 898 900 901 902 902 904 906 906 906 906 907 908 908 908 907 906 904 902 902 902 903 903 903 901 901 901 901 902 902 903 903 903 900 897 895 895 895 897 897 897 895 894 894 894 894 893 892 892 892 892 893 893 894 894 894 894 893 893 892 892 892 893 893 893 892 892 892 892 892 892 892 891 891 891 890 890 888 887 886 885 877 869 868 859 855 851 848 845 840 835 835 835 847 856 861 865 867 870 875 875 875 865 858 855 855 855 858 863 868 868 868 867 860 857 857 857 860 865 871 876 880 883 883 884 884 885 885 885 886 886 886 886 886 886 886 886 884 884 884 884 884 884 884 884 884 884 884 884 885 885 885 885 884 884 884 884 884 884 884 883 882 878 877 876 874 865 856 846 841 837 833 833 833 837 837 837 830 828 828 828 828 829 829 829 829 829 829 829 829 828 827 826 826 826 826 826 830 839 840 849 856 860 862 862 862 869 873 875 875 877 878 880 881 882 883 883 882 882 882 881 881 881 881 880 880 879 878 876 876 875 873 873 872 868 868 868 867 865 855 840 829 816 797 793 767 732 732 732 772 0 0 0 0 0 1056 1077 1105 1113 1113 1113 0 0 0 0 0 0 869 869 873 873 875 875 875 873 830 800 800 800 799 791 788 769 746 0 0 0 0 0 0 0 0 0 0 0 0 0 0 0 0 0 0 0 0 0 0 0 0 0 0 0 0 0 0 0 0 0 0 0 0 0 0 0 0 0 0 0 0 0 0 0 0 0 0 0 0 0 0 0 0 0 0 0 0 0 0 0 0 421 406 393 0 0 0 0 0 0 0 0 0 0 0 0 0 0 0 0 0 0 0 0 0 0 0 0 0 0 0
478 478 488 489 490 495 507 528 548 566 582 591 607 624 639 647 657 668 678 687 697 715 732 733 747 759 776 791 805 819 823 834 841 848 867 883 902 920 934 943 946 955 976 1003 1022 1029 1038 1044 1057 1069 1082 1090 1096 1103 1111 1118 1123 1130 1139 1150 1156 1159 1166 1181 1184 1194 1202 1206 1207 1208 1209 1214 1219 1224 1224 1224 1224 1214 1191 0 0 0 0 0 0 0 0 0 0 0 0 0 0 1178 1205 1221 1224 1226 1226 1226 1226 1225 1222 1214 1214 1214 1216 1218 1218 1219 1219 1219 1212 1199 1187 1187 1187 1188 1197 1201 1201 1201 1196 1189 1189 1189 1205 1207 1207 1207 1207 1207 1207 1206 1205 1206 1206 1206 1206 1206 1204 1203 1202 1195 1187 1187 1187 1191 1191 1191 1186 1178 0 0 0 0 940 924 921 919 914 912 911 911 911 912 912 912 912 913 913 913 913 913 913 913 913 913 913 913 912 911 908 908 907 904 903 903 903 903 903 903 903 903 903 903 903 902 901 899 899 899 900 901 901 902 902 902 901 900 900 900 900 900 903 904 904 904 903 901 898 896 893 893 893 892 885 885 885 887 887 889 889 889 890 893 893 893 891 890 890 890 888 888 888 888 888 889 890 890 891 891 891 891 890 888 886 884 884 884 887 889 889 890 892 894 898 900 901 901 901 901 901 899 899 899 898 897 895 892 892 892 895 897 897 897 890 890 890 892 898 899 899 899 896 892 889 889 889 890 896 896 896 895 895 895 895 895 895 895 895 895 895 895 895 896 896 897 897 897 896 895 895 895 895 894 894 894 894 894 893 893 893 893 893 891 891 890 890 888 886 884 882 876 868 864 859 854 850 845 842 839 834 834 834 834 846 851 852 853 853 855 856 856 856 852 848 848 848 849 856 864 865 865 865 858 851 851 851 855 861 868 875 881 883 883 884 885 885 885 885 886 886 886 886 886 886 886 886 885 885 885 884 884 884 884 884 884 884 884 884 885 885 885 885 885 884 884 884 884 884 883 882 881 878 875 875 874 865 853 845 840 837 833 833 833 833 833 831 827 827 827 828 828 828 828 828 829 829 828 828 828 828 826 825 825 825 826 826 829 834 835 840 845 848 852 854 858 861 866 868 872 876 878 879 880 881 881 881 881 881 881 880 880 880 879 879 879 877 876 875 875 874 872 871 871 867 867 867 866 865 855 840 829 816 794 773 745 722 722 722 729 0 0 0 0 0 0 1075 1094 1099 1099 0 0 0 0 0 0 869 869 869 874 875 875 875 875 873 835 818 813 810 808 802 788 769 751 0 0 0 0 0 0 0 0 0 0 0 0 0 0 0 0 0 0 0 0 0 0 0 0 0 0 0 0 0 0 0 0 0 0 0 0 0 0 0 0 0 0 0 0 0 0 0 0 0 0 0 0 0 0 0 0 0 0 0 0 0 0 0 0 422 422 393 0 0 0 0 0 0 0 0 0 0 0 0 0 0 0 0 0 0 0 0 0 0 0 0 0 0 0
476 476 481 483 483 496 511 529 548 564 580 591 606 623 639 647 658 668 678 686 695 706 720 733 747 759 775 790 805 818 822 832 841 848 867 883 902 919 933 940 946 955 976 1003 1022 1029 1038 1044 1057 1069 1076 1082 1087 1095 1105 1112 1120 1127 1139 1148 1156 1157 1165 1175 1179 1190 1199 1204 1205 1206 1206 1210 1215 1218 1218 1218 1214 1202 0 0 0 0 0 0 0 0 0 0 0 0 0 0 0 1178 1205 1216 1220 1222 1222 1222 1221 1219 1216 1208 1208 1208 1208 1211 1212 1212 1212 1212 1207 1200 1188 1188 1188 1188 1193 1198 1198 1198 1190 1189 1189 1189 1198 1201 1203 1203 1203 1202 1202 1202 1201 1200 1200 1200 1200 1200 1200 1199 1199 1192 1186 1184 1184 1184 1184 1184 1180 1172 0 0 0 0 929 920 914 910 909 909 909 909 909 910 910 910 910 910 911 911 912 912 912 911 911 911 911 911 910 907 902 899 896 890 884 884 884 888 889 889 889 889 885 883 882 881 879 877 876 876 876 881 883 883 883 881 881 880 880 881 882 887 893 894 894 894 894 894 893 893 894 894 894 894 894 894 894 894 893 893 894 894 894 894 893 893 893 893 893 893 893 893 893 892 892 892 893 894 896 896 896 893 891 890 887 886 886 886 886 886 882 882 882 882 887 892 892 892 888 886 884 881 881 881 881 881 878 873 873 873 882 889 889 889 883 883 883 883 883 887 887 887 883 882 882 882 885 888 890 893 893 895 895 896 896 896 896 896 896 896 896 896 896 896 897 897 897 897 896 896 896 896 895 895 895 895 894 894 894 894 894 893 893 891 891 889 889 887 884 882 878 872 867 864 859 853 847 842 840 839 834 830 830 830 838 838 838 839 839 841 846 848 848 848 845 841 841 841 846 857 860 860 860 855 850 849 849 849 856 864 875 881 883 883 883 884 885 885 885 886 886 886 886 886 886 886 886 885 885 885 885 885 885 885 885 885 885 885 885 885 885 885 885 885 884 884 884 884 883 882 881 880 878 875 874 874 863 852 845 840 839 837 836 833 832 829 827 826 826 826 826 827 827 828 828 828 827 827 827 827 827 825 825 825 825 825 825 829 830 831 832 833 836 842 849 855 860 864 866 869 874 876 877 878 879 879 879 879 879 879 879 878 878 878 877 876 876 875 874 873 873 871 871 869 866 866 866 865 864 855 840 829 816 794 773 745 714 711 711 711 0 0 0 0 0 0 0 0 0 0 0 0 0 0 0 895 869 869 869 874 875 875 875 875 873 835 818 813 810 808 789 761 761 761 763 0 0 0 0 0 0 0 0 0 0 0 0 0 0 0 0 0 0 0 0 0 0 0 0 0 0 0 0 0 0 0 0 0 0 0 0 0 0 0 0 0 0 0 0 0 0 0 0 0 0 0 0 0 0 0 0 0 0 0 0 0 0 0 424 424 395 0 0 0 0 0 0 0 0 0 0 0 0 0 0 0 0 0 0 0 0 0 0 0 0 0 0 0
469 469 469 471 483 496 516 535 548 563 580 591 605 623 639 644 658 668 676 685 694 706 720 733 747 762 775 789 804 807 821 832 841 855 867 883 902 919 933 940 946 955 975 998 1015 1020 1032 1038 1045 1054 1066 1073 1078 1095 1105 1108 1118 1127 1137 1148 1154 1157 1161 1170 1173 1184 1195 1198 1198 1200 1200 1204 1211 1211 1211 1207 1196 1182 0 0 0 0 0 0 0 0 0 0 0 0 0 0 0 1179 1196 1211 1218 1218 1218 1217 1216 1215 1211 1206 1200 1200 1200 1202 1205 1207 1207 1207 1204 1200 1189 1188 1188 1188 1193 1195 1195 1195 1188 1187 1187 1187 1192 1196 1198 1198 1198 1199 1199 1198 1197 1196 1194 1193 1193 1192 1192 1191 1190 1190 1186 1179 1179 1178 1174 1166 1150 1135 0 0 0 944 927 917 913 910 907 907 907 907 908 908 908 908 908 909 909 909 909 909 909 909 908 908 908 908 908 903 894 877 863 863 863 864 867 871 873 874 874 874 874 863 859 858 858 856 848 848 848 851 854 854 855 857 857 858 858 858 860 862 863 863 866 889 891 891 894 894 894 894 894 895 897 898 898 898 897 897 897 898 898 898 898 898 898 897 896 895 895 895 895 896 897 897 897 898 898 898 898 896 896 894 892 891 889 888 885 882 873 868 868 868 872 878 878 878 870 865 865 865 865 872 872 872 867 863 863 863 863 867 868 869 871 871 871 870 870 870 870 871 871 873 875 879 883 884 889 892 893 893 895 896 896 896 896 896 896 896 896 896 896 897 897 897 897 897 897 896 896 896 896 895 895 895 895 894 894 894 894 893 893 891 890 889 889 887 882 877 874 870 866 863 859 852 846 841 840 837 837 830 830 830 834 837 837 837 838 838 839 842 842 842 841 837 834 834 834 844 849 849 849 849 848 846 846 846 850 858 874 881 881 881 883 884 885 885 885 886 886 886 886 886 886 886 886 885 885 885 885 885 885 885 885 885 885 885 885 885 885 885 885 885 884 884 883 883 882 881 880 878 876 874 872 867 858 850 843 843 842 842 842 835 828 825 824 823 822 822 822 822 822 824 825 825 825 825 825 825 824 824 824 824 824 824 824 826 827 828 828 829 832 839 848 852 859 864 865 867 872 874 874 877 877 878 878 878 878 878 877 877 877 877 876 876 875 874 873 872 871 871 870 868 866 866 866 866 864 862 848 837 820 794 773 745 714 711 711 711 0 0 0 0 0 0 0 0 0 0 0 0 0 0 890 890 867 867 867 871 873 873 872 871 863 836 818 810 808 802 772 757 757 757 769 773 0 0 0 0 0 0 0 0 0 0 0 0 0 0 0 0 0 0 0 0 0 0 0 0 0 0 0 0 0 0 0 0 0 0 0 0 0 0 0 0 0 0 0 0 0 0 0 0 0 0 0 0 0 0 0 0 0 0 0 0 0 0 0 426 406 379 375 359 0 0 0 0 0 0 0 0 0 0 0 0 0 0 0 0 0 0 0 0 0 0 0 0
460 460 461 464 483 502 521 538 550 563 580 591 605 618 638 642 658 668 678 685 694 706 720 735 748 762 776 791 801 805 815 832 841 855 867 884 902 916 932 940 946 956 976 994 1008 1012 1023 1030 1036 1044 1056 1067 1078 1095 1105 1108 1116 1127 1136 1146 1149 1153 1160 1167 1170 1177 1188 1191 1191 1192 1192 1197 1206 1206 1206 1196 1177 0 0 0 0 0 0 0 0 0 0 0 0 0 0 0 0 1175 1195 1206 1216 1216 1216 1213 1211 1209 1206 1204 1200 1199 1199 1199 1200 1203 1203 1203 1202 1199 1199 1193 1192 1192 1192 1192 1192 1190 1188 1187 1187 1187 1187 1189 1192 1193 1193 1193 1193 1193 1193 1193 1191 1190 1187 1183 1182 1181 1180 1179 1179 1179 1176 1174 1168 1158 1133 1112 0 0 0 941 922 917 913 909 906 905 905 905 906 906 906 906 907 907 907 907 908 908 908 908 906 905 903 903 900 892 879 853 852 852 852 855 855 855 851 843 840 840 839 833 833 831 831 831 822 816 816 816 821 826 831 833 833 836 836 836 855 857 859 860 863 873 877 884 892 894 895 895 897 897 897 898 898 899 899 899 900 900 900 900 900 900 900 899 899 899 899 899 899 899 899 899 899 899 899 899 898 897 896 895 893 892 890 888 885 879 873 866 866 866 867 867 867 865 860 857 857 857 863 865 865 865 861 860 859 858 858 858 858 858 860 861 861 861 861 861 861 863 865 867 871 876 882 884 889 892 892 892 895 896 896 896 896 896 896 896 896 896 896 897 897 897 897 897 896 896 896 896 896 895 895 895 895 894 894 894 894 893 892 891 890 889 888 886 882 876 870 866 865 862 856 852 845 841 839 837 837 832 830 830 830 836 836 836 834 834 834 836 836 836 835 834 833 833 833 837 838 839 841 843 843 843 843 843 844 855 871 879 879 880 881 883 884 884 885 886 886 886 886 886 886 886 886 885 885 885 885 885 885 885 885 885 885 884 885 885 885 885 885 884 884 883 883 882 882 880 878 876 875 872 871 867 858 848 843 843 842 842 842 835 828 824 822 821 819 818 818 818 819 819 819 820 821 821 821 821 821 822 822 823 823 823 823 824 825 825 827 828 832 837 843 849 854 858 864 867 869 870 871 873 874 875 876 876 876 876 876 876 876 876 875 875 874 873 872 870 870 869 869 868 865 865 865 864 864 862 858 849 836 814 790 0 714 711 711 711 0 0 0 0 0 0 0 0 0 0 0 0 850 890 890 890 861 861 861 867 869 870 870 869 863 835 815 808 806 797 770 762 762 762 769 773 773 0 0 0 0 0 0 0 0 0 0 0 0 0 0 0 0 0 0 0 0 0 0 0 0 0 0 0 0 0 0 0 0 0 0 0 0 0 0 0 0 0 0 0 0 0 0 0 0 0 0 0 0 0 0 0 0 0 0 0 0 0 0 0 0 0 0 0 0 0 0 0 0 0 0 0 0 0 0 0 0 0 0 0 0 0 0 0 0 0 0 0
460 460 461 464 485 505 528 540 551 564 582 594 605 618 634 638 655 668 678 685 694 708 723 736 748 762 777 791 801 805 815 827 839 855 867 884 902 916 928 934 943 956 976 993 1007 1011 1022 1028 1033 1038 1050 1063 1075 1090 1100 1107 1115 1125 1134 1140 1145 1149 1158 1166 1168 1173 1178 1180 1181 1182 1184 1191 1191 1191 1187 1176 1153 0 0 0 0 0 0 0 0 0 0 0 0 0 0 0 0 1172 1194 1204 1211 1211 1211 1210 1206 1202 1200 1200 1199 1199 1197 1197 1197 1198 1200 1200 1200 1200 1200 1198 1192 1190 1189 1188 1188 1187 1187 1187 1187 1187 1185 1185 1185 1186 1186 1186 1185 1185 1185 1186 1186 1186 1183 1177 1173 1173 1173 1173 1173 1173 1173 1170 1163 1149 1132 1097 0 0 0 940 922 914 909 905 905 904 904 904 904 904 905 905 905 905 906 906 906 906 906 905 903 902 901 901 895 885 874 852 837 837 837 837 837 834 826 825 824 823 817 817 817 817 817 817 813 804 804 804 809 814 820 829 830 831 832 832 835 838 842 847 857 871 877 883 888 894 895 896 897 898 898 899 900 900 900 900 900 900 900 901 901 901 901 901 901 901 901 901 901 900 900 900 900 900 899 899 898 897 896 895 893 892 890 888 884 879 872 863 863 862 862 861 860 858 852 852 852 854 857 859 859 859 858 856 856 854 853 850 850 850 850 850 851 852 853 853 856 859 860 863 869 874 882 884 889 892 892 892 894 895 896 896 896 896 896 896 896 896 896 897 897 897 897 897 896 896 896 896 896 895 895 895 895 894 894 894 894 893 892 891 890 889 888 886 882 876 869 863 861 857 850 846 844 840 838 837 837 832 823 823 823 835 835 835 833 832 831 831 831 831 831 831 831 831 831 834 835 836 836 838 838 838 838 838 838 852 866 872 875 876 880 882 882 883 884 885 885 886 886 886 886 885 885 885 885 885 885 884 884 884 884 884 884 884 884 884 884 884 884 884 883 883 882 881 881 879 878 876 874 872 869 865 857 847 843 843 842 842 842 835 828 824 821 817 814 814 814 814 814 817 817 817 817 817 817 817 817 817 819 820 821 821 821 821 823 823 824 827 832 836 841 846 851 853 862 865 867 868 870 871 873 874 874 874 875 875 875 875 875 875 873 873 873 872 871 870 869 868 868 868 866 865 865 862 862 862 859 850 836 826 809 0 0 714 714 715 0 0 0 0 0 0 0 0 0 0 0 850 850 869 869 869 857 847 847 847 849 856 863 863 863 834 813 796 793 784 768 768 768 775 775 775 769 0 0 0 0 0 0 0 0 0 0 0 0 0 0 0 0 0 0 0 0 0 0 524 557 557 557 518 0 0 0 0 0 0 0 0 0 0 0 0 0 0 0 0 0 0 0 0 0 0 0 0 0 0 0 0 0 0 0 0 0 0 0 0 0 0 0 0 0 0 0 0 0 0 0 0 0 0 0 0 0 0 0 0 0 0 0 0 0 0 0 0
460 460 461 464 489 511 528 540 551 567 582 594 604 617 633 638 654 668 677 685 694 708 723 736 748 762 776 790 801 805 815 827 839 851 866 884 902 916 920 925 939 957 975 993 1007 1011 1021 1028 1033 1038 1049 1060 1073 1090 1100 1107 1113 1121 1128 1133 1137 1141 1149 1159 1162 1169 1171 1173 1175 1177 1180 1184 1184 1184 1178 1162 0 0 0 0 0 0 0 0 0 0 0 0 0 0 0 0 1136 1172 1188 1199 1204 1206 1206 1206 1198 1192 1192 1192 1193 1196 1196 1196 1196 1196 1198 1199 1200 1200 1200 1198 1195 1190 1186 1186 1186 1187 1187 1187 1187 1187 1184 1182 1180 1180 1179 1179 1178 1178 1178 1180 1180 1180 1178 1172 1169 1169 1169 1171 1171 1171 1168 1160 1151 1137 1113 0 0 0 0 923 916 908 906 903 903 903 903 902 903 903 903 904 904 904 904 904 904 904 904 903 901 900 899 899 894 880 866 848 831 828 828 825 822 819 817 816 816 814 812 808 808 808 811 811 811 802 802 802 806 810 816 819 819 821 821 822 826 831 833 839 857 870 874 880 887 892 894 896 897 898 899 899 900 900 900 900 901 901 901 901 901 901 901 901 901 901 901 901 901 900 900 900 900 900 899 899 898 897 897 895 893 892 890 888 883 878 867 861 860 860 858 854 848 845 845 845 847 850 851 852 853 853 853 853 852 852 849 847 845 843 841 841 841 846 849 852 854 855 856 860 867 873 881 883 889 891 892 893 894 895 896 896 896 896 896 896 896 896 896 896 896 896 896 896 896 896 895 895 895 894 894 894 894 893 893 893 893 892 891 891 890 887 887 886 881 876 869 860 858 850 843 840 838 837 836 836 835 832 823 823 823 829 833 833 833 830 828 828 828 828 828 828 829 829 830 833 834 834 834 836 836 836 835 835 835 847 863 868 870 874 877 879 880 881 883 884 884 884 885 885 885 885 884 884 884 884 884 884 883 883 883 883 883 883 883 884 884 883 883 883 883 882 881 881 879 879 877 875 873 870 866 863 856 845 842 841 837 837 837 831 827 822 819 816 814 811 811 811 811 814 816 816 816 816 816 816 816 816 817 818 818 819 819 819 819 820 822 825 831 835 839 845 850 853 858 864 867 867 868 869 871 872 872 874 874 874 874 874 874 874 872 872 871 870 870 869 868 868 867 867 864 864 864 862 862 862 859 850 842 827 812 0 0 714 714 719 0 0 0 0 0 0 0 0 0 0 0 850 850 850 850 849 832 832 832 845 849 856 861 861 861 831 800 794 790 784 783 783 781 781 781 767 746 0 0 0 0 0 0 0 0 0 0 0 0 0 0 0 0 0 0 0 0 0 527 527 557 557 557 548 0 0 0 0 0 0 0 0 0 0 0 0 0 0 0 0 0 0 0 0 0 0 0 0 0 0 0 0 0 0 0 0 0 0 0 0 0 0 0 0 0 0 0 0 0 0 0 0 0 0 0 0 0 0 0 0 0 0 0 0 0 0 0 0
468 468 471 474 490 511 528 540 551 567 582 594 604 617 633 637 654 666 677 683 694 708 723 736 748 762 776 791 803 807 816 827 839 851 866 884 900 904 905 919 938 957 975 992 1007 1011 1021 1028 1033 1038 1049 1060 1074 1090 1100 1104 1109 1115 1119 1124 1129 1135 1143 1152 1156 1163 1167 1168 1171 1174 1176 1177 1177 1177 1172 0 0 0 0 0 0 0 0 0 0 0 0 0 0 0 0 1118 1136 1156 1175 1184 1195 1195 1195 1195 1188 1181 1179 1179 1179 1188 1192 1193 1193 1195 1197 1198 1200 1200 1200 1198 1195 1191 1186 1186 1186 1187 1187 1187 1187 1185 1183 1179 1176 1175 1174 1174 1174 1176 1176 1176 1176 1174 1171 1167 1164 1164 1164 1166 1166 1166 1159 1151 1140 1122 1106 0 0 0 929 913 906 904 902 902 902 902 902 901 901 901 901 902 903 903 903 903 903 902 902 901 899 898 897 897 893 878 859 842 825 822 820 818 815 812 812 810 809 807 807 807 807 808 808 807 807 802 802 802 803 807 809 811 811 812 813 813 818 821 823 839 854 869 874 880 887 891 894 895 897 898 899 899 900 900 900 900 901 901 901 901 901 901 901 901 901 901 901 901 901 900 900 900 900 900 899 899 897 897 896 895 893 891 890 887 883 875 862 857 857 856 853 845 840 840 840 840 840 841 843 846 848 848 848 848 848 847 845 844 841 837 836 836 836 840 847 851 853 853 854 859 865 870 879 883 887 889 892 893 893 895 895 895 896 896 896 895 895 895 895 896 896 895 895 895 895 895 894 894 894 893 893 893 892 891 891 891 891 891 890 889 889 886 884 883 880 876 868 858 852 842 836 836 836 836 836 835 833 831 823 823 823 825 827 827 827 827 827 828 828 828 827 826 826 826 828 829 830 831 833 833 834 834 834 834 834 838 853 861 868 871 875 877 878 879 881 883 883 884 884 884 884 884 883 883 883 883 882 882 882 882 882 882 882 882 882 882 882 882 882 882 881 881 880 880 878 878 877 874 872 869 865 860 856 844 837 836 835 834 832 827 823 818 816 815 813 810 810 810 810 813 814 814 814 814 814 814 815 815 816 816 817 817 817 817 817 818 819 824 828 835 839 845 850 852 858 863 863 866 867 868 870 870 872 872 872 872 873 873 873 872 872 871 870 869 868 868 868 867 866 866 866 862 861 860 860 859 859 850 842 831 814 0 0 716 716 719 741 746 0 0 0 0 0 0 0 0 0 871 861 861 854 839 823 823 823 837 843 849 859 859 859 829 800 794 790 784 784 784 781 781 781 739 0 0 0 0 0 0 0 0 0 0 0 0 0 0 0 0 0 0 0 0 0 0 532 525 525 532 566 566 0 0 0 0 0 0 0 0 0 0 0 0 0 0 0 0 0 0 0 0 0 0 0 0 0 0 0 0 0 0 0 0 0 0 0 0 0 0 0 0 0 0 0 0 0 0 0 0 0 0 0 0 0 0 0 0 0 0 0 0 0 0 0 0
473 473 474 483 495 513 528 538 551 567 579 587 601 615 630 634 652 666 677 683 694 706 719 733 747 762 777 792 803 808 822 835 844 851 866 880 891 895 905 919 938 957 975 991 1004 1008 1020 1031 1037 1043 1049 1060 1074 1084 1095 1099 1101 1101 1106 1117 1126 1133 1140 1148 1150 1158 1163 1167 1169 1169 1171 1171 1169 1169 0 0 0 0 0 0 0 0 0 0 0 0 0 0 0 0 0 1124 1130 1139 1156 1168 1174 1180 1180 1180 1176 1173 1169 1169 1169 1171 1181 1186 1190 1194 1196 1198 1199 1199 1199 1197 1195 1191 1186 1186 1186 1191 1191 1191 1188 1184 1178 1175 1170 1169 1169 1169 1171 1172 1172 1172 1169 1167 1165 1165 1162 1161 1160 1159 1158 1158 1152 1147 1134 1119 1098 0 0 948 928 913 906 904 901 901 901 901 901 900 900 900 900 900 901 901 901 901 901 901 901 899 898 895 895 894 887 870 842 824 812 810 810 810 808 807 807 806 806 804 804 804 804 805 805 805 805 800 800 800 800 802 803 806 807 807 808 809 810 812 821 838 847 866 877 882 887 888 891 894 896 898 898 899 900 900 900 900 901 901 901 901 901 901 901 901 901 901 901 900 900 900 900 900 900 900 899 899 897 896 896 895 893 891 889 886 882 869 852 851 850 849 847 841 837 836 835 835 835 835 835 837 842 843 843 843 843 843 842 841 837 833 833 833 836 840 844 850 851 852 853 858 865 870 876 880 884 886 889 892 893 893 894 894 894 895 895 895 895 895 895 895 894 894 894 894 894 893 893 893 893 892 891 891 891 891 891 891 891 889 889 888 886 884 883 882 878 875 868 858 852 842 836 836 836 836 836 835 833 831 823 823 823 825 825 825 826 826 826 828 828 828 827 826 825 825 825 826 828 829 830 831 831 831 832 832 833 838 849 859 867 871 873 875 876 878 880 881 882 882 883 883 883 883 883 882 882 882 882 881 881 881 881 881 881 881 881 881 881 881 880 880 880 879 879 878 877 876 875 873 872 869 864 860 856 844 831 827 826 825 824 822 817 816 814 814 811 809 809 809 810 812 813 813 813 813 813 813 815 815 815 815 814 814 814 814 814 817 818 823 828 834 839 844 849 852 858 858 861 865 867 867 869 869 871 871 871 871 871 871 871 870 870 870 869 869 868 868 867 867 866 864 864 863 861 860 859 858 857 852 845 840 824 0 0 716 716 719 741 746 770 0 0 0 0 0 0 0 0 871 857 857 852 837 822 822 822 824 830 840 852 852 852 829 800 794 791 791 791 792 792 792 0 0 0 0 0 0 0 0 0 0 0 0 0 0 0 0 0 0 0 0 0 0 0 0 548 546 546 546 560 560 0 0 0 0 0 0 0 0 0 0 0 0 0 0 0 0 0 0 0 0 0 0 0 0 0 0 0 0 0 0 0 0 0 0 0 0 0 0 0 0 0 0 0 0 0 0 0 0 0 0 0 0 0 0 0 0 0 0 0 0 0 0 0 0
473 473 474 486 501 513 520 530 543 563 575 584 597 611 626 630 646 659 671 680 689 703 718 733 746 761 777 792 809 814 831 844 853 857 865 874 880 895 905 919 937 957 972 986 1000 1004 1020 1031 1037 1045 1052 1062 1073 1083 1088 1093 1095 1100 1106 1117 1126 1133 1139 1145 1148 1154 1161 1165 1167 1167 1167 1164 1157 1146 0 0 0 0 0 0 0 0 0 0 0 0 0 0 0 0 1130 1130 1130 1130 1139 1149 1158 1161 1163 1163 1166 1166 1166 1164 1164 1164 1171 1180 1187 1191 1194 1197 1200 1200 1200 1197 1195 1195 1195 1203 1203 1203 1202 1201 1191 1184 1178 1172 1167 1166 1166 1166 1166 1167 1167 1167 1166 1165 1163 1163 1162 1160 1158 1155 1149 1147 1145 1141 1124 1102 0 0 0 945 928 910 905 904 901 900 900 900 899 899 899 899 899 899 899 899 900 899 899 899 898 897 897 894 891 889 879 855 822 808 808 807 807 807 805 804 804 802 799 799 799 801 801 801 801 800 800 800 796 796 796 797 799 801 804 804 804 804 804 809 821 835 845 861 875 883 886 888 890 894 896 897 898 899 899 900 900 900 900 900 900 900 900 900 900 900 900 900 900 900 900 900 900 899 899 899 898 898 897 896 895 895 893 890 889 883 875 863 847 846 846 846 845 840 834 831 831 831 832 833 834 834 836 837 839 839 839 838 838 837 837 833 833 833 836 839 844 849 851 851 851 855 862 868 875 879 884 886 888 890 891 893 894 894 894 894 894 894 894 894 893 893 893 893 893 893 892 892 892 892 891 891 890 890 890 889 889 889 889 888 887 887 885 883 881 879 877 875 867 858 852 842 836 836 836 836 836 835 833 831 829 826 826 826 825 825 825 825 825 827 827 827 826 826 824 823 823 823 825 828 829 829 829 829 829 831 832 837 847 858 867 869 870 873 875 877 878 879 880 880 881 881 881 881 881 880 880 880 880 880 880 880 880 880 880 880 879 879 879 879 879 879 879 878 878 877 876 876 875 872 870 865 862 858 855 844 831 825 824 822 820 817 814 814 813 813 811 807 807 807 809 812 812 812 811 811 811 813 815 815 815 815 813 813 813 813 814 817 818 821 827 830 834 842 848 848 851 854 860 863 865 866 867 868 868 869 869 870 870 870 869 869 868 868 867 867 867 866 866 866 865 864 864 862 859 858 858 858 857 852 847 840 829 0 0 719 719 719 735 743 763 788 0 0 0 0 0 0 0 855 855 855 847 829 817 817 817 821 830 839 839 839 839 829 829 829 826 826 823 814 810 807 0 0 0 0 0 0 0 0 0 0 0 0 0 0 0 0 0 0 0 0 0 0 0 0 0 558 558 558 560 569 0 0 0 0 0 0 0 0 0 0 0 0 0 0 0 0 0 0 0 0 0 0 0 0 0 0 0 0 0 0 0 0 0 0 0 0 0 0 0 0 0 0 0 0 0 0 0 0 0 0 0 0 0 0 0 0 0 0 0 0 0 0 0 0
473 473 474 487 503 513 520 523 536 554 570 581 594 609 619 624 635 650 663 677 689 703 718 733 746 761 777 792 809 814 831 851 863 865 865 873 880 895 906 921 937 948 964 981 998 1003 1020 1031 1037 1045 1052 1062 1071 1080 1084 1086 1094 1100 1106 1117 1126 1132 1138 1143 1145 1151 1157 1161 1165 1165 1165 1157 1145 1127 0 0 0 0 0 0 0 0 0 0 0 0 0 0 0 0 1152 1134 1125 1125 1125 1132 1138 1141 1142 1144 1151 1157 1160 1161 1161 1162 1166 1175 1182 1186 1190 1196 1200 1200 1200 1200 1200 1202 1210 1210 1210 1210 1204 1203 1191 1184 1178 1172 1167 1166 1166 1166 1166 1167 1167 1167 1166 1164 1163 1163 1162 1159 1157 1150 1142 1140 1140 1138 1113 0 0 0 0 932 918 906 904 903 899 898 898 898 898 898 898 898 898 898 899 899 899 899 898 897 897 897 896 891 888 887 878 852 820 804 804 803 803 803 801 800 799 798 795 795 795 797 797 797 795 795 795 795 793 793 793 793 795 799 801 802 802 802 804 809 821 835 845 861 875 882 886 888 890 894 896 897 898 898 899 899 900 900 900 900 900 900 899 899 899 899 899 900 900 900 899 899 899 899 898 898 898 897 896 895 894 893 892 889 885 877 869 858 842 842 841 841 841 837 829 827 827 827 831 832 833 833 833 834 834 834 835 835 835 835 835 833 833 833 836 839 843 848 850 851 851 853 859 868 874 879 882 885 887 889 890 891 892 892 893 893 893 893 892 892 892 892 891 891 891 891 890 890 890 890 889 889 889 889 888 888 888 888 887 886 886 885 884 882 880 878 876 874 867 858 850 843 841 839 838 836 836 835 833 832 831 829 828 827 826 826 825 825 825 826 826 826 826 825 823 821 821 821 823 826 827 827 827 827 827 828 832 835 846 856 861 866 868 871 873 875 876 878 879 880 880 880 880 880 879 879 879 879 879 879 879 879 879 878 878 878 878 878 878 878 878 877 877 877 877 876 876 875 873 872 869 863 860 858 855 845 831 825 824 818 816 813 813 813 812 812 809 804 804 804 806 808 808 808 808 808 810 813 815 815 815 815 813 813 813 813 814 817 818 821 824 826 828 836 844 846 849 853 858 860 863 865 866 866 867 868 869 869 869 869 869 868 867 866 865 865 865 865 865 865 864 863 863 861 860 859 858 858 857 851 846 841 830 0 0 719 719 719 733 734 762 776 792 0 0 0 0 0 0 0 821 820 814 812 812 814 819 827 827 828 830 833 839 839 842 853 855 855 853 836 825 807 0 0 0 0 0 0 0 0 0 0 0 0 0 0 0 0 0 0 0 0 0 0 0 0 0 0 0 0 0 591 602 0 0 0 0 0 0 0 0 0 0 0 0 0 0 0 0 0 0 0 0 0 0 0 0 0 0 0 0 0 0 0 0 0 0 0 0 0 0 0 0 0 0 0 0 0 0 0 0 0 0 0 0 0 0 0 0 0 0 0 0 0 0 0
467 467 468 488 503 515 520 523 532 547 559 572 588 606 615 620 635 649 663 677 689 703 718 733 746 760 777 792 809 814 831 851 863 863 868 869 880 897 913 924 937 948 960 976 996 1001 1016 1026 1037 1045 1052 1062 1071 1077 1082 1086 1094 1100 1110 1118 1126 1132 1137 1142 1144 1149 1155 1156 1156 1156 1153 1147 1136 0 0 0 0 0 0 0 0 0 0 0 0 0 0 0 0 0 1160 1138 1124 1114 1114 1114 1115 1120 1126 1134 1143 1150 1155 1157 1159 1160 1162 1166 1174 1181 1188 1196 1200 1200 1201 1202 1205 1214 1217 1217 1217 1216 1212 1212 1207 1195 1182 1172 1167 1166 1166 1166 1166 1167 1167 1167 1166 1163 1162 1160 1158 1157 1151 1141 1136 1134 1133 1133 1112 0 0 0 936 920 910 902 901 898 896 896 896 896 896 896 897 897 897 897 897 897 897 897 896 896 896 895 894 890 886 879 867 841 813 800 800 800 799 799 799 796 795 794 791 791 791 793 793 793 792 791 791 790 787 787 787 789 793 796 799 800 801 801 803 809 821 838 847 864 878 883 886 888 890 893 895 897 897 898 899 899 899 899 899 899 899 899 899 899 898 898 898 898 898 898 898 898 898 898 897 897 897 896 895 893 892 891 890 887 881 874 861 844 837 837 837 837 837 834 826 826 826 827 830 831 832 832 832 832 834 834 834 835 835 836 836 836 836 836 836 839 843 846 847 849 850 852 858 865 869 875 882 885 886 888 889 890 890 891 891 891 891 891 891 891 890 890 890 890 890 889 888 888 888 888 888 887 887 887 887 887 887 886 886 885 885 883 883 881 878 876 875 873 867 858 850 843 842 841 838 836 835 835 833 832 831 829 828 828 827 826 826 826 826 826 826 826 826 825 823 820 820 820 821 824 824 824 824 824 824 827 829 832 844 852 858 863 867 869 872 874 875 876 878 878 878 878 878 878 878 878 878 878 878 878 877 877 877 877 877 877 877 876 876 876 876 876 876 876 875 874 874 873 872 871 868 863 860 858 855 847 839 828 824 816 813 811 811 811 811 811 807 802 802 802 803 803 804 804 804 805 808 813 815 815 815 815 813 813 813 814 815 816 817 821 823 823 824 828 834 841 846 853 855 858 861 862 863 864 865 866 866 867 868 868 868 866 865 865 865 865 865 865 865 864 863 862 859 859 858 858 858 858 855 851 848 841 830 0 0 716 716 716 731 733 756 769 775 0 0 0 0 0 0 0 797 797 797 805 810 814 819 822 826 827 828 839 839 840 850 864 864 864 860 836 825 807 0 0 0 0 0 0 0 0 0 0 0 0 0 0 0 0 0 0 0 0 0 0 0 0 0 0 0 0 0 0 634 655 0 0 0 0 0 0 0 0 0 0 0 0 0 0 0 0 0 0 0 0 0 0 0 0 0 0 0 0 0 0 0 0 0 0 0 0 0 0 0 0 0 0 0 0 0 0 0 0 0 0 0 0 0 0 0 0 0 0 0 0 0 0
463 463 466 488 509 519 521 522 527 538 549 564 583 603 614 619 635 649 663 677 693 707 722 735 746 759 777 792 804 808 827 851 863 863 868 869 880 897 913 926 937 948 960 975 995 1000 1015 1023 1030 1039 1049 1059 1069 1076 1082 1086 1093 1102 1110 1118 1125 1131 1135 1140 1143 1148 1148 1148 1146 1141 1137 1127 0 0 0 0 0 0 0 0 0 0 0 0 0 0 0 0 0 0 1168 1138 1124 1114 1110 1110 1110 1115 1122 1129 1137 1143 1149 1152 1153 1154 1154 1155 1157 1170 1184 1196 1200 1200 1200 1201 1205 1214 1218 1221 1221 1222 1221 1221 1217 1211 1198 1186 1186 1183 1182 1178 1177 1177 1173 1173 1168 1164 1161 1156 1155 1151 1142 1131 1127 1126 1125 1125 0 0 0 0 925 914 906 898 895 894 894 894 895 895 895 895 895 896 896 896 896 896 896 896 895 895 895 895 891 889 884 876 854 831 811 798 798 798 798 798 798 795 794 793 791 789 789 789 789 790 790 790 788 786 786 786 787 788 792 794 796 797 799 801 802 809 823 838 847 861 875 883 887 888 890 893 894 896 896 897 897 898 898 898 898 898 897 897 897 897 897 897 897 897 897 897 897 897 897 896 896 896 896 894 893 892 890 889 888 883 875 867 855 842 836 836 835 834 832 831 826 826 826 827 829 830 831 831 831 832 834 834 834 835 835 837 837 837 837 837 837 839 841 843 844 847 849 852 858 864 867 872 879 882 884 887 888 889 889 889 890 890 890 890 889 889 889 889 888 888 888 887 887 887 886 886 886 885 885 885 885 885 885 885 884 883 883 883 881 880 877 875 875 872 866 858 850 843 842 841 839 836 834 833 832 832 831 830 828 828 828 827 827 826 825 825 825 824 824 823 820 819 819 819 820 821 821 821 821 822 822 825 828 832 844 851 857 863 867 869 871 872 874 875 876 877 877 877 877 877 877 877 877 877 877 876 876 876 875 875 875 875 874 874 874 874 875 875 875 874 874 873 872 871 871 869 866 863 860 857 855 849 840 830 825 816 813 811 811 810 809 808 805 802 802 802 803 803 803 802 802 802 806 812 815 817 817 817 816 816 816 816 816 816 817 819 819 820 820 824 830 836 843 847 853 856 859 859 861 862 863 864 865 866 866 866 865 864 864 864 0 0 0 0 0 0 0 859 858 858 858 858 858 858 855 851 848 841 830 804 0 0 731 730 730 731 737 757 773 0 0 0 0 0 0 0 0 797 797 805 832 832 832 826 826 826 828 843 864 864 864 864 864 864 860 836 825 0 0 0 0 0 0 0 0 0 0 0 0 0 0 0 0 0 0 0 0 0 0 0 0 0 0 0 0 0 0 627 643 669 0 0 0 0 0 0 0 0 0 0 0 0 0 0 0 0 0 0 0 0 0 0 0 0 0 0 0 0 0 0 0 0 0 0 0 0 0 0 0 0 0 0 0 0 0 0 0 0 0 0 0 0 0 0 0 0 0 0 0 0 0 0
463 463 465 487 509 519 521 522 525 529 539 555 578 597 613 618 633 649 663 677 693 707 722 735 746 757 769 774 788 792 816 843 862 863 869 871 882 897 913 926 940 950 960 975 995 999 1014 1022 1028 1035 1046 1057 1068 1075 1082 1086 1093 1102 1110 1118 1124 1128 1132 1135 1138 1140 1140 1140 1133 1122 1110 0 0 0 0 0 0 0 0 0 0 0 0 0 0 0 0 0 0 0 1172 1138 1124 1114 1107 1107 1107 1114 1120 1125 1128 1134 1139 1141 1143 1143 1144 1144 1144 1153 1174 1186 1196 1199 1199 1200 1205 1214 1218 1223 1226 1230 1230 1230 1228 1223 1211 1204 1203 1199 1199 1195 1193 1190 1186 1176 1169 1164 1160 1152 1148 1143 1133 1123 1120 1118 1115 1108 0 0 0 940 920 906 898 895 894 894 894 894 894 894 894 894 894 895 895 895 895 895 895 895 894 894 894 892 889 886 884 872 848 824 803 798 798 798 798 798 795 793 792 792 791 788 786 786 786 787 787 787 785 784 784 784 787 788 791 792 793 794 795 796 800 809 823 840 849 860 873 883 886 888 890 892 893 894 895 896 896 896 896 897 897 896 896 896 895 895 895 896 896 896 896 896 896 896 896 895 895 895 894 894 893 891 889 888 886 880 873 867 855 842 836 836 835 834 832 831 826 826 826 827 829 830 830 830 831 832 834 834 835 835 835 837 838 838 838 838 838 839 840 841 842 844 847 852 858 863 867 871 875 878 883 885 886 887 888 888 888 888 888 888 888 888 887 887 887 887 886 885 885 885 885 885 884 884 884 884 884 884 884 884 883 883 882 881 879 878 877 873 872 870 864 857 849 842 842 841 840 836 834 832 832 831 831 830 830 830 830 830 827 826 825 824 823 822 820 819 818 818 819 819 819 819 819 819 819 820 822 825 828 832 842 850 857 862 865 868 870 872 872 874 875 876 876 876 876 876 876 876 876 875 875 875 874 874 874 874 874 873 873 873 873 873 873 873 873 872 872 872 870 869 869 867 865 862 859 857 854 849 841 836 828 816 813 811 811 809 807 806 805 802 802 802 803 803 803 802 802 802 806 810 815 817 817 817 817 816 816 816 816 816 816 816 816 816 818 822 828 833 840 845 853 856 857 858 858 860 862 863 864 865 865 865 862 860 860 858 0 0 0 0 0 0 0 0 855 857 857 857 857 857 855 851 846 841 830 804 794 0 723 719 714 714 719 741 763 0 0 0 0 0 0 0 0 0 0 836 836 836 832 827 827 827 845 882 882 882 879 864 864 862 854 830 0 0 0 0 0 0 0 0 0 0 0 0 0 0 0 0 0 0 0 0 0 0 0 0 0 0 0 0 0 0 645 645 645 672 0 0 0 0 0 0 0 0 0 0 0 0 0 0 0 0 0 0 0 0 0 0 0 0 0 0 0 0 0 0 0 0 0 0 0 0 0 0 0 0 0 0 0 0 0 0 0 0 0 0 0 0 0 0 0 0 0 0 0 0 0 0
459 459 460 487 509 517 519 520 522 523 532 549 570 589 611 614 633 649 663 677 693 707 722 735 745 750 759 769 787 791 812 837 859 871 873 876 883 897 910 926 940 951 960 975 994 999 1014 1022 1026 1032 1042 1056 1068 1075 1082 1086 1093 1102 1109 1115 1120 1125 1128 1131 1132 1132 1132 1131 1122 1111 1092 0 0 0 0 0 0 0 0 0 0 0 0 0 0 0 0 0 0 0 0 1138 1124 1114 1107 1107 1107 1114 1119 1120 1121 1123 1126 1128 1131 1132 1132 1133 1135 1140 1152 1170 1182 1190 1194 1199 1204 1211 1218 1223 1230 1234 1234 1234 1232 1230 1226 1223 1216 1210 1204 1204 1204 1203 1198 1188 1172 1164 1160 1151 1145 1138 1133 1123 1120 1118 1115 1101 0 0 0 939 918 906 898 894 894 893 893 893 893 893 893 893 893 893 894 894 894 894 894 894 893 893 892 889 884 882 878 866 842 813 800 798 798 798 798 798 795 790 790 789 789 787 785 785 785 785 785 785 782 782 782 784 787 788 791 792 792 793 793 794 797 809 827 843 850 860 873 881 887 888 890 890 892 893 893 895 895 895 895 895 895 895 895 895 895 894 894 894 894 894 894 894 894 894 894 894 894 893 893 892 891 890 888 886 883 879 872 866 855 842 837 836 836 834 832 831 829 829 829 829 829 830 830 830 831 833 834 834 835 836 836 838 838 838 838 839 839 839 840 840 841 844 847 852 858 863 867 871 875 878 880 883 884 886 887 887 887 887 887 887 887 887 886 886 886 885 884 884 883 883 883 883 882 882 882 882 882 882 882 882 882 881 880 879 878 877 875 871 868 867 864 857 849 842 842 840 839 837 834 832 831 831 831 831 832 832 832 830 829 826 825 824 823 821 819 819 818 818 819 819 819 819 819 819 819 819 822 825 828 832 839 845 853 861 864 866 868 870 871 872 874 874 874 875 875 874 874 874 874 874 874 874 873 872 872 872 872 872 872 872 872 872 871 871 871 871 870 870 870 869 867 866 864 862 859 857 854 849 842 838 828 821 816 813 811 808 807 806 805 802 802 802 803 803 803 802 802 802 805 810 813 815 817 817 817 816 816 815 815 815 815 814 814 814 817 821 827 832 833 841 849 852 856 857 857 858 861 862 863 864 864 864 861 856 854 853 0 0 0 0 0 0 0 0 0 854 854 854 854 854 852 849 846 841 827 816 795 0 0 710 701 701 701 722 750 779 0 0 863 865 875 0 0 0 0 873 864 857 832 827 827 827 845 882 882 882 879 857 857 850 838 817 0 0 735 734 730 0 0 0 0 0 0 0 0 0 0 0 0 0 0 0 0 0 0 0 0 0 0 0 0 0 652 652 652 0 0 0 0 0 0 0 0 0 0 0 0 0 0 0 0 0 0 0 0 0 0 0 0 0 0 0 0 0 0 0 0 0 0 0 0 0 0 0 0 0 0 0 0 0 0 0 0 0 0 0 0 0 0 0 0 0 0 0 0 0 0 0
