838 838 849 855 863 865 883 883 890 905 940 957 963 964 970 1006 1029 1043 1047 1050 1062 1075 1087 1100 1111 1120 1137 1148 1158 1169 1179 1190 1195 1204 1213 1223 1240 1259 1280 1299 1315 1323 1327 1333 1343 1356 1365 1370 1382 1397 1411 1429 1445 1460 1482 1502 1517 1525 1528 1532 1536 1536 1536 1536 1536 1541 1548 1553 1557 1560 1564 1568 1576 1590 1598 1611 1617 1626 1636 1647 1650 1650 1651 1652 1655 1661 1668 1676 1681 1686 1688 1689 1691 1701 1712 1720 1720 1720 1710 1690 1680 1664 0 0 0 0 0 0 0 948 942 938 937 935 934 933 929 925 920 917 917 917 917 917 918 918 919 920 922 923 925 926 927 928 929 931 931 932 934 934 934 935 937 938 940 942 943 944 946 947 949 950 950 952 953 955 956 957 958 959 960 961 963 964 965 967 968 970 971 971 973 974 975 977 977 979 980 982 982 983 985 987 989 990 992 994 995 997 997 999 1000 1001 1002 1004 1005 1007 1008 1010 1012 1013 1014 1016 1017 1018 1020 1022 1023 1025 1026 1028 1029 1031 1032 1034 1036 1037 1040 1041 1042 1042 1043 1045 1046 1047 1048 1049 1049 1051 1051 1051 1048 1047 1045 1041 1025 1015 981 960 954 943 933 930 928 927 922 912 905 902 900 900 902 906 909 916 916 916 916 919 919 933 948 968 991 1015 1049 1079 1090 1100 1104 1104 1113 1119 1120 1121 1121 1123 1125 1127 1130 1131 1132 1134 1137 1137 1137 1137 1137 1136 1134 1134 1134 1138 1141 1142 1147 1147 1147 1149 0 0 0 0 0 1514 1524 1530 1530 1532 1533 1533 1538 1538 1539 1541 1545 1546 1546 1548 1551 1553 1556 1558 1560 1565 1569 1572 1572 1572 1572 1572 1572 1572 1573 1573 1574 1581 1586 1591 1593 1595 1602 1606 1609 1610 1610 1612 1613 1616 1619 1619 1620 1623 1625 1625 1625 1626 1626 1626 1626 1627 1627 1627 1627 1627 1626 1626 1626 1627 1628 1630 1631 1631 1631 1631 1631 1629 1629 1629 1629 1633 1636 1642 1647 1653 1659 1663 1663 1663 1663 1661 1660 1659 1659 1659 1659 1659 1659 1659 1660 1660 1660 1660 1658 1658 1658 1658 1659 1659 1659 1659 1659 1659 1660 1663 1669 1669 1669 1669 1668 1661 1661 1661 1664 1665 1665 1665 1665 1665 1666 1676 1676 1676 1675 1673 1673 1673 1673 1676 1677 1678 1679 1679 1682 1684 1686 1686 1686 1684 1682 1679 1679 1676 1673 1673 1673 1673 1673 1673 1666 1659 1659 1659 1660 1660 1660 1654 1645 1640 1636 1632 1627 1621 1618 1618 1618 1621 1631 1634 1635 1637 1644 1651 1656 1659 1663 1668 1670 1671 1672 1674 1678 1683 1690 1694 1698 1701 1705 1710 1712 1712 1712 1712 1705 1703 1703 1703 1699 1694 1691 1689 1688 1683 1670 1631 0 0 0 0 0 0 0 0 0 0 0 1562 1573 1574 1596 1596 1596 1577 1577 1577 1571 1571 1571 1544 1522 1510 1510 1510 1517 1556 1579 1592 1615 1678 1687 1687 0 0 1580 1555 1551 1522 1516 1514 1509 1505 1493 1493 1493 1497 1497 1497 1485 1463 1435 1415 1382 1363 1343 1320 1312 1312 1312 1317 1356 1370 1381 1381 0 0 0 1287 1237 1237 1237 1237 1237 1202 0 0 0 0 0 0 0 0 0 0 0 0 0 0 0 0 0 0 1049 1045 1019 0 0 0 0 0 836 833 833 833 863 865 865 0 0 0 0 0 0 0 0 0 0 0 0 0 0 0
841 841 851 855 863 865 883 883 890 917 940 957 963 964 985 1018 1043 1051 1061 1067 1068 1075 1087 1100 1112 1120 1133 1144 1158 1169 1181 1190 1203 1217 1223 1232 1244 1260 1278 1301 1315 1325 1330 1333 1343 1356 1363 1370 1382 1397 1411 1429 1445 1460 1482 1502 1518 1527 1532 1536 1539 1540 1540 1540 1541 1543 1549 1553 1557 1560 1564 1570 1583 1594 1604 1612 1619 1628 1638 1647 1648 1649 1650 1652 1653 1661 1668 1676 1681 1686 1687 1687 1691 1699 1712 1715 1715 1715 1701 1681 1662 1645 0 0 0 0 0 0 0 941 936 933 931 931 928 923 922 922 919 916 915 915 915 915 916 916 917 919 922 922 924 925 926 926 928 929 931 931 932 933 934 935 937 938 939 941 942 943 945 946 948 949 950 951 952 953 954 956 957 958 959 960 961 962 964 966 968 968 969 971 972 973 974 975 976 977 978 979 981 983 984 985 987 989 991 992 994 995 996 997 998 1000 1001 1002 1003 1005 1006 1008 1009 1010 1012 1013 1015 1017 1019 1020 1021 1023 1024 1026 1028 1028 1029 1031 1033 1035 1037 1038 1038 1039 1041 1042 1043 1045 1045 1047 1047 1049 1049 1049 1048 1047 1045 1043 1041 1035 1009 975 954 944 933 930 925 922 909 905 905 902 900 900 902 913 914 914 914 914 914 915 919 933 948 968 985 992 1020 1040 1058 1084 1090 1096 1102 1112 1118 1119 1120 1122 1124 1126 1127 1129 1131 1133 1134 1135 1135 1135 1135 1133 1133 1132 1132 1132 1132 1133 1138 1140 1140 1143 1143 0 0 0 0 0 0 1526 1533 1533 1537 1538 1538 1538 1538 1538 1541 1543 1546 1548 1551 1553 1556 1558 1560 1563 1569 1570 1570 1570 1570 1570 1570 1570 1570 1571 1574 1581 1586 1589 1589 1592 1595 1602 1605 1609 1609 1612 1613 1615 1615 1616 1618 1622 1625 1625 1625 1625 1625 1625 1625 1626 1628 1629 1629 1629 1629 1627 1627 1627 1629 1630 1631 1631 1631 1631 1630 1628 1625 1625 1625 1628 1634 1640 1645 1650 1655 1656 1659 1661 1661 1661 1659 1657 1656 1656 1656 1656 1657 1657 1658 1658 1658 1658 1658 1658 1658 1658 1659 1659 1659 1659 1659 1659 1660 1663 1669 1669 1669 1669 1668 1666 1664 1664 1664 1668 1670 1670 1672 1674 1675 1678 1678 1678 1677 1674 1673 1673 1673 1676 1677 1678 1678 1678 1682 1689 1689 1689 1686 1684 1683 1681 1679 1677 1674 1674 1674 1673 1673 1673 1668 1664 1661 1661 1661 1661 1661 1653 1644 1639 1636 1632 1627 1621 1621 1621 1621 1629 1635 1636 1637 1641 1650 1657 1660 1663 1666 1672 1673 1674 1674 1674 1679 1684 1689 1694 1698 1700 1705 1710 1711 1714 1714 1714 1705 1704 1704 1704 1704 1703 1698 1691 1689 1683 1653 1620 0 0 0 0 0 0 0 0 0 0 1571 1573 1574 1574 1596 1596 1596 1577 1575 1574 1571 1571 1571 1551 1537 1516 1516 1516 1517 1558 1579 1592 1615 1678 1687 1687 0 0 1580 1555 1551 1518 1518 1515 1514 1514 1496 1496 1496 1497 1497 1497 1485 1463 1444 1416 1386 1367 1344 1334 1323 1323 1323 1332 1356 1370 1381 1381 1381 0 0 1257 1237 1231 1231 1203 1202 0 0 0 0 0 0 0 0 0 0 0 0 0 0 0 0 0 0 0 0 0 0 0 0 0 0 0 851 836 851 851 855 855 855 0 0 0 0 0 0 0 0 0 0 0 0 0 0 0
844 844 854 855 863 865 883 888 900 919 940 957 968 977 994 1019 1046 1051 1072 1077 1082 1082 1088 1101 1112 1122 1133 1144 1158 1169 1181 1190 1203 1217 1225 1236 1250 1263 1278 1301 1318 1336 1337 1338 1344 1357 1363 1368 1381 1397 1411 1429 1445 1460 1482 1502 1519 1528 1534 1539 1544 1545 1547 1547 1547 1548 1550 1553 1555 1558 1564 1571 1583 1594 1604 1612 1619 1628 1638 1646 1648 1649 1650 1652 1653 1661 1668 1674 1676 1683 1686 1686 1690 1699 1707 1712 1712 1712 1699 1676 1659 0 0 0 0 0 0 0 0 936 928 921 921 916 916 916 916 916 914 913 913 913 913 914 914 915 916 917 919 921 922 924 924 926 927 929 930 931 931 932 933 935 936 937 938 940 941 942 944 946 948 949 949 951 951 952 954 955 956 957 958 959 960 961 962 965 966 968 969 969 970 971 972 973 974 976 977 978 980 981 983 984 986 987 989 990 992 993 994 995 997 997 999 1000 1001 1002 1002 1005 1006 1008 1008 1011 1012 1015 1017 1018 1019 1020 1022 1023 1025 1027 1027 1029 1031 1033 1034 1036 1036 1037 1038 1039 1041 1042 1043 1043 1044 1045 1045 1045 1045 1045 1045 1043 1041 1036 1019 1000 973 948 938 931 925 922 909 905 905 905 905 905 909 917 917 917 910 910 910 910 920 933 949 971 983 991 1004 1020 1027 1054 1085 1093 1098 1104 1111 1116 1118 1120 1122 1124 1126 1127 1128 1130 1132 1132 1132 1131 1131 1130 1131 1131 1130 1130 1130 1130 1130 1133 1135 1135 1136 1146 0 0 0 0 0 0 1518 1530 1538 1538 1538 1535 1535 1535 1537 1542 1546 1548 1549 1552 1556 1556 1557 1558 1557 1555 1557 1557 1557 1565 1568 1570 1570 1571 1574 1580 1584 1587 1589 1591 1592 1596 1601 1606 1609 1611 1612 1612 1612 1615 1616 1621 1625 1625 1625 1625 1625 1625 1625 1626 1629 1631 1631 1631 1631 1631 1629 1629 1629 1630 1631 1631 1631 1631 1629 1624 1621 1621 1621 1627 1634 1640 1645 1650 1654 1656 1656 1656 1656 1656 1655 1655 1654 1653 1652 1652 1652 1654 1656 1658 1658 1658 1659 1659 1659 1659 1660 1660 1660 1660 1660 1661 1661 1663 1669 1669 1669 1669 1668 1667 1664 1664 1664 1671 1676 1684 1684 1684 1684 1683 1683 1682 1680 1675 1672 1672 1672 1672 1672 1673 1674 1680 1683 1689 1689 1689 1686 1684 1683 1681 1679 1677 1674 1673 1673 1673 1673 1673 1668 1668 1664 1664 1661 1660 1660 1653 1644 1638 1636 1633 1628 1625 1625 1625 1625 1632 1638 1639 1642 1650 1659 1664 1665 1666 1672 1679 1679 1679 1680 1680 1680 1684 1689 1695 1699 1701 1707 1710 1711 1713 1714 1714 1714 1707 1707 1707 1706 1706 1704 1694 1687 1669 1653 1620 0 0 0 0 0 0 0 0 0 0 1623 1623 1623 1623 1629 1629 1629 1628 1617 1602 1585 1583 1565 1565 1555 1536 1536 1536 1566 1579 1579 1598 1632 1678 1687 1687 0 0 1579 1553 1531 1519 1519 1519 1519 1519 1516 1508 1506 1500 1500 1492 1485 1463 1444 1424 1386 1367 1353 1352 1351 1351 1352 1352 1359 1370 1381 1381 1381 1362 0 1257 1237 1203 1203 1202 1190 1190 0 0 0 0 0 0 0 0 0 0 0 0 0 0 0 0 0 0 0 0 0 0 0 0 0 0 836 836 836 851 830 827 815 814 0 0 0 0 0 0 0 0 0 0 0 0 0 0
844 844 859 872 873 884 903 913 914 923 946 958 973 983 995 1020 1047 1053 1076 1084 1084 1085 1093 1106 1116 1122 1133 1144 1158 1169 1185 1190 1206 1218 1226 1238 1250 1264 1278 1303 1324 1336 1338 1344 1351 1357 1362 1368 1378 1393 1411 1426 1444 1460 1476 1499 1519 1534 1539 1540 1544 1545 1547 1549 1550 1551 1553 1555 1555 1558 1564 1571 1583 1594 1604 1612 1619 1628 1638 1645 1648 1648 1649 1650 1653 1661 1668 1674 1674 1679 1685 1686 1690 1697 1702 1702 1702 1694 0 0 0 0 0 0 0 0 0 0 0 926 920 913 913 913 913 913 911 911 911 911 911 912 912 913 913 914 915 917 918 920 921 922 924 925 926 927 928 929 930 932 933 934 935 937 937 939 940 941 944 945 946 947 948 950 950 952 952 954 954 955 957 958 959 960 962 963 964 966 967 968 969 970 970 972 973 974 975 977 978 980 981 983 985 986 987 989 989 991 992 993 994 996 997 998 999 1000 1000 1001 1002 1003 1005 1007 1011 1014 1015 1017 1017 1018 1020 1022 1023 1025 1025 1027 1029 1030 1032 1033 1033 1034 1034 1036 1037 1038 1040 1041 1041 1042 1043 1043 1043 1043 1043 1043 1041 1036 1020 1010 1005 980 954 949 928 925 909 909 906 905 906 906 915 920 920 920 896 896 896 911 920 935 953 971 983 991 996 1001 1012 1027 1065 1092 1097 1104 1110 1115 1116 1119 1120 1121 1123 1124 1126 1127 1128 1128 1128 1129 1129 1129 1130 1130 1129 1129 1129 1129 1129 1129 1132 1133 1135 1142 1159 0 0 0 0 0 0 1522 1538 1538 1538 1535 1533 1533 1533 1541 1546 1548 1549 1552 1556 1556 1556 1556 1555 1555 1554 1554 1554 1563 1567 1568 1568 1570 1574 1579 1584 1587 1589 1591 1592 1593 1597 1600 1605 1608 1609 1610 1612 1613 1616 1618 1621 1624 1624 1624 1624 1624 1624 1626 1631 1631 1632 1632 1632 1632 1632 1629 1629 1629 1631 1631 1631 1631 1629 1623 1620 1620 1620 1627 1633 1639 1644 1648 1651 1652 1652 1652 1652 1652 1652 1652 1652 1652 1652 1652 1652 1654 1655 1658 1659 1659 1659 1660 1660 1660 1660 1660 1660 1660 1660 1661 1661 1661 1665 1668 1668 1668 1668 1667 1667 1667 1669 1675 1683 1689 1689 1689 1689 1687 1684 1682 1680 1677 1673 1673 1673 1672 1672 1673 1674 1680 1684 1689 1689 1689 1684 1683 1683 1681 1679 1677 1674 1673 1671 1670 1669 1668 1668 1667 1666 1663 1661 1660 1660 1651 1643 1638 1635 1633 1632 1629 1629 1629 1629 1635 1639 1640 1643 1655 1666 1671 1672 1676 1682 1682 1682 1682 1682 1682 1684 1684 1689 1695 1699 1702 1707 1710 1711 1713 1713 1714 1714 1714 1714 1714 1713 1713 1704 1694 1685 1669 1653 1620 0 0 0 0 0 0 0 0 0 0 1650 1650 1650 1650 1650 1650 1663 1663 1663 1616 1585 1585 1575 1569 1568 1568 1568 1575 1610 0 1662 1663 1669 1672 1686 0 0 0 1553 1531 1531 1546 1553 0 0 0 0 1536 1508 1500 1491 1483 1467 1454 1444 1431 1426 1394 1374 1372 1371 1371 1370 1370 1370 1359 1359 1350 1345 1343 1273 1257 1240 1215 1166 1157 1149 0 0 0 0 0 0 0 0 0 0 0 0 0 0 0 0 0 0 0 0 0 0 0 0 0 0 0 0 852 852 830 827 815 814 0 0 0 0 0 0 0 0 0 0 0 0 0 0 0
847 847 861 872 875 895 926 939 943 945 946 958 973 984 997 1021 1047 1053 1077 1091 1096 1096 1103 1115 1124 1136 1144 1151 1160 1169 1186 1190 1207 1218 1226 1238 1251 1265 1286 1308 1324 1336 1338 1344 1351 1357 1362 1368 1378 1393 1411 1426 1444 1460 1476 1495 1519 1534 1539 1540 1544 1545 1547 1549 1552 1553 1554 1556 1556 1557 1562 1571 1580 1591 1600 1612 1620 1629 1636 1639 1645 1650 1653 1659 1663 1669 1672 1673 1675 1678 1682 1683 1683 1687 1689 1689 1689 0 0 0 0 0 0 0 0 0 0 0 0 915 912 912 911 911 910 910 908 908 908 909 909 910 911 912 912 913 915 917 918 919 921 921 923 924 925 927 928 929 930 931 932 934 935 936 937 938 940 941 942 943 945 945 947 948 949 950 951 952 953 954 955 957 957 960 960 962 963 965 966 967 968 969 969 971 971 972 973 975 977 978 979 981 983 984 986 987 988 989 990 991 992 994 995 996 997 997 997 998 1000 1001 1002 1006 1009 1012 1012 1012 1014 1016 1019 1021 1021 1021 1023 1025 1027 1029 1030 1031 1031 1032 1033 1034 1035 1036 1037 1038 1039 1040 1040 1041 1041 1041 1041 1041 1041 1036 1027 1026 1024 1019 994 976 975 953 926 910 909 907 907 907 916 920 920 920 894 894 894 911 928 935 953 972 985 991 996 998 999 1010 1037 1070 1089 1102 1109 1111 1111 1113 1118 1119 1121 1122 1123 1126 1126 1127 1127 1127 1128 1129 1129 1129 1129 1129 1129 1128 1129 1129 1129 1133 1133 1134 1143 1157 0 0 0 0 0 0 0 1538 1538 1534 1531 1531 1531 1540 1546 1548 1549 1552 1556 1556 1556 1556 1555 1554 1554 1554 1554 1559 1567 1567 1568 1569 1574 1579 1584 1587 1591 1591 1592 1593 1596 1598 1602 1604 1608 1610 1612 1613 1613 1615 1619 1622 1624 1624 1624 1624 1624 1626 1631 1632 1632 1632 1632 1632 1632 1629 1629 1629 1630 1630 1630 1630 1627 1623 1620 1620 1620 1624 1633 1638 1641 1644 1647 1650 1651 1651 1651 1651 1651 1651 1650 1650 1650 1651 1652 1653 1655 1656 1658 1659 1659 1660 1661 1661 1661 1661 1661 1660 1660 1661 1661 1661 1662 1664 1666 1667 1667 1667 1667 1667 1669 1675 1685 1690 1690 1690 1689 1687 1684 1682 1680 1677 1673 1673 1673 1672 1672 1673 1674 1681 1685 1687 1687 1687 1683 1681 1680 1678 1675 1673 1671 1670 1669 1668 1666 1666 1666 1666 1666 1661 1661 1659 1655 1649 1642 1637 1635 1634 1634 1634 1636 1638 1638 1638 1641 1641 1649 1662 1670 1676 1680 1680 1683 1683 1683 1683 1683 1683 1687 1687 1691 1696 1699 1708 1708 1708 1711 1711 1712 1714 1714 1714 1715 1716 1714 1713 1704 1694 1685 1669 1656 1638 0 0 0 0 0 0 0 0 0 1641 1650 1650 1650 1650 1650 1650 1669 1669 1669 1620 1590 1589 1586 1569 1577 1577 1577 1611 1657 0 0 1687 1663 1656 0 0 0 0 1560 1560 1560 1594 1595 0 0 0 0 0 1508 1489 1477 1470 1448 1431 1430 1429 1429 1410 1375 1375 1372 1372 1372 1370 1370 1366 1356 1350 1345 1318 1300 1274 1268 0 0 0 0 0 0 0 0 0 0 0 0 0 0 0 0 0 0 0 0 0 0 0 0 0 0 0 0 0 0 0 0 0 0 0 0 0 0 0 0 0 0 0 0 0 0 0 0 0 0 0 0 0
850 850 863 872 875 898 926 942 944 946 948 959 975 985 1001 1027 1046 1053 1078 1094 1102 1108 1111 1116 1126 1143 1153 1161 1170 1193 1198 1208 1214 1218 1226 1239 1252 1265 1287 1308 1324 1334 1337 1344 1351 1355 1362 1368 1378 1393 1411 1426 1444 1463 1476 1494 1519 1534 1539 1540 1542 1543 1546 1549 1552 1555 1555 1555 1558 1558 1560 1568 1577 1587 1599 1612 1620 1629 1636 1639 1640 1647 1653 1665 1670 1670 1671 1672 1673 1672 1672 1671 1665 1661 1656 0 0 0 0 0 0 0 0 0 0 0 0 0 905 905 905 905 905 906 906 906 907 907 907 908 908 909 910 911 912 913 915 916 917 919 920 921 922 923 924 926 927 928 930 930 931 933 934 935 936 937 939 940 941 942 944 945 946 947 948 949 950 951 952 953 954 955 956 958 959 961 962 963 964 966 966 968 968 969 970 971 972 973 975 977 977 979 980 983 984 986 986 987 987 989 990 992 993 993 993 994 995 996 997 999 1001 1003 1007 1008 1008 1008 1010 1014 1016 1019 1020 1020 1020 1022 1025 1026 1027 1029 1029 1030 1031 1032 1033 1034 1035 1036 1037 1038 1039 1039 1040 1041 1041 1041 1041 1040 1039 1038 1034 1032 1024 1002 991 981 945 920 910 908 908 908 917 920 920 920 894 894 894 921 928 935 953 972 985 994 994 996 997 998 1023 1051 1075 1089 1095 1102 1103 1105 1111 1116 1119 1120 1122 1123 1125 1125 1125 1126 1127 1127 1127 1127 1127 1127 1128 1128 1128 1128 1128 1131 1133 1133 1133 1134 1135 0 0 0 0 0 0 0 1515 1515 1518 1518 1524 1539 1540 1542 1546 1547 1550 1555 1555 1555 1554 1554 1554 1554 1554 1559 1564 1565 1567 1568 1573 1576 1581 1587 1591 1592 1592 1593 1593 1595 1598 1603 1607 1610 1610 1611 1611 1613 1616 1619 1621 1622 1622 1623 1623 1626 1631 1631 1632 1632 1632 1632 1632 1629 1629 1629 1629 1628 1628 1628 1626 1623 1621 1621 1621 1624 1630 1634 1637 1642 1645 1648 1650 1650 1650 1651 1650 1650 1649 1649 1649 1650 1652 1653 1654 1656 1658 1659 1659 1660 1661 1661 1661 1661 1660 1660 1660 1661 1661 1661 1662 1663 1663 1665 1665 1666 1666 1666 1669 1675 1685 1691 1691 1691 1689 1687 1682 1682 1680 1678 1677 1677 1677 1679 1680 1681 1682 1683 1685 1685 1685 1682 1679 1679 1678 1676 1673 1673 1671 1670 1669 1667 1665 1665 1665 1665 1665 1663 1657 1657 1653 1646 1642 1637 1636 1636 1636 1647 1647 1647 1645 1645 1645 1653 1664 1671 1673 1676 1680 1682 1686 1687 1687 1687 1687 1687 1689 1692 1693 1697 1707 1711 1711 1711 1711 1711 1712 1713 1715 1715 1715 1714 1713 1709 1705 1695 1685 1673 1664 1651 0 0 0 0 0 0 0 0 0 1631 1650 1650 1650 1650 1650 1660 1672 1672 1672 1642 1601 1595 1590 1586 1586 1586 1586 1613 1657 0 0 0 0 0 1597 1575 1547 1547 1547 1547 1578 1594 1612 1627 0 0 0 0 1500 1471 1463 1447 1413 1413 1413 1413 1413 1413 1396 1396 1396 1396 1396 1367 1367 1366 1354 1350 1345 1318 1300 1277 1272 1253 0 0 0 0 0 0 0 0 0 0 0 0 0 0 0 0 0 0 0 0 0 0 0 0 0 0 0 0 0 0 0 0 0 0 0 0 0 0 0 0 0 0 0 0 0 0 0 0 0 0 0 0
850 850 861 864 875 898 926 944 944 948 948 959 975 990 1012 1029 1046 1059 1079 1094 1102 1108 1111 1116 1126 1143 1158 1170 1184 1200 1205 1213 1216 1219 1228 1240 1252 1266 1287 1308 1324 1334 1337 1344 1350 1355 1362 1368 1383 1405 1426 1446 1462 1473 1478 1494 1513 1531 1536 1537 1538 1538 1542 1549 1553 1558 1558 1558 1559 1559 1560 1568 1577 1587 1599 1616 1626 1629 1636 1637 1638 1644 1653 1665 1670 1670 1670 1670 1667 1663 1658 1647 1638 0 0 0 0 0 0 0 0 0 0 0 0 0 0 901 901 901 901 902 903 903 904 905 905 906 906 907 908 908 909 910 911 912 914 915 916 918 919 920 921 923 923 924 926 927 928 929 931 932 933 934 935 936 937 939 940 942 943 943 945 945 947 948 949 950 951 951 952 954 955 956 958 959 961 962 963 964 965 966 966 967 968 969 970 972 974 974 976 977 978 980 981 983 985 985 985 986 987 988 990 990 991 992 993 994 995 996 998 1002 1003 1003 1003 1003 1006 1010 1015 1016 1017 1018 1019 1020 1023 1023 1026 1026 1026 1028 1029 1029 1030 1032 1033 1035 1035 1036 1036 1038 1039 1039 1039 1039 1040 1040 1041 1041 1041 1041 1032 1008 1007 1004 0 931 913 909 909 909 912 912 912 887 887 887 905 922 930 941 953 972 985 994 994 994 997 997 1002 1028 1051 1068 1087 1101 1102 1102 1106 1113 1116 1118 1121 1122 1122 1123 1123 1125 1126 1126 1127 1127 1127 1127 1127 1128 1128 1128 1128 1130 1132 1132 1132 1128 1128 1128 1131 0 0 0 0 0 0 1500 1500 1506 1521 1538 1538 1538 1537 1537 1537 1554 1554 1554 1555 1555 1555 1555 1555 1559 1559 1559 1561 1561 1567 1572 1580 1586 1591 1591 1591 1592 1592 1592 1596 1600 1604 1607 1607 1607 1608 1608 1614 1617 1619 1620 1621 1621 1621 1623 1628 1630 1631 1631 1631 1631 1628 1626 1626 1626 1627 1627 1627 1627 1626 1624 1622 1622 1622 1624 1630 1634 1637 1640 1644 1648 1648 1648 1649 1649 1649 1649 1648 1648 1648 1650 1652 1653 1654 1656 1658 1658 1659 1660 1661 1661 1661 1661 1661 1661 1661 1661 1662 1662 1662 1663 1663 1664 1664 1664 1664 1665 1667 1672 1685 1688 1688 1688 1684 1683 1682 1682 1680 1679 1679 1679 1680 1682 1682 1683 1684 1683 1683 1683 1683 1679 1678 1677 1677 1676 1673 1672 1670 1670 1668 1667 1665 1665 1665 1665 1665 1661 1657 1657 1652 1646 1642 1637 1637 1637 1642 1647 1650 1650 1650 1650 1650 1660 1669 1671 1674 1677 1681 1685 1688 1692 1692 1693 1693 1693 1695 1696 1702 1704 1708 1711 1711 1711 1711 1711 1712 1713 1715 1715 1715 1715 1713 1709 1705 1695 1695 1691 1678 0 0 0 0 0 0 0 0 0 0 1631 1650 1650 1650 1650 1650 1673 1684 1690 1690 1684 1661 1602 1597 1597 1597 1606 1613 1618 1657 0 0 0 0 1575 1562 1561 1547 1547 1547 1547 1579 1595 1612 1627 1627 0 0 0 1469 1438 1411 1395 1385 1385 1385 1411 1411 1414 1420 1420 1414 1414 1401 1367 1367 1367 1367 1367 1352 1318 1300 1290 1273 1269 0 0 0 0 0 0 0 0 0 0 0 0 0 0 0 0 0 0 0 0 0 0 0 0 0 0 0 0 0 0 0 0 0 0 0 0 0 0 0 0 0 0 0 0 0 0 0 0 0 0 0 0
850 850 860 863 875 898 925 944 944 948 948 959 980 991 1014 1039 1048 1065 1082 1095 1105 1108 1111 1117 1129 1143 1164 1181 1196 1202 1211 1213 1216 1224 1235 1246 1254 1268 1288 1309 1324 1334 1337 1344 1350 1355 1362 1370 1392 1416 1438 1455 1470 1474 1484 1493 1507 1518 1526 1526 1530 1533 1540 1549 1556 1560 1560 1560 1560 1560 1560 1568 1577 1587 1599 1616 1626 1629 1634 1635 1636 1639 1652 1665 1665 1665 1665 1661 1658 1653 0 0 0 0 0 0 0 0 0 0 0 0 0 0 0 924 900 898 898 898 901 901 902 903 903 904 904 904 905 905 907 907 908 909 910 911 913 914 915 917 918 920 921 922 923 924 925 925 928 928 929 930 931 932 934 935 936 938 939 940 941 942 943 945 945 946 947 948 949 950 952 953 953 955 956 958 959 960 962 963 964 965 965 966 968 968 970 970 972 973 974 975 976 978 979 980 983 983 984 984 984 986 987 988 989 991 991 991 992 992 991 991 992 993 993 995 999 1006 1008 1012 1014 1016 1017 1019 1020 1022 1023 1023 1025 1026 1026 1028 1028 1029 1030 1032 1033 1034 1035 1036 1037 1038 1038 1038 1039 1040 1041 1041 1041 1041 1040 1040 1035 1026 0 0 916 912 912 912 912 912 900 887 887 887 905 923 932 941 953 973 985 994 994 994 996 996 1002 1028 1051 1067 1085 1099 1099 1101 1105 1112 1114 1116 1118 1120 1121 1121 1121 1123 1123 1125 1125 1126 1126 1126 1127 1127 1128 1128 1128 1128 1130 1130 1130 1128 1128 1128 1129 1132 0 0 0 0 0 0 1489 1498 1518 1531 1531 1531 1531 1531 1537 1554 1554 1554 1555 1555 1555 1559 1560 1561 1560 1559 1558 1558 1558 1564 1571 1572 1578 1591 1591 1591 1591 1591 1596 1600 1603 1603 1603 1604 1604 1604 1609 1616 1617 1620 1620 1620 1620 1620 1621 1623 1627 1628 1628 1628 1625 1625 1625 1625 1627 1627 1627 1627 1626 1625 1625 1625 1625 1627 1630 1634 1637 1638 1642 1644 1644 1645 1645 1645 1647 1647 1647 1647 1647 1649 1650 1650 1653 1655 1657 1658 1658 1660 1661 1661 1661 1661 1661 1661 1661 1661 1662 1662 1663 1663 1663 1663 1663 1664 1664 1664 1666 1671 1685 1685 1685 1683 1683 1682 1681 1682 1681 1681 1681 1681 1681 1682 1682 1683 1683 1682 1682 1680 1679 1677 1677 1677 1676 1675 1673 1671 1670 1670 1668 1667 1665 1665 1665 1665 1665 1661 1657 1654 1651 1646 1643 1643 1643 1644 1646 1648 1650 1651 1652 1655 1658 1664 1669 1672 1674 1677 1681 1686 1691 1696 1698 1700 1700 1701 1701 1701 1706 1707 1709 1709 1709 1710 1710 1710 1712 1713 1715 1715 1715 1715 1713 1709 1709 1709 1709 1709 0 0 0 0 0 0 0 0 0 0 0 1631 1650 1650 1650 1650 1650 1680 1712 1714 1715 1715 1715 1652 1622 1618 1606 1606 1611 1614 1614 0 0 0 1555 1555 1547 1547 1552 1552 1552 1573 1590 1593 1595 1595 1593 0 0 0 1440 1424 1408 1395 0 1385 1385 1411 1421 1425 1428 1430 1430 1430 0 0 0 0 1352 1352 1352 1350 1337 1314 1272 1269 1263 0 0 0 0 0 0 0 0 0 0 0 0 0 0 0 0 0 0 0 0 0 0 0 0 0 0 0 0 0 0 0 0 0 0 0 0 0 0 0 0 0 0 0 0 0 0 0 0 0 0 0
850 850 860 862 870 886 911 934 946 948 957 959 981 1003 1025 1045 1054 1072 1087 1095 1106 1108 1111 1117 1129 1143 1167 1188 1196 1206 1213 1217 1224 1236 1248 1255 1262 1273 1294 1312 1324 1333 1340 1345 1350 1356 1368 1380 1402 1421 1442 1461 1471 1480 1484 1493 1502 1511 1515 1518 1523 1532 1540 1550 1559 1562 1563 1563 1565 1566 1570 1576 1582 1588 1598 1616 1626 1629 1633 1634 1635 1638 1649 1659 1659 1659 1657 1649 0 0 0 0 0 0 0 0 0 0 0 0 0 0 0 0 915 902 895 895 895 896 899 899 900 900 901 903 903 903 903 904 905 906 907 908 909 911 913 914 915 917 917 919 919 921 922 923 923 924 925 927 928 929 930 932 932 933 935 936 937 939 940 940 941 943 944 945 946 947 948 949 950 951 952 954 955 956 957 959 960 961 962 963 964 964 965 966 967 969 971 972 973 973 974 976 977 978 979 980 981 981 982 984 986 987 988 989 989 989 988 985 984 984 984 984 986 986 992 999 1005 1011 1011 1013 1014 1016 1017 1019 1020 1021 1022 1023 1024 1025 1026 1027 1028 1029 1031 1031 1032 1034 1035 1036 1037 1038 1038 1040 1040 1041 1041 1041 1040 1040 1037 1031 1010 0 926 926 926 918 918 918 900 893 893 893 914 926 936 947 961 973 984 994 994 994 997 997 1002 1028 1051 1067 1085 1096 1098 1098 1105 1110 1111 1113 1116 1118 1118 1119 1119 1121 1122 1123 1123 1124 1124 1125 1126 1127 1127 1128 1128 1128 1129 1129 1129 1125 1125 1125 1127 1131 1132 0 0 0 0 0 0 1489 1505 1521 1521 1521 1522 1522 1537 1554 1554 1554 1555 1555 1555 1561 1562 1562 1562 1561 1558 1558 1558 1559 1562 1564 1571 1583 1590 1590 1591 1591 1595 1599 1600 1600 1600 1598 1598 1598 1603 1610 1617 1619 1619 1619 1618 1618 1618 1619 1623 1624 1624 1624 1623 1623 1623 1625 1627 1627 1627 1627 1626 1626 1626 1628 1630 1633 1634 1634 1636 1637 1641 1641 1641 1641 1641 1641 1646 1646 1646 1645 1645 1645 1645 1648 1652 1655 1657 1658 1658 1660 1661 1661 1661 1661 1661 1660 1660 1660 1662 1662 1662 1662 1663 1663 1663 1663 1663 1664 1666 1670 1676 1682 1682 1683 1682 1681 1681 1683 1685 1685 1685 1682 1682 1682 1682 1682 1682 1681 1678 1677 1677 1677 1677 1677 1675 1674 1672 1671 1670 1669 1668 1667 1665 1665 1665 1665 1665 1661 1653 1651 1650 1648 1648 1648 1649 1649 1649 1650 1650 1651 1654 1657 1661 1664 1670 1672 1675 1680 1684 1689 1694 1697 1701 1704 1704 1704 1706 1706 1706 1707 1709 1709 1709 1710 1710 1710 1713 1715 1716 1716 1715 1715 1713 1713 1713 1729 1743 1743 0 0 0 0 0 0 0 0 0 0 0 1622 1642 1648 1651 1653 1681 1708 1712 1714 1715 1715 1715 1683 1634 1618 1607 1606 1606 1593 1558 1558 1557 1553 1555 1555 1555 1562 1570 1571 1586 1590 1594 1594 1590 1545 1530 1518 1503 1487 1431 1413 1408 0 0 1385 1385 1411 1424 1425 1428 1430 1430 1430 0 0 0 0 0 1352 1352 1350 1345 1314 1272 1269 1263 0 0 0 1149 1144 1141 0 0 0 0 0 0 0 0 0 0 0 0 0 0 0 0 0 0 0 0 0 0 0 0 0 0 0 0 0 0 0 0 0 0 0 0 0 0 0 0 0 0 0 0 0
849 849 850 855 863 883 907 925 946 958 958 979 1006 1029 1040 1049 1071 1082 1094 1102 1106 1108 1111 1117 1131 1147 1171 1190 1198 1209 1217 1224 1232 1246 1258 1264 1271 1286 1302 1316 1324 1333 1341 1345 1356 1367 1378 1390 1408 1425 1443 1462 1476 1481 1484 1491 1495 1503 1511 1515 1522 1529 1539 1550 1559 1562 1565 1566 1567 1568 1571 1577 1582 1588 1597 1613 1623 1627 1629 1629 1631 1631 1631 1631 0 0 0 0 0 0 0 0 0 0 0 0 0 0 0 0 0 0 0 914 903 898 894 894 894 895 896 896 897 899 900 900 901 901 902 903 904 905 906 907 908 910 911 913 914 915 916 918 919 919 920 921 922 924 925 926 927 928 929 930 932 933 934 934 936 937 938 939 940 940 943 943 944 946 946 947 949 950 951 952 953 954 956 957 959 959 961 962 962 963 963 965 965 967 968 970 971 971 972 973 974 975 977 977 978 978 979 981 981 982 982 984 984 984 981 976 974 972 968 963 963 963 976 984 994 1007 1008 1009 1012 1013 1014 1016 1018 1019 1020 1022 1022 1023 1024 1025 1026 1028 1029 1030 1032 1032 1034 1034 1036 1037 1038 1038 1038 1038 1038 1038 1038 1038 1037 1033 1020 1005 979 951 949 946 943 924 922 922 922 933 935 941 948 950 961 973 982 988 995 998 998 1006 1024 1040 1055 1067 1081 1089 1094 1096 1103 1107 1108 1110 1114 1116 1116 1117 1118 1119 1120 1121 1122 1123 1123 1124 1124 1126 1127 1127 1127 1128 1128 1128 1128 1126 1126 1126 1126 1129 1130 1130 1133 0 0 0 0 0 1490 1501 1506 1514 1516 1525 1541 1552 1553 1554 1555 1555 1555 1561 1562 1566 1566 1566 1559 1559 1559 1559 1562 1564 1568 1568 1574 1587 1589 1591 1594 1599 1600 1600 1600 1597 1597 1597 1599 1602 1608 1614 1614 1614 1614 1614 1614 1616 1620 1621 1621 1621 1621 1621 1622 1625 1627 1627 1627 1627 1627 1627 1629 1631 1632 1633 1634 1634 1636 1637 1638 1638 1638 1638 1638 1638 1644 1645 1645 1645 1644 1644 1644 1648 1652 1655 1657 1658 1658 1659 1659 1659 1661 1661 1661 1661 1661 1661 1661 1662 1663 1663 1663 1663 1663 1663 1664 1664 1666 1667 1669 1671 1676 1677 1680 1680 1681 1683 1685 1687 1687 1687 1684 1684 1684 1683 1681 1678 1677 1677 1676 1677 1677 1676 1675 1672 1671 1669 1668 1667 1666 1665 1665 1664 1663 1660 1659 1653 1649 1649 1648 1648 1648 1648 1650 1650 1650 1651 1651 1652 1655 1659 1662 1668 1671 1673 1678 1684 1690 1694 1698 1701 1706 1706 1706 1706 1706 1706 1706 1707 1710 1710 1710 1710 1710 1710 1715 1715 1715 1715 1713 1713 1714 1715 1719 1729 1748 1748 0 0 0 0 0 0 0 0 0 0 0 1622 1642 1648 1651 1654 1681 1708 1712 1714 1715 1715 1715 1683 1636 1624 1620 1613 1588 1562 1558 1558 1557 1553 1555 1555 1555 1577 1584 1586 1589 1589 1586 1564 1547 1530 1511 1505 1498 1470 1431 1413 1413 1413 1428 1428 1428 1428 1428 1428 1430 1431 1430 1430 0 0 0 0 0 1307 1333 1333 1333 1315 1272 1263 1259 1252 1215 1162 1149 1144 1141 1113 1097 0 0 0 0 0 0 0 0 0 0 0 0 0 0 0 0 0 0 0 0 0 0 0 0 0 0 0 0 0 0 0 0 0 0 0 0 0 0 0 0 0 0 0
842 842 844 849 863 883 907 925 946 959 973 995 1021 1056 1062 1082 1085 1085 1094 1108 1133 1150 1150 1153 1153 1153 1171 1191 1202 1212 1221 1230 1243 1256 1268 1277 1289 1299 1311 1319 1326 1330 1341 1345 1356 1372 1384 1400 1414 1426 1448 1468 1478 1482 1487 1488 1489 1496 1510 1512 1521 1528 1539 1550 1559 1562 1565 1566 1567 1568 1571 1577 1582 1588 1597 1605 1617 1619 1621 1621 1621 1610 0 0 0 0 0 0 0 0 0 0 0 0 0 0 0 0 0 0 0 901 900 899 898 895 894 894 894 894 895 895 896 898 899 899 900 900 901 902 903 904 905 906 907 909 910 912 913 914 915 916 918 919 920 920 922 923 924 925 925 927 928 929 930 931 932 933 934 935 936 937 938 939 941 943 943 944 946 947 948 948 950 950 952 952 954 955 956 958 959 960 960 961 963 964 964 966 967 967 968 969 969 969 971 973 973 973 973 973 973 974 974 974 974 972 972 965 961 957 954 954 0 0 0 0 0 0 0 986 1003 1006 1007 1010 1011 1012 1014 1016 1018 1020 1020 1021 1022 1023 1024 1026 1028 1029 1030 1032 1033 1034 1035 1036 1037 1037 1037 1037 1037 1038 1038 1038 1037 1033 1025 1015 999 985 970 956 956 941 930 930 930 939 945 954 956 956 961 969 982 988 995 999 1009 1024 1056 1066 1068 1070 1081 1088 1093 1096 1101 1103 1105 1107 1111 1113 1114 1115 1116 1118 1118 1120 1120 1120 1121 1122 1123 1124 1126 1126 1127 1127 1127 1127 1127 1125 1125 1125 1126 1129 1129 1130 1130 1131 0 0 0 0 0 1478 1492 1507 1516 1525 1541 1552 1555 1555 1555 1555 1555 1555 1562 1566 1567 1569 1569 1572 1574 1574 1574 1568 1568 1568 1571 1577 1584 1589 1592 1597 1599 1599 1599 1597 1597 1597 1597 1600 1603 1610 1610 1610 1608 1608 1608 1612 1616 1616 1616 1617 1617 1617 1621 1625 1627 1627 1627 1627 1627 1627 1631 1632 1633 1633 1634 1634 1634 1636 1637 1637 1637 1637 1637 1637 1640 1642 1643 1643 1644 1644 1644 1648 1652 1655 1657 1658 1658 1658 1658 1659 1660 1660 1661 1661 1661 1661 1661 1662 1663 1663 1663 1663 1663 1663 1664 1665 1665 1665 1664 1664 1664 1671 1679 1680 1681 1683 1684 1687 1687 1687 1684 1684 1684 1683 1680 1677 1677 1676 1676 1676 1676 1675 1672 1670 1667 1666 1666 1665 1664 1663 1661 1658 1656 1651 1649 1648 1648 1648 1647 1647 1648 1648 1651 1651 1651 1652 1652 1652 1655 1660 1668 1671 1671 1676 1682 1690 1695 1698 1702 1705 1710 1710 1710 1707 1706 1706 1706 1707 1710 1710 1711 1711 1712 1715 1715 1715 1715 1712 1712 1712 1713 1714 1719 1729 1748 1748 0 0 0 0 0 0 0 0 0 0 0 1601 1626 1648 1651 1654 1681 1704 1708 1708 1707 1704 1704 1683 1650 1635 1628 1622 1586 1562 1558 1558 1558 1562 1569 1570 1577 1580 1584 1586 1587 1587 1586 1564 1539 1511 1511 1504 1498 1470 1431 1413 1413 1413 1439 1460 1460 1460 1453 1431 1425 1400 1396 1383 1344 1269 1250 1239 1239 1250 1277 1316 1316 1316 1265 1259 1246 1227 1215 1164 1145 1139 1136 1113 1097 1090 0 0 0 0 0 0 0 0 0 0 0 0 0 0 0 0 0 0 0 0 0 0 0 0 0 0 0 0 0 0 0 0 0 0 0 0 0 0 0 0 0 0
830 830 841 849 863 883 907 925 946 961 974 995 1021 1056 1062 1082 1085 1085 1094 1108 1133 1153 1155 1156 1157 1160 1175 1191 1205 1215 1226 1237 1247 1262 1273 1287 1299 1312 1320 1321 1326 1330 1341 1346 1359 1372 1386 1400 1414 1432 1450 1471 1480 1482 1487 1488 1489 1490 1494 1504 1520 1528 1537 1549 1562 1565 1566 1566 1567 1568 1571 1577 1578 1579 1583 1592 1593 1599 1599 0 0 0 0 0 0 0 0 0 0 0 0 0 0 0 0 0 0 913 911 911 905 899 892 892 891 891 891 891 892 894 895 895 895 896 897 897 899 900 900 901 902 903 904 905 906 907 908 910 912 912 914 915 916 917 918 919 921 922 922 923 925 926 926 928 928 930 931 931 932 933 934 936 937 938 940 941 942 943 944 946 947 947 949 949 950 951 953 954 955 957 957 959 959 959 961 962 963 963 965 965 966 966 966 967 967 969 969 969 968 965 965 965 965 966 966 966 961 951 929 922 916 911 884 884 884 890 900 910 0 963 989 1002 1006 1008 1009 1011 1012 1014 1015 1016 1017 1018 1020 1021 1023 1024 1025 1027 1029 1030 1031 1032 1033 1034 1036 1036 1036 1036 1036 1037 1037 1037 1037 1034 1032 1024 1015 1003 986 971 959 947 937 937 937 947 957 957 962 962 962 969 982 988 995 1011 1025 1036 1056 1069 1073 1075 1081 1088 1091 1093 1098 1101 1104 1106 1108 1110 1112 1113 1114 1115 1116 1118 1118 1119 1119 1121 1122 1123 1124 1125 1126 1126 1126 1126 1126 1126 1126 1126 1127 1128 1129 1129 1129 1129 1138 0 0 0 0 0 1480 1496 1511 1525 1541 1552 1555 1555 1555 1555 1554 1554 1554 1561 1565 1566 1567 1572 1576 1576 1576 1574 1571 1571 1571 1575 1579 1584 1591 1597 1598 1598 1598 1597 1593 1593 1593 1598 1603 1610 1610 1610 1606 1606 1606 1609 1613 1613 1613 1614 1614 1614 1619 1625 1625 1625 1626 1626 1626 1628 1631 1633 1633 1633 1633 1634 1634 1635 1636 1636 1636 1637 1637 1637 1638 1641 1644 1644 1644 1644 1644 1649 1652 1655 1656 1657 1657 1658 1658 1659 1660 1660 1662 1662 1662 1662 1662 1665 1665 1665 1665 1662 1662 1662 1664 1665 1665 1665 1661 1661 1661 1661 1678 1678 1679 1681 1681 1687 1687 1687 1684 1684 1682 1679 1679 1677 1677 1677 1676 1676 1676 1674 1672 1669 1666 1665 1664 1663 1663 1661 1660 1656 1652 1647 1645 1645 1645 1645 1645 1646 1646 1646 1651 1655 1655 1656 1657 1657 1663 1669 1670 1671 1674 1682 1690 1697 1702 1703 1704 1705 1710 1710 1710 1707 1706 1706 1706 1707 1711 1711 1711 1712 1714 1717 1717 1717 1714 1710 1710 1710 1713 1714 1719 1726 1741 1741 0 0 0 0 0 0 0 0 0 0 0 1581 1586 1598 1621 1654 1663 1663 0 0 0 0 1650 1650 1650 1635 1628 1591 1572 1572 1572 1578 1590 1590 1590 1585 1584 1584 1580 1580 1584 1580 1576 1564 1522 1507 1504 1502 1498 1454 1424 1409 1409 1409 1442 1494 1494 1494 1453 1431 1414 1366 1362 1349 1329 1269 1250 1239 1239 1250 1270 1314 1314 1314 1256 1256 1237 1227 1215 1164 1145 1136 1136 1123 1097 1087 0 0 0 0 0 0 0 0 0 0 0 0 0 0 0 0 0 0 0 0 0 0 0 0 0 0 0 0 0 0 0 0 0 0 0 0 0 0 0 0 0 0
820 820 841 849 870 885 908 926 946 961 974 995 1021 1056 1062 1082 1085 1085 1092 1112 1136 1153 1155 1157 1158 1163 1176 1191 1205 1221 1236 1245 1255 1263 1276 1293 1309 1328 1328 1330 1336 1336 1341 1346 1361 1372 1387 1400 1414 1433 1454 1472 1481 1485 1488 1489 1489 1490 1494 1502 1515 1524 1536 1549 1562 1562 1562 1562 1560 1560 1560 1562 1564 1566 1566 1566 0 0 0 0 0 0 0 0 0 0 0 0 0 0 0 0 0 0 906 905 905 902 902 897 890 887 886 886 886 889 890 891 892 893 894 894 895 895 895 896 897 898 899 901 901 901 903 904 905 906 908 909 910 911 912 913 915 916 916 917 919 920 921 922 923 924 926 926 927 928 929 930 931 932 932 934 935 936 938 939 940 942 943 944 945 946 947 948 948 950 950 952 953 955 956 957 958 958 959 959 961 961 962 962 963 963 963 963 963 963 963 963 958 954 954 954 954 954 954 0 0 916 915 908 889 875 875 875 883 890 893 897 913 0 974 993 999 1004 1006 1008 1010 1012 1013 1014 1014 1015 1017 1019 1020 1022 1024 1025 1027 1028 1030 1031 1032 1033 1034 1035 1035 1035 1035 1035 1037 1037 1037 1035 1032 1029 1020 1005 1000 997 975 951 937 937 937 951 964 964 964 969 969 969 989 1013 1022 1030 1042 1049 1058 1071 1075 1082 1084 1086 1090 1092 1097 1100 1101 1104 1106 1108 1110 1111 1112 1113 1115 1116 1117 1118 1118 1119 1121 1122 1123 1124 1124 1125 1125 1125 1125 1125 1125 1126 1126 1127 1128 1128 1128 1128 1130 1133 0 0 0 0 0 1475 1489 1525 1541 1547 1550 1554 1554 1554 1554 1553 1553 1553 1556 1563 1567 1572 1576 1579 1579 1579 1576 1575 1575 1575 1579 1584 1587 1595 1598 1598 1598 1597 1593 1593 1593 1598 1603 1610 1610 1610 1605 1605 1605 1607 1611 1611 1611 1612 1612 1612 1617 1622 1622 1622 1624 1624 1626 1628 1631 1632 1633 1633 1633 1633 1633 1634 1636 1636 1636 1637 1637 1637 1638 1641 1644 1644 1645 1646 1647 1650 1654 1655 1656 1657 1657 1657 1658 1658 1660 1660 1662 1662 1662 1662 1664 1665 1665 1665 1665 1663 1663 1663 1664 1664 1664 1663 1661 1661 1661 1661 1664 1667 1677 1679 1681 1684 1684 1684 1683 1680 1680 1679 1678 1677 1677 1677 1676 1676 1675 1674 1672 1669 1666 1665 1664 1663 1663 1661 1659 1656 1651 1645 1645 1645 1645 1645 1644 1644 1645 1646 1652 1660 1665 1665 1667 1668 1675 1677 1679 1679 1682 1689 1697 1703 1703 1704 1704 1705 1710 1710 1710 1709 1707 1707 1707 1709 1713 1714 1714 1715 1717 1717 1717 1717 1713 1709 1709 1709 1711 1711 1712 1720 1720 1720 0 0 0 0 0 0 0 0 0 0 1557 1566 1586 1592 1592 1626 1626 1626 1611 1595 1595 1595 1597 1620 1628 1628 1628 1591 1572 1572 1572 1583 1592 1592 1592 1585 1569 1540 1540 1540 1544 1564 1564 1564 1521 1503 1498 1497 1481 1454 1412 1410 1410 1410 1473 1513 1513 1513 1453 1379 1359 1358 1345 1330 1322 1290 1269 1251 1251 1251 1270 1308 1308 1308 1255 1243 1236 1220 1208 1164 1145 1136 1136 1123 1097 0 0 0 0 0 0 0 0 0 0 0 0 0 0 0 0 0 0 0 0 0 0 0 0 0 0 0 0 0 0 0 0 0 0 0 0 0 0 0 0 0 0 0
820 820 841 855 870 885 908 926 946 961 974 991 1018 1050 1055 1072 1077 1079 1092 1112 1136 1151 1155 1156 1158 1166 1180 1191 1210 1229 1241 1245 1255 1264 1276 1294 1314 1341 1341 1341 1341 1341 1341 1346 1361 1373 1387 1400 1414 1433 1455 1474 1481 1487 1492 1492 1492 1494 1494 1502 1515 1524 1535 1547 1554 1554 1554 1531 1519 1517 0 0 0 0 0 0 0 0 0 0 0 0 0 0 0 0 0 0 0 0 908 907 907 904 897 896 896 896 894 892 887 885 885 885 886 888 890 890 892 892 892 892 893 894 894 895 897 897 898 899 899 901 901 903 904 905 906 908 909 910 911 912 913 914 915 916 917 919 919 920 921 923 924 925 925 926 927 928 929 931 931 932 934 935 937 937 938 940 941 943 944 945 945 946 947 948 950 950 952 953 954 955 955 956 956 958 959 959 960 960 960 960 960 960 957 954 951 951 948 948 944 941 0 0 0 0 0 895 895 895 873 873 873 875 883 883 888 889 889 0 0 977 989 993 995 1004 1009 1011 1012 1012 1013 1013 1016 1017 1019 1021 1022 1024 1025 1027 1028 1030 1031 1032 1034 1034 1034 1034 1034 1035 1036 1036 1036 1035 1032 1030 1028 1016 1011 1007 994 966 941 941 941 952 969 970 981 985 986 1001 1017 1033 1038 1043 1050 1054 1061 1071 1076 1082 1084 1086 1090 1091 1096 1097 1100 1102 1104 1105 1107 1109 1110 1112 1112 1114 1116 1117 1118 1119 1120 1120 1121 1122 1122 1123 1123 1124 1124 1125 1125 1126 1126 1127 1128 1128 1128 1128 1128 1129 1141 0 0 0 0 0 0 1478 1481 1529 1543 1550 1554 1554 1554 1552 1552 1552 1552 1554 1562 1570 1576 1579 1580 1580 1579 1579 1579 1579 1579 1584 1587 1592 1593 1593 1593 1593 1593 1593 1593 1598 1609 1609 1609 1609 1605 1605 1605 1605 1609 1609 1609 1609 1609 1609 1613 1618 1618 1619 1619 1620 1625 1627 1631 1631 1632 1632 1632 1632 1633 1634 1636 1637 1637 1637 1638 1638 1638 1641 1644 1645 1645 1646 1647 1650 1654 1655 1656 1656 1656 1656 1656 1657 1659 1661 1662 1662 1663 1663 1664 1665 1665 1665 1665 1664 1664 1664 1664 1664 1664 1663 1661 1661 1661 1661 1664 1667 1676 1677 1678 1678 1678 1678 1678 1678 1678 1678 1677 1677 1677 1677 1677 1676 1675 1674 1671 1668 1666 1665 1663 1663 1662 1659 1657 1654 1651 1645 1645 1645 1644 1644 1644 1644 1644 1646 1656 1671 1672 1672 1674 1677 1681 1683 1685 1686 1688 1695 1703 1703 1704 1704 1704 1705 1709 1711 1711 1711 1711 1711 1711 1711 1715 1717 1719 1719 1719 1719 1719 1717 1713 1709 1708 1708 1708 1708 1710 1713 1713 1713 0 0 0 0 0 0 0 0 0 0 1574 1574 1574 1566 1566 1566 1566 1566 1570 1570 1570 1595 1597 1618 1620 1620 1618 1591 1572 1572 1572 1583 1592 1592 1592 1585 1530 1496 1496 1496 1520 1564 1564 1564 1519 1495 1483 1464 1462 1435 1412 1410 1410 1410 0 0 0 0 0 1379 1359 1358 1345 1324 1320 1290 1269 1267 1259 1259 1259 1296 1296 1296 1255 1220 1213 1213 1208 1164 1146 1140 0 0 0 0 0 0 0 0 0 0 0 0 0 0 0 0 0 0 0 0 0 0 0 0 0 0 0 0 0 0 0 0 0 0 0 0 0 0 0 0 0 0 0 0 0 0
820 820 841 855 870 885 908 926 941 953 968 991 1017 1041 1045 1059 1072 1077 1092 1112 1136 1151 1155 1156 1160 1169 1184 1191 1211 1229 1241 1245 1255 1265 1279 1295 1322 1348 1348 1350 1350 1348 1348 1350 1362 1377 1387 1400 1414 1435 1459 1474 1481 1487 1498 1503 1503 1503 1503 1503 1514 1524 1533 1546 1546 1546 0 0 0 0 0 0 0 0 0 0 0 0 0 0 0 0 0 0 0 0 900 900 895 895 895 895 895 893 890 888 888 888 888 887 885 884 884 884 885 886 887 888 889 890 891 892 892 893 894 895 895 896 897 898 899 899 900 902 903 904 904 906 907 908 909 910 911 912 913 914 915 916 918 919 920 921 922 923 924 925 925 927 928 928 930 931 933 933 935 936 937 939 940 940 941 942 943 944 945 946 948 949 950 951 952 953 954 954 954 955 955 956 956 956 956 956 955 951 949 947 942 937 934 930 929 920 0 0 0 847 848 868 872 872 872 872 872 872 882 882 882 882 882 895 0 0 978 982 989 999 1005 1008 1010 1011 1011 1012 1014 1015 1017 1019 1021 1023 1024 1025 1027 1028 1029 1030 1031 1032 1033 1033 1034 1035 1035 1035 1035 1035 1032 1032 1030 1026 1023 1022 1013 994 965 953 953 953 979 987 1001 1012 1019 1027 1030 1037 1042 1048 1057 1064 1066 1071 1077 1082 1084 1085 1088 1091 1093 1095 1097 1099 1100 1102 1105 1107 1108 1110 1111 1112 1115 1116 1117 1118 1119 1120 1120 1121 1121 1122 1123 1123 1124 1124 1125 1126 1126 1127 1128 1128 1128 1128 1128 1128 1128 1144 0 0 0 0 0 0 1475 1503 1534 1544 1551 1552 1552 1552 1552 1552 1552 1552 1559 1563 1569 1576 1579 1581 1581 1579 1580 1580 1580 1585 1587 1589 1589 1589 1589 1589 1589 1590 1595 1602 1611 1611 1611 1609 1605 1602 1602 1602 1605 1607 1607 1608 1609 1609 1611 1613 1615 1616 1617 1618 1623 1626 1628 1630 1630 1632 1632 1632 1633 1634 1636 1638 1640 1642 1642 1643 1644 1644 1646 1646 1647 1647 1647 1650 1654 1655 1655 1655 1655 1655 1655 1657 1659 1661 1662 1662 1663 1663 1664 1665 1666 1666 1666 1666 1665 1665 1664 1664 1664 1663 1663 1662 1662 1663 1664 1665 1673 1674 1676 1678 1678 1678 1678 1678 1678 1677 1677 1677 1677 1677 1677 1675 1675 1673 1671 1668 1666 1665 1662 1661 1660 1658 1654 1651 1651 1648 1647 1646 1646 1644 1644 1644 1644 1653 1669 1672 1674 1674 1675 1680 1685 1689 1692 1692 1693 1698 1704 1704 1704 1704 1704 1705 1709 1712 1712 1712 1712 1712 1713 1714 1717 1720 1721 1721 1721 1720 1718 1714 1713 1711 1709 1707 1707 1707 1710 1710 1710 1706 0 0 0 0 0 0 0 0 0 0 1593 1593 1593 1566 1558 1558 1558 1557 1557 1557 1570 1595 1597 1597 1597 1581 1572 1566 1566 1566 1568 1583 1583 1583 1582 1558 1526 1496 1496 1496 1520 1564 1564 1564 1505 1476 1459 1434 1434 1432 1412 1410 1410 1410 0 0 0 0 0 1379 1359 1358 1345 1304 1297 1290 1269 1267 1259 1259 1259 1291 1291 1291 1254 1223 1213 1213 1208 1166 1152 1152 0 0 0 0 0 0 0 0 0 0 0 0 0 0 0 0 0 0 0 0 0 0 0 0 0 0 0 0 0 0 0 0 0 0 0 0 0 0 0 0 0 0 0 0 0 0
820 820 842 856 870 881 899 916 933 947 966 991 1017 1024 1045 1059 1072 1077 1104 1124 1139 1151 1155 1160 1166 1175 1185 1191 1211 1229 1241 1245 1253 1267 1279 1297 1322 1348 1352 1356 1356 1353 1353 1356 1368 1385 1396 1400 1414 1440 1459 1474 1480 1487 1498 1503 1503 1503 1503 1503 1500 1505 1505 1500 0 0 0 0 0 0 0 0 0 0 0 0 0 0 0 0 0 0 0 906 906 903 893 893 891 890 890 887 883 880 879 879 879 881 883 884 884 884 884 884 884 885 886 888 888 889 890 891 891 892 893 893 894 895 896 896 898 898 900 900 901 902 903 904 905 907 908 909 910 910 911 913 914 915 917 917 919 919 920 921 922 923 924 925 926 927 928 930 931 933 933 934 936 937 939 939 940 941 941 943 943 945 946 947 949 949 951 951 951 952 952 952 953 953 953 953 952 952 948 943 940 938 926 921 917 910 903 876 835 835 835 835 841 849 858 858 858 864 864 872 875 875 875 875 875 888 917 937 947 964 978 989 997 1003 1007 1010 1011 1011 1013 1014 1016 1018 1020 1022 1023 1024 1025 1026 1027 1028 1029 1029 1030 1031 1032 1034 1034 1034 1034 1033 1032 1032 1031 1030 1030 1026 1022 1015 998 982 980 980 982 991 1004 1017 1026 1034 1047 1050 1053 1058 1066 1068 1071 1074 1077 1081 1083 1084 1086 1089 1091 1093 1095 1097 1098 1101 1103 1104 1106 1108 1109 1111 1113 1115 1116 1116 1118 1118 1119 1119 1120 1120 1122 1122 1123 1123 1123 1124 1125 1125 1127 1127 1127 1126 1127 1126 1126 1127 1129 0 0 0 0 0 1457 1500 1525 1529 1538 1546 1553 1553 1553 1552 1552 1552 1559 1563 1567 1571 1576 1579 1581 1581 1581 1581 1582 1585 1588 1588 1588 1583 1583 1583 1585 1587 1595 1602 1611 1611 1611 1608 1602 1602 1600 1600 1600 1602 1604 1605 1606 1608 1610 1612 1613 1613 1615 1617 1621 1624 1627 1629 1630 1631 1631 1632 1633 1634 1636 1638 1640 1642 1644 1645 1646 1647 1648 1648 1648 1648 1648 1650 1654 1654 1654 1653 1653 1653 1655 1657 1659 1661 1662 1662 1663 1663 1664 1665 1667 1667 1667 1667 1667 1667 1665 1665 1665 1665 1665 1665 1665 1665 1665 1667 1671 1674 1676 1678 1678 1678 1678 1678 1678 1677 1677 1677 1677 1677 1675 1674 1674 1672 1670 1668 1666 1664 1661 1660 1659 1656 1652 1652 1652 1656 1656 1656 1651 1647 1647 1647 1647 1662 1672 1673 1675 1675 1677 1683 1690 1694 1694 1695 1695 1698 1704 1704 1704 1704 1704 1705 1709 1715 1715 1715 1715 1715 1715 1717 1721 1723 1723 1723 1723 1721 1718 1714 1713 1713 1710 1707 1707 1707 1710 1710 1710 1705 0 0 0 0 0 0 0 0 0 0 1593 1593 1593 1570 1558 1558 1558 1557 1557 1557 1570 1612 1617 1617 1617 1581 1528 1528 1528 1538 1561 1567 1569 1569 1569 1548 1526 1496 1496 1496 1520 1569 1569 1569 1505 1476 1459 1434 1434 1432 1425 1408 1408 1408 0 0 0 0 0 0 1379 1376 1375 1304 1261 1261 1259 1259 1259 1255 1255 1255 1255 1255 1250 1223 1223 1222 1213 1213 1206 1177 0 0 0 0 0 0 0 0 0 0 0 0 0 0 0 0 0 0 0 0 0 0 0 0 0 0 0 0 0 0 0 0 0 0 0 0 0 0 0 0 0 0 0 0 0 0
826 826 842 855 868 881 890 907 923 941 966 992 1017 1023 1045 1059 1072 1093 1109 1124 1139 1151 1162 1165 1173 1180 1185 1196 1211 1226 1236 1245 1253 1267 1283 1301 1322 1348 1353 1356 1356 1356 1356 1358 1377 1398 1411 1412 1424 1440 1459 1466 1472 1484 1498 1503 1503 1503 1493 0 0 0 0 0 0 0 0 0 0 0 0 0 0 0 0 0 0 0 0 0 0 883 883 887 888 888 888 882 882 880 880 880 876 872 872 872 873 876 878 881 883 883 883 883 883 884 885 886 887 887 888 888 890 891 891 892 893 893 894 895 896 898 898 899 900 901 902 903 905 905 907 908 908 910 911 912 913 914 915 916 917 918 919 920 921 922 923 924 925 926 927 928 929 930 932 934 935 936 936 937 938 939 940 940 941 942 944 945 946 947 948 949 950 950 950 950 950 950 950 949 948 947 942 933 926 915 895 893 887 881 870 851 835 834 833 834 835 837 845 851 853 856 858 867 870 870 871 871 871 883 896 908 910 927 953 974 982 990 999 1004 1008 1008 1011 1012 1015 1017 1019 1020 1021 1022 1023 1024 1025 1025 1027 1027 1027 1029 1031 1032 1032 1032 1031 1030 1030 1030 1031 1031 1031 1026 1025 1017 1003 996 989 989 989 1000 1011 1032 1035 1039 1048 1052 1058 1064 1066 1068 1071 1074 1077 1080 1081 1083 1085 1086 1089 1090 1092 1094 1096 1098 1100 1102 1104 1106 1108 1110 1112 1113 1113 1114 1115 1116 1117 1117 1119 1119 1120 1120 1121 1122 1123 1123 1124 1125 1125 1125 1125 1125 1126 1126 1126 1126 1127 1128 0 0 0 0 1448 1481 1511 1516 1524 1539 1552 1555 1555 1555 1558 1558 1559 1563 1567 1568 1570 1576 1579 1579 1581 1582 1583 1585 1588 1588 1588 1583 1583 1583 1584 1586 1595 1602 1609 1609 1609 1604 1601 1601 1600 1599 1599 1599 1600 1601 1603 1604 1607 1608 1611 1611 1613 1616 1619 1622 1625 1629 1629 1630 1631 1631 1633 1633 1636 1638 1640 1642 1644 1645 1646 1647 1648 1650 1650 1650 1650 1650 1652 1652 1652 1652 1652 1652 1654 1657 1658 1660 1660 1661 1662 1662 1664 1665 1667 1667 1669 1669 1669 1669 1668 1668 1666 1666 1665 1665 1665 1667 1667 1668 1671 1674 1676 1678 1678 1678 1678 1678 1677 1677 1677 1677 1677 1676 1674 1671 1669 1668 1667 1666 1664 1662 1660 1660 1657 1653 1653 1653 1654 1657 1657 1657 1655 1652 1652 1652 1664 1671 1672 1674 1675 1678 1683 1686 1692 1695 1695 1695 1695 1698 1700 1700 1703 1703 1703 1708 1720 1720 1720 1720 1720 1720 1721 1723 1724 1724 1724 1724 1723 1722 1718 1714 1713 1713 1711 1706 1706 1706 1710 1710 1710 1705 0 0 0 0 0 0 0 0 0 0 1593 1593 1593 1570 1558 1556 1555 1555 1556 1556 1571 1612 1612 1612 1604 1565 1524 0 1519 1519 1519 1525 1525 1531 1531 1531 1526 1526 1526 1531 1545 1564 1564 1564 1505 1476 1433 1425 1425 1422 1422 1402 1402 1402 0 0 0 0 0 1394 1390 1383 1375 1305 1261 1261 1252 1252 1252 1250 1247 1247 1245 1245 1239 1223 1223 1223 1231 1231 1231 1184 0 0 0 0 0 0 0 0 0 0 0 0 0 0 0 0 0 0 0 0 0 0 0 0 0 0 0 0 0 0 0 0 0 0 0 0 0 0 0 0 0 0 0 0 0 0
827 827 842 855 868 881 890 907 923 941 964 992 1016 1022 1041 1058 1076 1093 1109 1124 1139 1151 1162 1169 1173 1180 1186 1197 1211 1225 1236 1245 1253 1269 1287 1306 1322 1339 1351 1353 1354 1357 1357 1366 1385 1399 1411 1412 1424 1440 1449 1454 1457 1471 1484 1484 0 0 0 0 0 0 0 0 0 0 0 0 0 0 0 0 0 0 0 0 0 0 890 888 882 876 874 874 874 875 875 875 873 873 873 873 871 870 870 871 871 873 876 878 879 881 881 881 881 883 884 885 886 886 887 888 888 889 890 891 892 892 894 895 895 896 896 898 899 900 901 902 903 904 905 906 907 908 909 911 911 913 913 914 915 916 918 919 919 921 921 922 924 925 926 927 928 929 931 932 933 934 935 936 937 938 939 940 941 941 943 944 945 945 946 948 948 949 949 949 949 948 944 942 940 939 923 906 891 883 872 871 870 851 840 835 835 834 831 830 830 830 837 840 843 844 847 853 856 858 861 863 869 877 887 897 907 908 913 947 966 983 993 998 1003 1005 1009 1010 1013 1015 1015 1017 1018 1019 1021 1022 1023 1024 1025 1026 1027 1028 1030 1030 1030 1030 1030 1029 1029 1029 1030 1030 1030 1026 1025 1019 1015 1010 995 995 995 1000 1028 1043 1046 1047 1054 1058 1060 1064 1066 1068 1071 1074 1077 1079 1079 1082 1084 1085 1087 1089 1090 1092 1095 1096 1099 1101 1102 1104 1106 1108 1109 1110 1111 1112 1114 1115 1116 1117 1118 1118 1119 1120 1120 1121 1121 1122 1122 1123 1123 1123 1124 1124 1124 1124 1123 1123 1123 1125 1126 0 0 0 0 0 1476 1496 1509 1531 1549 1555 1555 1555 1558 1558 1559 1563 1566 1568 1570 1571 1575 1577 1579 1582 1583 1585 1588 1588 1588 1583 1583 1583 1584 1585 1591 1602 1608 1608 1608 1602 1601 1600 1599 1599 1598 1598 1597 1596 1596 1596 1596 1597 1605 1607 1610 1613 1616 1620 1625 1629 1629 1629 1629 1631 1632 1633 1636 1637 1637 1641 1643 1645 1646 1647 1648 1650 1650 1650 1650 1650 1649 1649 1649 1649 1649 1652 1654 1657 1657 1658 1659 1659 1660 1662 1663 1664 1667 1667 1670 1670 1670 1669 1668 1668 1666 1666 1665 1665 1665 1668 1669 1670 1671 1674 1678 1678 1678 1678 1678 1678 1677 1677 1677 1677 1677 1676 1673 1670 1666 1664 1662 1660 1660 1660 1659 1657 1653 1649 1649 1649 1655 1658 1658 1658 1657 1657 1657 1667 1673 1673 1675 1677 1678 1681 1685 1687 1692 1695 1695 1695 1695 1696 1698 1698 1699 1700 1703 1721 1723 1723 1723 1721 1721 1721 1724 1727 1728 1728 1728 1726 1723 1723 1719 1716 1715 1714 1711 1707 1707 1707 1710 1710 1710 1705 0 0 0 0 0 0 0 0 0 0 1573 1573 1573 1570 1558 1556 1555 1555 1556 1556 1571 1612 1612 1612 1604 1559 1524 0 1512 1506 1489 1489 1489 1509 1514 1523 1536 1536 1545 1545 1545 1561 1561 1561 0 0 1401 1401 1408 1408 1408 1402 1402 1402 0 0 0 1440 1417 1397 1390 1383 1375 1305 1261 1260 1252 1252 1251 1244 1243 1243 1242 1240 1238 1223 1223 1223 1231 1231 1231 0 0 0 0 0 0 0 0 0 0 0 0 0 0 0 0 0 0 0 0 0 0 0 0 0 0 0 0 0 0 0 0 0 0 0 0 0 0 0 0 0 0 0 0 0 0 0
827 827 836 851 867 881 890 907 923 941 964 992 997 1022 1041 1058 1076 1093 1109 1122 1136 1151 1162 1169 1174 1181 1186 1197 1211 1225 1236 1246 1256 1271 1288 1307 1322 1335 1349 1351 1353 1357 1361 1371 1386 1399 1411 1412 1424 1430 1432 1432 0 0 0 0 0 0 0 0 0 0 0 0 0 0 0 0 0 0 0 0 0 0 0 887 887 886 884 880 874 870 870 870 868 868 867 867 867 868 869 869 869 869 870 870 871 873 875 876 877 878 879 880 881 882 883 884 884 884 886 886 887 888 888 889 890 891 893 893 895 895 895 897 897 898 900 901 902 903 904 904 906 907 907 909 910 911 912 913 913 914 916 917 918 919 920 921 923 924 925 926 928 929 929 931 932 932 934 935 936 937 938 939 939 940 941 943 944 944 946 946 947 947 947 947 946 943 940 940 938 930 909 893 869 860 857 856 854 845 830 830 830 830 830 830 830 830 830 831 834 837 840 845 848 849 856 859 866 873 883 894 894 898 899 913 945 973 981 987 996 1001 1005 1007 1010 1012 1013 1015 1017 1018 1020 1020 1022 1022 1023 1024 1025 1026 1029 1029 1029 1028 1028 1028 1028 1028 1029 1029 1029 1026 1025 1019 1017 1010 1003 1003 1003 1020 1031 1043 1046 1049 1054 1058 1061 1064 1066 1068 1070 1072 1075 1078 1079 1081 1082 1084 1085 1087 1089 1091 1093 1094 1096 1098 1099 1102 1104 1105 1107 1108 1109 1110 1111 1112 1115 1115 1116 1117 1118 1119 1120 1120 1120 1121 1121 1122 1122 1122 1124 1124 1124 1124 1123 1123 1123 1123 1125 1130 1143 1188 0 0 0 1472 1489 1515 1538 1550 1555 1555 1558 1558 1559 1563 1566 1568 1570 1571 1572 1575 1576 1579 1583 1585 1587 1588 1588 1588 1586 1585 1585 1586 1591 1596 1601 1601 1601 1600 1600 1600 1599 1599 1598 1597 1594 1591 1588 1588 1588 1595 1599 1604 1608 1610 1614 1620 1625 1628 1628 1628 1629 1630 1631 1632 1633 1634 1637 1641 1643 1644 1644 1645 1645 1650 1650 1650 1649 1648 1646 1646 1644 1644 1644 1649 1654 1654 1655 1656 1656 1658 1659 1662 1663 1664 1666 1668 1670 1670 1670 1669 1668 1668 1666 1666 1666 1666 1666 1669 1670 1670 1671 1674 1678 1678 1678 1678 1678 1678 1679 1679 1679 1679 1677 1676 1673 1669 1664 1661 1659 1659 1659 1658 1658 1657 1653 1650 1650 1650 1656 1658 1659 1659 1659 1660 1665 1672 1674 1677 1677 1680 1683 1685 1687 1688 1692 1695 1695 1695 1696 1696 1698 1698 1700 1704 1712 1721 1725 1725 1725 1723 1723 1723 1727 1730 1730 1730 1730 1728 1726 1726 1725 1723 1719 1716 1712 1711 1711 1711 1716 1716 1716 1705 0 0 0 0 0 0 0 0 0 0 1555 1555 1555 1555 1555 1555 1555 1555 1556 1556 1571 1573 1573 1573 1564 1564 1555 1555 1524 1512 1489 1489 1489 1500 1509 1523 1536 1536 1545 1545 1545 1557 1557 0 0 0 1401 1393 1380 1380 1335 1335 1335 1347 1374 1417 1417 1417 1417 1398 1383 1347 1330 1305 1282 1274 1266 1259 1244 1237 1236 1236 1236 1234 1220 1193 0 1193 1231 1231 1231 0 0 0 0 0 0 0 0 0 0 0 0 0 0 0 0 0 0 0 0 0 0 0 0 0 0 0 0 0 0 0 0 0 0 0 0 0 0 0 0 0 0 0 0 0 0 0
829 829 836 851 868 881 893 908 923 943 966 984 989 1015 1037 1058 1076 1093 1106 1117 1131 1149 1162 1169 1176 1182 1188 1198 1211 1225 1236 1248 1259 1274 1288 1307 1322 1335 1345 1350 1352 1358 1365 1376 1386 1399 1408 1409 1409 1409 0 0 0 0 0 0 0 0 0 0 0 0 0 0 0 0 0 0 884 876 868 864 861 861 861 863 864 866 866 866 865 864 864 864 864 864 864 864 864 865 868 868 869 869 869 870 871 872 874 875 876 877 879 880 881 881 881 881 883 883 884 885 886 887 887 888 889 890 891 893 893 894 894 896 897 897 898 900 901 902 903 903 904 905 906 908 909 910 911 911 912 913 914 916 917 918 919 920 921 922 923 925 926 927 928 929 931 932 932 933 934 935 936 937 938 939 940 941 942 943 944 944 945 946 946 946 944 943 939 934 926 915 899 877 855 853 847 841 838 833 829 829 829 830 830 830 830 829 829 829 830 832 839 845 847 849 851 855 863 871 878 890 894 897 898 903 926 957 972 981 989 998 1002 1004 1007 1010 1011 1014 1015 1016 1018 1019 1020 1020 1020 1021 1023 1024 1026 1027 1027 1027 1027 1027 1027 1027 1027 1025 1022 1021 1020 1019 1017 1010 1006 1006 1006 1020 1031 1043 1046 1049 1054 1058 1061 1064 1066 1068 1070 1072 1075 1077 1079 1080 1081 1082 1084 1086 1088 1088 1091 1093 1094 1096 1098 1099 1102 1103 1104 1107 1108 1108 1110 1111 1113 1113 1114 1116 1117 1117 1118 1119 1119 1120 1120 1120 1121 1121 1123 1123 1123 1123 1122 1122 1123 1123 1125 1129 1130 1150 0 0 0 0 1476 1492 1506 1527 1543 1544 1547 1552 1557 1560 1565 1568 1570 1571 1571 1573 1574 1575 1577 1579 1584 1588 1589 1589 1590 1590 1591 1591 1591 1596 1596 1597 1598 1598 1598 1599 1599 1599 1597 1594 1589 1587 1587 1587 1587 1595 1599 1602 1605 1607 1611 1618 1624 1628 1628 1628 1628 1629 1629 1631 1632 1634 1636 1640 1643 1644 1644 1645 1645 1648 1648 1648 1647 1647 1644 1643 1643 1643 1644 1647 1651 1654 1655 1656 1656 1658 1659 1662 1663 1664 1666 1669 1670 1670 1670 1666 1666 1666 1666 1666 1666 1666 1666 1669 1670 1671 1672 1674 1678 1678 1678 1678 1678 1678 1679 1679 1679 1679 1676 1674 1672 1668 1662 1659 1657 1657 1657 1657 1657 1657 1653 1653 1653 1657 1658 1659 1660 1660 1660 1664 1668 1672 1674 1678 1681 1684 1686 1688 1688 1688 1692 1695 1695 1696 1696 1696 1698 1698 1702 1706 1715 1722 1726 1726 1726 1727 1727 1729 1732 1732 1732 1732 1731 1729 1728 1727 1726 1726 1725 1724 1719 1712 1712 1712 1717 1717 1717 1711 0 0 0 0 0 0 0 0 0 0 1541 1541 1541 1537 1530 1530 1530 1530 1532 1533 1557 1567 1567 1567 1562 1562 1560 1560 1546 1530 1489 1489 1489 1500 1514 1523 1536 1536 1536 1530 1518 1517 1517 0 0 0 1401 1393 1380 1380 1335 1335 1333 1333 1337 1358 1400 1400 1400 1398 1366 1347 1330 1308 1294 1285 1266 1246 1222 1218 1218 1215 1211 1207 1199 1176 0 1176 1207 1207 1207 0 0 0 0 0 0 0 0 0 0 0 0 0 0 0 0 0 0 0 0 0 0 0 0 0 0 0 0 0 0 0 0 0 0 0 0 0 0 0 0 0 0 0 0 0 0 0
828 828 836 851 868 881 895 908 925 946 966 980 989 1004 1026 1049 1071 1088 1100 1111 1126 1145 1160 1169 1174 1181 1186 1197 1213 1227 1243 1251 1265 1279 1295 1309 1322 1335 1343 1346 1352 1357 1365 1376 1386 1386 1386 1381 0 0 0 0 0 0 0 0 0 0 0 0 0 0 0 0 868 864 863 863 862 859 858 858 859 859 859 859 860 860 860 861 862 862 862 862 862 862 862 862 862 863 867 868 868 869 869 870 871 871 872 874 874 876 876 878 878 879 879 880 881 882 883 884 885 886 886 887 887 888 890 891 892 893 894 894 895 896 898 899 899 900 901 902 903 903 905 906 906 907 909 910 911 912 913 914 915 917 917 919 920 921 922 924 925 926 927 928 929 930 931 932 933 934 934 935 936 937 938 939 940 940 942 943 943 944 944 944 943 941 938 931 926 915 899 877 855 853 847 841 838 833 829 829 829 832 833 833 832 832 830 830 830 832 838 840 844 844 850 855 861 867 874 885 891 891 895 897 909 934 958 971 983 993 999 1003 1006 1008 1009 1011 1012 1014 1016 1017 1017 1018 1018 1018 1020 1021 1023 1025 1025 1025 1026 1026 1026 1026 1026 1024 1020 1020 1019 1017 1017 1010 1006 1006 1006 1020 1031 1040 1046 1049 1052 1057 1060 1063 1066 1068 1069 1072 1074 1076 1078 1078 1080 1081 1083 1085 1086 1088 1089 1092 1093 1094 1096 1098 1099 1101 1103 1104 1106 1107 1108 1109 1111 1112 1112 1114 1115 1116 1117 1117 1118 1118 1119 1120 1120 1120 1121 1121 1121 1121 1121 1121 1122 1123 1124 1126 1128 1134 0 0 0 0 0 1474 1491 1509 1521 1527 1533 1542 1551 1557 1564 1568 1570 1570 1571 1571 1572 1572 1574 1575 1579 1584 1588 1589 1591 1592 1593 1594 1594 1596 1596 1596 1596 1595 1594 1594 1594 1594 1594 1589 1588 1585 1585 1585 1589 1594 1598 1599 1601 1602 1606 1611 1624 1627 1627 1627 1627 1627 1627 1628 1629 1631 1636 1640 1642 1644 1644 1644 1644 1644 1645 1645 1645 1645 1644 1643 1643 1643 1644 1647 1651 1654 1655 1656 1656 1658 1660 1662 1663 1664 1666 1666 1666 1666 1663 1663 1663 1665 1665 1666 1666 1666 1667 1669 1671 1671 1672 1674 1675 1676 1677 1677 1677 1678 1679 1679 1679 1679 1676 1674 1672 1668 1662 1659 1656 1656 1656 1658 1658 1658 1658 1658 1658 1660 1661 1662 1662 1663 1663 1667 1670 1672 1674 1678 1682 1686 1689 1689 1691 1691 1692 1695 1697 1698 1699 1699 1700 1701 1704 1708 1717 1724 1727 1727 1728 1729 1730 1731 1732 1733 1733 1733 1732 1729 1729 1729 1728 1728 1727 1726 1722 1714 1714 1714 1718 1721 1721 1721 0 0 0 0 0 0 0 0 0 0 1529 1529 1529 1523 1523 1523 1528 1530 1531 1533 1553 1567 1567 1567 1546 1546 1546 1550 1550 1550 1519 1500 1500 1500 1517 1519 1519 1519 1518 1509 1492 1478 1467 1446 1422 1421 1401 1393 1380 1380 1335 1335 1333 1332 1332 1337 1381 1398 1398 1398 1366 1347 1330 1319 1301 1296 1266 1218 1194 1189 1188 1187 1187 1186 1182 1173 1173 1173 1171 1171 0 0 0 0 0 0 0 0 0 0 0 0 0 0 0 0 0 0 0 0 0 0 0 0 0 0 0 0 0 0 0 0 0 0 0 0 0 0 0 0 0 0 0 0 0 0 0 0
827 827 831 855 868 881 896 912 926 946 966 978 989 1000 1015 1037 1062 1081 1094 1107 1122 1141 1158 1169 1174 1176 1186 1197 1213 1227 1243 1254 1265 1279 1295 1309 1322 1335 1342 1346 1350 1357 1365 1368 1368 1368 0 0 0 0 0 0 0 0 0 0 0 0 0 0 0 875 872 862 859 858 856 853 853 853 853 855 855 855 855 854 854 854 856 860 860 861 861 861 861 861 861 861 861 863 864 865 866 866 867 867 868 869 871 871 873 873 874 875 876 877 878 879 880 881 882 883 883 884 885 886 887 888 889 890 890 891 892 893 893 894 895 896 898 899 900 901 901 902 903 905 905 907 907 908 910 911 912 912 914 915 917 918 918 920 921 922 923 924 925 926 928 928 929 930 931 932 933 934 935 935 936 937 937 940 941 941 941 941 941 941 941 939 936 931 926 915 899 877 855 853 847 841 838 833 829 829 829 833 834 835 835 834 833 829 829 829 833 834 838 844 850 855 861 867 870 877 886 891 891 891 898 913 934 959 979 992 998 1002 1005 1006 1006 1007 1009 1011 1014 1015 1016 1016 1016 1016 1018 1018 1020 1021 1021 1022 1023 1025 1025 1025 1025 1022 1016 1016 1012 1007 998 991 991 991 1006 1011 1022 1033 1039 1046 1052 1057 1060 1063 1066 1068 1069 1071 1072 1075 1076 1078 1078 1080 1081 1083 1084 1085 1088 1090 1091 1092 1095 1096 1097 1099 1101 1102 1104 1105 1107 1107 1109 1110 1111 1112 1113 1115 1115 1116 1116 1117 1118 1119 1119 1119 1120 1120 1120 1120 1120 1120 1121 1122 1124 1126 1126 1127 1135 0 0 0 0 0 0 1490 1503 1512 1523 1531 1540 1551 1561 1568 1570 1570 1570 1571 1572 1572 1573 1573 1576 1579 1583 1587 1591 1592 1593 1594 1596 1597 1597 1597 1596 1595 1593 1592 1589 1588 1586 1585 1584 1584 1584 1584 1589 1594 1596 1596 1597 1598 1599 1602 1611 1623 1624 1624 1625 1625 1626 1627 1629 1631 1634 1639 1642 1643 1643 1643 1643 1643 1643 1643 1644 1644 1643 1643 1643 1643 1644 1647 1651 1654 1658 1658 1658 1659 1661 1662 1663 1664 1667 1667 1667 1663 1663 1663 1663 1665 1665 1666 1666 1667 1669 1670 1671 1671 1673 1674 1675 1676 1677 1677 1677 1679 1680 1680 1680 1678 1676 1673 1671 1667 1662 1658 1656 1656 1656 1658 1662 1662 1662 1662 1662 1662 1664 1667 1667 1669 1669 1670 1670 1672 1674 1680 1685 1688 1691 1692 1692 1692 1694 1696 1699 1702 1704 1706 1709 1714 1720 1721 1721 1724 1728 1730 1730 1731 1731 1732 1732 1733 1734 1734 1734 1732 1731 1729 1729 1728 1727 1726 1723 1719 1719 1719 1721 1729 1729 1729 0 0 0 0 0 0 0 0 0 0 1508 1508 1508 1508 1508 1516 1528 1528 1530 1533 1551 1567 1567 1567 1546 1546 1546 1560 1560 1560 1553 1545 1529 1524 1524 1519 1495 1493 1493 1487 1474 1444 1430 1419 1414 1414 1419 1412 0 1412 1357 1355 1337 1332 1332 1337 1381 1396 1396 1396 1375 1366 1361 1349 1340 1304 1266 1218 1194 1189 1188 1180 1179 1179 1178 1177 1176 1168 1161 0 0 0 0 0 0 0 0 0 0 0 0 0 0 0 0 0 0 0 0 0 0 0 0 0 0 0 0 0 0 0 0 0 0 0 0 0 0 0 0 0 0 0 0 0 0 0 0 0
826 826 831 855 868 882 896 912 932 951 971 975 986 999 1007 1022 1044 1068 1093 1107 1121 1134 1148 1160 1164 1173 1183 1197 1213 1227 1243 1254 1265 1279 1295 1309 1322 1331 1334 1337 1342 1348 1348 1348 0 0 0 0 0 0 0 0 0 0 0 0 0 0 872 872 861 853 853 852 850 850 849 848 848 847 847 847 847 848 848 849 849 849 853 856 856 856 856 856 856 858 860 860 861 861 862 863 864 864 865 865 866 867 868 869 870 871 872 873 874 875 876 877 878 879 880 881 882 883 884 885 886 886 887 888 889 889 890 891 892 894 895 895 896 898 898 899 900 900 902 903 904 904 905 906 908 909 910 911 912 914 915 916 917 919 920 921 921 922 923 925 925 927 928 928 929 930 931 932 932 934 935 935 936 937 938 938 939 939 939 939 939 938 936 931 927 923 916 901 879 865 856 846 839 833 830 830 830 833 835 835 837 837 837 831 827 827 827 834 838 844 850 856 861 867 870 874 879 884 888 890 892 903 920 953 965 974 990 1001 1001 1002 1003 1003 1005 1007 1011 1012 1013 1014 1014 1014 1015 1016 1016 1019 1019 1019 1019 1019 1019 1019 1019 1014 1003 1002 993 972 960 960 960 971 988 999 1011 1026 1036 1044 1049 1054 1060 1063 1065 1067 1068 1069 1070 1072 1074 1075 1078 1078 1079 1081 1082 1083 1085 1087 1089 1091 1092 1094 1095 1097 1099 1101 1102 1103 1105 1106 1107 1109 1109 1110 1111 1112 1114 1114 1115 1115 1116 1116 1117 1118 1118 1118 1118 1119 1119 1120 1120 1121 1124 1126 1126 1126 1127 1129 0 0 0 0 0 0 1484 1497 1513 1524 1528 1531 1544 1564 1567 1570 1570 1570 1571 1572 1572 1572 1573 1573 1577 1582 1586 1590 1593 1594 1596 1597 1598 1598 1598 1595 1593 1592 1589 1585 1583 1583 1582 1582 1582 1584 1589 1594 1594 1594 1596 1596 1596 1602 1606 1611 1616 1619 1621 1624 1625 1625 1627 1630 1631 1636 1639 1642 1642 1642 1642 1642 1642 1642 1642 1643 1644 1645 1645 1645 1646 1647 1652 1658 1659 1660 1660 1661 1662 1662 1663 1665 1667 1667 1667 1663 1663 1663 1663 1665 1666 1666 1667 1668 1669 1670 1672 1672 1673 1674 1675 1676 1677 1677 1680 1681 1681 1681 1677 1674 1671 1670 1669 1666 1662 1657 1656 1656 1656 1658 1662 1664 1664 1664 1664 1664 1666 1670 1675 1675 1675 1675 1675 1675 1676 1682 1687 1692 1696 1697 1698 1698 1698 1699 1700 1705 1708 1712 1718 1720 1721 1722 1722 1725 1731 1734 1734 1734 1732 1732 1732 1733 1734 1734 1734 1734 1732 1729 1729 1728 1727 1726 1725 1725 1725 1726 1729 1729 1729 1729 0 0 0 0 0 0 0 0 0 0 1489 1489 1494 1497 1505 1516 1528 1528 1534 1537 1549 1567 1567 1567 1532 1532 1532 1546 1552 1586 1586 1586 1571 1549 1530 1519 1495 1493 1492 1463 1441 1427 1417 1417 1417 1429 1472 1472 0 0 1379 1378 1375 1375 1375 1375 1381 1395 1395 1395 1394 1394 1385 1376 1375 1330 0 0 1194 1189 1188 1176 1175 1175 1176 1180 1180 1180 1161 0 0 0 0 0 0 0 0 0 0 0 0 0 0 0 0 0 0 0 0 0 0 0 0 0 0 0 0 0 0 0 0 0 0 0 0 0 0 0 0 0 0 0 0 0 0 0 0 0
814 814 831 855 868 882 894 917 939 957 971 975 986 998 1004 1011 1036 1063 1092 1106 1120 1132 1143 1155 1159 1168 1177 1188 1202 1216 1235 1254 1264 1274 1288 1297 1305 1310 1312 1317 1324 1324 1324 0 0 0 0 0 0 0 0 0 0 0 872 872 865 859 856 852 848 847 845 843 842 842 842 841 841 842 842 842 843 843 844 846 848 849 851 852 853 853 854 854 856 857 859 859 859 859 860 861 862 862 863 864 865 865 866 867 868 869 870 871 872 874 874 875 877 877 878 880 881 881 883 883 884 885 885 887 887 888 889 890 891 892 893 894 895 896 897 897 899 899 900 901 902 903 904 905 906 907 908 909 911 912 913 914 915 917 918 919 920 920 922 923 924 925 926 927 928 929 929 930 931 932 933 933 934 935 936 936 937 937 937 938 938 938 936 932 929 927 926 913 900 885 867 856 847 839 836 833 833 833 835 841 847 847 847 834 827 827 827 834 838 844 851 858 865 868 870 872 878 883 885 889 889 892 908 923 929 943 971 988 991 995 996 1000 1003 1004 1007 1010 1011 1011 1011 1012 1015 1015 1015 1018 1018 1018 1017 1011 1011 1011 999 988 982 979 953 948 948 948 949 953 965 981 1005 1022 1032 1041 1047 1051 1057 1062 1065 1066 1066 1066 1067 1070 1072 1074 1075 1077 1078 1079 1080 1082 1084 1086 1087 1089 1090 1092 1094 1095 1097 1099 1100 1102 1103 1105 1106 1107 1108 1109 1109 1110 1111 1113 1113 1113 1114 1115 1115 1116 1117 1117 1117 1118 1118 1118 1118 1121 1124 1125 1125 1125 1125 1126 1138 0 0 0 0 0 0 1468 1490 1512 1514 1522 1529 1548 1561 1564 1568 1569 1569 1571 1571 1571 1572 1572 1572 1576 1579 1584 1588 1593 1596 1597 1598 1598 1598 1595 1593 1592 1589 1585 1583 1581 1580 1580 1580 1582 1587 1591 1591 1591 1593 1593 1596 1602 1606 1608 1610 1613 1617 1621 1622 1623 1624 1627 1630 1632 1634 1634 1639 1640 1640 1640 1640 1640 1640 1642 1644 1644 1646 1647 1648 1652 1655 1658 1659 1660 1661 1662 1662 1663 1664 1665 1667 1667 1667 1664 1664 1664 1665 1665 1666 1666 1667 1668 1670 1671 1672 1672 1673 1675 1675 1677 1679 1681 1683 1683 1683 1681 1676 1671 1669 1668 1666 1666 1661 1657 1653 1653 1653 1656 1660 1664 1664 1664 1665 1665 1669 1674 1677 1679 1681 1681 1681 1682 1682 1686 1691 1695 1700 1705 1705 1705 1704 1704 1704 1708 1711 1717 1720 1723 1723 1723 1724 1726 1731 1734 1734 1734 1731 1731 1731 1732 1734 1734 1734 1734 1732 1730 1729 1729 1728 1728 1728 1728 1732 1734 1734 1734 1733 1732 0 0 0 0 0 0 0 0 0 0 1471 1473 1486 1493 1493 1516 1529 1529 1534 1539 1545 1570 1570 1570 1515 1515 1515 1541 1544 1586 1586 1586 1571 1565 1533 1519 1495 1493 1492 1457 1434 1417 1417 1417 1419 1452 1479 0 0 0 1379 1379 1379 1406 1406 1406 1406 1398 1394 1394 1394 1394 1385 1378 1376 1359 0 0 0 0 1209 1175 1173 1173 1173 1187 1187 1187 0 0 0 0 0 0 0 0 0 0 0 0 0 0 0 0 0 0 0 0 0 0 0 0 0 0 0 0 0 0 0 0 0 0 0 0 0 0 0 0 0 0 0 0 0 0 0 0 0 0
0 0 0 848 868 882 894 917 939 957 971 973 986 995 999 1011 1036 1062 1090 1106 1119 1128 1142 1154 1158 1167 1172 1179 1191 1206 1234 1248 1254 1262 1275 1286 1288 1288 1288 0 0 0 0 0 0 0 0 0 0 0 0 0 863 863 862 855 848 847 846 845 842 841 841 839 838 838 838 839 840 840 840 841 842 842 843 844 847 849 849 851 851 852 852 853 854 854 855 857 857 857 858 859 860 861 861 862 863 863 865 865 866 867 868 870 870 872 873 874 875 876 877 878 879 881 881 882 883 883 885 885 886 887 888 888 890 891 892 892 893 895 896 896 897 898 898 900 901 901 903 903 904 905 906 907 909 911 911 912 913 915 916 917 918 919 920 921 922 923 925 925 926 926 927 928 929 930 931 932 932 933 934 935 935 935 936 936 936 936 936 934 932 932 929 925 912 895 881 869 863 856 849 841 837 837 837 841 848 848 848 844 827 827 827 836 842 847 851 858 865 869 870 871 874 877 880 883 883 883 886 891 904 934 949 968 978 986 990 996 1003 1004 1007 1007 1007 1008 1009 1006 1007 1010 1012 1013 1014 1014 1013 1008 997 983 970 966 942 937 937 937 939 940 941 943 944 960 978 1009 1022 1035 1044 1049 1055 1060 1062 1062 1063 1063 1064 1067 1070 1071 1073 1074 1076 1077 1078 1080 1082 1084 1086 1087 1090 1090 1092 1093 1095 1097 1098 1100 1101 1103 1105 1105 1106 1107 1108 1108 1110 1111 1111 1112 1112 1113 1114 1114 1116 1116 1116 1116 1116 1117 1118 1120 1123 1123 1123 1124 1124 1124 1132 1134 1137 0 0 0 0 0 1478 1501 1508 1512 1523 1533 1544 1554 1560 1564 1569 1570 1570 1570 1570 1570 1572 1576 1579 1584 1585 1590 1593 1596 1597 1597 1597 1595 1593 1593 1591 1585 1583 1581 1579 1579 1579 1581 1585 1589 1591 1591 1591 1592 1596 1603 1606 1608 1610 1612 1614 1617 1617 1618 1621 1623 1626 1626 1627 1630 1634 1638 1638 1638 1638 1638 1638 1639 1641 1645 1646 1648 1651 1652 1655 1658 1660 1660 1661 1663 1664 1664 1666 1668 1669 1669 1669 1666 1666 1666 1666 1666 1666 1666 1667 1668 1670 1671 1674 1676 1676 1677 1677 1679 1680 1682 1685 1685 1685 1680 1673 1669 1667 1665 1665 1665 1661 1656 1653 1653 1653 1654 1658 1664 1664 1664 1665 1667 1671 1675 1678 1679 1681 1685 1687 1688 1689 1692 1696 1701 1705 1710 1710 1710 1711 1711 1711 1712 1715 1717 1721 1724 1724 1727 1727 1728 1731 1734 1734 1734 1730 1730 1730 1732 1733 1734 1734 1734 1733 1730 1729 1729 1728 1728 1728 1728 1732 1734 1734 1734 1734 1723 0 0 0 0 0 0 0 0 0 0 1446 1472 1472 1484 1484 1485 1529 1529 1533 1533 1533 1570 1570 1570 1482 1482 1482 1529 1541 1586 1586 1586 1571 1565 1534 1519 1513 1508 1492 1457 1433 1417 1417 1417 1422 1454 1481 0 0 0 1395 1395 1413 1413 1413 1406 1385 1385 1385 1385 1385 1394 1385 1378 1375 1362 0 0 0 0 1214 1177 1144 1144 1144 1187 1213 0 0 0 0 0 0 0 0 0 0 0 0 0 0 0 0 0 0 0 0 0 0 0 0 0 0 0 0 0 0 0 0 0 0 0 0 0 0 0 0 0 0 0 0 0 0 0 0 0 0 0
0 0 0 0 0 0 887 917 939 957 964 972 980 989 994 1011 1034 1062 1087 1105 1116 1125 1139 1153 1156 1165 1170 1177 1190 1205 1224 1236 1246 1253 1260 1260 1260 1255 0 0 0 0 0 0 0 0 0 0 0 0 855 846 842 842 841 841 837 837 837 835 834 833 833 833 833 834 835 837 838 839 840 841 841 841 842 842 843 845 848 848 848 849 850 850 852 853 854 855 855 856 857 857 858 859 860 860 861 863 863 863 864 866 867 868 869 870 871 872 873 875 875 877 878 879 880 881 882 883 883 884 885 886 887 887 888 889 890 891 892 894 894 895 896 896 897 898 899 900 900 901 902 903 904 905 907 908 908 909 910 912 914 915 916 917 919 919 921 922 923 924 924 925 925 927 927 929 929 930 931 932 933 933 933 934 935 935 935 936 936 936 934 934 934 933 927 911 896 885 879 873 862 857 851 842 842 842 848 848 848 848 840 840 840 844 844 847 851 858 865 869 869 869 869 869 873 879 881 881 883 885 889 904 939 956 968 980 987 991 996 1004 1004 1004 1005 1005 1004 1005 1005 1006 1005 1005 1003 1000 991 980 969 958 956 929 923 923 923 924 925 926 928 928 931 935 935 978 1018 1022 1032 1040 1048 1056 1057 1058 1059 1059 1061 1065 1067 1069 1072 1073 1074 1075 1077 1077 1080 1082 1084 1086 1087 1089 1090 1091 1093 1094 1096 1097 1099 1100 1103 1104 1104 1105 1105 1106 1107 1109 1109 1109 1110 1111 1113 1114 1114 1115 1115 1115 1116 1117 1117 1119 1122 1122 1122 1121 1121 1121 1124 1129 1130 1143 0 0 0 0 0 1492 1496 1501 1514 1525 1539 1546 1551 1557 1564 1569 1569 1569 1569 1569 1572 1576 1579 1584 1584 1587 1590 1591 1593 1595 1595 1595 1593 1593 1592 1590 1585 1581 1579 1578 1578 1578 1581 1586 1589 1589 1590 1591 1597 1604 1607 1608 1610 1612 1613 1613 1614 1614 1618 1620 1621 1623 1625 1627 1631 1633 1634 1634 1635 1635 1637 1638 1641 1645 1648 1650 1651 1652 1656 1659 1661 1662 1663 1665 1666 1667 1668 1669 1669 1669 1669 1667 1666 1666 1666 1666 1666 1666 1666 1668 1670 1672 1675 1677 1679 1680 1680 1680 1680 1682 1685 1685 1685 1680 1672 1667 1665 1665 1665 1663 1660 1656 1653 1653 1653 1654 1658 1664 1664 1665 1665 1667 1672 1676 1678 1680 1682 1686 1690 1694 1695 1698 1703 1704 1707 1712 1713 1713 1715 1715 1716 1716 1717 1717 1723 1726 1728 1728 1729 1729 1731 1733 1733 1733 1729 1729 1729 1731 1732 1733 1733 1733 1733 1730 1729 1729 1728 1728 1728 1728 1732 1734 1734 1734 1729 1721 0 0 0 0 0 0 0 0 0 0 1404 1453 1453 1453 1469 1469 1473 1487 1529 1530 1530 1568 1568 0 0 0 1471 1497 1539 1564 1565 1565 1565 1565 1534 1519 1513 1510 1492 1463 1433 1426 1426 1426 1436 1458 1458 0 0 0 1353 1379 1413 1413 1413 1406 1369 1369 1369 1369 1369 1369 1369 1378 1378 1378 0 0 0 0 1214 1177 1136 1136 1136 0 0 0 0 0 0 0 0 0 0 0 0 0 0 0 0 0 0 0 0 0 0 0 0 0 0 0 0 0 0 0 0 0 0 0 0 0 0 0 0 0 0 0 0 0 0 0 0 0 0 0 0 0
0 0 0 0 0 0 0 0 938 956 958 967 975 982 992 1008 1034 1061 1082 1097 1109 1119 1133 1137 1150 1162 1169 1176 1184 1200 1212 1224 1233 1233 0 0 0 0 0 0 0 0 0 0 0 0 0 0 852 840 836 832 831 831 830 828 828 828 829 829 829 829 829 829 832 833 833 834 835 837 838 839 839 840 840 841 841 843 845 846 847 847 848 850 850 851 852 853 854 855 856 856 857 858 859 859 860 861 862 863 864 865 866 866 868 868 870 871 872 873 874 875 876 877 879 879 880 881 882 883 883 885 885 887 888 888 889 890 892 893 893 893 894 895 896 896 897 898 898 898 899 901 902 903 903 905 906 906 908 909 911 913 914 915 917 918 919 920 921 922 923 923 924 925 926 927 928 929 929 930 931 931 933 933 933 934 934 935 935 935 935 934 934 933 931 923 910 895 890 884 874 866 862 858 854 854 853 852 852 848 844 844 844 844 847 847 850 857 865 869 869 869 868 868 868 877 881 881 881 881 883 894 915 949 955 965 979 985 990 998 1002 1002 1002 1002 1002 1002 1002 1002 999 998 985 976 962 953 930 920 915 914 913 913 913 913 913 914 919 922 928 928 929 950 994 1018 1019 1028 1037 1046 1054 1054 1056 1056 1060 1063 1065 1067 1069 1071 1073 1074 1074 1076 1077 1080 1082 1084 1085 1086 1088 1089 1091 1092 1093 1095 1096 1098 1100 1101 1101 1102 1102 1104 1105 1106 1107 1108 1108 1109 1111 1112 1113 1113 1113 1114 1115 1115 1116 1118 1119 1121 1121 1121 1121 1121 1123 1126 1130 1135 1144 0 0 0 0 0 1470 1483 1503 1519 1533 1539 1541 1543 1547 1558 1567 1567 1568 1569 1573 1579 1581 1584 1584 1586 1588 1588 1588 1588 1589 1589 1592 1593 1593 1593 1589 1582 1579 1578 1578 1578 1581 1583 1585 1588 1590 1593 1599 1604 1607 1609 1610 1612 1612 1612 1613 1614 1615 1617 1619 1620 1623 1625 1628 1631 1631 1631 1631 1631 1631 1635 1638 1644 1648 1650 1651 1652 1656 1659 1661 1662 1665 1668 1668 1668 1669 1669 1669 1669 1669 1667 1666 1666 1666 1666 1666 1666 1666 1668 1671 1674 1676 1677 1679 1680 1680 1681 1681 1682 1685 1685 1685 1680 1669 1665 1664 1664 1664 1662 1656 1656 1653 1653 1653 1654 1658 1664 1664 1665 1665 1668 1672 1678 1679 1683 1686 1692 1697 1698 1700 1702 1704 1707 1709 1712 1716 1717 1718 1718 1720 1720 1721 1722 1723 1728 1729 1729 1729 1729 1731 1731 1731 1731 1729 1729 1729 1731 1732 1733 1733 1733 1733 1732 1731 1731 1728 1726 1726 1726 1728 1732 1732 1732 1728 1717 0 0 0 0 0 0 0 0 0 0 0 1433 1433 1433 1413 1413 0 1472 1485 1485 1491 1568 1568 0 0 0 0 0 0 0 0 1500 1524 1524 1524 1519 1513 1510 1504 1469 1434 1427 1427 1427 1445 1454 1454 0 0 1353 1353 1367 1413 1413 1413 1379 1339 1334 1334 1332 1329 1329 1329 1336 1366 1366 0 0 0 0 1214 1174 1136 1132 1132 0 0 0 0 0 0 0 0 0 0 0 0 0 0 0 0 0 0 0 0 0 0 0 0 0 0 0 0 0 0 0 0 0 0 0 0 0 0 0 0 0 0 0 0 0 0 0 0 0 0 0 0 0
0 0 0 0 0 0 0 0 0 945 947 960 968 976 988 1008 1034 1053 1070 1086 1099 1112 1124 1126 1143 1160 1169 1172 1179 1187 1189 1191 0 0 0 0 0 0 0 0 0 0 0 0 0 0 852 842 835 832 825 825 825 824 824 823 823 823 823 826 827 827 827 828 831 831 831 832 833 834 835 836 838 838 839 840 840 842 843 844 844 846 846 847 848 849 850 851 852 853 854 855 856 857 857 858 859 859 861 862 862 863 865 866 866 867 868 869 870 871 872 874 874 876 877 878 879 879 881 881 882 883 884 885 886 887 888 889 890 891 891 893 893 893 895 895 896 896 896 897 897 898 900 900 900 901 903 905 907 909 909 910 911 913 915 917 917 918 919 920 921 921 922 924 925 926 926 927 927 929 929 930 931 932 932 933 934 935 935 935 935 934 934 933 931 929 924 910 899 893 884 875 867 865 864 864 864 861 852 848 846 846 846 846 846 847 850 855 863 867 868 868 868 868 868 873 878 879 880 880 883 894 915 933 943 945 958 972 979 992 993 996 996 996 995 995 994 990 982 978 966 957 949 934 920 912 912 912 912 912 912 912 913 914 918 922 923 923 923 941 970 1007 1012 1026 1037 1041 1047 1052 1054 1055 1059 1062 1064 1066 1067 1069 1071 1072 1073 1074 1075 1078 1079 1081 1083 1084 1086 1087 1088 1090 1090 1092 1093 1095 1097 1098 1099 1099 1099 1100 1100 1102 1105 1107 1107 1109 1109 1110 1111 1112 1112 1112 1113 1114 1115 1117 1117 1119 1119 1120 1120 1120 1122 1125 1126 1128 1132 1132 0 0 0 0 0 1463 1494 1517 1526 1530 1530 1531 1534 1542 1559 1564 1567 1567 1573 1579 1582 1584 1585 1586 1587 1587 1587 1587 1587 1587 1588 1592 1592 1592 1591 1583 1582 1582 1581 1582 1582 1583 1585 1588 1590 1594 1599 1604 1607 1609 1610 1613 1613 1613 1613 1613 1613 1614 1616 1619 1622 1625 1628 1628 1628 1627 1627 1627 1628 1630 1635 1644 1648 1650 1650 1652 1657 1660 1662 1664 1666 1668 1668 1668 1668 1668 1668 1668 1667 1667 1667 1667 1666 1666 1666 1666 1666 1669 1672 1675 1676 1677 1679 1680 1680 1681 1681 1681 1682 1682 1682 1679 1667 1663 1663 1662 1662 1658 1656 1656 1656 1657 1662 1662 1663 1664 1665 1665 1666 1669 1674 1678 1682 1687 1691 1697 1701 1702 1703 1704 1706 1709 1713 1716 1719 1720 1721 1721 1723 1726 1727 1727 1729 1730 1731 1732 1732 1732 1732 1732 1732 1731 1730 1730 1730 1731 1732 1733 1734 1734 1734 1733 1733 1732 1728 1726 1726 1726 1728 1732 1734 1734 1734 1705 0 0 0 0 0 0 0 0 0 0 0 0 1433 1433 1398 0 0 0 1472 1475 1492 1507 1507 0 0 1460 1453 1449 1449 1449 1449 1461 1493 1497 1497 1503 1503 1497 1495 1479 1443 1427 1427 1427 1446 1446 1446 1445 1353 1353 1353 1362 1378 1378 1378 1346 1313 1311 1310 1310 1311 1310 1312 1317 1323 1312 0 0 0 0 1174 1141 1132 1132 1132 0 0 0 0 0 0 0 0 0 0 0 0 0 0 0 0 0 0 0 0 0 0 0 0 0 0 0 0 0 0 0 0 0 0 0 0 0 0 0 0 0 0 0 0 0 0 0 0 0 0 0 0 0
0 0 0 0 0 0 0 0 0 0 0 951 963 975 987 1008 1030 1046 1057 1073 1084 1097 1110 1112 1142 1160 1168 1169 1170 1170 1170 0 0 0 0 0 0 0 0 0 0 0 0 841 835 833 831 829 827 824 824 824 824 824 823 822 822 822 822 824 825 825 826 828 830 831 831 831 832 833 835 835 836 836 837 838 839 840 841 842 843 844 844 845 846 847 849 850 851 852 853 854 855 855 856 857 857 858 859 860 861 862 863 864 865 866 867 868 869 870 871 872 873 875 876 877 877 878 879 880 881 882 882 883 885 885 886 887 889 889 890 891 891 892 892 893 895 895 895 896 896 896 896 896 897 897 897 901 904 906 906 907 909 911 913 915 916 917 917 918 918 920 921 922 923 924 925 926 926 926 928 929 930 930 931 932 933 934 935 935 935 934 933 932 931 929 929 923 915 910 901 884 875 873 872 870 868 861 849 848 848 848 848 848 844 844 844 850 860 865 867 867 867 867 868 869 874 874 875 877 883 894 915 921 930 945 958 966 974 986 987 987 989 989 987 987 983 969 952 952 949 936 927 909 909 909 911 911 912 912 912 912 913 914 914 917 918 918 918 938 956 974 983 1009 1029 1038 1040 1046 1051 1054 1058 1061 1062 1065 1065 1066 1068 1069 1070 1072 1073 1075 1076 1078 1080 1083 1084 1085 1085 1086 1087 1088 1089 1091 1093 1095 1095 1095 1096 1096 1097 1098 1102 1105 1106 1107 1107 1107 1109 1110 1111 1111 1112 1113 1114 1115 1116 1118 1119 1119 1120 1120 1122 1125 1125 1125 1125 1125 1125 0 0 0 0 0 1488 1509 1516 1521 1523 1525 1525 1526 1542 1553 1560 1566 1573 1579 1582 1584 1585 1586 1587 1587 1587 1587 1587 1587 1587 1588 1591 1591 1591 1583 1583 1583 1584 1584 1585 1585 1585 1588 1590 1594 1599 1603 1606 1609 1610 1613 1613 1613 1612 1612 1612 1612 1614 1617 1620 1623 1625 1625 1625 1625 1624 1624 1624 1624 1628 1644 1647 1647 1649 1653 1657 1660 1662 1664 1666 1668 1668 1668 1667 1667 1667 1666 1666 1666 1666 1667 1667 1667 1667 1667 1668 1670 1672 1675 1676 1678 1679 1680 1680 1680 1680 1680 1679 1679 1679 1675 1666 1662 1660 1660 1658 1658 1658 1658 1658 1659 1663 1663 1663 1665 1666 1669 1671 1674 1679 1684 1690 1692 1696 1701 1704 1705 1706 1707 1708 1715 1720 1721 1722 1722 1722 1722 1724 1727 1728 1729 1729 1732 1733 1733 1733 1733 1733 1732 1732 1731 1731 1731 1731 1732 1734 1736 1736 1736 1736 1735 1734 1734 1730 1726 1726 1726 1728 1732 1734 1734 1734 1705 0 0 0 0 0 0 0 0 0 0 0 0 0 0 1382 0 1382 1444 1472 1475 1475 1474 1474 1469 1469 1462 1461 1443 1426 1426 1426 1447 1466 1466 1466 1466 1466 1479 1479 1479 1443 1427 1427 1427 1449 1449 1449 1436 1390 1362 1358 1358 1356 1337 0 1307 1299 1299 1299 1299 1308 1308 1308 1309 1309 1291 0 0 0 0 1159 1140 1140 1140 1140 1140 1140 0 0 0 0 0 0 0 0 0 0 0 0 0 0 0 0 0 0 0 0 0 0 0 0 0 0 0 0 0 0 0 0 0 722 719 693 0 0 0 0 0 0 0 0 0 0 0 0 0 0 412
0 0 0 0 0 0 0 0 0 0 0 931 955 968 980 997 1024 1040 1050 1058 1067 1079 1097 1110 1130 1148 1159 1159 1159 1147 0 0 0 0 0 0 0 0 0 0 833 833 827 826 825 823 822 822 820 820 820 820 820 820 820 819 819 819 821 822 823 824 825 827 829 829 830 830 830 831 833 833 834 834 835 837 837 839 839 839 841 842 843 844 844 846 846 849 850 851 852 853 853 854 855 856 856 857 858 858 860 861 861 862 864 864 865 866 868 868 870 871 872 873 874 875 876 877 877 878 879 880 880 882 883 884 884 885 887 887 889 889 889 889 890 890 892 894 894 894 894 894 893 893 892 892 892 895 899 903 904 906 908 909 910 911 912 914 914 916 917 918 919 921 921 922 923 924 925 926 926 927 928 929 930 931 932 933 933 933 933 933 932 932 931 929 929 927 925 920 911 902 901 889 876 873 868 863 849 849 849 849 849 849 838 838 838 847 855 861 867 867 867 867 868 869 871 873 874 874 883 900 915 921 930 945 958 966 974 982 984 984 984 979 971 966 946 936 933 931 931 921 918 909 909 909 911 911 913 913 913 913 914 915 915 915 916 916 919 934 954 967 973 982 1008 1028 1036 1042 1048 1050 1054 1059 1061 1062 1063 1064 1065 1066 1067 1068 1071 1072 1074 1076 1078 1080 1081 1082 1082 1083 1083 1083 1085 1086 1088 1089 1090 1091 1092 1093 1093 1093 1097 1102 1104 1105 1105 1105 1106 1107 1109 1110 1111 1111 1112 1113 1114 1118 1118 1119 1119 1120 1122 1124 1124 1124 1124 1124 1124 1133 0 0 0 0 1482 1500 1508 1512 1517 1517 1519 1521 1526 1543 1551 1562 1570 1579 1582 1584 1584 1585 1586 1586 1586 1586 1586 1586 1586 1588 1591 1591 1591 1583 1583 1583 1585 1586 1586 1586 1587 1589 1592 1594 1599 1601 1603 1607 1610 1613 1613 1613 1612 1612 1612 1612 1612 1614 1617 1620 1621 1621 1621 1621 1620 1620 1620 1621 1626 1630 1642 1645 1648 1653 1657 1660 1662 1664 1666 1668 1668 1668 1666 1665 1665 1665 1665 1666 1666 1667 1667 1667 1667 1667 1668 1670 1673 1675 1676 1678 1679 1680 1680 1680 1679 1679 1678 1678 1675 1670 1666 1662 1660 1660 1660 1659 1659 1660 1660 1660 1663 1663 1664 1665 1667 1669 1675 1680 1688 1695 1699 1699 1702 1706 1708 1708 1709 1711 1716 1724 1726 1726 1726 1726 1726 1726 1726 1731 1732 1733 1734 1734 1734 1734 1734 1735 1735 1735 1735 1733 1733 1733 1734 1736 1738 1739 1739 1739 1738 1738 1737 1737 1735 1733 1732 1732 1733 1736 1738 1738 1736 1705 0 0 0 0 0 0 0 0 0 0 0 0 0 1456 1371 1371 1371 1444 1464 1486 1486 1486 1473 1469 1463 1458 1449 1436 1417 1417 1417 1428 1438 1443 1443 1449 1459 1459 1449 1449 1443 1438 1438 1438 1453 1453 1453 1436 1390 1372 1356 1350 1330 1291 1268 1268 1268 1283 1298 1298 1305 1305 1305 1307 1307 1279 0 0 0 1161 1161 1159 1159 1159 1140 1140 1140 1162 0 0 0 0 0 0 0 0 0 0 0 0 0 0 0 0 0 0 0 0 0 0 0 0 758 745 744 742 0 0 0 714 714 714 693 693 0 0 0 0 0 0 0 0 0 0 0 0 412 412
0 0 0 0 0 0 0 0 0 0 0 882 930 946 955 973 1003 1030 1043 1052 1056 1077 1079 1093 1116 1137 1137 1137 1115 1082 0 0 0 0 0 0 0 0 0 826 825 822 821 821 819 818 818 817 817 817 817 817 817 817 817 817 817 818 819 821 822 824 825 825 827 828 828 828 829 830 831 832 833 834 834 835 835 836 837 839 839 841 842 843 843 844 845 846 848 849 850 851 852 853 853 854 855 855 856 857 858 859 861 861 862 863 864 864 866 867 868 869 871 872 873 874 874 875 876 876 877 878 879 879 881 881 883 884 884 886 887 887 887 887 887 889 889 889 889 889 888 888 888 888 888 889 889 890 894 896 899 903 906 908 909 910 911 911 912 913 915 916 917 918 920 920 921 923 923 925 925 926 927 927 928 929 931 932 932 933 933 933 932 932 931 931 929 929 927 924 919 915 914 908 888 873 869 863 849 849 849 849 849 849 838 838 838 847 855 861 863 867 867 868 868 869 871 873 874 874 897 920 921 927 930 950 961 966 974 981 981 981 980 974 965 960 946 936 923 923 920 918 918 909 909 909 911 911 912 913 914 916 916 916 916 916 916 916 919 929 941 952 956 964 978 1004 1022 1038 1041 1044 1050 1052 1057 1059 1060 1062 1063 1063 1064 1066 1068 1070 1072 1073 1075 1076 1077 1077 1079 1079 1079 1079 1079 1081 1083 1083 1084 1084 1087 1087 1091 1092 1094 1096 1100 1101 1102 1102 1104 1106 1107 1108 1109 1110 1110 1111 1112 1115 1116 1117 1118 1118 1120 1121 1121 1121 1122 1122 1122 1122 1133 0 0 0 1465 1485 1497 1504 1513 1516 1517 1518 1523 1538 1547 1555 1564 1574 1579 1581 1582 1582 1583 1586 1586 1586 1586 1586 1586 1587 1586 1585 1585 1583 1583 1583 1585 1586 1586 1587 1588 1590 1594 1597 1597 1597 1598 1598 1605 1612 1612 1612 1612 1612 1612 1612 1612 1612 1613 1615 1617 1617 1617 1618 1618 1618 1619 1621 1625 1630 1636 1642 1648 1653 1657 1660 1661 1663 1665 1665 1665 1665 1664 1664 1664 1664 1665 1666 1666 1668 1668 1668 1668 1668 1669 1671 1673 1674 1676 1677 1679 1680 1680 1680 1679 1679 1678 1677 1674 1670 1666 1662 1660 1660 1660 1662 1662 1662 1662 1662 1663 1665 1666 1667 1668 1671 1677 1682 1690 1699 1702 1703 1704 1706 1709 1711 1713 1716 1725 1727 1730 1730 1730 1730 1730 1730 1732 1735 1735 1735 1735 1734 1734 1734 1736 1736 1737 1737 1737 1736 1736 1736 1737 1740 1740 1740 1740 1740 1740 1740 1740 1740 1740 1738 1738 1738 1736 1738 1738 1738 1736 1719 0 0 0 0 0 0 0 0 0 0 0 0 0 1456 1388 1388 1388 1440 1464 1485 1485 1485 1473 1473 1466 1458 1449 1436 1368 1368 1368 1373 1397 1422 1438 1438 1438 1438 1438 1429 1429 1441 1442 1444 1453 1453 1453 1426 1390 1372 1356 1340 1305 1288 1268 1268 1268 1267 1281 1282 1292 1292 1292 1305 1271 1246 0 0 1161 1161 1161 1159 1159 1159 1140 1138 1128 1113 1105 0 0 0 0 0 0 0 0 0 0 0 0 0 0 0 0 0 0 0 0 0 0 777 758 723 723 723 720 0 720 714 714 714 699 699 0 0 0 0 0 0 0 0 0 0 0 0 413 413
465 468 468 491 0 0 0 0 0 0 0 0 0 0 0 0 0 1023 1033 1051 1055 1058 1059 0 0 0 0 0 0 0 0 0 880 847 843 843 837 833 822 820 820 817 815 814 811 811 811 812 814 814 814 814 815 815 815 816 816 817 817 819 820 822 823 824 825 826 827 828 829 829 829 831 832 832 833 833 834 835 836 837 838 839 839 840 841 843 844 845 846 848 848 849 850 851 852 852 853 855 855 856 856 858 858 859 861 862 862 863 864 865 866 867 869 870 870 872 873 874 874 874 876 876 878 878 879 879 881 882 882 883 884 885 886 886 886 886 886 886 885 885 883 880 877 877 876 877 879 880 881 888 895 901 903 905 908 908 909 909 910 910 912 914 915 917 918 919 920 921 922 923 924 925 926 926 928 929 930 930 932 932 932 932 932 932 932 931 930 930 929 928 926 921 919 915 897 877 870 866 855 854 853 852 852 850 843 843 843 847 855 861 862 863 864 868 868 870 871 874 882 890 911 936 937 946 961 965 965 968 974 980 980 980 980 972 965 960 946 936 923 921 918 918 918 909 909 909 910 911 912 913 914 916 916 916 916 916 916 916 919 927 934 942 945 949 962 980 1007 1027 1031 1043 1049 1051 1051 1053 1058 1059 1059 1060 1061 1063 1065 1068 1069 1071 1072 1072 1072 1073 1074 1074 1075 1075 1075 1078 1079 1079 1079 1081 1083 1084 1088 1090 1091 1091 1093 1097 1100 1100 1100 1103 1104 1105 1107 1108 1110 1110 1111 1112 1114 1115 1115 1116 1117 1118 1119 1120 1120 1120 1121 1121 1121 1146 0 0 0 0 1488 1498 1508 1516 1516 1516 1521 1535 1542 1549 1557 1567 1573 1576 1576 1577 1578 1579 1580 1582 1585 1585 1586 1586 1585 1585 1585 1583 1583 1583 1585 1585 1589 1594 1596 1597 1599 1597 1597 1596 1592 1592 1592 1605 1609 1609 1609 1609 1609 1609 1610 1611 1611 1611 1612 1614 1614 1615 1615 1618 1619 1621 1625 1629 1634 1639 1646 1653 1656 1657 1658 1661 1662 1662 1662 1662 1662 1663 1663 1664 1665 1666 1666 1667 1667 1668 1669 1669 1671 1672 1673 1674 1675 1677 1678 1678 1679 1679 1679 1678 1678 1677 1674 1670 1667 1666 1665 1665 1665 1665 1665 1665 1664 1664 1664 1666 1667 1667 1669 1673 1678 1683 1692 1703 1703 1705 1705 1707 1711 1717 1718 1721 1730 1733 1734 1734 1734 1736 1736 1736 1737 1737 1737 1737 1737 1736 1737 1736 1736 1737 1738 1739 1739 1739 1739 1739 1740 1740 1740 1740 1740 1741 1741 1742 1744 1744 1744 1742 1738 1738 1737 1738 1738 1738 1736 1719 0 0 0 0 0 0 0 0 0 0 0 0 0 1437 1411 1411 1411 1440 1464 1485 1485 1485 1473 1473 1467 1458 1449 0 1368 1368 1368 1373 1389 1405 1438 1438 1438 1423 1423 1423 1424 1426 1437 1444 1444 1444 1439 1414 1390 1372 1345 1319 1294 1277 1255 1255 1255 1267 1280 1281 1281 1280 1280 1246 1212 1210 1207 1181 1181 1181 1194 1194 1194 1163 1144 1140 1139 1105 1098 1074 0 0 0 0 0 0 0 0 0 0 0 0 0 0 0 0 0 0 0 0 0 0 0 0 0 0 0 0 0 0 0 719 719 714 679 664 0 0 0 0 0 0 0 0 0 0 0 0
465 468 468 491 0 0 0 0 0 0 0 0 0 0 0 0 0 0 1032 1036 1040 1040 0 0 0 0 0 0 0 0 0 0 854 824 824 822 817 817 817 813 812 812 810 809 807 807 807 808 809 811 813 813 814 814 814 814 815 816 816 817 819 821 821 822 824 825 825 826 827 827 829 829 830 830 831 832 833 834 834 836 836 837 839 839 840 841 843 844 845 846 847 848 849 849 850 851 852 853 854 855 856 857 857 859 859 860 861 862 863 864 865 867 867 868 869 870 870 872 873 873 874 874 876 876 877 878 878 880 881 882 882 882 882 882 882 882 883 883 883 883 877 870 863 858 857 856 857 858 868 880 890 896 900 901 904 906 907 907 908 909 910 912 913 915 916 917 919 919 921 922 923 924 925 926 927 928 929 930 931 932 932 932 932 932 932 932 931 931 930 929 927 925 924 922 912 897 882 870 864 858 855 855 853 850 850 850 857 862 863 863 863 863 864 868 872 876 878 883 897 911 925 937 948 960 964 967 969 972 975 978 979 979 979 972 965 960 946 939 923 921 920 918 918 915 913 912 911 911 912 912 914 916 916 916 916 916 916 917 919 927 934 942 945 949 956 963 980 1001 1017 1037 1046 1048 1049 1052 1055 1057 1058 1059 1059 1061 1063 1064 1065 1068 1068 1068 1068 1068 1069 1070 1071 1073 1075 1075 1075 1076 1076 1076 1076 1076 1082 1082 1083 1084 1084 1093 1098 1099 1100 1101 1102 1104 1105 1107 1108 1108 1109 1110 1112 1114 1114 1114 1115 1117 1118 1119 1119 1119 1119 1119 1119 1128 0 0 0 0 0 1483 1496 1510 1515 1516 1521 1526 1531 1538 1549 1560 1566 1569 1571 1572 1572 1575 1577 1581 1587 1587 1587 1587 1585 1585 1585 1584 1584 1584 1585 1585 1590 1598 1605 1606 1606 1606 1601 1596 1592 1592 1592 1602 1605 1606 1607 1607 1607 1607 1609 1610 1610 1610 1610 1610 1612 1613 1615 1617 1619 1622 1625 1629 1633 1637 1642 1645 1645 1651 1655 1658 1658 1658 1659 1659 1659 1661 1662 1664 1665 1666 1666 1666 1667 1668 1669 1671 1671 1672 1673 1673 1675 1676 1676 1677 1677 1678 1678 1678 1678 1676 1674 1671 1671 1670 1670 1670 1669 1669 1668 1666 1665 1665 1665 1666 1667 1668 1670 1674 1678 1683 1692 1703 1703 1705 1706 1709 1717 1719 1723 1725 1732 1737 1738 1738 1738 1738 1738 1738 1738 1738 1738 1738 1738 1738 1738 1738 1738 1738 1738 1740 1740 1740 1740 1740 1740 1740 1740 1740 1740 1741 1742 1743 1746 1746 1746 1746 1739 1738 1738 1738 1738 1738 1738 1719 0 0 0 0 0 0 0 0 0 0 0 0 0 1437 1411 1411 1411 1439 1446 1476 1476 1476 1476 1476 1475 1470 1470 0 0 1350 1350 1366 1388 1398 1427 1427 1427 1416 1416 1416 1424 1426 1434 1444 1444 1444 1436 1387 1353 1337 1313 1294 1291 1270 1255 1255 1255 1267 1267 1267 1264 1263 1251 1246 1227 1210 1181 1181 1181 1181 1194 1194 1194 1163 1149 1140 1139 1105 1098 1074 1036 1036 1036 0 0 0 0 0 0 0 0 0 0 0 0 0 0 0 0 0 0 0 0 0 0 0 0 0 0 0 0 746 718 717 679 674 0 0 0 0 0 0 0 0 0 0 0 0
465 468 468 491 495 0 0 0 0 0 0 0 0 0 0 0 0 0 0 0 0 0 0 0 0 0 0 0 0 0 823 816 812 811 811 811 811 808 806 805 805 805 805 805 804 804 804 805 805 807 808 810 811 812 813 813 814 814 816 816 817 819 820 820 823 823 824 825 826 826 827 828 829 829 830 831 832 832 833 834 836 836 837 838 839 840 841 843 844 844 845 847 847 848 848 849 851 852 853 853 854 855 856 857 858 859 860 861 862 862 863 864 865 867 867 868 869 870 871 871 872 872 873 874 875 876 877 878 879 879 879 878 878 878 878 878 878 878 875 868 859 852 838 838 837 837 838 847 859 873 879 885 890 894 899 901 904 906 906 907 908 910 911 913 915 916 917 918 919 920 922 923 924 925 926 927 928 929 930 931 932 932 932 932 932 932 932 931 930 929 928 926 925 924 921 910 895 883 874 869 863 857 854 854 854 859 863 868 868 868 867 867 867 868 875 886 894 901 908 926 941 948 956 961 965 967 973 974 975 977 978 978 978 974 970 969 967 961 941 921 920 920 918 915 914 912 911 911 912 912 912 913 916 916 916 916 917 917 921 927 932 940 944 949 956 958 958 972 1004 1024 1044 1046 1046 1048 1049 1054 1057 1057 1058 1059 1060 1061 1062 1064 1064 1065 1065 1064 1064 1064 1064 1065 1066 1066 1065 1064 1060 1058 1051 1049 1049 1049 1063 1071 1079 1086 1092 1094 1096 1098 1101 1102 1103 1105 1106 1106 1108 1108 1110 1111 1112 1112 1113 1114 1115 1117 1119 1119 1119 1119 1119 1120 1132 0 0 0 0 0 0 1496 1510 1515 1517 1517 1520 1528 1541 1554 1562 1565 1568 1570 1571 1573 1576 1581 1587 1590 1590 1590 1590 1590 1590 1590 1590 1586 1586 1586 1591 1599 1605 1619 1619 1619 1602 1596 1592 1592 1592 1602 1603 1603 1604 1604 1604 1607 1609 1610 1610 1610 1609 1609 1609 1611 1613 1616 1619 1622 1625 1629 1633 1637 1640 1641 1645 1647 1652 1655 1656 1656 1657 1657 1659 1660 1662 1664 1665 1665 1666 1666 1666 1668 1670 1671 1672 1672 1672 1673 1675 1676 1676 1676 1676 1676 1676 1676 1676 1676 1674 1671 1671 1670 1670 1670 1670 1670 1668 1666 1666 1666 1666 1667 1667 1668 1671 1674 1678 1684 1692 1705 1705 1707 1707 1713 1719 1726 1727 1727 1735 1738 1738 1738 1738 1739 1738 1738 1738 1738 1738 1739 1740 1740 1740 1740 1740 1740 1740 1742 1742 1742 1742 1742 1742 1742 1740 1740 1740 1741 1743 1746 1747 1747 1747 1747 1740 1738 1738 1738 1738 1738 1738 1716 0 0 0 0 0 0 0 0 0 0 0 0 0 1437 1428 1419 1419 1419 1446 1453 1475 1482 1485 1482 1479 1479 1470 0 0 1350 1350 1350 1370 1371 0 1387 1387 1393 1393 1393 1395 1395 1415 1415 1420 1420 1420 1382 1320 1313 1303 1286 1264 1227 1227 1227 1236 1236 1236 1232 1229 1224 1224 1224 1224 1209 1179 1179 1179 1180 1180 1180 1163 1160 1157 1150 1150 1120 1104 1078 1078 1056 1056 1056 0 0 0 0 0 0 0 0 0 0 0 0 0 0 0 0 0 0 0 0 0 0 0 0 0 0 0 0 721 717 711 0 0 0 0 0 0 0 0 0 0 0 0 0
