574 574 594 617 656 658 674 693 710 730 762 0 0 0 0 0 0 996 1002 1038 1067 1093 1114 1137 1168 1195 1217 1233 1246 1260 1272 1280 1285 1291 1297 1306 1313 1321 1328 1333 1337 1343 1351 1358 1367 1376 1385 1390 1398 1406 1413 1422 1434 1444 1452 1464 1475 1489 1502 1515 1522 1527 1531 1534 1538 1542 1548 1555 1563 1571 1577 1581 1584 1586 1589 1591 1594 1597 1601 1604 1608 1610 1613 1616 1618 1620 1625 1628 1631 1637 1643 1651 1658 1663 1665 1667 1669 1672 1672 1672 1672 1671 1670 1665 1651 1630 1607 1607 1607 1613 1617 1617 1617 1595 1565 0 0 0 0 0 0 0 2110 2115 2119 2129 2139 2153 2165 2171 2171 2171 2168 2168 2168 2173 2177 2180 2181 2181 2183 2185 2190 2190 2190 2188 2167 0 0 0 0 0 1755 1748 1747 1745 1744 1743 1743 1743 1743 1743 1743 1743 1744 1744 1744 1744 1743 1742 1741 1740 1740 1739 1739 1738 1738 1737 1737 1737 1737 1738 1739 1740 1741 1742 1744 1745 1747 1749 1750 1752 1753 1754 1756 1757 1758 1759 1760 1761 1762 1764 1766 1767 1769 1770 1771 1772 1773 1773 1774 1776 1777 1777 1779 1780 1780 1782 1783 1784 1785 1786 1787 1788 1789 1791 1791 1792 1794 1795 1796 1797 1800 1801 1803 1805 1807 1808 1810 1811 1814 1817 1820 1823 1826 1829 1832 1835 1838 1840 1844 1846 1849 1854 1859 1863 1869 1873 1877 1880 1882 1885 1889 1891 1892 1894 1897 1901 1904 1905 1907 1909 1912 1914 1917 1918 1919 1922 1928 1934 1939 1939 1939 0 0 0 0 0 0 0 2572 2595 2610 2628 2643 2655 2662 2673 2681 2692 2703 2707 2709 2709 2711 2713 2718 2745 2766 2776 2778 2778 2778 2778 2778 2778 2783 2787 2790 2804 2816 2827 2836 2838 2846 2852 2858 2864 2864 2864 2864 2872 2878 2881 2883 2888 2894 2901 2901 2901 2901 2900 2900 2900 2899 2899 2899 2901 2903 2903 2904 2904 2911 2912 2916 2916 2916 2925 2935 2943 2947 2947 2951 2951 2951 2951 2947 2947 2947 2951 2951 2951 2943 2925 2922 2922 2922 2928 2934 2934 2934 2928 2925 2925 2924 2923 2923 2912 2903 2896 2889 2889 2889 2906 2906 2906 2892 2858 2776 2622 0 0 0 0 0 0 0 0 1188 1184 1184 1184 1184 1184 1173 1158 1144 1144 1144 1144 1147 1150 1150 1150 1125 1066 1057 1057 1056 1056 1056 1056 1056 1056 1061 1061 1061 1046 1034 1020 1020 1020 1013 1012 1012 0 0 0 0 0 0 0 0 0 0 0 0 0 0 0 0 0 578 578 578 607 607 607 592 592 592 0 0 0 0 0 0 0 0 0 0 0 0 0 0 0 0 1459 1472 1476 1477 1486 1486 1486 0 0 0 0 0 0 0 0 0 0 0 0 0 0 0 0 0 0 0 0 0 0 0 0 0 0 0 0 0 0 0 0 0 0 0 0 617 613 611 608 607 602 602 0 0 0 0 0 0 0 0 1104 1106 1106 1110 1120 1160 0 0 1289 1323 1329 1329 1329 1299 0 0 0 0 0 0 0 0 0 0 0 0 0 0 0 0 0 1318 1329 1333 1337 1354 1356 1358 1384 1407 1427 1429 1432 1432 1429 1422 1407 1394 1363 1322 0 0 0 0 0 0 0 0 0 0 0 0 0 0 0 0 0 0 0 0 0 0 0 0 0 519 540 540 540 539 536 0 0 430 430 430 458 474 474 474 0 421 413 412 412
580 580 608 635 657 659 675 696 714 738 766 0 0 0 0 0 0 999 1002 1038 1070 1099 1121 1147 1176 1202 1224 1242 1255 1266 1277 1285 1289 1295 1300 1306 1313 1319 1325 1331 1337 1343 1351 1358 1367 1375 1385 1390 1398 1406 1413 1422 1432 1442 1451 1461 1473 1485 1499 1510 1519 1524 1528 1533 1537 1540 1547 1555 1562 1570 1575 1578 1581 1583 1586 1590 1594 1597 1601 1604 1607 1610 1613 1616 1618 1620 1623 1627 1631 1635 1640 1646 1655 1661 1663 1663 1664 1664 1663 1662 1658 1657 1656 1642 1621 1591 1587 1587 1587 1592 1592 1592 1580 1561 0 0 0 0 0 0 0 2123 2123 2125 2130 2134 2141 2152 2162 2170 2170 2170 2169 2169 2169 2174 2178 2181 2182 2183 2183 2183 2183 2182 2181 2180 2167 0 0 0 0 1795 1753 1741 1741 1741 1743 1743 1744 1744 1744 1744 1744 1744 1744 1745 1745 1745 1744 1744 1743 1741 1741 1741 1740 1740 1739 1739 1738 1738 1738 1738 1739 1740 1741 1742 1744 1745 1747 1748 1750 1752 1753 1754 1756 1757 1758 1759 1760 1761 1762 1764 1766 1767 1769 1770 1771 1772 1774 1775 1775 1777 1777 1779 1780 1781 1782 1784 1785 1785 1786 1787 1788 1790 1791 1791 1792 1794 1795 1796 1798 1800 1801 1802 1803 1805 1808 1809 1812 1813 1815 1817 1820 1823 1826 1829 1833 1837 1840 1842 1845 1848 1850 1855 1860 1865 1869 1874 1877 1880 1883 1886 1890 1891 1892 1895 1898 1901 1904 1905 1907 1909 1912 1916 1918 1920 1921 1922 1928 1931 1931 1931 1923 0 0 0 0 0 0 2547 2588 2603 2617 2631 2643 2655 2662 2668 2678 2692 2703 2712 2713 2713 2717 2717 2724 2748 2769 2776 2779 2784 2784 2784 2785 2790 2796 2799 2799 2809 2819 2829 2837 2844 2848 2854 2862 2864 2864 2864 2864 2872 2878 2881 2882 2888 2894 2901 2901 2901 2901 2900 2900 2900 2899 2899 2899 2903 2903 2903 2904 2904 2912 2915 2916 2919 2920 2925 2935 2943 2947 2950 2951 2951 2951 2951 2947 2947 2947 2951 2951 2951 2949 2927 2922 2922 2922 2928 2934 2934 2934 2930 2925 2925 2925 2923 2918 2908 2896 2891 2891 2891 2891 2907 2907 2907 2892 2842 2738 2547 0 0 0 0 0 0 1262 1220 1197 1188 1187 1176 1160 1143 1141 1127 1119 1119 1119 1129 1142 1142 1142 1113 1075 1066 1045 1045 1045 1052 1053 1054 1056 1062 1062 1062 1061 1046 1034 1020 1020 1020 1019 1019 0 0 0 0 0 0 0 0 0 0 0 0 0 665 665 665 633 601 578 573 569 569 569 575 592 600 600 0 0 0 0 0 0 0 0 0 0 0 0 0 0 0 0 1422 1427 1437 1448 1464 1464 0 0 0 0 0 0 0 0 0 0 0 0 0 0 0 0 0 0 0 0 0 0 0 0 0 0 0 0 0 0 0 0 0 0 0 0 0 0 613 611 608 602 596 596 0 0 0 0 0 0 0 0 1104 1106 1106 1109 1120 1155 0 0 1289 1323 1323 1323 1323 0 0 0 0 0 0 0 0 0 0 0 0 0 0 0 0 0 1316 1316 1331 1355 1357 1359 1364 1375 1409 1432 1450 1450 1450 1443 1433 1422 1411 1394 1364 1330 0 0 0 0 0 0 0 0 0 0 0 0 0 0 0 0 0 0 0 0 0 0 0 0 0 519 521 521 521 518 512 0 0 434 434 434 463 472 472 472 0 421 413 412 412
580 580 610 636 658 673 675 696 718 742 773 803 0 0 0 0 0 1002 1038 1041 1072 1101 1126 1154 1182 1207 1227 1243 1258 1269 1279 1286 1291 1296 1302 1307 1313 1319 1325 1331 1337 1343 1351 1358 1367 1375 1384 1390 1396 1405 1413 1422 1430 1441 1450 1461 1472 1480 1492 1504 1514 1521 1526 1531 1535 1540 1546 1554 1562 1568 1573 1576 1579 1582 1586 1590 1594 1597 1601 1604 1607 1610 1613 1616 1618 1620 1623 1627 1630 1635 1638 1643 1648 1654 1654 1654 1649 1649 1649 1648 1646 1645 1638 1613 1587 1556 1556 1556 1575 1592 1592 1592 1580 0 0 0 0 0 0 0 0 2126 2132 2134 2134 2137 2142 2150 2159 2167 2168 2168 2170 2170 2170 2174 2178 2181 2182 2182 2182 2182 2182 2182 2181 2180 2167 0 0 0 0 1750 1750 1738 1738 1738 1746 1746 1746 1745 1745 1744 1744 1744 1744 1745 1745 1745 1745 1745 1744 1743 1742 1742 1741 1741 1740 1740 1739 1739 1739 1739 1739 1740 1741 1742 1744 1745 1746 1748 1750 1751 1753 1754 1756 1757 1758 1759 1760 1762 1763 1764 1766 1767 1769 1770 1771 1773 1774 1775 1777 1778 1779 1779 1781 1782 1783 1784 1785 1786 1788 1788 1789 1791 1792 1792 1793 1795 1796 1798 1799 1800 1801 1802 1803 1806 1808 1810 1812 1814 1816 1818 1820 1823 1827 1830 1834 1838 1841 1844 1846 1850 1853 1858 1862 1866 1870 1874 1877 1880 1883 1886 1890 1891 1894 1897 1899 1901 1904 1905 1907 1909 1913 1917 1920 1920 1921 1921 1923 1927 1927 1927 1895 0 0 0 0 0 2532 2581 2603 2619 2635 2646 2655 2658 2662 2668 2678 2692 2704 2715 2715 2715 2721 2721 2730 2755 2769 2780 2780 2785 2794 2795 2798 2805 2814 2815 2818 2820 2827 2836 2845 2851 2855 2861 2864 2864 2864 2864 2864 2872 2876 2880 2880 2881 2886 2896 2900 2900 2901 2900 2900 2900 2901 2901 2902 2903 2903 2904 2904 2904 2913 2916 2916 2921 2923 2925 2935 2943 2947 2950 2950 2950 2949 2945 2945 2945 2945 2951 2951 2951 2949 2927 2920 2920 2920 2926 2934 2934 2934 2930 2925 2925 2922 2919 2914 2904 2896 2891 2891 2891 2896 2907 2907 2907 2879 2786 2641 0 0 0 0 0 0 1253 1242 1220 1211 1204 1191 1176 1150 1103 1098 1093 1093 1093 1093 1117 1119 1119 1119 1089 1075 1066 1040 1040 1040 1052 1054 1054 1056 1072 1072 1072 1070 1048 1037 1025 1025 1023 1019 0 0 0 0 0 0 0 0 0 0 626 628 652 653 653 652 650 626 600 582 576 569 552 552 552 575 582 600 0 0 0 0 0 0 0 0 0 0 0 0 0 0 1304 1353 1386 1395 1400 1400 1408 0 0 0 0 0 0 0 0 0 604 594 594 0 0 0 0 0 0 0 0 0 0 0 0 0 0 0 0 0 0 0 0 0 0 0 0 0 0 0 619 611 610 602 596 596 0 0 0 0 0 0 0 0 1106 1106 1106 1106 1120 1155 1184 0 0 1323 1323 1323 0 0 0 0 0 0 0 0 0 0 0 0 0 0 0 0 0 1308 1308 1312 1331 1355 1383 1402 1407 1414 1430 1445 1464 1464 1464 1461 1441 1422 1416 1394 1368 1343 0 0 0 0 0 0 0 0 0 0 0 0 0 0 0 0 0 0 0 0 0 0 0 0 0 519 521 521 521 510 502 487 448 448 448 453 483 483 483 0 0 417 413 406 406
583 583 611 636 658 678 679 698 723 751 778 807 0 0 0 0 977 1011 1038 1043 1072 1101 1126 1154 1184 1208 1227 1244 1258 1269 1279 1287 1293 1297 1305 1308 1313 1319 1325 1331 1339 1346 1351 1358 1367 1375 1384 1391 1396 1405 1414 1422 1430 1439 1450 1461 1471 1479 1487 1498 1509 1516 1523 1528 1533 1538 1544 1553 1561 1566 1570 1574 1577 1581 1586 1590 1594 1597 1601 1604 1607 1610 1613 1616 1619 1620 1623 1625 1629 1632 1635 1638 1643 1643 1643 1635 1635 1634 1634 1634 1634 1634 1619 1590 1557 1535 1535 1535 1571 1592 1592 1592 0 0 0 0 0 0 0 0 2118 2126 2132 2134 2134 2138 2143 2150 2157 2166 2168 2168 2168 2169 2170 2174 2178 2181 2182 2182 2182 2182 2182 2182 2181 2180 2172 0 0 0 0 1749 1744 1733 1733 1733 1742 1745 1745 1745 1745 1744 1744 1744 1744 1745 1746 1746 1746 1746 1746 1744 1744 1744 1742 1742 1741 1741 1740 1740 1740 1740 1740 1740 1741 1743 1744 1745 1746 1748 1750 1750 1752 1753 1755 1757 1758 1759 1760 1762 1763 1764 1766 1767 1769 1770 1772 1773 1774 1775 1777 1778 1779 1780 1781 1783 1783 1785 1787 1788 1789 1789 1791 1792 1793 1793 1794 1795 1797 1799 1800 1800 1801 1803 1804 1806 1809 1811 1812 1814 1817 1819 1820 1824 1827 1831 1835 1839 1843 1845 1848 1852 1856 1859 1863 1867 1871 1874 1877 1880 1883 1887 1890 1891 1895 1897 1899 1901 1902 1905 1907 1909 1913 1917 1920 1920 1921 1921 1922 1922 1922 1896 1852 0 0 0 0 2545 2590 2605 2617 2628 2644 2661 2667 2668 2672 2672 2678 2694 2705 2715 2717 2720 2721 2721 2739 2763 2778 2780 2783 2794 2807 2809 2810 2815 2824 2830 2831 2832 2836 2844 2852 2858 2861 2861 2864 2864 2864 2865 2865 2872 2876 2876 2876 2877 2881 2896 2904 2904 2904 2904 2902 2901 2901 2901 2902 2904 2904 2904 2904 2904 2916 2917 2917 2925 2925 2925 2928 2935 2946 2948 2948 2948 2939 2938 2938 2938 2942 2947 2949 2949 2949 2927 2919 2919 2919 2925 2932 2932 2932 2930 2925 2918 2911 2907 2907 2904 2896 2891 2891 2891 2901 2905 2905 2905 2871 2747 2543 0 0 0 0 0 1266 1253 1234 1220 1211 1204 1191 1171 1139 1101 1084 1084 1079 1084 1084 1097 1102 1102 1102 1085 1070 1065 1052 1051 1051 1051 1062 1062 1063 1072 1085 1085 1085 1083 1067 1033 1027 1019 1014 0 0 0 0 0 0 0 0 0 616 626 628 649 649 649 644 640 625 599 582 576 569 552 552 552 575 582 601 0 0 0 0 0 0 0 0 0 0 0 0 1300 1304 1312 1353 1369 1376 1376 1376 1375 0 0 0 0 0 0 0 0 604 594 590 591 590 0 0 0 0 0 0 0 0 0 0 0 0 0 0 0 0 0 0 0 0 0 0 0 0 0 0 620 611 610 602 602 602 0 0 0 0 0 0 1150 1150 1134 1134 1120 1120 1120 1155 1174 0 0 0 0 0 0 0 0 0 0 0 0 0 0 0 0 0 0 0 0 0 0 1264 1264 1284 1331 1355 1383 1402 1407 1414 1430 1446 1470 1479 1479 1479 1460 1441 1439 1412 1382 1345 0 0 0 0 0 0 0 0 0 0 0 0 0 0 0 0 0 0 0 0 0 0 0 0 0 533 533 533 521 510 497 477 457 457 457 466 485 485 485 0 0 413 403 399 399
585 585 614 636 661 681 682 701 724 752 784 811 846 0 0 947 977 1011 1042 1049 1073 1101 1126 1154 1184 1208 1227 1244 1258 1269 1279 1288 1297 1300 1308 1314 1317 1320 1327 1337 1345 1350 1356 1363 1370 1377 1384 1392 1396 1405 1414 1422 1430 1439 1450 1460 1470 1478 1486 1491 1503 1510 1517 1523 1530 1536 1542 1552 1558 1564 1568 1571 1576 1581 1585 1589 1594 1597 1600 1603 1606 1610 1614 1617 1619 1620 1623 1625 1626 1629 1630 1633 1633 1633 1630 1630 1630 1632 1632 1632 1631 1626 0 0 0 0 0 0 0 0 0 0 0 0 0 0 0 0 2100 2108 2118 2127 2132 2136 2136 2139 2144 2150 2154 2159 2161 2164 2165 2167 2169 2173 2176 2178 2180 2181 2181 2181 2181 2180 2180 2180 2172 0 0 0 0 1749 1730 1730 1730 1731 1739 1745 1745 1745 1745 1744 1744 1744 1744 1744 1746 1747 1747 1747 1746 1746 1745 1744 1744 1743 1742 1741 1740 1740 1740 1740 1740 1740 1742 1743 1744 1745 1746 1747 1749 1750 1751 1752 1754 1756 1758 1759 1760 1762 1763 1764 1766 1767 1769 1770 1772 1773 1775 1776 1777 1779 1779 1780 1782 1783 1783 1786 1787 1789 1790 1791 1792 1793 1794 1795 1795 1797 1798 1799 1800 1801 1802 1803 1804 1807 1810 1812 1813 1815 1818 1820 1822 1825 1828 1831 1836 1839 1843 1847 1850 1853 1856 1860 1863 1868 1871 1875 1877 1880 1883 1887 1890 1892 1895 1897 1900 1901 1902 1905 1907 1908 1911 1916 1920 1920 1920 1920 1920 1920 1903 1875 0 0 0 0 2519 2591 2609 2620 2628 2637 2650 2664 2672 2674 2674 2677 2686 2694 2707 2715 2718 2722 2722 2724 2747 2776 2790 2793 2795 2801 2820 2824 2824 2829 2830 2838 2839 2841 2844 2852 2861 2861 2863 2864 2864 2864 2865 2865 2865 2872 2876 2876 2877 2877 2881 2896 2904 2908 2908 2908 2902 2901 2901 2901 2904 2904 2904 2905 2906 2907 2920 2924 2924 2924 2924 2924 2927 2933 2940 2940 2940 2940 2933 2932 2932 2932 2934 2934 2934 2934 2926 2921 2919 2919 2919 2922 2924 2928 2928 2928 2922 2911 2902 2902 2900 2898 2897 2894 2894 2894 2901 2904 2904 2904 2831 2689 0 0 0 0 0 1270 1266 1253 1234 1219 1211 1204 1191 1162 1127 1085 1073 1073 1073 1079 1084 1092 1092 1092 1089 1081 1070 1065 1052 1048 1048 1048 1063 1071 1072 1073 1085 1085 1085 1083 1067 1033 1013 1009 0 0 0 0 0 0 0 0 0 0 616 626 626 626 627 627 626 626 620 583 580 578 575 552 552 552 582 600 601 601 0 0 0 0 0 0 0 0 0 0 1340 1343 1343 1349 1356 1365 1376 1376 1376 1375 1357 0 0 0 0 0 0 0 604 597 590 597 604 0 0 0 0 0 0 0 0 0 0 0 0 0 0 0 0 0 0 0 0 0 0 0 0 0 0 620 611 602 601 602 0 0 0 0 0 0 1150 1150 1150 1134 1134 1127 1127 1127 1155 1174 0 0 0 0 0 0 0 0 0 0 0 0 0 0 0 0 0 0 0 0 0 1230 1230 1230 1269 1317 1348 1383 1402 1407 1414 1430 1446 1470 1479 1479 1479 1468 1460 1450 1424 1382 1357 0 0 0 0 0 0 0 0 0 0 0 0 0 0 0 0 0 0 0 0 0 0 0 0 0 540 540 540 531 510 497 472 459 459 459 490 490 490 0 0 414 406 391 390 390
585 585 616 643 667 686 707 709 732 760 785 818 847 0 0 947 977 1012 1046 1049 1076 1104 1128 1152 1184 1208 1227 1243 1257 1269 1280 1288 1299 1302 1312 1318 1321 1325 1332 1342 1349 1355 1361 1367 1374 1381 1387 1394 1398 1406 1414 1423 1430 1439 1449 1460 1470 1477 1480 1489 1496 1504 1511 1519 1527 1535 1541 1549 1556 1563 1568 1571 1576 1581 1585 1589 1594 1596 1600 1603 1605 1609 1614 1617 1619 1620 1621 1622 1622 1622 1622 1622 1621 1621 1621 1622 1630 1630 1631 1631 1631 0 0 0 0 0 0 0 0 0 0 0 0 0 0 0 2100 2105 2106 2109 2118 2127 2132 2136 2136 2143 2147 2150 2154 2159 2160 2163 2164 2166 2169 2172 2175 2176 2176 2178 2181 2181 2181 2180 2180 2180 2172 0 0 0 0 1745 1729 1729 1729 1730 1735 1742 1745 1745 1745 1744 1744 1744 1744 1744 1746 1747 1747 1747 1746 1746 1745 1744 1744 1744 1743 1741 1741 1741 1741 1741 1741 1741 1742 1743 1744 1745 1746 1747 1749 1750 1751 1752 1753 1755 1756 1758 1760 1762 1763 1765 1767 1768 1769 1771 1772 1773 1775 1776 1777 1779 1780 1781 1782 1783 1783 1786 1788 1789 1791 1792 1793 1795 1795 1796 1797 1797 1798 1799 1800 1801 1802 1804 1805 1807 1810 1812 1813 1816 1818 1820 1823 1826 1830 1833 1837 1842 1845 1847 1850 1853 1856 1860 1865 1869 1872 1875 1877 1880 1883 1887 1890 1893 1895 1898 1900 1901 1902 1905 1907 1908 1910 1913 1916 1917 1917 1917 1916 1884 1842 0 0 0 0 0 2564 2593 2611 2627 2637 2644 2657 2664 2674 2675 2676 2685 2695 2696 2708 2716 2720 2723 2723 2728 2751 2776 2790 2793 2795 2801 2820 2828 2829 2833 2840 2845 2847 2847 2852 2858 2861 2861 2863 2864 2864 2865 2865 2866 2866 2873 2876 2876 2877 2877 2881 2896 2904 2911 2911 2911 2904 2901 2901 2901 2909 2910 2910 2911 2911 2914 2923 2924 2924 2924 2924 2924 2926 2930 2934 2934 2934 2934 2927 2927 2924 2921 2920 2920 2920 2921 2921 2921 2919 2917 2917 2918 2919 2923 2923 2923 2915 2906 2895 2895 2895 2894 2894 2894 2894 2894 2901 2901 2901 2872 2769 2601 0 0 0 0 0 1270 1266 1259 1232 1208 1203 1198 1178 1150 1127 1085 1073 1073 1073 1079 1084 1092 1092 1092 1077 1070 1070 1065 1052 1048 1048 1048 1063 1064 1064 1071 1071 1076 1076 1076 1067 1033 1011 997 0 0 0 0 0 0 0 0 0 564 607 607 607 606 606 606 606 606 587 583 582 578 576 576 576 583 601 601 601 601 0 0 0 0 0 0 0 0 0 0 1349 1363 1363 1363 1367 1367 1376 1376 1376 1375 1357 0 0 0 0 0 0 0 624 620 613 613 613 0 0 0 0 0 0 0 0 0 0 0 0 0 0 0 0 0 0 0 0 0 0 0 0 0 0 620 603 595 595 601 0 0 0 0 0 0 1150 1150 1150 1134 1134 1127 1127 1127 1155 0 0 0 0 0 0 0 0 0 0 0 0 0 0 0 0 0 0 0 0 0 0 1219 1219 1219 0 0 1305 1335 1367 1388 1409 1424 1446 1470 1479 1479 1479 1468 1467 1452 1425 1400 1370 0 0 0 0 0 0 0 0 0 0 0 0 0 0 0 0 0 0 0 0 0 0 0 0 0 542 545 545 545 532 497 471 468 468 468 483 483 0 0 0 408 405 391 388 388
594 594 622 648 673 693 716 717 744 775 795 818 848 0 0 947 978 1012 1046 1070 1076 1104 1128 1149 1182 1207 1226 1243 1257 1269 1281 1293 1303 1306 1316 1320 1322 1328 1336 1346 1354 1359 1364 1370 1377 1383 1389 1397 1405 1410 1417 1425 1432 1439 1449 1459 1467 1473 1479 1485 1495 1503 1507 1516 1526 1535 1541 1549 1556 1563 1568 1571 1576 1580 1585 1588 1591 1595 1598 1602 1605 1609 1613 1617 1618 1618 1618 1618 1617 1615 1615 1614 1614 1615 1620 1622 1626 1629 1629 1629 1620 0 0 0 0 0 0 0 0 0 0 0 2053 2058 2066 2087 2103 2108 2110 2113 2120 2129 2132 2136 2138 2144 2147 2154 2154 2159 2160 2163 2164 2166 2169 2172 2173 2173 2174 2174 2175 2176 2177 2177 2177 2177 2172 0 0 0 0 1741 1727 1727 1727 1730 1735 1738 1741 1743 1743 1743 1743 1744 1744 1744 1746 1747 1747 1747 1746 1746 1745 1745 1745 1744 1743 1742 1742 1742 1742 1742 1742 1742 1743 1743 1744 1745 1746 1747 1749 1750 1751 1752 1753 1754 1756 1757 1759 1762 1763 1765 1767 1768 1769 1771 1772 1773 1775 1776 1777 1779 1780 1781 1782 1783 1784 1786 1788 1790 1792 1792 1795 1795 1796 1796 1798 1798 1800 1800 1801 1802 1803 1804 1807 1808 1810 1812 1814 1816 1819 1822 1824 1829 1831 1835 1839 1842 1845 1849 1851 1855 1858 1861 1865 1870 1873 1875 1877 1880 1885 1888 1890 1894 1896 1898 1900 1900 1902 1904 1906 1908 1910 1912 1914 1914 1914 1912 1884 0 0 0 0 0 0 2574 2597 2599 2612 2629 2644 2651 2657 2664 2670 2678 2690 2700 2707 2708 2708 2716 2723 2724 2727 2731 2751 2776 2790 2793 2795 2801 2820 2828 2829 2837 2843 2850 2851 2852 2854 2858 2861 2863 2863 2864 2864 2865 2866 2866 2866 2873 2877 2886 2886 2887 2889 2896 2904 2913 2913 2913 2905 2903 2903 2903 2913 2914 2916 2917 2918 2922 2923 2924 2924 2924 2924 2924 2924 2924 2925 2925 2924 2923 2919 2919 2917 2909 2909 2909 2909 2916 2918 2918 2918 2918 2918 2918 2918 2917 2917 2917 2909 2901 2895 2895 2895 2894 2894 2894 2894 2894 2890 2890 2874 2783 2682 0 0 0 0 0 1271 1270 1270 1259 1234 1203 1181 1171 1161 1150 1127 1085 1073 1073 1073 1091 1091 1092 1092 1092 1069 1060 1058 1051 1040 1038 1038 1038 1053 1055 1055 1055 1055 1055 1056 1056 1056 1017 993 981 0 0 0 0 0 0 0 0 576 576 607 607 607 596 596 596 596 596 582 582 578 576 576 576 576 590 590 590 579 579 0 0 0 0 0 0 0 0 0 0 1350 1373 1373 1373 1376 1376 1376 1389 1389 1389 1365 0 0 0 0 0 0 0 0 620 613 613 0 0 0 0 0 0 0 0 0 0 0 0 0 0 0 0 0 0 0 0 0 0 0 0 0 0 0 620 592 569 569 569 0 0 0 0 0 0 1120 1134 1134 1134 1134 1134 1138 1167 0 0 0 0 0 0 0 0 0 0 0 0 0 0 0 0 0 0 0 0 0 0 1247 1216 1216 1216 0 0 0 1335 1367 1382 1383 1401 1424 1451 1469 1469 1469 1468 1467 1452 1436 1414 1383 0 0 0 0 0 0 0 0 0 0 0 0 0 0 0 0 0 0 0 0 0 0 0 0 0 542 545 545 545 540 0 464 464 464 489 489 489 0 0 416 407 404 399 388 388
601 601 629 658 680 702 726 729 763 785 801 822 850 879 919 947 978 1012 1048 1079 1084 1109 1128 1149 1172 1203 1219 1238 1254 1269 1281 1296 1306 1314 1318 1321 1326 1333 1340 1349 1358 1363 1370 1374 1379 1385 1392 1401 1410 1415 1421 1427 1433 1440 1449 1456 1464 1471 1478 1484 1491 1498 1506 1515 1526 1532 1541 1547 1555 1563 1568 1572 1576 1580 1583 1586 1590 1594 1596 1600 1604 1607 1611 1614 1614 1614 1612 1612 1612 1612 1613 1614 1614 1614 1617 1622 1626 1626 1626 1626 0 0 0 0 0 0 0 0 0 0 2037 2050 2054 2062 2066 2087 2103 2110 2113 2119 2128 2134 2139 2141 2142 2144 2147 2155 2157 2159 2160 2163 2164 2166 2169 2172 2173 2173 2174 2174 2175 2175 2175 2175 2175 2173 2169 0 0 0 0 1744 1723 1723 1723 1730 1735 1738 1741 1742 1743 1743 1743 1743 1744 1744 1745 1747 1747 1747 1746 1745 1745 1745 1745 1744 1743 1742 1742 1742 1742 1742 1742 1743 1744 1744 1744 1745 1746 1747 1748 1749 1751 1751 1753 1754 1756 1757 1759 1761 1763 1765 1767 1768 1769 1771 1772 1773 1775 1777 1777 1779 1781 1782 1782 1784 1785 1787 1789 1791 1792 1794 1795 1797 1797 1798 1799 1799 1800 1801 1803 1804 1805 1807 1808 1809 1811 1813 1814 1816 1820 1823 1826 1830 1833 1836 1839 1843 1846 1850 1854 1856 1859 1863 1866 1870 1873 1875 1878 1881 1885 1889 1891 1894 1896 1898 1899 1900 1902 1904 1905 1908 1910 1912 1912 1912 1908 0 0 0 0 0 0 0 2560 2587 2599 2606 2617 2631 2652 2655 2657 2664 2670 2683 2702 2706 2707 2708 2708 2716 2723 2727 2730 2731 2751 2768 2782 2789 2793 2798 2809 2820 2830 2837 2843 2851 2853 2854 2855 2857 2858 2858 2859 2863 2864 2866 2866 2867 2867 2874 2888 2888 2888 2889 2889 2894 2904 2913 2913 2913 2907 2903 2903 2903 2914 2918 2920 2921 2922 2922 2922 2921 2920 2919 2917 2917 2917 2917 2917 2915 2914 2914 2912 2912 2911 2909 2909 2909 2909 2916 2921 2921 2921 2918 2917 2917 2915 2915 2914 2914 2909 2901 2895 2890 2889 2889 2889 2889 2889 2890 2890 2890 2834 2737 2565 0 0 0 0 0 1270 1266 1266 1260 1234 1187 1156 1148 1146 1145 1131 1126 1082 1082 1082 1091 1091 1091 1089 1085 1068 1051 1038 1035 1031 1031 1031 1031 1038 1042 1042 1042 1036 1036 1027 1024 1017 995 982 964 0 0 0 0 0 0 0 0 619 619 607 607 607 591 591 591 591 591 574 574 574 565 572 576 576 600 600 600 557 557 0 0 0 0 0 0 0 0 0 0 1350 1380 1380 1380 1380 1380 1385 1408 1408 1408 0 0 0 0 0 0 0 0 0 0 0 0 0 0 0 0 0 0 0 0 0 0 0 0 0 0 0 0 0 0 0 0 0 0 0 0 0 0 0 620 592 565 565 565 0 0 0 0 0 0 0 1107 1107 1107 1107 1122 1138 1180 0 0 0 0 0 0 0 0 0 0 0 0 0 0 0 0 1431 1431 1405 0 0 0 1247 1217 1217 1217 0 0 0 1335 1367 1382 1383 1386 1401 1420 1441 1443 1454 1454 1452 1452 1436 1419 1383 0 0 0 0 0 0 0 0 0 0 0 0 0 0 0 0 0 0 0 0 0 0 0 0 0 542 545 545 545 544 0 475 475 475 475 475 474 0 423 409 406 402 399 388 388
609 609 0 665 689 715 742 744 771 792 809 830 856 889 920 947 978 1012 1048 1079 1088 1109 1130 1148 1167 1187 1211 1228 1247 1265 1281 1298 1308 1316 1319 1324 1331 1338 1347 1356 1364 1370 1374 1378 1383 1388 1396 1406 1414 1418 1426 1430 1434 1440 1449 1456 1464 1471 1478 1484 1491 1498 1505 1515 1525 1532 1540 1545 1555 1563 1568 1572 1575 1578 1581 1584 1587 1590 1593 1597 1601 1603 1604 1604 1605 1605 1605 1608 1609 1611 1612 1614 1614 1615 1617 1618 1618 1618 1615 1609 0 0 0 0 0 0 0 0 2040 2048 2054 2054 2058 2062 2069 2083 2103 2110 2114 2120 2130 2141 2142 2143 2145 2145 2147 2156 2157 2160 2163 2164 2166 2170 2172 2174 2174 2174 2174 2174 2175 2175 2175 2173 2172 2171 2161 0 0 0 0 1740 1728 1728 1728 1730 1735 1738 1741 1742 1743 1743 1743 1743 1744 1744 1745 1746 1746 1746 1746 1745 1745 1745 1745 1744 1744 1743 1743 1743 1743 1743 1743 1743 1744 1744 1745 1746 1746 1747 1748 1749 1751 1751 1752 1754 1755 1757 1759 1761 1763 1764 1766 1768 1770 1771 1772 1773 1775 1777 1778 1779 1781 1782 1783 1784 1786 1787 1790 1791 1793 1794 1796 1797 1799 1799 1800 1801 1802 1803 1805 1806 1807 1808 1809 1811 1812 1813 1814 1817 1820 1823 1828 1830 1834 1838 1841 1843 1846 1850 1854 1858 1860 1864 1867 1871 1873 1875 1878 1881 1886 1889 1891 1894 1896 1898 1899 1900 1901 1904 1905 1908 1910 1910 1910 1909 0 0 0 0 0 0 0 2527 2567 2588 2600 2608 2618 2631 2652 2658 2664 2667 2670 2683 2702 2706 2708 2709 2710 2717 2727 2732 2732 2733 2740 2753 2764 2771 2779 2792 2802 2820 2830 2837 2843 2852 2854 2854 2854 2855 2855 2857 2859 2863 2867 2869 2869 2871 2872 2882 2888 2888 2889 2889 2889 2889 2890 2902 2907 2907 2907 2903 2903 2903 2914 2918 2921 2921 2921 2921 2921 2918 2917 2914 2908 2908 2908 2909 2909 2910 2910 2910 2911 2911 2911 2909 2909 2909 2909 2916 2923 2923 2923 2918 2915 2915 2913 2913 2913 2912 2908 2901 2896 2890 2889 2889 2889 2882 2875 2871 2869 2857 2788 2659 0 0 0 0 0 1266 1266 1270 1270 1270 0 0 1139 1139 1138 1136 1131 1129 1126 1110 1091 1091 1091 1091 1089 1082 1066 1041 1025 1025 1025 1027 1031 1031 1031 1037 1037 1037 1022 1014 1010 1009 999 992 977 0 0 0 0 0 0 0 0 0 619 619 619 619 619 585 585 584 584 584 557 557 557 559 576 581 581 596 596 596 581 581 0 0 0 0 0 0 0 0 0 0 0 1380 1380 1380 1380 1380 1392 1408 1408 1408 0 0 0 0 0 0 0 0 0 0 0 0 0 0 0 0 0 0 0 0 0 0 0 0 0 0 0 0 0 0 0 0 0 0 0 0 0 0 0 613 595 565 565 565 0 0 0 0 0 0 0 0 0 1077 1084 1116 1138 0 0 0 0 0 0 0 0 0 0 0 0 0 0 0 0 1451 1451 1451 1423 1397 0 0 1247 1219 1218 1218 0 0 0 1354 1373 1380 1380 1380 1380 1380 1388 1396 1432 1438 1438 1436 1432 1419 0 0 0 0 0 0 0 0 0 0 0 0 0 0 0 0 0 0 0 0 0 0 0 0 0 0 523 525 542 542 542 0 486 486 486 486 486 0 0 410 402 400 396 395 388 388
620 620 0 676 702 726 748 771 773 797 819 839 863 897 924 949 978 1015 1048 1079 1090 1109 1130 1148 1165 1186 1204 1221 1240 1260 1281 1298 1312 1319 1322 1329 1335 1344 1352 1361 1368 1374 1379 1381 1385 1391 1399 1410 1418 1424 1429 1433 1438 1442 1449 1456 1464 1471 1478 1484 1491 1498 1505 1513 1524 1532 1539 1545 1554 1561 1568 1572 1575 1577 1580 1581 1584 1586 1588 1593 1595 1596 1596 1599 1601 1603 1605 1607 1608 1609 1612 1614 1614 1614 1614 1608 1604 1604 1603 0 0 0 0 0 0 0 0 2048 2057 2062 2062 2063 2063 2063 2069 2077 2097 2110 2114 2120 2130 2141 2142 2142 2145 2145 2149 2156 2159 2161 2165 2167 2168 2170 2172 2174 2175 2175 2176 2177 2176 2175 2175 2173 2172 2166 2158 0 0 0 0 1740 1728 1728 1728 1731 1735 1738 1741 1742 1743 1743 1743 1743 1744 1744 1745 1746 1746 1746 1746 1745 1745 1745 1745 1744 1744 1744 1743 1743 1743 1743 1743 1744 1744 1745 1745 1746 1747 1747 1748 1749 1751 1751 1752 1754 1755 1757 1760 1761 1763 1764 1766 1767 1769 1770 1772 1774 1775 1777 1778 1779 1781 1782 1783 1786 1788 1790 1791 1793 1794 1796 1798 1799 1799 1801 1801 1803 1804 1806 1806 1807 1808 1809 1811 1811 1813 1814 1815 1818 1821 1824 1828 1832 1836 1839 1841 1843 1847 1850 1855 1858 1861 1864 1867 1871 1873 1875 1878 1881 1886 1889 1891 1894 1896 1898 1898 1899 1899 1900 1901 1908 1910 1910 1910 0 0 0 0 0 0 0 0 2548 2572 2591 2601 2608 2618 2631 2652 2658 2666 2667 2670 2683 2702 2706 2706 2709 2714 2726 2735 2735 2737 2738 2740 2751 2764 2771 2778 2788 2802 2818 2828 2836 2840 2852 2854 2854 2854 2854 2855 2855 2858 2863 2867 2869 2870 2871 2874 2882 2887 2887 2888 2889 2889 2889 2890 2897 2907 2907 2907 2903 2903 2903 2914 2918 2921 2921 2921 2920 2919 2918 2914 2910 2900 2900 2900 2902 2904 2905 2907 2910 2911 2911 2911 2912 2912 2913 2920 2928 2928 2928 2923 2915 2915 2915 2913 2911 2911 2911 2908 2901 2896 2891 2890 2889 2889 2882 2866 2852 2839 2784 2711 2580 0 0 0 0 0 1254 1254 1275 1275 1275 0 0 1136 1136 1135 1131 1129 1126 1126 1110 1084 1084 1084 1082 1082 1075 1060 1038 1009 1009 1009 1025 1030 1031 1035 1035 1035 1035 1013 1007 1006 1006 999 983 0 0 0 0 0 0 0 0 0 0 606 606 606 617 617 617 586 581 0 0 0 0 0 562 566 568 605 605 605 596 581 581 581 0 0 0 0 0 0 0 0 0 0 1366 1366 1378 1378 1378 1403 1408 1408 0 0 0 0 0 0 0 0 0 0 0 0 0 0 0 0 0 0 0 0 0 962 1003 0 0 0 0 0 0 0 0 0 0 0 0 0 0 0 0 0 609 593 569 569 569 0 0 0 0 0 0 0 0 0 0 0 0 0 0 0 0 0 0 0 0 0 0 0 0 0 0 0 0 1461 1461 1461 1451 1423 0 0 1287 1252 1240 1240 1240 0 0 0 1369 1382 1382 1382 1374 1374 1374 1385 0 0 0 0 0 0 0 0 0 0 0 0 0 0 0 0 0 0 0 0 0 0 0 0 0 0 0 0 0 0 0 0 501 502 503 512 533 533 533 509 509 505 496 488 0 0 400 400 400 402 402 406 406
630 630 661 688 713 735 755 776 778 802 823 845 874 903 928 953 981 1015 1048 1069 1091 1103 1131 1147 1165 1186 1204 1221 1240 1260 1281 1299 1317 1326 1332 1334 1341 1348 1357 1365 1374 1379 1382 1384 1388 1394 1402 1411 1419 1426 1430 1436 1441 1446 1453 1461 1466 1472 1478 1484 1493 1500 1505 1513 1524 1531 1539 1545 1552 1559 1565 1571 1575 1576 1577 1578 1580 1581 1582 1583 1587 1590 1594 1597 1601 1603 1605 1606 1608 1609 1612 1614 1614 1614 1607 1597 1593 1591 1590 0 0 0 0 0 0 0 0 2053 2063 2070 2070 2070 2070 2070 2073 2077 2092 2107 2114 2120 2130 2141 2141 2142 2145 2145 2149 2157 2161 2163 2165 2167 2168 2170 2172 2174 2175 2176 2176 2177 2177 2177 2177 2175 2172 2166 2156 2118 0 0 0 1737 1728 1728 1728 1731 1735 1737 1740 1742 1742 1742 1743 1743 1743 1744 1745 1746 1746 1746 1745 1745 1745 1745 1745 1744 1744 1743 1743 1743 1743 1743 1744 1744 1745 1745 1746 1746 1747 1748 1749 1750 1752 1752 1752 1754 1755 1758 1760 1762 1763 1764 1766 1767 1769 1770 1772 1774 1775 1777 1778 1780 1781 1782 1785 1786 1788 1790 1791 1793 1795 1797 1799 1800 1802 1802 1803 1804 1805 1807 1807 1809 1809 1810 1811 1813 1813 1816 1817 1821 1823 1826 1829 1832 1836 1839 1841 1844 1847 1850 1855 1858 1861 1864 1867 1870 1871 1873 1877 1881 1886 1888 1890 1893 1896 1896 1897 1898 1898 1898 1901 1907 1916 1916 1916 0 0 0 0 0 0 0 2531 2559 2578 2591 2601 2609 2622 2631 2645 2658 2666 2667 2674 2682 2693 2698 2701 2709 2723 2733 2735 2735 2737 2738 2740 2751 2764 2771 2778 2788 2800 2814 2825 2833 2838 2850 2854 2854 2854 2854 2854 2854 2857 2863 2867 2869 2870 2871 2874 2875 2875 2881 2881 2881 2889 2889 2890 2895 2906 2906 2906 2903 2903 2903 2914 2917 2918 2918 2918 2914 2913 2912 2912 2907 2900 2894 2894 2894 2897 2901 2906 2909 2910 2910 2911 2913 2921 2926 2931 2931 2931 2928 2923 2915 2914 2913 2911 2910 2906 2905 2905 2901 2896 2896 2896 2892 2892 2881 2864 2848 2816 2764 2676 2520 0 0 0 0 1247 1247 1254 1275 1275 1275 0 1165 1136 1134 1134 1124 1124 1121 1121 1110 0 0 0 1051 1046 1046 1046 1024 1004 1004 1004 1025 1029 1029 1031 1031 1029 1028 1013 1006 995 993 992 0 0 0 0 0 0 0 0 0 0 0 0 588 588 612 612 612 596 0 0 0 0 0 0 0 0 0 623 623 623 596 581 581 581 0 0 0 0 0 0 0 0 0 0 1365 1365 1366 1366 1380 1403 1403 0 0 0 0 0 0 0 0 0 0 0 0 0 0 0 0 0 0 0 0 0 0 1003 1010 1012 1012 0 0 0 0 0 0 0 0 0 0 0 0 0 0 605 601 593 569 569 569 0 0 0 0 0 0 0 0 0 0 0 0 0 0 0 0 0 0 0 0 0 0 0 0 0 0 0 1446 1461 1461 1461 1451 1423 0 0 1290 1280 1280 1280 1293 1311 1326 1351 1376 1382 1382 1382 1366 1341 1333 1324 0 0 0 0 0 0 0 0 0 0 0 0 0 0 0 0 0 0 0 0 0 0 0 0 0 0 0 0 0 0 0 0 485 485 500 501 533 533 533 509 509 496 488 0 0 417 400 400 400 403 403 409 409
642 642 671 695 716 739 764 786 788 810 833 857 886 911 934 959 987 1018 1048 1069 1100 1103 1130 1147 1165 1186 1204 1221 1240 1260 1281 1302 1319 1326 1332 1335 1341 1348 1358 1369 1377 1384 1387 1389 1393 1399 1406 1413 1420 1428 1432 1439 1445 1450 1456 1463 1469 1474 1478 1485 1493 1500 1505 1513 1523 1531 1538 1544 1549 1556 1562 1566 1570 1570 1570 1570 1570 1573 1577 1581 1584 1590 1593 1596 1599 1601 1602 1605 1605 1608 1609 1609 1609 1607 1601 1596 1588 1583 0 0 0 0 0 0 0 0 0 2054 2063 2072 2072 2072 2074 2074 2074 2077 2090 2102 2108 2114 2123 2132 2132 2138 2139 2142 2149 2158 2162 2164 2167 2167 2168 2171 2172 2173 2175 2176 2177 2177 2177 2177 2177 2177 2172 2166 2156 2120 0 0 0 1735 1728 1728 1728 1731 1735 1737 1739 1742 1742 1742 1742 1742 1743 1744 1744 1745 1745 1745 1745 1745 1745 1744 1744 1744 1744 1743 1743 1743 1743 1744 1745 1745 1745 1746 1746 1747 1748 1749 1750 1751 1752 1752 1753 1754 1756 1758 1760 1762 1763 1765 1766 1767 1769 1770 1772 1774 1775 1777 1778 1780 1782 1783 1785 1787 1788 1790 1792 1794 1797 1799 1800 1801 1802 1803 1804 1805 1807 1808 1809 1809 1810 1810 1812 1813 1814 1817 1820 1822 1824 1827 1831 1832 1836 1839 1841 1844 1847 1851 1855 1859 1861 1864 1867 1869 1869 1872 1877 1881 1885 1888 1890 1892 1894 1896 1896 1896 1896 1897 1900 1908 1914 1914 0 0 0 0 0 0 0 2517 2552 2573 2585 2594 2601 2610 2622 2631 2637 2646 2661 2666 2674 2681 2682 2691 2696 2709 2723 2733 2735 2735 2737 2738 2741 2751 2766 2772 2778 2788 2799 2814 2824 2826 2833 2844 2850 2852 2852 2852 2853 2854 2857 2860 2866 2869 2870 2870 2870 2869 2869 2869 2869 2873 2887 2889 2889 2893 2893 2893 2889 2889 2889 2896 2903 2908 2915 2915 2915 2908 2907 2907 2907 2905 2899 2891 2891 2891 2892 2897 2906 2909 2910 2910 2911 2913 2921 2926 2931 2931 2931 2928 2919 2914 2913 2913 2911 2905 2900 2898 2896 2893 2893 2893 2893 2893 2892 2880 2863 2844 2807 2708 2597 0 0 0 0 0 1230 1230 1254 1258 1258 1258 0 1137 1136 1134 1134 1121 1118 1117 1116 1088 0 0 1006 1006 1023 1024 1024 1024 1003 1003 1003 1020 1021 1021 1023 1023 1021 1014 1013 987 975 972 0 0 0 0 0 0 0 0 0 0 0 0 0 0 573 605 605 605 0 0 0 0 0 0 0 0 0 0 0 623 623 610 580 580 580 0 0 0 0 0 0 0 0 0 0 1360 1361 1365 1366 1382 1382 1382 0 0 0 0 0 0 0 0 0 0 0 0 0 0 0 0 0 0 0 0 0 0 1008 1014 1014 1008 1008 0 0 0 0 0 0 0 0 0 0 0 0 0 591 591 581 570 570 570 0 0 0 0 0 0 0 0 0 0 0 0 0 0 0 0 0 0 0 0 0 0 0 0 0 0 0 1446 1446 1446 1435 1404 1402 1343 1324 1297 1297 1297 1300 1313 1322 1338 1351 1376 1376 1376 1375 1355 1339 1302 1279 0 0 0 0 0 0 0 0 0 0 0 0 0 0 0 0 0 0 0 0 0 0 0 0 0 0 0 0 0 0 0 0 500 500 496 496 496 509 509 509 496 488 481 0 0 417 400 400 400 403 403 409 409
644 644 671 697 717 745 772 798 800 820 841 867 896 921 945 969 997 1022 1048 1069 1100 1103 1130 1147 1165 1193 1209 1225 1242 1261 1283 1302 1319 1326 1332 1335 1341 1348 1358 1369 1377 1384 1387 1391 1397 1403 1410 1417 1423 1430 1436 1441 1447 1451 1456 1463 1469 1474 1478 1485 1493 1500 1505 1512 1522 1531 1536 1543 1546 1549 1555 1560 1561 1561 1563 1565 1569 1573 1576 1581 1584 1588 1592 1595 1598 1599 1600 1601 1604 1605 1606 1606 1606 1604 1601 1595 1585 1577 0 0 0 0 0 0 0 0 2042 2055 2063 2072 2075 2076 2076 2076 2076 2084 2090 2096 2100 2104 2108 2111 2119 2126 2134 2143 2151 2160 2166 2167 2168 2168 2169 2171 2171 2172 2174 2178 2178 2178 2179 2179 2179 2179 2177 2172 2156 2125 0 0 0 1735 1727 1727 1727 1733 1735 1736 1739 1740 1740 1741 1741 1742 1742 1743 1744 1744 1744 1744 1744 1744 1744 1744 1744 1744 1743 1743 1743 1743 1743 1744 1745 1746 1746 1746 1746 1748 1748 1750 1750 1751 1752 1753 1754 1755 1757 1759 1761 1762 1764 1765 1766 1767 1769 1770 1772 1774 1775 1777 1779 1780 1782 1783 1786 1787 1789 1791 1792 1795 1797 1799 1801 1801 1803 1804 1805 1806 1807 1808 1809 1809 1810 1811 1813 1814 1815 1818 1820 1822 1824 1828 1831 1835 1836 1839 1840 1844 1848 1851 1855 1859 1861 1863 1865 1866 1868 1872 1876 1879 1883 1884 1884 1886 1890 1892 1892 1892 1892 1892 1900 1908 1912 1912 0 0 0 0 0 0 0 2558 2576 2592 2603 2605 2609 2617 2626 2635 2637 2639 2650 2663 2674 2675 2677 2685 2696 2709 2723 2733 2733 2733 2734 2734 2748 2761 2771 2778 2782 2789 2799 2809 2815 2825 2833 2841 2844 2846 2848 2848 2850 2852 2853 2856 2861 2864 2864 2864 2864 2864 2858 2858 2858 2872 2887 2889 2889 2887 2884 2873 2861 2861 2861 2890 2902 2905 2908 2908 2908 2904 2902 2901 2898 2898 2897 2890 2890 2890 2892 2897 2904 2909 2909 2910 2911 2911 2921 2926 2928 2928 2928 2921 2913 2907 2906 2906 2904 2899 2895 2891 2891 2891 2892 2894 2894 2894 2892 2880 2863 2843 2791 2678 0 0 0 0 0 0 1212 1212 1212 1212 1212 1210 1151 1134 1134 1133 1133 1121 1113 1112 1101 1074 1036 1006 1006 1006 1023 1023 1023 1016 1000 1000 1000 1009 1013 1013 1019 1019 1013 1011 990 959 944 0 0 0 0 0 0 0 0 0 0 0 0 0 0 0 0 0 0 0 0 0 0 0 0 0 0 0 0 0 0 619 619 619 579 579 579 0 0 0 0 0 0 0 0 0 0 1360 1365 1369 1377 1377 1377 0 0 0 0 0 0 0 0 0 0 0 0 0 0 0 0 0 0 0 0 0 0 0 1001 1004 1001 998 995 0 0 0 0 0 0 0 0 0 0 0 0 0 570 564 564 564 570 580 0 0 0 0 0 0 0 0 0 0 972 980 982 988 0 0 0 0 0 0 0 0 0 0 0 0 1443 1443 1443 1438 1411 1385 1375 1341 1324 1324 1321 1320 1320 1320 1327 1339 1351 1376 1376 1376 1364 1353 1324 1284 1247 1242 0 0 0 0 0 0 0 0 0 0 0 0 0 0 0 0 0 0 0 0 0 0 0 0 429 450 474 483 488 491 491 491 491 473 473 473 500 500 500 467 453 448 446 437 413 400 400 400 403 403 409 409
645 645 672 698 723 751 779 804 825 827 849 876 905 934 958 980 1008 1031 1054 1070 1102 1126 1131 1156 1171 1193 1209 1225 1242 1261 1283 1302 1319 1325 1330 1335 1340 1348 1358 1369 1377 1384 1387 1391 1397 1403 1410 1417 1423 1430 1436 1441 1447 1451 1456 1463 1469 1474 1478 1485 1491 1497 1504 1510 1518 1526 1531 1537 1541 1547 1552 1553 1556 1560 1562 1564 1568 1572 1575 1580 1583 1587 1591 1594 1596 1598 1599 1600 1601 1603 1605 1605 1605 1603 1598 1590 1583 1575 0 0 0 0 0 0 0 0 2042 2055 2061 2066 2073 2076 2076 2076 2076 2086 2090 2096 2096 2098 2099 2099 2108 2121 2134 2143 2153 2160 2166 2167 2168 2168 2169 2172 2172 2172 2174 2178 2178 2178 2179 2180 2180 2180 2180 2179 2161 2133 0 0 0 0 1727 1727 1727 1731 1736 1736 1738 1739 1740 1740 1741 1741 1741 1742 1742 1743 1743 1743 1743 1743 1743 1743 1743 1743 1743 1743 1743 1743 1743 1744 1745 1746 1746 1746 1747 1748 1749 1750 1750 1751 1753 1754 1755 1756 1758 1759 1761 1762 1764 1765 1766 1767 1769 1770 1772 1774 1776 1777 1779 1780 1782 1784 1786 1787 1790 1792 1793 1795 1797 1799 1801 1802 1803 1805 1805 1806 1807 1809 1809 1810 1810 1811 1813 1815 1816 1818 1820 1822 1824 1828 1831 1835 1836 1838 1840 1844 1848 1851 1855 1859 1861 1862 1862 1863 1866 1870 1872 1876 1877 1881 1881 1881 1881 1881 1881 1882 1882 1891 1901 1913 1913 1913 0 0 0 0 0 0 2535 2558 2576 2592 2603 2607 2619 2630 2637 2637 2637 2637 2637 2645 2658 2669 2675 2685 2696 2708 2721 2723 2725 2727 2728 2734 2748 2761 2771 2778 2782 2789 2794 2804 2815 2825 2832 2839 2841 2841 2843 2843 2845 2848 2849 2851 2857 2858 2858 2858 2855 2854 2851 2851 2851 2863 2876 2876 2876 2874 2872 2868 2861 2861 2861 2864 2879 2890 2895 2900 2900 2900 2896 2892 2887 2885 2885 2885 2888 2890 2892 2897 2902 2904 2904 2905 2906 2906 2914 2920 2920 2920 2918 2912 2903 2902 2902 2901 2898 2893 2888 2886 2886 2886 2892 2894 2894 2894 2883 2868 2857 2808 2753 2614 0 0 0 0 0 1230 1212 1209 1199 1194 1194 1163 1138 1133 1131 1130 1130 1121 1113 1099 1041 1036 1025 1006 1006 1006 1019 1019 1019 1006 999 999 999 1003 1005 1006 1008 1011 1011 1011 983 938 932 0 0 0 0 0 0 0 0 0 0 0 0 0 0 0 0 0 0 0 0 0 0 0 0 0 0 0 0 0 0 0 622 622 580 580 0 0 0 0 0 0 0 0 0 0 0 1350 1365 1369 1377 1377 0 0 0 0 0 0 0 0 0 0 0 0 0 0 0 0 0 0 0 0 0 0 0 996 996 996 996 993 0 0 0 0 0 0 0 0 0 0 0 0 0 0 0 548 548 548 570 0 0 0 0 0 0 0 0 0 0 939 961 965 968 971 979 0 0 0 0 0 0 0 0 0 0 1447 1447 1447 1438 1405 1401 1377 1362 1348 1348 1348 1350 1350 1350 1348 1348 1348 1355 1358 1362 1362 1362 1344 1318 1283 1247 1242 0 0 0 0 0 0 0 0 0 0 0 0 0 0 0 0 0 0 0 0 0 0 0 430 439 460 476 483 488 491 491 491 483 473 473 473 478 478 478 453 451 448 445 421 406 391 391 391 391 401 402 402
648 648 674 702 731 757 782 804 825 828 849 877 910 938 959 981 1009 1038 1067 1093 1116 1136 1140 1156 1172 1193 1209 1225 1242 1261 1283 1300 1307 1311 1315 1326 1329 1342 1354 1362 1375 1382 1387 1391 1397 1403 1410 1417 1423 1430 1436 1441 1447 1451 1455 1460 1465 1469 1477 1480 1486 1492 1498 1503 1509 1515 1521 1527 1533 1537 1543 1550 1555 1559 1561 1564 1568 1572 1574 1577 1580 1585 1589 1593 1595 1597 1598 1600 1601 1602 1603 1603 1603 1595 1586 1582 1575 0 0 0 0 0 0 0 0 0 2042 2055 2057 2065 2071 2076 2076 2076 2076 2086 2089 2095 2095 2096 2097 2099 2108 2121 2133 2145 2153 2160 2166 2167 2168 2168 2169 2172 2172 2178 2178 2180 2180 2180 2180 2180 2180 2181 2181 2181 2165 2138 0 0 0 0 1724 1724 1724 1732 1736 1736 1738 1738 1739 1739 1740 1740 1740 1741 1741 1741 1741 1742 1742 1742 1742 1742 1742 1742 1743 1742 1743 1743 1743 1744 1745 1746 1746 1747 1748 1749 1750 1751 1751 1752 1754 1754 1755 1757 1758 1759 1761 1763 1764 1765 1767 1768 1769 1771 1772 1774 1776 1778 1779 1781 1783 1784 1786 1788 1790 1792 1794 1795 1798 1800 1802 1802 1804 1805 1806 1806 1807 1809 1809 1810 1812 1812 1814 1815 1817 1818 1820 1822 1824 1828 1831 1835 1837 1838 1840 1844 1848 1851 1854 1857 1859 1860 1860 1861 1863 1864 1867 1871 1875 1880 1880 1880 1877 1875 1875 1877 1882 1891 1902 1902 1902 1891 0 0 0 0 0 0 2535 2558 2576 2592 2603 2608 2619 2630 2637 2637 2637 2636 2636 2636 2651 2668 2675 2685 2696 2708 2717 2721 2725 2727 2728 2734 2748 2761 2771 2778 2782 2789 2791 2801 2815 2822 2832 2838 2838 2838 2840 2840 2840 2846 2847 2848 2851 2852 2852 2852 2852 2849 2849 2849 2851 2855 2855 2855 2855 2855 2859 2859 2859 2849 2849 2849 2859 2875 2885 2892 2892 2892 2892 2884 2875 2874 2874 2874 2886 2890 2892 2896 2900 2903 2904 2905 2905 2906 2914 2916 2916 2916 2909 2901 2896 2896 2896 2896 2896 2889 2883 2883 2883 2884 2891 2891 2891 2891 2875 2859 2842 2750 2611 0 0 0 0 0 0 1234 1217 1212 1211 1199 1171 1145 1132 1129 1126 1124 1122 1120 1109 1078 1041 1036 1036 1036 1036 1033 1028 1022 1012 997 995 995 993 993 994 994 994 1009 1009 1009 977 937 918 0 0 0 0 0 0 0 0 0 0 0 0 0 0 0 0 0 0 0 0 0 0 0 0 0 0 0 0 0 0 0 0 0 0 0 0 0 0 0 0 0 0 0 0 0 0 0 1365 1369 1369 0 0 0 0 0 0 0 0 0 0 0 0 0 0 0 0 0 0 0 0 0 0 0 989 989 989 988 973 0 0 0 0 0 0 0 0 0 0 0 0 0 0 0 0 0 0 0 0 0 0 0 0 0 0 0 0 0 0 920 943 954 962 968 968 0 0 0 0 0 0 0 0 0 0 1447 1447 1447 1438 1405 1401 1377 1362 1361 1361 1361 1369 1381 1381 1381 1375 1358 1358 1358 1362 1362 1362 1344 1318 1283 1247 1242 0 0 0 0 0 0 0 0 0 0 0 0 0 0 0 0 0 0 0 0 0 0 0 440 464 476 476 483 484 484 484 483 464 464 464 473 477 477 477 453 451 448 445 421 406 391 390 390 390 397 400 400
651 651 674 702 734 761 786 804 826 828 849 877 910 938 959 981 1009 1038 1067 1093 1121 1140 1144 1158 1172 1192 1207 1221 1236 1253 1271 1284 1292 1298 1306 1311 1314 1323 1336 1352 1360 1369 1376 1384 1390 1395 1399 1405 1411 1420 1432 1441 1445 1449 1452 1456 1461 1465 1470 1477 1483 1486 1487 1491 1501 1508 1514 1521 1529 1533 1541 1547 1553 1558 1561 1564 1566 1569 1570 1572 1576 1582 1587 1591 1594 1595 1598 1600 1600 1600 1600 1589 1583 1582 1581 1578 1569 0 0 0 0 0 0 0 0 0 0 2031 2050 2062 2069 2069 2071 2073 2074 2086 2089 2093 2093 2094 2094 2094 2102 2119 2132 2145 2153 2159 2162 2163 2164 2164 2169 2172 2175 2178 2178 2183 2187 2187 2187 2185 2185 2185 2185 2182 2169 2141 0 0 0 0 1724 1724 1724 1733 1737 1737 1738 1738 1738 1738 1739 1739 1739 1739 1740 1740 1741 1741 1741 1741 1741 1741 1741 1742 1742 1742 1742 1743 1743 1744 1745 1746 1747 1747 1748 1749 1750 1751 1751 1752 1754 1755 1756 1758 1759 1761 1762 1763 1764 1766 1767 1768 1769 1771 1773 1774 1776 1778 1780 1781 1783 1785 1786 1788 1790 1792 1794 1797 1798 1800 1802 1803 1804 1805 1806 1806 1807 1808 1809 1810 1812 1813 1814 1815 1817 1818 1820 1822 1824 1827 1831 1835 1836 1838 1840 1843 1846 1848 1849 1853 1857 1860 1860 1860 1860 1860 1864 1867 1872 1879 1879 1879 1874 1874 1874 1874 1882 1897 1897 1897 1897 1827 0 0 0 0 0 2509 2539 2553 2572 2584 2595 2608 2619 2630 2637 2637 2637 2632 2632 2632 2650 2668 2681 2689 2701 2708 2717 2721 2725 2727 2728 2734 2746 2757 2766 2775 2779 2781 2787 2799 2812 2822 2832 2837 2837 2837 2837 2837 2840 2845 2846 2847 2847 2848 2847 2847 2847 2846 2846 2846 2846 2846 2843 2837 2837 2837 2851 2851 2851 2849 2849 2849 2852 2868 2881 2887 2888 2888 2888 2879 2874 2874 2874 2874 2886 2890 2892 2895 2899 2902 2902 2904 2905 2906 2914 2916 2916 2916 2909 2901 2894 2894 2893 2893 2893 2888 2882 2882 2882 2884 2891 2891 2891 2884 2867 2846 2819 2711 2550 0 0 0 0 0 0 1234 1217 1212 1211 1198 1162 1136 1128 1120 1113 1113 1108 1108 1108 1077 1041 1033 1033 1033 1038 1038 1038 1022 1006 996 986 984 984 984 988 990 993 994 994 990 975 932 914 0 0 0 0 0 0 0 0 0 0 0 453 0 0 0 0 0 0 0 0 0 0 0 0 0 0 0 0 0 0 0 0 0 0 0 0 0 0 0 0 0 0 0 0 0 0 0 0 0 0 0 0 0 0 0 0 0 0 0 0 0 0 0 0 0 0 0 0 0 0 0 0 982 982 982 970 950 950 0 0 0 0 0 0 0 0 0 0 0 0 0 0 0 0 0 0 0 0 0 0 0 0 0 0 0 0 0 0 920 940 952 956 956 956 0 0 0 0 0 0 0 0 0 0 1447 1447 1447 1430 1405 1401 1385 1362 1362 1362 1371 1384 1404 1404 1404 1394 1378 1368 1368 1363 1362 1362 1344 1318 1283 1279 1253 0 0 0 0 0 0 0 0 0 0 0 0 0 0 0 0 0 0 0 0 0 466 466 466 478 478 478 476 476 473 472 460 454 454 454 478 478 478 477 451 447 446 433 415 406 391 390 390 390 397 400 400
651 651 674 703 734 763 786 805 826 847 850 878 910 938 959 981 1009 1038 1067 1093 1121 1140 1153 1158 1172 1190 1206 1211 1227 1245 1258 1268 1275 1280 1286 1292 1300 1303 1316 1329 1339 1351 1360 1362 1364 1364 1367 1377 1389 1405 1423 1432 1437 1441 1443 1447 1453 1459 1466 1472 1477 1481 1485 1491 1498 1505 1512 1520 1528 1532 1540 1545 1551 1556 1558 1559 1562 1564 1566 1570 1573 1579 1585 1589 1592 1595 1597 1597 1597 1586 1586 1585 1583 1581 1580 1577 0 0 0 0 0 0 0 0 0 0 0 0 0 0 0 0 0 0 0 0 2085 2087 2090 2090 2091 2092 2102 2117 2131 2145 2149 2151 2151 2154 2157 2157 2163 2170 2175 2178 2178 2183 2187 2189 2189 2189 2189 2185 2185 2182 2169 2141 0 0 0 0 1724 1724 1724 1733 1737 1737 1737 1738 1738 1738 1738 1739 1739 1739 1739 1739 1739 1741 1741 1741 1741 1741 1741 1741 1741 1742 1742 1742 1743 1744 1745 1746 1747 1748 1748 1750 1751 1751 1753 1754 1755 1756 1757 1758 1760 1762 1763 1764 1765 1766 1768 1769 1770 1772 1773 1775 1777 1778 1780 1782 1783 1785 1787 1789 1791 1793 1795 1797 1799 1800 1802 1803 1804 1805 1806 1806 1807 1808 1809 1810 1812 1813 1814 1815 1816 1818 1820 1821 1823 1827 1831 1835 1836 1837 1840 1842 1842 1843 1847 1853 1855 1855 1855 1857 1859 1860 1863 1866 1870 1873 1874 1874 1874 1874 1874 1874 1892 1913 1913 1913 1847 0 0 0 0 0 0 2525 2539 2553 2568 2581 2588 2607 2617 2624 2633 2633 2633 2632 2632 2632 2650 2668 2681 2695 2706 2712 2717 2721 2728 2729 2729 2734 2743 2753 2763 2769 2771 2771 2782 2799 2812 2821 2829 2833 2833 2834 2834 2836 2839 2843 2845 2846 2846 2846 2846 2841 2832 2832 2832 2834 2834 2834 2834 2830 2830 2830 2839 2853 2853 2853 2852 2852 2852 2861 2873 2879 2883 2883 2883 2879 2874 2874 2874 2874 2886 2891 2893 2897 2899 2901 2902 2905 2907 2910 2915 2916 2916 2916 2909 2901 2894 2894 2893 2893 2893 2888 2882 2882 2882 2886 2886 2886 2880 2872 2858 2834 2798 2682 0 0 0 0 0 0 0 0 1217 1212 1211 1186 1151 1132 1124 1112 1110 1110 1107 1106 1106 1075 1043 1033 1033 1033 1047 1047 1047 1022 1006 994 980 978 978 978 986 986 986 985 984 982 971 932 918 903 0 0 0 0 0 0 0 0 0 0 0 0 0 0 0 0 0 0 0 0 0 0 0 0 0 0 0 0 0 0 0 0 0 0 0 0 0 0 0 0 0 0 0 0 0 0 0 0 0 0 0 0 0 0 0 0 0 0 0 0 0 0 0 0 0 0 0 0 0 0 0 982 982 982 963 950 0 0 0 0 0 0 0 0 0 0 0 0 0 511 511 511 0 0 0 0 0 0 0 0 0 0 0 0 0 842 882 920 940 952 952 952 937 0 0 0 0 0 0 0 0 0 1399 1425 1430 1430 1430 1410 1409 1406 1402 1402 1402 1414 1421 1421 1421 1408 1397 1380 1369 1369 1369 1368 1368 1351 1328 1307 1300 1280 0 0 0 0 0 0 0 0 0 0 0 0 0 0 0 0 0 0 0 0 485 488 488 488 488 483 478 476 476 473 472 458 458 458 478 483 483 483 475 455 447 445 431 414 407 398 394 394 394 395 399 399
652 652 676 707 736 764 789 811 828 851 853 878 907 932 955 978 1001 1032 1062 1092 1121 1140 1153 1158 1172 1184 1198 1211 1226 1231 1242 1249 1255 1264 1269 1278 1288 1292 1302 1315 1324 1327 1330 1334 1344 1351 1365 1374 1383 1396 1409 1418 1423 1430 1436 1443 1449 1456 1463 1469 1476 1481 1485 1491 1498 1504 1510 1518 1526 1531 1537 1542 1546 1551 1554 1557 1558 1560 1564 1568 1572 1578 1584 1587 1591 1592 1592 1592 1589 1586 1585 1585 1582 1580 1579 1574 0 0 0 0 0 0 0 0 0 0 0 0 0 0 0 0 0 0 0 0 0 0 0 0 0 0 0 0 0 0 0 0 2131 2132 2133 2145 2152 2156 2157 2168 2175 2183 2187 2189 2189 2189 2189 2185 2185 2182 2169 0 0 0 0 0 1724 1724 1724 1732 1736 1736 1736 1736 1736 1737 1738 1738 1738 1739 1739 1739 1739 1739 1740 1741 1741 1741 1741 1741 1741 1742 1742 1742 1743 1745 1746 1747 1748 1749 1750 1751 1752 1752 1754 1754 1756 1756 1757 1760 1761 1763 1763 1765 1766 1768 1769 1770 1771 1772 1774 1775 1777 1779 1781 1782 1783 1785 1787 1789 1791 1793 1795 1797 1799 1800 1802 1803 1804 1806 1806 1807 1807 1807 1808 1809 1811 1813 1814 1814 1816 1817 1819 1821 1823 1827 1831 1833 1836 1836 1837 1840 1840 1841 1844 1847 1849 1850 1852 1856 1858 1859 1862 1863 1868 1872 1874 1874 1874 1874 1874 1886 1908 1908 1908 1870 1847 0 0 0 0 0 2507 2534 2539 2553 2567 2580 2586 2595 2607 2614 2624 2624 2624 2625 2625 2625 2651 2674 2681 2695 2706 2712 2717 2725 2731 2735 2736 2738 2742 2747 2754 2760 2763 2771 2782 2800 2811 2820 2826 2833 2833 2834 2834 2836 2839 2841 2845 2845 2845 2845 2842 2834 2818 2818 2818 2818 2823 2823 2823 2821 2821 2821 2829 2843 2852 2852 2852 2852 2852 2860 2866 2878 2880 2880 2880 2878 2876 2876 2876 2882 2887 2891 2895 2898 2900 2901 2902 2905 2907 2911 2915 2918 2918 2918 2910 2905 2900 2896 2894 2893 2893 2888 2883 2883 2883 2886 2886 2886 2880 2872 2847 2823 2744 2538 0 0 0 0 0 0 0 0 0 0 1170 1149 1134 1121 1121 1112 1110 1109 1107 1105 1098 1075 1046 1037 1037 1037 1055 1055 1055 1028 1005 990 974 970 970 970 984 984 984 981 962 960 953 932 932 928 0 0 0 0 0 0 0 0 441 441 449 449 0 0 0 0 0 0 0 0 0 0 0 0 0 0 0 0 0 0 0 0 0 0 0 0 0 0 0 0 0 0 0 0 0 0 0 0 0 0 0 0 0 0 0 0 0 0 0 0 0 0 0 0 0 0 0 0 0 0 974 975 975 975 0 0 0 0 0 0 0 0 0 0 0 0 0 0 494 501 501 501 464 449 449 0 0 0 0 0 0 0 0 0 856 856 881 920 940 948 948 948 931 906 0 0 0 0 0 0 0 0 1399 1406 1420 1420 1420 1411 1411 1411 1412 1425 1434 1437 1437 1437 1436 1420 1397 1390 1390 1390 1390 1389 1387 1356 1328 1310 1300 1280 0 0 0 0 0 0 0 0 0 0 0 0 0 0 0 0 0 0 0 0 485 488 490 490 490 490 485 476 476 473 472 467 467 467 481 481 481 480 475 455 447 434 431 411 408 402 397 395 395 397 399 399
652 652 679 709 738 766 792 815 838 856 859 881 906 931 954 975 1000 1030 1059 1089 1116 1137 1153 1159 1169 1180 1192 1204 1215 1230 1230 1239 1246 1262 1269 1278 1288 1292 1302 1315 1323 1327 1330 1334 1344 1351 1365 1374 1383 1395 1403 1413 1421 1424 1433 1441 1449 1456 1462 1469 1476 1481 1485 1491 1496 1504 1510 1514 1521 1527 1531 1535 1539 1544 1548 1552 1556 1558 1562 1567 1570 1575 1582 1586 1587 1587 1587 1586 1586 1586 1584 1583 1582 1579 1578 0 0 0 0 0 0 0 0 0 0 0 0 0 0 0 0 0 0 0 0 0 0 0 0 0 0 0 0 0 0 0 0 0 0 0 0 0 0 0 0 0 0 0 2184 2189 2189 2189 2178 0 0 0 0 0 0 0 0 0 1724 1724 1724 1732 1735 1735 1735 1735 1735 1735 1736 1738 1738 1738 1738 1738 1738 1739 1740 1740 1741 1741 1741 1742 1742 1742 1743 1744 1744 1746 1747 1748 1748 1750 1751 1751 1752 1754 1755 1755 1756 1757 1758 1760 1762 1764 1765 1766 1767 1769 1771 1772 1773 1774 1775 1777 1778 1779 1781 1783 1784 1785 1787 1789 1791 1794 1796 1797 1799 1801 1802 1803 1804 1806 1806 1807 1807 1807 1808 1809 1809 1811 1812 1813 1815 1816 1818 1818 1822 1826 1826 1826 1826 1829 1831 1834 1835 1836 1836 1840 1845 1848 1849 1853 1858 1859 1862 1863 1868 1872 1874 1874 1875 1875 1888 1907 1907 1907 1887 1847 0 0 0 0 0 0 2533 2539 2548 2551 2565 2574 2579 2588 2594 2600 2611 2611 2611 2611 2611 2625 2650 2674 2681 2695 2706 2712 2717 2725 2731 2735 2736 2736 2738 2738 2739 2751 2763 2771 2782 2800 2811 2820 2826 2832 2833 2834 2834 2836 2838 2838 2838 2838 2839 2839 2839 2834 2818 2809 2809 2809 2809 2809 2810 2810 2814 2821 2829 2839 2852 2852 2852 2855 2855 2860 2865 2873 2879 2879 2879 2877 2876 2876 2876 2889 2895 2897 2898 2899 2900 2901 2903 2905 2907 2911 2915 2918 2918 2918 2912 2909 2905 2904 2902 2899 2892 2888 2884 2884 2884 2885 2885 2885 2880 2871 2846 2795 2677 0 0 0 0 0 0 0 0 0 0 0 1132 1128 1121 1121 1121 1121 1121 1112 1110 1109 1098 1075 1047 1037 1037 1037 1055 1055 1055 1028 994 981 974 959 959 959 972 972 972 965 943 943 943 941 941 941 0 0 0 0 0 0 0 440 440 440 449 449 0 0 0 0 0 0 0 0 0 0 0 0 0 0 0 0 0 0 0 0 0 0 0 0 0 0 0 0 0 0 0 0 0 0 0 0 0 0 0 0 0 0 0 0 0 0 0 0 0 0 0 0 0 0 0 0 0 952 972 974 974 972 0 0 0 0 0 0 0 0 0 0 0 0 0 0 488 488 488 474 459 449 449 449 0 0 0 0 0 0 0 902 882 882 882 920 940 947 947 947 931 906 0 0 0 0 0 0 0 0 1397 1399 1401 1409 1410 1410 1410 1411 1422 1432 1443 1453 1463 1463 1463 1420 1416 1416 1416 1427 1427 1427 1396 1360 1329 1324 1304 1281 1255 0 0 0 0 0 0 0 0 0 0 0 0 0 0 0 0 0 0 0 485 488 490 490 495 495 495 488 486 478 478 469 469 469 479 479 479 478 473 455 434 423 418 411 408 403 400 397 397 397 397 397
656 656 0 0 0 776 801 823 842 860 863 884 906 930 953 973 1000 1028 1056 1082 1113 1134 1150 1159 1166 1176 1190 1200 1210 1226 1230 1239 1246 1262 1269 1278 1288 1292 1302 1315 1323 1327 1330 1334 1344 1351 1365 1374 1383 1395 1403 1412 1420 1424 1433 1441 1448 1455 1462 1468 1475 1480 1485 1491 1496 1502 1506 1509 1514 1520 1525 1528 1532 1537 1544 1546 1551 1555 1560 1564 1569 1574 1575 1579 1579 1580 1581 1585 1585 1585 1584 1583 1577 1573 1572 0 0 0 0 0 0 0 0 0 0 0 0 0 0 0 0 0 0 0 0 0 0 0 0 0 0 0 0 0 0 0 0 0 0 0 0 0 0 0 0 0 0 0 0 0 0 0 0 0 0 0 0 0 0 0 0 1719 1719 1719 1724 1732 1732 1732 1732 1732 1732 1733 1735 1737 1737 1737 1737 1737 1738 1739 1740 1740 1740 1741 1742 1742 1742 1743 1744 1744 1745 1746 1747 1748 1748 1750 1751 1752 1753 1754 1756 1757 1757 1758 1759 1761 1762 1764 1765 1767 1768 1770 1771 1773 1773 1775 1775 1778 1778 1780 1781 1783 1784 1786 1787 1790 1791 1794 1796 1797 1799 1801 1802 1803 1804 1806 1806 1807 1807 1807 1807 1808 1809 1809 1811 1812 1813 1815 1816 1818 1819 1821 1821 1822 1824 1827 1829 1829 1830 1833 1836 1840 1845 1848 1849 1853 1858 1859 1862 1863 1868 1872 1874 1875 1876 1895 1907 1907 0 0 0 0 0 0 0 0 0 2527 2539 2546 2548 2551 2557 2561 2571 2581 2583 2585 2589 2592 2594 2595 2607 2625 2649 2674 2675 2685 2697 2704 2714 2725 2731 2735 2735 2735 2736 2738 2739 2751 2763 2775 2789 2802 2811 2820 2826 2832 2833 2834 2835 2834 2833 2835 2835 2835 2838 2838 2838 2834 2818 2809 2809 2809 2809 2809 2810 2810 2814 2821 2829 2838 2849 2850 2852 2855 2855 2859 2861 2867 2876 2876 2876 2872 2872 2872 2876 2892 2895 2904 2906 2907 2907 2906 2906 2907 2907 2911 2915 2918 2918 2918 2912 2909 2905 2904 2902 2899 2892 2886 2884 2884 2884 2884 2884 2883 2880 2870 2836 2790 2659 0 0 0 0 0 0 1180 1178 1178 1119 1119 1119 1121 1121 1124 1124 1123 1123 1123 1110 1109 1098 1090 1082 1070 1046 1046 1046 1046 1046 1028 0 0 948 948 948 959 965 965 965 947 928 928 928 941 941 0 0 0 0 0 0 0 0 437 437 445 449 449 0 0 0 0 0 0 0 0 0 0 0 0 0 0 0 0 0 0 0 0 0 0 0 0 0 0 0 0 0 0 0 0 1087 1087 1087 0 0 0 0 0 0 0 0 0 0 0 0 0 0 0 0 0 0 0 0 0 0 969 971 974 974 971 0 0 0 0 0 0 0 0 0 0 0 0 0 0 0 457 457 457 459 459 480 481 484 0 0 0 0 0 941 940 891 891 891 920 936 936 936 928 922 915 0 0 0 0 0 0 0 1401 1401 1393 1393 1393 1395 1397 1410 1415 1423 1432 1443 1469 1469 1469 1468 1463 1463 1463 1456 1452 1451 1427 1398 1362 1330 1326 1306 1286 1255 0 0 0 0 0 0 0 0 0 0 0 0 0 0 0 0 0 0 0 463 473 476 488 495 495 495 490 489 486 482 470 470 470 476 476 476 466 461 445 427 421 417 411 407 403 400 398 395 395 395 395
663 663 0 0 0 788 810 828 843 863 883 887 907 930 954 975 1000 1028 1056 1081 1106 1132 1147 1159 1165 1176 1190 1200 1210 1226 1230 1239 1246 1262 1273 1286 1296 1305 1309 1317 1323 1328 1331 1334 1347 1360 1371 1380 1387 1395 1403 1412 1420 1424 1433 1441 1447 1454 1461 1468 1474 1479 1485 1491 1496 1500 1501 1506 1510 1515 1519 1522 1526 1532 1538 1541 1545 1551 1556 1562 1563 1563 1566 1566 1567 1574 1578 1584 1584 1584 1582 1572 1571 1566 1554 0 0 0 0 0 0 0 0 0 1329 1343 1354 1355 1356 1361 1367 1385 1403 0 0 0 0 0 0 0 0 0 0 0 0 0 0 0 0 0 0 0 0 0 0 0 0 0 0 0 0 0 0 0 0 0 0 0 0 0 0 1711 1711 1711 1722 1730 1730 1730 1730 1730 1730 1731 1732 1734 1736 1736 1736 1737 1738 1739 1739 1740 1740 1741 1742 1743 1743 1744 1744 1745 1746 1747 1747 1748 1749 1750 1751 1753 1754 1755 1757 1758 1759 1760 1761 1762 1763 1765 1767 1768 1769 1770 1772 1773 1774 1775 1777 1778 1780 1781 1782 1783 1785 1787 1788 1790 1792 1794 1796 1797 1799 1801 1802 1803 1804 1806 1806 1806 1807 1807 1807 1808 1808 1809 1810 1811 1811 1812 1812 1815 1816 1816 1816 1817 1820 1823 1826 1829 1829 1833 1836 1840 1845 1848 1849 1853 1859 1863 1864 1864 1868 1875 1878 1885 1900 1907 1907 0 0 0 0 0 0 0 0 0 2518 2533 2541 2541 2542 2547 2548 2551 2564 2575 2580 2585 2585 2589 2589 2593 2607 2627 2653 2655 2659 2666 2679 2693 2706 2717 2723 2727 2729 2729 2731 2731 2739 2751 2772 2784 2794 2806 2814 2821 2826 2833 2833 2833 2834 2833 2833 2833 2834 2835 2838 2839 2839 2839 2837 2825 2818 2813 2810 2809 2810 2810 2814 2822 2831 2837 2842 2848 2849 2850 2855 2860 2861 2867 2868 2868 2868 2861 2861 2861 2877 2892 2895 2904 2906 2907 2907 2906 2906 2907 2907 2911 2915 2915 2915 2914 2912 2909 2905 2904 2902 2899 2891 2881 2881 2881 2881 2882 2882 2881 2880 2870 2828 2707 0 0 0 0 0 0 1180 1180 1178 1178 1119 1119 1119 1128 1141 1147 1147 1147 1132 1123 1122 1120 1110 1109 1109 1075 1046 1046 1045 1040 1040 0 0 0 903 903 943 959 959 959 935 914 914 914 927 941 0 0 0 0 0 0 0 0 0 440 450 450 453 460 0 0 0 0 0 0 0 0 0 0 0 0 0 0 0 0 0 0 0 0 0 0 0 0 0 0 0 0 0 0 0 1060 1060 1060 1060 1071 0 0 0 0 0 0 0 0 0 0 0 0 0 0 0 0 0 0 0 0 0 965 965 976 959 943 0 0 0 0 0 0 0 0 0 0 0 0 0 0 0 452 452 452 464 474 482 484 484 0 0 0 0 949 949 949 916 916 912 905 905 912 912 913 919 0 0 0 0 0 0 0 1401 1401 1401 1389 1389 1389 1389 1397 1410 1415 1423 1432 1443 1469 1469 1469 1468 1464 1464 1464 1460 1452 1451 1427 1398 1369 1366 1337 1315 1294 1277 0 0 0 0 0 0 0 0 0 0 0 0 0 0 0 0 0 0 0 437 440 447 462 490 490 490 490 490 489 489 475 475 475 475 475 466 455 450 435 426 421 417 410 407 403 400 398 395 395 394 394
668 668 0 0 0 798 818 833 849 870 890 893 912 931 955 976 1001 1029 1056 1081 1105 1127 1145 1160 1165 1176 1190 1200 1210 1226 1238 1246 1254 1263 1274 1300 1311 1320 1323 1333 1341 1348 1356 1360 1365 1372 1378 1385 1392 1399 1406 1412 1420 1428 1433 1439 1445 1451 1459 1465 1472 1477 1484 1489 1494 1497 1500 1503 1508 1511 1514 1517 1522 1526 1532 1538 1542 1545 1550 1554 1555 1555 1557 1557 1563 1572 1578 1581 1581 1581 1576 1571 1571 1565 0 0 0 0 0 0 0 0 0 1277 1301 1320 1330 1330 1332 1334 1334 1347 1375 1391 1404 1406 1407 1410 1416 1420 1421 1423 1424 1427 1462 1473 1474 1474 0 0 0 0 0 0 0 0 0 0 0 0 0 0 0 0 0 0 0 0 0 0 1677 1702 1707 1713 1720 1727 1727 1727 1727 1727 1728 1730 1732 1732 1733 1735 1736 1737 1738 1739 1739 1740 1740 1741 1743 1744 1744 1745 1746 1746 1746 1747 1749 1749 1750 1751 1753 1755 1756 1756 1757 1758 1759 1760 1761 1763 1765 1766 1767 1769 1770 1771 1773 1774 1775 1777 1778 1780 1781 1782 1783 1785 1787 1788 1789 1790 1792 1795 1796 1798 1799 1801 1802 1803 1804 1805 1805 1806 1806 1806 1807 1807 1807 1808 1808 1809 1809 1810 1811 1812 1813 1813 1814 1816 1820 1823 1826 1829 1829 1833 1836 1840 1845 1849 1853 1858 1865 1870 1871 1871 1872 1878 1892 1905 1913 1913 1913 0 0 0 0 0 0 0 0 0 2521 2543 2548 2548 2548 2548 2548 2551 2564 2574 2580 2585 2585 2589 2589 2593 2608 2633 2648 2650 2655 2655 2663 2677 2694 2706 2713 2715 2725 2729 2729 2731 2741 2762 2779 2793 2804 2813 2827 2833 2837 2837 2837 2835 2834 2833 2833 2833 2834 2835 2835 2837 2838 2839 2839 2839 2832 2824 2819 2817 2817 2817 2827 2832 2834 2836 2837 2838 2844 2846 2852 2860 2861 2867 2867 2867 2853 2853 2853 2861 2877 2892 2893 2904 2906 2907 2907 2906 2906 2907 2907 2911 2916 2916 2916 2910 2904 2901 2894 2894 2893 2888 2882 2878 2878 2878 2878 2878 2878 2874 2874 2848 2788 2619 0 0 0 0 0 0 1182 1182 1180 1180 1134 1134 1134 1148 1163 1163 1163 1148 1132 1109 1109 1109 1111 1111 1111 1075 1045 1030 1026 0 0 0 0 903 903 903 941 948 948 948 916 898 898 898 919 919 0 0 0 0 0 0 0 0 0 0 453 453 456 0 0 0 0 0 0 0 0 0 0 0 0 0 0 0 0 0 0 0 0 0 0 0 0 0 0 0 0 0 0 0 0 1034 1036 1043 1044 1050 0 0 0 0 0 0 0 0 0 0 0 0 0 0 0 0 0 0 0 0 0 982 982 943 926 924 0 0 0 0 0 0 0 578 578 589 0 0 0 0 0 452 452 452 469 474 482 484 484 0 0 0 0 949 949 949 941 920 918 918 911 905 905 905 918 0 0 0 0 0 0 0 1401 1401 1401 1386 1385 1385 1386 1394 1400 1415 1423 1424 1435 1469 1469 1469 1468 1464 1464 1464 1460 1452 1451 1425 1398 1369 1366 1345 1330 1302 1277 0 0 0 0 0 0 0 0 0 0 0 0 0 0 0 0 0 0 437 437 440 447 462 480 480 483 487 489 489 489 475 475 465 465 465 456 442 434 432 424 421 415 410 407 403 400 397 395 394 394 394
672 672 0 0 0 807 828 841 851 877 899 901 922 937 956 976 1001 1029 1056 1081 1105 1124 1144 1159 1165 1180 1195 1207 1223 1235 1247 1258 1267 1277 1288 1301 1322 1332 1340 1343 1352 1360 1364 1368 1373 1379 1385 1391 1398 1404 1410 1416 1422 1429 1433 1439 1444 1450 1457 1465 1471 1476 1480 1484 1490 1495 1498 1502 1506 1508 1510 1513 1516 1523 1529 1534 1537 1539 1543 1547 1551 1551 1551 1556 1562 1568 1576 1576 1576 1573 1572 1571 1561 0 0 0 0 0 0 0 0 0 1235 1254 1277 1294 1308 1317 1319 1321 1321 1322 1335 1352 1369 1372 1374 1379 1388 1395 1399 1399 1407 1425 1447 1451 1452 1457 1452 1452 1457 1458 0 0 0 0 0 0 0 0 0 0 0 0 0 0 0 0 0 0 1666 1702 1711 1713 1719 1723 1724 1724 1724 1724 1727 1729 1729 1731 1732 1734 1736 1737 1738 1739 1739 1741 1741 1743 1744 1745 1745 1747 1747 1747 1748 1749 1749 1750 1751 1752 1754 1756 1757 1757 1758 1759 1760 1762 1763 1764 1765 1767 1768 1770 1770 1772 1774 1775 1776 1778 1780 1780 1782 1783 1784 1786 1788 1789 1790 1791 1793 1795 1797 1800 1800 1801 1802 1803 1804 1805 1805 1806 1806 1806 1806 1806 1807 1807 1807 1809 1809 1809 1810 1810 1811 1813 1814 1816 1820 1823 1826 1829 1831 1834 1838 1841 1846 1853 1857 1861 1872 1876 1879 1880 1881 1889 1909 1919 1919 1919 0 0 0 0 0 0 0 0 2474 2501 2527 2551 2551 2551 2548 2548 2548 2549 2563 2574 2576 2578 2578 2582 2589 2593 2617 2643 2648 2648 2654 2654 2654 2666 2685 2694 2702 2715 2725 2731 2737 2743 2757 2771 2783 2795 2809 2828 2845 2851 2851 2851 2845 2838 2834 2834 2834 2838 2838 2838 2838 2838 2838 2839 2839 2839 2832 2829 2824 2823 2823 2824 2827 2832 2832 2832 2833 2833 2836 2845 2851 2863 2881 2881 2881 2864 2850 2850 2850 2861 2876 2891 2891 2898 2901 2903 2904 2906 2906 2906 2908 2912 2912 2912 2912 2906 2902 2899 2893 2889 2887 2883 2874 2873 2873 2872 2872 2872 2866 2865 2857 2824 2737 2561 0 0 0 0 0 0 1180 1174 1179 1179 1168 1166 1168 1168 1168 1168 1168 1148 1107 1107 1107 1117 1117 1117 1111 1075 1031 999 980 962 947 935 923 903 903 903 941 943 943 943 914 891 891 891 891 0 0 0 0 0 0 0 0 0 0 0 0 0 0 0 0 0 0 0 0 0 0 0 0 0 412 413 418 0 0 0 0 0 0 0 0 0 0 0 0 0 0 0 0 0 0 0 1024 1033 1033 0 0 0 0 0 0 0 0 0 0 0 0 0 0 0 0 0 0 0 0 0 984 984 984 943 924 914 0 0 0 0 0 0 578 578 578 600 600 0 0 0 0 455 455 455 469 480 483 484 0 0 0 0 0 0 949 949 941 938 931 921 911 905 905 905 916 0 0 0 0 0 0 0 1375 1375 1375 1375 1374 1374 1375 1388 1400 1415 1416 1419 1435 1460 1466 1466 1466 1464 1460 1452 1449 1442 1426 1396 1380 1369 1366 1345 1330 1302 0 0 0 0 0 0 0 0 0 0 0 0 0 0 492 488 485 478 476 472 447 447 447 462 468 468 469 469 470 470 469 475 470 463 461 461 444 431 431 430 424 416 411 408 403 400 397 396 395 394 394 394
673 673 0 0 0 812 835 846 864 889 914 933 936 952 968 986 1008 1036 1063 1086 1105 1124 1141 1160 1176 1180 1198 1213 1228 1243 1257 1268 1277 1288 1299 1311 1322 1337 1344 1348 1352 1360 1366 1372 1378 1383 1389 1394 1403 1409 1414 1419 1423 1429 1433 1439 1443 1449 1456 1464 1470 1474 1477 1480 1485 1490 1495 1499 1502 1505 1506 1509 1513 1518 1525 1529 1530 1532 1535 1540 1546 1549 1551 1554 1561 1566 1566 1566 1564 1564 1564 1563 0 0 0 0 0 0 0 0 0 1208 1235 1254 1263 1276 1290 1305 1314 1314 1316 1317 1321 1332 1349 1353 1355 1358 1368 1377 1383 1384 1400 1421 1430 1433 1438 1438 1433 1433 1432 1432 1432 1435 1435 1435 1435 1435 1451 1466 1476 1489 1499 1507 1514 1527 1546 0 0 0 1661 1700 1713 1714 1719 1720 1721 1723 1723 1724 1726 1726 1728 1729 1731 1734 1736 1736 1738 1739 1740 1742 1743 1744 1745 1746 1746 1748 1748 1748 1748 1750 1750 1751 1752 1753 1755 1757 1758 1758 1760 1761 1762 1763 1764 1765 1766 1768 1769 1770 1771 1773 1774 1776 1777 1779 1781 1782 1783 1784 1785 1787 1788 1790 1792 1792 1794 1796 1799 1800 1801 1802 1802 1803 1804 1805 1805 1806 1806 1806 1806 1806 1807 1807 1807 1808 1809 1809 1809 1810 1811 1813 1814 1816 1820 1825 1829 1832 1834 1834 1839 1843 1851 1858 1861 1866 1873 1877 1881 1885 1888 1903 1912 1912 1912 0 0 0 0 0 0 0 0 2470 2489 2509 2541 2556 2556 2556 2548 2547 2547 2547 2559 2573 2576 2578 2582 2593 2601 2611 2636 2655 2655 2655 2654 2654 2654 2666 2685 2694 2702 2715 2725 2737 2745 2753 2768 2781 2790 2800 2812 2829 2845 2856 2856 2856 2852 2844 2836 2836 2836 2839 2839 2839 2835 2830 2830 2830 2832 2832 2832 2829 2824 2823 2823 2824 2827 2832 2832 2832 2830 2830 2830 2842 2851 2865 2883 2883 2883 2863 2850 2850 2850 2862 2877 2879 2886 2890 2893 2900 2903 2905 2906 2906 2908 2912 2912 2912 2906 2904 2901 2897 2892 2886 2885 2881 2873 2871 2871 2868 2868 2867 2861 2849 2815 2741 2601 0 0 0 0 0 0 0 1180 1174 1179 1179 1168 1166 1168 1168 1168 1168 1168 1140 1080 1080 1080 1108 1111 1111 1111 0 1022 991 980 962 943 935 923 920 920 920 941 941 941 940 912 891 891 887 0 0 0 0 0 0 0 0 0 0 0 0 0 0 0 0 0 0 0 0 0 0 0 0 0 430 430 429 429 429 0 0 0 0 0 0 0 0 0 0 0 0 0 0 0 0 0 0 0 0 0 0 0 0 0 0 0 0 0 0 0 0 0 0 0 0 0 0 0 0 0 985 1014 1014 1014 983 946 919 0 0 0 0 0 0 593 593 593 593 593 0 0 0 0 482 479 479 482 484 485 487 0 0 0 0 0 0 941 941 941 938 935 923 911 905 905 905 910 0 0 0 0 0 0 1359 1359 1359 1341 1319 0 0 0 0 0 1389 1395 1415 1428 1443 1451 1452 1452 1451 1447 1440 1433 1426 1407 1379 1364 1360 1355 1345 1330 0 0 0 0 0 0 0 0 0 0 0 0 0 471 471 485 485 485 478 476 472 466 465 465 465 466 466 467 467 467 467 467 466 465 463 460 455 435 430 429 427 419 413 409 406 402 398 397 396 395 394 393 393
678 678 0 0 0 818 844 863 883 906 930 948 952 968 981 997 1016 1042 1068 1088 1106 1124 1141 1160 1179 1183 1202 1219 1236 1253 1264 1274 1284 1296 1308 1322 1329 1337 1344 1349 1353 1360 1366 1372 1378 1383 1389 1394 1403 1409 1414 1419 1423 1429 1433 1439 1443 1449 1456 1462 1468 1471 1473 1476 1481 1485 1490 1494 1499 1500 1501 1504 1507 1512 1516 1519 1521 1524 1531 1539 1546 1549 1550 1553 1553 1553 1553 1552 1552 1550 1550 1549 0 0 0 0 0 0 0 0 0 1220 1235 1254 1263 1276 1288 1296 1307 1311 1314 1316 1321 1332 1344 1352 1352 1353 1360 1369 1379 1383 1392 1410 1410 1410 1410 1410 1419 1419 1419 1419 1419 1416 1416 1419 1420 1426 1437 1448 1459 1470 1480 1488 1490 1494 1520 1542 0 0 1661 1702 1713 1716 1719 1720 1721 1721 1722 1724 1724 1725 1725 1727 1728 1732 1734 1736 1738 1739 1741 1744 1745 1746 1746 1747 1747 1748 1749 1749 1750 1750 1751 1752 1753 1755 1756 1757 1758 1759 1761 1761 1763 1763 1765 1766 1767 1768 1770 1771 1772 1774 1775 1778 1779 1780 1781 1782 1783 1785 1786 1788 1789 1791 1792 1793 1795 1797 1800 1801 1802 1803 1803 1804 1804 1805 1807 1807 1807 1807 1807 1807 1807 1807 1807 1808 1808 1809 1809 1810 1811 1813 1815 1819 1824 1828 1831 1834 1836 1838 1841 1846 1854 1860 1864 1869 1874 1877 1881 1887 1905 1914 1924 1924 1924 0 0 0 0 0 0 0 0 2470 2489 2509 2552 2556 2556 2556 2548 2538 2538 2538 2547 2561 2569 2575 2582 2593 2601 2611 2636 2655 2655 2655 2654 2654 2654 2666 2685 2694 2702 2723 2737 2745 2748 2767 2778 2787 2796 2803 2813 2829 2845 2856 2860 2860 2860 2852 2843 2843 2843 2842 2842 2842 2835 2830 2830 2830 2832 2832 2832 2829 2824 2823 2823 2824 2827 2829 2829 2829 2826 2826 2826 2838 2851 2865 2883 2883 2883 2862 2858 2858 2858 2868 2877 2877 2877 2881 2892 2900 2902 2904 2905 2906 2908 2908 2908 2907 2903 2902 2901 2895 2888 2883 2882 2877 2872 2870 2870 2866 2866 2866 2855 2841 2798 2671 0 0 0 0 0 0 0 0 1142 1142 1142 1166 1166 1166 1168 1168 1168 0 0 0 1072 1072 1072 1103 1105 1105 1105 0 0 987 972 962 946 943 935 934 934 934 934 940 940 940 904 0 0 0 0 0 0 0 0 0 0 0 0 0 0 0 0 0 0 0 0 0 0 0 0 0 0 0 0 431 436 436 436 450 0 0 0 0 0 0 0 0 0 0 0 0 0 0 0 0 0 0 0 0 0 0 0 0 0 0 0 0 0 0 0 0 0 0 0 0 0 0 0 0 0 985 1014 1014 1014 1010 0 0 0 0 0 0 0 0 0 578 583 583 0 0 0 0 0 482 479 479 482 485 485 0 0 0 0 0 0 0 905 924 934 934 934 925 912 905 897 897 897 0 0 0 0 0 1306 1327 1327 1327 1308 1268 0 0 0 0 0 0 1387 1394 1407 1414 1416 1419 1419 1426 1426 1426 1423 1413 1392 1364 1347 1345 1337 1325 0 0 0 0 0 0 0 0 0 0 0 0 0 471 471 471 474 478 478 478 476 475 475 467 466 465 465 465 465 465 463 461 460 460 460 460 456 440 431 426 423 420 415 411 408 405 399 397 397 396 394 394 393 393
685 685 0 0 791 824 854 878 903 922 942 960 964 981 995 1007 1023 1045 1069 1089 1107 1124 1141 1160 1185 1189 1213 1230 1246 1260 1272 1282 1291 1300 1313 1324 1333 1338 1344 1349 1353 1359 1366 1372 1378 1383 1389 1394 1403 1409 1414 1419 1423 1429 1433 1439 1443 1447 1451 1459 1463 1466 1471 1475 1478 1482 1485 1489 1492 1492 1492 1494 1497 1499 1500 1503 1509 1517 1529 1538 1546 1549 1549 1552 1552 1552 1539 1539 1539 1539 1539 1532 0 0 0 0 0 0 0 0 0 1239 1248 1257 1263 1276 1288 1296 1304 1309 1314 1316 1321 1332 1344 1351 1352 1353 1354 1365 1375 1381 1388 1388 1388 1387 1387 1387 1404 1404 1404 1407 1407 1408 1408 1410 1413 1422 1433 1442 1452 1460 1469 1469 1472 1474 1480 1512 0 0 1661 1702 1713 1716 1719 1720 1720 1721 1721 1722 1723 1724 1725 1727 1728 1730 1733 1736 1738 1741 1742 1744 1746 1746 1748 1748 1749 1749 1749 1749 1751 1751 1753 1753 1755 1756 1757 1758 1759 1760 1762 1762 1763 1765 1765 1767 1767 1769 1771 1772 1774 1775 1777 1778 1779 1781 1782 1783 1785 1785 1787 1789 1791 1792 1793 1794 1796 1798 1801 1802 1804 1804 1805 1806 1807 1808 1809 1809 1809 1808 1808 1807 1807 1807 1807 1808 1808 1809 1809 1810 1811 1814 1816 1820 1824 1828 1832 1836 1837 1840 1845 1849 1855 1860 1865 1870 1875 1878 1884 1906 1922 1925 1925 1925 0 0 0 0 0 0 0 0 2450 2470 2489 2509 2552 2556 2556 2556 2548 2538 2538 2538 2547 2554 2559 2565 2571 2585 2601 2611 2636 2655 2655 2658 2658 2658 2672 2683 2688 2698 2713 2730 2737 2745 2748 2767 2778 2787 2796 2803 2813 2829 2842 2855 2861 2862 2862 2862 2861 2853 2853 2852 2847 2843 2835 2830 2830 2830 2831 2831 2831 2821 2821 2821 2823 2823 2827 2829 2829 2829 2822 2822 2822 2834 2848 2865 2883 2883 2883 2858 2858 2858 2858 2868 2872 2872 2876 2876 2886 2892 2901 2901 2903 2903 2903 2900 2900 2894 2894 2894 2893 2890 2885 2883 2879 2874 2870 2867 2867 2866 2865 2862 2852 2835 2777 2615 0 0 0 0 0 0 1162 1147 1126 1125 1125 1125 1153 1153 1153 1133 1116 0 0 0 1053 1053 1062 1103 1103 1103 1088 0 0 979 971 948 946 944 931 931 929 929 929 938 938 938 0 0 0 0 0 0 0 0 0 0 0 0 0 0 0 0 0 542 0 0 0 0 0 0 0 0 0 0 0 0 437 437 437 0 0 0 0 0 0 0 0 0 0 0 0 0 0 0 0 0 0 0 0 0 0 0 0 0 0 0 0 0 0 0 0 0 0 0 0 0 0 0 0 0 946 988 1014 1014 1014 1010 0 0 0 0 0 0 0 0 0 0 0 0 0 0 0 0 0 475 475 479 482 485 0 0 0 0 0 0 0 0 0 910 926 926 926 925 917 908 897 897 0 0 0 0 0 0 1304 1313 1313 1313 1284 1268 1238 0 0 0 0 0 0 0 0 0 1389 1390 1398 1406 1413 1413 1413 1409 1376 1341 1338 1326 1321 0 0 0 0 0 0 0 0 0 0 0 0 0 0 471 471 470 470 469 469 469 473 473 473 467 466 463 463 463 463 463 460 460 458 457 457 451 441 430 424 417 414 413 412 408 406 402 399 397 396 395 394 393 393 393
696 696 0 0 795 831 862 890 910 933 953 971 990 993 1008 1022 1036 1058 1080 1097 1114 1128 1146 1170 1196 1216 1221 1235 1253 1266 1278 1286 1294 1303 1314 1324 1333 1338 1344 1348 1353 1357 1364 1370 1375 1381 1386 1393 1400 1407 1414 1418 1422 1426 1430 1433 1437 1441 1446 1451 1458 1463 1468 1472 1475 1475 1478 1483 1483 1483 1484 1484 1485 1487 1490 1495 1504 1517 1528 1538 1544 1546 1546 1546 1543 1538 1533 1532 1527 1526 1525 0 0 0 0 0 0 0 0 0 1240 1256 1256 1257 1271 1280 1288 1296 1304 1309 1315 1322 1329 1335 1344 1351 1352 1352 1353 1362 1373 1380 1385 1386 1386 1387 1387 1387 1394 1397 1398 1399 1399 1401 1405 1408 1413 1420 1429 1436 1445 1452 1456 1462 1466 1467 1480 1512 0 0 1673 1700 1711 1716 1719 1720 1720 1720 1721 1722 1723 1724 1725 1727 1728 1730 1733 1736 1738 1741 1743 1745 1748 1748 1749 1749 1750 1750 1751 1751 1751 1752 1753 1755 1756 1757 1757 1758 1759 1760 1762 1763 1764 1765 1767 1767 1768 1770 1771 1772 1775 1776 1778 1779 1780 1782 1783 1784 1785 1787 1788 1790 1791 1793 1794 1795 1797 1799 1802 1803 1804 1805 1807 1807 1808 1809 1809 1809 1809 1809 1808 1807 1807 1807 1807 1808 1808 1809 1809 1810 1811 1814 1816 1820 1824 1828 1832 1837 1840 1843 1848 1852 1856 1861 1865 1870 1875 1886 1900 1923 1925 1925 1925 0 0 0 0 0 0 0 0 0 2450 2460 2481 2508 2552 2552 2552 2532 2528 2528 2528 2538 2547 2554 2559 2563 2566 2575 2588 2599 2611 2622 2645 2650 2654 2660 2672 2683 2705 2705 2713 2730 2737 2745 2748 2767 2778 2787 2796 2803 2813 2819 2833 2845 2854 2862 2862 2862 2861 2861 2861 2861 2854 2843 2842 2842 2840 2840 2835 2834 2830 2816 2816 2816 2820 2823 2830 2830 2830 2829 2822 2822 2822 2834 2841 2854 2876 2876 2876 2850 2850 2850 2858 2866 2866 2866 2866 2866 2869 2876 2884 2890 2896 2896 2896 2896 2891 2889 2888 2883 2878 2875 2871 2870 2869 2868 2868 2867 2866 2865 2864 2853 2827 2797 2695 2503 0 0 0 0 0 1168 1150 1143 1113 1112 1109 1109 1109 1109 1116 1116 1109 0 0 1029 1028 1028 1029 1064 1085 1085 1085 0 0 971 967 948 946 946 932 932 932 922 922 913 907 907 0 0 0 0 0 0 0 0 0 0 0 0 0 0 0 0 519 519 0 0 0 0 0 0 0 0 0 0 0 0 0 0 0 0 0 0 0 0 0 0 0 0 0 0 0 0 0 0 0 0 0 0 0 0 0 0 0 0 0 0 0 0 0 0 0 0 0 0 0 0 0 0 0 0 977 988 1000 1010 1010 1010 0 0 0 0 0 0 0 0 0 0 0 0 0 0 0 0 0 459 462 470 470 470 0 0 0 0 0 0 0 0 0 0 0 924 924 924 917 912 897 897 0 0 0 0 0 0 1298 1303 1303 1303 1283 1256 1238 0 0 0 0 0 0 0 0 0 0 1374 1382 1391 1400 1400 1400 1393 1366 1339 1329 0 0 0 0 0 0 0 0 0 0 0 0 0 0 0 0 504 502 487 474 448 448 448 469 469 469 467 466 463 463 463 463 463 455 451 451 450 448 441 429 420 412 412 411 409 408 406 403 400 397 396 395 393 393 393 392 392
696 696 0 0 796 831 862 890 919 941 958 976 997 1000 1018 1035 1054 1072 1090 1106 1122 1138 1151 1170 1196 1216 1221 1238 1253 1266 1278 1286 1294 1303 1314 1324 1333 1338 1343 1348 1352 1357 1364 1368 1372 1378 1385 1392 1398 1406 1413 1417 1420 1424 1428 1430 1434 1438 1441 1446 1452 1458 1463 1467 1467 1467 1469 1470 1471 1471 1474 1476 1478 1482 1485 1492 1501 1516 1527 1536 1539 1539 1539 1535 1529 1524 1523 1521 1521 1499 0 0 0 0 0 0 0 0 0 0 1256 1258 1260 1265 1272 1283 1295 1301 1304 1309 1315 1322 1329 1337 1348 1350 1351 1352 1353 1362 1372 1377 1383 1386 1386 1387 1387 1387 1394 1397 1397 1397 1397 1398 1405 1408 1413 1420 1429 1432 1442 1452 1456 1462 1466 1467 1480 1512 0 0 1681 1700 1709 1716 1719 1720 1720 1720 1720 1721 1723 1724 1725 1727 1728 1730 1733 1736 1738 1741 1743 1746 1748 1749 1750 1750 1751 1751 1752 1752 1752 1753 1754 1756 1756 1757 1758 1759 1760 1761 1762 1763 1764 1765 1767 1768 1769 1770 1771 1773 1775 1777 1778 1779 1781 1782 1783 1784 1786 1788 1789 1791 1792 1793 1795 1796 1797 1800 1802 1803 1805 1806 1808 1808 1809 1809 1810 1810 1810 1809 1809 1807 1807 1807 1807 1808 1808 1808 1808 1810 1811 1814 1816 1820 1824 1827 1832 1837 1842 1847 1853 1857 1860 1863 1866 1871 1882 1898 1920 1939 1939 1939 0 0 0 0 0 0 0 0 0 2449 2455 2460 2468 2504 2528 2528 2528 2521 2521 2521 2528 2539 2548 2554 2559 2561 2564 2564 2569 2577 2586 2595 2615 2633 2654 2660 2672 2683 2705 2705 2713 2724 2724 2727 2727 2741 2763 2771 2779 2791 2796 2807 2820 2829 2841 2850 2861 2861 2861 2861 2861 2861 2858 2844 2842 2842 2840 2840 2834 2833 2828 2815 2815 2815 2819 2823 2830 2830 2830 2829 2822 2822 2822 2832 2836 2839 2872 2872 2872 2840 2840 2840 2845 2846 2846 2846 2850 2850 2852 2862 2872 2880 2890 2893 2893 2893 2890 2886 2881 2874 2868 2866 2864 2859 2859 2859 2859 2862 2864 2864 2864 2848 2793 2732 2605 0 0 0 0 0 1180 1162 1146 1142 1113 1097 1097 1097 1095 1108 1108 1095 1092 0 1025 1024 1024 1024 1024 1025 1037 1046 1046 1046 0 967 957 948 948 948 933 933 933 922 922 913 906 906 0 0 0 0 0 0 0 0 0 0 0 0 0 0 0 0 519 519 0 0 0 0 0 0 0 0 0 0 0 0 0 0 0 0 0 0 0 0 0 0 0 0 0 0 0 0 0 0 0 0 0 0 0 0 0 0 0 0 0 0 0 0 0 0 0 0 0 0 0 0 0 0 0 990 992 995 1000 1000 1000 0 0 0 0 0 0 0 0 0 0 0 0 0 0 0 0 0 0 459 462 470 470 470 0 0 0 0 0 0 0 0 0 0 0 0 906 912 912 912 912 0 0 0 0 0 0 1239 1256 1283 1283 1283 1268 1255 1242 0 0 0 0 0 0 0 0 0 0 0 1364 1369 0 0 0 0 0 0 0 0 0 0 0 0 0 0 0 0 0 0 0 0 0 0 0 504 502 487 473 448 448 448 469 469 469 467 466 461 461 461 461 461 452 445 444 444 443 433 422 416 412 409 407 407 405 403 400 397 395 394 393 393 392 392 392 392
696 696 0 0 796 831 862 890 919 942 959 978 998 1002 1021 1041 1059 1075 1093 1111 1128 1141 1151 1170 1196 1216 1223 1238 1253 1266 1278 1286 1294 1303 1314 1324 1333 1338 1342 1347 1352 1357 1363 1367 1368 1375 1384 1390 1397 1405 1412 1417 1420 1423 1426 1429 1433 1435 1438 1442 1447 1451 1454 1456 1458 1461 1463 1465 1467 1468 1469 1473 1475 1480 1483 1488 1498 1508 1516 1519 1520 1520 1519 1519 1515 1511 1506 1505 1504 1498 0 0 0 0 0 0 0 0 0 0 1260 1260 1260 1265 1272 1286 1298 1305 1308 1310 1315 1322 1329 1337 1348 1349 1351 1352 1353 1357 1365 1373 1381 1385 1389 1392 1392 1393 1393 1395 1396 1396 1396 1398 1405 1409 1415 1420 1429 1432 1442 1452 1456 1462 1466 1470 1490 1525 0 0 1682 1700 1709 1715 1718 1719 1719 1720 1720 1721 1722 1724 1726 1728 1730 1731 1733 1736 1739 1741 1743 1746 1748 1750 1750 1751 1752 1752 1752 1753 1753 1754 1754 1756 1756 1757 1758 1759 1760 1761 1762 1763 1764 1765 1767 1768 1769 1770 1772 1773 1775 1777 1779 1780 1782 1783 1784 1786 1786 1788 1789 1791 1792 1794 1795 1797 1798 1800 1802 1804 1805 1807 1809 1809 1810 1810 1811 1811 1811 1810 1809 1808 1808 1808 1808 1808 1808 1808 1809 1810 1811 1813 1813 1815 1821 1827 1833 1837 1844 1852 1859 1864 1867 1867 1867 1876 1887 1906 1930 1937 1937 1937 0 0 0 0 0 0 0 0 2443 2460 2463 2464 2468 2490 2516 2517 2517 2521 2521 2521 2538 2552 2559 2561 2561 2561 2561 2562 2564 2574 2577 2583 2597 2620 2643 2660 2670 2680 2705 2705 2705 2705 2701 2701 2701 2727 2745 2749 2751 2755 2764 2780 2800 2817 2826 2831 2839 2847 2859 2861 2861 2861 2858 2844 2842 2842 2840 2840 2834 2831 2818 2813 2813 2813 2819 2823 2830 2830 2830 2829 2821 2821 2821 2823 2823 2823 2818 2818 2818 2819 2822 2822 2825 2825 2825 2826 2828 2830 2840 2851 2865 2874 2883 2893 2893 2893 2889 2883 2872 2864 2862 2861 2855 2849 2849 2849 2849 2854 2862 2862 2862 2848 2779 2691 2503 0 0 0 0 0 1167 1157 1139 1119 1105 1104 1104 1105 1095 1108 1108 1095 1092 0 1024 1021 1021 1020 1020 1020 1021 1040 1040 1040 981 961 946 931 931 931 952 952 952 946 928 913 903 903 0 0 0 0 0 0 0 0 0 0 0 0 0 0 0 0 512 512 0 0 0 0 0 0 0 0 0 0 0 0 0 0 0 0 0 0 0 0 0 0 0 0 0 0 0 0 0 0 0 0 0 0 0 0 0 0 0 0 0 0 0 0 0 0 0 0 0 0 0 0 0 0 0 1015 1015 1004 1000 997 0 0 0 0 0 0 0 0 0 0 0 0 0 0 0 0 0 0 0 0 459 467 467 0 0 0 0 0 0 0 0 0 0 0 0 0 0 0 0 0 0 0 0 0 0 0 1200 1214 1230 1248 1258 1258 1258 1255 1242 0 0 0 0 0 0 0 0 0 0 0 0 0 0 0 0 0 0 0 0 0 0 0 0 0 0 0 0 0 0 0 0 0 0 0 0 504 502 487 473 448 448 448 468 468 468 467 463 459 458 457 454 449 442 442 440 440 440 428 418 414 411 405 403 402 400 399 397 396 395 394 393 392 391 391 390 390
696 696 726 0 0 825 857 888 919 943 960 978 998 1021 1024 1045 1061 1075 1093 1113 1130 1141 1151 1168 1194 1216 1223 1238 1252 1261 1266 1273 1285 1300 1311 1322 1331 1336 1341 1346 1351 1356 1361 1364 1367 1375 1383 1390 1396 1403 1410 1414 1418 1422 1426 1429 1432 1434 1437 1439 1443 1445 1448 1450 1453 1455 1457 1461 1463 1466 1468 1470 1474 1476 1479 1485 1492 1499 1504 1505 1507 1511 1511 1511 1507 1496 1494 1492 1489 1468 0 0 0 0 0 0 0 0 0 0 1262 1265 1265 1267 1276 1286 1299 1308 1310 1310 1314 1319 1328 1337 1348 1348 1348 1347 1347 1347 1352 1363 1374 1383 1388 1392 1392 1393 1393 1395 1396 1396 1396 1397 1410 1419 1423 1425 1430 1432 1442 1453 1463 1471 1476 1481 1502 1533 0 0 1686 1700 1709 1715 1718 1718 1719 1719 1720 1721 1722 1724 1726 1728 1730 1732 1734 1736 1739 1741 1743 1746 1748 1750 1751 1751 1752 1753 1753 1753 1753 1754 1755 1756 1756 1757 1758 1759 1760 1761 1762 1763 1764 1765 1767 1768 1769 1771 1772 1773 1775 1777 1779 1780 1782 1783 1784 1786 1787 1788 1790 1791 1792 1794 1796 1798 1799 1800 1803 1804 1806 1808 1809 1810 1810 1810 1811 1811 1811 1810 1809 1809 1808 1808 1808 1808 1808 1808 1809 1809 1810 1812 1813 1815 1821 1827 1833 1839 1847 1856 1867 1873 1873 1873 1874 1880 1888 1907 1930 1930 1930 0 0 0 0 0 0 0 0 0 2468 2468 2468 2469 2469 2475 2497 2508 2511 2514 2516 2522 2545 2558 2566 2566 2566 2561 2561 2561 2564 2573 2574 2579 2590 2606 2627 2642 2646 2649 2655 2664 2675 2675 2677 2677 2677 2707 2720 2720 2723 2723 2723 2739 2764 2793 2809 2809 2809 2811 2811 2820 2828 2841 2841 2841 2829 2828 2826 2826 2821 2816 2809 2806 2797 2797 2797 2807 2811 2818 2818 2818 2819 2819 2819 2819 2819 2811 2804 2802 2802 2802 2806 2806 2806 2806 2807 2810 2817 2819 2829 2845 2862 2873 2879 2889 2889 2889 2888 2875 2863 2854 2853 2852 2847 2838 2838 2838 2844 2854 2860 2860 2860 2839 2776 2565 0 0 0 0 0 1157 1157 1140 1139 1119 1101 1101 1101 1101 1101 1101 1098 1091 0 0 1018 1018 1013 1013 1013 1013 1013 1029 1029 1029 981 960 940 931 931 931 959 980 980 980 963 943 931 906 0 0 0 0 0 0 0 0 0 0 0 0 0 0 0 0 0 517 0 0 0 0 0 0 0 0 0 0 0 0 0 0 0 0 0 0 0 0 0 0 0 0 0 0 0 0 0 0 0 0 0 0 0 0 0 0 0 0 0 0 0 0 0 0 0 0 0 0 0 0 0 0 1031 1031 1031 1009 998 987 0 0 0 0 0 0 0 0 0 0 0 0 0 0 0 0 0 0 0 0 0 0 0 0 0 0 0 0 0 0 0 0 0 0 0 0 0 0 0 0 0 0 0 0 0 0 1186 1193 1198 1221 1244 1245 1245 1245 1242 0 0 0 0 0 0 0 0 0 0 0 0 0 0 0 0 0 0 0 0 0 0 0 0 0 0 0 0 0 0 0 0 0 0 0 0 499 490 475 475 471 468 468 468 468 468 467 463 456 454 449 447 438 438 438 438 438 430 421 416 414 408 403 402 398 397 396 395 394 394 392 391 391 390 390 389 389
697 697 726 750 0 0 854 887 915 943 964 982 1001 1024 1028 1048 1064 1080 1095 1113 1130 1141 1149 1159 1181 1208 1221 1231 1242 1247 1251 1257 1268 1288 1305 1317 1325 1329 1333 1339 1347 1351 1359 1362 1367 1375 1382 1389 1395 1401 1406 1411 1416 1422 1425 1428 1430 1433 1435 1437 1440 1444 1446 1449 1451 1453 1454 1457 1460 1463 1466 1470 1472 1474 1476 1479 1484 1491 1496 1499 1502 1504 1504 1504 1497 1490 1487 1485 1474 1461 0 0 0 0 0 0 0 0 0 1262 1276 1276 1286 1291 1293 1294 1302 1310 1311 1312 1314 1319 1328 1331 1338 1343 1345 1346 1347 1347 1352 1363 1372 1380 1387 1392 1393 1393 1394 1396 1397 1397 1399 1406 1418 1428 1432 1435 1438 1441 1448 1453 1463 1471 1481 1499 1531 0 0 1659 1690 1700 1709 1715 1717 1717 1718 1718 1719 1720 1722 1724 1726 1728 1731 1733 1735 1737 1739 1741 1743 1744 1747 1750 1751 1752 1752 1753 1753 1754 1754 1754 1755 1755 1756 1757 1758 1759 1760 1761 1762 1763 1764 1765 1767 1768 1769 1770 1772 1773 1775 1777 1779 1780 1781 1783 1785 1786 1788 1789 1790 1792 1793 1795 1796 1798 1800 1801 1803 1805 1806 1808 1809 1810 1811 1811 1811 1811 1811 1811 1809 1809 1808 1808 1808 1808 1808 1808 1808 1808 1810 1812 1813 1815 1821 1828 1836 1842 1851 1859 1867 1876 1878 1879 1880 1882 1891 1911 1932 1932 0 0 0 0 0 0 0 0 0 2462 2468 2468 2468 2469 2469 2474 2482 2495 2496 2497 2509 2522 2545 2558 2566 2566 2566 2561 2560 2560 2560 2565 2573 2578 2583 2594 2615 2638 2639 2642 2644 2644 2654 2654 2655 2657 2657 2674 2689 2689 2689 2677 2677 2677 2698 2737 2760 2760 2760 2744 2744 2744 2758 2758 2758 2751 2751 2751 2753 2765 2766 2766 2766 2749 2697 2696 2696 2697 2714 2743 2766 2782 2785 2792 2795 2796 2796 2796 2794 2793 2793 2794 2795 2795 2796 2797 2798 2804 2816 2819 2824 2835 2855 2873 2878 2886 2888 2888 2888 2867 2851 2843 2841 2839 2838 2837 2837 2837 2842 2853 2859 2859 2859 2830 0 0 0 0 0 0 0 1157 1157 1140 1139 1119 1110 1108 1108 1108 1108 1101 1089 1074 0 986 986 986 996 996 996 981 981 981 981 981 977 961 940 931 931 931 959 980 980 980 963 943 931 907 0 0 0 0 0 0 0 0 0 0 0 0 0 0 0 0 0 0 0 0 0 0 0 0 0 0 0 0 0 0 0 0 0 0 0 0 0 0 0 0 0 0 0 0 0 0 0 0 0 0 0 0 0 0 0 0 0 0 0 0 0 0 0 0 0 0 0 0 0 0 0 0 0 1031 1031 1009 998 0 0 0 0 0 0 0 0 0 0 0 0 0 0 0 0 0 0 0 0 0 0 0 0 0 0 0 0 0 0 0 0 0 0 0 0 0 0 0 0 0 0 0 0 0 0 0 1169 1183 1187 1195 1223 1228 1228 1228 1202 0 0 0 0 0 0 0 0 0 0 0 0 0 0 0 0 0 0 0 0 0 0 0 0 0 0 0 0 0 0 0 0 0 0 0 0 470 470 470 472 472 472 469 469 467 467 467 463 456 449 441 439 436 436 434 434 434 423 416 412 411 408 403 398 396 395 395 394 393 391 390 390 389 388 388 388 388
726 726 726 750 0 0 0 887 915 943 969 987 1008 1027 1030 1048 1066 1080 1095 1113 1130 1141 1147 1150 1164 1191 1209 1214 1227 1236 1243 1250 1259 1273 1291 1308 1316 1318 1321 1332 1341 1351 1354 1361 1367 1375 1382 1388 1394 1400 1405 1411 1416 1422 1425 1428 1430 1432 1434 1437 1440 1442 1445 1446 1449 1450 1452 1454 1458 1461 1463 1465 1466 1468 1469 1471 1476 1483 1491 1494 1497 1497 1497 1497 1489 1485 1483 1475 1465 0 0 0 0 0 0 0 0 0 0 1283 1295 1301 1305 1311 1314 1315 1318 1318 1318 1319 1319 1319 1328 1331 1338 1343 1345 1346 1347 1347 1352 1363 1372 1380 1387 1393 1394 1394 1396 1397 1397 1397 1400 1411 1421 1429 1436 1437 1438 1441 1448 1453 1463 1471 1481 1516 1549 0 0 1677 1690 1700 1709 1712 1713 1714 1714 1715 1718 1719 1722 1725 1726 1729 1732 1735 1736 1737 1739 1741 1743 1744 1747 1749 1750 1751 1752 1753 1753 1754 1754 1754 1755 1755 1756 1757 1758 1759 1760 1761 1762 1763 1764 1766 1767 1768 1769 1770 1771 1773 1775 1777 1779 1780 1781 1783 1785 1786 1788 1789 1790 1792 1793 1795 1797 1799 1800 1801 1803 1805 1806 1808 1809 1811 1811 1812 1812 1812 1812 1811 1810 1809 1808 1808 1808 1808 1808 1808 1808 1808 1810 1812 1813 1817 1826 1833 1840 1849 1856 1862 1869 1876 1883 1885 1889 1892 1909 1925 1925 1925 0 0 0 0 0 0 0 0 2432 2462 2468 2468 2468 2467 2467 2467 2476 2476 2478 2483 2488 2522 2545 2558 2566 2566 2566 2559 2559 2559 2559 2563 2573 2574 2575 2576 2597 2604 2606 2606 2606 2606 2606 2603 2603 2603 2589 2523 0 0 0 0 0 0 0 0 0 0 0 0 0 0 0 0 0 0 0 0 0 0 0 0 0 0 0 0 0 0 0 0 0 2540 2585 2678 2711 2715 2720 2739 2762 2769 2780 2781 2782 2782 2784 2787 2793 2801 2809 2819 2824 2833 2848 2863 2873 2877 2885 2885 2885 2865 2851 2839 2839 2838 2838 2837 2837 2837 2839 2841 2843 2843 2843 2804 0 0 0 0 0 0 0 1156 1153 1140 1139 1119 1110 1108 1108 1108 1108 1101 1086 1049 1032 986 986 986 996 996 996 966 966 966 967 967 967 961 941 940 940 941 959 980 980 980 963 943 931 0 0 0 0 0 0 0 0 0 0 0 0 0 0 0 0 0 0 0 0 0 0 0 0 0 0 0 0 0 0 0 0 0 0 0 0 0 0 0 0 0 0 0 0 0 0 0 0 0 0 0 0 0 0 0 0 0 0 0 0 0 0 0 0 0 0 0 0 0 0 0 0 0 0 0 0 0 0 0 0 0 0 0 0 0 0 0 0 0 0 0 0 0 0 0 0 0 0 0 0 0 0 0 0 0 0 0 0 0 0 0 0 0 0 0 0 0 0 0 0 0 0 0 0 0 0 1174 1183 1187 1222 1222 1222 1215 1189 0 0 0 0 0 0 0 0 0 0 0 0 0 0 0 0 0 0 0 0 0 0 0 0 0 0 0 0 0 0 0 0 0 0 0 0 462 462 462 472 472 472 468 467 465 465 460 455 449 442 440 435 435 435 432 431 430 421 413 411 407 403 399 397 395 394 393 393 391 389 388 388 388 387 387 387 386
729 729 729 750 0 0 0 887 915 943 969 988 1008 1027 1030 1048 1066 1080 1095 1110 1124 1134 1134 1137 1149 1173 1189 1206 1211 1223 1232 1244 1255 1267 1281 1296 1304 1310 1319 1329 1338 1347 1354 1359 1366 1373 1381 1388 1394 1399 1404 1411 1416 1422 1425 1428 1430 1432 1434 1436 1438 1440 1443 1445 1446 1447 1447 1450 1455 1458 1458 1460 1461 1461 1464 1470 1471 1478 1485 1490 1492 1492 1492 1488 1485 1485 1481 1472 1457 0 0 0 0 0 0 0 0 0 0 1313 1320 1320 1322 1327 1335 1345 1347 1347 1347 1338 1335 1334 1334 1334 1338 1343 1346 1350 1354 1355 1360 1365 1372 1385 1387 1393 1394 1394 1396 1397 1398 1399 1400 1413 1421 1429 1437 1437 1438 1441 1452 1453 1459 1474 1483 1518 0 0 1653 1677 1690 1700 1709 1711 1711 1712 1712 1715 1718 1719 1723 1725 1727 1729 1732 1735 1736 1738 1741 1741 1743 1744 1747 1748 1750 1751 1752 1753 1753 1754 1754 1755 1755 1755 1756 1757 1758 1759 1760 1761 1762 1763 1764 1766 1767 1768 1769 1770 1771 1773 1775 1776 1778 1780 1782 1783 1785 1786 1788 1789 1790 1792 1793 1795 1797 1799 1800 1801 1803 1805 1806 1808 1809 1811 1811 1812 1812 1812 1812 1811 1810 1809 1808 1808 1808 1808 1808 1808 1808 1808 1810 1813 1816 1821 1830 1838 1846 1853 1860 1864 1870 1877 1884 1887 1892 1908 1924 1930 1930 0 0 0 0 0 0 0 0 0 2432 2462 2463 2463 2463 2463 2464 2467 2467 2467 2471 2471 2474 2504 2536 2550 2553 2553 2553 2547 2547 2547 2553 2553 2553 2548 2544 2533 2521 2519 2507 0 0 0 0 0 0 0 0 0 0 0 0 0 0 0 0 0 0 0 0 0 0 0 0 0 0 0 0 0 0 0 0 0 0 0 0 0 0 0 0 0 0 0 0 0 0 0 0 0 2534 2632 2680 2725 2751 2753 2759 2767 2777 2800 2809 2819 2823 2831 2842 2852 2861 2867 2878 2878 2878 2864 2851 2839 2839 2838 2833 2833 2833 2832 2832 2828 2817 2816 2805 2687 0 0 0 0 0 0 0 0 1156 1139 1137 1119 1110 1108 1097 1097 1097 1078 1059 1049 1032 986 986 986 996 996 996 966 941 941 941 965 965 965 949 945 945 934 934 934 934 934 0 0 0 0 0 0 0 0 0 0 0 0 0 0 0 0 0 0 0 0 0 0 0 0 0 0 0 0 0 0 0 0 0 0 0 0 0 0 0 0 0 0 0 0 0 0 0 0 0 0 0 0 0 0 0 0 0 0 0 0 0 0 0 0 0 0 0 0 0 0 0 0 0 0 0 0 0 0 0 0 0 0 0 0 0 0 0 0 0 0 0 0 0 0 0 0 0 0 0 0 0 0 0 0 0 0 0 0 0 0 0 0 0 0 0 0 0 0 0 0 0 0 0 0 0 0 0 0 0 0 1165 1186 1196 1196 1196 1195 1176 0 0 0 0 0 0 0 0 0 0 0 0 0 0 0 0 0 0 0 0 0 0 0 0 0 0 0 0 0 0 0 0 0 0 0 456 456 456 461 468 468 468 467 465 462 461 449 443 441 439 436 432 432 432 431 431 428 421 413 406 401 399 396 395 394 394 392 391 389 388 387 387 386 386 385 385 385
729 729 730 750 770 0 0 887 915 943 969 988 1008 1027 1030 1047 1066 1078 1091 1101 1111 1118 1121 1127 1142 1161 1179 1193 1197 1213 1227 1240 1254 1265 1276 1287 1297 1310 1319 1329 1338 1347 1354 1359 1364 1372 1379 1386 1393 1399 1404 1410 1417 1422 1425 1428 1429 1431 1433 1435 1436 1437 1439 1442 1442 1443 1443 1445 1449 1452 1455 1456 1457 1459 1463 1467 1470 1476 1481 1481 1482 1483 1483 1483 1483 1483 1480 1466 0 0 0 0 0 0 0 0 0 0 1320 1336 1340 1340 1341 1344 1353 1364 1374 1375 1375 1374 1366 1361 1353 1353 1353 1359 1376 1385 1389 1396 1400 1401 1402 1402 1403 1403 1404 1405 1409 1409 1409 1411 1411 1413 1421 1430 1438 1440 1441 1441 1452 1455 1459 1474 1483 1518 0 1608 1657 1677 1690 1697 1705 1710 1710 1711 1712 1715 1718 1719 1723 1725 1727 1729 1733 1735 1738 1740 1741 1743 1744 1745 1747 1748 1749 1751 1752 1752 1753 1754 1754 1755 1755 1755 1756 1757 1758 1759 1761 1761 1762 1763 1764 1766 1767 1768 1769 1770 1771 1773 1775 1776 1778 1780 1781 1782 1784 1786 1788 1788 1790 1792 1793 1795 1797 1799 1800 1801 1803 1805 1806 1808 1809 1811 1811 1812 1812 1812 1812 1811 1811 1809 1808 1808 1808 1808 1808 1808 1808 1808 1811 1813 1818 1827 1835 1842 1850 1858 1863 1864 1870 1876 1884 1888 1897 1921 1940 1940 0 0 0 0 0 0 0 0 0 0 2432 2446 2448 2451 2452 2460 2462 2462 2462 2457 2456 2456 2456 2488 2517 2529 2531 2531 2531 2512 0 0 0 0 0 0 0 0 0 0 0 0 0 0 0 0 0 0 0 0 0 0 0 0 0 0 0 0 0 0 0 0 0 0 0 0 0 0 0 0 0 0 0 0 0 0 0 0 0 0 0 0 0 0 0 0 0 0 0 0 0 0 0 0 2542 2546 2658 2697 2733 2773 2803 2819 2822 2829 2835 2844 2849 2856 2869 2869 2869 2863 2851 2849 2843 2839 2833 2833 2833 2832 2832 2815 2791 2785 2770 2621 0 0 0 0 0 0 0 0 0 1092 1092 1090 1090 1092 1090 1079 1079 1064 1057 1057 1052 1049 1032 1015 1008 1008 1001 967 941 941 941 973 976 976 976 976 948 924 924 924 924 924 0 0 0 0 0 0 0 0 0 0 0 0 0 0 0 0 0 0 0 0 0 0 0 0 0 0 0 0 0 0 0 0 0 0 0 0 0 0 0 0 0 0 0 0 0 0 0 0 0 0 0 0 0 0 0 0 0 0 0 0 0 0 0 0 0 0 0 0 0 0 0 0 0 0 0 0 0 0 0 0 0 0 0 0 0 0 0 0 0 0 0 0 0 0 0 0 0 0 0 0 0 0 0 0 0 0 0 0 0 0 0 0 0 0 0 0 0 0 0 0 0 0 0 0 0 0 0 0 0 0 0 1169 1179 1179 1179 1178 0 0 0 0 0 0 0 0 0 0 0 0 0 0 0 0 0 0 0 0 0 0 0 0 0 0 0 0 0 0 0 0 0 0 0 462 450 450 450 458 462 462 462 462 462 458 449 440 439 439 438 435 432 431 431 430 427 421 414 408 402 399 397 395 394 393 392 390 389 388 386 386 385 385 384 383 383 383
734 734 735 752 770 0 0 887 915 943 967 987 997 1011 1020 1037 1041 1064 1080 1091 1100 1106 1113 1121 1134 1155 1172 1186 1192 1203 1216 1231 1247 1263 1276 1287 1297 1310 1319 1329 1338 1347 1354 1359 1364 1369 1377 1385 1393 1398 1404 1410 1417 1422 1425 1426 1428 1430 1431 1433 1434 1435 1436 1437 1439 1439 1440 1443 1447 1450 1452 1454 1456 1458 1462 1466 1470 1473 1473 1473 1476 1476 1476 1479 1479 1479 1478 0 0 0 0 0 0 0 0 0 0 1318 1336 1346 1352 1358 1359 1363 1370 1381 1388 1394 1394 1394 1392 1389 1388 1388 1388 0 1419 1431 1436 1436 1439 1439 1439 1439 1436 1436 1436 1436 1440 1440 1440 1433 1433 1433 1439 1441 1441 1441 1441 1441 1452 1456 1459 1474 1483 1524 1575 1627 1662 1674 1686 1694 1700 1704 1707 1708 1712 1715 1717 1720 1723 1724 1727 1730 1733 1735 1738 1740 1742 1744 1745 1747 1747 1748 1749 1749 1751 1752 1752 1754 1754 1755 1756 1756 1757 1758 1759 1759 1761 1761 1762 1763 1764 1766 1767 1768 1769 1770 1771 1773 1774 1776 1778 1780 1781 1782 1784 1786 1787 1788 1790 1792 1793 1795 1796 1798 1800 1801 1803 1805 1806 1808 1809 1811 1811 1812 1812 1812 1812 1811 1811 1809 1808 1808 1807 1807 1807 1808 1808 1809 1811 1814 1818 1827 1835 1842 1850 1858 1863 1864 1870 1876 1885 1896 1913 1940 1940 0 0 0 0 0 0 0 0 0 0 0 2405 2419 2431 2434 2442 2451 2451 2451 2451 2440 0 0 0 0 0 0 0 0 0 0 0 0 0 0 0 0 0 0 0 0 0 0 0 0 0 0 0 0 0 0 0 0 0 0 0 0 0 0 1549 1549 1541 1540 1540 1540 0 0 0 0 0 0 0 0 0 0 0 0 1584 1584 1584 0 0 0 0 0 0 0 0 0 0 0 0 0 0 0 0 0 0 0 0 2609 2724 2784 2814 2823 2825 2832 2836 2846 2853 2854 2854 2856 2856 2854 2849 2847 2833 2833 2832 2828 2828 2814 2786 2755 2700 2573 0 0 0 0 0 0 0 0 0 1072 1072 1070 1072 1079 1079 1070 1068 1057 1055 1055 1052 1042 1035 1022 1022 1022 1022 982 941 941 941 970 976 976 976 976 948 924 924 919 919 919 0 0 0 0 0 0 0 0 0 0 0 0 0 0 0 0 0 0 0 0 0 0 0 0 0 0 0 0 0 0 0 0 0 0 0 0 0 0 0 0 0 0 0 0 0 0 0 0 0 0 0 0 0 0 0 0 0 0 0 0 0 0 0 0 0 0 0 0 0 0 0 0 0 0 939 967 1002 0 0 0 0 0 0 0 0 0 0 0 0 0 0 0 0 0 0 0 0 0 0 0 0 0 0 0 0 0 0 0 0 0 0 0 0 0 0 0 0 0 0 0 0 0 0 0 0 0 0 0 0 0 0 0 0 0 0 0 0 0 0 0 0 0 0 0 0 0 0 0 0 0 969 969 0 0 0 0 0 0 0 0 0 0 0 0 0 0 0 0 0 0 463 460 443 443 443 454 457 457 457 454 453 444 442 440 439 438 437 435 431 428 427 425 421 417 410 405 401 398 396 395 393 392 391 390 389 387 385 384 384 383 382 382 382 382
746 746 761 762 773 0 0 881 911 938 962 980 996 1009 1020 1037 1041 1058 1075 1086 1094 1101 1106 1114 1127 1146 1164 1178 1190 1201 1210 1223 1245 1263 1276 1287 1297 1311 1324 1334 1342 1350 1355 1358 1364 1368 1374 1383 1391 1397 1402 1410 1417 1421 1422 1424 1426 1427 1428 1430 1430 1431 1433 1435 1435 1435 1437 1440 1446 1450 1452 1454 1456 1456 1460 1465 1468 1471 1471 1471 1472 1472 1472 1475 1475 1475 0 0 0 0 0 0 0 0 0 0 1307 1332 1338 1346 1353 1361 1369 1374 1380 1382 1388 1399 1404 1406 1408 1410 1416 1426 1438 1448 1461 1470 1470 1470 1471 1471 1479 1480 1480 1480 1480 1480 1483 1483 1483 1472 1470 1469 1469 1470 1471 1474 1483 1495 1497 1503 1504 1510 1531 1552 1582 1635 1662 1670 1681 1690 1697 1700 1702 1706 1712 1715 1718 1720 1722 1725 1727 1730 1734 1735 1738 1741 1743 1745 1746 1747 1747 1748 1749 1749 1750 1751 1752 1753 1754 1755 1756 1757 1757 1758 1759 1760 1761 1762 1763 1763 1764 1766 1767 1768 1769 1770 1772 1773 1774 1776 1777 1780 1781 1782 1784 1786 1787 1788 1790 1791 1793 1794 1796 1798 1800 1801 1803 1804 1806 1808 1809 1810 1811 1812 1812 1812 1812 1811 1811 1809 1807 1807 1806 1806 1806 1806 1807 1810 1811 1814 1818 1827 1835 1842 1850 1858 1860 1862 1863 1876 1887 1906 1940 1940 0 0 0 0 0 0 0 0 0 0 0 0 0 2394 2406 2413 2422 2422 0 0 0 0 0 0 0 0 0 0 0 0 0 0 0 0 0 0 0 0 0 0 0 0 0 1569 1535 1534 1534 1535 1535 1534 1524 1519 1518 1516 1518 1518 1521 1536 1538 1538 1538 1532 1531 1528 1524 1524 1524 1524 1524 1515 1515 1515 1521 1534 1534 1542 1542 1545 1569 1569 1569 1552 1544 1534 1524 1524 1524 1531 1532 0 0 0 0 0 0 0 0 0 0 0 0 0 0 2561 2720 2774 2809 2821 2830 2838 2838 2838 2839 2839 2848 2858 2858 2858 2838 2837 2833 2828 2828 2814 2769 2733 2675 2501 0 0 0 0 0 0 0 0 1079 1050 1050 1050 1068 1068 1068 1065 1063 1055 1045 1045 1045 1042 1035 1022 1022 1022 1022 991 978 968 968 968 976 976 976 976 948 924 924 909 909 909 0 0 0 0 0 0 0 0 0 0 0 0 0 0 0 0 0 0 0 0 0 0 0 0 0 0 0 0 0 0 0 0 0 0 0 0 438 451 456 0 0 0 0 0 0 0 0 0 0 0 0 0 0 0 0 0 0 0 0 0 0 0 0 0 0 0 0 0 0 0 0 0 0 918 939 956 980 980 0 0 0 0 0 0 0 0 0 0 0 0 0 0 0 0 0 0 0 0 0 0 0 0 0 0 0 0 0 0 0 0 0 0 0 0 0 0 0 0 0 0 0 0 0 0 0 0 0 0 0 0 0 0 0 0 0 0 0 0 0 0 0 0 0 0 0 0 0 0 0 0 1026 992 989 0 0 0 0 0 0 0 0 0 0 0 0 0 0 0 0 463 462 457 443 443 443 453 453 453 451 448 448 444 442 438 435 435 433 431 428 426 425 423 420 415 410 405 401 398 396 395 393 391 390 389 387 385 384 383 382 381 381 381 380 380
