1049 1049 1062 1076 1086 1100 1116 1129 1137 1148 1158 1161 1170 1180 1186 1198 1208 1217 1224 1230 1233 1233 1233 1234 1237 1241 1256 1268 1280 1295 1304 1310 1319 1335 1362 1384 1398 1403 1406 1412 1415 1424 1432 1438 1442 1450 1464 1472 1476 1485 1502 1511 1516 1520 1523 1526 1533 1538 1543 1546 1553 1561 1567 1569 1571 1574 1576 1578 1581 1583 1586 1588 1593 1594 1597 1598 1601 1605 1609 1614 1619 1624 1628 1631 1636 1640 1643 1646 1648 1649 1650 1651 1651 1652 1652 1651 1652 1652 1652 1652 1654 1654 1654 1653 1653 1653 1656 1656 1656 1647 1611 1606 0 0 0 0 0 0 0 1077 1055 1040 1032 1032 1032 1043 1074 1124 1148 1162 1168 1168 1168 1133 1103 1087 1087 1086 1080 1070 1062 1048 1044 1027 1022 1020 1018 1015 1008 1006 1003 1002 1001 1001 1001 1003 1007 1011 1013 1016 1020 1024 1029 1030 1031 1031 1031 1032 1032 1033 1036 1040 1041 1041 1044 1048 1052 1060 1062 1062 1065 1068 1073 1076 1077 1077 1079 1080 1082 1084 1084 1084 1086 1088 1089 1093 1098 1103 1107 1112 1120 1127 1136 1136 1137 1144 1155 1166 1177 1193 0 1255 1294 1299 1299 1306 1326 1339 1339 1339 1342 1343 1344 1353 1359 1366 1372 1376 1377 1378 1380 1384 1386 1387 1388 1388 1388 1392 1396 1398 1399 1401 1402 1403 1403 1403 1403 1403 1403 1402 1402 1401 1401 1399 1398 1398 1398 1400 1403 1404 1405 1405 1406 1406 1406 1404 1400 1399 1399 1399 1408 1429 1440 1448 1451 1455 1460 1460 1460 1460 1460 1461 1465 1467 1468 1469 1469 1472 1479 1487 1491 1492 1494 1495 1496 1497 1499 1499 1501 1502 1502 1502 1502 1502 1504 1504 1509 1511 1511 1511 1511 1511 1514 1514 1516 1516 1516 1517 1517 1517 1517 1521 1522 1522 1522 1512 1512 1512 1514 1514 1514 1514 1514 1515 1520 1525 1531 1537 1544 1544 1544 1547 1548 1549 1551 1553 1555 1556 1556 1556 1559 1560 1561 1562 1562 1565 1569 1573 1578 1584 1587 1588 1590 1593 1595 1595 1595 1596 1595 1595 1593 1593 1593 1593 1599 1606 1614 1622 1625 1626 1627 1630 1632 1635 1636 1640 1640 1643 1643 1644 1650 1652 1657 1658 1658 1658 1666 1671 1679 1684 1690 1693 1695 1695 1699 1708 1712 1712 1712 1710 1707 1706 1697 1683 1659 1642 1642 1642 1643 1658 1665 1665 1672 1675 1680 1686 1691 1702 1709 1709 1709 1704 1697 1694 1692 1691 1690 1689 1689 1685 1680 1679 1678 1677 1673 1667 1664 1663 1663 1663 1660 1657 1654 1651 1650 1648 1645 1641 1639 1637 1637 1637 1637 1633 1631 1627 1621 1620 1618 1614 1610 1610 1610 1610 1610 1603 1601 1594 1592 1592 1592 1592 1592 1591 1589 1586 1584 1579 1578 1578 1576 1570 1567 1567 1567 1568 1573 1573 1573 1573 1573 1573 1570 1566 1563 1559 1550 1521 0 0 0 0 0 0 0 0 0 1452 1494 1515 1520 1526 1528 1535 1544 1570 1570 1570 1562 1504 1484 1480 1474 0 0 0 0 0 0 1148 1125 1125 1125 1126 1136 1153 1169 1171 1171 1171 1154 1132 1131 1128 0 0 1036 1036 1014 967 955 955 938 938 938 938 938 938 965 996 996 996 995 0 0 0 870 828 818 803 802 802 802 814 0 0 0 0 0 0 0 677 661 661 661 663 688 0 0 0 0 0 0 0 0 0 0 0 0 0 0 0 0 0 0 536 536 552 536 536 536 534 533 0 0 0 0 0 0 0 0 0 0 0 0 0 0 0 0 0
1054 1054 1071 1082 1093 1103 1116 1129 1145 1155 1160 1170 1171 1181 1193 1201 1209 1217 1225 1232 1238 1238 1240 1240 1240 1241 1256 1268 1278 1291 1302 1309 1318 1335 1361 1384 1398 1403 1406 1412 1415 1424 1432 1438 1440 1448 1464 1472 1477 1483 1502 1511 1516 1520 1523 1526 1533 1538 1542 1546 1551 1559 1567 1569 1571 1574 1576 1579 1581 1585 1588 1593 1595 1597 1600 1602 1603 1607 1611 1616 1620 1624 1628 1632 1635 1639 1643 1646 1647 1649 1650 1651 1651 1651 1651 1649 1649 1649 1649 1649 1647 1647 1647 1648 1651 1652 1655 1655 1655 1647 1611 1606 1583 0 0 0 0 0 0 0 1064 1041 1034 1034 1034 1043 1074 1124 1148 1162 1166 1166 1166 1132 1104 1094 1092 1091 1080 1069 1061 1047 1035 1027 1022 1018 1016 1013 1007 1006 1003 1002 1002 1002 1003 1004 1008 1011 1013 1016 1020 1024 1029 1031 1031 1032 1032 1032 1033 1033 1036 1040 1041 1041 1044 1046 1049 1054 1057 1058 1060 1061 1067 1070 1072 1072 1074 1077 1080 1083 1083 1084 1084 1086 1088 1093 1098 1103 1105 1107 1119 1126 1133 1134 1137 1144 1155 1166 1176 1187 1205 1240 1264 1283 1295 1308 1336 1339 1344 1345 1345 1346 1350 1358 1365 1371 1374 1379 1383 1385 1387 1388 1388 1388 1389 1392 1393 1396 1396 1399 1403 1406 1406 1406 1405 1404 1404 1404 1404 1403 1402 1401 1400 1399 1399 1399 1399 1401 1404 1405 1406 1406 1407 1407 1407 1404 1404 1404 1404 1407 1412 1429 1440 1448 1451 1455 1460 1462 1462 1463 1463 1463 1466 1468 1469 1471 1472 1475 1479 1485 1489 1492 1494 1495 1496 1497 1499 1499 1499 1499 1496 1496 1496 1499 1501 1503 1506 1506 1506 1506 1506 1506 1510 1511 1512 1512 1515 1517 1517 1517 1517 1519 1519 1519 1517 1517 1517 1520 1521 1521 1521 1522 1522 1522 1524 1528 1531 1535 1539 1544 1544 1547 1548 1549 1551 1551 1552 1552 1554 1554 1556 1556 1557 1558 1559 1564 1569 1573 1578 1584 1584 1584 1584 1584 1588 1588 1588 1589 1589 1587 1588 1589 1589 1591 1595 1600 1606 1612 1620 1624 1627 1627 1627 1626 1626 1626 1633 1634 1635 1639 1650 1652 1657 1658 1658 1658 1667 1678 1682 1684 1690 1693 1696 1699 1703 1710 1714 1714 1714 1714 1710 1706 1697 1680 1664 1651 1651 1651 1664 1675 1678 1679 1681 1684 1686 1691 1698 1706 1711 1711 1711 1707 1702 1701 1700 1697 1695 1692 1690 1685 1681 1681 1679 1677 1673 1667 1666 1664 1663 1663 1662 1659 1656 1653 1651 1649 1647 1643 1639 1638 1638 1638 1638 1633 1631 1627 1626 1625 1621 1616 1611 1609 1609 1608 1607 1603 1601 1594 1591 1591 1591 1591 1591 1589 1589 1586 1584 1583 1583 1583 1581 1573 1569 1569 1569 1572 1576 1576 1576 1576 1573 1570 1570 1566 1562 1559 1550 0 0 0 0 0 0 0 0 0 0 1460 1496 1517 1524 1528 1573 1587 1595 1600 1600 1600 0 1487 1477 1476 1465 1433 1402 1399 0 0 0 0 0 0 1155 1169 1169 1170 1172 1172 1172 1167 1153 1128 1125 1125 1119 1117 0 0 0 0 955 955 938 938 941 941 941 977 981 996 996 996 995 973 0 0 870 822 818 790 790 790 801 814 816 816 814 804 778 0 0 677 650 650 650 663 702 702 702 696 0 0 0 0 0 0 0 0 0 0 0 0 0 0 0 0 0 536 535 534 534 534 534 534 0 0 0 0 0 0 0 0 0 419 422 428 428 428 417 417
1063 1063 1077 1090 1099 1109 1119 1133 1147 1161 1164 1170 1181 1193 1204 1211 1216 1219 1227 1237 1244 1248 1252 1253 1257 1257 1261 1268 1278 1291 1301 1309 1317 1335 1360 1378 1394 1402 1407 1412 1420 1426 1432 1438 1440 1448 1464 1472 1477 1483 1495 1511 1516 1520 1523 1526 1532 1538 1542 1546 1550 1555 1564 1568 1572 1575 1578 1582 1586 1590 1592 1595 1598 1600 1602 1604 1606 1608 1612 1617 1621 1624 1628 1632 1635 1639 1642 1645 1647 1649 1650 1651 1651 1651 1650 1646 1646 1646 1645 1645 1644 1644 1644 1648 1649 1652 1654 1654 1654 1647 1609 1606 0 0 0 0 0 0 0 0 1084 1051 1034 1034 1034 1043 1074 1115 1132 1143 1166 1166 1166 1128 1108 1103 1102 1092 1080 1070 1059 1046 1035 1027 1022 1018 1016 1009 1007 1006 1006 1004 1004 1004 1005 1006 1009 1010 1013 1016 1020 1024 1029 1031 1032 1033 1033 1034 1035 1037 1041 1041 1041 1042 1044 1046 1049 1052 1057 1058 1058 1060 1062 1064 1067 1067 1069 1074 1079 1083 1083 1084 1084 1085 1088 1093 1098 1103 1105 1107 1114 1118 1124 1127 1134 1142 1154 1165 1175 1180 1193 1215 1246 1263 1293 1316 1336 1341 1345 1345 1349 1357 1361 1368 1373 1376 1378 1382 1386 1389 1390 1391 1391 1392 1392 1395 1395 1397 1398 1401 1404 1406 1406 1406 1405 1405 1405 1405 1404 1403 1402 1400 1399 1398 1398 1398 1401 1404 1406 1409 1409 1409 1409 1409 1409 1408 1408 1408 1409 1412 1418 1430 1440 1448 1450 1455 1459 1462 1462 1463 1465 1465 1467 1468 1470 1472 1475 1477 1480 1485 1489 1491 1494 1495 1496 1496 1497 1497 1497 1495 1494 1494 1494 1498 1501 1501 1502 1502 1502 1502 1502 1503 1504 1506 1510 1512 1513 1516 1516 1516 1515 1514 1514 1513 1514 1514 1519 1525 1528 1528 1528 1526 1526 1526 1526 1529 1531 1533 1537 1540 1544 1547 1548 1549 1549 1550 1550 1551 1552 1554 1556 1556 1556 1556 1558 1562 1566 1572 1578 1578 1578 1578 1578 1578 1581 1581 1581 1581 1581 1582 1584 1585 1586 1587 1590 1593 1599 1607 1614 1618 1618 1618 1616 1616 1616 1621 1628 1628 1630 1632 1640 1649 1649 1653 1655 1662 1672 1679 1683 1686 1688 1693 1696 1702 1709 1713 1715 1718 1718 1718 1718 1711 1704 1680 1666 1664 1664 1664 1685 1687 1688 1688 1688 1689 1689 1693 1700 1706 1712 1712 1712 1712 1708 1705 1703 1700 1699 1694 1691 1686 1683 1682 1680 1677 1673 1667 1666 1666 1665 1663 1662 1659 1657 1655 1652 1649 1648 1645 1642 1642 1642 1640 1639 1635 1631 1627 1626 1625 1622 1619 1611 1609 1608 1608 1607 1603 1601 1599 1595 1593 1591 1591 1591 1589 1589 1586 1586 1586 1585 1585 1583 1578 1572 1572 1572 1575 1578 1578 1578 1573 1570 1569 1565 1563 1562 1562 1558 0 0 0 0 0 0 0 0 0 0 1498 1499 1517 1527 1546 1573 1587 1618 1628 1628 0 0 0 1475 1472 1464 1431 1418 1410 1402 0 0 0 0 0 1209 1202 1179 1179 1179 1177 1175 1167 1151 1127 1127 1124 1122 0 0 0 0 0 0 955 955 966 973 977 979 981 979 980 980 973 970 968 0 0 870 822 818 790 776 776 776 789 797 798 798 798 778 0 0 0 646 646 649 663 704 704 704 0 0 0 0 0 0 0 0 0 0 0 0 0 0 0 0 0 0 0 535 519 519 519 512 0 0 0 0 0 0 0 0 0 0 0 433 433 432 428 417 417
1063 1063 1077 1090 1102 1112 1119 1133 1147 1161 1164 1172 1185 1199 1210 1219 1229 1238 1246 1251 1255 1257 1259 1261 1264 1266 1267 1270 1278 1291 1301 1309 1316 1335 1357 1374 1392 1402 1407 1419 1425 1431 1436 1438 1440 1448 1464 1473 1477 1485 1495 1507 1516 1519 1522 1524 1529 1538 1542 1545 1549 1553 1558 1568 1572 1578 1583 1586 1590 1592 1595 1598 1600 1603 1604 1605 1607 1610 1614 1617 1621 1625 1628 1632 1635 1638 1641 1643 1645 1649 1650 1650 1650 1650 1649 1646 1646 1646 1645 1644 1644 1644 1644 1646 1646 1646 1643 1632 0 0 0 0 0 0 0 0 0 0 0 0 1105 1083 1062 1056 1056 1056 1080 1114 1132 1143 1166 1166 1166 1128 1109 1103 1102 1092 1080 1071 1059 1046 1035 1029 1023 1018 1016 1009 1009 1009 1008 1008 1006 1006 1006 1009 1009 1010 1012 1014 1020 1024 1029 1030 1032 1033 1034 1034 1035 1038 1041 1041 1041 1042 1044 1045 1048 1052 1057 1057 1058 1058 1059 1059 1061 1063 1067 1072 1078 1082 1084 1084 1084 1084 1088 1092 1098 1104 1105 1107 1109 1112 1113 1120 1129 1142 1154 1165 1170 1174 1181 1202 1225 1259 1293 1316 1336 1339 1345 1350 1360 1365 1371 1375 1378 1380 1381 1383 1386 1390 1393 1393 1394 1395 1398 1398 1398 1399 1399 1401 1404 1406 1406 1406 1406 1406 1406 1406 1404 1403 1402 1400 1399 1399 1399 1399 1402 1406 1410 1413 1418 1418 1418 1417 1417 1417 1417 1417 1417 1417 1422 1432 1443 1447 1450 1452 1455 1462 1463 1463 1465 1466 1467 1469 1470 1472 1475 1479 1482 1485 1489 1490 1492 1492 1493 1493 1493 1493 1493 1490 1490 1490 1494 1498 1500 1500 1500 1501 1502 1502 1502 1502 1502 1503 1507 1511 1513 1516 1516 1516 1514 1514 1513 1513 1514 1514 1521 1527 1531 1534 1534 1534 1530 1529 1529 1529 1531 1533 1534 1537 1542 1545 1547 1549 1549 1549 1550 1550 1551 1552 1554 1554 1554 1555 1557 1558 1559 1564 1569 1572 1572 1572 1573 1573 1575 1575 1575 1574 1574 1574 1579 1583 1583 1584 1584 1585 1593 1605 1612 1613 1613 1613 1612 1612 1612 1614 1614 1614 1615 1615 1616 1628 1638 1646 1654 1665 1673 1680 1683 1686 1688 1693 1697 1706 1712 1713 1715 1718 1722 1722 1722 1714 1704 1680 1668 1668 1668 1681 1688 1689 1690 1690 1691 1691 1692 1693 1700 1707 1712 1712 1712 1712 1708 1705 1703 1703 1700 1699 1693 1687 1685 1682 1680 1677 1672 1668 1666 1666 1665 1665 1663 1659 1658 1657 1655 1651 1649 1646 1644 1644 1643 1641 1640 1636 1631 1628 1626 1625 1622 1619 1613 1609 1608 1608 1606 1605 1601 1599 1596 1594 1591 1591 1591 1590 1590 1589 1589 1589 1588 1588 1587 1582 1579 1579 1579 1579 1580 1580 1580 1573 1570 1562 1562 1562 1562 1562 1562 0 0 0 0 0 0 0 0 0 0 1509 1517 1518 1530 1551 1573 1587 1618 1628 1628 1628 0 0 1451 1450 1445 1427 1418 1410 1402 1397 1359 0 0 1271 1250 1233 1202 1192 1191 1186 1184 1166 1148 1123 1123 1123 1127 0 0 0 0 0 0 0 0 1007 1007 1007 1002 995 981 979 979 977 970 968 965 906 0 822 818 790 771 765 765 765 797 798 798 798 767 0 0 0 0 0 0 0 0 0 0 0 0 0 0 0 0 0 0 716 716 675 674 616 0 0 0 0 0 0 0 519 515 515 0 0 0 0 0 0 0 0 0 0 0 0 0 433 432 428 400 400
1063 1063 1077 1090 1103 1112 1121 1134 1147 1161 1161 1172 1186 1199 1211 1228 1240 1252 1258 1264 1264 1265 1268 1271 1273 1274 1276 1277 1281 1291 1301 1309 1315 1333 1353 1371 1389 1393 1407 1419 1428 1435 1440 1440 1442 1449 1466 1473 1479 1483 1494 1506 1511 1518 1521 1524 1526 1530 1536 1540 1544 1548 1556 1566 1572 1579 1584 1588 1592 1594 1597 1600 1603 1605 1606 1608 1609 1611 1614 1617 1620 1625 1628 1632 1634 1638 1639 1642 1643 1647 1650 1652 1652 1652 1650 1646 1646 1646 1645 1643 1643 1643 1642 1639 1621 1618 0 0 0 0 0 0 0 0 0 0 0 0 0 0 1106 1099 1099 1090 1089 1089 1089 1114 1132 1143 1152 1152 1152 1128 1109 1103 1102 1091 1077 1070 1059 1046 1035 1031 1027 1022 1016 1009 1009 1009 1009 1009 1009 1009 1009 1009 1009 1010 1012 1014 1020 1024 1029 1030 1032 1034 1034 1035 1035 1038 1041 1041 1041 1042 1042 1043 1044 1051 1057 1057 1057 1057 1057 1057 1059 1060 1066 1071 1077 1082 1084 1084 1084 1085 1088 1092 1098 1104 1108 1108 1108 1109 1109 1113 1124 1136 1151 1161 1166 1171 1181 1201 1221 1252 1286 1316 1330 1341 1351 1363 1368 1370 1376 1379 1382 1383 1383 1384 1387 1390 1393 1394 1396 1397 1398 1399 1400 1400 1400 1401 1405 1406 1406 1406 1406 1406 1406 1406 1404 1403 1402 1400 1399 1399 1399 1400 1404 1410 1412 1416 1420 1422 1422 1423 1424 1424 1424 1423 1423 1423 1425 1432 1443 1447 1450 1452 1454 1458 1462 1463 1463 1466 1469 1471 1472 1474 1477 1481 1484 1488 1489 1490 1491 1491 1491 1490 1490 1490 1490 1488 1488 1488 1493 1495 1497 1497 1497 1497 1501 1501 1501 1501 1501 1501 1503 1508 1512 1516 1516 1516 1514 1514 1513 1513 1514 1514 1522 1527 1533 1537 1537 1537 1536 1532 1531 1531 1531 1532 1533 1535 1540 1545 1547 1549 1549 1549 1549 1550 1550 1551 1554 1554 1554 1555 1557 1558 1559 1560 1562 1564 1567 1567 1568 1570 1571 1571 1571 1569 1569 1569 1574 1578 1578 1578 1578 1578 1586 1600 1607 1607 1607 1607 1604 1599 1599 1599 1597 1597 1601 1601 1602 1628 1638 1646 1654 1668 1677 1683 1684 1686 1688 1693 1701 1706 1712 1713 1715 1719 1722 1722 1722 1714 1700 1687 1680 1680 1680 1682 1688 1689 1690 1690 1692 1692 1693 1695 1700 1707 1712 1712 1712 1712 1708 1706 1705 1703 1701 1701 1699 1692 1688 1685 1680 1677 1672 1668 1668 1668 1667 1667 1663 1660 1660 1659 1656 1653 1651 1647 1647 1646 1645 1645 1641 1638 1631 1628 1627 1626 1624 1620 1614 1610 1608 1608 1607 1605 1602 1600 1597 1595 1593 1593 1593 1593 1593 1591 1591 1591 1591 1591 1588 1586 1583 1582 1582 1582 1582 1582 1582 1580 1570 1562 1562 1562 1562 1562 1562 0 0 0 0 0 0 0 0 0 0 1521 1549 1551 1552 1557 1575 1590 1626 1626 1626 0 0 0 1412 1405 1405 1405 1408 1408 1408 1397 1360 1327 1312 1291 1272 1254 1236 1225 1214 1186 1183 1137 1124 1114 1114 1114 1135 0 0 0 0 0 0 0 0 1028 1022 1007 1002 977 976 970 968 968 968 968 968 912 0 0 0 0 771 765 765 765 797 798 798 798 767 0 0 0 0 0 0 0 706 701 695 0 0 0 0 0 0 0 702 702 702 675 674 627 627 627 0 0 0 0 0 0 0 0 0 0 0 0 0 0 0 0 0 0 0 0 0 0 0 0 391 391
1062 1062 1077 1090 1103 1112 1121 1134 1147 1158 1164 1173 1186 1201 1217 1232 1246 1257 1268 1274 1276 1278 1279 1279 1284 1289 1290 1291 1293 1300 1306 1310 1315 1324 1345 1364 1383 1388 1406 1419 1428 1438 1443 1444 1444 1449 1466 1473 1479 1483 1492 1504 1509 1517 1521 1523 1524 1527 1536 1540 1544 1548 1556 1565 1572 1579 1586 1593 1596 1599 1600 1602 1604 1606 1608 1610 1610 1612 1614 1617 1620 1625 1628 1632 1634 1637 1638 1639 1639 1642 1647 1651 1651 1651 1651 1649 1648 1643 1643 1642 1640 1639 1637 1613 0 0 0 0 0 0 0 0 0 0 0 0 0 0 0 0 1120 1116 1115 1107 1106 1106 1106 1114 1135 1146 1152 1152 1152 1128 1109 1096 1092 1085 1077 1070 1059 1047 1035 1031 1027 1022 1017 1009 1009 1009 1011 1012 1012 1011 1011 1010 1010 1010 1012 1014 1023 1029 1030 1031 1032 1032 1033 1034 1035 1038 1038 1038 1038 1038 1038 1038 1043 1051 1057 1057 1057 1055 1055 1055 1056 1060 1066 1071 1076 1080 1084 1084 1084 1085 1087 1091 1096 1103 1107 1107 1107 1107 1107 1108 1117 1128 1140 1154 1162 1170 1180 1198 1219 1243 1280 1303 1319 1343 1354 1363 1368 1370 1376 1379 1382 1384 1385 1386 1387 1390 1393 1394 1396 1397 1398 1399 1400 1400 1400 1404 1407 1407 1407 1406 1406 1406 1406 1406 1404 1404 1403 1401 1401 1401 1401 1403 1409 1413 1415 1417 1421 1425 1427 1430 1430 1430 1429 1429 1429 1431 1434 1439 1443 1447 1450 1452 1454 1456 1457 1460 1463 1466 1469 1471 1475 1477 1481 1484 1486 1489 1489 1490 1491 1491 1491 1488 1488 1487 1486 1486 1486 1487 1491 1491 1491 1491 1491 1491 1495 1498 1498 1498 1499 1501 1503 1508 1510 1512 1512 1512 1512 1512 1512 1515 1516 1517 1524 1528 1533 1539 1539 1539 1539 1535 1533 1531 1531 1531 1532 1534 1538 1545 1547 1551 1551 1551 1550 1550 1550 1551 1554 1554 1554 1556 1557 1558 1559 1560 1562 1563 1564 1565 1565 1566 1567 1567 1567 1566 1566 1566 1567 1572 1572 1572 1572 1572 1574 1582 1598 1600 1600 1600 1597 1596 1596 1596 1596 1597 1600 1601 1602 1628 1638 1646 1659 1668 1677 1684 1689 1690 1693 1698 1706 1707 1712 1713 1715 1719 1722 1722 1722 1714 1700 1692 1686 1683 1683 1683 1688 1689 1689 1689 1692 1693 1694 1700 1701 1706 1710 1711 1711 1711 1709 1707 1705 1703 1702 1702 1702 1698 1693 1690 1684 1677 1672 1672 1672 1671 1671 1668 1663 1662 1662 1661 1657 1655 1652 1649 1649 1648 1646 1646 1644 1640 1632 1631 1629 1626 1625 1621 1617 1614 1612 1609 1608 1606 1603 1600 1597 1595 1595 1595 1595 1595 1595 1595 1595 1595 1595 1595 1590 1587 1586 1585 1585 1585 1586 1586 1586 1584 1575 1562 1562 1562 1564 1564 1564 0 0 0 0 0 0 0 0 0 0 1524 1552 1558 1579 1585 1594 1594 1626 1626 1626 0 0 0 1406 1405 1405 1404 1404 1403 1393 1383 1359 1342 1327 1291 1272 1254 1236 1225 1214 1186 0 0 0 0 0 1097 0 0 0 0 0 0 0 0 0 1028 1022 1007 1002 963 963 963 967 967 968 977 978 978 0 0 0 0 773 765 765 765 808 808 808 806 767 0 0 0 0 0 0 728 709 689 670 656 0 0 0 0 0 0 692 692 682 672 655 655 658 658 658 0 0 0 0 0 0 0 0 0 0 0 0 0 0 0 0 0 0 0 0 0 0 0 372 372
1062 1062 1075 1085 1102 1111 1121 1137 1147 1158 1164 1173 1186 1201 1220 1236 1251 1262 1275 1282 1285 1287 1287 1288 1295 1300 1300 1301 1303 1307 1309 1312 1315 1324 1337 1354 1379 1385 1402 1416 1428 1438 1444 1448 1451 1455 1466 1473 1479 1483 1491 1502 1507 1516 1520 1520 1521 1527 1536 1540 1544 1548 1556 1565 1572 1579 1587 1593 1596 1600 1602 1604 1605 1608 1611 1611 1613 1613 1615 1617 1619 1624 1627 1632 1632 1632 1631 1631 1631 1632 1640 1651 1651 1651 1650 1649 1648 1643 1642 1636 1633 1621 0 0 0 0 0 0 0 0 0 0 0 0 0 0 0 0 0 0 1120 1116 1115 1109 1106 1106 1106 1118 1144 1150 1151 1151 1151 1128 1102 1093 1089 1083 1076 1070 1059 1047 1035 1031 1027 1022 1018 1011 1011 1011 1011 1012 1013 1012 1011 1013 1013 1013 1014 1025 1030 1030 1030 1031 1032 1032 1033 1033 1034 1036 1036 1036 1036 1036 1036 1036 1043 1051 1052 1052 1052 1050 1050 1050 1056 1060 1066 1071 1076 1078 1084 1084 1084 1085 1087 1089 1093 1099 1107 1107 1107 1107 1107 1108 1117 1125 1135 1143 1157 1168 1179 1196 1213 1232 1262 1289 1316 1343 1354 1363 1368 1370 1376 1379 1382 1386 1388 1388 1389 1391 1394 1395 1396 1397 1398 1399 1400 1400 1400 1404 1406 1406 1407 1406 1406 1406 1406 1406 1406 1405 1403 1403 1403 1403 1405 1408 1410 1413 1416 1418 1423 1427 1432 1435 1435 1435 1435 1435 1439 1444 1445 1447 1449 1452 1454 1454 1455 1456 1457 1460 1463 1465 1469 1471 1475 1479 1482 1486 1489 1490 1490 1490 1490 1490 1490 1487 1486 1486 1486 1486 1486 1487 1487 1487 1484 1484 1484 1485 1488 1492 1496 1498 1499 1501 1503 1508 1508 1508 1509 1509 1511 1511 1512 1515 1521 1524 1529 1531 1536 1540 1540 1540 1540 1540 1539 1538 1532 1532 1532 1534 1538 1545 1548 1551 1551 1551 1550 1550 1550 1551 1554 1554 1554 1557 1558 1559 1560 1560 1561 1563 1563 1564 1564 1564 1564 1564 1563 1562 1561 1561 1561 1567 1567 1567 1570 1570 1571 1578 1587 1596 1597 1597 1597 1596 1596 1596 1596 1597 1600 1601 1602 1634 1654 1658 1664 1670 1679 1686 1690 1696 1701 1704 1706 1707 1707 1707 1712 1713 1713 1713 1708 1706 1700 1692 1687 1684 1684 1684 1684 1685 1687 1688 1691 1694 1698 1700 1701 1705 1706 1707 1709 1709 1709 1707 1705 1704 1703 1702 1702 1700 1697 1694 1691 1682 1679 1679 1678 1678 1678 1672 1667 1664 1663 1663 1661 1657 1655 1651 1651 1651 1650 1650 1646 1644 1640 1633 1632 1628 1625 1622 1621 1618 1617 1614 1609 1606 1603 1601 1598 1598 1598 1598 1598 1598 1596 1596 1596 1597 1597 1597 1592 1589 1588 1587 1587 1588 1589 1590 1590 1590 1587 1577 1572 1572 1572 1572 1572 0 0 0 0 0 0 0 0 0 0 1538 1561 1564 1589 1594 1595 1595 1626 1626 1626 0 0 0 1406 1405 1404 1402 1398 1397 1385 1370 1357 1342 1327 1291 1272 1254 1236 1225 1223 1217 0 0 0 0 0 0 0 0 0 0 0 0 0 0 0 1007 983 976 976 950 950 950 966 967 968 977 984 984 0 0 0 0 781 781 781 790 823 826 826 826 825 0 0 0 0 0 754 728 709 689 670 656 0 0 0 0 0 0 0 701 680 649 644 644 649 659 659 0 0 0 0 0 0 0 0 0 0 0 0 0 0 0 0 0 0 0 0 0 0 0 372 372
1062 1062 1075 1085 1098 1110 1124 1141 1149 1158 1164 1173 1187 1203 1221 1241 1256 1268 1275 1283 1289 1293 1295 1299 1302 1306 1307 1309 1312 1315 1316 1317 1319 1324 1336 1343 1348 1369 1390 1408 1427 1438 1444 1449 1453 1458 1467 1472 1477 1480 1488 1493 1506 1513 1513 1516 1521 1527 1538 1545 1548 1551 1557 1566 1572 1579 1587 1593 1596 1600 1603 1606 1608 1610 1612 1613 1614 1615 1616 1617 1618 1621 1624 1627 1628 1628 1627 1627 1627 1627 1635 1648 1648 1649 1649 1648 1648 1642 1637 1632 0 0 0 0 0 0 0 0 0 0 0 0 0 0 0 0 0 0 0 0 1120 1116 1115 1109 1106 1106 1106 1126 1150 1156 1156 1156 1148 1128 1102 1092 1085 1082 1075 1069 1058 1047 1030 1023 1021 1021 1018 1011 1010 1010 1010 1010 1011 1013 1016 1018 1021 1026 1029 1029 1030 1030 1030 1031 1031 1032 1033 1033 1033 1033 1033 1035 1035 1035 1036 1036 1043 1050 1052 1052 1052 1050 1050 1050 1056 1062 1068 1074 1075 1078 1078 1081 1085 1086 1087 1089 1090 1095 1102 1105 1105 1108 1108 1108 1117 1125 1132 1140 1152 1160 1170 1176 1187 1203 1228 1265 1306 1337 1354 1363 1363 1365 1365 1372 1380 1386 1388 1391 1394 1394 1394 1395 1396 1396 1396 1397 1399 1399 1400 1404 1406 1406 1407 1407 1406 1407 1407 1406 1406 1405 1403 1403 1403 1406 1414 1416 1416 1417 1419 1422 1426 1430 1433 1437 1440 1440 1441 1444 1445 1449 1451 1453 1458 1458 1458 1458 1457 1457 1457 1460 1463 1465 1469 1469 1475 1480 1483 1487 1490 1490 1490 1491 1490 1490 1489 1486 1486 1486 1486 1484 1484 1484 1484 1484 1484 1484 1484 1485 1488 1492 1496 1498 1500 1504 1506 1508 1508 1508 1509 1509 1511 1513 1514 1517 1522 1526 1531 1534 1538 1542 1542 1542 1542 1542 1541 1541 1538 1534 1534 1534 1538 1546 1550 1552 1552 1552 1550 1550 1550 1552 1554 1556 1557 1559 1560 1560 1560 1561 1562 1562 1563 1563 1563 1561 1561 1561 1560 1560 1561 1561 1561 1563 1566 1566 1568 1568 1571 1578 1587 1596 1597 1597 1597 1596 1596 1596 1600 1607 1616 1628 1639 1660 1667 1675 1682 1691 1692 1695 1695 1700 1704 1707 1707 1707 1707 1707 1707 1707 1704 1691 1691 1691 1691 1691 1689 1687 1684 1684 1685 1685 1685 1687 1689 1694 1698 1700 1701 1705 1706 1707 1708 1709 1709 1709 1707 1706 1705 1704 1702 1700 1698 1697 1696 1692 1691 1690 1689 1689 1684 1678 1673 1669 1666 1665 1665 1658 1656 1656 1656 1654 1653 1653 1648 1647 1646 1645 1642 1630 1627 1626 1624 1622 1619 1615 1612 1608 1605 1603 1603 1602 1601 1601 1601 1600 1598 1598 1598 1598 1598 1597 1594 1592 1590 1590 1590 1591 1591 1594 1596 1596 1596 1589 1585 1585 1580 1580 1580 0 0 0 0 0 0 0 0 0 0 1539 1572 1580 1600 1608 1608 1619 1634 1634 1634 0 0 0 1430 1426 1417 1417 1393 1386 1367 1354 1352 1342 1327 1280 1231 1231 1230 1230 1215 1215 0 0 0 0 0 0 0 0 0 0 0 0 0 0 0 0 946 934 934 934 947 948 949 954 964 976 984 984 0 0 0 0 0 801 801 814 832 833 839 847 847 0 0 0 0 0 0 728 709 689 670 0 0 0 0 0 0 0 0 0 0 633 633 633 633 633 633 0 0 0 0 0 0 0 0 0 0 0 0 0 0 0 0 0 0 0 0 0 0 0 379 379
1062 1062 1075 1085 1098 1110 1125 1144 1152 1160 1169 1178 1192 1207 1229 1249 1264 1273 1281 1286 1292 1296 1299 1303 1305 1307 1311 1314 1317 1320 1323 1323 1326 1330 1336 1343 1347 1356 1389 1408 1425 1433 1444 1451 1457 1463 1467 1471 1473 1476 1485 1489 1503 1509 1513 1516 1521 1531 1541 1548 1551 1557 1561 1567 1574 1579 1587 1590 1596 1600 1603 1607 1609 1612 1613 1614 1614 1615 1616 1616 1616 1616 1618 1621 1626 1626 1626 1625 1625 1625 1628 1635 1640 1643 1646 1646 1646 1632 0 0 0 0 0 0 0 0 0 0 0 0 0 0 0 0 0 0 1176 1176 1176 1144 1117 1116 1107 1106 1106 1106 1120 1137 1154 1161 1161 1161 1151 1128 1101 1088 1080 1076 1069 1064 1055 1042 1030 1023 1021 1021 1021 1011 1010 1008 1006 1008 1010 1010 1016 1018 1022 1031 1031 1032 1031 1031 1031 1031 1031 1032 1033 1033 1033 1033 1033 1035 1035 1036 1036 1038 1045 1051 1052 1052 1052 1050 1050 1050 1057 1066 1074 1075 1075 1078 1078 1081 1085 1086 1087 1089 1090 1095 1102 1108 1109 1110 1112 1115 1117 1125 1132 1134 1144 1149 1155 1164 1173 1190 1201 1225 0 1337 1354 1356 1357 1358 1359 1366 1375 1383 1388 1391 1394 1394 1395 1395 1396 1396 1396 1396 1396 1396 1396 1397 1401 1402 1404 1406 1407 1409 1409 1409 1409 1408 1406 1406 1406 1407 1415 1419 1421 1421 1424 1428 1430 1432 1435 1437 1440 1442 1443 1445 1448 1452 1455 1461 1461 1462 1462 1462 1462 1461 1461 1461 1464 1465 1469 1469 1475 1480 1484 1488 1491 1491 1491 1491 1490 1490 1487 1486 1486 1486 1486 1484 1481 1481 1481 1481 1482 1484 1484 1485 1488 1492 1496 1499 1503 1508 1509 1509 1509 1509 1509 1509 1511 1513 1515 1518 1523 1529 1533 1538 1540 1542 1542 1543 1543 1543 1545 1547 1548 1548 1548 1549 1549 1550 1552 1552 1552 1552 1552 1552 1552 1552 1554 1558 1559 1562 1562 1562 1562 1562 1562 1562 1561 1561 1561 1560 1560 1560 1560 1560 1560 1560 1561 1562 1565 1566 1566 1567 1571 1578 1587 1596 1599 1601 1601 1603 1611 1614 1620 1622 1628 1642 1657 1663 1668 1680 1687 1694 1696 1697 1698 1700 1705 1707 1707 1707 1707 1706 1705 1697 1692 1675 1675 1675 1684 1692 1692 1692 1687 1684 1683 1683 1683 1684 1685 1694 1698 1698 1699 1704 1705 1707 1708 1708 1709 1709 1709 1709 1706 1704 1702 1700 1700 1699 1699 1699 1699 1699 1697 1694 1688 1682 1679 1677 1674 1671 1667 1662 1660 1660 1660 1660 1660 1656 1652 1648 1647 1647 1643 1634 1630 1627 1626 1625 1620 1616 1612 1610 1608 1604 1604 1604 1603 1603 1603 1601 1601 1600 1600 1600 1600 1599 1596 1594 1593 1592 1592 1592 1593 1594 1596 1596 1596 1593 1591 1591 1589 1587 1572 0 0 0 0 0 0 0 0 0 0 1572 1575 1580 1600 1626 1627 1666 1666 1666 0 0 0 1461 1430 1429 1426 1418 1378 1348 1331 1330 1329 1327 1303 0 1231 1219 1219 1219 1219 1219 0 0 0 0 0 0 0 0 0 0 0 0 0 0 0 0 934 927 927 930 933 933 934 946 959 975 984 984 0 0 0 0 0 0 818 833 834 838 839 847 859 0 0 0 0 0 0 0 0 0 0 0 0 0 0 0 0 0 0 0 0 633 633 658 664 664 0 0 0 0 0 0 0 0 0 0 0 0 0 0 0 0 0 0 0 0 0 0 0 0 0 399
1061 1061 1076 1087 1098 1110 1127 1144 1152 1163 1174 1185 1196 1211 1232 1255 1267 1278 1286 1292 1297 1300 1303 1306 1309 1310 1312 1316 1321 1324 1326 1328 1328 1331 1336 1341 1345 1356 1374 1395 1414 1428 1444 1451 1457 1463 1467 1470 1472 1475 1478 1484 1495 1506 1513 1516 1522 1533 1541 1548 1553 1557 1561 1567 1574 1579 1585 1589 1592 1600 1603 1607 1610 1612 1614 1614 1614 1615 1615 1615 1616 1616 1618 1618 1619 1621 1622 1623 1623 1624 1624 1625 1631 1638 1638 1638 1636 0 0 0 0 0 0 0 0 0 0 0 0 0 0 0 0 0 0 1144 1154 1154 1154 1130 1117 1104 1097 1097 1097 1108 1132 1150 1154 1162 1162 1162 1155 1128 1102 1088 1080 1070 1061 1057 1051 1042 1030 1023 1022 1021 1021 1011 1008 1008 1006 1008 1008 1008 1016 1018 1022 1032 1032 1032 1032 1031 1031 1031 1031 1032 1032 1032 1032 1032 1032 1035 1037 1037 1037 1041 1046 1052 1052 1053 1053 1052 1052 1054 1060 1068 1074 1075 1075 1078 1078 1081 1085 1091 1091 1093 1095 1095 1102 1108 1117 1120 1121 1121 1122 1126 1132 1134 1134 1137 1146 1156 1169 1182 1195 1217 0 1328 1349 1351 1351 1352 1355 1362 1372 1378 1383 1391 1394 1394 1395 1395 1395 1395 1394 1394 1394 1396 1396 1396 1398 1399 1401 1405 1407 1410 1412 1412 1412 1412 1411 1411 1411 1411 1420 1421 1422 1424 1428 1432 1435 1435 1436 1438 1444 1447 1447 1448 1452 1457 1461 1461 1462 1463 1465 1465 1465 1465 1465 1467 1469 1469 1470 1470 1475 1482 1486 1491 1491 1491 1491 1491 1490 1489 1487 1486 1486 1486 1486 1483 1481 1481 1481 1485 1485 1486 1487 1490 1492 1492 1497 1502 1506 1510 1511 1513 1513 1513 1511 1511 1511 1513 1517 1521 1526 1531 1535 1539 1541 1543 1544 1544 1545 1546 1549 1550 1553 1556 1560 1560 1560 1558 1556 1555 1555 1556 1555 1555 1554 1554 1554 1558 1561 1565 1565 1565 1562 1562 1561 1561 1561 1560 1560 1560 1557 1557 1557 1559 1561 1561 1561 1562 1563 1566 1567 1570 1573 1582 1596 1604 1605 1605 1608 1613 1628 1628 1630 1636 1636 1655 1662 1665 1668 1680 1687 1694 1697 1698 1699 1701 1707 1711 1713 1713 1713 1705 1699 1692 1687 1670 1670 1670 1679 1694 1694 1694 1687 1683 1683 1683 1683 1683 1685 1692 1695 1695 1697 1701 1705 1707 1708 1709 1709 1709 1709 1709 1706 1704 1702 1700 1700 1700 1700 1700 1700 1700 1698 1694 1688 1684 1682 1680 1677 1671 1668 1664 1662 1661 1660 1660 1660 1658 1656 1654 1652 1650 1646 1637 1632 1629 1627 1626 1620 1616 1613 1610 1608 1605 1605 1605 1605 1605 1604 1602 1602 1602 1602 1602 1602 1601 1598 1595 1593 1593 1593 1593 1593 1594 1596 1596 1596 1594 1594 1593 1591 1587 0 0 0 0 0 0 0 0 0 0 0 0 1580 1589 1600 1669 1671 1673 1673 1673 0 0 0 1440 1433 1431 1430 1426 0 1309 1303 1303 1303 1303 1303 0 0 1215 1215 1215 1251 1251 1251 1219 1194 1162 1156 1156 1155 0 0 0 0 0 0 0 0 0 907 907 926 926 930 930 933 946 958 972 977 977 0 0 0 0 0 847 857 857 857 856 856 856 865 0 0 0 0 0 0 0 0 0 0 0 0 0 0 0 0 0 0 0 0 649 649 680 681 681 0 0 0 0 0 0 0 0 0 0 0 0 0 0 0 0 0 0 0 0 0 0 0 0 0 0
1061 1061 1081 1094 1104 1115 1134 1144 1152 1165 1175 1185 1200 1214 1232 1255 1268 1278 1287 1293 1297 1302 1309 1311 1314 1315 1319 1323 1326 1327 1328 1328 1329 1331 1336 1341 1345 1351 1364 1386 1403 1418 1435 1451 1457 1463 1467 1470 1471 1473 1477 1481 1493 1505 1513 1519 1526 1533 1541 1548 1553 1557 1561 1567 1574 1578 1581 1586 1592 1597 1603 1607 1610 1612 1613 1613 1614 1614 1615 1615 1616 1616 1617 1618 1618 1618 1618 1619 1620 1621 1621 1623 1624 1629 1629 0 0 0 0 0 0 0 0 0 0 0 0 0 0 0 0 0 0 0 0 1144 1152 1152 1152 1130 1117 1104 1094 1094 1094 1108 1137 1150 1154 1162 1162 1162 1161 1130 1103 1088 1080 1070 1061 1055 1049 1042 1030 1023 1023 1022 1022 1013 1010 1009 1007 1007 1007 1007 1010 1014 1022 1032 1036 1036 1036 1032 1031 1031 1031 1031 1031 1031 1031 1031 1031 1035 1038 1046 1048 1049 1052 1054 1056 1061 1061 1061 1061 1061 1061 1070 1076 1076 1076 1078 1080 1082 1089 1100 1100 1101 1103 1103 1111 1120 1128 1128 1130 1131 1131 1134 1136 1136 1137 1137 1146 1156 1169 1182 1195 1214 1243 1290 1329 1337 1340 1344 1351 1359 1370 1378 1382 1387 1392 1394 1395 1395 1395 1395 1394 1394 1394 1396 1396 1396 1397 1397 1399 1402 1407 1410 1413 1414 1414 1415 1415 1416 1416 1417 1422 1424 1425 1427 1430 1434 1436 1438 1439 1443 1447 1449 1451 1452 1457 1460 1461 1462 1463 1464 1465 1465 1466 1467 1467 1470 1472 1474 1477 1479 1480 1485 1489 1492 1492 1492 1491 1490 1490 1489 1487 1487 1486 1486 1486 1483 1481 1481 1481 1486 1490 1492 1492 1492 1493 1493 1498 1503 1508 1513 1515 1516 1516 1516 1518 1518 1518 1520 1524 1528 1532 1536 1539 1541 1543 1544 1546 1547 1549 1550 1552 1555 1559 1564 1567 1567 1567 1565 1561 1558 1558 1558 1559 1559 1559 1558 1558 1558 1564 1566 1566 1566 1562 1561 1560 1560 1560 1560 1560 1560 1557 1557 1557 1559 1562 1562 1563 1564 1565 1567 1571 1582 1587 1597 1605 1609 1610 1610 1615 1629 1641 1648 1648 1650 1658 1660 1662 1665 1668 1680 1687 1694 1698 1699 1701 1702 1708 1714 1719 1719 1719 1705 1699 1689 1671 1664 1664 1664 1672 1694 1694 1694 1687 1683 1683 1682 1682 1682 1682 1686 1689 1690 1690 1697 1702 1707 1708 1708 1709 1709 1709 1709 1706 1704 1702 1701 1701 1701 1702 1701 1701 1700 1698 1694 1690 1685 1683 1682 1677 1671 1669 1666 1663 1662 1662 1661 1660 1659 1656 1655 1655 1654 1650 1638 1633 1631 1630 1626 1620 1615 1613 1611 1608 1607 1607 1606 1606 1605 1605 1605 1605 1604 1604 1604 1603 1601 1598 1595 1594 1594 1593 1593 1593 1592 1592 1592 1594 1594 1594 1591 1587 1567 0 0 0 0 0 0 0 0 0 0 0 0 0 0 1644 1694 1716 1716 1716 0 0 0 0 1443 1440 1432 1430 1401 0 1309 1303 1303 1303 1303 1303 0 0 1212 1212 1227 1266 1266 1266 1223 1195 1168 1162 1153 1136 1130 1123 0 0 0 0 0 0 0 907 907 930 930 933 933 933 946 952 952 952 921 0 0 0 0 0 0 900 900 900 896 869 867 867 0 0 0 0 0 0 0 0 0 0 0 0 0 0 0 0 0 0 0 657 657 657 681 681 681 0 0 0 0 0 0 0 0 0 533 547 549 549 0 0 0 0 0 0 0 0 0 0 0 0 0
1061 1061 1081 1100 1112 1123 1135 1146 1152 1166 1179 1188 1200 1216 1235 1255 1269 1280 1287 1293 1299 1303 1311 1317 1319 1321 1323 1328 1330 1330 1330 1330 1330 1332 1336 1341 1345 1351 1364 1384 1397 1408 1425 1441 1456 1463 1467 1469 1469 1473 1477 1481 1493 1505 1513 1520 1527 1534 1540 1548 1553 1558 1561 1566 1571 1574 1579 1585 1591 1597 1600 1604 1610 1612 1613 1613 1614 1614 1615 1615 1616 1616 1617 1617 1617 1616 1609 1604 1604 1604 1605 1605 1605 0 0 0 0 0 0 0 0 0 0 0 0 0 0 0 0 0 0 0 0 0 0 1176 1159 1157 1147 1130 1117 1104 1094 1094 1094 1120 1137 1150 1152 1162 1171 1171 1171 1152 1111 1109 1080 1070 1061 1055 1049 1041 1037 1027 1024 1023 1022 1013 1010 1009 1008 1007 1007 1007 1010 1014 1022 1030 1036 1036 1036 1032 1029 1029 1029 1029 1029 1030 1030 1031 1031 1035 1039 1049 1060 1063 1065 1065 1065 1067 1067 1067 1062 1062 1062 1070 1076 1077 1080 1083 1083 1088 1096 1109 1115 1116 1119 1119 1125 1129 1134 1134 1134 1134 1138 1144 1144 1144 1146 1146 1146 1156 1169 1182 1195 1210 1234 1264 1288 1326 1339 1343 1348 1358 1366 1375 1380 1386 1390 1391 1393 1393 1394 1394 1394 1394 1394 1396 1396 1397 1397 1397 1398 1401 1407 1410 1414 1414 1415 1417 1418 1419 1419 1419 1423 1425 1427 1429 1431 1434 1436 1440 1443 1446 1449 1453 1456 1457 1459 1460 1461 1462 1463 1465 1466 1466 1467 1467 1467 1471 1475 1478 1481 1485 1487 1488 1489 1492 1492 1492 1491 1490 1490 1489 1489 1489 1488 1488 1487 1483 1482 1482 1482 1490 1492 1494 1494 1494 1496 1496 1499 1506 1513 1514 1518 1521 1523 1523 1523 1523 1523 1525 1529 1534 1539 1543 1544 1544 1545 1547 1549 1552 1555 1556 1559 1563 1568 1569 1569 1569 1569 1568 1566 1562 1562 1562 1561 1561 1561 1561 1561 1562 1565 1566 1566 1566 1562 1559 1558 1558 1558 1560 1560 1560 1557 1557 1557 1559 1563 1563 1563 1566 1566 1571 1580 1592 1601 1606 1612 1612 1612 1615 1619 1634 1644 1651 1656 1658 1661 1662 1662 1663 1663 1665 1676 1691 1698 1698 1699 1702 1709 1718 1727 1727 1727 1708 1700 1689 1660 1629 1629 1629 1672 1694 1694 1694 1687 1682 1680 1679 1678 1678 1679 1682 1686 1687 1688 1694 1702 1707 1708 1708 1709 1709 1709 1709 1705 1702 1702 1702 1704 1704 1704 1703 1702 1700 1699 1695 1690 1685 1684 1682 1677 1672 1669 1668 1668 1666 1663 1661 1660 1659 1659 1659 1658 1658 1650 1641 1635 1633 1631 1626 1619 1615 1613 1611 1608 1608 1608 1608 1608 1608 1608 1608 1609 1609 1608 1608 1604 1601 1598 1596 1595 1595 1595 1594 1593 1592 1592 1592 1594 1595 1595 1595 1587 1555 0 0 0 0 0 0 0 0 0 0 0 0 0 0 0 1716 1717 1717 0 0 0 0 0 1443 1440 1440 1434 1401 0 1309 1303 1303 1303 1321 1321 0 0 1231 1231 1235 1266 1266 1266 1235 1217 1175 1162 1153 1136 1130 1120 1120 0 0 0 0 0 0 907 907 930 930 951 948 948 950 950 948 916 901 890 0 0 0 0 0 0 909 909 901 901 901 908 0 0 0 0 0 0 0 0 0 0 0 0 0 0 0 0 0 0 0 670 670 670 685 685 685 0 0 0 0 0 0 0 0 534 534 547 549 549 549 0 0 0 0 0 0 0 0 0 0 0 435
1061 1061 1082 1101 1118 1129 1138 1146 1154 1170 1183 1192 1204 1218 1235 1255 1270 1281 1288 1294 1299 1303 1311 1317 1322 1324 1328 1331 1334 1334 1334 1334 1335 1336 1338 1341 1346 1351 1364 1380 1395 1408 1424 1437 1450 1460 1463 1466 1469 1473 1477 1481 1493 1505 1513 1520 1528 1534 1540 1548 1553 1558 1562 1566 1569 1573 1576 1582 1589 1594 1599 1603 1608 1610 1613 1613 1613 1614 1615 1615 1616 1616 1616 1616 1616 1610 1607 1596 1588 1575 1568 0 0 0 0 0 0 0 0 0 0 0 0 0 0 0 0 0 0 0 0 0 1245 1245 1225 1177 1160 1157 1147 1133 1118 1104 1104 1104 1105 1120 1137 1143 1149 1158 1171 1171 1171 1170 1169 1138 1099 1079 1062 1053 1048 1041 1037 1030 1024 1023 1021 1013 1011 1010 1010 1007 1007 1007 1010 1014 1022 1030 1036 1036 1036 1032 1029 1029 1029 1029 1029 1030 1030 1031 1031 1035 1040 1050 1061 1063 1065 1066 1068 1068 1069 1069 1069 1069 1069 1073 1080 1084 1086 1086 1087 1090 1098 1113 1118 1120 1122 1126 1131 1133 1136 1137 1138 1139 1142 1146 1147 1149 1150 1150 1156 1164 1173 1190 1197 1210 1230 1249 1278 1309 1330 1338 1346 1357 1364 1372 1378 1381 1386 1387 1387 1388 1389 1394 1394 1394 1395 1396 1397 1397 1397 1397 1398 1401 1407 1410 1414 1415 1416 1418 1420 1423 1423 1423 1425 1427 1428 1431 1433 1434 1437 1441 1446 1449 1452 1456 1460 1460 1461 1462 1462 1464 1465 1466 1467 1468 1468 1468 1471 1475 1478 1481 1486 1488 1488 1488 1489 1492 1492 1492 1491 1490 1490 1490 1490 1490 1489 1489 1489 1488 1485 1485 1485 1491 1494 1495 1497 1498 1498 1499 1506 1511 1513 1515 1520 1524 1528 1529 1529 1529 1529 1529 1531 1538 1545 1547 1547 1548 1548 1550 1553 1556 1560 1563 1565 1566 1568 1569 1569 1569 1569 1568 1566 1565 1565 1565 1564 1564 1564 1563 1563 1563 1566 1566 1566 1566 1560 1557 1557 1557 1557 1560 1560 1560 1560 1560 1560 1560 1565 1565 1565 1567 1567 1584 1596 1599 1605 1613 1618 1619 1620 1620 1632 1641 1647 1653 1659 1659 1660 1661 1661 1660 1661 1661 1663 1685 1697 1699 1699 1703 1712 1724 1731 1731 1731 1713 1700 1686 1617 1588 1588 1588 1676 1692 1692 1692 1687 1682 1677 1674 1674 1673 1673 1673 1682 1685 1687 1694 1701 1707 1707 1708 1709 1709 1709 1709 1705 1702 1702 1702 1704 1704 1704 1703 1702 1700 1699 1695 1691 1688 1684 1682 1677 1672 1671 1671 1669 1668 1664 1661 1661 1661 1661 1661 1661 1658 1650 1642 1638 1635 1632 1626 1619 1616 1613 1613 1612 1612 1611 1611 1610 1610 1610 1613 1613 1613 1613 1610 1605 1602 1599 1597 1597 1597 1599 1599 1599 1592 1592 1592 1594 1596 1596 1596 1587 1555 0 0 0 0 0 0 0 0 0 0 0 0 0 0 0 0 0 0 0 0 0 0 1529 1486 1453 1443 1434 1401 0 0 1323 1323 1337 1363 0 0 0 1237 1237 1237 1253 1253 1253 1235 1221 1193 1166 1153 1136 1130 1120 1120 0 0 0 0 0 0 0 945 964 964 964 957 957 950 949 948 900 900 900 890 0 0 0 0 0 939 939 939 931 931 931 0 0 0 0 0 0 0 0 0 0 0 0 0 0 0 0 0 0 0 0 670 670 685 685 0 0 0 0 0 0 0 0 0 534 534 542 543 543 542 0 0 0 0 0 0 480 463 460 454 460 460
1061 1061 1084 1103 1123 1134 1142 1146 1160 1177 1192 1200 1211 1224 1238 1255 1273 1283 1289 1294 1299 1303 1311 1317 1322 1327 1331 1333 1336 1337 1337 1337 1337 1337 1340 1342 1346 1351 1362 1380 1395 1406 1420 1435 1443 1452 1461 1465 1468 1473 1477 1485 1498 1506 1515 1522 1528 1534 1540 1548 1553 1558 1563 1566 1569 1571 1574 1578 1585 1591 1599 1603 1606 1609 1610 1612 1615 1617 1617 1617 1618 1617 1616 1615 1614 1610 1605 1594 1577 0 0 0 0 0 0 0 0 0 1242 1223 1201 0 0 0 0 0 0 0 0 0 0 1275 1275 1261 1225 1190 1167 1158 1146 1133 1122 1115 1114 1114 1114 1120 1128 1136 1141 1148 1165 1169 1170 1170 1169 1158 1131 1097 1063 1044 1041 1039 1037 1030 1024 1023 1016 1012 1011 1011 1010 1010 1010 1010 1014 1018 1023 1030 1030 1030 1030 1030 1029 1029 1029 1029 1030 1030 1030 1032 1032 1035 1040 1052 1062 1066 1066 1067 1071 1072 1080 1092 1096 1096 1096 1096 1096 1099 1100 1100 1100 1100 1100 1115 1119 1120 1126 1134 1135 1139 1139 1140 1141 1142 1146 1152 1154 1154 1154 1159 1168 1182 1191 1196 1199 1210 1230 1235 1248 1284 1306 1320 1337 1351 1363 1365 1367 1374 1379 1383 1384 1384 1389 1393 1394 1395 1396 1396 1397 1397 1398 1400 1401 1401 1407 1410 1413 1415 1418 1422 1423 1425 1425 1426 1427 1429 1433 1435 1437 1439 1443 1446 1448 1450 1455 1458 1460 1462 1462 1462 1464 1465 1467 1467 1468 1469 1470 1471 1475 1479 1481 1484 1489 1489 1489 1489 1489 1489 1491 1491 1492 1492 1492 1491 1491 1491 1491 1491 1492 1492 1492 1492 1492 1493 1495 1498 1501 1504 1506 1507 1509 1513 1514 1517 1520 1524 1528 1532 1533 1533 1534 1534 1534 1541 1545 1547 1550 1551 1552 1553 1555 1557 1561 1563 1565 1566 1568 1569 1569 1569 1569 1568 1566 1566 1566 1566 1566 1566 1566 1563 1563 1563 1567 1567 1567 1565 1560 1557 1557 1557 1557 1560 1565 1565 1565 1564 1564 1564 1567 1568 1568 1573 1583 1601 1611 1611 1612 1620 1630 1637 1638 1641 1647 1651 1655 1656 1659 1659 1659 1655 1655 1655 1657 1658 1663 1670 1690 1701 1701 1704 1715 1726 1732 1732 1732 1729 1720 0 0 0 0 0 0 1692 1692 1692 1686 1682 1677 1674 1672 1668 1667 1667 1667 1676 1680 1687 1697 1705 1707 1708 1709 1709 1709 1709 1705 1705 1705 1705 1705 1705 1704 1703 1702 1700 1699 1695 1691 1688 1684 1679 1677 1675 1673 1672 1672 1670 1665 1661 1661 1661 1662 1662 1662 1658 1650 1642 1639 1636 1632 1626 1620 1620 1619 1618 1616 1616 1615 1614 1613 1613 1613 1614 1614 1614 1613 1612 1606 1602 1600 1600 1600 1604 1604 1604 1604 1600 1600 1600 1600 1600 1600 1598 1587 1555 0 0 0 0 0 0 0 0 0 0 0 0 0 0 0 0 0 0 0 1629 1592 1571 1549 1535 1483 1456 1445 1427 0 0 0 0 0 0 0 0 0 1270 1266 1258 1258 1258 1258 1258 1225 1193 1172 1153 1150 1135 1120 1120 0 0 0 0 0 0 0 0 974 974 974 970 968 958 948 914 894 894 894 890 890 0 0 0 0 940 940 957 957 964 964 0 0 0 0 0 0 0 0 0 0 0 0 0 0 0 0 0 0 0 0 0 667 705 0 0 0 0 0 0 0 0 0 0 527 526 526 527 512 506 0 0 0 0 0 489 489 464 463 460 460 460
1067 1067 1084 1105 1126 1140 1144 1151 1160 1177 1198 1204 1215 1228 1243 1259 1273 1283 1289 1294 1298 1303 1310 1316 1322 1328 1333 1337 1340 1341 1341 1342 1342 1342 1343 1344 1346 1352 1364 1380 1392 1406 1418 1426 1433 1447 1456 1462 1467 1472 1483 1494 1504 1514 1517 1522 1529 1538 1543 1549 1555 1559 1563 1566 1568 1571 1574 1578 1585 1591 1597 1601 1605 1609 1610 1612 1615 1622 1622 1622 1620 1616 1616 1614 1611 1606 1602 0 0 0 0 0 0 0 0 0 0 1244 1242 1223 1223 1223 0 0 0 0 0 0 0 0 1306 1306 1293 1261 1235 1207 1182 1161 1146 1133 1122 1119 1119 1119 1119 1119 1119 1119 1127 1133 1141 1163 1169 1169 1169 1158 1137 1112 1064 1044 1038 1032 1030 1030 1024 1016 1013 1012 1012 1012 1012 1013 1013 1013 1018 1024 1028 1030 1030 1030 1030 1030 1030 1030 1032 1034 1035 1036 1037 1037 1038 1043 1047 1055 1065 1067 1067 1068 1073 1080 1090 1106 1107 1107 1107 1107 1107 1111 1111 1111 1107 1107 1107 1119 1130 1139 1143 1147 1148 1149 1150 1151 1152 1155 1158 1166 1169 1170 1171 1172 1177 1190 1199 1200 1200 1214 1230 1235 1238 1250 1278 1294 1310 1319 1338 1345 1350 1355 1362 1372 1377 1381 1388 1392 1394 1394 1394 1394 1394 1397 1401 1403 1404 1406 1408 1411 1413 1415 1418 1422 1423 1425 1427 1430 1431 1435 1439 1441 1445 1448 1448 1449 1450 1452 1456 1458 1461 1463 1463 1463 1465 1466 1467 1468 1470 1471 1472 1473 1477 1481 1483 1487 1489 1489 1489 1489 1489 1489 1491 1493 1493 1493 1493 1493 1493 1493 1494 1495 1496 1496 1496 1496 1496 1496 1496 1499 1505 1510 1511 1511 1514 1515 1515 1518 1522 1525 1529 1533 1535 1536 1537 1538 1539 1541 1545 1548 1550 1552 1553 1554 1556 1558 1561 1563 1565 1565 1565 1566 1566 1567 1567 1567 1567 1567 1567 1567 1567 1567 1567 1566 1566 1566 1567 1567 1567 1565 1560 1557 1557 1557 1557 1562 1568 1569 1570 1572 1572 1573 1573 1574 1575 1576 1593 1609 1618 1620 1621 1627 1637 1647 1654 1654 1655 1655 1655 1656 1656 1656 1655 1651 1651 1651 1657 1658 1663 1670 1690 1703 1703 1704 1715 1733 1736 1739 1739 1736 0 0 0 0 0 0 0 1692 1692 1692 1687 1682 1677 1674 1672 1665 1659 1659 1659 1664 1670 1683 1694 1700 1703 1707 1709 1709 1709 1709 1706 1705 1705 1705 1705 1705 1704 1703 1702 1700 1699 1695 1691 1688 1683 1679 1677 1675 1675 1673 1672 1670 1666 1662 1662 1662 1662 1662 1662 1658 1650 1643 1639 1637 1633 1626 1626 1626 1624 1624 1624 1621 1619 1618 1617 1614 1614 1614 1614 1614 1614 1612 1608 1604 1604 1604 1604 1608 1612 1612 1612 1610 1610 1609 1608 1607 1606 1598 1587 1555 0 0 0 0 0 0 0 0 0 0 0 0 0 0 0 0 0 0 1603 1600 1592 1571 1549 1535 1489 1465 1465 1462 1457 0 0 0 0 0 0 0 1316 1307 1299 1277 1277 1277 1258 1258 1245 1214 1191 1165 1158 1135 1120 0 0 0 0 0 0 0 0 0 1014 1009 996 983 972 970 955 914 914 914 942 942 942 0 0 0 0 0 983 991 991 998 998 998 0 0 0 0 0 0 0 0 0 0 0 0 0 0 0 0 0 0 0 0 0 0 0 0 0 0 0 0 0 0 0 0 0 527 517 512 506 0 0 0 0 0 0 496 496 470 464 442 441 441
1075 1075 1094 1112 1129 1140 1144 1151 1160 1177 1198 1204 1215 1228 1244 1259 1273 1283 1289 1294 1298 1304 1310 1316 1322 1329 1335 1340 1341 1346 1346 1347 1347 1347 1346 1347 1347 1352 1364 1380 1392 1406 1417 1425 1433 1441 1453 1461 1467 1471 1483 1499 1509 1516 1523 1526 1531 1539 1545 1551 1555 1559 1563 1566 1567 1571 1573 1578 1584 1590 1596 1601 1605 1608 1610 1612 1615 1622 1622 1622 1620 1616 1616 1610 1592 1577 0 0 0 0 0 0 0 0 0 1269 1245 1244 1242 1242 1242 1242 0 0 0 0 0 0 1346 1344 1338 1308 1295 1265 1236 1215 1192 1166 1148 1131 1122 1119 1119 1119 1119 1119 1119 1119 1119 1119 1121 1128 1141 1142 1148 1148 1148 1124 1076 1044 1037 1031 1026 1025 1019 1013 1013 1013 1014 1015 1015 1015 1016 1016 1022 1026 1028 1030 1030 1030 1030 1030 1033 1034 1036 1040 1040 1041 1041 1042 1050 1054 1059 1065 1067 1068 1069 1069 1083 1090 1097 1107 1112 1115 1115 1116 1119 1129 1129 1129 1119 1119 1119 1129 1135 1141 1148 1149 1149 1152 1158 1162 1164 1164 1166 1171 1175 1176 1176 1179 1202 1206 1210 1212 1214 1220 1234 1235 1238 1250 1257 1259 1260 1271 0 0 1316 1331 1342 1352 1356 1369 1380 1392 1393 1393 1393 1393 1393 1397 1402 1409 1411 1412 1413 1413 1413 1415 1418 1422 1423 1425 1427 1432 1436 1439 1441 1444 1447 1450 1451 1451 1452 1453 1457 1458 1461 1463 1464 1465 1466 1466 1468 1469 1471 1473 1473 1475 1477 1481 1484 1488 1490 1490 1490 1490 1490 1490 1491 1494 1495 1496 1496 1497 1498 1498 1498 1502 1502 1502 1501 1500 1500 1500 1500 1501 1510 1513 1513 1514 1515 1518 1521 1524 1528 1531 1531 1534 1536 1538 1539 1539 1540 1541 1547 1549 1551 1552 1553 1555 1556 1558 1561 1562 1562 1563 1564 1565 1565 1567 1569 1569 1570 1570 1570 1570 1570 1570 1572 1572 1572 1570 1569 1568 1567 1565 1563 1562 1562 1562 1569 1570 1574 1577 1579 1580 1582 1582 1582 1584 1585 1586 1597 1614 1622 1623 1625 1629 1640 1650 1655 1655 1655 1655 1655 1654 1654 1654 1650 1650 1650 1651 1658 1663 1663 1670 1690 1704 1712 1715 1722 1733 1743 1747 1747 1747 0 0 0 0 0 0 0 1696 1696 1692 1687 1682 1680 1676 1672 1665 1658 1653 1653 1653 1663 1682 1692 1698 1701 1706 1708 1709 1709 1709 1706 1705 1705 1704 1704 1704 1702 1701 1701 1700 1699 1695 1690 1684 1680 1679 1677 1675 1675 1674 1673 1670 1666 1663 1663 1663 1663 1663 1662 1658 1650 1643 1641 1640 1638 1635 1633 1633 1632 1632 1630 1625 1622 1621 1618 1616 1615 1615 1615 1615 1614 1613 1611 1607 1607 1607 1608 1612 1616 1617 1617 1618 1618 1618 1618 1611 1607 1598 1587 1555 0 0 0 0 0 0 0 0 0 0 0 0 0 0 0 0 0 1594 1564 1561 1559 1559 1549 1535 1502 1493 1488 1476 1476 0 0 0 0 0 0 0 1338 1323 1318 1305 1292 1292 1266 1266 1266 1224 1193 1185 1158 1135 0 0 0 0 0 0 0 0 1087 1087 1043 1015 1005 1000 980 970 955 914 914 914 947 957 957 0 0 0 0 0 0 993 993 1037 1037 1037 0 0 0 0 0 0 0 0 0 0 0 0 0 0 0 0 0 0 0 0 0 0 0 0 0 0 0 0 0 0 0 0 0 0 0 0 0 0 0 0 0 0 0 494 494 477 464 438 438 435
1082 1082 1097 1117 1135 1142 1144 1151 1160 1172 1198 1204 1215 1228 1244 1260 1273 1283 1289 1293 1298 1304 1310 1316 1322 1330 1338 1341 1345 1349 1350 1352 1352 1350 1350 1350 1350 1354 1366 1380 1392 1406 1416 1423 1432 1441 1447 1452 1463 1471 1483 1499 1509 1516 1523 1527 1533 1539 1545 1551 1555 1559 1560 1561 1564 1571 1573 1577 1583 1590 1596 1601 1605 1608 1610 1612 1615 1622 1622 1622 1620 1615 1614 1594 0 0 0 0 0 0 0 0 0 1245 1245 1245 1245 1248 1248 1248 1262 0 0 1332 1336 1362 1376 1376 1376 1363 1339 1331 1308 1270 1237 1217 1195 1176 1148 1131 1122 1119 1119 1118 1118 1119 1119 1119 1119 1119 1119 1119 1121 1127 1139 1146 1146 1146 0 1049 1036 1031 1024 1018 1013 1013 1013 1016 1017 1018 1018 1019 1020 1020 1025 1026 1028 1029 1030 1030 1031 1034 1036 1037 1039 1042 1042 1042 1043 1047 1056 1063 1068 1068 1077 1082 1084 1089 1092 1095 1099 1108 1115 1116 1122 1133 1135 1135 1135 1135 1135 1137 1139 1144 1150 1156 1161 1161 1162 1166 1166 1166 1167 1167 1171 1187 1194 1194 1196 1214 1223 1225 1227 1231 1234 1238 1238 1240 1241 1250 1257 1257 1257 1259 1259 1260 1264 1279 1312 1320 1328 1341 1366 1382 1391 1391 1393 1393 1393 1397 1402 1409 1414 1414 1414 1413 1413 1413 1416 1421 1422 1424 1428 1432 1436 1439 1441 1444 1447 1451 1452 1452 1452 1455 1459 1461 1463 1464 1465 1465 1467 1468 1468 1471 1473 1475 1476 1477 1478 1481 1485 1488 1490 1492 1492 1492 1492 1492 1492 1497 1498 1498 1498 1498 1502 1503 1505 1505 1505 1505 1505 1503 1502 1502 1502 1506 1512 1516 1516 1517 1517 1520 1523 1527 1531 1533 1534 1534 1537 1539 1540 1541 1541 1542 1547 1550 1552 1552 1553 1555 1556 1558 1561 1561 1562 1563 1564 1565 1565 1567 1570 1571 1572 1572 1573 1574 1575 1576 1576 1576 1575 1573 1572 1571 1571 1570 1570 1570 1571 1580 1588 1589 1590 1592 1595 1596 1596 1600 1603 1604 1607 1613 1618 1620 1623 1625 1626 1634 1643 1654 1655 1655 1655 1652 1652 1652 1650 1650 1649 1650 1650 1654 1664 1668 1675 1688 1706 1716 1717 1727 1745 1765 1766 1769 1769 1766 0 0 0 0 0 0 1712 1712 1712 1693 1693 1691 1689 1681 1672 1665 1658 1652 1652 1652 1655 1668 1679 1689 1698 1704 1705 1705 1705 1705 1705 1704 1703 1702 1701 1698 1698 1698 1698 1697 1695 1692 1687 1683 1680 1679 1677 1675 1674 1674 1673 1670 1667 1665 1665 1665 1664 1664 1664 1658 1651 1646 1645 1645 1644 1643 1642 1638 1636 1635 1635 1626 1623 1622 1620 1618 1617 1616 1616 1616 1614 1613 1612 1608 1608 1608 1610 1614 1617 1617 1618 1620 1626 1626 1626 1614 1607 1598 1587 1562 0 0 0 0 0 0 0 0 0 0 0 0 0 0 0 0 0 0 1559 1536 1530 1530 1529 1525 1502 1493 1488 1486 1486 0 0 0 0 0 0 0 1324 1323 1318 1307 1297 1297 1288 1288 1288 1239 1200 1185 1160 0 0 0 0 0 0 0 0 1099 1099 1099 1065 1032 1026 1023 1020 990 955 925 925 925 954 966 966 0 0 0 0 0 0 1062 1055 1045 1043 1043 0 0 0 0 0 0 0 0 0 0 0 0 0 0 0 0 0 0 0 0 0 0 0 0 0 0 0 0 0 0 0 0 0 0 0 0 0 0 0 0 0 0 0 0 469 469 464 0 0 0
1095 1095 1109 1124 1136 1143 1145 1151 1160 1172 1191 1201 1213 1228 1244 1260 1272 1281 1287 1292 1298 1305 1311 1320 1327 1330 1338 1341 1345 1349 1353 1355 1356 1357 1357 1357 1357 1361 1370 1380 1389 1399 1416 1422 1432 1439 1443 1448 1454 1467 1483 1499 1509 1517 1523 1528 1534 1539 1545 1551 1555 1557 1558 1560 1563 1567 1573 1577 1583 1590 1596 1601 1605 1609 1611 1613 1618 1618 1618 1618 1614 1596 1595 0 0 0 0 0 0 0 0 1237 1237 1237 1245 1269 1270 1271 1274 1294 1301 1313 1331 1335 1361 1384 1384 1384 1378 1365 1356 1341 1318 1277 1240 1217 1203 1193 1165 1131 1122 1118 1118 1118 1118 1120 1121 1120 1120 1121 1119 1119 1121 1122 1132 1156 1156 1156 0 0 1037 1031 1023 1013 1013 1013 1015 1018 1020 1023 1026 1027 1027 1027 1026 1026 1026 1026 1029 1030 1032 1037 1037 1038 1039 1044 1046 1048 1049 1053 1065 1071 1072 1077 1081 1083 1089 1095 1099 1102 1109 1114 1116 1118 1128 1143 1143 1143 1145 1145 1145 1152 1159 1159 1163 1166 1170 1173 1180 1182 1183 1184 1184 1187 1194 1205 1208 1215 1222 1226 1228 1234 1235 1238 1241 1249 1252 1252 1253 1253 1253 1253 1257 1257 1258 1260 1264 1268 1269 1279 1288 1317 1358 1368 1376 1382 1386 1390 1391 1397 1402 1409 1414 1414 1414 1413 1413 1413 1416 1421 1422 1424 1428 1433 1436 1439 1442 1445 1448 1451 1453 1453 1455 1458 1462 1463 1465 1465 1465 1466 1468 1470 1471 1473 1475 1476 1477 1478 1479 1482 1486 1489 1492 1494 1494 1494 1495 1495 1495 1498 1499 1499 1500 1501 1504 1508 1508 1508 1508 1507 1507 1506 1505 1505 1505 1508 1514 1519 1519 1520 1520 1521 1525 1529 1533 1535 1537 1538 1539 1539 1540 1541 1543 1546 1550 1551 1552 1552 1553 1554 1556 1558 1559 1560 1561 1563 1564 1565 1566 1568 1571 1573 1573 1574 1575 1575 1578 1578 1578 1577 1576 1576 1576 1576 1574 1573 1573 1573 1579 1585 1592 1596 1599 1600 1601 1604 1608 1614 1617 1619 1622 1628 1630 1630 1631 1633 1633 1638 1645 1654 1654 1654 1652 1651 1647 1647 1647 1650 1650 1653 1659 1666 1672 1679 1688 1704 1712 1721 1727 1760 1782 1806 1806 1806 1797 0 0 0 0 0 0 0 1739 1739 1724 1711 1708 1705 1696 1683 1673 1666 1659 1652 1651 1648 1648 1648 1664 1683 1691 1698 1701 1701 1702 1702 1702 1702 1700 1699 1698 1695 1695 1695 1695 1695 1695 1691 1687 1683 1680 1678 1677 1675 1674 1674 1673 1671 1667 1665 1665 1665 1665 1665 1665 1661 1655 1652 1651 1650 1650 1649 1646 1643 1640 1637 1635 1627 1623 1622 1620 1619 1619 1619 1618 1618 1615 1614 1613 1613 1613 1613 1614 1616 1617 1618 1621 1625 1629 1629 1629 1619 1607 1598 1587 1566 0 0 0 0 0 0 0 0 0 0 0 0 1744 1744 1729 0 0 0 1559 1534 1528 1524 1522 1520 1502 1493 1492 1488 0 0 0 0 0 0 0 0 1318 1318 1318 1314 1314 1314 1325 1325 1325 0 0 0 0 0 0 0 0 0 0 0 0 1099 1099 1099 1086 1059 1054 1053 1043 1026 0 0 0 0 974 993 1003 1016 0 0 0 0 0 1062 1055 1045 1043 0 0 0 0 0 0 0 0 0 0 0 0 0 0 0 0 0 0 0 0 663 667 0 0 0 0 0 0 0 0 0 0 0 0 0 0 0 0 0 0 0 0 0 0 0 0 0 0 0 0 0
1110 1110 1122 1131 1140 1143 1147 1151 1160 1172 1191 1201 1212 1223 1243 1260 1271 1279 1284 1291 1298 1306 1315 1321 1327 1331 1338 1341 1345 1349 1354 1358 1362 1364 1365 1366 1366 1366 1374 1381 1389 1393 1397 1421 1432 1438 1443 1448 1454 1466 1478 1493 1509 1516 1523 1528 1534 1539 1544 1549 1553 1555 1557 1559 1561 1566 1573 1577 1579 1583 1591 1601 1605 1609 1611 1613 1613 1613 1612 1601 1596 1595 0 0 0 0 0 0 0 1232 1229 1229 1229 1237 1268 1293 1308 1310 1332 1335 1339 1351 1365 1365 1382 1398 1398 1398 1388 1377 1366 1353 1320 1280 1245 1217 1212 1207 1192 1172 1139 1111 1111 1111 1111 1116 1120 1124 1124 1124 1120 1117 1117 1117 1131 1150 1150 1150 0 0 1038 1031 1023 1017 1017 1017 1019 1020 1022 1029 1032 1032 1032 1031 1028 1026 1026 1026 1029 1030 1036 1039 1039 1039 1039 1056 1056 1060 1064 1064 1069 1076 1081 1083 1086 1088 1096 1113 1122 1125 1125 1126 1130 1139 1148 1156 1156 1156 1156 1156 1159 1172 1174 1175 1179 1184 1186 1189 1201 1201 1204 1205 1205 1207 1207 1208 1211 1217 1224 1227 1233 1235 1238 1242 1244 1251 1253 1253 1253 1253 1253 1253 1254 1257 1257 1260 1263 1263 1265 1267 1267 1281 0 0 1360 1375 1384 1389 1391 1397 1402 1408 1414 1415 1415 1415 1415 1415 1416 1421 1422 1424 1428 1433 1436 1440 1442 1445 1448 1451 1454 1457 1462 1464 1467 1467 1467 1467 1467 1467 1468 1470 1471 1474 1476 1479 1481 1481 1481 1484 1488 1492 1494 1494 1494 1494 1495 1495 1495 1498 1499 1499 1500 1502 1506 1509 1510 1510 1510 1511 1511 1511 1510 1510 1510 1512 1517 1522 1522 1525 1525 1525 1528 1532 1535 1537 1539 1540 1541 1541 1542 1544 1546 1549 1552 1552 1552 1552 1552 1554 1556 1558 1559 1559 1561 1563 1565 1567 1570 1571 1572 1573 1574 1574 1575 1578 1580 1580 1580 1579 1579 1579 1580 1580 1580 1580 1580 1580 1583 1591 1596 1599 1601 1603 1607 1610 1614 1620 1621 1624 1625 1630 1634 1639 1639 1639 1640 1640 1645 1651 1651 1651 1650 1647 1647 1647 1647 1650 1657 1663 1669 1677 1681 1688 1701 1709 1714 1723 1751 1769 1787 1806 1806 1806 1797 0 0 0 0 0 0 0 1743 1743 1728 1727 1723 1718 1713 1695 1679 1666 1663 1659 1652 1648 1648 1648 1650 1670 1681 1686 1692 1695 1695 1698 1698 1698 1698 1697 1696 1694 1694 1694 1695 1695 1695 1691 1687 1683 1680 1678 1676 1675 1675 1674 1674 1673 1669 1667 1666 1666 1666 1666 1666 1662 1657 1655 1655 1654 1654 1652 1650 1646 1643 1640 1635 1627 1624 1623 1623 1623 1623 1623 1621 1619 1618 1617 1617 1616 1616 1616 1616 1617 1619 1622 1624 1625 1629 1629 1629 1619 1608 1600 1589 1562 0 0 0 0 0 0 0 0 0 0 0 1749 1749 1749 1704 1676 1639 0 1565 1531 1512 1504 1503 1502 1500 1495 1494 1490 0 0 0 0 0 0 0 0 1309 1309 1309 1314 1314 1314 1325 1325 1325 0 0 0 0 0 0 0 0 0 0 0 1050 1088 1088 1088 1089 1087 1086 1061 1045 1043 1036 0 0 0 1031 1016 1016 1016 1033 0 0 0 1105 1062 1031 1031 1020 1005 0 0 0 0 0 0 0 0 0 0 0 0 0 0 0 0 0 0 663 667 667 709 0 0 0 0 0 0 0 0 0 0 0 0 0 0 0 0 0 0 0 0 0 0 0 0 0 0 0 0
1110 1110 1127 1136 1140 1146 1156 1167 1173 1179 1191 1201 1212 1223 1239 1260 1270 1279 1284 1291 1298 1306 1315 1321 1327 1331 1338 1341 1343 1349 1354 1359 1364 1367 1371 1374 1376 1377 1377 1382 1389 1393 1397 1403 1424 1438 1442 1448 1454 1466 1478 1487 1501 1516 1523 1528 1534 1539 1542 1547 1551 1554 1557 1559 1561 1566 1573 1577 1579 1582 1585 1599 1605 1608 1611 1613 1613 1613 1594 1564 0 0 0 0 0 0 0 0 1221 1221 1221 1226 1229 1259 1289 1311 1329 1343 1357 1363 1368 1380 1382 1394 1407 1407 1407 1405 1397 1388 1377 1357 1320 1280 1247 1224 1218 1212 1202 1186 1163 1118 1105 1105 1105 1111 1120 1124 1124 1124 1122 1117 1117 1117 1129 1145 1150 1150 0 0 1055 1041 1023 1018 1018 1018 1021 1021 1026 1033 1038 1038 1038 1035 1028 1026 1026 1026 1033 1041 1042 1042 1045 1045 1059 1079 1089 1089 1089 1083 1083 1083 1093 1101 1103 1109 1116 1126 1131 1138 1138 1139 1140 1153 1171 1177 1177 1177 1177 1177 1177 1184 1192 1195 1199 1202 1202 1203 1210 1211 1213 1214 1214 1216 1218 1218 1219 1222 1224 1231 1234 1237 1240 1243 1246 1254 1254 1254 1255 1255 1255 1255 1256 1257 1259 1261 1262 1262 1262 1260 1259 1259 0 0 0 1364 1379 1388 1390 1397 1402 1408 1410 1416 1417 1417 1418 1419 1422 1422 1425 1426 1430 1434 1437 1441 1444 1446 1450 1452 1456 1460 1463 1465 1468 1468 1468 1468 1468 1468 1468 1471 1473 1474 1479 1481 1483 1485 1486 1487 1491 1493 1494 1494 1494 1494 1495 1495 1495 1498 1499 1499 1500 1503 1506 1509 1510 1510 1512 1513 1514 1514 1514 1514 1514 1514 1520 1527 1531 1532 1533 1533 1533 1533 1535 1538 1541 1543 1543 1543 1544 1546 1546 1549 1552 1552 1552 1552 1552 1554 1556 1558 1559 1559 1561 1564 1566 1569 1572 1573 1573 1574 1575 1577 1580 1583 1583 1583 1584 1583 1583 1583 1584 1584 1587 1588 1589 1590 1593 1594 1598 1602 1608 1613 1614 1618 1620 1624 1626 1627 1629 1631 1635 1639 1639 1640 1640 1640 1645 1646 1646 1646 1643 1643 1643 1644 1647 1652 1661 1668 1677 1683 1690 1701 1705 1709 1715 1734 1754 1775 1787 1806 1806 1806 1797 0 0 0 0 0 0 0 1786 1765 1740 1732 1729 1723 1718 1706 1687 1670 1669 1666 1664 1654 1650 1650 1650 1658 1670 1677 1680 1681 1681 1685 1688 1690 1693 1693 1693 1694 1694 1694 1694 1694 1694 1690 1687 1683 1680 1677 1675 1675 1675 1674 1674 1673 1672 1670 1666 1666 1666 1666 1666 1665 1660 1659 1658 1658 1656 1654 1651 1646 1643 1640 1635 1628 1626 1626 1626 1626 1626 1626 1625 1623 1620 1620 1619 1619 1618 1618 1618 1619 1621 1623 1625 1625 1625 1625 1625 1619 1608 1601 1589 1562 0 0 0 0 0 0 0 0 0 0 1753 1753 1753 1741 1702 1671 1646 1625 1583 1534 1512 1504 1503 1502 1500 1499 1497 1491 0 0 0 0 0 0 0 0 0 1309 1309 1314 1314 1314 1326 1326 1326 0 0 0 1172 1159 1146 0 0 0 0 0 1046 1080 1086 1087 1089 1087 1086 1061 1055 1055 1055 1054 1054 1054 1052 1016 1016 1016 1033 0 0 1112 1112 1075 1031 1027 1018 1005 0 0 0 0 0 0 0 0 0 0 0 0 0 0 0 0 0 674 664 664 664 676 676 0 0 0 0 0 0 0 0 0 0 0 0 0 0 0 0 0 0 0 0 0 0 0 0 0 0 0
1113 1113 1127 1138 1142 1150 1163 1174 1181 1187 1192 1201 1212 1223 1238 1255 1270 1278 1284 1291 1298 1306 1315 1321 1327 1332 1337 1341 1343 1349 1355 1359 1367 1372 1376 1380 1385 1387 1388 1388 1390 1393 1397 1402 1415 1435 1441 1450 1459 1466 1478 1487 1501 1513 1519 1527 1534 1539 1542 1546 1551 1554 1556 1559 1561 1566 1573 1577 1579 1582 1585 1586 1593 1596 1599 1599 1599 0 0 0 0 0 0 0 0 0 0 0 1221 1221 1221 1237 1263 1289 1307 1327 1345 1364 1379 1390 1395 1401 1403 1412 1412 1415 1415 1415 1409 1400 1386 1357 1320 1280 1250 1232 1221 1215 1206 1190 1167 1132 1105 1098 1098 1098 1102 1113 1122 1122 1122 1117 1117 1117 1129 1145 1178 1178 1178 0 0 1062 1057 1039 1022 1022 1022 1023 1026 1033 1039 1040 1040 1040 1033 1032 1032 1032 1040 1048 1048 1048 1052 1052 1073 1091 1093 1093 1093 1092 1092 1092 1110 1111 1116 1118 1122 1127 1137 1147 1154 1154 1159 1168 1187 1188 1190 1190 1188 1190 1193 1199 1206 1207 1209 1210 1210 1212 1214 1216 1221 1224 1228 1231 1231 1231 1232 1232 1233 1234 1236 1239 1241 1243 1247 1254 1257 1257 1257 1255 1255 1255 1256 1257 1259 1261 1263 1263 1263 1259 1258 1258 1258 0 0 0 1370 1380 1390 1397 1402 1408 1410 1416 1418 1419 1421 1423 1425 1425 1427 1429 1433 1436 1440 1443 1445 1447 1451 1454 1459 1463 1465 1467 1470 1470 1470 1470 1470 1470 1472 1473 1475 1478 1481 1483 1486 1488 1490 1492 1492 1494 1494 1494 1494 1494 1493 1493 1493 1494 1495 1497 1500 1504 1506 1509 1510 1510 1513 1516 1517 1517 1517 1517 1517 1517 1523 1530 1535 1538 1538 1538 1536 1536 1536 1540 1544 1546 1546 1546 1546 1546 1547 1549 1550 1550 1551 1551 1551 1553 1556 1558 1559 1559 1562 1565 1568 1571 1574 1574 1574 1575 1575 1577 1581 1583 1585 1587 1587 1588 1588 1589 1591 1591 1595 1598 1598 1598 1599 1599 1602 1606 1611 1616 1621 1624 1626 1626 1630 1634 1636 1636 1638 1639 1639 1640 1640 1640 1641 1641 1641 1641 1641 1641 1642 1644 1649 1655 1661 1671 1682 1693 1705 1707 1708 1709 1724 1746 1765 1779 1787 1795 1795 1795 0 0 0 0 0 0 0 1839 1839 1765 1742 1740 1732 1723 1718 1708 1703 1680 1679 1676 1675 1674 1659 1657 1657 1657 1661 1671 1673 1674 1675 1675 1678 1682 1686 1687 1689 1690 1692 1693 1694 1694 1694 1690 1687 1683 1680 1676 1674 1674 1674 1674 1674 1674 1673 1672 1669 1668 1668 1668 1668 1668 1666 1664 1663 1661 1657 1654 1651 1647 1644 1640 1635 1628 1627 1627 1627 1628 1628 1628 1628 1627 1625 1624 1622 1621 1619 1619 1619 1619 1621 1623 1623 1623 1622 1622 1620 1620 1619 1605 1589 1562 0 0 0 0 0 0 0 0 0 0 1783 1783 1756 1721 1694 1665 1646 1638 1589 1534 1512 1504 1504 1504 1515 1515 1515 1491 0 0 0 0 0 0 0 0 0 0 0 1314 1314 1314 1326 1326 1326 0 0 1174 1172 1172 1169 1169 0 0 0 0 1046 1070 1084 1087 1089 1087 1084 1065 1065 1065 1066 1066 1066 1054 1052 1013 1013 1013 1033 1072 1107 1107 1107 1075 1031 1021 1011 1005 0 0 0 0 0 0 0 0 0 0 0 0 0 0 0 0 0 0 656 656 656 656 656 0 0 0 0 0 0 0 0 0 0 0 0 0 0 0 0 0 0 0 0 0 0 0 0 0 0 0
1113 1113 1127 1139 1144 1155 1169 1181 1186 1189 1195 1203 1215 1225 1237 1251 1266 1272 1283 1291 1298 1306 1314 1321 1327 1332 1337 1341 1343 1349 1356 1361 1370 1376 1380 1386 1390 1393 1395 1396 1396 1397 1398 1401 1414 1435 1440 1450 1461 1470 1481 1487 1501 1513 1519 1527 1534 1539 1541 1545 1549 1552 1555 1559 1565 1570 1574 1579 1581 1582 1582 1582 1584 1585 1580 1580 0 0 0 0 0 0 0 0 0 0 0 1224 1224 1224 1244 1264 1293 1313 1329 1345 1364 1384 1404 1415 1417 1417 1418 1420 1423 1428 1428 1428 1422 1409 1390 1357 1315 1279 1250 1243 1230 1223 1208 1197 1173 1143 1117 1098 1095 1095 1095 1109 1121 1121 1121 1120 1120 1120 1129 1139 1185 1185 1185 0 0 1081 1080 1058 1035 1023 1023 1023 1026 1033 1039 1040 1040 1040 1033 1033 1033 1038 1044 1052 1055 1057 1057 1058 1082 1098 1109 1114 1115 1115 1115 1120 1120 1120 1121 1121 1127 1137 1146 1154 1162 1168 1173 1181 1188 1189 1192 1192 1196 1200 1206 1209 1210 1212 1216 1218 1219 1220 1223 1224 1226 1231 1235 1238 1239 1239 1239 1239 1239 1242 1245 1247 1247 1249 1254 1255 1257 1257 1257 1255 1255 1255 1256 1258 1260 1262 1265 1265 1265 1260 1258 1254 1254 1254 0 0 0 1370 1390 1399 1405 1409 1410 1416 1418 1420 1422 1426 1427 1428 1432 1435 1439 1441 1443 1444 1446 1448 1452 1457 1461 1466 1468 1471 1472 1473 1473 1473 1473 1475 1476 1477 1480 1482 1484 1486 1488 1490 1492 1494 1494 1494 1494 1494 1494 1494 1493 1492 1492 1493 1493 1497 1500 1504 1507 1508 1510 1510 1514 1518 1519 1520 1520 1520 1520 1520 1526 1532 1535 1538 1538 1538 1537 1537 1537 1541 1545 1546 1546 1546 1546 1546 1548 1549 1550 1550 1550 1551 1551 1553 1556 1558 1559 1561 1564 1567 1571 1574 1577 1577 1577 1577 1577 1578 1582 1584 1585 1587 1590 1592 1594 1595 1597 1599 1599 1602 1603 1604 1605 1605 1608 1611 1615 1620 1625 1633 1634 1639 1641 1642 1642 1642 1642 1642 1641 1638 1638 1638 1638 1640 1640 1640 1641 1641 1642 1647 1651 1657 1663 1672 1695 1708 1715 1715 1717 1732 1745 1756 1768 1780 1782 1782 1782 1781 0 0 0 0 0 0 0 1839 1839 1765 1742 1740 1732 1722 1718 1708 1703 1698 1697 1695 1695 1694 1686 1671 1658 1658 1658 1664 1664 1665 1665 1665 1669 1676 1679 1679 1682 1686 1692 1692 1692 1689 1688 1686 1686 1683 1679 1672 1671 1671 1671 1671 1671 1672 1673 1673 1672 1670 1670 1669 1669 1669 1668 1666 1663 1661 1658 1654 1651 1648 1644 1641 1635 1629 1628 1628 1628 1628 1629 1629 1629 1629 1629 1626 1624 1622 1620 1620 1620 1620 1622 1625 1625 1625 1620 1620 1620 1620 1620 1613 1589 1554 0 0 0 0 0 0 0 0 0 1791 1791 1791 1756 1721 1694 1665 1656 1641 1629 1591 1536 1527 1527 1527 1545 1545 1545 0 0 0 0 0 0 0 0 0 0 0 0 0 0 1335 1325 1322 0 0 0 1177 1177 1177 1177 1177 1171 0 0 0 1066 1066 1073 1073 1073 1061 1061 1061 1094 1109 1109 1109 1092 1070 1052 1015 1015 1015 1033 1059 1098 1098 1098 1065 1053 1028 1000 0 0 0 0 0 0 0 0 0 0 0 0 0 0 0 0 0 0 0 653 653 653 653 653 0 0 0 0 0 0 0 0 0 0 0 0 0 0 0 0 0 0 0 0 0 0 0 0 0 0 0
1113 1113 1128 1139 1143 1159 1175 1184 1187 1189 1195 1203 1215 1225 1237 1249 1261 1266 1283 1292 1300 1306 1314 1318 1324 1331 1337 1341 1345 1352 1361 1365 1374 1379 1385 1391 1395 1398 1400 1400 1400 1402 1402 1402 1410 1419 1440 1450 1461 1471 1484 1495 1504 1513 1519 1527 1534 1539 1541 1543 1546 1548 1554 1560 1566 1572 1577 1580 1581 1582 1582 1582 1577 1564 0 0 0 0 0 0 0 0 0 1238 1231 1231 1231 1231 1231 0 0 1292 1324 1348 1368 1381 1406 1421 1431 1435 1435 1435 1431 1431 1431 1435 1435 1435 1426 1410 1390 0 0 1263 1250 1243 1237 1233 1228 1206 1183 1155 1128 1107 1095 1095 1095 1104 1113 1113 1113 1114 1121 1121 1131 1139 1177 1187 1187 0 0 1104 1085 1065 1046 1033 1027 1027 1027 1033 1040 1040 1040 1040 1035 1035 1035 1042 1051 1061 1067 1068 1069 1077 1085 1103 1115 1120 1122 1129 1138 1138 1138 1136 1136 1136 1137 1147 1154 1161 1169 1174 1179 1184 1190 1197 1197 1199 1203 1208 1209 1211 1213 1219 1223 1223 1224 1224 1228 1229 1233 1236 1238 1240 1240 1241 1242 1244 1246 1248 1250 1250 1250 1254 1255 1257 1257 1258 1259 1259 1260 1260 1260 1261 1261 1262 1265 1265 1265 1262 1260 1254 1251 1247 1247 0 0 0 1395 1405 1410 1412 1414 1419 1420 1421 1424 1428 1432 1436 1439 1442 1444 1444 1445 1445 1446 1449 1454 1461 1466 1468 1471 1474 1474 1475 1475 1475 1476 1479 1481 1482 1485 1486 1486 1487 1489 1492 1494 1496 1496 1496 1496 1494 1494 1494 1493 1492 1492 1493 1493 1497 1503 1505 1507 1508 1510 1512 1516 1519 1520 1521 1521 1521 1523 1527 1530 1532 1535 1538 1538 1538 1537 1537 1537 1541 1545 1546 1546 1546 1546 1546 1548 1549 1550 1550 1550 1551 1551 1553 1556 1559 1560 1561 1564 1569 1573 1576 1578 1578 1578 1579 1579 1580 1583 1585 1587 1590 1592 1593 1594 1595 1597 1600 1602 1604 1606 1608 1609 1610 1613 1617 1619 1625 1631 1636 1638 1639 1641 1642 1642 1642 1642 1641 1638 1637 1637 1637 1638 1639 1640 1641 1641 1642 1643 1648 1654 1663 1671 1681 1697 1717 1723 1727 1734 1749 1758 1765 1775 1779 1779 1779 1775 1772 0 0 0 0 0 0 0 1796 1796 1758 1743 1735 1722 1713 1709 1708 1703 1703 1703 1701 1701 1701 1694 1679 1661 1661 1661 1658 1658 1658 1658 1658 1662 1672 1677 1678 1679 1681 1689 1689 1689 1686 1682 1681 1681 1679 1672 1667 1666 1666 1666 1667 1667 1669 1672 1672 1672 1671 1671 1671 1670 1669 1668 1666 1663 1662 1658 1656 1653 1649 1644 1641 1635 1629 1629 1629 1629 1629 1629 1630 1631 1631 1631 1630 1627 1625 1622 1622 1622 1622 1624 1625 1625 1625 1620 1620 1620 1619 1619 1613 1585 0 0 0 0 0 0 0 0 0 0 1793 1793 1793 1756 1721 1694 1665 1656 1645 1629 1600 1564 1540 1540 1540 1561 1561 1561 0 0 0 0 0 0 0 0 0 0 0 0 0 0 0 0 0 0 0 0 1183 1181 1181 1183 1201 1201 1201 0 0 1078 1076 1073 1063 1063 1061 1061 1061 1124 1125 1125 1125 1111 1070 1045 1010 1010 1010 1033 1059 1098 1098 1098 1065 1053 1028 0 0 0 0 0 0 0 0 0 0 0 0 0 0 0 0 0 0 0 0 643 643 644 644 643 0 0 0 0 0 0 0 0 0 0 0 0 0 0 0 0 0 0 0 0 0 0 0 0 0 0 0
1118 1118 1129 1139 1143 1159 1175 1184 1188 1190 1196 1203 1215 1225 1237 1249 1261 1266 1281 1292 1300 1305 1312 1316 1320 1330 1339 1344 1350 1358 1363 1374 1381 1385 1389 1395 1400 1402 1405 1407 1407 1407 1407 1407 1410 1414 1426 1448 1462 1473 1485 1502 1510 1519 1523 1529 1534 1539 1541 1543 1546 1548 1554 1560 1568 1574 1577 1580 1581 1582 1582 1582 1567 0 0 0 0 0 0 0 0 1217 1217 1225 1238 1239 1253 1262 1273 0 0 0 1365 1382 1399 1410 1422 1437 1439 1439 1439 1439 1437 1437 1437 1437 1437 1437 1426 1410 1390 0 0 1256 1247 1243 1238 1238 1234 1220 1199 1175 1153 1134 1099 1092 1092 1092 1092 1110 1112 1114 1122 1128 1132 1139 1161 1190 1190 1190 0 0 1090 1068 1052 1042 1037 1033 1033 1033 1040 1040 1040 1040 1035 1035 1035 1047 1061 1066 1070 1075 1081 1081 1098 1117 1126 1126 1126 1135 1147 1149 1149 1149 1150 1150 1150 1158 1161 1167 1172 1176 1180 1189 1199 1203 1203 1205 1209 1212 1213 1216 1219 1223 1226 1227 1229 1229 1232 1234 1238 1242 1244 1244 1244 1245 1247 1248 1249 1251 1251 1252 1253 1254 1256 1257 1258 1260 1261 1262 1263 1264 1264 1264 1264 1265 1265 1265 1265 1265 1263 1260 1251 1245 1245 1245 0 0 1395 1415 1418 1421 1421 1424 1426 1426 1426 1430 1435 1438 1441 1443 1445 1445 1445 1446 1448 1452 1458 1464 1469 1471 1474 1476 1477 1477 1477 1478 1479 1481 1482 1485 1486 1487 1487 1488 1489 1492 1495 1496 1496 1496 1496 1496 1496 1495 1494 1494 1493 1493 1493 1499 1504 1507 1508 1508 1510 1513 1517 1519 1520 1521 1521 1522 1524 1527 1530 1532 1535 1537 1537 1537 1537 1537 1537 1541 1545 1545 1545 1546 1546 1546 1548 1550 1550 1551 1551 1552 1553 1555 1557 1559 1560 1562 1566 1570 1574 1577 1578 1579 1579 1580 1580 1582 1585 1588 1589 1592 1594 1594 1595 1595 1597 1600 1602 1604 1607 1609 1612 1614 1618 1620 1625 1628 1634 1636 1638 1639 1641 1643 1643 1643 1643 1641 1638 1637 1637 1637 1638 1639 1640 1641 1642 1643 1646 1656 1665 1669 1671 1681 1697 1717 1725 1738 1747 1767 1771 1776 1781 1781 1781 1778 1774 1772 0 0 0 0 0 0 1794 1794 1772 1754 1747 1735 1722 1713 1704 1704 1701 1701 1701 1702 1702 1702 1696 1686 1671 1664 1661 1661 1658 1658 1658 1658 1662 1669 1675 1675 1675 1675 1675 1676 1676 1676 1676 1676 1673 1672 1668 1664 1659 1659 1659 1659 1664 1666 1668 1671 1671 1671 1671 1671 1670 1669 1668 1666 1663 1662 1659 1658 1656 1653 1649 1645 1641 1637 1634 1630 1629 1629 1630 1630 1632 1632 1632 1632 1631 1628 1625 1624 1624 1624 1626 1626 1626 1625 1620 1620 1620 1619 1619 1613 1582 0 0 0 0 0 0 0 0 0 0 1793 1793 1793 1760 1727 1701 1665 1656 1649 1633 1602 1568 1568 1568 1570 1570 1570 1564 0 0 0 0 0 0 0 0 0 0 0 0 0 0 0 0 0 0 0 0 1183 1183 1184 1186 1214 1214 1214 0 0 1076 1056 1044 1035 1035 1035 0 0 0 1159 1159 1156 1117 1070 1016 997 997 997 1022 1059 1072 1072 1072 1065 1053 1028 0 0 0 0 0 0 0 0 0 0 0 0 0 0 0 0 0 0 0 0 624 624 626 626 626 0 0 0 0 0 0 0 0 0 0 0 0 0 0 0 0 0 0 0 0 0 0 0 0 0 0 0
1119 1119 1129 1131 1143 1159 1175 1184 1188 1190 1196 1203 1214 1225 1237 1249 1256 1266 1280 1292 1300 1305 1308 1312 1318 1331 1340 1347 1357 1365 1370 1378 1386 1389 1393 1399 1402 1405 1409 1412 1412 1412 1410 1410 1410 1414 1426 1442 1463 1481 1491 1503 1513 1520 1524 1529 1534 1539 1541 1543 1546 1548 1554 1560 1568 1574 1575 1575 1575 1558 1557 0 0 0 0 0 0 0 0 1212 1212 1212 1217 1225 1239 1257 1278 1295 1319 1340 1353 1368 1387 1402 1417 1427 1435 1445 1453 1453 1453 1451 1448 1448 1448 1447 1445 1438 1426 1410 1376 0 1284 1256 1247 1242 1240 1239 1237 1226 1211 1189 1171 1147 1119 1097 1092 1092 1092 1102 1112 1123 1137 1138 1140 1145 1148 1167 1188 1188 1188 0 0 0 1061 1053 1048 1044 1041 1041 1040 1040 1040 1040 1040 1040 1040 1053 1062 1068 1073 1079 1085 1100 1120 1134 1137 1140 1149 1155 1157 1165 1165 1166 1166 1166 1170 1173 1174 1176 1180 1184 1188 1195 1203 1206 1210 1213 1215 1215 1217 1220 1224 1227 1230 1231 1233 1234 1236 1239 1242 1243 1244 1245 1246 1247 1249 1250 1251 1252 1253 1254 1254 1255 1258 1259 1260 1261 1262 1263 1264 1264 1264 1264 1265 1265 1266 1268 1268 1268 1268 1268 1261 1246 1246 1246 0 0 1395 1421 1427 1427 1430 1430 1430 1431 1431 1431 1435 1438 1441 1443 1445 1445 1446 1450 1452 1457 1461 1466 1470 1475 1478 1480 1480 1480 1480 1480 1481 1483 1483 1485 1487 1490 1490 1491 1491 1494 1496 1497 1497 1497 1497 1496 1496 1496 1495 1495 1496 1496 1496 1500 1505 1508 1509 1509 1512 1515 1519 1519 1521 1521 1522 1523 1525 1527 1530 1532 1533 1535 1536 1536 1536 1536 1536 1541 1543 1543 1544 1544 1544 1546 1550 1550 1550 1551 1551 1553 1555 1556 1557 1559 1560 1564 1567 1571 1574 1577 1578 1580 1580 1581 1581 1583 1586 1591 1593 1596 1596 1596 1596 1596 1598 1601 1603 1604 1608 1611 1615 1617 1621 1624 1627 1633 1635 1636 1638 1639 1642 1643 1644 1644 1644 1641 1638 1637 1637 1637 1639 1640 1642 1647 1651 1653 1660 1669 1669 1671 1674 1681 1697 1717 1727 1742 1759 1767 1771 1776 1781 1781 1781 1778 1774 1756 0 0 0 0 0 0 1794 1794 1764 1754 1747 1735 1722 1713 1704 1703 1701 1701 1701 1705 1705 1705 1697 1688 1681 1664 1661 1661 1661 1658 1658 1658 1662 1669 1669 1669 1657 1657 1657 1662 1663 1665 1667 1668 1668 1668 1664 1659 1659 1659 1659 1659 1664 1666 1667 1670 1671 1671 1671 1671 1670 1669 1664 1663 1663 1662 1660 1658 1657 1656 1653 1649 1644 1642 1639 1635 1630 1630 1630 1631 1634 1636 1636 1636 1634 1632 1630 1627 1627 1627 1627 1626 1626 1625 1620 1619 1618 1618 1617 1610 1574 0 0 0 0 0 0 0 0 0 1780 1797 1797 1797 1771 1736 1720 1690 1674 1662 1633 1606 1578 1576 1573 1573 1573 1573 1564 1539 0 0 0 0 0 0 0 0 0 0 0 0 0 1329 1300 1279 0 0 0 0 1183 1215 1219 1219 1219 1214 1190 0 0 1056 1044 1023 1023 0 0 0 0 0 0 0 0 0 0 0 0 0 0 1059 1072 1072 1072 1048 1035 1019 0 0 0 0 0 0 0 0 0 0 0 0 0 0 0 0 0 0 0 0 0 624 626 626 0 0 0 0 0 0 0 0 0 0 0 0 0 0 0 0 0 0 0 0 0 0 0 0 0 0 0 0
1119 1119 1129 1130 1141 1157 1172 1182 1188 1192 1196 1203 1214 1225 1237 1248 1255 1266 1279 1291 1299 1305 1308 1312 1318 1331 1341 1354 1363 1368 1375 1385 1391 1395 1400 1406 1410 1416 1416 1417 1417 1417 1413 1413 1413 1414 1426 1442 1464 1481 1495 1506 1517 1520 1525 1531 1536 1540 1542 1545 1547 1552 1557 1560 1568 1568 1568 1566 1543 0 0 0 0 0 0 0 0 1197 1197 1200 1212 1212 1231 1249 1268 1293 1309 1328 1345 1361 1377 1389 1399 1413 1421 1432 1441 1450 1457 1458 1458 1458 1458 1456 1456 1456 1450 1440 1426 1398 0 0 1283 1256 1247 1242 1241 1241 1239 1231 1215 1202 1179 1151 1125 1105 1092 1092 1092 1102 1114 1127 1143 1145 1147 1148 1148 1156 1177 1196 1196 1196 0 0 0 1068 1060 1059 1057 1052 1040 1040 1040 1042 1046 1049 1052 1058 1065 1074 1074 1083 1101 1120 1133 1141 1145 1161 1178 1184 1184 1184 1178 1174 1174 1174 1174 1176 1181 1184 1187 1192 1196 1201 1205 1209 1212 1216 1217 1218 1220 1224 1229 1229 1231 1234 1235 1237 1239 1240 1242 1243 1245 1247 1248 1250 1250 1252 1253 1254 1255 1256 1257 1259 1260 1261 1262 1262 1263 1263 1264 1265 1265 1266 1266 1266 1267 1268 1270 1270 1271 1271 1270 1265 1263 1263 1263 0 0 1421 1427 1435 1435 1435 1433 1432 1432 1432 1435 1438 1441 1443 1445 1445 1447 1451 1455 1458 1462 1467 1472 1477 1481 1481 1481 1481 1482 1482 1482 1484 1485 1487 1489 1492 1494 1495 1497 1497 1497 1498 1498 1498 1497 1496 1496 1496 1496 1496 1496 1497 1498 1501 1505 1509 1511 1513 1514 1517 1519 1520 1521 1521 1522 1524 1525 1527 1530 1532 1533 1534 1535 1535 1535 1536 1536 1539 1543 1543 1543 1544 1544 1547 1550 1550 1551 1551 1552 1554 1556 1558 1559 1559 1560 1565 1568 1572 1575 1577 1578 1580 1582 1582 1583 1584 1588 1593 1596 1597 1597 1597 1597 1597 1598 1601 1603 1605 1608 1612 1615 1618 1621 1624 1629 1633 1635 1636 1637 1638 1642 1644 1644 1645 1645 1645 1642 1642 1642 1645 1652 1655 1656 1661 1669 1675 1680 1680 1680 1672 1672 1672 1685 1705 1732 1744 1759 1767 1771 1776 1781 1781 1781 1778 1766 0 0 0 0 0 0 0 1768 1768 1758 1750 1747 1735 1722 1709 1701 1701 1701 1701 1701 1705 1712 1712 1712 1699 1684 1669 1669 1669 1669 1669 1666 1666 1666 1662 1662 1662 1657 1657 1657 1657 1657 1657 1659 1663 1663 1663 1660 1659 1659 1659 1659 1659 1664 1666 1667 1670 1670 1670 1668 1668 1667 1665 1664 1663 1663 1662 1660 1659 1658 1657 1655 1652 1647 1646 1643 1640 1634 1634 1634 1634 1637 1640 1640 1640 1638 1638 1635 1631 1628 1627 1627 1626 1626 1625 1623 1619 1619 1618 1616 1590 1557 0 0 0 0 0 0 0 0 0 1835 1835 1835 1812 1771 1736 1720 1707 1697 1677 1656 1643 1614 1598 1592 1589 1580 1572 1564 1539 1502 1460 1432 1415 1408 0 0 0 0 0 0 0 1348 1333 1309 1289 1277 0 0 0 1220 1220 1215 1215 1202 1175 1165 0 0 0 0 0 0 0 0 0 0 0 0 0 0 0 0 0 0 0 0 0 1059 1059 1053 1031 1022 1004 0 0 0 0 0 0 0 0 0 0 0 0 0 0 0 0 0 0 0 0 0 0 0 0 0 0 0 0 0 0 0 0 0 0 0 0 0 0 0 0 0 0 0 0 0 0 0 0 0 0 0 0
1119 1119 1125 1128 1136 1149 1163 1176 1184 1192 1201 1204 1214 1225 1238 1249 1255 1265 1278 1291 1299 1305 1308 1312 1318 1331 1344 1359 1371 1375 1386 1392 1399 1405 1410 1414 1420 1423 1423 1423 1423 1421 1420 1420 1420 1420 1430 1442 1464 1483 1498 1512 1517 1521 1527 1532 1538 1540 1542 1545 1547 1552 1557 1560 1560 1560 1547 0 0 0 0 0 0 0 0 1193 1193 1194 1197 1200 1212 1241 1267 1283 1301 1315 1328 1344 1359 1376 1388 1399 1407 1414 1423 1432 1441 1450 1457 1458 1463 1464 1464 1464 1464 1464 1458 1445 1426 1397 0 1308 1276 1257 1247 1247 1247 1244 1244 1237 1224 1214 1195 1164 1146 1124 1111 1110 1110 1111 1115 1127 1143 1154 1154 1156 1156 1156 1168 1196 1201 1201 1201 0 0 0 0 1069 1067 1061 1043 1043 1043 1048 1064 1064 1064 1069 1069 1078 1088 1098 1115 1135 1142 1151 1161 1172 1181 1186 1186 1186 1180 1179 1179 1179 1181 1185 1190 1193 1194 1196 1199 1204 1210 1213 1215 1218 1220 1221 1224 1228 1229 1230 1232 1234 1237 1240 1241 1242 1244 1244 1246 1248 1249 1251 1252 1254 1255 1256 1256 1257 1258 1260 1260 1262 1263 1263 1263 1264 1265 1265 1265 1266 1266 1266 1267 1269 1270 1271 1273 1273 1273 1266 1260 1260 1260 0 0 0 1427 1435 1435 1435 1433 1433 1433 1433 1435 1438 1441 1443 1445 1445 1447 1451 1455 1459 1462 1467 1472 1477 1481 1481 1482 1482 1483 1483 1484 1485 1486 1488 1490 1493 1494 1496 1497 1497 1497 1498 1498 1498 1497 1496 1496 1496 1496 1496 1497 1497 1500 1502 1506 1510 1513 1513 1515 1517 1520 1521 1521 1522 1523 1525 1527 1529 1530 1532 1533 1534 1535 1535 1535 1536 1536 1539 1542 1543 1543 1544 1544 1547 1550 1550 1551 1551 1552 1554 1557 1563 1563 1563 1565 1566 1570 1574 1575 1576 1576 1578 1582 1584 1586 1587 1590 1593 1597 1598 1598 1598 1598 1598 1600 1602 1604 1607 1610 1613 1615 1618 1621 1624 1629 1634 1635 1636 1636 1638 1642 1647 1651 1651 1651 1649 1649 1649 1652 1658 1664 1665 1665 1669 1674 1681 1683 1683 1683 1671 1671 1671 1677 1703 1731 1747 1761 1767 1769 1771 1775 1778 1778 1778 1761 0 0 0 0 0 0 0 1751 1751 1749 1747 1746 1735 1722 1709 1704 1702 1701 1702 1704 1706 1712 1712 1712 1703 1694 1680 1675 1675 1674 1672 1672 1669 1668 1668 1668 1662 1657 1657 1657 1657 1657 1657 1659 1661 1661 1661 1660 1660 1659 1659 1660 1660 1664 1666 1666 1667 1667 1667 1666 1665 1664 1664 1664 1664 1663 1662 1660 1659 1658 1658 1656 1653 1651 1649 1647 1643 1640 1639 1639 1639 1642 1643 1643 1643 1641 1640 1637 1633 1628 1626 1626 1626 1626 1626 1625 1625 1623 1618 1612 1581 0 0 0 0 0 0 0 0 0 0 1852 1852 1852 1812 1771 1736 1720 1717 1716 1704 1694 1673 1659 1652 1637 1619 1592 1571 1564 1539 1515 1475 1433 1418 1417 1416 0 0 0 0 0 0 1324 1324 1324 1310 1302 1287 1286 1285 1258 1241 1226 1217 1202 1175 1163 1162 0 0 0 0 0 0 0 0 0 0 0 0 0 0 0 0 0 0 0 0 1040 1040 1024 1006 999 974 0 0 0 0 796 796 817 0 0 0 0 0 784 807 810 0 0 0 0 0 0 0 0 0 0 0 0 0 0 0 0 0 0 0 0 0 0 0 0 0 0 0 0 0 0 0 0 0 0 0 0 0
1114 1114 1116 1123 1131 1149 1157 1168 1181 1192 1202 1215 1227 1235 1242 1249 1255 1265 1277 1291 1299 1305 1309 1315 1324 1337 1348 1364 1374 1382 1391 1398 1406 1412 1418 1421 1427 1431 1431 1431 1429 1426 1426 1426 1426 1428 1434 1446 1467 1483 1498 1512 1519 1524 1527 1532 1538 1540 1542 1545 1547 1552 1556 1556 0 0 0 0 0 0 0 0 0 0 1184 1184 1189 1197 1200 1218 1241 1269 1293 1311 1322 1333 1344 1355 1367 1376 1388 1399 1407 1414 1423 1432 1441 1450 1457 1458 1464 1467 1468 1469 1469 1469 1465 1453 1427 1397 0 1305 1276 1264 1260 1260 1260 1261 1261 1261 1247 1231 1211 1184 1164 1149 1148 1133 1124 1124 1124 1127 1147 1161 1163 1163 1167 1167 1168 1181 1201 1205 1205 1202 0 0 0 0 0 1071 1048 1048 1048 1057 1070 1070 1077 1077 1083 1100 1113 1121 1141 1153 1154 1158 1168 1179 1183 1187 1187 1187 1184 1184 1184 1185 1189 1197 1202 1202 1203 1203 1206 1211 1214 1215 1217 1220 1222 1223 1225 1228 1231 1231 1234 1237 1239 1241 1243 1244 1245 1246 1248 1249 1250 1251 1253 1254 1255 1256 1258 1258 1259 1260 1262 1262 1263 1264 1264 1264 1266 1266 1267 1267 1268 1268 1269 1270 1270 1271 1273 1273 1273 1270 1265 1265 1265 1270 0 0 1421 1435 1435 1435 1433 1433 1433 1434 1435 1437 1439 1442 1445 1446 1450 1453 1457 1460 1463 1468 1472 1477 1481 1481 1482 1482 1483 1484 1486 1488 1489 1491 1493 1493 1495 1496 1497 1498 1498 1498 1498 1498 1497 1496 1496 1496 1496 1497 1497 1498 1501 1505 1508 1511 1513 1515 1515 1518 1520 1522 1523 1523 1524 1526 1528 1530 1532 1533 1534 1534 1535 1535 1537 1538 1539 1539 1542 1544 1544 1544 1545 1547 1551 1551 1551 1553 1553 1556 1563 1567 1567 1568 1568 1569 1573 1575 1575 1576 1577 1578 1583 1587 1590 1592 1595 1597 1597 1599 1599 1599 1600 1601 1602 1603 1605 1608 1613 1615 1617 1618 1621 1625 1630 1634 1635 1636 1636 1638 1642 1649 1654 1656 1656 1656 1656 1656 1659 1665 1669 1670 1671 1672 1677 1685 1685 1685 1685 1671 1668 1668 1668 1691 1731 1751 1761 1762 1762 1765 1773 1781 1781 1781 0 0 0 0 0 0 0 1730 1733 1741 1741 1734 1734 1734 1722 1709 1704 1704 1703 1704 1705 1707 1712 1712 1712 1703 1697 1692 1688 1677 1677 1677 1677 1676 1673 1671 1668 1662 1661 1660 1660 1657 1657 1657 1658 1661 1661 1661 1661 1661 1662 1662 1663 1663 1665 1665 1665 1664 1663 1663 1663 1663 1663 1663 1663 1663 1663 1662 1660 1659 1658 1658 1658 1655 1652 1649 1648 1646 1644 1643 1643 1643 1644 1644 1644 1644 1643 1640 1637 1633 1628 1626 1625 1625 1626 1626 1627 1627 1627 1622 1608 1579 0 0 0 0 0 0 0 0 0 0 0 1889 1852 1812 1758 1727 1724 1721 1719 1704 1694 1673 1659 1652 1652 1637 1600 1567 1564 1534 1515 1496 1452 1432 1421 1419 1396 0 0 0 0 0 1341 1341 1341 1341 1336 1330 1320 1304 1286 1254 1226 1217 1199 1175 1163 1162 1152 1137 0 0 0 0 0 0 0 0 0 0 0 0 0 0 0 0 0 0 0 1016 1016 1006 965 937 935 0 0 797 797 797 817 817 817 800 800 800 800 800 800 800 0 0 0 0 0 0 0 0 0 0 0 0 0 0 0 0 0 0 0 0 0 0 0 0 0 0 0 0 0 0 0 0 0 0 0 0
1108 1108 1110 1118 1131 1149 1157 1168 1181 1193 1204 1215 1227 1239 1243 1250 1255 1265 1275 1291 1299 1310 1320 1330 1335 1342 1354 1370 1378 1386 1394 1400 1406 1413 1421 1425 1430 1435 1435 1435 1433 1433 1433 1433 1433 1435 1442 1453 1467 1483 1498 1512 1519 1524 1527 1532 1538 1539 1542 1543 1544 1544 1544 1530 0 0 0 0 0 0 0 0 1178 1178 1179 1184 1201 1206 1230 1250 1268 1290 1311 1327 1341 1350 1357 1364 1367 1376 1388 1399 1407 1416 1423 1432 1441 1447 1454 1458 1464 1467 1469 1472 1472 1472 1467 1454 1432 0 0 1296 1275 1275 1274 1274 1274 1274 1275 1275 1275 1257 1228 1197 1187 1167 1166 1146 1136 1128 1128 1128 1147 1162 1181 1181 1181 1181 1181 1181 1201 1205 1205 1202 1201 1185 1172 0 0 0 1058 1058 1058 1069 1074 1076 1078 1079 1093 1124 1135 1144 1160 1166 1166 1167 1177 1186 1187 1190 1190 1190 1189 1188 1188 1188 1191 1200 1210 1213 1213 1214 1214 1214 1216 1218 1219 1222 1223 1224 1226 1229 1231 1234 1235 1238 1240 1242 1243 1245 1246 1248 1249 1250 1252 1253 1254 1255 1256 1257 1259 1259 1260 1261 1262 1263 1264 1264 1265 1266 1266 1267 1268 1269 1270 1270 1270 1272 1272 1272 1273 1274 1274 1274 1271 1268 1268 1268 0 0 1407 1419 1425 1429 1431 1432 1433 1434 1435 1437 1439 1442 1445 1449 1452 1456 1458 1462 1465 1468 1471 1476 1478 1480 1481 1483 1484 1485 1488 1489 1490 1492 1493 1494 1496 1497 1497 1498 1498 1499 1499 1499 1497 1496 1496 1496 1497 1498 1498 1498 1502 1506 1509 1513 1517 1518 1519 1519 1520 1522 1524 1525 1525 1526 1528 1530 1532 1534 1535 1535 1536 1537 1539 1540 1541 1542 1542 1544 1545 1545 1547 1550 1554 1554 1556 1557 1557 1560 1565 1568 1570 1570 1571 1574 1577 1577 1577 1578 1578 1578 1584 1589 1592 1596 1598 1599 1599 1599 1599 1599 1601 1602 1604 1605 1606 1610 1615 1617 1618 1618 1621 1625 1630 1634 1635 1636 1636 1638 1643 1650 1656 1659 1661 1661 1661 1662 1666 1670 1675 1675 1676 1676 1682 1689 1689 1689 1685 1671 1659 1659 1659 1674 1731 1754 1760 1762 1762 1765 1773 1781 1781 1781 0 0 0 0 0 0 0 1722 1728 1729 1729 1728 1728 1726 1713 1700 1700 1700 1704 1705 1706 1707 1709 1709 1709 1703 1697 1696 1696 1696 1699 1699 1699 1696 1685 1679 1679 1676 1674 1673 1668 1662 1658 1658 1658 1661 1661 1662 1663 1663 1663 1663 1664 1665 1665 1665 1665 1662 1659 1659 1659 1660 1662 1663 1663 1663 1663 1662 1660 1658 1658 1658 1657 1657 1655 1651 1650 1648 1646 1646 1645 1645 1646 1645 1645 1645 1643 1640 1637 1633 1628 1626 1625 1625 1626 1626 1629 1629 1629 1625 1606 1578 0 0 0 0 0 0 0 0 0 0 0 1889 1845 1789 1747 1725 1724 1721 1717 1704 1694 1673 1659 1652 1652 1637 1600 1550 1519 1515 1515 1496 1483 1471 1460 1435 1420 1405 0 0 0 0 0 1374 1374 1374 1344 1330 1320 1304 1292 1271 1236 1222 1202 1184 1176 1173 1167 1149 1136 0 0 0 0 0 0 0 0 0 0 0 0 0 0 0 0 0 0 1003 1003 1003 965 937 935 0 0 810 810 810 817 817 817 802 802 800 800 800 800 769 733 730 733 733 0 0 0 0 0 0 0 0 0 0 0 0 0 0 0 0 0 0 0 0 0 0 0 0 0 0 0 0 0 0 0 0
1096 1096 1098 1116 1130 1145 1156 1168 1180 1193 1204 1215 1227 1239 1244 1251 1255 1265 1275 1289 1299 1310 1320 1330 1339 1352 1362 1370 1378 1388 1396 1401 1407 1414 1422 1429 1433 1436 1438 1440 1440 1440 1441 1442 1442 1448 1451 1454 1467 1479 1493 1507 1519 1524 1527 1531 1533 1538 1540 1540 1540 1536 1511 1474 0 0 0 0 0 0 1172 1172 1173 1178 1179 1199 1205 1230 1255 1275 1290 1307 1324 1340 1354 1362 1365 1367 1368 1376 1388 1397 1407 1416 1423 1434 1441 1447 1454 1458 1461 1466 1469 1472 1472 1472 1467 1454 1432 0 0 1282 1275 1275 1274 1274 1274 1276 1282 1282 1282 1271 1232 1206 1196 1194 1183 1158 1145 1140 1140 1140 1147 1164 1182 1196 1205 1205 1205 1205 1205 1205 1205 1205 1202 1186 1185 1172 0 0 1068 1068 1068 1070 1081 1081 1083 1109 1126 1140 1151 1161 1174 1181 1185 1187 1189 1191 1192 1193 1193 1193 1192 1192 1192 1198 1207 1208 1212 1216 1217 1217 1217 1218 1218 1220 1222 1224 1224 1225 1228 1230 1233 1235 1236 1238 1240 1242 1244 1245 1248 1248 1250 1251 1253 1254 1255 1256 1257 1258 1259 1261 1262 1262 1264 1264 1265 1265 1267 1267 1268 1269 1270 1270 1271 1271 1272 1274 1274 1274 1276 1276 1276 1276 1276 1269 1268 1268 1268 0 1369 1412 1425 1427 1427 1431 1433 1434 1435 1437 1439 1442 1446 1450 1454 1457 1461 1465 1467 1468 1471 1475 1478 1480 1481 1483 1484 1486 1488 1489 1490 1492 1493 1495 1497 1497 1499 1499 1499 1499 1500 1500 1500 1500 1499 1499 1498 1498 1499 1500 1504 1508 1511 1515 1519 1519 1520 1520 1520 1522 1524 1525 1525 1526 1528 1530 1532 1534 1535 1537 1538 1539 1541 1543 1544 1544 1545 1545 1546 1548 1550 1552 1555 1558 1560 1561 1562 1562 1566 1570 1572 1572 1574 1578 1580 1580 1580 1580 1580 1583 1587 1592 1594 1596 1600 1600 1600 1600 1600 1600 1601 1603 1604 1606 1608 1612 1617 1617 1618 1618 1622 1625 1630 1633 1635 1636 1636 1638 1643 1651 1657 1660 1661 1662 1664 1666 1671 1676 1678 1678 1681 1685 1688 1694 1694 1694 1691 1684 1666 1666 1666 1667 1721 1756 1760 1762 1762 1765 1773 1781 1781 0 0 0 0 0 0 0 0 1722 1724 1724 1727 1727 1727 1725 1709 1696 1696 1696 1704 1705 1706 1707 1707 1707 1706 1702 1700 1700 1700 1700 1701 1701 1700 1696 1689 1683 1683 1683 1683 1683 1681 1669 1661 1661 1661 1662 1663 1663 1663 1663 1663 1664 1666 1667 1667 1667 1666 1661 1659 1659 1659 1660 1662 1662 1663 1663 1662 1662 1660 1658 1658 1658 1657 1657 1656 1654 1651 1650 1650 1650 1649 1648 1648 1648 1648 1645 1643 1639 1635 1631 1627 1627 1625 1625 1626 1627 1629 1629 1629 1625 1606 1572 0 0 0 0 0 0 0 0 0 0 0 1851 1805 1760 1735 1725 1724 1721 1717 1694 1669 1646 1646 1646 1642 1637 1600 0 1498 1496 1492 1488 1483 1476 1471 1466 1461 1457 1428 1415 0 0 0 0 0 0 0 1330 1320 1305 1304 1302 1249 1223 1205 1197 1196 1187 1173 1149 1149 0 0 0 0 0 0 0 0 0 0 0 0 0 0 0 0 0 0 0 1003 1003 965 935 928 0 0 0 819 817 817 817 817 809 809 806 804 798 788 780 774 733 733 733 766 0 0 0 0 0 0 0 0 0 0 0 0 0 0 0 0 0 0 0 0 0 0 0 0 0 0 0 0 0 0 0
1043 1043 1081 1107 1129 1145 1156 1166 1180 1193 1204 1215 1226 1240 1245 1255 1260 1265 1275 1289 1301 1311 1320 1330 1342 1355 1363 1373 1379 1389 1396 1403 1407 1416 1423 1429 1434 1438 1442 1444 1445 1446 1448 1449 1452 1453 1454 1456 1462 1470 1478 1497 1512 1522 1525 1527 1530 1532 1532 1532 1517 0 0 0 0 0 0 0 1161 1161 1166 1172 1173 1183 1204 1226 1227 1253 1276 1295 1309 1322 1337 1351 1362 1367 1368 1369 1371 1376 1388 1397 1407 1416 1426 1435 1444 1447 1454 1458 1461 1466 1470 1473 1473 1473 1467 1454 1432 0 0 1275 1274 1274 1274 1274 1274 1277 1285 1285 1285 1276 1249 1213 1203 1202 1194 1180 1172 1168 1163 1166 1168 1168 1183 1199 1212 1215 1215 1215 1213 1212 1212 1213 1213 1212 1196 1189 1174 1138 1092 1077 1077 1077 1082 1084 1110 1133 1148 1154 1160 1174 1186 1191 1193 1193 1193 1194 1195 1195 1195 1195 1195 1195 1201 1212 1215 1217 1217 1217 1218 1220 1220 1220 1221 1222 1224 1225 1225 1227 1229 1232 1234 1235 1237 1239 1241 1242 1244 1246 1248 1249 1250 1252 1253 1254 1256 1257 1258 1259 1260 1261 1262 1263 1264 1265 1266 1267 1268 1269 1269 1271 1271 1272 1272 1273 1274 1274 1275 1275 1277 1279 1279 1279 1279 1272 1268 1268 1268 0 0 1411 1425 1427 1427 1429 1430 1430 1436 1439 1440 1442 1446 1451 1455 1460 1465 1468 1470 1470 1471 1475 1478 1480 1481 1482 1484 1486 1488 1489 1491 1493 1493 1495 1497 1499 1499 1500 1500 1500 1503 1503 1503 1503 1502 1502 1502 1502 1506 1509 1510 1510 1512 1516 1519 1519 1520 1520 1520 1522 1524 1525 1525 1526 1528 1530 1532 1533 1535 1537 1538 1539 1542 1544 1546 1547 1548 1548 1549 1549 1551 1555 1557 1559 1562 1563 1563 1565 1568 1571 1572 1574 1575 1578 1582 1582 1583 1583 1583 1584 1588 1592 1594 1596 1600 1603 1603 1603 1602 1602 1602 1603 1604 1606 1609 1614 1618 1620 1620 1621 1623 1627 1630 1633 1635 1637 1638 1641 1645 1651 1658 1661 1661 1662 1666 1668 1675 1680 1681 1682 1684 1688 1693 1699 1699 1699 1697 1692 1675 1667 1667 1667 1721 1758 1761 1762 1766 1773 1778 1778 1778 0 0 0 0 0 0 0 0 1722 1724 1724 1724 1722 1722 1721 1707 1694 1691 1691 1691 1704 1705 1706 1705 1704 1704 1702 1702 1702 1700 1701 1701 1701 1700 1696 1689 1683 1683 1683 1683 1683 1681 1673 1665 1665 1665 1667 1667 1667 1668 1668 1668 1668 1669 1669 1669 1667 1664 1661 1659 1659 1659 1660 1662 1662 1663 1663 1662 1662 1660 1658 1658 1658 1657 1657 1656 1654 1653 1652 1652 1651 1651 1650 1649 1648 1648 1645 1641 1637 1634 1630 1626 1626 1626 1626 1626 1627 1629 1629 1629 1625 1606 0 0 0 0 0 0 0 0 0 0 0 0 1821 1773 1737 1733 1725 1721 1719 1717 1694 1669 1645 1619 1615 1613 1603 1574 1534 1498 1497 1492 1488 1483 1476 1471 1466 1461 1457 1444 1444 1444 0 0 0 0 0 0 1304 1304 1302 1302 1302 1256 1234 1225 1223 1217 1198 1197 1173 1173 0 0 0 0 0 0 0 0 0 0 0 968 967 0 0 0 0 0 0 0 1003 986 940 0 0 0 0 819 817 817 817 817 817 806 802 800 788 784 774 755 737 737 737 766 0 0 0 0 0 0 0 0 0 0 0 0 0 0 0 0 0 0 0 0 0 0 0 0 0 0 0 0 0 0 0
1031 1031 1077 1099 1129 1145 1156 1166 1180 1193 1203 1213 1226 1240 1248 1264 1272 1277 1283 1289 1301 1311 1323 1334 1345 1355 1365 1374 1379 1389 1398 1405 1410 1417 1424 1429 1436 1442 1445 1447 1450 1451 1453 1456 1456 1456 1457 1456 1456 1458 1462 1474 1500 1516 1520 1520 1520 1505 1505 0 0 0 0 0 0 0 0 1157 1157 1161 1173 1187 1198 1211 1232 1235 1253 1273 1292 1311 1326 1334 1341 1352 1367 1374 1375 1376 1376 1386 1389 1397 1410 1418 1431 1444 1449 1456 1458 1460 1461 1466 1471 1473 1473 1473 1465 1450 1428 0 0 1272 1272 1270 1272 1274 1274 1281 1289 1289 1289 1282 1269 1251 1250 1218 1196 1195 1191 1188 1184 1181 1181 1181 1186 1201 1213 1220 1222 1230 1238 1238 1238 1223 1220 1212 1197 1190 1175 1153 1134 1079 1079 1079 1083 1103 1127 1145 1161 1175 1179 1187 1193 1195 1196 1196 1196 1196 1197 1197 1197 1197 1199 1206 1212 1216 1218 1220 1222 1226 1226 1226 1226 1226 1226 1226 1226 1226 1228 1228 1231 1233 1235 1236 1237 1240 1242 1242 1245 1246 1248 1249 1251 1252 1253 1255 1256 1257 1258 1259 1261 1262 1262 1263 1265 1267 1267 1268 1269 1270 1271 1272 1273 1274 1275 1275 1277 1277 1277 1277 1280 1281 1282 1283 1283 1283 1274 1274 1274 0 0 1408 1425 1427 1427 1429 1430 1430 1436 1441 1444 1446 1449 1453 1457 1462 1466 1469 1471 1472 1473 1475 1478 1480 1481 1482 1484 1486 1486 1489 1491 1493 1493 1495 1497 1500 1500 1501 1501 1502 1503 1504 1504 1505 1505 1505 1505 1505 1509 1512 1513 1513 1514 1516 1520 1520 1520 1520 1520 1522 1523 1524 1525 1526 1526 1528 1530 1532 1534 1537 1538 1539 1542 1545 1547 1547 1548 1550 1552 1553 1553 1557 1561 1562 1562 1563 1564 1565 1568 1572 1573 1574 1576 1579 1582 1583 1583 1584 1584 1586 1590 1592 1594 1596 1600 1603 1605 1605 1605 1604 1604 1604 1604 1607 1611 1617 1621 1621 1622 1623 1625 1628 1630 1633 1635 1638 1640 1644 1648 1654 1658 1661 1661 1662 1668 1675 1678 1682 1685 1686 1687 1690 1694 1699 1699 1699 1697 1692 1675 1667 1667 1667 1721 1758 1761 1762 1766 1773 1778 1778 1778 0 0 0 0 0 0 0 1719 1724 1724 1724 1724 1724 1721 1718 1705 1694 1691 1691 1691 1698 1699 1700 1701 1702 1702 1702 1702 1702 1700 1700 1700 1697 1695 1694 1689 1683 1683 1683 1683 1683 1681 1673 1672 1672 1672 1673 1673 1673 1673 1673 1672 1672 1672 1670 1669 1667 1665 1661 1660 1660 1660 1660 1662 1662 1662 1662 1662 1662 1661 1660 1659 1658 1658 1658 1657 1654 1653 1653 1653 1651 1651 1650 1650 1649 1648 1646 1641 1636 1633 1630 1626 1626 1626 1626 1626 1626 1626 1625 1625 1617 1601 0 0 0 0 0 0 0 0 0 0 0 0 0 1757 1733 1732 1727 1721 1719 1717 1694 1669 1645 1606 1576 1574 1566 1555 1532 1498 1497 1492 1488 1483 1476 1471 1466 1461 1457 1455 1455 1455 1492 1492 0 0 0 0 1304 1304 1304 1304 1304 1267 1257 1255 1250 1250 1245 1200 1178 1178 0 0 0 0 0 0 0 0 0 0 0 982 981 980 961 0 0 0 0 0 0 0 0 0 0 0 0 838 838 838 838 838 832 800 800 787 769 769 757 727 727 727 737 747 0 0 0 0 0 0 0 0 0 0 0 0 0 0 0 0 0 0 0 0 0 0 0 0 0 0 0 0 0 0 0
