670 670 696 718 753 776 803 828 849 875 900 912 950 983 1016 1054 1072 1086 1106 1123 1140 1169 1202 1237 1243 1271 1288 1294 1302 1314 1335 1357 1382 1404 1425 1442 1453 1459 1464 1467 1474 1485 1497 1510 1523 1538 1554 1563 1563 1563 1542 0 0 0 0 1034 1002 1001 1001 1001 1009 1010 1010 1014 1016 1019 0 0 1109 1131 1147 1152 1152 1152 1152 1152 1159 1166 1178 1185 1194 1199 1203 1203 1203 1203 1196 1194 1187 1181 1166 1154 1154 1154 1154 1168 1177 1180 1184 1190 1195 1206 1214 1218 1222 1224 1224 1224 1223 1222 1221 1220 1217 1215 1212 1209 1206 1203 1201 1198 1197 1194 1193 1191 1190 1187 1185 1185 1183 1181 1179 1178 1175 1174 1172 1171 1170 1168 1167 1166 1165 1161 1158 1153 1146 1141 1116 0 0 0 977 977 986 0 0 0 0 0 0 1108 1117 1120 1120 1120 1118 1116 1112 1101 1089 1083 0 0 0 913 913 913 917 919 922 925 926 926 926 931 939 944 945 947 948 954 955 962 974 997 1035 1059 1072 1079 1079 1079 1080 1080 1080 1080 1080 1079 1079 1077 1076 1075 1073 1071 1070 1067 1065 1062 1060 1059 1057 1053 1048 1039 1033 1022 1004 970 955 955 955 978 992 1003 1009 1009 1011 1011 1015 1021 1022 1023 1023 1023 1023 1023 1022 1021 1021 1021 1020 1017 1013 1009 1004 994 984 980 975 971 970 969 966 956 954 952 951 951 943 937 935 935 935 936 936 936 936 937 938 942 946 947 948 948 961 970 973 974 976 977 978 978 978 977 976 976 975 974 974 973 971 970 970 969 967 966 965 964 964 962 961 959 958 956 955 953 951 950 949 946 942 940 937 935 935 934 934 933 932 931 930 930 929 928 928 928 928 928 928 928 926 923 921 921 921 921 0 0 0 0 0 0 0 0 0 910 910 907 905 896 882 873 873 873 877 877 877 875 872 870 869 869 868 863 860 859 856 855 853 853 853 855 856 856 857 857 858 860 862 863 863 863 862 861 859 857 857 857 861 861 0 0 0 0 0 0 0 0 0 0 0 0 0 0 0 0 0 0 0 0 0 0 0 0 0 0 0 0 0 0 0 0 0 0 0 0 0 0 0 0 0 0 0 0 0 0 0 0 0 0 0 0 0 0 0 0 0 0 0 0 0 0 0 0 0 0 0 0 0 0 0 0 0 0 0 0 0 0 0 0 0 0 0 0 0 0 0 0 842 842 842 834 834 834 834 834 820 820 820 831 841 857 0 0 0 1014 1042 1058 1084 1116 1140 1150 1150 1150 1149 1149 1149 1159 1181 1181 1182 1182 1181 1182 1183 1187 0 1275 1275 1275 1258 1252 1252 1252 1261 1261 1273 1297 1311 1313 1316 1317 1317 1317 1316 1277 1277 1277 1282 1282 1287 1298 1322 1331 1386 1386 1386 1369 1369 1369 1387 1387 1387 1387 1347 1346 1339 1337 1339 1342 1337 1332 1311 1291 1282 1282 1282 1290 1290 1290 1260 1260 1260 1260 1260 1194 1187 1173 1168 0 0 0 0 0 0 0 0 0 0 0 0 0 0 0 0 0 0 0 0 0 0 0 0 0 0 0 0 0 0 0 0 0 0 0 0 0 0 0 0 0 0 0 0 0 0 0 0 0 0 0 0 0
670 670 690 713 738 773 802 828 849 875 883 912 944 971 999 1020 1052 1085 1107 1129 1156 1181 1207 1235 1245 1269 1283 1292 1302 1314 1335 1357 1380 1402 1422 1437 1449 1456 1459 1463 1468 1483 1497 1510 1523 1537 1554 1563 1563 1563 1548 0 0 0 0 0 1002 1001 1001 1001 1007 1007 1008 1010 1011 1014 1021 1044 1067 1094 1146 1148 1149 1149 1151 1152 1159 1166 1178 1185 1194 1199 1203 1208 1215 1215 1215 1214 1208 1203 1203 1202 1190 1190 1184 1183 1184 1184 1184 1191 1196 1208 1216 1221 1224 1226 1226 1226 1226 1224 1222 1221 1219 1215 1213 1210 1207 1204 1202 1200 1199 1197 1195 1192 1190 1189 1187 1185 1184 1183 1180 1178 1176 1176 1174 1173 1171 1170 1169 1166 1166 1162 1158 1154 1147 1143 1123 0 0 953 953 953 965 965 967 0 0 0 0 1077 1096 1104 1107 1111 1111 1111 1107 1098 1089 1083 0 0 0 917 917 917 919 920 922 928 931 932 932 933 939 944 944 945 952 955 966 974 985 1005 1036 1059 1073 1082 1083 1083 1083 1082 1082 1082 1082 1081 1080 1079 1078 1077 1075 1073 1071 1068 1066 1064 1062 1060 1057 1053 1048 1039 1032 1022 1004 970 955 955 955 960 965 973 983 994 997 1003 1012 1019 1019 1019 1019 1019 1019 1019 1019 1021 1021 1021 1020 1017 1013 1009 1004 994 984 979 976 974 970 969 965 956 956 953 953 953 945 937 936 936 936 938 938 938 937 937 937 942 947 950 950 956 962 971 973 974 977 978 979 979 979 978 978 977 977 976 975 973 972 972 971 970 968 967 966 965 964 963 961 960 960 958 957 955 953 951 950 946 943 940 936 933 931 931 931 931 931 930 930 928 927 927 927 928 928 928 928 928 925 923 921 921 921 923 923 923 922 921 921 0 0 0 915 914 912 908 907 896 882 873 873 873 877 877 877 877 875 872 872 871 869 866 862 860 857 855 853 853 853 855 857 858 858 859 859 860 862 863 863 863 862 861 861 858 858 858 861 861 0 0 0 0 0 0 0 0 0 0 0 0 0 0 0 0 0 0 0 0 0 0 0 0 0 0 0 0 0 0 0 0 0 0 0 0 0 0 0 0 0 0 0 0 0 0 0 0 0 0 0 0 0 0 0 0 0 0 0 0 0 0 0 0 0 0 0 0 0 0 0 0 0 0 0 0 0 0 0 0 0 0 0 0 0 0 0 0 842 842 842 838 838 829 829 817 816 816 816 829 844 857 0 0 0 1014 1042 1067 1084 1116 1140 1150 1150 1150 1149 1149 1149 1159 1181 1181 1181 1181 1180 1177 1177 1177 0 1252 1258 1258 1258 1258 1258 1260 1274 1275 1278 1296 1296 1296 1291 1291 1291 1286 1286 1277 1270 1270 1270 1282 1303 1313 1322 1331 1366 1366 1366 1366 1366 1366 1387 1388 1388 1388 1347 1347 1339 1337 1339 1340 1337 1326 1310 1291 1291 1291 1326 1326 1326 1272 1260 1260 1243 1243 1243 1193 1168 1168 1152 1152 0 0 0 0 0 0 0 0 0 0 0 0 0 0 0 0 0 0 0 0 0 0 0 0 0 0 0 0 0 0 405 400 391 0 0 0 0 0 0 0 0 0 0 0 0 0 0 0 0 0 0 0
669 669 686 704 732 762 801 828 849 874 876 912 944 971 992 1014 1046 1082 1107 1132 1158 1188 1217 1229 1247 1269 1282 1292 1302 1314 1335 1357 1375 1398 1417 1434 1442 1445 1450 1456 1468 1483 1497 1510 1523 1537 1551 1563 1563 1563 1551 0 0 0 0 0 1047 1015 1010 1010 1008 1010 1010 1010 1011 1014 1021 1028 1044 1093 1117 1143 1145 1145 1147 1149 1150 1157 1165 1182 1194 1199 1203 1208 1215 1215 1215 1214 1208 1208 1208 1208 1208 1208 1203 1202 1199 1196 1196 1196 1201 1210 1222 1227 1228 1228 1228 1228 1227 1226 1224 1223 1222 1218 1214 1211 1208 1206 1203 1201 1200 1198 1196 1194 1192 1190 1189 1187 1185 1183 1181 1180 1178 1177 1176 1175 1174 1172 1171 1168 1166 1163 1159 1154 1149 1144 1124 0 0 951 951 951 951 951 951 952 0 0 0 1026 1072 1098 1099 1100 1105 1105 1105 1094 1089 1083 1061 0 0 920 920 920 921 923 924 929 933 933 934 937 939 943 944 944 953 955 968 975 988 1007 1037 1059 1073 1082 1084 1084 1084 1084 1084 1084 1084 1083 1082 1081 1079 1078 1077 1075 1073 1070 1068 1066 1063 1061 1058 1054 1048 1039 1033 1023 1003 970 954 954 954 960 965 970 975 979 979 982 998 1009 1010 1014 1014 1014 1017 1017 1017 1018 1020 1020 1020 1017 1013 1011 1004 994 984 979 976 974 970 968 959 954 954 953 953 953 945 936 936 936 937 939 939 939 938 938 938 940 947 951 956 961 966 972 974 975 978 980 980 980 980 980 979 979 977 976 976 974 974 972 972 970 969 968 967 966 965 964 963 962 960 959 957 956 954 953 950 947 943 940 936 931 930 930 930 930 930 929 928 927 925 925 925 927 928 928 928 928 926 923 923 923 923 924 924 924 922 921 921 918 918 917 915 914 914 913 907 896 887 876 876 876 878 879 879 879 879 877 874 873 871 867 864 861 859 855 853 853 853 854 857 859 860 860 860 860 862 862 862 862 862 862 861 859 859 859 865 865 0 0 0 0 0 0 0 0 0 0 0 0 0 0 0 0 0 0 0 0 0 0 0 0 0 0 0 0 0 0 0 0 0 0 0 0 0 0 0 0 0 0 0 0 0 0 0 0 0 0 0 0 0 0 0 0 0 0 0 0 0 0 0 0 0 0 0 0 0 0 0 0 0 0 0 0 0 0 0 0 0 0 0 0 0 0 0 833 842 842 842 838 834 830 830 809 809 809 810 829 844 857 0 0 0 1014 1042 1067 1084 1116 1140 1150 1150 1150 1149 1149 1149 1156 1170 1170 1170 1166 1161 1161 1161 1177 0 1250 1262 1262 1262 1260 1260 1260 1274 1275 1278 1288 1288 1288 1270 1270 1270 1290 1290 1290 1285 1280 1280 1280 1305 1321 1322 1331 1340 1342 1342 1348 1348 1348 1367 1387 1387 1387 1358 1350 1347 1337 1337 1314 1311 1282 1276 1271 1271 1276 1326 1326 1326 1270 1260 1260 1243 1243 1243 1193 1148 1148 1148 1148 0 0 0 0 0 0 0 0 0 0 0 0 0 0 0 0 0 0 0 0 0 0 0 0 0 0 0 0 0 400 405 400 391 391 0 0 0 0 0 0 0 0 0 0 0 0 0 0 0 0 0 0
663 663 676 698 724 0 0 0 0 0 0 0 942 970 990 1013 1041 1080 1107 1132 1158 1188 1219 1227 1247 1269 1281 1292 1305 1323 1342 1359 1374 1390 1408 1424 1433 1438 1441 1456 1468 1483 1498 1515 1528 1537 1547 1554 1554 1554 1551 1529 0 0 0 0 0 0 1026 1014 1011 1010 1010 1010 1011 1015 1020 1027 1042 1060 1089 1115 0 0 0 0 1141 1141 1141 1148 1174 1184 1195 1208 1215 1215 1215 1214 1210 1210 1210 1215 1217 1217 1217 1216 1208 1208 1208 1212 1212 1217 1223 1228 1230 1230 1230 1229 1229 1228 1226 1226 1223 1220 1216 1213 1210 1207 1205 1202 1201 1199 1197 1195 1193 1190 1189 1188 1186 1184 1183 1181 1181 1179 1178 1176 1175 1174 1172 1169 1166 1163 1160 1155 1152 1145 1124 0 0 0 938 938 938 938 938 928 928 928 0 0 0 0 0 0 0 0 1089 1089 1089 1083 1061 0 0 0 925 922 924 925 925 930 934 934 934 934 934 937 943 944 953 959 969 976 989 1010 1039 1060 1075 1083 1085 1085 1085 1085 1085 1086 1086 1085 1084 1082 1081 1080 1078 1076 1074 1071 1070 1067 1064 1061 1058 1054 1051 1041 1033 1023 1001 970 957 957 957 959 963 967 969 972 973 974 981 989 989 991 999 1006 1008 1013 1014 1015 1016 1017 1017 1017 1017 1014 1005 997 988 979 978 974 969 963 959 954 954 954 954 954 945 937 937 937 938 940 940 940 938 938 938 938 947 951 957 963 968 972 976 979 979 980 980 980 980 980 980 980 978 978 977 976 974 973 972 971 970 969 969 967 966 966 964 963 961 961 959 958 955 954 952 949 943 940 935 931 927 925 924 924 923 923 923 923 923 924 925 926 928 928 928 927 925 925 925 925 925 924 924 924 922 921 921 921 918 918 916 914 914 913 907 902 895 881 881 881 883 883 883 883 882 879 877 874 871 868 865 864 862 858 855 854 854 854 857 859 860 860 860 860 862 862 862 862 862 863 863 864 864 865 865 0 0 0 0 0 0 0 0 0 0 0 0 0 0 0 0 0 0 0 0 0 0 0 0 0 0 0 0 0 0 0 0 0 0 0 0 0 0 0 0 0 0 0 0 0 0 0 0 0 0 0 0 0 0 0 0 0 0 0 0 0 0 0 0 0 0 0 0 0 0 0 0 0 0 0 0 0 0 0 0 0 0 0 0 0 0 0 825 828 840 840 840 838 832 830 830 809 809 809 810 829 849 866 892 922 959 996 1034 1067 1083 1098 1119 1130 1142 1143 1143 1149 1149 1156 1157 1158 1159 1159 1159 1160 1161 1177 1212 1248 1262 1262 1262 1260 1260 1260 1274 1275 1275 1275 1274 1263 1258 1258 0 0 1285 1285 1285 1276 1276 1276 1305 1319 1321 1322 1330 1338 1338 1338 1338 1338 1348 1380 1380 1380 1358 1350 1347 1336 1311 1263 0 0 0 0 0 0 0 0 1326 1270 1265 1265 1243 1243 1243 0 0 0 0 0 0 0 0 0 0 0 0 0 0 0 0 0 0 0 0 0 0 0 0 0 0 0 0 0 0 0 0 0 0 0 0 0 0 0 0 0 0 0 0 0 0 0 0 0 0 0 0 0 0 0 0 0
652 652 671 693 717 0 0 0 0 0 0 0 942 968 988 1009 1040 1078 1106 1132 1158 1188 1219 1222 1247 1268 1280 1292 1306 1325 1343 1359 1370 1383 1400 1414 1426 1434 1440 1455 1478 1497 1514 1525 1532 1538 1547 1554 1556 1556 1556 1543 0 0 0 0 0 0 0 1025 1014 1013 1012 1013 1014 1016 1021 1021 1023 1035 1058 1080 0 0 0 0 1120 1118 1118 1118 1136 1152 1166 1180 1193 1207 1207 1207 1210 1210 1210 1216 1222 1223 1223 1224 1224 1223 1217 1219 1219 1219 1227 1229 1230 1231 1231 1231 1231 1231 1229 1226 1225 1221 1218 1214 1212 1209 1207 1204 1203 1200 1197 1196 1194 1191 1190 1190 1187 1186 1184 1183 1182 1181 1179 1178 1177 1176 1173 1170 1167 1164 1162 1158 1152 1146 1126 0 0 0 938 938 931 931 931 880 880 880 897 0 0 0 0 0 0 0 0 1066 1066 1066 1062 0 0 0 0 936 932 932 932 932 934 934 934 934 934 937 943 951 953 960 969 978 990 1015 1042 1061 1075 1083 1085 1085 1086 1086 1087 1087 1087 1087 1086 1085 1083 1081 1079 1077 1075 1074 1072 1069 1067 1063 1059 1056 1052 1044 1034 1023 1001 970 957 954 954 954 957 958 960 965 968 970 973 975 975 977 980 986 995 1007 1012 1014 1015 1017 1017 1017 1017 1014 1009 1001 991 979 978 975 969 963 959 954 954 954 954 954 945 941 941 941 941 942 942 942 942 940 940 940 944 951 957 964 968 972 976 979 980 980 981 981 981 981 981 981 980 979 978 977 975 974 973 972 971 970 969 968 968 966 965 964 962 961 960 958 956 955 954 949 943 940 935 930 927 924 922 920 920 920 919 920 920 922 922 925 925 925 925 925 925 925 924 923 923 923 923 923 923 922 921 921 918 918 918 917 914 912 907 902 895 891 889 886 886 886 885 885 883 880 877 874 872 868 868 866 864 861 858 856 856 856 858 859 861 861 861 861 862 862 862 862 862 863 863 864 864 871 871 0 0 0 0 0 0 0 0 0 0 0 0 0 0 0 0 0 0 0 0 0 0 0 0 0 0 0 0 0 0 0 0 0 0 0 0 0 0 0 0 0 0 0 0 0 0 0 0 0 0 0 0 0 0 0 0 0 0 0 0 0 0 0 0 0 0 0 0 0 0 0 0 0 0 0 0 0 0 0 0 0 0 0 0 0 0 0 828 833 828 828 834 832 830 830 830 809 809 809 810 840 857 868 898 922 956 990 1026 1055 1071 1078 1089 1099 1119 1134 1137 1137 1143 1156 1157 1157 1159 1159 1159 1160 1170 1188 1212 1247 1262 1262 1262 1259 1259 1259 1266 1266 1266 1256 1249 1241 1228 1228 0 0 0 1285 1285 1276 1276 1276 1315 1315 1316 1323 1323 1323 1323 1284 1284 1284 1318 1329 1329 1336 1336 1329 1327 1327 1311 1263 0 0 0 0 0 0 0 0 1270 1270 1265 1265 1245 1245 0 0 0 0 0 0 0 0 0 0 0 0 0 0 0 0 0 0 0 0 0 0 0 0 0 0 0 0 0 0 0 0 0 0 0 0 0 0 0 0 0 0 0 0 0 0 0 0 0 0 0 0 0 0 0 0 0 0
647 647 669 693 712 740 765 0 0 0 0 0 942 968 988 1009 1040 1072 1101 1126 1156 1188 1219 1222 1245 1259 1274 1292 1306 1325 1343 1359 1366 1375 1389 1405 1419 1423 1438 1454 1478 1497 1517 1532 1535 1540 1547 1554 1559 1559 1559 1559 1545 0 0 0 0 0 0 0 1029 1021 1018 1017 1017 1017 1021 1021 1023 1035 1035 1035 0 0 0 0 1070 1089 1097 1109 1117 1128 1140 1151 1166 1186 1202 1202 1203 1207 1207 1220 1227 1232 1234 1236 1238 1238 1238 1228 1228 1228 1229 1229 1231 1233 1233 1233 1232 1232 1230 1228 1226 1222 1219 1216 1214 1211 1209 1206 1203 1201 1198 1197 1194 1192 1191 1190 1188 1186 1185 1184 1183 1182 1180 1179 1177 1176 1174 1172 1169 1166 1165 1159 1152 1149 1140 0 0 0 933 929 924 924 908 880 880 880 889 907 0 0 0 0 0 0 0 1029 1060 1060 1060 1058 0 0 0 0 0 934 934 934 933 933 932 932 932 937 946 951 953 960 969 978 991 1016 1042 1061 1075 1084 1086 1087 1087 1088 1088 1088 1088 1088 1087 1086 1084 1082 1080 1079 1078 1075 1073 1071 1069 1065 1061 1056 1055 1047 1034 1023 1000 970 957 953 951 951 951 955 959 961 965 968 973 975 975 977 980 986 991 1003 1009 1011 1012 1015 1017 1017 1017 1014 1010 1005 994 982 981 975 969 964 963 963 961 959 957 956 952 949 948 948 947 947 946 946 944 941 941 941 944 951 957 965 968 971 976 980 981 981 981 983 983 983 982 982 981 980 979 978 976 975 973 973 972 971 970 969 968 967 966 965 963 963 960 959 957 956 954 949 943 939 935 930 927 924 922 920 919 917 917 917 917 917 918 921 921 921 921 921 924 924 924 923 923 923 923 922 922 922 922 922 919 919 918 918 918 912 907 905 905 898 894 889 888 887 887 887 883 880 877 875 872 869 869 869 866 861 858 856 856 856 858 859 861 862 862 862 862 862 862 863 864 864 864 864 865 871 871 0 0 0 0 0 0 0 0 0 0 0 0 0 0 0 0 0 0 0 0 0 0 0 0 0 0 0 0 0 0 0 0 0 0 0 0 0 0 0 0 0 0 0 0 0 0 0 0 0 0 0 0 0 0 0 0 0 0 0 0 0 0 0 0 0 0 0 0 0 0 0 0 0 0 0 0 0 0 0 0 0 0 0 0 0 0 0 825 833 825 818 829 829 829 830 832 833 835 836 840 853 869 882 903 922 953 984 1016 1032 1040 1054 1071 1080 1095 1105 1106 1109 1137 1161 1161 1161 1163 1163 1163 1170 1183 1198 1212 1231 1249 1252 1252 1256 1256 1256 1256 1256 1247 1232 1224 1222 1211 1167 0 0 0 1262 1262 1269 1276 1276 1316 1316 1316 1316 1316 1316 1316 1268 1268 1268 1297 1297 1297 1304 1304 1307 1311 1311 1311 1263 0 0 0 0 0 0 0 0 1239 1247 1261 1261 1247 1247 0 0 0 0 0 0 0 0 0 0 0 0 0 0 0 0 0 0 0 0 0 0 0 0 0 0 0 0 0 0 0 0 0 0 0 0 0 0 0 0 0 0 0 0 0 0 0 0 0 0 0 0 0 0 0 0 0 0
647 647 668 693 712 731 752 772 806 0 0 0 0 959 981 1008 1033 1061 1089 1113 1144 1174 1203 1207 1231 1251 1266 1285 1306 1325 1343 1356 1363 1369 1381 1398 1412 1418 1433 1454 1478 1497 1517 1532 1535 1540 1547 1554 1557 1559 1565 1565 1565 1557 0 0 0 0 0 0 0 1028 1026 1019 1019 1019 1021 1021 1023 1035 1035 1035 0 0 0 0 1032 1049 1082 1095 1106 1110 1118 1125 1142 1169 1194 1202 1203 1207 1207 1225 1230 1233 1237 1247 1252 1252 1252 1235 1233 1233 1233 1233 1234 1235 1235 1235 1234 1232 1231 1229 1226 1224 1221 1219 1216 1213 1210 1208 1205 1203 1201 1197 1196 1193 1191 1190 1189 1187 1185 1184 1184 1183 1182 1180 1178 1176 1174 1172 1170 1169 1167 1161 1152 1152 1146 0 0 0 912 909 907 894 889 879 877 877 877 889 889 896 900 904 0 0 0 0 1032 1065 1065 1065 1065 0 0 0 0 0 0 939 937 934 934 934 940 945 951 951 952 960 969 980 995 1016 1042 1061 1075 1084 1086 1088 1089 1089 1089 1089 1089 1089 1088 1087 1086 1083 1082 1081 1079 1076 1074 1073 1071 1067 1062 1059 1058 1050 1038 1023 999 970 957 944 944 944 951 955 959 960 963 968 973 975 975 977 980 986 991 996 996 997 1000 1000 1006 1010 1010 1010 1010 1009 1001 996 995 986 974 973 972 972 970 967 962 958 957 955 954 954 951 950 948 948 945 943 943 943 944 951 957 965 968 970 976 980 981 982 982 983 983 983 983 983 982 981 980 979 977 976 975 974 973 973 971 970 969 967 967 966 965 963 961 959 957 956 954 949 943 939 936 930 927 924 922 920 919 917 917 917 917 917 916 916 916 916 916 917 918 921 922 922 922 922 923 923 923 923 923 922 920 920 919 919 918 914 911 908 907 901 895 890 889 889 888 887 884 880 878 876 872 870 870 869 868 863 860 857 857 857 858 859 861 862 863 865 865 865 864 864 864 864 864 865 872 875 875 0 0 0 0 0 0 0 0 0 0 0 0 0 0 0 0 0 0 0 0 0 0 0 0 0 0 0 0 0 0 0 0 0 0 0 0 0 0 0 0 0 0 0 0 0 0 0 0 0 0 0 0 0 0 0 0 0 0 0 0 0 0 0 0 0 0 0 0 0 0 0 0 0 0 0 0 0 0 0 0 0 0 0 0 0 0 825 828 833 828 828 827 827 827 833 835 841 850 857 860 866 881 897 913 927 947 984 1009 1018 1025 1043 1067 1067 1070 1070 1070 1105 1135 1161 1161 1161 1166 1166 1169 1185 1204 1210 1212 1214 1229 1245 1245 1245 1245 1245 1241 1241 1231 1227 1216 1206 1200 1165 1165 0 0 1262 1285 1318 1323 1323 1323 1321 1316 1310 1302 1297 1292 1264 1264 1264 1264 1264 1257 1257 1257 1263 1273 1273 1273 1253 0 0 0 0 0 0 0 0 1228 1239 1239 1247 1247 0 0 0 0 0 0 0 0 0 0 0 0 0 0 0 0 0 0 0 0 0 0 0 0 0 0 0 0 0 0 0 0 0 0 0 0 0 0 0 0 0 0 0 0 0 0 0 0 0 0 0 0 0 0 0 0 0 0 0
647 647 668 693 712 731 752 771 797 800 0 0 0 944 962 986 1020 1047 1072 1095 1123 1154 1158 1190 1214 1237 1258 1274 1293 1314 1336 1353 1362 1369 1378 1391 1411 1415 1429 1444 1464 1488 1517 1532 1535 1540 1547 1554 1555 1559 1565 1578 1588 1588 1588 0 0 0 0 0 0 1050 1031 1031 1031 1035 1037 1038 1038 1046 1046 1046 0 0 0 0 1032 1049 1070 1081 1084 1088 1088 1095 1118 1157 1192 1203 1203 1206 1210 1229 1233 1234 1238 1250 1264 1264 1264 1244 1236 1236 1236 1237 1239 1239 1237 1237 1236 1234 1233 1231 1227 1225 1223 1221 1218 1215 1212 1209 1207 1204 1202 1199 1196 1194 1192 1191 1189 1187 1186 1185 1184 1183 1183 1182 1181 1177 1175 1173 1172 1171 1167 1163 1156 1154 1146 0 0 0 898 892 880 879 877 874 871 871 871 873 876 878 879 904 922 941 955 0 0 1065 1084 1084 1084 1083 1069 0 0 0 0 0 0 938 938 942 949 951 951 952 952 955 967 981 1001 1018 1044 1061 1075 1084 1087 1088 1089 1090 1090 1090 1090 1090 1089 1088 1087 1085 1083 1082 1080 1077 1076 1074 1072 1068 1065 1063 1058 1050 1041 1023 999 969 957 944 944 944 951 954 958 958 960 967 973 975 975 977 980 986 991 993 993 993 984 984 984 997 1004 1010 1011 1011 1011 1008 1004 1004 1004 1003 1000 998 985 976 965 962 960 959 958 958 955 952 951 950 948 947 947 947 949 951 957 964 965 970 976 982 982 983 983 984 984 984 984 984 984 983 982 980 979 977 976 975 975 973 972 972 970 969 967 967 965 963 962 960 958 956 954 949 943 939 936 930 926 924 923 922 919 917 917 917 917 917 916 916 916 915 915 912 912 912 917 921 921 921 922 923 923 923 923 922 922 921 920 920 917 914 912 910 908 903 895 891 891 890 890 889 885 883 881 879 875 873 872 871 871 867 861 861 861 861 862 864 866 866 866 868 868 868 866 865 865 864 864 864 872 872 0 0 0 0 0 0 0 0 0 0 0 0 0 0 0 0 0 0 0 0 0 0 0 0 0 0 0 0 0 0 0 0 0 0 0 0 0 0 0 0 0 0 0 0 0 0 0 0 0 0 0 0 0 0 0 0 0 0 0 0 0 0 0 0 0 0 0 0 0 0 0 0 0 0 0 0 0 0 0 0 0 0 0 0 0 0 0 830 833 837 833 828 827 827 827 832 835 844 853 862 869 882 905 924 926 927 945 978 996 1003 1012 1039 1066 1067 1070 1070 1070 1095 1135 1161 1161 1161 1166 1166 1172 1214 1214 1214 1229 1229 1229 1234 1234 1234 1224 1222 1222 1222 1221 1221 1216 1206 1194 1141 1141 1141 0 0 1281 1318 1323 1323 1323 1316 1314 1310 1301 1268 1259 1247 1246 1244 1242 1232 1219 1219 1219 1221 1253 1253 1253 1253 0 0 0 0 0 0 0 0 1227 1232 1236 1245 1245 0 0 0 0 0 0 0 0 0 0 0 0 0 0 0 0 0 0 0 0 0 0 0 0 0 0 0 0 0 0 0 0 0 0 0 0 0 0 0 0 0 0 0 0 0 0 0 0 0 0 0 0 0 0 0 0 0 0 0
647 647 668 693 716 731 752 771 795 797 820 0 0 921 944 970 1003 1036 1060 1084 1118 1150 1154 1181 1199 1221 1243 1263 1281 1304 1328 1346 1361 1367 1375 1391 1408 1415 1429 1438 1453 1474 1498 1524 1535 1539 1540 1542 1544 1550 1564 1578 1593 1593 1593 1592 0 0 0 0 0 0 1050 1050 1065 1073 1076 1076 1076 1076 1076 1076 1075 0 0 1019 1032 1049 1070 1079 1081 1084 1088 1095 1106 1154 1191 1191 1199 1201 1201 1229 1233 1234 1238 1250 1264 1264 1264 1251 1242 1240 1240 1240 1241 1241 1241 1239 1237 1235 1235 1233 1229 1227 1225 1222 1219 1217 1213 1210 1208 1205 1203 1201 1199 1196 1193 1191 1189 1187 1186 1185 1184 1183 1183 1182 1182 1179 1176 1174 1173 1172 1167 1163 1157 1154 1147 0 0 0 0 880 873 873 872 872 872 868 868 868 870 878 879 904 922 941 955 978 0 0 1090 1104 1104 1104 1102 1102 1097 0 0 0 0 0 0 0 984 974 957 955 955 955 967 983 1007 1024 1044 1061 1075 1084 1089 1089 1090 1091 1091 1091 1091 1091 1090 1089 1087 1086 1085 1084 1081 1079 1077 1074 1072 1069 1066 1064 1058 1051 1041 1025 1000 970 957 944 944 944 951 954 955 956 957 965 973 975 975 977 980 986 986 986 986 986 982 982 982 984 1004 1010 1011 1013 1017 1017 1017 1014 1009 1008 1007 1002 996 980 970 965 962 962 962 961 961 958 957 957 955 953 952 952 952 955 963 964 965 970 980 983 983 983 985 985 986 986 986 985 985 984 982 981 980 979 978 976 975 974 974 972 971 970 969 967 965 964 963 960 958 956 953 949 943 939 936 929 927 925 923 922 919 918 918 917 917 917 915 915 915 915 913 912 912 912 913 915 916 918 920 923 923 923 923 922 922 921 920 920 917 914 914 912 910 909 895 895 893 893 893 891 888 884 884 882 878 876 875 875 875 870 864 863 863 863 867 869 870 870 870 870 870 870 870 869 869 868 868 868 872 872 0 0 0 0 0 0 0 0 0 0 0 0 0 0 0 0 0 0 0 0 0 0 0 0 0 0 0 0 0 0 0 0 0 0 0 0 0 0 0 0 0 0 0 0 0 0 0 0 0 0 0 0 0 0 0 0 0 0 0 0 0 0 0 0 0 0 0 0 0 0 0 0 0 0 0 0 0 0 0 0 0 0 0 0 0 0 0 837 846 846 846 840 817 817 817 826 835 844 853 862 869 882 905 924 926 927 951 966 980 984 1000 1029 1063 1067 1067 1070 1070 1093 1135 1146 1146 1148 1150 1155 1172 1214 1222 1222 1229 1229 1222 1215 1215 1214 1210 1210 1210 1221 1221 1221 1216 1198 1187 1141 1141 1141 0 0 1281 1318 1323 1323 1323 1316 1314 1311 1301 1268 1253 1247 1242 1242 1242 1232 1217 1205 1205 1205 1232 1253 1253 1253 0 0 0 0 0 0 0 0 1223 1227 1233 1233 0 0 0 0 1009 1009 1007 0 0 0 0 0 0 0 0 0 0 0 0 0 0 0 0 0 0 0 0 0 0 0 0 0 0 0 0 0 0 0 0 0 0 0 0 0 0 0 0 0 0 0 0 0 0 0 0 0 0 0 0 0
645 645 668 694 719 741 750 769 793 794 819 857 884 910 939 970 996 1026 1054 1083 1117 1147 1152 1177 1195 1208 1226 1250 1270 1298 1321 1340 1355 1363 1373 1391 1404 1415 1429 1438 1451 1464 1484 1504 1520 1523 1523 1525 1529 1539 1556 1578 1593 1595 1596 1596 1596 0 0 0 0 0 1087 1087 1087 1093 1099 1108 1108 1108 1103 1102 1100 0 0 1065 1065 1065 1070 1079 1081 1084 1088 1095 1106 1139 1172 1183 1198 1199 1199 1229 1233 1234 1237 1250 1264 1264 1264 1259 1250 1240 1240 1240 1242 1242 1242 1241 1239 1238 1237 1233 1231 1229 1226 1224 1220 1217 1214 1211 1209 1207 1205 1203 1199 1197 1194 1191 1189 1187 1186 1185 1184 1183 1183 1182 1182 1181 1178 1176 1174 1172 1169 1163 1157 1155 1147 0 0 0 0 875 872 872 872 872 872 868 868 868 870 879 898 916 927 941 955 978 0 0 1091 1108 1114 1116 1117 1118 1118 1116 1114 0 0 0 0 0 0 995 984 955 955 955 967 983 1012 1030 1048 1064 1075 1086 1091 1091 1092 1092 1092 1092 1092 1091 1091 1090 1089 1087 1086 1084 1082 1080 1077 1075 1073 1071 1067 1064 1058 1051 1038 1025 1000 975 958 952 951 951 951 951 952 954 954 957 970 970 971 974 975 977 978 979 980 980 980 982 982 984 1004 1012 1015 1017 1019 1019 1019 1018 1018 1011 1010 1005 996 988 979 974 969 969 969 968 968 965 964 964 962 959 957 957 957 958 965 965 966 975 983 984 984 986 987 987 987 987 986 986 985 984 984 982 981 980 979 978 976 976 975 973 972 971 970 968 967 965 963 961 958 956 953 949 945 942 936 929 927 925 923 922 919 918 918 918 917 916 916 915 915 915 913 912 912 912 913 913 913 914 914 915 917 921 921 921 921 921 920 920 918 914 914 914 910 910 906 900 899 899 896 892 890 889 887 886 883 880 880 880 878 874 866 864 864 864 869 871 872 872 872 871 871 871 871 873 873 873 873 873 874 874 0 0 0 0 0 0 0 0 0 0 0 0 0 0 0 0 0 0 0 0 0 0 0 0 0 0 0 0 0 0 0 0 0 0 0 0 0 0 0 0 0 0 0 0 0 0 0 0 0 0 0 0 0 0 0 0 0 0 0 0 0 0 0 0 0 0 0 0 0 0 0 0 0 0 0 0 0 0 0 0 0 0 0 0 0 0 825 828 828 829 828 828 815 807 807 807 826 844 854 862 869 882 905 922 924 926 951 966 976 983 1000 1028 1057 1068 1068 1076 1076 1093 1105 1110 1113 1117 1127 1138 1172 1214 1222 1230 1230 1230 1230 1230 1202 1202 1200 1200 1200 1221 1221 1221 1216 1198 1181 1157 1157 1157 0 0 1281 1301 1311 1311 1314 1316 1311 1306 1301 1268 1253 1247 1242 1242 1242 1232 1217 1203 1203 1203 1226 1226 1226 0 0 0 1131 1114 1114 0 0 0 1207 1207 0 0 0 0 0 998 992 983 981 957 0 0 0 0 0 0 0 0 0 0 0 0 0 0 0 0 0 0 0 0 0 0 0 0 0 0 0 0 0 0 0 0 0 0 0 0 0 0 0 0 0 0 0 0 0 0 0 0 0 0 0 0
644 644 667 694 719 741 750 769 790 792 818 849 875 906 939 970 996 1022 1051 1083 1114 1147 1152 1176 1195 1208 1225 1248 1270 1294 1315 1332 1345 1354 1372 1394 1402 1421 1431 1438 1451 1464 1478 1495 1507 1514 1517 1518 1522 1527 1539 1565 1593 1595 1610 1610 1610 0 0 0 0 0 0 1101 1101 1101 1107 1115 1122 1127 1130 1134 1134 1134 1132 1119 1101 1093 1090 1090 1090 1096 1106 1106 1109 1133 1135 1148 1172 1183 1198 1211 1224 1231 1235 1244 1253 1254 1259 1259 1259 1244 1244 1244 1244 1244 1244 1243 1241 1240 1237 1235 1232 1230 1228 1225 1222 1219 1215 1212 1211 1209 1207 1203 1199 1197 1194 1191 1189 1187 1186 1185 1184 1183 1183 1182 1182 1181 1178 1178 1176 1174 1170 1164 1159 1155 1149 0 0 0 0 875 872 872 872 873 873 873 870 870 870 880 900 916 927 941 957 978 0 0 1091 1109 1122 1126 1126 1126 1123 1122 1117 1108 1102 1100 1087 0 0 0 0 0 979 979 979 988 1012 1033 1051 1069 1078 1090 1094 1094 1094 1094 1093 1093 1093 1093 1093 1090 1089 1088 1086 1085 1084 1081 1078 1077 1075 1072 1069 1064 1058 1050 1038 1025 1000 976 961 954 951 951 951 951 951 951 952 957 963 964 965 965 968 969 970 976 978 982 982 982 982 984 1007 1016 1016 1021 1021 1022 1022 1021 1020 1018 1013 1009 1000 995 993 989 980 980 979 977 969 969 967 967 967 963 959 959 959 963 968 970 970 979 984 987 987 987 988 988 988 988 988 987 986 986 984 983 982 981 980 978 978 977 976 975 974 972 971 969 968 966 964 961 959 956 953 950 949 944 937 929 928 927 924 921 919 918 918 917 916 915 915 914 914 914 913 913 913 913 913 913 913 914 914 915 917 921 921 922 922 922 920 920 918 917 915 915 914 913 907 900 900 900 900 897 897 893 888 886 884 884 884 884 881 877 870 866 866 866 872 872 872 872 872 872 874 874 878 878 878 877 877 877 880 880 0 0 0 0 0 0 0 0 0 0 0 0 0 0 0 0 0 0 0 0 0 0 0 0 0 0 0 0 0 0 0 0 0 0 0 0 0 0 0 0 0 0 0 0 0 0 0 0 0 0 0 0 0 0 0 0 0 0 0 0 0 0 0 0 0 0 0 0 0 0 0 0 0 0 0 0 0 0 0 0 0 0 0 0 0 0 831 831 831 828 827 824 798 794 794 794 826 845 854 856 856 856 856 865 878 922 951 966 976 983 1000 1028 1052 1068 1068 1069 1069 1069 1080 1087 1087 1087 1087 1087 0 0 1220 1222 1225 1230 1230 1230 1182 1145 1145 1145 1199 1228 1228 1228 1216 1194 1170 1170 1170 1188 0 1237 1267 1290 1299 1299 1307 1307 1307 1307 1307 1282 1265 1265 1265 1265 1265 1252 1217 1202 1202 1202 1219 1219 1219 0 0 1133 1130 1127 1111 1111 0 0 0 0 0 0 0 0 0 1005 983 983 958 933 0 0 0 0 0 0 0 0 0 0 0 0 0 0 0 0 0 0 0 0 0 0 0 0 0 0 0 0 0 0 0 0 0 0 0 0 0 0 0 0 0 0 0 0 0 0 0 0 0 0 0 0
640 640 667 694 719 741 750 769 789 792 810 835 865 899 936 969 995 1021 1050 1081 1114 1147 1152 1176 1195 1208 1225 1248 1269 1291 1311 1322 1333 1349 1371 1397 1402 1423 1432 1441 1451 1464 1478 1490 1501 1512 1517 1518 1522 1527 1539 1565 1574 1590 1610 1610 1610 0 0 0 0 0 0 0 1103 1103 1109 1116 1125 1133 1139 1141 1143 1143 1143 1139 1133 1125 1115 1115 1115 1124 1126 1126 1130 1133 1135 1148 1162 1169 1172 1173 1176 1187 1210 1230 1231 1240 1250 1257 1257 1257 1251 1247 1246 1245 1245 1244 1244 1241 1239 1236 1233 1232 1229 1227 1225 1220 1217 1214 1212 1211 1207 1203 1198 1197 1194 1190 1188 1187 1186 1185 1184 1183 1183 1182 1182 1181 1178 1178 1176 1174 1170 1164 1162 1160 1151 0 0 0 0 875 871 871 871 874 874 874 874 874 876 885 900 916 927 941 957 978 0 0 1093 1112 1125 1128 1128 1128 1125 1124 1121 1118 1115 1115 1109 1098 0 0 0 0 1032 1016 1014 1014 1014 1037 1060 1072 1079 1092 1098 1098 1098 1096 1095 1094 1094 1094 1093 1091 1090 1089 1088 1086 1084 1082 1080 1078 1077 1073 1071 1066 1058 1050 1038 1025 1000 977 961 954 949 949 949 949 950 951 952 957 957 957 959 959 959 962 967 976 978 982 984 987 987 989 1009 1017 1018 1023 1023 1023 1023 1022 1022 1019 1019 1018 1007 1000 1000 998 992 990 989 984 982 972 972 969 968 964 964 964 967 968 971 973 973 980 988 989 989 990 990 990 990 990 989 988 988 986 985 984 983 982 981 980 979 978 976 976 974 974 972 971 968 966 965 962 959 957 955 953 952 948 942 937 934 930 924 921 918 918 917 917 914 914 914 914 914 914 914 914 913 913 913 913 913 914 914 915 917 921 921 922 922 922 921 920 919 918 918 917 917 915 908 904 902 902 902 902 902 893 889 887 887 887 885 885 881 877 873 871 871 871 874 874 874 874 874 874 876 879 884 884 884 883 882 882 883 883 0 0 0 0 0 0 0 0 0 0 0 0 0 0 0 0 0 0 0 0 0 0 0 0 0 0 0 0 0 0 0 0 0 0 0 0 0 0 0 0 0 0 0 0 0 0 0 0 0 0 0 0 0 0 0 0 0 0 0 0 0 0 0 0 0 0 0 0 0 0 0 0 0 0 0 0 0 0 0 0 0 0 0 0 0 0 841 841 841 841 835 824 798 794 794 794 826 845 854 856 856 856 856 865 878 0 955 970 976 983 1003 1028 1051 1068 1068 1068 1066 1066 1066 1068 1068 1068 1068 1068 0 0 0 1192 1205 1230 1230 1230 1181 1139 1139 1139 1192 1228 0 0 0 0 1170 1170 1170 0 1213 1228 1248 1276 1283 1283 1286 1286 1286 1304 1304 1304 1269 1269 1269 1282 1282 1282 1243 1205 1205 1204 1204 1197 1153 0 1133 1130 1127 1127 1094 1094 1094 1118 0 0 0 0 0 0 1009 1005 990 983 958 933 0 0 0 0 0 0 0 0 0 0 0 0 0 0 0 0 0 0 0 0 0 0 0 0 0 0 0 0 0 0 0 0 0 0 0 0 0 0 0 0 0 0 0 0 0 0 0 0 0 0 0 0
629 629 653 683 715 728 741 766 767 786 802 827 854 0 0 969 992 1021 1047 1074 1109 1143 1147 1175 1195 1208 1225 1248 1267 1290 1303 1311 1323 1344 1370 1398 1402 1423 1436 1448 1459 1468 1478 1490 1501 1512 1517 1518 1522 1527 1539 1565 1574 1589 1605 1605 1605 1596 0 0 0 0 0 0 1103 1103 1110 1116 1125 1134 1140 1142 1143 1144 1145 1147 1148 1148 1149 1150 1157 1157 1157 1153 1147 1147 1147 1148 1162 1169 1169 1169 1169 1171 1178 1189 1191 1195 1213 1253 1253 1253 1251 1248 1246 1246 1246 1245 1245 1242 1240 1237 1235 1234 1232 1229 1226 1222 1218 1216 1212 1211 1208 1203 1197 1194 1189 1189 1187 1187 1186 1185 1184 1184 1183 1183 1181 1180 1178 1178 1176 1174 1173 1168 1165 1162 1152 0 0 0 0 880 871 871 871 874 874 876 876 876 884 891 900 908 919 937 957 978 0 0 1096 1114 1126 1130 1130 1130 1127 1127 1127 1127 1127 1127 1124 1118 1107 1096 1088 1082 1067 1042 1033 1033 1033 1040 1063 1073 1082 1093 1098 1098 1098 1096 1095 1095 1094 1094 1094 1092 1091 1089 1089 1087 1085 1083 1080 1079 1078 1076 1073 1067 1058 1051 1038 1023 1000 977 961 954 947 947 947 949 950 950 952 956 956 956 956 956 959 962 967 976 978 982 988 993 998 1009 1015 1018 1018 1023 1025 1027 1027 1026 1026 1024 1023 1020 1019 1014 1013 1006 996 994 994 994 983 978 976 975 973 969 969 969 969 969 971 978 982 985 991 991 991 991 991 991 991 991 991 990 989 987 987 986 985 983 982 981 980 979 978 977 976 974 972 971 969 967 965 963 961 958 955 954 952 948 943 942 942 936 929 921 918 916 915 914 914 914 914 914 914 913 913 913 913 913 914 914 914 914 915 917 918 921 922 922 922 922 922 920 920 920 919 918 918 917 913 910 907 907 906 905 902 901 900 897 891 891 885 885 882 881 877 874 874 874 874 874 874 875 875 876 880 883 890 890 890 884 884 884 885 885 0 0 0 0 0 0 0 0 0 0 0 0 0 0 0 0 0 0 0 0 0 0 0 0 0 0 0 0 0 0 0 0 0 0 0 0 0 0 0 0 0 0 0 0 0 0 0 0 0 0 0 0 0 0 0 0 0 0 0 0 0 0 0 0 0 0 0 0 0 0 0 0 0 0 0 0 0 0 0 0 0 0 0 0 0 843 847 847 847 841 835 824 798 794 794 794 828 850 856 856 856 856 856 865 878 934 955 970 978 988 1008 1029 1051 1056 1056 1056 1055 1055 1055 1057 1057 1057 1040 1040 0 0 0 1171 1183 1200 1200 1200 1157 1139 1139 1139 1168 0 0 0 0 0 0 0 0 0 1206 1207 1215 1247 1273 1273 1278 1281 1281 1292 1292 1292 1269 1269 1269 1282 1282 1282 1243 1205 1204 1197 1184 1181 1134 0 1131 1130 1127 1127 1086 1086 1086 1097 0 0 0 0 0 1009 1005 1005 990 983 958 933 0 0 0 0 0 0 0 0 0 0 0 0 0 0 0 0 0 0 0 0 0 0 0 0 0 0 0 0 0 0 0 0 0 0 0 0 0 0 0 0 0 0 0 0 0 0 0 0 0 0 0 0
621 621 652 674 700 716 735 760 761 781 798 827 854 0 0 969 992 1021 1047 1074 1108 1112 1143 1175 1201 1222 1233 1248 1267 1280 1291 1300 1315 1339 1367 1397 1402 1427 1442 1452 1461 1468 1477 1490 1501 1512 1518 1522 1528 1537 1551 1572 1574 1589 1604 1604 1604 1596 0 0 0 0 0 0 1103 1103 1110 1117 1125 1135 1141 1144 1146 1146 1146 1150 1155 1158 1161 1164 1172 1172 1172 1158 1158 1158 1168 1173 1173 1173 1169 1169 1169 1171 1178 1181 1186 1195 1201 1224 1251 1251 1251 1248 1247 1247 1247 1246 1245 1243 1241 1238 1237 1235 1234 1231 1228 1223 1219 1216 1214 1211 1209 1203 1195 1188 1187 1184 1184 1184 1184 1184 1183 1183 1183 1183 1181 1179 1178 1178 1176 1176 1175 1173 1168 1162 1153 0 0 0 0 883 873 873 873 875 877 877 878 878 884 891 897 900 908 923 952 977 0 0 1096 1118 1128 1133 1133 1133 1130 1129 1129 1129 1129 1129 1129 1125 1118 1110 1107 1103 1095 1082 1069 1066 1064 1064 1064 1074 1082 1093 1098 1098 1098 1096 1095 1095 1094 1094 1094 1093 1091 1090 1089 1087 1085 1083 1081 1080 1079 1077 1073 1070 1059 1051 1038 1022 1000 977 960 949 947 947 947 949 950 950 952 956 956 956 956 956 959 962 967 976 978 986 993 997 1004 1014 1018 1018 1021 1023 1027 1028 1028 1028 1028 1028 1026 1023 1022 1019 1017 1011 1005 1005 1005 995 991 981 981 980 979 979 971 971 971 971 972 979 987 991 994 994 994 993 993 993 992 992 992 991 989 988 988 987 986 984 983 982 981 980 979 978 976 975 973 972 970 968 966 965 963 960 955 954 952 948 946 944 942 942 935 926 918 916 915 914 914 914 914 913 913 912 912 912 913 914 914 914 914 914 915 917 918 921 921 922 922 922 922 922 922 922 922 921 919 918 917 916 915 913 910 908 907 901 901 899 897 897 887 887 883 882 882 882 877 875 875 875 875 875 875 877 880 885 890 890 890 891 891 891 891 891 0 0 0 0 0 0 0 0 0 0 0 0 0 0 0 0 0 0 0 0 0 0 0 0 0 0 0 0 0 0 0 0 0 0 0 0 0 0 0 0 0 0 0 0 0 0 0 0 0 0 0 0 0 0 0 0 0 0 0 0 0 0 0 0 0 0 0 0 0 0 0 0 0 0 0 0 0 0 0 0 0 0 0 0 0 844 852 852 852 841 835 834 823 823 823 823 832 850 856 868 874 885 898 905 920 935 955 970 978 988 1008 1029 1029 1029 1027 1027 1027 1036 1045 1048 1048 1048 1037 1037 1037 0 0 1156 1165 1173 1173 1173 1153 1139 1139 1139 1164 1187 0 0 0 0 0 0 1112 1169 1179 1183 1188 1212 0 0 0 0 1272 1274 1274 1274 1269 1262 1262 1262 1262 1262 1243 1205 1204 1176 1157 1154 1117 1117 1116 1115 1099 1092 1048 1048 1048 1063 0 0 0 0 0 1014 1005 1005 990 988 965 941 0 0 0 0 0 0 0 0 0 0 0 0 0 0 0 0 0 0 0 0 0 0 0 0 0 0 0 0 0 0 0 0 0 0 0 0 0 0 0 0 0 0 0 0 0 0 0 0 0 0 0 0
606 606 0 673 692 714 730 752 754 781 798 827 0 0 0 962 992 1021 1047 1074 1108 1112 1143 1175 1201 1222 1233 1248 1259 1269 1280 1292 1308 1333 1362 1394 1400 1427 1442 1452 1461 1468 1476 1489 1509 1522 1528 1537 1544 1555 1566 1574 1575 1588 1603 1603 1603 1596 0 0 0 0 0 1109 1109 1113 1120 1125 1130 1137 1142 1145 1146 1147 1149 1156 1161 1171 1173 1173 1180 1180 1180 1167 1167 1167 1182 1192 1192 1192 1180 1171 1171 1171 1178 1181 1186 1195 1201 1221 1231 1237 1241 1246 1247 1247 1247 1247 1247 1244 1241 1240 1239 1237 1235 1233 1229 1226 1222 1218 1216 1214 1211 1205 1195 1188 1169 1167 0 0 1169 1181 1182 1183 1183 1183 1181 1179 1179 1178 1178 1178 1178 1173 1168 1162 1155 0 0 0 0 0 870 870 870 878 879 879 880 880 886 892 894 896 896 897 928 0 0 0 1096 1118 1130 1133 1133 1133 1130 1130 1130 1130 1130 1130 1130 1127 1125 1121 1118 1114 1111 1104 1094 1087 1081 1078 1078 1078 1082 1093 1095 1095 1095 1095 1095 1095 1094 1094 1094 1093 1091 1090 1089 1087 1085 1084 1081 1080 1080 1079 1076 1070 1061 1052 1042 1021 990 970 959 949 948 948 948 949 949 949 951 954 954 954 955 955 959 963 972 976 978 986 995 1002 1009 1018 1021 1021 1022 1026 1030 1031 1031 1031 1031 1030 1028 1026 1024 1022 1018 1016 1013 1013 1013 1008 1004 1003 1002 996 996 990 975 972 972 972 972 980 988 992 995 995 995 995 995 994 994 993 993 992 991 990 989 988 987 985 985 984 982 981 980 979 977 976 975 973 971 969 968 966 964 961 960 955 951 946 946 944 944 944 939 931 923 916 915 915 915 914 914 914 913 912 912 912 913 913 913 914 914 914 915 917 918 920 921 922 922 922 924 924 923 923 923 921 921 921 921 921 917 915 912 910 905 905 904 902 902 897 893 891 888 888 885 884 884 877 875 875 875 875 875 877 880 885 890 890 890 891 891 891 891 0 0 0 0 0 0 0 0 0 0 0 0 0 0 0 0 0 0 0 0 0 0 0 0 0 0 0 0 0 0 0 0 0 0 0 0 0 0 0 0 0 0 0 0 0 0 0 0 0 0 0 0 0 0 0 0 0 0 0 0 0 0 0 0 0 0 0 0 0 0 0 0 0 0 0 0 0 0 0 0 0 0 0 0 0 0 848 862 862 862 845 836 834 823 823 823 823 832 850 856 869 888 901 915 920 929 937 954 964 978 988 1008 1029 1029 1029 1019 1019 1019 1025 1032 1035 1035 1035 1028 1028 1028 0 0 1138 1149 1157 1157 1157 1140 1139 1139 1140 1153 1153 1153 0 0 1087 1087 1096 1101 1143 1175 1179 1179 1179 0 0 0 0 1268 1270 1270 1268 1265 1225 1225 1225 1225 1225 1223 1182 1157 1146 1144 1142 1117 1115 1109 1099 1083 1077 1048 1048 1048 1063 0 0 0 0 0 1017 1014 1014 990 988 965 941 0 0 0 0 0 0 0 0 0 0 0 0 0 0 0 0 0 0 0 0 0 0 0 0 0 0 0 0 0 0 0 0 0 0 0 0 0 0 0 0 0 0 0 0 0 0 0 0 0 0 0 0
595 595 0 667 691 714 730 750 751 778 798 0 0 0 0 962 992 1026 1053 1082 1108 1112 1143 1174 1201 1222 1233 1235 1242 1255 1271 1286 1303 1324 1339 1343 1397 1427 1442 1452 1461 1466 1476 1489 1512 1533 1542 1550 1557 1566 1567 1577 1579 1588 1601 1601 1601 1579 0 0 0 0 1083 1083 1083 1113 1135 1138 1139 1145 1148 1149 1150 1153 1158 1164 1172 1181 1189 1189 1189 1189 1188 1181 1181 1181 1182 1193 1193 1193 1183 1178 1178 1178 1178 1181 1186 1197 1201 1220 1221 1226 1241 1246 1246 1247 1248 1248 1248 1246 1244 1242 1241 1238 1236 1233 1230 1228 1225 1222 1220 1218 1216 1205 1195 1186 1154 1118 0 0 0 0 1160 1172 1172 1175 1175 1175 1177 1178 1178 1178 1178 1174 1169 1162 1155 1132 0 0 0 0 870 870 870 878 879 880 881 881 886 892 894 896 896 897 923 0 0 0 1084 1115 1131 1133 1133 1133 1132 1131 1131 1131 1131 1131 1130 1128 1126 1124 1122 1120 1113 1110 1107 1102 1100 1088 1083 1083 1083 1085 1086 1087 1088 1089 1092 1092 1094 1094 1094 1093 1091 1090 1088 1088 1086 1084 1082 1082 1082 1081 1078 1072 1066 1057 1042 1019 990 968 959 953 953 952 952 951 950 949 947 947 947 950 954 956 962 968 973 973 976 986 995 1005 1017 1021 1023 1023 1024 1030 1033 1033 1033 1033 1033 1032 1031 1028 1027 1025 1023 1021 1019 1019 1017 1013 1010 1008 1003 999 997 995 988 988 982 981 981 981 988 994 995 995 995 995 995 994 994 994 993 993 992 991 990 989 988 987 986 984 984 982 982 980 979 978 976 974 972 970 968 967 964 962 960 955 951 945 945 944 944 944 941 934 927 920 918 918 917 917 917 915 913 912 912 912 913 913 913 913 914 914 915 917 918 920 921 923 923 923 924 924 924 924 924 923 923 923 923 922 919 915 912 912 904 904 904 903 903 900 900 896 896 899 899 895 895 887 884 875 875 875 876 877 881 885 887 889 889 891 891 891 891 0 0 0 0 0 0 0 0 0 0 0 0 0 0 0 0 0 0 0 0 0 0 0 0 0 0 0 0 0 0 0 0 0 0 0 0 0 0 0 0 0 0 0 0 0 0 0 0 0 0 0 0 0 0 0 0 0 0 0 0 0 0 0 0 0 0 0 0 0 0 0 0 0 0 0 0 0 0 0 0 0 0 0 0 0 841 868 868 868 865 845 836 834 826 823 823 823 832 850 856 873 902 917 920 926 929 937 954 962 964 967 983 1000 1012 1012 1012 1003 1003 1003 1010 1017 1022 1022 1022 1022 1022 0 0 1115 1125 1127 1136 1139 1139 1139 1139 1140 1139 1139 1131 1100 1087 1087 1087 1095 1096 1138 1172 1179 1179 1179 1153 1153 0 0 0 1250 1250 1250 1241 1197 1197 1197 1197 1197 0 1141 1141 1141 1141 1139 1117 1115 1099 1077 1072 1069 1048 1048 1048 1063 0 0 0 0 0 1020 1018 1018 990 988 965 941 0 0 0 0 0 0 0 0 0 0 0 0 0 0 0 0 0 0 0 0 0 0 0 0 0 0 0 0 0 0 0 0 0 0 0 0 0 0 0 0 0 0 0 0 0 0 0 0 0 0 0 0
595 595 0 660 689 708 726 750 751 777 0 0 0 0 930 962 993 1028 1060 1092 1108 1124 1150 1172 1188 1197 1207 1214 1225 1239 1261 1279 1298 1314 1339 1343 1384 1421 1437 1446 1452 1459 1468 1486 1512 1537 1547 1554 1557 1566 1573 1578 1579 1588 1592 1592 1592 1576 0 0 0 0 1073 1073 1073 1113 1135 1142 1148 1150 1153 1156 1157 1161 1162 1169 1176 1183 1190 1196 1197 1197 1197 1190 1185 1185 1185 1193 1193 1193 1183 1178 1178 1178 1183 1185 1193 1201 1215 1220 1221 1226 1241 1244 1247 1247 1248 1248 1248 1247 1246 1245 1243 1240 1237 1234 1233 1230 1228 1226 1224 1222 1218 1207 1196 1185 0 0 0 0 0 0 0 0 0 1155 1162 1165 1173 1178 1178 1178 1178 1177 1169 1162 1155 1132 0 0 0 0 873 873 873 878 879 880 881 884 890 893 893 894 895 897 923 0 0 0 0 1115 1131 1139 1139 1139 1135 1133 1133 1132 1132 1132 1131 1129 1127 1125 1123 1121 1119 1113 1113 1112 1112 1105 1095 1087 1086 1086 1085 1086 1087 1087 1091 1091 1091 1091 1091 1091 1091 1090 1088 1088 1087 1086 1085 1084 1083 1083 1079 1073 1066 1058 1042 1019 990 968 962 960 959 959 952 950 950 947 945 945 945 950 954 959 967 970 970 974 974 981 995 1005 1021 1024 1024 1025 1026 1031 1034 1034 1034 1034 1034 1034 1033 1031 1029 1028 1026 1025 1022 1021 1020 1016 1014 1011 1007 1002 1001 1001 1001 998 993 992 991 991 993 995 995 995 995 995 995 995 995 995 994 993 992 991 991 990 988 988 987 986 985 984 983 982 980 979 977 975 974 972 970 967 964 962 960 955 950 945 944 944 943 943 941 937 930 926 924 922 921 921 919 916 914 913 913 913 913 913 913 913 914 914 915 917 918 920 921 923 923 923 923 923 925 926 926 926 926 926 926 923 920 915 912 912 905 905 905 903 903 900 900 900 903 903 903 900 895 892 890 883 881 878 878 881 881 884 887 888 888 888 887 887 885 0 0 0 0 0 0 0 0 0 0 0 0 0 0 0 0 0 0 0 0 0 0 0 0 0 0 0 0 0 0 0 0 0 0 0 0 0 0 0 0 0 0 0 0 0 0 0 0 0 0 0 0 0 0 0 0 0 0 0 0 0 0 0 0 0 0 0 0 0 0 0 0 0 0 0 0 0 0 0 0 0 0 0 0 0 855 868 868 868 865 846 838 834 833 820 820 820 832 850 856 883 915 920 926 929 929 937 943 943 943 943 943 953 993 993 993 984 983 983 984 988 1012 1014 1018 1021 0 0 0 0 1109 1112 1117 1128 1138 1138 1138 1127 1126 1126 1115 1099 1087 1087 1087 1092 1096 1131 1165 1174 1174 1174 1153 1152 1152 0 0 1220 1234 1234 1234 1196 1179 1178 1176 0 0 1139 1139 1141 1141 1139 1115 1092 1083 1070 1069 1061 1061 1061 1061 1061 0 0 0 0 1073 1041 1021 1018 989 952 950 914 0 0 0 0 0 0 0 0 0 0 0 0 0 0 0 0 0 0 0 0 0 0 0 0 0 0 0 0 0 0 0 0 0 0 0 0 0 0 0 0 0 0 0 0 0 0 0 0 0 0 0 0
595 595 626 657 683 698 718 747 750 0 0 0 0 0 940 964 998 1031 1060 1094 1108 1130 1150 1168 1174 1177 1184 1196 1212 1231 1256 1276 1292 1307 1331 1335 1374 1401 1417 1429 1440 1447 1459 1475 1512 1537 1547 1554 1557 1566 1573 1578 1579 1585 1585 1585 1579 1564 0 0 0 0 1061 1061 1061 1106 1135 1142 1150 1154 1157 1159 1160 1162 1166 1169 1176 1183 1194 1198 1201 1201 1201 1195 1189 1189 1189 1189 1189 1189 1183 1178 1178 1178 1183 1185 1193 1201 1215 1220 1225 1226 1243 1244 1247 1249 1249 1249 1249 1249 1247 1245 1244 1241 1239 1236 1233 1232 1230 1227 1225 1222 1220 1210 1196 1185 0 0 0 0 0 0 0 0 0 0 0 0 1167 1169 1171 1173 1173 1173 1168 1162 1152 1132 0 0 0 0 878 876 875 875 876 876 881 886 893 893 893 893 893 897 922 0 0 0 0 1109 1131 1141 1141 1141 1141 1140 1137 1135 1135 1134 1133 1131 1130 1127 1125 1124 1120 1117 1113 1113 1113 1106 1099 1092 1079 1078 1077 1075 1075 1075 1085 1090 1090 1090 1091 1090 1090 1090 1088 1088 1088 1087 1086 1086 1085 1083 1079 1073 1066 1059 1043 1019 999 968 966 965 963 959 952 950 950 949 946 946 946 950 954 963 973 973 973 977 977 980 995 1005 1021 1024 1025 1029 1030 1032 1034 1035 1035 1035 1035 1035 1035 1033 1032 1031 1030 1028 1025 1024 1022 1019 1018 1018 1018 1016 1012 1008 1007 1004 998 997 994 994 994 995 995 995 995 995 995 995 995 995 994 993 992 992 991 990 989 989 987 987 985 984 983 982 981 981 979 977 974 973 970 968 964 962 960 954 950 946 944 943 943 943 942 938 934 932 930 927 924 921 920 917 915 914 914 913 913 913 913 913 913 913 915 916 918 920 921 923 923 923 923 923 925 926 928 930 930 930 929 925 0 0 0 0 0 0 0 0 0 906 906 906 908 908 908 903 900 893 892 891 885 885 884 884 884 885 885 885 885 885 885 887 0 0 0 0 0 0 0 0 0 0 0 0 0 0 0 0 0 0 0 0 0 0 0 0 0 0 0 0 0 0 0 0 0 0 0 0 0 0 0 0 0 0 0 0 0 0 0 0 0 0 0 0 0 0 0 0 0 0 0 0 0 0 0 0 0 0 0 0 0 0 0 0 0 0 0 0 0 0 0 0 0 0 0 0 0 0 855 868 868 868 863 846 838 834 833 825 825 825 832 851 875 906 925 925 925 926 926 935 935 935 926 926 926 953 980 980 982 982 980 974 982 984 986 986 986 986 0 0 0 0 1099 1102 1104 1117 1127 1127 1127 1127 1126 1107 1089 1081 1081 1087 1089 1092 1096 1104 1164 1174 1174 1174 1153 1128 1128 1128 1166 0 1219 1219 1219 1192 1175 1167 0 0 1089 1089 1130 1139 1139 1139 1098 1074 1063 1063 1069 1061 1061 1061 1061 1061 0 0 0 1104 1093 1067 1038 1018 989 950 947 0 0 0 0 0 0 0 0 0 0 0 0 0 0 0 0 0 0 0 0 0 0 0 0 0 0 0 0 0 0 0 0 0 0 0 0 0 0 0 0 0 0 0 0 0 0 0 0 0 0 0 0 0
596 596 625 654 675 690 705 707 0 0 0 0 0 0 949 975 1003 1031 1060 1094 1102 1130 1153 1168 1173 1174 1178 1184 1203 1227 1253 1274 1292 1307 1323 1327 1351 1380 1397 1411 1421 1434 1446 1464 1487 1537 1547 1554 1557 1566 1573 1575 1575 1575 1575 1566 1559 0 0 0 0 0 0 1039 1039 0 0 0 1156 1163 1164 1165 1166 1167 1171 1174 1176 1183 1194 1199 1201 1201 1201 1195 1191 1188 1187 1186 1186 1182 1169 1169 1169 1172 1183 1185 1193 1201 1215 1225 1227 1233 1243 1244 1247 1250 1250 1250 1250 1250 1248 1246 1244 1242 1240 1238 1236 1233 1231 1228 1225 1224 1220 1211 1197 1185 0 0 0 0 0 0 0 0 0 0 0 0 0 0 1162 1172 1172 1172 1167 1162 1150 1131 0 0 0 0 878 876 875 873 875 876 880 886 889 889 889 889 889 897 922 0 0 0 0 1107 1131 1141 1141 1141 1141 1141 1140 1138 1138 1137 1137 1134 1131 1128 1126 1125 1121 1118 1116 1116 1114 1108 1101 1092 1079 1072 1054 1054 1054 1059 1083 1086 1087 1087 1088 1088 1088 1088 1088 1088 1087 1087 1087 1087 1085 1083 1079 1076 1070 1059 1043 1023 1006 973 967 966 963 959 950 950 948 947 947 947 947 951 958 967 975 975 975 977 977 980 995 1006 1021 1024 1025 1030 1033 1034 1035 1036 1036 1036 1036 1036 1036 1035 1034 1032 1032 1030 1028 1027 1025 1024 1024 1023 1023 1021 1014 1010 1007 1006 1004 999 995 995 995 995 995 995 995 995 995 995 995 995 994 993 993 992 991 990 989 989 988 988 987 986 984 984 983 981 980 978 976 974 972 969 967 963 960 954 950 947 944 943 943 943 942 940 938 936 933 930 925 922 920 917 916 914 914 913 913 913 913 913 913 914 915 916 918 919 921 922 922 922 923 923 925 927 930 931 931 931 930 928 0 0 0 0 0 0 0 0 0 0 906 906 908 908 908 903 900 898 897 895 894 889 889 889 887 885 885 885 885 885 885 885 0 0 0 0 0 0 0 0 0 0 0 0 0 0 0 0 0 0 0 0 0 0 0 0 0 0 0 0 0 0 0 0 0 0 0 0 0 0 0 0 0 0 0 0 0 0 0 0 0 0 0 0 0 0 0 0 0 0 0 0 0 0 0 0 0 0 0 0 0 0 0 0 0 0 0 0 0 0 0 0 0 0 0 0 0 841 855 864 864 864 858 846 846 846 844 844 0 0 844 877 894 906 918 918 918 918 918 932 932 932 926 926 926 953 969 970 970 969 969 969 957 957 957 972 972 0 0 0 0 0 1083 1087 1090 1103 1116 1127 1127 1127 1126 1107 1089 1080 1080 1080 1088 1080 1088 1089 1161 1174 1174 1174 1156 1104 1104 1104 1161 1195 0 0 0 0 0 0 0 1077 1077 1077 1130 1139 1139 1139 1098 1074 1063 1063 1069 1061 1061 1061 999 999 0 0 1104 1104 1104 1093 1066 1028 989 950 0 0 0 0 0 0 0 0 0 0 0 0 0 0 0 0 0 0 0 0 0 0 0 0 0 0 0 0 0 0 0 0 0 0 0 0 0 0 0 0 0 0 0 0 0 0 0 0 0 0 0 0 0 0
598 598 626 651 674 687 698 701 0 0 0 0 0 0 960 988 1010 1031 1054 1094 1098 1130 1153 1166 1173 1174 1178 1184 1199 1224 1251 1274 1292 1305 1316 1320 1337 1355 1379 1394 1408 1421 1435 1453 1485 1518 1534 1538 1547 1557 1566 1566 1566 1566 1554 1539 0 0 0 0 0 0 0 0 0 0 0 0 1156 1163 1165 1180 1181 1181 1181 1181 1181 1182 1191 1199 1201 1201 1201 1197 1193 1192 1188 1186 1172 1158 1158 1158 1160 1164 1165 1171 1181 1196 1210 1225 1227 1233 1243 1244 1247 1252 1252 1252 1251 1251 1250 1247 1244 1242 1242 1239 1236 1234 1233 1230 1227 1224 1221 1213 1198 1185 0 0 0 0 0 911 907 906 0 0 0 0 0 0 0 0 1157 1160 1160 1160 1148 1128 0 0 0 0 878 878 877 876 876 876 880 891 891 891 889 889 889 900 923 0 0 0 1076 1106 1130 1141 1141 1142 1142 1142 1141 1141 1141 1140 1139 1137 1134 1132 1128 1126 1123 1120 1117 1117 1115 1109 1104 1095 1079 1070 1049 1041 1041 1041 1062 1075 1077 1080 1080 1082 1086 1086 1088 1088 1087 1087 1087 1087 1085 1082 1080 1078 1071 1061 1046 1032 1013 978 967 966 963 955 950 950 950 950 950 951 951 955 961 968 976 976 976 977 977 980 995 1006 1014 1021 1027 1031 1035 1036 1037 1037 1037 1038 1037 1037 1037 1036 1036 1034 1033 1032 1030 1029 1027 1027 1027 1026 1024 1021 1018 1012 1010 1009 1006 1002 997 997 997 994 994 996 996 996 996 996 996 995 994 993 993 993 991 990 989 989 988 988 987 987 986 985 984 982 980 979 977 975 973 970 968 964 959 954 954 954 945 944 944 943 943 941 939 937 934 932 927 923 921 918 917 915 915 914 913 913 913 913 913 914 915 916 918 919 921 922 923 923 925 927 928 929 931 932 932 932 932 930 0 0 0 0 0 0 0 0 0 0 0 0 0 908 908 903 903 900 900 898 894 892 889 889 889 889 885 885 884 884 884 884 0 0 0 0 0 0 0 0 0 0 0 0 0 0 0 0 0 0 0 0 0 0 0 0 0 0 0 0 0 0 0 0 0 0 0 0 0 0 0 0 0 0 0 0 0 0 0 0 0 0 0 0 0 0 0 0 0 0 0 0 0 0 0 0 0 0 0 0 0 0 0 0 0 0 0 0 0 0 0 0 0 0 0 0 0 843 843 843 847 847 851 851 851 851 870 897 0 0 894 894 894 906 918 918 918 918 918 932 932 932 952 952 952 971 971 971 968 967 962 962 957 957 957 972 972 0 0 0 0 0 1041 1066 1073 1076 1080 1114 1141 1141 1141 1107 1074 1074 1074 1076 1076 1077 1077 1077 1130 1145 1156 1156 1156 1104 1104 1104 1161 1187 1203 0 0 0 0 0 0 1059 1077 1077 1130 1139 1139 1139 1098 1074 1074 1074 1074 1069 1065 1061 999 999 0 0 1115 1115 1115 1093 1066 1040 0 0 0 0 0 0 0 0 0 0 0 0 0 0 0 0 0 0 0 0 0 0 0 0 0 0 0 0 0 0 0 0 0 0 0 0 0 0 0 0 0 0 0 0 0 0 0 0 0 0 0 0 0 0 0 0
599 599 628 651 673 686 698 700 0 0 0 0 0 0 971 1001 1018 1032 1054 1088 1092 1125 1153 1165 1169 1174 1178 1184 1199 1218 1249 1274 1291 1305 1314 1318 1329 1345 1365 1381 1394 1408 1432 1452 1472 1494 1510 1518 1527 1537 1539 1539 1539 0 0 0 0 0 0 0 0 0 0 0 0 0 0 0 1156 1163 1165 1180 1181 1181 1181 1181 1181 1183 1191 1204 1204 1204 1201 1197 1197 1197 1195 1188 1172 1158 1158 1158 1160 1160 1160 1164 1165 1168 1198 1218 1227 1233 1236 1244 1247 1253 1254 1254 1254 1254 1253 1249 1246 1244 1243 1241 1238 1236 1234 1232 1227 1226 1223 1213 1200 1185 1157 1107 0 0 915 901 901 901 903 904 906 0 0 0 0 0 0 0 1147 1147 1147 0 0 0 0 0 897 893 887 884 880 880 880 891 891 891 889 889 889 897 922 0 0 0 1076 1106 1129 1141 1141 1142 1142 1142 1142 1142 1142 1142 1141 1139 1137 1134 1132 1128 1126 1122 1119 1117 1115 1113 1109 1097 1079 1056 0 0 0 0 0 0 0 0 1055 1071 1073 1077 1086 1086 1087 1087 1087 1086 1085 1082 1080 1079 1074 1061 1047 1035 1014 982 967 966 963 955 950 950 950 955 955 956 956 959 964 970 975 975 975 975 975 980 997 1006 1014 1019 1026 1032 1035 1037 1038 1039 1039 1039 1039 1038 1038 1038 1037 1036 1034 1033 1032 1030 1030 1029 1028 1028 1026 1023 1020 1017 1014 1013 1010 1003 998 998 998 997 997 997 997 996 996 996 996 994 993 993 993 993 991 990 989 989 988 988 988 987 986 985 984 983 981 979 977 975 974 972 969 965 959 954 954 954 950 948 947 946 944 942 940 937 934 932 928 925 921 919 917 916 915 914 914 913 913 913 913 914 915 916 918 919 920 922 922 926 929 929 929 930 931 932 932 932 932 930 0 0 0 0 0 0 0 0 0 0 0 0 0 0 910 903 903 902 900 900 896 896 895 894 894 889 886 885 885 885 887 887 0 0 0 0 0 0 0 0 0 0 0 0 0 0 0 0 0 0 0 0 0 0 0 0 0 0 0 0 0 0 0 0 0 0 0 0 0 0 0 0 0 0 0 0 0 0 0 0 0 0 0 0 0 0 0 0 0 0 0 0 0 0 0 0 0 0 0 0 0 0 0 0 0 0 0 0 0 0 0 0 0 0 0 0 0 843 843 843 847 853 854 858 864 869 892 0 0 0 916 915 915 915 918 918 918 918 918 932 967 970 983 983 983 978 973 970 970 970 969 969 967 967 967 972 972 972 0 0 0 0 1030 1054 1054 1060 1063 1107 1143 0 0 0 0 1074 1074 1074 1074 1077 1077 1077 1096 1104 1130 1130 1130 1128 1128 1128 1144 1154 1154 0 0 0 1072 1059 1056 1059 1072 1077 1115 1130 1130 1130 1098 1092 1092 1079 1079 1079 1064 1036 999 999 0 0 1116 1116 1116 1093 1066 1040 0 0 0 0 0 0 0 0 0 0 0 0 0 0 0 0 0 0 0 0 0 0 0 0 0 0 0 0 0 0 0 0 0 0 0 0 0 0 0 0 0 0 0 0 0 0 0 0 0 0 0 0 0 0 0 0
599 599 626 650 670 686 698 700 0 0 0 0 0 0 971 1001 1018 1032 1054 1088 1091 1115 1144 1163 1169 1176 1188 1191 1199 1218 1242 1265 1287 1300 1305 1316 1325 1337 1351 1367 1393 1406 1422 1442 1465 1481 1490 1492 1495 1502 1502 0 0 0 0 0 0 0 0 0 0 0 0 0 0 0 0 0 1134 1163 1165 1180 1181 1181 1181 1181 1181 1183 1194 1210 1212 1212 1212 1200 1199 1199 1198 1195 1172 1164 1164 1164 1164 1164 1164 1158 1158 1158 1165 1193 1219 1227 1230 1231 1246 1252 1256 1256 1256 1256 1255 1251 1248 1246 1245 1243 1240 1237 1234 1233 1231 1228 1224 1216 1203 1186 1173 1133 0 0 920 896 896 896 902 904 906 907 0 0 0 0 0 0 0 0 0 0 0 0 0 0 0 919 912 898 887 887 887 893 898 898 898 894 894 894 919 0 0 0 1076 1103 1129 1141 1141 1142 1142 1144 1144 1144 1144 1144 1143 1141 1139 1136 1134 1130 1128 1125 1122 1120 1117 1115 1112 1099 1079 1051 0 0 961 961 961 984 993 998 0 0 1052 1056 1072 1083 1084 1085 1085 1084 1083 1080 1080 1079 1075 1065 1049 1035 1015 983 968 966 963 955 954 954 954 959 959 962 962 963 967 974 975 975 975 975 975 980 997 1010 1014 1019 1026 1032 1036 1037 1038 1040 1041 1041 1041 1040 1040 1040 1039 1038 1036 1036 1034 1033 1031 1031 1030 1029 1026 1024 1022 1020 1017 1016 1013 1008 1001 1001 999 998 998 997 997 996 996 996 996 993 993 993 993 993 991 988 988 988 988 988 987 987 986 985 984 983 982 980 977 976 975 973 969 965 960 956 956 954 951 950 949 948 945 943 940 937 935 932 930 927 924 922 919 917 916 915 914 913 913 913 913 913 915 916 918 919 920 921 922 926 929 929 929 930 931 932 932 932 932 930 0 0 0 0 0 0 0 0 0 0 0 0 0 0 0 0 0 0 0 903 903 903 903 903 898 890 889 885 885 885 887 887 0 0 0 0 0 0 0 0 0 0 0 0 0 0 0 0 0 0 0 0 0 0 0 0 0 0 0 0 0 0 0 0 0 0 0 0 0 0 0 0 0 0 0 0 0 0 0 0 0 0 0 0 0 0 0 0 0 0 0 0 0 0 0 0 0 0 0 0 0 0 0 0 0 0 0 0 0 0 0 0 0 0 0 0 847 847 843 843 847 854 871 887 903 905 0 0 0 930 928 915 915 915 925 925 940 958 969 969 979 981 983 983 983 981 973 970 970 970 973 973 975 979 979 979 980 990 0 0 0 0 1027 1035 1043 1048 1048 0 0 0 0 0 0 1094 1087 1082 1082 1073 1073 1073 1064 1079 1084 1091 1103 1123 1125 1125 1125 1123 1109 1105 1104 1080 1059 1059 1056 1059 1059 1077 1106 1123 1123 1123 1100 1092 1092 1079 1079 1079 1059 1021 1021 1021 0 0 0 1138 1115 1090 1060 1040 0 0 0 0 0 0 0 0 0 0 0 0 0 0 0 0 0 0 0 0 0 0 0 0 0 0 0 0 0 0 0 0 0 0 0 0 0 0 0 0 0 0 0 0 0 0 0 0 0 0 0 0 0 0 0 0
598 598 626 650 670 684 698 700 0 0 0 0 0 0 971 1001 1018 1032 1055 1088 1091 1115 1140 1156 1169 1176 1188 1199 1206 1218 1242 1263 1281 1295 1299 1310 1322 1329 1339 1364 1379 1394 1414 1437 1457 1461 1461 1461 1459 1459 0 0 0 0 0 1344 1337 1336 1333 1331 1313 0 0 0 0 0 0 0 0 1122 1141 1172 1181 1181 1182 1182 1182 1188 1200 1212 1217 1217 1217 1214 1208 1207 1207 1207 1201 1166 1166 1166 1166 1166 1166 1158 1152 1152 1152 1160 1174 1205 1218 1221 1241 1253 1257 1257 1257 1257 1257 1253 1250 1249 1247 1244 1242 1238 1236 1234 1232 1231 1227 1220 1206 1186 1173 1136 0 0 932 896 896 896 899 904 906 907 918 919 924 0 0 0 0 0 0 0 0 0 0 0 0 0 922 908 888 888 888 894 902 902 902 902 902 902 919 945 0 0 1062 1103 1129 1139 1142 1143 1145 1146 1147 1147 1147 1146 1144 1142 1140 1138 1136 1133 1131 1128 1123 1121 1118 1116 1112 1102 1085 0 0 963 946 946 946 946 978 981 990 991 0 0 0 1059 1072 1072 1074 1077 1078 1078 1078 1078 1075 1070 1051 1037 1016 983 969 967 966 965 965 965 965 965 965 965 965 965 971 978 978 978 975 975 975 980 997 1010 1014 1018 1027 1033 1036 1039 1040 1042 1042 1042 1042 1042 1042 1042 1041 1040 1039 1036 1035 1034 1034 1033 1031 1030 1027 1026 1023 1022 1020 1017 1015 1012 1008 1004 1003 1001 999 996 996 996 996 996 996 993 991 991 990 990 990 988 988 988 988 987 987 987 986 985 985 984 982 981 979 978 975 973 969 965 962 957 957 953 953 952 952 950 947 944 943 939 936 933 931 929 927 924 921 918 916 916 915 915 914 913 913 913 915 916 918 919 919 920 922 926 929 931 931 933 933 933 933 933 933 931 0 0 0 0 0 0 0 0 0 0 0 0 0 0 0 0 0 0 0 0 903 903 903 903 903 895 890 888 888 888 894 894 0 0 0 0 0 0 0 0 0 0 0 0 0 0 0 0 0 0 0 0 0 0 0 0 0 0 0 0 0 0 0 0 0 0 0 0 0 0 0 0 0 0 0 0 0 0 0 0 0 0 0 0 0 0 0 0 0 0 0 0 0 0 0 0 0 0 0 0 0 0 0 0 0 0 0 0 0 0 0 0 0 0 0 0 872 890 890 890 885 885 885 894 935 0 0 0 943 949 955 959 965 972 981 985 985 985 984 984 984 984 994 994 990 990 983 968 968 968 969 976 979 990 990 990 990 990 991 998 998 999 1027 1027 1027 1032 1035 0 0 0 0 0 0 1074 1074 1070 1069 1066 1066 1066 1063 1063 1074 1084 1097 1103 1123 1123 1123 1122 1092 1085 1079 1073 1066 1059 1056 1059 1059 1069 1091 1116 1116 1116 1100 1092 1092 1079 1079 1079 1059 1042 1042 1042 0 0 0 0 1106 1083 1055 0 0 0 0 0 0 0 0 0 0 0 0 0 0 0 0 0 0 0 0 0 0 0 0 0 0 0 0 0 0 0 0 0 0 0 0 0 0 0 0 0 0 0 0 0 0 0 0 0 0 0 0 0 0 0 0 0
598 598 626 649 665 684 696 700 0 0 0 0 0 0 957 991 1011 1032 1059 1081 1091 1115 1140 1156 1168 1177 1188 1199 1209 1223 1242 1262 1281 1291 1295 1310 1322 1329 1337 1350 1365 1384 1406 1428 1442 1442 1442 1432 1424 0 0 0 0 0 1338 1337 1336 1336 1333 1333 1333 1331 1331 1310 0 0 0 0 0 1122 1141 1158 1180 1180 1181 1182 1182 1190 1201 1212 1219 1220 1220 1220 1219 1219 1218 1218 1202 1179 1176 1175 1175 1175 1175 1169 1152 1152 1152 1160 1174 1197 1206 1220 1237 1253 1258 1261 1261 1261 1259 1255 1254 1251 1250 1248 1245 1241 1237 1234 1232 1231 1230 1225 1206 1194 1173 1138 0 0 0 896 896 896 896 900 904 904 915 915 919 920 920 0 0 0 0 0 0 0 0 0 0 0 0 0 894 894 894 900 902 902 904 904 909 910 923 945 979 0 0 1103 1129 1139 1143 1146 1147 1149 1149 1149 1148 1147 1146 1144 1141 1140 1137 1135 1133 1130 1125 1123 1120 1116 1112 1105 1089 0 0 963 945 943 943 943 955 963 964 965 977 0 0 0 0 1050 1061 1070 1070 1074 1075 1075 1075 1070 1060 1049 1020 986 981 981 978 978 978 978 977 975 974 968 968 968 971 978 978 978 978 978 978 980 993 1010 1014 1018 1027 1033 1039 1039 1041 1043 1043 1043 1044 1043 1043 1043 1042 1041 1040 1038 1037 1037 1035 1034 1033 1032 1029 1027 1026 1024 1022 1021 1018 1015 1010 1005 1004 1002 994 987 987 987 990 990 990 989 987 987 987 988 988 988 987 987 987 987 987 987 986 986 985 984 984 982 980 978 976 973 969 966 965 964 957 955 955 953 953 951 948 946 945 942 938 935 933 931 928 925 921 918 918 917 917 916 914 914 913 913 913 916 918 919 919 920 922 926 929 932 933 934 934 934 934 934 934 932 0 0 0 0 0 0 0 0 0 0 0 0 0 0 0 0 0 0 0 0 0 0 0 0 0 899 892 892 892 894 894 894 894 894 896 0 0 0 0 0 0 0 0 0 0 0 0 0 0 0 0 0 0 0 0 0 0 0 0 0 0 0 0 0 0 0 0 0 0 0 0 0 0 0 0 0 0 0 0 0 0 0 0 0 0 0 0 0 0 0 0 0 0 0 0 0 0 0 0 0 0 0 0 0 0 0 0 0 0 0 0 0 0 0 0 0 0 910 910 910 904 904 904 0 0 0 0 0 972 968 968 968 976 981 982 986 996 1002 1002 1002 996 994 994 988 987 987 983 979 973 973 973 984 986 991 991 991 991 991 991 998 1001 1005 1005 1001 998 998 998 0 0 0 0 0 0 0 1065 1065 1061 1056 1056 1056 1057 1057 1066 1066 1066 1103 1106 1106 1106 1088 1074 1065 1054 1054 1054 1059 1059 1059 1055 1055 1055 1103 1103 1103 1097 0 0 0 0 0 0 0 0 0 0 0 0 0 0 0 0 0 0 0 0 0 0 0 0 0 0 0 0 0 0 0 0 0 0 0 0 0 0 0 0 0 0 0 0 0 0 0 0 0 0 0 0 0 0 0 0 0 0 0 0 0 0 0 0 0 0 0 0 0 0 0 0 0
598 598 626 645 660 681 686 709 735 0 0 0 0 0 942 978 1005 1032 1059 1080 1091 1118 1140 1156 1167 1177 1188 1199 1210 1225 1243 1261 1281 1291 1295 1310 1322 1329 1337 1338 1353 1370 1387 0 0 0 0 0 0 0 0 0 1327 1327 1327 1336 1339 1342 1342 1342 1350 1354 1354 1354 0 0 0 0 0 0 1141 1158 1171 1177 1179 1180 1186 1190 1202 1212 1219 1224 1224 1224 1224 1223 1223 1219 1207 1194 1189 1189 1189 1190 1193 1193 1193 1165 1165 1165 1174 1197 1206 1220 1237 1253 1261 1263 1263 1263 1261 1259 1258 1256 1253 1251 1247 1243 1239 1236 1233 1231 1230 1228 1215 1195 1175 1141 0 0 0 0 896 896 896 897 900 900 915 915 915 909 909 909 0 0 0 0 0 0 0 0 0 0 0 0 0 0 900 900 903 904 905 915 925 929 930 950 979 0 0 1107 1129 1139 1145 1148 1150 1150 1150 1150 1149 1149 1148 1146 1143 1141 1139 1136 1135 1132 1128 1124 1120 1116 1113 1110 1091 0 0 963 944 942 942 942 942 942 947 947 952 971 974 978 994 0 0 1023 1049 1070 1071 1071 1071 1070 1060 1051 1025 992 992 992 997 997 997 988 984 982 978 974 971 971 971 978 978 978 978 978 978 981 991 1003 1011 1015 1027 1036 1039 1041 1043 1044 1045 1045 1045 1045 1045 1045 1043 1042 1041 1040 1039 1038 1037 1035 1034 1033 1031 1029 1027 1025 1024 1023 1020 1015 1012 1007 1005 1003 994 971 969 968 966 968 968 969 970 979 985 985 985 985 985 985 987 987 987 987 986 985 985 984 984 982 981 979 978 975 969 967 965 964 957 955 955 954 954 953 950 948 946 944 939 937 935 932 928 925 922 919 918 918 918 917 916 915 913 913 913 915 916 918 919 920 922 927 929 932 935 935 935 935 935 935 935 935 0 0 0 0 0 0 0 0 0 0 0 0 0 0 0 0 0 0 0 0 0 0 0 0 0 0 899 898 898 897 897 894 894 894 896 896 0 0 0 0 0 0 0 0 0 0 0 0 0 0 0 0 0 0 0 0 0 0 0 0 0 0 0 0 0 0 0 0 0 0 0 0 0 0 0 0 0 0 0 0 0 0 0 0 0 0 0 0 0 0 0 0 0 0 0 0 0 0 0 0 0 0 0 0 0 0 0 0 0 0 0 0 0 0 0 0 0 0 0 0 0 0 0 0 0 1019 1019 1019 1016 1007 995 995 995 994 995 997 1001 1007 1008 1008 1007 994 994 988 988 992 992 988 985 985 985 987 992 992 992 991 991 991 991 998 1001 1005 1005 1001 998 998 998 0 0 0 0 0 0 1049 1049 1049 0 0 0 0 0 1060 1060 1060 1060 1086 1086 1088 1088 1081 1074 1065 1055 1055 1055 1063 1063 1063 1037 1037 1037 1078 1078 1078 0 0 0 0 0 0 0 0 0 0 0 0 0 0 0 0 0 0 0 0 0 0 0 0 0 0 0 0 0 0 0 0 0 0 0 0 0 0 0 0 0 0 0 0 0 0 0 0 0 0 0 0 0 0 0 0 0 0 0 0 0 0 0 0 0 0 0 0 0 0 0 0 0 0
598 598 626 645 660 680 683 709 738 763 0 0 0 0 939 969 1000 1028 1059 1062 1091 1118 1140 1156 1162 1176 1187 1198 1210 1226 1244 1262 1281 1291 1295 1311 1327 1328 1330 1332 1334 1340 0 0 0 0 0 0 0 0 0 1309 1320 1326 1327 1336 1343 1344 1345 1355 1361 1369 1378 1378 0 0 0 0 0 0 0 1171 1171 1177 1179 1180 1186 1191 1202 1210 1218 1224 1224 1224 1224 1223 1223 1219 1208 1207 1207 1207 1209 1210 1221 1221 1221 1221 1207 1202 1202 1202 1206 1220 1237 1253 1262 1263 1263 1263 1262 1262 1260 1258 1256 1254 1250 1246 1242 1239 1235 1233 1232 1228 1217 1196 1175 1142 0 0 0 0 892 888 887 887 887 898 914 914 914 901 901 901 910 0 0 0 0 0 0 0 0 0 0 0 0 0 0 0 0 0 905 920 930 931 943 961 985 0 0 1107 1129 1140 1148 1152 1152 1152 1152 1152 1151 1151 1150 1147 1145 1143 1141 1139 1136 1134 1131 1127 1124 1119 1114 1112 1097 0 0 963 934 934 934 938 938 939 939 939 949 964 966 967 973 980 983 983 1011 1040 1043 1053 1060 1060 1060 1052 1038 1012 1012 1012 1013 1013 1013 997 988 984 982 979 975 973 973 973 978 978 978 978 978 982 991 997 1001 1010 1028 1038 1040 1043 1045 1046 1046 1046 1046 1046 1046 1045 1044 1043 1042 1041 1040 1039 1038 1037 1036 1035 1032 1030 1028 1026 1025 1024 1021 1017 1013 1010 1008 1003 994 971 969 968 966 966 966 966 966 966 979 982 983 983 983 984 986 986 986 986 986 985 985 984 984 982 981 980 979 977 972 969 969 964 960 956 956 956 956 955 953 951 947 944 940 937 935 932 929 925 922 920 920 919 918 918 918 916 914 914 914 915 916 918 920 922 926 928 929 932 935 936 936 936 936 936 936 936 936 0 0 0 932 0 0 0 0 0 0 0 0 0 0 0 0 0 0 0 0 0 0 0 0 0 0 899 899 898 898 894 892 892 892 891 890 890 889 0 0 0 0 0 0 0 0 0 0 0 0 0 0 0 0 0 0 0 0 0 0 0 0 0 0 0 0 0 0 0 0 0 0 0 0 0 0 0 0 0 0 0 0 0 0 0 0 0 0 0 0 0 0 0 0 0 0 0 0 0 0 0 0 0 0 0 0 0 0 0 0 0 0 0 0 0 0 0 0 0 0 0 0 0 1023 1023 1024 1024 1024 1022 1016 1015 1014 1013 1010 1009 1009 1009 1011 1011 1011 999 996 995 994 995 995 994 989 989 989 995 997 997 995 991 991 991 991 998 998 1000 1000 998 998 998 998 994 994 999 999 1009 1026 1031 1031 1031 988 966 0 0 0 1059 1059 1065 1065 1071 1081 1085 1085 1081 1074 1065 1055 1055 1055 1064 1064 1064 1034 1032 1032 1032 0 0 0 987 980 962 941 941 0 0 0 0 0 0 0 0 0 0 0 0 0 0 0 0 0 0 0 0 0 879 879 884 0 0 0 0 0 0 0 0 0 0 0 0 0 0 0 0 0 0 0 0 0 0 0 0 0 0 0 0 0 0 0 0 0 0 0 0 0 0 0 0 0 0 0 0
598 598 627 644 660 680 683 709 738 762 0 0 0 0 937 967 994 1025 1050 1053 1084 1118 1140 1156 1162 1172 1187 1197 1211 1228 1246 1263 1281 1291 1294 1311 1327 1327 1327 1315 1305 0 0 0 0 0 0 0 0 1263 1264 1290 1320 1327 1336 1343 1351 1357 1361 1365 1368 1375 1385 1391 1391 0 0 0 0 0 0 0 1177 1177 1179 1180 1193 1207 1208 1209 1216 1224 1224 1224 1224 1223 1223 1219 1219 1219 1235 1235 1236 1236 1235 1235 1235 1234 1234 1234 1232 1232 1232 1234 1243 1253 1262 1263 1264 1264 1264 1262 1262 1259 1257 1255 1254 1249 1245 1241 1238 1235 1233 1228 1219 1200 1181 1157 0 0 0 0 892 888 878 877 877 877 895 895 895 893 893 893 903 0 0 0 0 0 1164 1172 1172 1172 0 0 0 0 0 0 0 0 0 0 933 933 945 964 985 0 0 1107 1129 1143 1151 1154 1154 1154 1153 1152 1152 1152 1150 1149 1147 1144 1143 1140 1138 1136 1133 1129 1126 1119 1115 1112 1098 0 0 956 934 934 934 936 936 936 936 936 944 962 964 966 967 969 974 978 988 1000 1012 1030 1054 1054 1054 1052 1052 1049 1033 1026 1025 1022 1014 1008 990 988 987 986 980 971 971 971 978 978 978 979 980 983 991 997 1001 1010 1028 1040 1042 1045 1048 1048 1048 1048 1048 1048 1048 1047 1046 1045 1043 1042 1041 1040 1039 1038 1038 1036 1034 1032 1030 1028 1027 1025 1023 1019 1014 1012 1010 1004 994 983 974 969 968 966 966 966 964 964 964 970 972 972 979 983 984 984 985 985 985 985 984 984 982 982 981 981 980 978 974 972 969 966 962 961 959 959 959 958 957 954 950 945 940 938 936 932 929 926 923 921 921 920 920 919 919 918 915 915 915 915 916 918 920 925 928 930 930 933 936 936 936 936 936 937 937 937 937 937 937 937 937 937 0 0 0 0 0 0 0 0 0 0 0 0 0 0 0 0 0 0 0 0 0 900 900 899 898 894 894 892 891 890 889 890 887 887 0 0 0 0 0 0 0 0 0 0 0 0 0 0 0 0 0 0 0 0 0 0 0 0 0 0 0 0 0 0 0 0 0 0 0 0 0 0 0 0 0 0 0 0 0 0 0 0 0 0 0 0 0 0 0 0 0 0 0 0 0 0 0 0 0 0 0 0 0 0 0 0 0 0 0 0 0 0 997 1012 1012 1012 1012 1012 1024 1026 1026 1026 1024 1022 1018 1018 1018 1017 1017 1017 1011 1011 1011 1011 1011 1000 996 996 996 997 997 997 990 990 990 995 995 995 995 995 995 995 997 998 998 999 999 998 998 996 995 995 995 995 995 997 1019 1019 1019 990 978 962 962 0 0 1058 1058 1057 1057 1057 1078 1081 1097 1097 1083 1083 1083 1083 1091 1091 1091 1078 1037 1004 992 0 0 0 990 983 980 962 941 941 941 0 0 0 0 0 0 0 0 0 0 0 0 0 0 0 0 0 0 0 894 894 892 894 902 0 0 0 0 0 0 0 0 0 0 0 0 0 0 0 0 0 0 0 0 0 0 0 0 0 0 0 0 0 0 0 0 0 0 0 0 0 0 0 0 0 0 0
598 598 626 643 660 681 683 706 738 0 0 0 0 0 0 966 994 1020 1045 1050 1079 1114 1137 1153 1162 1172 1185 1197 1211 1228 1247 1262 1281 1285 1293 1311 1314 1314 1314 1291 0 0 1228 1228 1228 1228 1238 1238 1238 1253 1258 1287 1319 1344 1353 1362 1363 1365 1369 1373 1379 1384 1392 1398 1411 1424 0 0 0 0 0 0 0 0 1185 1190 1198 1207 1208 1209 1209 1209 1214 1214 1214 1218 1218 1218 1218 1218 1235 1239 1240 1243 1243 1243 1243 1243 1243 1244 1244 1244 1245 1253 1257 1261 1262 1263 1265 1265 1265 1263 1262 1260 1259 1256 1254 1251 1248 1246 1242 1237 1233 1228 1221 1205 1188 1158 0 0 0 0 892 888 878 877 877 877 879 879 879 879 879 890 903 0 0 0 0 1139 1169 1178 1178 1178 1177 1163 0 0 0 0 0 0 0 0 0 946 946 968 0 0 0 1101 1129 1145 1154 1155 1155 1155 1155 1155 1154 1153 1152 1149 1148 1145 1143 1142 1140 1138 1136 1132 1127 1120 1115 1112 1100 0 0 956 934 934 934 935 935 936 936 936 944 960 963 964 967 969 974 978 987 999 1011 1023 1039 1053 1055 1056 1055 1053 1051 1049 1048 1033 1024 1015 1001 993 992 992 985 975 975 975 978 979 979 980 984 988 992 997 1001 1010 1029 1040 1044 1047 1049 1049 1049 1049 1049 1049 1049 1048 1047 1046 1045 1043 1043 1042 1041 1040 1039 1037 1036 1033 1031 1030 1029 1028 1025 1021 1017 1015 1013 1004 994 983 977 974 971 970 968 962 961 961 961 961 961 961 966 974 976 977 978 980 982 982 982 981 981 981 980 980 980 978 975 974 973 968 963 961 961 961 961 961 959 956 952 946 942 939 937 933 930 927 924 924 923 922 922 920 920 920 917 916 916 916 919 922 923 927 929 931 934 936 936 936 937 937 937 937 938 938 938 938 938 938 937 937 936 0 0 0 0 0 0 0 0 0 0 0 0 0 0 0 0 0 0 0 0 902 902 899 899 898 894 892 889 886 886 886 885 885 885 883 883 883 883 0 0 0 0 0 0 0 0 0 0 0 0 0 0 0 0 0 0 0 0 0 0 0 0 0 0 0 0 0 0 0 0 0 0 0 0 0 0 0 0 0 0 0 0 0 0 0 0 0 0 0 0 0 0 0 0 0 0 0 0 0 0 0 0 0 0 0 0 0 0 0 0 992 1009 1018 1019 1020 1025 1028 1030 1030 1028 1027 1026 1026 1020 1020 1019 1019 1019 1017 1013 1010 1010 1009 1009 1006 1005 1004 1004 1003 1001 1000 998 997 997 996 995 992 992 992 994 995 997 998 998 999 999 999 999 999 996 996 995 995 995 996 997 997 996 981 976 962 962 0 0 1048 1048 1048 1048 1048 1070 1081 1081 1083 1083 1083 1083 1083 1091 1091 1091 1078 1037 0 0 956 956 956 974 974 974 962 941 941 941 0 0 0 0 0 0 0 0 0 0 0 0 0 0 0 0 0 0 959 921 905 897 905 906 0 0 0 0 0 0 0 0 0 0 0 0 0 0 0 0 0 0 0 0 0 0 0 0 0 0 0 0 0 0 0 0 0 0 0 0 0 0 0 0 0 0 0
596 596 626 643 660 681 683 703 0 0 0 0 0 0 0 964 993 1017 1040 1045 1073 1103 1129 1144 1154 1164 1175 1188 1211 1228 1247 1261 1278 1281 1290 1303 1303 1303 0 0 0 1223 1223 1223 1228 1228 1238 1238 1238 1253 1258 1286 1319 1346 1359 1362 1364 1366 1371 1379 1388 1397 1402 1408 1426 1456 1479 1479 1479 0 0 0 0 0 0 0 1201 1207 1209 1210 1210 1210 1193 1180 1180 1180 1205 1213 1213 1218 1235 1239 1240 1243 1246 1246 1246 1249 1250 1250 1252 1259 1259 1259 1263 1263 1263 1263 1265 1265 1265 1264 1263 1262 1259 1257 1255 1252 1252 1250 1245 1240 1236 1230 1223 1210 1194 1165 0 0 0 0 895 890 878 877 877 877 877 878 878 878 879 890 903 0 0 0 0 0 1169 1181 1182 1182 1182 1181 1175 1169 1164 0 0 0 0 0 0 0 0 0 0 0 1073 1101 1129 1149 1157 1157 1157 1157 1156 1156 1155 1155 1152 1150 1148 1146 1145 1143 1142 1139 1137 1135 1131 1122 1117 1116 1100 0 0 950 942 938 938 938 937 936 936 936 944 955 963 964 966 969 974 980 987 997 1007 1023 1037 1050 1056 1056 1067 1072 1072 1072 1064 1043 1025 1017 1017 1015 1010 1010 997 977 977 977 979 981 982 982 989 993 995 1002 1002 1015 1032 1040 1045 1050 1050 1051 1051 1051 1051 1051 1051 1050 1049 1048 1047 1045 1044 1043 1042 1040 1040 1038 1037 1035 1033 1032 1031 1029 1028 1023 1017 1015 1013 1006 995 984 977 976 973 970 968 962 960 960 959 959 959 959 961 968 970 973 976 976 977 980 980 980 980 980 981 981 981 979 979 978 975 968 963 963 963 962 962 962 959 956 952 948 943 942 940 937 932 928 927 926 924 923 922 922 922 920 917 917 917 917 920 922 923 927 931 932 934 936 936 937 937 938 938 938 939 939 939 939 938 937 937 937 936 936 0 0 0 0 0 0 0 0 0 0 0 0 0 0 0 0 0 0 0 903 903 899 899 898 894 892 889 884 884 884 885 885 885 883 883 883 883 883 0 0 0 0 0 0 0 0 0 0 0 0 0 0 0 0 0 0 0 0 0 0 0 0 0 0 0 0 0 0 0 0 0 0 0 0 0 0 0 0 0 0 0 0 0 0 0 0 0 0 0 0 0 0 0 0 0 0 0 0 0 0 0 0 0 0 0 0 0 0 982 994 1010 1020 1020 1021 1025 1028 1030 1030 1028 1026 1024 1024 1022 1022 1021 1021 1019 1017 1013 1010 1010 1009 1007 1007 1006 1006 1005 1004 1001 1000 998 997 997 996 995 992 992 992 994 995 997 997 997 998 998 999 999 999 996 994 994 992 992 992 992 992 991 981 976 967 962 962 967 1016 1032 1032 1048 1048 1060 1081 1081 1083 1083 1083 1083 1083 1091 1091 1091 1078 0 0 962 942 940 940 940 972 972 972 966 966 966 992 997 997 0 0 0 0 0 0 0 0 0 0 0 0 0 0 0 0 952 932 905 905 0 0 0 0 0 0 0 0 0 0 0 0 0 0 0 0 0 0 0 0 0 0 0 0 0 0 0 0 0 0 0 0 0 0 0 0 0 0 0 0 0 0 0 0
582 582 602 633 660 684 685 0 0 0 0 0 0 0 0 963 988 1010 1031 1035 1060 1089 1116 1135 1145 1153 1175 1188 1202 1227 1246 1261 1272 1275 1285 1285 1285 1271 0 0 0 1197 1217 1223 1228 1238 1239 1241 1252 1253 1258 1286 1319 1346 1359 1362 1366 1368 1374 1391 1412 1429 1444 1457 1467 1474 1506 1509 1509 1509 0 0 0 0 0 0 0 1214 1214 1214 1214 1214 1193 1175 1175 1175 1176 1194 1196 1197 1213 1238 1239 1243 1246 1246 1246 1249 1256 1259 1261 1273 1273 1273 1267 1267 1267 1267 1267 1267 1266 1265 1265 1264 1260 1257 1256 1255 1254 1252 1249 1243 1238 1234 1223 1217 1205 1178 0 0 0 0 905 897 885 881 881 877 877 877 878 878 879 890 904 0 0 0 0 0 1169 1182 1182 1183 1184 1184 1185 1186 1186 1185 1173 0 0 0 0 0 0 0 0 0 1075 1101 1132 1157 1157 1157 1157 1157 1156 1156 1155 1155 1152 1150 1148 1146 1145 1144 1143 1140 1138 1136 1133 1125 1122 1119 1098 0 0 949 944 944 942 941 939 935 935 935 944 955 960 962 966 969 974 978 987 993 1006 1023 1037 1050 1056 1061 1071 1077 1077 1077 1066 1063 1063 1050 1036 1034 1030 1015 1010 987 982 982 982 985 985 985 991 998 1002 1005 1011 1021 1032 1040 1047 1052 1052 1052 1052 1052 1052 1052 1052 1052 1050 1050 1048 1048 1046 1045 1044 1042 1041 1040 1038 1036 1035 1033 1032 1030 1028 1024 1018 1015 1013 1006 995 984 978 976 973 970 968 962 958 957 956 955 954 954 954 954 955 955 956 958 963 977 977 978 979 979 979 980 980 980 979 979 977 969 963 963 963 963 963 962 959 956 953 948 943 942 942 938 935 930 929 928 927 925 925 924 924 922 917 917 917 917 921 922 923 928 931 933 935 937 937 937 938 938 938 938 939 939 939 939 938 937 937 934 0 0 0 0 0 0 0 0 0 0 0 0 0 0 0 0 0 0 0 0 0 905 905 904 904 901 894 892 887 883 883 883 884 884 884 879 879 879 881 881 881 881 877 0 0 0 0 0 0 0 0 0 0 0 0 0 0 0 0 0 0 0 0 0 0 0 0 0 0 0 0 0 0 0 0 0 0 0 0 0 0 0 0 0 0 0 0 0 0 0 0 0 0 0 0 0 0 0 0 0 0 0 0 0 0 0 0 0 0 0 996 1010 1019 1020 1020 1025 1025 1028 1028 1028 1026 1026 1024 1023 1023 1023 1022 1021 1018 1016 1013 1010 1008 1007 1007 1007 1006 1006 1005 1004 1001 1000 998 997 997 996 995 992 992 992 993 993 993 993 993 995 996 996 996 996 994 994 993 992 990 990 990 990 988 981 976 975 972 961 961 961 1004 1006 1020 1028 0 0 0 0 0 0 0 1059 1069 1069 1069 0 0 0 938 916 916 916 938 942 966 966 972 972 980 996 996 996 0 0 0 0 0 0 0 0 0 0 0 0 0 0 0 0 0 0 0 0 0 0 0 0 0 0 0 0 0 0 0 0 0 0 0 0 0 0 0 0 0 0 0 0 0 0 0 0 0 0 0 0 0 0 0 0 0 0 0 0 0 0 0 0
582 582 602 0 0 0 0 0 0 0 0 0 0 0 0 963 985 999 1011 1015 1040 1071 1100 1120 1144 1152 1160 1170 1189 1213 1235 1250 1260 1263 1267 1267 1267 0 0 0 0 1188 1217 1242 1262 1269 1270 1271 1273 1276 1277 1290 1318 1346 1359 1362 1366 1370 1382 1416 1449 1465 1476 1484 1488 1497 1521 1532 1532 1535 0 0 0 0 0 0 0 0 0 1230 1224 1215 1205 1197 1176 1176 1175 1162 1165 1165 1165 1194 1195 1208 1216 1235 1246 1249 1256 1259 1261 1273 1273 1273 1267 1267 1267 1268 1268 1268 1268 1267 1266 1264 1261 1259 1258 1257 1256 1253 1249 1245 1242 1235 1225 1220 1211 1184 0 0 0 0 919 904 888 883 879 877 874 874 874 877 881 890 904 918 0 0 0 0 1166 1183 1184 1184 1184 1186 1186 1188 1188 1188 1185 1179 1171 0 0 0 0 0 0 0 1105 1112 1132 1157 1157 1157 1157 1157 1156 1156 1155 1155 1152 1150 1148 1147 1146 1145 1143 1140 1139 1137 1135 1128 1122 1119 1098 0 0 947 944 944 942 941 939 935 935 935 944 955 960 961 965 969 974 978 987 993 1005 1023 1037 1050 1061 1065 1076 1082 1082 1082 1077 1074 1072 1065 1057 1054 1037 1037 1017 1016 992 991 991 991 992 995 1002 1005 1005 1006 1011 1023 1033 1042 1048 1053 1054 1054 1054 1054 1054 1054 1054 1053 1052 1051 1050 1049 1047 1046 1045 1044 1043 1041 1040 1037 1036 1035 1033 1031 1028 1024 1019 1013 1010 1007 995 983 978 976 973 970 967 961 957 955 954 954 954 953 949 948 948 942 948 948 952 960 963 971 977 977 978 980 980 980 980 980 978 972 966 966 965 964 963 963 959 957 953 948 943 942 942 940 935 933 932 931 930 929 928 926 924 922 917 917 917 917 921 922 923 930 931 934 936 937 938 938 939 939 939 939 939 939 939 939 938 937 937 934 0 0 0 0 0 0 0 0 0 0 0 0 0 0 0 0 0 0 0 0 0 908 908 906 901 894 892 887 887 884 884 884 882 882 882 875 875 875 880 881 881 881 879 879 876 874 0 0 0 0 0 0 0 0 0 0 0 0 0 0 0 0 0 0 0 0 0 0 0 0 0 0 0 0 0 0 0 0 0 0 0 0 0 0 0 0 0 0 0 0 0 0 0 0 0 0 0 0 0 0 0 0 0 0 0 0 0 0 0 0 1019 1023 1023 1023 1023 1023 1026 1030 1030 1030 1030 1026 1024 1024 1023 1023 1022 1021 1018 1016 1013 1011 1008 1007 1006 1006 1006 1006 1005 1003 1001 1000 998 997 996 995 994 991 991 990 990 990 989 988 988 988 988 988 990 992 993 993 993 992 987 987 987 986 986 984 983 982 978 963 960 960 960 980 980 0 0 0 0 0 0 0 0 0 0 0 0 0 0 0 916 915 914 915 923 923 954 966 970 972 980 996 996 996 0 0 0 0 0 0 0 0 0 0 0 0 0 0 0 0 0 0 0 0 0 0 0 0 0 0 0 0 0 0 0 0 0 0 0 0 0 0 0 0 0 0 0 0 0 0 0 0 0 0 0 0 0 0 0 0 0 0 0 0 0 0 0 0
582 582 602 632 658 684 685 0 0 0 0 0 0 0 0 961 984 992 997 1000 1021 1069 1099 1118 1130 1139 1147 1158 1177 1194 0 0 0 0 0 0 0 0 0 0 0 0 1227 1256 1276 1285 1294 1299 1303 1304 1306 1306 1318 1336 1345 1352 1366 1389 1404 1442 1459 1475 1490 1501 1509 1522 1530 1538 1539 1551 1568 1584 1584 0 0 0 0 0 0 1240 1228 1216 1211 1210 1183 1183 1176 1162 1160 1160 1160 1162 1163 1173 1181 1199 1229 1243 1256 1259 1261 1273 1273 1273 1267 1267 1267 1270 1270 1270 1268 1268 1266 1265 1262 1261 1259 1257 1257 1253 1250 1247 1243 1236 1226 1224 1220 1195 0 0 0 0 0 904 892 884 881 880 874 874 874 877 881 890 904 918 0 0 0 0 1165 1184 1184 1185 1185 1188 1190 1190 1190 1189 1187 1185 1183 1174 1170 1170 1166 1135 1134 1127 1127 1134 1139 1155 1156 1156 1155 1155 1154 1154 1154 1154 1153 1150 1149 1148 1147 1145 1143 1140 1139 1137 1135 1132 1126 1120 1100 0 0 946 944 944 941 941 939 936 936 936 947 956 957 959 960 966 974 978 984 989 1000 1020 1050 1055 1062 1069 1079 1087 1087 1087 1086 1081 1079 1077 1074 1070 1055 1040 1040 1033 1027 1002 1002 1002 1009 1009 1010 1011 1011 1012 1015 1024 1034 1042 1051 1054 1055 1055 1055 1055 1055 1055 1055 1054 1054 1053 1052 1051 1049 1048 1047 1045 1045 1043 1041 1038 1038 1036 1034 1031 1029 1024 1019 1013 1010 1007 995 983 978 972 969 966 964 961 957 954 954 954 954 952 947 947 947 942 944 944 944 944 956 960 963 972 978 978 981 981 981 981 978 973 968 967 966 966 966 966 963 959 953 950 943 942 942 941 937 934 933 932 932 932 930 926 924 922 917 917 917 917 921 922 923 931 936 937 939 939 940 940 940 940 940 939 939 939 939 939 938 937 936 934 932 932 0 0 0 0 0 0 0 0 0 0 0 0 0 0 0 0 0 0 0 909 909 908 901 889 887 885 884 884 884 884 883 883 882 874 870 870 870 872 874 875 875 875 876 875 875 874 874 874 875 0 0 0 0 0 0 0 0 0 0 0 0 0 0 0 0 0 0 0 0 0 0 0 0 0 0 0 0 0 0 0 0 0 0 0 0 0 0 0 0 0 0 0 0 0 0 0 0 0 0 0 0 0 0 0 0 0 0 1008 1026 1027 1027 1027 1026 1026 1026 1028 1030 1030 1030 1027 1026 1025 1024 1023 1022 1021 1018 1016 1013 1011 1008 1007 1006 1005 1003 1002 1002 1000 999 997 996 994 994 993 991 989 989 989 988 988 988 988 987 986 986 986 986 986 990 991 991 991 986 985 985 985 984 984 983 982 978 970 969 964 960 959 948 0 0 0 0 0 0 0 0 0 0 0 0 0 0 0 0 915 914 914 914 914 914 946 962 970 980 995 995 995 0 0 0 0 0 0 0 0 0 0 0 0 0 0 0 0 0 0 0 0 0 0 0 0 0 0 0 0 0 696 706 0 0 0 0 0 0 0 0 0 0 0 0 0 0 0 0 0 0 0 0 0 0 0 0 0 0 0 0 0 0 0 0 0
585 585 609 632 657 660 670 690 0 0 0 0 0 0 0 961 984 992 997 1000 1021 1063 1079 1099 1114 1125 1136 1143 0 0 0 0 0 0 0 0 0 0 0 0 0 0 1255 1283 1303 1309 1314 1320 1320 1320 1320 1320 1320 1336 1345 1352 1366 1389 1430 1445 1459 1478 1494 1512 1527 1536 1544 1559 1560 1577 1588 1594 1594 1588 0 0 0 0 0 0 1229 1216 1216 1216 1216 1227 1227 1227 1160 1160 1160 1160 1161 1162 1163 1167 1207 1229 1244 1252 1254 1268 1268 1268 1267 1267 1267 1270 1270 1270 1270 1269 1266 1265 1263 1262 1260 1259 1257 1254 1250 1247 1244 1241 1235 1232 1221 1203 0 0 0 0 0 904 892 884 881 880 874 874 874 878 881 881 891 916 0 0 0 0 1164 1186 1187 1188 1188 1192 1192 1192 1192 1190 1189 1188 1188 1186 1178 1175 1174 1171 1154 1145 1137 1137 1137 1143 1152 1153 1153 1154 1154 1154 1154 1154 1153 1151 1150 1149 1148 1146 1143 1141 1139 1137 1137 1136 1130 1120 1100 0 0 0 938 938 938 938 938 941 941 941 954 954 954 953 953 953 965 967 974 978 992 1019 1050 1059 1064 1075 1084 1090 1090 1091 1091 1090 1089 1087 1082 1076 1069 1060 1048 1040 1039 1031 1030 1028 1028 1028 1028 1025 1022 1022 1022 1027 1036 1046 1053 1056 1056 1057 1057 1057 1057 1056 1056 1056 1055 1055 1053 1052 1051 1049 1048 1047 1046 1044 1043 1040 1039 1038 1036 1033 1029 1025 1019 1013 1010 1006 996 981 971 967 965 963 961 959 956 954 954 953 953 953 947 947 947 942 944 944 944 944 956 960 963 970 974 976 981 981 981 981 979 975 973 972 971 968 968 967 967 961 954 950 943 943 942 941 939 936 934 934 934 934 931 927 924 921 917 917 917 917 921 923 927 933 937 939 940 940 940 941 941 941 941 940 939 939 939 939 938 937 937 935 934 933 0 0 0 0 0 0 0 0 0 0 0 0 0 0 0 0 0 0 0 909 909 908 899 884 884 884 884 884 884 884 883 883 880 874 870 868 868 868 870 872 874 874 875 874 874 874 874 874 875 872 0 0 0 0 0 0 0 0 0 0 0 0 0 0 0 0 0 0 0 0 0 0 0 0 0 0 0 0 0 0 0 0 0 0 0 0 0 0 0 0 0 0 0 0 0 0 0 0 0 0 0 0 0 0 0 0 0 1009 1031 1031 1031 1028 1028 1028 1028 1028 1030 1030 1030 1028 1027 1025 1024 1023 1022 1021 1018 1016 1014 1012 1009 1006 1005 1004 1002 1000 999 998 997 996 995 994 992 991 989 987 987 987 987 987 987 987 986 986 985 985 985 985 987 989 989 989 984 984 984 984 984 983 983 982 979 978 976 974 964 960 948 906 906 906 906 908 912 927 927 927 925 0 0 0 0 875 0 893 914 914 914 914 914 946 957 970 976 976 976 974 0 0 0 0 0 0 0 0 0 0 0 0 0 0 0 0 0 0 0 0 0 0 0 0 0 0 693 693 693 696 706 709 0 0 0 0 0 0 0 0 0 0 0 0 0 0 0 0 0 0 0 0 0 0 0 0 0 0 0 0 0 0 0 0
592 592 611 637 655 659 665 0 0 0 0 0 0 0 0 958 981 992 997 1000 1021 1063 1079 1091 1102 1111 1111 1111 0 0 0 0 0 1066 1102 0 0 0 0 0 0 0 1295 1316 1317 1318 1322 1330 1334 1334 1334 1336 1336 1336 1345 1352 1371 1400 1433 1445 1459 1484 1504 1524 1539 1549 1558 1571 1575 1590 1590 1594 1594 1588 1568 1514 0 0 0 0 0 1218 1218 1218 1226 1247 1247 1247 1201 1162 1162 1160 1161 1162 1163 1167 1180 1190 1195 1201 1216 1241 1245 1252 1263 1263 1264 1264 1269 1270 1270 1270 1268 1266 1265 1264 1262 1260 1258 1254 1251 1248 1246 1244 1239 1232 1223 1207 0 0 0 0 0 900 894 894 892 891 880 877 876 876 877 881 891 916 0 0 0 0 1162 1186 1191 1192 1194 1196 1196 1196 1194 1193 1192 1192 1192 1191 1186 1179 1176 1171 1164 1158 1155 1146 1140 1140 1140 1145 1152 1152 1153 1153 1153 1153 1153 1151 1150 1149 1148 1146 1145 1141 1139 1139 1137 1137 1136 1120 1104 0 0 0 938 938 938 942 943 944 945 951 956 956 956 950 950 950 957 967 972 974 979 1012 1050 1062 1067 1079 1088 1093 1093 1093 1093 1092 1091 1089 1086 1084 1081 1075 1070 1059 1058 1056 1056 1056 1058 1056 1055 1055 1025 1025 1025 1032 1045 1049 1054 1056 1057 1057 1057 1057 1058 1058 1058 1057 1056 1055 1054 1053 1052 1051 1049 1047 1046 1045 1044 1042 1040 1039 1037 1035 1030 1026 1020 1015 1010 1004 995 977 966 962 961 961 959 955 954 954 954 954 954 953 949 949 949 944 944 944 944 944 956 960 962 969 974 976 982 982 982 983 982 981 981 979 979 975 971 970 969 963 960 955 943 943 943 943 942 939 937 936 936 936 932 927 921 917 914 914 914 917 923 924 928 933 938 940 940 941 942 942 942 942 942 941 941 941 941 940 939 939 938 937 937 935 934 0 0 0 0 0 0 0 0 0 0 0 0 0 0 0 0 0 0 908 908 902 897 884 884 884 884 884 883 883 883 881 878 874 870 868 867 867 866 867 867 872 872 872 872 871 869 869 869 870 870 871 871 871 876 0 0 0 0 0 0 0 0 0 0 0 0 0 0 0 0 0 0 0 0 0 0 0 0 0 0 0 0 0 0 0 0 0 0 0 0 0 0 0 0 0 0 0 0 0 0 0 0 0 0 0 999 1017 1033 1033 1033 1029 1028 1028 1029 1029 1030 1030 1030 1029 1027 1026 1025 1024 1022 1021 1018 1016 1014 1012 1009 1007 1005 1004 1001 999 998 997 995 995 995 994 991 989 987 985 985 985 985 985 985 985 985 984 984 983 983 983 984 986 986 986 984 980 978 978 977 976 976 976 976 976 979 979 979 964 948 906 906 906 906 908 912 927 927 927 925 881 877 877 877 893 915 927 931 931 931 931 932 946 949 952 952 953 953 952 0 0 0 0 0 0 0 0 0 0 0 0 0 0 0 0 0 0 0 0 0 0 0 0 0 696 675 675 675 693 694 709 0 0 0 0 0 0 0 0 0 0 0 0 0 0 0 0 0 0 0 0 0 0 0 0 0 0 0 0 0 0 0 0
596 596 616 644 655 656 665 0 0 0 0 0 0 0 0 958 981 998 1001 1015 1038 1063 1079 1090 1091 1091 1091 1090 1050 1050 1050 1054 1062 1066 1102 1126 0 0 0 0 0 0 1314 1322 1322 1322 1328 1338 1341 1347 1350 1350 1350 1350 1350 1361 1393 1416 1433 1445 1459 1491 1526 1539 1548 1556 1568 1572 1584 1590 1590 1590 1579 1542 1539 1514 1489 0 0 0 0 0 1230 1230 1230 1248 1248 1248 1240 1218 1192 1168 1168 1167 1167 1167 1180 1188 1190 1191 1195 1206 1207 1215 1236 1259 1261 1263 1268 1269 1269 1269 1269 1267 1266 1265 1264 1263 1260 1257 1254 1249 1247 1245 1239 1232 1225 1207 0 0 0 0 0 892 892 896 898 898 898 883 877 877 877 881 891 916 0 0 0 0 1160 1186 1192 1196 1198 1198 1198 1198 1196 1196 1195 1195 1194 1193 1190 1184 1181 1178 1170 1163 1159 1152 1134 1129 1129 1129 1139 1142 1152 1152 1152 1152 1152 1151 1150 1150 1150 1149 1148 1146 1144 1142 1141 1140 1136 1124 1111 0 0 0 938 938 938 945 946 948 950 951 955 955 955 949 949 949 956 966 967 972 977 998 1045 1062 1071 1081 1090 1094 1095 1095 1094 1094 1092 1090 1089 1088 1088 1087 1083 1079 1075 1075 1073 1073 1073 1071 1071 1062 1045 1040 1040 1040 1049 1054 1057 1057 1058 1058 1058 1059 1059 1059 1058 1058 1057 1056 1055 1053 1052 1051 1050 1049 1048 1046 1045 1044 1041 1039 1037 1035 1031 1026 1022 1015 1009 1004 993 976 966 962 961 961 959 955 954 954 954 954 954 953 951 951 951 951 957 957 957 957 960 960 962 967 972 977 982 983 984 984 984 984 983 982 979 978 977 975 971 966 964 963 960 952 950 947 946 946 943 941 939 937 933 927 921 917 913 913 913 924 927 928 932 938 939 940 942 943 943 943 943 943 943 942 942 942 941 941 939 939 939 939 939 939 937 934 0 0 0 0 0 0 0 0 0 0 0 0 0 0 0 0 0 898 898 891 886 878 878 878 882 883 883 883 881 879 876 874 872 870 868 868 867 867 867 872 872 872 871 870 868 868 868 870 870 871 871 871 876 876 0 0 0 0 0 0 0 0 0 0 0 0 0 0 0 0 0 0 0 0 0 0 0 0 0 0 0 0 0 0 0 0 0 0 0 0 0 0 0 0 0 0 0 0 0 0 0 0 0 0 1003 1020 1034 1034 1034 1032 1031 1031 1031 1031 1031 1031 1030 1029 1028 1026 1025 1024 1022 1021 1018 1016 1014 1012 1009 1007 1004 1003 1000 998 996 995 994 994 993 991 990 987 985 983 983 983 983 983 983 982 982 982 982 982 982 982 982 983 983 983 981 978 978 977 975 974 974 974 974 978 981 981 981 981 961 906 906 906 901 912 927 957 927 927 925 881 877 877 877 893 916 936 952 955 964 964 964 958 954 949 948 948 948 948 0 0 0 0 0 0 0 0 0 0 0 0 0 0 0 0 0 0 0 0 0 0 0 0 0 680 675 675 675 693 694 0 0 0 0 0 0 0 0 0 0 0 0 0 0 0 0 0 0 0 0 0 0 0 0 0 0 0 0 0 0 0 0 0
600 600 627 645 654 655 663 0 0 0 0 0 0 0 0 951 979 998 1001 1015 1038 1063 1077 1077 1077 1072 1061 1041 1041 1041 1047 1066 1070 1085 1102 1126 1131 0 0 0 0 1298 1316 1326 1331 1333 1340 1348 1350 1355 1360 1360 1360 1365 1366 1374 1398 1416 1433 1445 1459 1494 1526 1545 1552 1558 1573 1575 1584 1586 1586 1586 1548 1531 1517 1509 1495 1481 0 0 0 0 0 1248 1248 1249 1249 1249 1240 1229 1222 1221 1211 1208 1188 1188 1188 1188 1190 1191 1192 1192 1192 1193 1214 1251 1261 1263 1266 1268 1268 1268 1268 1268 1267 1267 1265 1264 1262 1259 1255 1253 1249 1245 1240 1235 1225 1222 0 0 0 0 0 892 892 902 902 902 898 884 878 878 878 883 900 931 0 0 0 0 1160 1187 1192 1196 1199 1200 1200 1200 1198 1197 1197 1196 1196 1196 1192 1188 1186 1182 1177 1167 1164 1158 1135 1111 1103 0 0 0 1131 1152 1152 1152 1152 1151 1150 1150 1150 1150 1150 1147 1145 1144 1144 1140 1136 1124 1113 0 0 0 944 944 946 946 948 950 950 951 955 955 955 948 948 948 954 964 965 971 976 991 1030 1062 1071 1081 1091 1097 1097 1097 1097 1096 1093 1092 1092 1092 1092 1092 1090 1087 1082 1082 1081 1079 1079 1076 1074 1064 1056 1054 1052 1052 1052 1054 1058 1059 1059 1059 1059 1059 1059 1059 1059 1058 1057 1056 1056 1055 1053 1052 1051 1050 1048 1047 1046 1044 1042 1039 1038 1037 1033 1028 1022 1015 1008 1002 993 974 966 962 961 961 959 955 954 954 954 956 956 956 955 951 951 951 957 961 961 961 962 962 962 967 972 978 982 985 987 987 987 986 984 982 980 979 978 976 972 970 969 967 967 965 961 957 955 953 952 949 943 939 934 928 921 917 913 913 913 929 929 932 935 942 943 944 944 944 944 944 944 944 943 943 943 942 942 941 941 940 940 940 939 939 937 934 933 0 0 0 0 0 0 0 0 0 0 0 0 0 0 0 0 891 891 890 886 878 878 878 879 879 879 878 877 876 875 874 874 872 871 870 867 867 867 872 872 872 870 866 866 865 865 865 865 867 868 868 876 876 876 873 873 0 0 0 0 0 0 0 0 0 0 0 0 0 0 0 0 0 0 0 0 0 0 0 0 0 0 0 0 0 0 0 0 0 0 0 0 0 0 0 0 0 0 0 0 0 0 999 1010 1023 1034 1034 1034 1033 1033 1033 1033 1033 1033 1031 1030 1029 1028 1027 1025 1024 1023 1021 1018 1016 1014 1011 1009 1006 1004 1002 998 995 994 994 993 992 992 990 988 986 983 982 980 979 979 979 979 979 980 980 980 980 980 980 980 980 980 980 978 977 976 976 975 974 974 974 974 979 981 984 984 984 965 916 916 916 901 922 922 927 927 927 907 907 877 877 877 916 931 949 955 982 982 982 981 957 929 921 921 921 948 948 0 0 0 0 0 0 0 0 0 0 0 0 0 0 0 0 0 0 0 0 0 0 0 0 0 0 680 688 688 0 0 0 0 0 0 0 0 0 0 0 0 0 0 0 0 0 0 0 0 0 0 0 0 0 0 0 0 0 0 0 0 0 0 0
600 600 627 645 651 653 660 0 0 0 0 0 0 0 0 945 974 998 1001 1015 1038 1063 1066 1066 1066 1054 1037 1015 1015 1015 1047 1070 1072 1097 1111 1120 1144 1186 1217 1244 1272 1298 1316 1329 1337 1341 1349 1355 1357 1362 1368 1368 1368 1371 1371 1390 1398 1416 1430 1445 1459 1494 1526 1545 1557 1564 1576 1577 1580 1580 1580 1563 1545 1519 1515 1509 1503 1500 1489 0 0 0 0 0 1255 1251 1249 1248 1241 1235 1228 1226 1224 1223 1222 1203 1201 1199 1194 1193 1192 1192 1192 1193 1195 1224 1238 1244 1257 1264 1268 1268 1268 1268 1267 1267 1265 1264 1262 1260 1257 1255 1251 1246 1241 1235 1228 1224 0 0 0 0 0 902 902 914 914 914 904 886 882 882 882 906 931 943 0 0 0 0 1158 1187 1195 1201 1201 1201 1201 1201 1198 1198 1198 1198 1198 1198 1194 1190 1188 1186 1179 1167 1166 1162 1134 0 0 0 0 0 0 1128 1146 1146 1146 1147 1150 1150 1150 1150 1150 1147 1145 1144 1144 1140 1134 1124 1113 0 0 0 951 951 951 951 951 951 951 951 951 951 950 947 947 947 947 949 958 970 976 991 0 1062 1071 1081 1091 1099 1099 1099 1099 1096 1096 1096 1096 1095 1095 1095 1093 1090 1088 1087 1084 1082 1082 1079 1076 1066 1060 1060 1054 1054 1054 1054 1058 1060 1060 1060 1060 1060 1060 1060 1059 1058 1058 1058 1056 1055 1054 1053 1052 1050 1050 1048 1046 1045 1042 1041 1039 1038 1035 1028 1023 1013 1007 999 989 973 966 963 963 962 959 958 957 957 957 959 959 959 957 951 951 951 957 961 961 961 962 962 962 967 972 980 987 988 988 989 989 988 987 985 983 982 981 979 977 974 974 973 972 968 965 964 964 963 962 961 955 944 938 931 922 918 916 916 916 929 935 936 939 946 946 946 946 946 945 945 945 945 944 944 944 943 942 942 941 941 940 939 939 938 937 0 0 0 0 0 0 0 0 0 0 0 0 0 0 0 0 0 0 900 891 890 886 878 878 878 879 879 879 877 876 875 875 874 874 872 871 871 871 871 871 871 871 871 870 866 865 864 862 862 862 862 862 863 875 875 875 873 873 872 0 0 0 0 0 0 0 0 0 0 0 0 0 0 0 0 0 0 0 0 0 0 0 0 0 0 0 0 0 0 0 0 0 0 0 0 0 0 0 0 0 0 0 0 0 1009 1022 1033 1034 1034 1034 1033 1033 1033 1033 1033 1033 1031 1030 1029 1029 1027 1025 1024 1023 1021 1018 1016 1013 1011 1009 1006 1003 1001 997 994 993 991 991 991 989 989 986 983 981 980 979 978 977 977 977 977 978 978 978 978 978 978 978 978 977 977 976 976 975 975 975 974 974 974 975 978 980 982 982 982 976 958 937 937 924 922 901 901 901 907 907 907 907 907 910 916 921 963 988 1017 1017 1017 1004 964 929 921 921 921 960 960 0 0 0 0 0 0 0 0 0 0 0 0 0 0 0 0 0 0 0 0 0 0 0 0 0 0 0 0 0 0 0 0 0 0 0 0 0 0 0 0 0 0 0 0 0 0 0 0 0 0 0 0 0 0 0 0 0 0 0 0 0 0 0 0
600 600 627 645 647 649 660 0 0 0 0 0 0 0 0 935 958 979 981 1004 1025 1040 1040 1040 1040 1028 1016 1015 1015 1015 1047 1078 1080 1103 1113 1126 1162 1203 1225 1245 1273 1298 1316 1329 1337 1345 1354 1361 1363 1370 1370 1370 1371 1371 1374 1390 1398 1414 1424 1441 1459 1494 1525 1545 1557 1564 1576 1577 1577 1577 1561 1546 1533 1516 1512 1508 1503 1500 1498 1491 0 0 0 0 0 0 1255 1248 1243 1239 1231 1231 1227 1226 1226 1227 1228 1231 1231 1231 1205 1193 1193 1193 1195 1222 1230 1241 1255 1264 1268 1268 1268 1268 1268 1268 1266 1265 1262 1260 1258 1256 1253 1247 1241 1237 1233 1231 0 0 0 0 0 0 927 925 925 925 915 898 890 890 890 912 933 946 0 0 0 0 1157 1186 1194 1201 1203 1204 1204 1204 1201 1200 1200 1200 1200 1199 1197 1194 1190 1189 1181 1168 1167 1162 0 0 0 0 0 0 0 0 0 0 1122 1131 1150 1150 1150 1150 1150 1147 1145 1144 1144 1140 1129 1124 1113 0 0 0 959 954 953 953 952 948 948 948 948 948 948 947 947 947 947 949 955 965 976 991 1030 1062 1075 1081 1091 1100 1100 1100 1099 1099 1099 1099 1099 1099 1099 1097 1094 1093 1090 1089 1086 1084 1083 1080 1077 1076 1076 1068 1055 1054 1054 1054 1058 1060 1060 1060 1062 1062 1060 1060 1059 1059 1058 1058 1058 1056 1054 1053 1052 1051 1050 1049 1047 1046 1043 1041 1039 1039 1035 1029 1024 1013 1007 996 986 973 967 963 963 962 962 960 959 960 961 961 961 961 957 951 951 951 956 961 961 961 962 962 962 967 972 980 987 989 990 990 990 990 989 987 986 984 984 983 980 979 977 976 975 972 969 968 967 967 967 967 966 958 946 945 930 924 924 924 928 937 940 945 945 948 948 948 948 947 947 947 947 946 945 945 945 944 944 943 943 941 940 939 939 938 937 0 0 0 0 0 0 0 0 0 0 0 0 0 0 0 0 0 906 898 891 891 888 883 881 880 880 879 879 877 875 875 875 874 874 872 871 871 871 871 871 871 871 871 867 866 865 860 859 859 860 860 860 862 862 862 867 868 868 873 873 0 0 0 0 0 0 0 0 0 0 0 0 0 0 0 0 0 0 0 0 0 0 0 0 0 0 0 0 0 0 0 0 0 0 0 0 0 0 0 0 0 0 0 0 1010 1029 1034 1034 1034 1034 1033 1033 1033 1033 1033 1033 1031 1030 1029 1029 1027 1025 1024 1023 1021 1018 1015 1012 1010 1007 1005 1003 1000 996 993 991 989 989 987 987 985 983 980 978 978 976 976 976 976 975 975 975 975 976 976 976 976 976 975 975 975 975 975 975 975 975 975 975 975 977 978 978 979 980 980 980 959 959 959 942 942 0 0 0 907 907 907 907 907 925 931 935 993 1023 1024 1024 1023 1004 977 929 908 908 908 967 976 976 976 923 0 0 0 0 0 0 0 0 0 0 0 0 0 0 0 0 0 0 0 0 0 0 0 0 0 0 0 0 0 0 0 0 0 0 0 0 0 0 0 0 0 0 0 0 0 0 0 0 0 0 0 0 0 0 0 0 0 0 0 0 0
