478 478 489 502 515 515 515 517 517 519 520 521 527 534 538 541 544 548 557 564 569 569 571 583 596 598 606 614 622 628 635 642 644 646 650 655 664 675 676 676 676 675 662 662 662 0 0 0 0 0 0 0 0 0 0 0 0 0 0 0 1165 1169 1177 1183 1185 1196 1200 1215 1230 1230 1230 1204 0 0 0 0 795 795 795 802 808 814 817 841 842 844 844 859 867 870 871 874 877 881 885 886 887 888 890 892 895 896 898 899 901 903 904 905 907 909 909 910 911 912 915 919 924 928 930 933 935 937 938 940 941 943 945 948 952 955 956 958 960 962 965 967 970 971 973 973 973 974 974 975 976 978 981 981 983 983 987 995 1001 1005 1008 1010 1011 1013 1016 1018 1019 1024 1029 1029 1029 1029 1029 1030 1030 1030 1030 1025 1024 1023 1018 996 983 976 958 934 913 880 862 841 832 832 832 841 872 886 886 886 886 886 0 0 1060 1067 1089 1108 1122 1122 1122 1120 1104 1104 1104 1104 1104 1105 1105 1110 1113 1115 1115 1115 1105 1103 1103 1103 1105 1112 1121 1127 1132 1137 1143 1148 1148 1148 1148 1148 1148 1153 1159 1162 1166 1177 1191 1195 1198 1198 1198 1198 1202 1202 1202 1206 1206 1207 1211 1211 1211 1211 1211 1213 1223 1236 1243 1243 1244 1244 1244 1246 1248 1248 1249 1253 1254 1257 1259 1261 1263 1263 1264 1267 1267 1267 1267 1267 1271 1274 1274 1274 1272 1272 1272 1273 1273 1275 1276 1276 1288 1296 1300 1302 1302 1302 1302 1304 1304 1304 1304 1303 1303 1304 1304 1304 1304 1301 1300 1300 1300 1303 1320 1320 1320 1314 1314 1314 1316 1320 1323 1323 1324 1324 1328 1329 1329 1330 1340 1343 1351 1351 1351 1351 1351 1351 1353 1353 1353 1353 1352 1352 1351 1352 1352 1352 1356 1359 1362 1363 1365 1365 1367 1372 1380 1380 1380 1381 1381 1381 1381 1381 1386 1386 1389 1403 1411 1416 1416 1416 1413 1405 1405 1405 1406 1406 1406 1401 1400 1399 1399 1397 1392 1388 1383 1382 1381 1381 1374 1373 1373 1373 1378 1378 1378 1378 1378 1378 1377 1377 1377 1377 1377 1377 1379 1380 1397 1400 1401 1409 1424 1424 1424 1424 1430 1432 1432 1433 1434 1434 1434 1429 1421 1414 1414 1414 1418 1418 1418 1405 1404 1404 1404 1407 1407 1407 1394 1382 1356 1356 1356 1387 1422 1422 1424 1424 1425 1441 1445 1448 1449 1449 1449 1453 1455 1459 1459 1465 1471 1471 1479 1481 1481 1481 1474 1469 1469 1469 1472 1477 1488 1488 1488 1482 1471 1466 1466 1463 1460 1453 1448 1445 1438 1430 1430 1430 1439 1443 1443 1443 1441 1434 1428 1424 1419 1414 1405 1397 1389 1389 1387 1387 1387 1384 1384 1382 1378 1371 1369 1368 1365 1360 0 0 0 0 0 0 0 0 0 0 0 0 0 0 1066 1074 1074 1083 1083 1083 1073 1068 1047 1041 1019 979 979 979 991 991 0 0 0 0 0 0 0 0 0 0 0 0 0 0 0 0 0 0 0 0 0 0 0 0 0 539 539 539 567 580 580 580 0 0 0 0 0 0 579 576 576 0 0 0 0 0 0 0 0 0 0 0 0 0 0 0 0 0 0 0 0 0 0 0 0 0 0 0 0 0 0 0 0 0 0 0 0 0 0 0 0 0 0 0 0 0 0 0 0 0 0 0 0 0 0 0
483 483 494 502 509 510 510 513 514 524 525 530 534 538 543 549 551 556 563 568 569 569 572 583 598 598 606 614 627 637 647 655 657 658 658 666 675 686 692 692 695 692 692 697 0 0 0 0 0 0 0 0 0 0 0 0 1172 1176 1178 1180 1183 1184 1184 1186 1190 1198 1200 1218 1232 1238 1238 1238 0 0 0 0 796 796 796 803 820 825 829 847 847 851 851 859 867 870 872 875 879 883 885 890 890 891 893 894 897 898 900 901 902 904 906 908 909 912 912 912 913 913 915 920 924 928 933 935 936 938 939 941 942 945 948 951 955 956 959 959 961 964 967 969 972 975 975 975 975 975 975 975 977 980 982 983 983 984 989 995 1001 1005 1010 1014 1015 1016 1017 1019 1023 1028 1033 1034 1034 1034 1032 1032 1032 1032 1032 1025 1025 1025 1023 1007 988 978 961 947 934 903 876 869 853 853 853 895 898 898 898 898 898 909 0 0 1067 1071 1088 1108 1122 1122 1122 1120 1107 1107 1106 1106 1106 1106 1106 1117 1123 1123 1123 1121 1117 1116 1109 1109 1109 1118 1124 1128 1132 1139 1144 1151 1151 1151 1149 1149 1149 1153 1159 1163 1168 1189 1196 1199 1200 1201 1203 1204 1207 1207 1207 1209 1209 1213 1221 1221 1221 1217 1217 1217 1232 1250 1250 1250 1250 1250 1250 1253 1259 1259 1259 1259 1259 1261 1263 1263 1263 1265 1265 1267 1267 1268 1269 1271 1275 1277 1277 1277 1277 1277 1278 1280 1280 1283 1283 1283 1294 1302 1303 1303 1303 1304 1304 1304 1304 1304 1306 1306 1312 1313 1315 1315 1312 1311 1311 1311 1313 1319 1320 1320 1320 1314 1314 1314 1316 1320 1327 1332 1332 1332 1332 1332 1333 1336 1341 1343 1351 1351 1351 1351 1351 1351 1353 1353 1353 1354 1354 1353 1353 1354 1354 1354 1360 1362 1364 1365 1371 1371 1373 1373 1380 1380 1380 1381 1381 1382 1385 1385 1388 1390 1392 1403 1411 1418 1418 1418 1417 1408 1408 1408 1411 1411 1411 1411 1409 1409 1405 1402 1399 1394 1390 1386 1385 1385 1374 1374 1374 1374 1378 1385 1385 1385 1385 1388 1394 1394 1394 1388 1384 1384 1387 1388 1398 1411 1414 1414 1424 1424 1424 1425 1431 1432 1432 1434 1434 1434 1434 1431 1425 1420 1420 1420 1419 1419 1419 1406 1406 1406 1407 1407 1407 1407 1394 1385 1379 1379 1379 1397 1438 1445 1448 1448 1449 1450 1450 1451 1453 1454 1454 1455 1458 1459 1468 1470 1475 1480 1500 1500 1500 1491 1486 1481 1479 1479 1479 1484 1490 1490 1490 1483 1475 1471 1470 1470 1470 1466 1453 1445 1441 1433 1433 1433 1440 1444 1444 1444 1441 1435 1429 1428 1422 1417 1408 1399 1399 1399 1397 1397 1396 1385 1380 1378 1376 1376 1376 1376 1376 1366 0 0 0 0 0 0 0 0 0 0 0 0 0 1078 1078 1079 1079 1088 1090 1090 1090 1077 1041 1001 970 970 970 992 992 992 0 0 0 0 0 0 0 0 0 0 0 0 0 0 761 760 759 0 0 0 0 0 0 0 0 0 539 539 567 588 588 588 0 0 0 0 0 546 564 565 565 565 0 0 0 0 0 0 0 0 0 0 0 0 0 0 0 0 0 0 0 0 0 0 0 0 0 0 0 0 0 0 0 0 0 0 0 0 0 0 0 0 0 0 0 0 0 0 0 0 0 0 0 0 0 0
488 488 500 503 509 510 510 513 518 526 530 535 538 540 546 553 558 564 570 570 575 576 576 585 599 601 606 614 631 645 659 669 671 672 672 679 689 689 698 699 705 714 716 718 0 0 0 0 0 0 0 0 0 0 1179 1179 1178 1178 1178 1194 1196 1196 1197 1200 1201 1202 1217 1228 1242 1246 1246 1246 0 0 0 0 796 796 796 813 826 834 847 851 852 852 852 863 867 871 876 877 882 885 887 890 893 894 894 895 898 901 902 903 904 907 909 909 911 912 913 913 914 914 916 920 925 929 934 938 939 940 941 943 944 947 951 954 957 959 961 961 963 966 967 971 976 976 977 977 977 977 977 977 978 981 983 983 984 984 989 996 1003 1008 1014 1018 1019 1019 1020 1021 1025 1030 1036 1041 1041 1041 1041 1037 1037 1036 1034 1028 1028 1028 1026 1020 1007 993 976 957 948 927 904 891 888 888 888 905 907 907 907 907 909 913 0 0 1037 1067 1074 1108 1122 1122 1122 1120 1113 1109 1109 1108 1109 1109 1109 1125 1129 1129 1129 1126 1126 1126 1126 1126 1131 1132 1132 1133 1134 1139 1146 1151 1151 1151 1150 1150 1150 1153 1159 1166 1182 1190 1197 1201 1202 1205 1209 1211 1212 1212 1212 1212 1212 1215 1223 1223 1223 1227 1227 1227 1243 1252 1252 1252 1252 1252 1255 1260 1264 1264 1264 1264 1264 1265 1265 1265 1265 1263 1263 1263 1265 1267 1273 1277 1277 1278 1278 1280 1281 1283 1290 1291 1292 1293 1293 1294 1299 1304 1305 1305 1305 1305 1305 1306 1304 1305 1307 1307 1314 1321 1323 1330 1330 1330 1323 1323 1323 1327 1327 1327 1320 1314 1314 1314 1316 1320 1327 1335 1335 1335 1333 1333 1333 1337 1342 1342 1342 1343 1344 1345 1349 1350 1352 1352 1353 1354 1354 1354 1354 1356 1356 1358 1367 1374 1376 1377 1377 1376 1375 1375 1375 1375 1377 1377 1381 1382 1389 1393 1395 1400 1403 1411 1418 1420 1420 1420 1417 1412 1412 1412 1417 1420 1420 1420 1417 1415 1410 1406 1405 1401 1396 1393 1391 1390 1377 1374 1374 1374 1380 1385 1385 1385 1389 1398 1405 1405 1405 1392 1391 1391 1392 1395 1412 1423 1424 1424 1424 1424 1424 1427 1432 1434 1435 1435 1435 1435 1435 1431 1429 1428 1422 1422 1421 1421 1421 1410 1410 1410 1410 1411 1411 1411 1401 1394 1394 1394 1400 1429 1446 1448 1449 1449 1458 1464 1464 1464 1461 1459 1457 1459 1459 1459 1475 1477 1477 1493 1500 1505 1505 1505 1505 1496 1492 1492 1492 1492 1492 1492 1490 1485 1478 1478 1478 1478 1478 1477 1467 1451 1446 1436 1436 1436 1442 1445 1445 1445 1442 1435 1430 1429 1428 1423 1418 1412 1411 1409 1408 1407 1403 1391 1380 1378 1378 1378 1382 1382 1382 1371 0 0 0 0 0 0 0 0 0 0 0 0 1081 1081 1081 1085 1085 1088 1090 1090 1090 1077 1041 1001 981 981 981 993 993 993 0 0 0 0 0 0 0 0 0 0 0 0 0 766 761 760 759 732 0 0 0 0 0 0 0 0 0 0 0 0 588 588 0 0 0 0 0 534 555 564 564 564 551 0 0 0 0 0 0 0 0 0 0 0 0 0 0 0 0 0 0 0 0 0 0 0 0 0 0 0 0 0 0 0 0 0 0 0 0 0 363 363 363 339 324 0 0 0 0 0 0 0 0 0 0 0
491 491 505 510 510 510 511 513 523 528 535 539 541 544 550 558 564 569 577 584 585 587 601 601 606 608 612 620 632 651 668 677 681 681 684 689 691 700 711 713 727 732 735 0 0 0 0 0 0 0 0 0 1188 1187 1186 1180 1178 1178 1178 1196 1205 1217 1227 1239 1239 1240 1244 1244 1256 1258 1258 1256 0 0 0 0 825 816 816 825 832 841 850 852 853 854 854 864 867 871 877 880 885 887 888 891 894 897 897 897 900 902 904 905 907 908 910 911 913 913 914 914 914 915 917 921 926 930 936 939 941 942 943 944 946 950 954 957 959 961 963 966 967 969 971 974 976 978 978 979 979 979 979 979 980 981 983 984 984 985 990 998 1004 1011 1015 1020 1021 1022 1023 1025 1028 1033 1038 1041 1042 1043 1043 1042 1042 1042 1040 1035 1035 1034 1032 1032 1022 1008 991 971 961 951 925 910 908 908 908 919 926 928 928 928 929 929 0 0 1037 1069 1074 1109 1116 1116 1116 1116 1114 1111 1110 1109 1109 1110 1127 1136 1141 1141 1141 1141 1133 1133 1133 1134 1140 1140 1140 1142 1142 1143 1148 1155 1155 1155 1154 1154 1154 1159 1165 1174 1184 1191 1197 1201 1202 1210 1217 1221 1221 1221 1217 1216 1216 1216 1224 1231 1235 1235 1236 1240 1249 1254 1254 1254 1255 1255 1259 1262 1264 1265 1265 1266 1267 1269 1269 1269 1265 1263 1263 1263 1263 1267 1277 1280 1280 1280 1280 1280 1283 1288 1294 1297 1297 1299 1303 1303 1305 1306 1306 1307 1307 1307 1309 1307 1307 1309 1311 1311 1317 1322 1324 1334 1334 1334 1332 1332 1332 1331 1331 1331 1327 1323 1321 1320 1320 1320 1327 1335 1335 1335 1333 1333 1333 1339 1339 1342 1342 1342 1344 1345 1348 1349 1352 1353 1353 1353 1354 1356 1356 1356 1356 1358 1367 1378 1384 1384 1384 1380 1376 1376 1376 1375 1377 1377 1381 1382 1389 1396 1398 1411 1418 1421 1421 1421 1419 1417 1417 1417 1417 1417 1422 1422 1422 1420 1418 1416 1413 1410 1408 1406 1404 1399 1397 1393 1383 1376 1376 1376 1382 1383 1385 1386 1390 1398 1405 1405 1405 1396 1395 1395 1395 1401 1422 1429 1434 1434 1434 1432 1432 1432 1434 1435 1435 1436 1436 1435 1435 1432 1431 1431 1429 1425 1425 1425 1425 1414 1414 1413 1414 1415 1415 1413 1407 1405 1405 1405 1429 1454 1458 1462 1465 1468 1469 1473 1473 1473 1466 1466 1465 1459 1459 1459 1479 1480 1496 1505 1508 1509 1521 1521 1521 1507 1503 1500 1499 1498 1497 1495 1490 1486 1486 1486 1488 1488 1488 1486 1484 1466 1453 1449 1449 1449 1449 1449 1449 1447 1439 1435 1431 1431 1430 1429 1429 1425 1421 1419 1417 1414 1408 1402 1395 1378 1378 1378 1406 1406 1406 1372 0 0 0 0 0 0 0 0 0 0 0 0 1085 1085 1085 1085 1085 1091 1100 1100 1100 1077 1041 1001 999 999 999 1002 1002 0 0 0 0 0 0 0 0 0 0 0 0 0 0 755 732 732 724 724 0 0 0 0 0 0 0 0 0 0 0 0 0 596 0 0 0 0 0 0 554 564 564 564 548 537 0 0 0 0 0 0 0 0 0 0 0 0 0 0 0 0 0 0 0 0 0 0 0 0 0 0 0 0 0 0 0 0 0 0 0 376 364 364 364 344 329 329 0 0 0 0 0 0 0 0 0 0
497 497 507 517 517 518 523 523 531 532 542 544 544 547 556 564 569 574 582 592 593 599 612 612 612 615 622 622 636 651 669 679 685 692 696 698 707 715 728 729 0 0 0 0 0 0 0 0 0 0 1186 1187 1188 1187 1186 1180 1180 1180 1181 1197 1218 1236 1257 1265 1266 1266 1266 1266 1266 1267 1267 1267 0 0 0 0 834 828 828 837 837 846 852 853 853 854 854 864 867 871 878 882 887 888 890 893 897 900 901 902 905 906 906 907 909 910 911 913 915 916 916 916 917 918 919 924 928 933 937 942 943 945 946 948 951 953 956 959 961 962 964 967 969 972 973 975 977 978 979 980 980 980 981 981 982 983 984 984 984 987 992 998 1006 1012 1016 1020 1023 1024 1026 1030 1033 1037 1039 1042 1044 1044 1044 1045 1045 1043 1043 1040 1040 1040 1039 1039 1037 1022 1003 986 976 959 927 918 914 914 914 928 928 930 930 928 930 934 0 0 1037 1069 1072 1109 1116 1116 1116 1116 1115 1115 1115 1118 1133 1146 1153 1153 1153 1153 1153 1146 1139 1139 1139 1139 1142 1142 1145 1145 1149 1150 1156 1163 1163 1163 1162 1162 1162 1166 1175 1184 1194 1199 1209 1217 1219 1222 1222 1229 1229 1229 1224 1218 1218 1218 1226 1235 1244 1253 1258 1258 1259 1259 1259 1259 1260 1261 1264 1265 1265 1266 1267 1268 1271 1272 1272 1272 1265 1263 1263 1263 1263 1267 1281 1281 1281 1280 1280 1280 1283 1290 1298 1302 1303 1308 1310 1310 1312 1313 1313 1317 1325 1328 1328 1328 1325 1322 1322 1322 1324 1326 1333 1340 1340 1340 1336 1336 1336 1337 1337 1337 1334 1330 1328 1327 1326 1326 1326 1335 1335 1335 1335 1335 1338 1341 1341 1342 1342 1342 1344 1345 1348 1349 1352 1353 1353 1353 1354 1357 1357 1357 1357 1358 1367 1378 1387 1387 1387 1384 1380 1377 1377 1377 1381 1381 1381 1383 1391 1396 1400 1413 1419 1422 1422 1422 1419 1415 1415 1415 1418 1422 1424 1424 1424 1421 1419 1418 1414 1412 1410 1410 1409 1405 1402 1398 1385 1377 1377 1377 1382 1383 1385 1388 1391 1399 1405 1405 1405 1404 1403 1403 1404 1404 1426 1434 1440 1442 1443 1443 1444 1444 1444 1444 1438 1437 1437 1436 1436 1437 1437 1436 1436 1434 1433 1432 1429 1429 1423 1418 1418 1418 1417 1417 1417 1417 1417 1427 1458 1472 1474 1482 1482 1482 1476 1475 1474 1473 1473 1473 1471 1470 1473 1476 1479 1483 1506 1506 1510 1512 1522 1522 1522 1517 1508 1503 1503 1503 1501 1495 1494 1494 1494 1501 1501 1501 1499 1499 1495 1489 1469 1461 1456 1454 1453 1450 1450 1447 1439 1434 1433 1433 1433 1435 1435 1435 1429 1423 1420 1417 1415 1412 1411 1410 1409 1409 1409 1409 1409 1380 0 0 0 0 0 0 0 0 0 0 0 0 1097 1097 1097 1102 1105 1105 1105 1105 1100 1073 1048 1029 0 0 0 0 0 0 0 0 0 0 0 0 0 0 0 0 0 0 0 0 732 732 724 0 0 0 0 0 0 0 0 0 0 0 0 0 0 0 0 0 0 0 0 0 552 553 553 553 548 538 0 0 0 0 0 0 0 0 0 0 0 0 0 0 0 0 0 0 0 0 0 0 0 0 0 0 0 0 0 0 0 0 0 0 0 376 364 364 364 346 346 346 346 346 0 0 0 0 0 0 0 0
503 503 509 518 526 531 533 537 539 540 547 547 548 550 560 571 578 583 591 597 600 605 612 615 622 624 630 635 636 651 669 680 688 699 712 724 731 739 741 0 0 0 0 0 0 0 0 0 0 1173 1190 1190 1190 1187 1168 1165 1165 1165 1181 1206 1227 1248 1277 1287 1287 1287 1287 1286 1286 1286 1286 0 0 0 0 0 853 844 844 846 846 849 856 857 857 857 857 865 867 871 878 884 889 890 891 894 899 904 906 906 908 908 909 910 911 913 914 916 917 918 918 920 920 921 924 928 930 936 939 943 944 946 948 951 953 955 958 959 961 963 965 968 970 973 975 977 978 981 981 981 982 982 983 983 984 984 984 986 986 989 994 1000 1008 1013 1016 1020 1024 1026 1028 1033 1037 1038 1040 1043 1044 1044 1044 1045 1046 1046 1046 1046 1045 1045 1045 1044 1042 1037 1023 1008 993 967 938 926 917 917 917 928 930 930 930 930 930 934 0 0 1071 1073 1093 1109 1116 1116 1116 1116 1117 1117 1117 1132 1153 1153 1153 1153 1153 1153 1153 1151 1143 1143 1143 1143 1143 1145 1145 1145 1153 1160 1167 1177 1177 1177 1175 1175 1175 1176 1185 1196 1202 1206 1216 1223 1227 1228 1229 1233 1233 1233 1227 1226 1226 1226 1232 1241 1255 1266 1266 1266 1265 1265 1265 1265 1265 1268 1268 1268 1269 1269 1269 1270 1273 1274 1274 1274 1267 1263 1263 1263 1263 1269 1282 1283 1283 1283 1283 1283 1283 1292 1304 1311 1315 1320 1324 1325 1325 1326 1326 1328 1331 1332 1332 1332 1332 1332 1332 1333 1333 1335 1336 1340 1340 1340 1337 1337 1337 1340 1343 1343 1343 1342 1337 1329 1326 1326 1326 1332 1335 1336 1336 1339 1342 1342 1342 1342 1342 1344 1347 1348 1348 1349 1351 1353 1353 1354 1357 1357 1357 1357 1357 1357 1362 1378 1388 1388 1388 1384 1380 1377 1377 1377 1381 1386 1387 1387 1393 1404 1410 1415 1420 1423 1423 1423 1419 1415 1415 1415 1422 1426 1426 1426 1425 1422 1422 1420 1418 1415 1414 1414 1413 1408 1405 1401 1393 1382 1382 1382 1382 1383 1385 1389 1392 1400 1404 1404 1405 1405 1411 1418 1420 1422 1430 1442 1450 1450 1451 1452 1453 1455 1455 1455 1452 1447 1445 1445 1445 1445 1445 1445 1445 1445 1445 1445 1443 1436 1427 1419 1419 1419 1420 1423 1424 1430 1435 1450 1478 1479 1480 1483 1483 1483 1479 1475 1475 1474 1474 1474 1480 1483 1484 1484 1489 1499 1510 1510 1513 1515 1525 1525 1525 1517 1513 1508 1507 1507 1504 1504 1504 1506 1513 1513 1513 1513 1510 1505 1500 1497 1487 1473 1462 1456 1454 1450 1450 1447 1439 1434 1433 1433 1433 1436 1436 1436 1429 1427 1425 1423 1423 1423 1423 1432 1456 1456 1456 1433 1414 1383 0 0 0 0 0 0 0 0 0 0 0 1075 1101 1113 1113 1113 1107 1107 1105 1105 1096 1072 1065 1065 0 0 0 0 0 0 0 0 0 0 0 0 0 0 0 0 0 0 0 0 0 0 0 0 0 0 0 0 0 0 0 0 0 0 0 0 0 0 0 0 0 0 0 0 552 553 553 553 553 538 0 0 0 0 0 0 0 0 0 0 0 0 0 0 0 0 0 0 0 0 0 0 0 0 0 0 0 0 0 0 0 0 0 0 0 357 357 357 357 359 358 350 350 350 343 341 0 0 0 0 0 0
503 503 509 518 526 533 537 540 542 549 549 550 553 553 562 575 589 599 606 607 608 608 615 616 624 628 634 636 639 651 672 682 696 713 0 0 0 0 0 0 0 0 0 0 0 0 0 1150 1165 1177 1190 1190 1190 1187 1168 1165 1165 1165 1181 1216 1244 1266 1293 1293 1293 1293 1293 1304 1315 1315 1315 0 0 0 0 0 863 857 857 858 858 858 859 860 861 863 863 866 867 871 879 885 891 892 893 896 900 904 908 908 910 910 912 913 914 915 918 918 920 922 923 923 924 926 928 929 933 938 942 944 945 948 951 953 953 956 958 961 962 964 966 968 971 973 975 978 981 982 983 983 984 984 984 985 986 987 988 988 989 991 995 1002 1010 1014 1018 1021 1024 1028 1031 1035 1037 1040 1042 1044 1044 1045 1046 1046 1047 1048 1051 1051 1051 1050 1049 1049 1042 1041 1040 1028 1009 982 955 938 927 927 927 928 930 930 933 934 934 942 0 0 1061 1078 1095 1115 1128 1128 1128 1125 1124 1124 1124 1138 1153 1153 1153 1153 1153 1153 1153 1153 1148 1143 1143 1143 1147 1147 1148 1149 1157 1167 1182 1192 1192 1192 1190 1186 1186 1186 1193 1200 1206 1209 1217 1223 1227 1230 1232 1233 1233 1233 1234 1236 1236 1244 1249 1255 1264 1272 1272 1272 1271 1271 1271 1271 1273 1274 1274 1274 1274 1274 1274 1274 1274 1276 1276 1276 1274 1274 1274 1275 1277 1281 1282 1283 1284 1284 1285 1286 1289 1300 1312 1314 1317 1321 1326 1329 1330 1330 1330 1331 1331 1333 1335 1336 1337 1338 1339 1340 1340 1341 1342 1343 1343 1343 1339 1339 1339 1342 1345 1345 1345 1344 1343 1334 1326 1326 1326 1332 1335 1336 1339 1343 1343 1343 1344 1344 1344 1352 1352 1352 1351 1351 1351 1354 1358 1359 1359 1359 1359 1356 1353 1353 1353 1362 1378 1384 1384 1384 1380 1377 1377 1377 1381 1387 1391 1396 1398 1404 1410 1415 1421 1425 1425 1425 1421 1419 1419 1419 1431 1431 1431 1428 1428 1428 1429 1429 1429 1428 1420 1419 1417 1411 1405 1404 1400 1392 1388 1388 1388 1393 1396 1398 1400 1400 1404 1404 1405 1406 1415 1423 1428 1430 1435 1448 1456 1457 1458 1458 1458 1459 1459 1461 1461 1461 1459 1458 1456 1455 1453 1453 1453 1456 1456 1456 1452 1442 1431 1429 1421 1421 1421 1424 1425 1432 1444 1463 1480 1481 1483 1485 1485 1485 1484 1475 1475 1475 1477 1480 1488 1490 1494 1496 1500 1505 1512 1512 1513 1520 1525 1525 1525 1518 1514 1512 1512 1511 1511 1511 1513 1522 1523 1523 1523 1519 1514 1507 1502 1499 1496 1483 1471 1459 1454 1453 1452 1447 1439 1435 1435 1435 1435 1436 1436 1436 1433 1433 1433 1433 1426 1426 1426 1433 1458 1458 1458 1437 1418 0 0 0 0 0 0 0 0 0 0 0 0 1084 1106 1119 1119 1119 1107 1105 1104 1101 1094 1071 1071 1071 0 0 0 0 0 0 0 0 0 0 0 0 0 0 0 0 0 0 0 0 0 0 0 0 0 0 0 0 0 0 0 0 0 0 0 0 0 0 0 0 0 0 0 0 0 555 553 553 553 543 0 0 0 0 0 0 0 0 0 0 0 0 0 0 0 0 0 0 0 0 0 0 0 0 0 0 0 0 0 0 0 0 0 0 0 338 328 328 339 344 358 358 358 350 350 349 349 0 0 0 0 0
503 503 509 518 526 533 537 540 542 549 550 552 553 553 566 583 605 618 618 618 617 615 615 617 624 630 637 639 640 651 676 692 708 0 0 0 0 0 0 0 0 0 0 0 0 0 1146 1157 1179 1187 1190 1190 1190 1188 1168 1168 1168 1168 1187 1217 1252 1285 1311 1312 1312 1316 1322 1329 1338 1338 1338 0 0 0 0 0 870 868 868 869 868 863 863 863 863 866 868 871 871 875 883 887 893 894 895 898 902 907 910 912 912 913 914 915 916 918 920 921 924 925 925 927 927 927 929 932 935 939 943 946 948 950 952 954 954 956 960 962 963 964 966 969 971 974 976 979 982 984 984 985 986 986 987 987 988 988 989 990 991 993 997 1003 1011 1016 1019 1023 1025 1029 1032 1036 1039 1041 1043 1045 1046 1048 1048 1049 1049 1049 1052 1053 1053 1053 1052 1050 1043 1043 1043 1038 1021 1002 975 957 932 919 919 919 930 930 932 932 934 943 966 0 0 1080 1095 1120 1138 1139 1139 1139 1137 1137 1137 1138 1153 1153 1153 1156 1156 1156 1156 1156 1154 1147 1147 1147 1149 1149 1152 1154 1167 1172 1184 1192 1192 1192 1190 1190 1190 1191 1196 1204 1208 1211 1218 1224 1228 1231 1232 1233 1234 1239 1245 1256 1256 1258 1260 1264 1271 1277 1277 1277 1276 1276 1276 1276 1279 1279 1279 1279 1278 1278 1278 1278 1278 1278 1279 1283 1293 1293 1293 1285 1285 1284 1284 1284 1284 1289 1293 1299 1303 1313 1317 1318 1320 1322 1327 1329 1331 1333 1334 1334 1335 1335 1335 1337 1340 1340 1342 1342 1342 1343 1345 1345 1343 1343 1341 1341 1341 1344 1347 1347 1347 1347 1345 1337 1328 1328 1328 1332 1335 1336 1341 1343 1343 1343 1344 1344 1345 1352 1352 1352 1351 1351 1351 1354 1358 1359 1359 1359 1359 1356 1352 1352 1352 1362 1375 1383 1383 1383 1374 1374 1374 1376 1380 1387 1393 1397 1400 1404 1410 1417 1423 1427 1427 1427 1425 1425 1425 1428 1437 1437 1437 1437 1437 1437 1439 1442 1445 1445 1445 1437 1427 1416 1412 1409 1409 1409 1401 1401 1401 1404 1408 1408 1408 1406 1406 1406 1406 1408 1417 1428 1433 1435 1440 1451 1457 1461 1462 1463 1463 1465 1466 1468 1470 1470 1470 1466 1462 1460 1456 1456 1456 1460 1460 1460 1457 1449 1443 1438 1430 1426 1426 1426 1426 1433 1445 1471 1489 1489 1491 1489 1489 1488 1484 1481 1481 1481 1481 1487 1493 1496 1497 1502 1506 1512 1519 1527 1527 1528 1528 1526 1525 1519 1519 1517 1516 1515 1515 1515 1524 1527 1527 1527 1523 1521 1516 1508 1502 1499 1496 1483 1471 1459 1455 1453 1452 1447 1439 1437 1436 1436 1436 1436 1436 1435 1434 1433 1433 1433 1429 1429 1429 1443 1458 1458 1458 1450 0 0 0 0 0 0 0 0 0 0 0 0 0 1100 1109 1126 1126 1126 1108 1107 1106 1100 1091 1068 1068 1068 0 0 0 0 0 0 0 0 0 0 0 0 0 0 0 0 0 0 0 0 811 803 782 0 0 0 0 0 0 0 0 0 0 0 0 0 0 0 0 0 0 0 0 0 0 578 562 559 553 544 0 0 0 0 0 0 0 0 0 0 0 0 0 0 0 0 0 0 0 0 0 0 0 0 0 0 0 0 0 0 0 0 0 0 0 0 0 0 339 345 356 356 356 348 348 348 350 0 0 0 0 0
503 503 504 506 509 512 525 540 542 549 552 553 555 561 576 597 617 632 632 632 624 617 617 617 624 630 637 639 640 651 688 0 0 0 0 0 0 0 0 0 0 0 0 0 0 0 1148 1178 1183 1191 1202 1213 1213 1213 1192 1192 1192 1197 1225 1243 1270 1288 1315 1325 1326 1331 1336 1354 1356 1363 1363 0 0 0 0 885 872 870 870 872 873 873 873 868 868 868 869 872 873 880 885 888 894 897 897 899 904 907 911 915 915 916 917 919 920 921 922 925 928 929 929 929 930 930 932 934 938 941 945 947 948 951 954 955 955 958 962 964 964 966 968 971 974 976 978 981 983 985 986 987 987 988 988 989 989 990 992 992 993 995 998 1003 1011 1018 1023 1026 1029 1033 1034 1038 1040 1043 1044 1046 1048 1050 1050 1050 1051 1051 1053 1054 1054 1054 1052 1052 1050 1048 1048 1043 1030 1018 1009 984 948 919 919 919 932 932 932 933 934 943 954 0 0 1080 1103 1127 1144 1150 1150 1150 1143 1140 1140 1140 1145 1150 1150 1151 1151 1156 1158 1158 1158 1156 1152 1152 1152 1162 1171 1175 1177 1179 1184 1192 1192 1192 1191 1191 1191 1193 1198 1206 1210 1212 1218 1224 1229 1231 1232 1234 1234 1242 1253 1263 1265 1265 1268 1273 1278 1278 1278 1278 1278 1278 1278 1279 1280 1281 1281 1281 1281 1280 1280 1280 1280 1280 1285 1300 1308 1308 1308 1292 1290 1290 1289 1289 1289 1290 1302 1313 1322 1323 1324 1325 1325 1325 1329 1331 1334 1336 1336 1336 1335 1335 1335 1339 1342 1343 1344 1344 1344 1345 1346 1347 1345 1345 1344 1344 1344 1350 1350 1350 1349 1348 1347 1341 1332 1332 1332 1334 1335 1337 1341 1341 1341 1338 1338 1338 1345 1352 1352 1352 1351 1351 1351 1356 1358 1359 1359 1359 1358 1355 1347 1347 1347 1355 1374 1383 1383 1383 1374 1374 1374 1374 1379 1387 1394 1398 1399 1400 1404 1417 1424 1429 1431 1431 1432 1432 1436 1447 1447 1447 1444 1443 1443 1443 1446 1449 1454 1454 1454 1449 1436 1424 1423 1423 1423 1423 1423 1420 1417 1417 1416 1416 1415 1414 1411 1411 1411 1411 1419 1428 1434 1437 1444 1454 1462 1466 1475 1483 1483 1483 1478 1477 1476 1476 1472 1468 1466 1463 1456 1456 1456 1461 1461 1461 1459 1454 1451 1449 1443 1436 1431 1431 1431 1434 1445 1485 1504 1504 1504 1502 1500 1496 1490 1486 1485 1485 1485 1490 1496 1497 1501 1502 1509 1518 1527 1529 1529 1529 1529 1528 1525 1525 1525 1522 1521 1524 1524 1524 1532 1532 1532 1527 1523 1521 1516 1508 1502 1499 1496 1483 1471 1459 1455 1453 1452 1450 1449 1448 1444 1437 1437 1437 1436 1435 1435 1434 1434 1435 1435 1443 1455 1457 1458 1458 1458 1453 0 0 0 0 0 0 0 0 0 0 0 0 0 0 1146 1146 1146 1126 1108 1107 1106 1099 1090 1061 1061 1061 1105 1178 1178 1178 0 0 0 0 0 0 0 0 0 0 0 0 0 0 0 814 814 811 802 792 0 0 0 0 0 0 0 0 0 0 0 0 0 0 0 0 0 0 0 0 609 578 568 562 558 547 0 0 0 0 0 0 0 0 0 0 0 0 0 0 0 0 0 0 0 0 0 0 0 0 0 0 0 0 0 0 0 0 0 0 0 325 325 328 339 353 356 356 356 348 348 348 350 0 0 0 0 0
489 489 490 503 509 512 525 532 542 552 555 556 558 568 576 597 617 632 632 632 631 631 631 630 636 0 0 0 0 0 0 0 0 0 0 0 0 0 0 0 0 0 0 0 0 0 1161 1185 1193 1201 1221 1232 1232 1232 1228 1223 1223 1223 1246 1247 1274 1304 1326 1338 1346 1352 1363 1374 1375 1376 1376 0 0 0 0 886 873 873 873 874 876 876 876 870 870 870 873 873 876 883 886 891 895 900 900 901 905 909 913 919 919 919 920 922 923 925 926 928 930 932 932 932 932 933 933 936 938 941 947 948 949 953 956 959 960 961 963 965 967 969 971 974 976 978 980 982 984 986 987 988 988 989 990 991 992 992 993 993 995 997 998 1005 1012 1019 1024 1028 1031 1034 1038 1039 1042 1044 1046 1048 1050 1052 1052 1053 1053 1053 1054 1054 1054 1054 1053 1053 1053 1053 1053 1051 1038 1024 1014 1002 952 922 922 922 934 934 934 935 935 943 948 0 0 1094 1118 1133 1144 1151 1152 1152 1152 1144 1144 1144 1145 1150 1150 1151 1151 1156 1163 1163 1163 1163 1152 1152 1152 1165 1171 1175 1177 1179 1184 1186 1186 1188 1190 1190 1193 1199 1203 1211 1213 1217 1224 1229 1231 1233 1235 1236 1238 1246 1259 1268 1271 1271 1274 1276 1278 1284 1284 1284 1279 1279 1279 1280 1282 1282 1282 1282 1282 1282 1282 1284 1284 1285 1295 1307 1313 1313 1313 1301 1296 1295 1295 1295 1295 1295 1305 1318 1324 1326 1327 1331 1332 1332 1333 1333 1337 1339 1339 1339 1337 1337 1337 1340 1343 1344 1345 1345 1346 1346 1346 1347 1347 1347 1348 1348 1349 1351 1351 1351 1349 1349 1348 1346 1339 1339 1339 1340 1340 1340 1341 1341 1341 1334 1334 1334 1345 1352 1352 1352 1350 1350 1350 1356 1356 1356 1356 1349 1345 1341 1341 1341 1344 1353 1372 1382 1382 1382 1374 1374 1374 1374 1379 1387 1394 1397 1398 1399 1403 1415 1425 1434 1438 1438 1439 1440 1443 1448 1448 1448 1445 1444 1444 1444 1446 1449 1454 1455 1455 1455 1442 1429 1429 1429 1434 1434 1434 1433 1426 1422 1422 1422 1420 1420 1418 1418 1418 1418 1423 1429 1436 1440 1449 1461 1474 1485 1496 1496 1496 1494 1485 1485 1482 1477 1475 1473 1470 1470 1459 1459 1459 1462 1463 1463 1463 1462 1461 1457 1450 1444 1438 1434 1434 1434 1446 1488 1511 1511 1511 1508 1502 1500 1498 1496 1494 1494 1494 1495 1498 1500 1503 1506 1512 1528 1529 1529 1530 1530 1530 1530 1530 1532 1532 1530 1530 1530 1530 1530 1532 1532 1532 1527 1523 1521 1516 1509 1503 1499 1497 1491 1478 1464 1460 1457 1457 1457 1455 1455 1450 1441 1440 1439 1437 1437 1437 1437 1438 1440 1450 1457 1457 1458 1458 1458 1458 1453 0 0 0 0 0 0 0 0 0 0 0 0 0 0 0 1173 1173 1126 1113 1108 1106 1100 1069 1069 1069 1080 1115 1141 1141 1141 1126 0 0 0 0 0 0 0 0 0 0 0 0 0 0 832 816 816 804 801 0 0 0 0 0 0 0 0 0 0 0 0 0 0 0 0 0 0 0 609 609 578 573 571 566 550 0 0 0 0 0 0 0 0 0 0 0 0 0 0 0 0 0 0 0 0 0 0 0 0 0 0 0 0 0 0 0 0 0 0 325 337 354 357 363 0 0 0 351 335 335 335 0 0 0 0 0 0
489 489 490 503 509 512 525 532 542 552 558 559 563 571 576 597 617 632 636 638 638 638 638 642 0 0 0 0 0 0 0 0 0 0 0 0 0 0 0 0 0 0 0 0 0 1158 1181 1211 1222 1236 1244 1245 1255 1263 1263 1263 1263 1263 1263 1271 1291 1315 1337 1353 1360 1371 1381 1383 1389 1389 1389 0 0 0 0 891 874 874 874 874 876 876 876 872 872 872 877 878 881 888 889 893 897 902 903 904 908 912 919 922 924 924 924 924 925 927 928 930 932 933 933 933 933 933 934 937 939 944 947 949 949 953 957 960 962 962 964 966 968 971 974 975 978 981 983 985 986 988 989 990 991 992 993 993 995 995 996 997 997 998 1000 1008 1014 1020 1025 1028 1031 1034 1038 1041 1043 1045 1047 1049 1051 1053 1055 1055 1055 1056 1056 1056 1056 1056 1055 1055 1055 1055 1054 1054 1050 1026 1017 1005 966 939 937 937 937 937 937 939 939 943 948 0 0 1102 1124 1135 1144 1151 1152 1156 1156 1156 1151 1151 1151 1151 1151 1151 1151 1157 1166 1166 1166 1163 1152 1152 1152 1165 1171 1175 1177 1179 1182 1185 1185 1185 1186 1186 1193 1204 1210 1217 1221 1225 1231 1233 1233 1234 1237 1240 1246 1254 1261 1268 1271 1273 1275 1276 1278 1286 1286 1286 1283 1282 1282 1282 1282 1282 1283 1284 1284 1287 1288 1288 1289 1292 1299 1307 1313 1313 1313 1308 1304 1304 1304 1304 1307 1307 1308 1319 1326 1329 1331 1335 1335 1335 1335 1337 1338 1340 1340 1340 1338 1338 1338 1341 1344 1345 1346 1346 1347 1347 1347 1348 1349 1350 1350 1350 1350 1351 1351 1351 1349 1349 1349 1347 1344 1343 1340 1340 1340 1340 1341 1341 1341 1334 1334 1334 1338 1339 1342 1343 1343 1344 1350 1351 1351 1351 1351 1334 1330 1330 1330 1333 1338 1350 1367 1379 1379 1379 1371 1371 1371 1374 1379 1389 1394 1394 1395 1399 1400 1414 1427 1434 1439 1441 1442 1443 1446 1448 1448 1448 1446 1445 1445 1445 1446 1449 1454 1455 1455 1455 1447 1437 1435 1435 1435 1435 1435 1434 1430 1425 1425 1425 1424 1423 1423 1423 1423 1427 1430 1435 1439 1443 1452 1467 1481 1492 1502 1502 1502 1498 1492 1489 1486 1480 1480 1480 1476 1476 1480 1476 1476 1475 1475 1471 1467 1463 1463 1462 1456 1451 1444 1438 1438 1438 1451 1488 1511 1511 1511 1508 1507 1505 1504 1504 1504 1498 1498 1498 1499 1505 1508 1512 1527 1533 1533 1533 1535 1535 1537 1541 1544 1546 1547 1547 1547 1534 1534 1534 1532 1532 1531 1524 1523 1521 1517 1510 1503 1499 1497 1494 1480 1470 1463 1463 1463 1467 1467 1467 1462 1453 1446 1444 1443 1443 1443 1443 1447 1454 1458 1458 1459 1460 1460 1459 1459 1453 0 0 0 0 0 0 0 0 0 0 0 0 0 0 0 0 0 0 0 0 0 0 1088 1088 1088 1118 1127 1127 1127 1121 1105 0 0 0 0 0 0 0 0 0 0 0 0 0 0 863 827 827 817 810 0 0 0 0 0 0 0 0 0 0 0 0 0 0 0 0 0 0 0 612 612 612 579 576 574 569 0 0 0 0 0 0 0 0 0 0 0 0 0 0 0 0 0 0 0 0 0 0 0 0 0 0 0 0 0 0 0 0 0 0 0 340 354 357 0 0 0 0 0 0 0 0 0 0 0 0 0 0
489 489 490 503 513 521 529 532 545 559 569 571 574 574 582 602 602 622 638 641 644 644 646 657 0 0 0 0 0 0 0 0 0 0 0 0 0 0 0 0 0 0 0 0 1169 1180 1219 1248 1260 1264 1266 1269 1280 1291 1291 1291 1267 1267 1267 1285 1307 1331 1349 1363 1375 1384 1393 1394 1397 1398 1398 0 0 0 0 895 878 874 874 876 876 876 877 877 877 878 882 883 885 891 894 897 900 904 906 909 910 915 922 924 925 925 926 926 927 929 930 932 935 936 936 937 937 938 938 940 941 944 948 950 952 955 958 961 963 963 964 966 968 973 975 978 980 982 984 986 988 990 991 991 992 993 994 996 996 997 998 1000 1001 1001 1004 1009 1014 1020 1025 1028 1031 1034 1038 1041 1043 1046 1048 1050 1052 1055 1056 1057 1058 1058 1058 1058 1059 1059 1059 1058 1057 1056 1056 1056 1052 1037 1029 1014 975 953 939 939 939 939 939 941 943 943 0 0 0 1102 1124 1136 1143 1147 1152 1156 1159 1159 1159 1157 1156 1156 1155 1155 1155 1164 1171 1171 1171 1163 1154 1154 1154 1167 1169 1169 1173 1173 1180 1185 1185 1185 1186 1186 1193 1211 1217 1223 1230 1233 1234 1234 1235 1237 1237 1244 1251 1257 1261 1268 1271 1273 1276 1277 1278 1286 1286 1286 1284 1284 1284 1284 1284 1284 1284 1284 1285 1288 1291 1293 1294 1297 1300 1307 1313 1313 1313 1309 1307 1307 1307 1307 1309 1309 1310 1321 1327 1331 1337 1344 1344 1344 1343 1341 1341 1341 1341 1341 1340 1340 1340 1343 1345 1346 1347 1349 1349 1349 1350 1350 1350 1350 1350 1350 1350 1351 1351 1351 1349 1349 1348 1347 1344 1344 1340 1340 1340 1340 1341 1341 1341 1336 1334 1331 1329 1329 1329 1330 1332 1338 1346 1346 1346 1338 1338 1324 1324 1324 1324 1327 1336 1348 1359 1367 1367 1370 1371 1371 1371 1375 1381 1389 1393 1394 1394 1398 1400 1411 1427 1434 1439 1446 1449 1452 1452 1452 1451 1448 1448 1448 1447 1447 1447 1449 1453 1455 1455 1455 1449 1443 1439 1437 1437 1437 1435 1434 1432 1427 1426 1426 1426 1426 1426 1427 1430 1434 1438 1441 1443 1445 1452 1467 1481 1492 1502 1502 1502 1500 1497 1494 1491 1489 1489 1489 1490 1496 1496 1496 1489 1486 1477 1472 1467 1465 1465 1465 1462 1458 1456 1444 1444 1444 1456 1488 1511 1511 1511 1509 1507 1507 1504 1504 1504 1501 1501 1501 1508 1509 1516 1525 1532 1535 1535 1535 1535 1535 1537 1545 1548 1553 1553 1553 1547 1542 1536 1535 1535 1533 1531 1524 1523 1522 1519 1510 1510 1510 1508 1503 1488 1475 1474 1474 1474 1474 1474 1468 1462 1458 1454 1451 1447 1447 1447 1447 1453 1459 1460 1460 1461 1461 1460 1460 1456 1451 0 0 0 0 0 0 0 0 0 0 0 0 0 0 0 1211 1212 1212 1212 1212 0 0 1113 1113 1113 1128 1128 1128 1110 1097 1088 1087 0 0 0 0 0 0 0 950 950 941 0 0 0 863 841 831 824 823 0 0 0 0 0 0 0 0 0 0 0 0 0 0 0 0 0 0 0 614 614 614 595 595 588 588 0 0 0 0 0 0 0 0 0 0 0 0 0 0 0 0 0 0 0 0 0 0 0 0 0 0 0 0 0 0 0 0 0 0 0 0 0 0 0 0 0 0 0 0 0 0 0 0 0 0 0 0
493 493 503 515 523 532 534 547 560 572 582 582 582 584 585 602 602 622 638 645 648 648 654 0 0 0 0 0 0 0 0 0 0 0 0 0 0 0 0 0 0 0 0 1187 1212 1233 1248 1265 1282 1291 1293 1296 1300 1309 1309 1309 1304 1304 1304 1309 1331 1354 1371 1385 1395 1405 1405 1407 1407 1407 1406 0 0 0 0 895 878 874 874 876 876 879 882 882 882 883 886 887 892 894 897 899 902 906 909 912 915 920 923 926 927 927 928 929 931 933 933 936 938 939 940 941 941 942 942 944 944 946 949 952 954 957 959 962 964 964 964 967 969 974 977 980 981 983 985 987 988 991 992 993 994 994 995 996 997 999 1000 1000 1001 1002 1005 1009 1014 1020 1025 1029 1031 1034 1038 1041 1043 1046 1048 1051 1053 1055 1058 1059 1061 1061 1061 1061 1063 1064 1064 1064 1061 1058 1057 1056 1054 1048 1037 1021 995 973 949 947 944 942 942 943 943 943 0 0 0 1103 1127 1137 1143 1147 1152 1157 1159 1162 1163 1163 1163 1163 1163 1163 1164 1170 1173 1173 1173 1167 1151 1151 1151 1161 1165 1168 1169 1173 1180 1184 1184 1184 1183 1183 1183 1211 1218 1225 1233 1237 1237 1237 1239 1239 1241 1248 1253 1258 1263 1265 1270 1273 1276 1278 1278 1284 1285 1285 1285 1287 1287 1287 1287 1285 1285 1285 1287 1291 1293 1296 1297 1298 1301 1304 1305 1306 1307 1307 1309 1309 1309 1311 1312 1312 1314 1321 1327 1333 1338 1344 1346 1346 1346 1344 1344 1343 1343 1342 1341 1341 1341 1344 1346 1348 1348 1349 1350 1350 1350 1350 1350 1350 1350 1350 1350 1350 1350 1350 1350 1350 1349 1349 1348 1345 1340 1337 1337 1337 1344 1344 1344 1336 1334 1329 1323 1321 1321 1321 1326 1333 1333 1333 1330 1316 1313 1313 1312 1312 1312 1325 1335 1347 1350 1352 1354 1359 1364 1370 1374 1377 1382 1389 1392 1394 1394 1394 1400 1409 1427 1434 1439 1452 1459 1459 1459 1459 1451 1450 1449 1449 1448 1448 1448 1449 1453 1453 1453 1451 1449 1445 1443 1438 1436 1435 1434 1434 1432 1430 1427 1427 1427 1427 1428 1431 1433 1439 1444 1445 1446 1447 1452 1467 1481 1495 1503 1503 1503 1500 1497 1497 1497 1498 1498 1499 1499 1499 1499 1499 1496 1486 1477 1472 1468 1468 1468 1468 1466 1466 1461 1451 1451 1451 1458 1493 1498 1511 1511 1511 1509 1509 1507 1505 1505 1505 1505 1506 1519 1524 1525 1530 1535 1535 1535 1535 1535 1535 1537 1545 1548 1553 1553 1553 1547 1542 1540 1536 1536 1535 1530 1524 1523 1523 1520 1519 1517 1516 1515 1512 1510 1504 1494 1487 1479 1477 1475 1471 1464 1461 1460 1455 1453 1450 1450 1450 1454 1464 1464 1464 1465 1464 1462 1462 1456 1451 0 0 0 0 0 0 0 0 0 0 0 0 0 0 1203 1211 1214 1214 1214 1214 1202 1177 1141 1139 1137 1128 1128 1128 1099 1099 1091 1076 0 0 0 0 0 0 967 965 964 961 959 0 0 863 841 824 823 816 0 0 0 0 0 0 0 0 0 0 0 0 0 0 0 0 0 0 0 603 604 604 603 599 595 588 0 0 0 0 0 0 0 0 0 0 0 0 0 0 0 0 0 0 0 0 0 0 0 0 0 0 0 0 0 0 0 0 0 0 0 0 0 0 0 0 0 0 0 0 0 0 0 0 0 0 0 0
516 516 520 526 534 542 548 564 576 581 585 589 590 592 600 600 604 621 639 648 652 659 667 0 0 0 0 0 0 0 0 0 0 1042 1060 1062 1074 0 0 0 0 0 1209 1224 1241 1257 1270 1280 1296 1305 1306 1310 1316 1318 1319 1319 1319 1319 1319 1337 1358 1370 1378 1398 1418 1425 1426 1430 1432 1432 1432 0 0 0 0 895 881 879 876 879 881 883 886 887 888 888 890 891 895 899 902 903 905 910 913 916 919 922 925 926 929 930 931 932 933 936 937 938 940 943 944 944 944 944 944 946 946 947 950 953 957 959 960 964 966 966 967 968 970 976 979 981 982 984 985 987 989 992 993 995 995 996 996 998 999 1001 1001 1001 1002 1002 1005 1010 1014 1020 1025 1029 1031 1034 1038 1041 1044 1046 1048 1052 1053 1056 1058 1061 1062 1063 1064 1067 1068 1069 1069 1069 1063 1061 1058 1057 1054 1049 1037 1021 1005 988 972 947 944 944 947 947 959 961 0 0 1084 1115 1127 1136 1143 1147 1152 1157 1161 1164 1166 1168 1168 1168 1167 1167 1167 1171 1174 1174 1174 1167 1151 1151 1151 1153 1164 1168 1169 1173 1180 1183 1183 1183 1183 1183 1183 1211 1218 1225 1233 1241 1244 1245 1247 1250 1251 1254 1256 1259 1263 1264 1268 1272 1276 1279 1280 1284 1285 1287 1289 1291 1291 1291 1290 1290 1290 1291 1291 1292 1294 1296 1297 1298 1301 1302 1302 1304 1308 1308 1309 1310 1310 1311 1312 1312 1314 1321 1326 1333 1338 1344 1346 1346 1346 1346 1346 1345 1344 1342 1342 1342 1343 1345 1348 1348 1349 1350 1352 1352 1352 1351 1351 1351 1351 1351 1351 1350 1350 1350 1350 1350 1351 1351 1351 1345 1337 1337 1337 1337 1344 1344 1344 1336 1331 1327 1315 1311 1311 1311 1318 1328 1328 1328 1307 1307 1306 1305 1297 1297 1297 1316 1330 1337 1339 1340 1341 1349 1359 1369 1374 1377 1383 1388 1388 1388 1391 1394 1400 1408 1427 1434 1439 1452 1459 1461 1461 1461 1456 1455 1452 1452 1448 1448 1448 1449 1453 1453 1453 1451 1450 1448 1445 1440 1436 1435 1434 1434 1433 1433 1431 1429 1429 1429 1430 1432 1436 1442 1444 1445 1446 1447 1452 1466 1479 1498 1505 1505 1505 1503 1499 1499 1499 1505 1505 1505 1506 1504 1502 1501 1496 1486 1477 1472 1471 1471 1471 1472 1472 1472 1467 1465 1465 1465 1470 1493 1498 1511 1511 1511 1513 1513 1509 1508 1508 1508 1508 1508 1524 1530 1530 1531 1535 1537 1537 1537 1537 1537 1541 1545 1548 1550 1550 1550 1545 1543 1541 1538 1537 1535 1530 1527 1527 1526 1526 1526 1521 1518 1516 1513 1510 1504 1498 1487 1481 1477 1475 1471 1466 1465 1464 1461 1456 1451 1451 1451 1455 1467 1467 1467 1466 1465 1464 1464 1456 1451 0 0 0 0 0 0 0 0 0 0 0 0 0 0 1191 1211 1212 1214 1214 1214 1202 1184 1155 1155 1148 1135 1135 1121 1067 1067 1067 1087 0 0 0 0 1028 1018 1018 1018 989 974 966 0 0 0 841 824 823 0 0 0 0 0 0 0 0 0 0 595 587 587 587 587 0 0 0 0 0 596 603 603 603 599 595 588 0 0 0 0 0 0 0 0 0 0 0 0 0 0 0 0 0 0 0 0 0 0 0 0 0 0 0 0 0 0 0 0 0 0 0 0 0 0 0 0 0 0 0 0 0 0 0 0 0 0 0 0
530 530 532 534 534 542 548 564 576 581 585 589 594 599 600 602 605 619 639 648 658 665 0 0 0 0 0 0 0 0 0 0 1058 1078 1080 1096 1110 1131 1148 1164 1180 1201 1224 1248 1262 1272 1280 1293 1310 1311 1321 1322 1330 1337 1344 1345 1347 1347 1347 1361 1375 1383 1388 1408 1424 1426 1432 1435 1442 1446 1446 0 0 0 0 0 886 883 881 883 886 889 893 893 893 893 894 896 902 903 905 906 911 915 918 920 921 925 927 929 931 933 934 935 937 938 939 942 943 945 945 945 945 945 945 947 947 947 950 955 957 961 963 966 968 970 972 973 975 978 982 983 984 985 987 988 990 992 994 996 996 997 998 999 1000 1001 1002 1003 1004 1005 1008 1011 1015 1020 1025 1029 1032 1034 1038 1041 1044 1047 1050 1052 1055 1056 1058 1061 1063 1064 1066 1070 1072 1072 1072 1072 1070 1068 1065 1058 1054 1049 1039 1022 1006 992 984 975 956 956 956 968 977 978 997 0 1084 1115 1127 1136 1143 1151 1154 1159 1162 1166 1167 1171 1173 1173 1173 1173 1173 1173 1176 1176 1176 1167 1156 1156 1156 1154 1164 1167 1168 1174 1180 1182 1182 1182 1183 1183 1183 1213 1218 1227 1234 1243 1248 1250 1253 1256 1259 1262 1262 1262 1262 1262 1262 1267 1276 1279 1280 1284 1285 1287 1293 1294 1295 1295 1295 1295 1295 1295 1296 1297 1297 1299 1299 1300 1301 1302 1302 1304 1309 1310 1310 1311 1311 1311 1312 1312 1314 1315 1328 1335 1341 1347 1349 1349 1349 1349 1348 1348 1348 1347 1345 1345 1345 1346 1348 1349 1350 1351 1353 1353 1353 1353 1352 1351 1351 1351 1351 1350 1350 1351 1351 1352 1352 1352 1351 1345 1337 1336 1336 1336 1344 1344 1344 1336 1331 1327 1315 1310 1310 1310 1318 1318 1318 1303 1297 1296 1296 1296 1295 1295 1295 1295 1298 1321 1332 1335 1335 1344 1356 1365 1374 1377 1383 1386 1386 1387 1390 1396 1400 1407 1427 1434 1439 1452 1459 1462 1462 1462 1462 1461 1460 1458 1451 1451 1451 1454 1455 1455 1455 1451 1450 1449 1447 1442 1437 1435 1435 1435 1435 1435 1435 1435 1435 1435 1435 1437 1438 1442 1445 1446 1446 1447 1452 1462 1477 1492 1513 1513 1513 1508 1504 1504 1504 1512 1512 1512 1511 1511 1508 1507 1497 1487 1477 1472 1472 1472 1472 1476 1477 1478 1478 1481 1483 1483 1489 1493 1498 1511 1511 1511 1514 1514 1512 1512 1512 1512 1512 1524 1536 1536 1537 1537 1537 1537 1537 1537 1537 1537 1541 1545 1546 1547 1547 1547 1545 1544 1542 1540 1537 1535 1531 1529 1529 1528 1528 1528 1526 1520 1518 1514 1510 1505 1499 1488 1482 1476 1474 1473 1473 1470 1470 1470 1464 1457 1457 1457 1458 1471 1471 1471 1466 1465 1464 1464 1463 1452 0 0 0 0 0 0 0 0 0 0 0 0 0 0 1183 1188 1211 1214 1214 1214 1196 1187 0 0 0 0 0 0 1062 1062 1062 1110 1110 1110 1067 1028 1028 1028 1028 1028 1006 987 964 0 0 0 0 0 0 0 0 0 0 0 0 0 0 0 605 595 587 591 591 591 0 0 0 0 0 0 589 595 595 595 573 568 0 0 0 0 0 0 0 0 0 0 0 0 0 0 419 0 423 448 0 0 0 0 0 0 0 0 0 0 0 0 0 0 0 0 0 0 0 0 0 0 0 0 0 0 0 0 0 0 0 0 0 0
537 537 537 539 542 542 548 564 576 581 585 589 595 602 602 605 609 621 639 651 665 0 0 0 0 0 0 0 0 0 1058 1078 1090 1102 1104 1121 1141 1163 1179 1198 1211 1225 1244 1264 1274 1283 1290 1308 1316 1326 1335 1336 1354 1361 1365 1380 1380 1381 1381 1381 1385 1396 1408 1418 1426 1427 1435 1443 1447 1456 1456 0 0 0 0 0 886 886 886 886 887 893 894 896 896 897 899 901 907 909 912 914 916 919 922 923 926 929 931 932 933 935 937 938 939 940 941 943 946 946 946 946 946 946 947 947 948 948 952 955 958 961 965 968 970 972 974 976 979 981 983 986 987 989 991 991 992 994 996 997 998 999 1000 1000 1001 1002 1003 1004 1006 1008 1010 1013 1017 1021 1025 1029 1032 1036 1038 1043 1045 1047 1050 1053 1056 1059 1060 1062 1064 1065 1069 1073 1074 1074 1074 1074 1073 1072 1067 1061 1057 1049 1039 1024 1006 995 988 976 975 975 975 988 994 995 997 0 1084 1115 1124 1137 1145 1152 1158 1163 1167 1168 1170 1172 1173 1173 1173 1173 1173 1174 1177 1177 1177 1176 1173 1171 1171 1167 1169 1171 1173 1175 1180 1182 1183 1184 1186 1189 1194 1212 1218 1227 1236 1246 1251 1253 1253 1256 1263 1271 1271 1271 1263 1263 1263 1267 1276 1283 1284 1284 1286 1293 1296 1296 1297 1297 1297 1297 1298 1298 1299 1299 1299 1301 1302 1302 1302 1302 1302 1306 1309 1314 1314 1314 1313 1311 1308 1308 1308 1315 1328 1335 1341 1347 1351 1351 1351 1351 1351 1351 1351 1351 1350 1349 1349 1349 1350 1351 1352 1355 1357 1357 1357 1356 1356 1354 1352 1352 1352 1352 1352 1353 1353 1354 1354 1354 1351 1344 1336 1335 1335 1335 1339 1339 1339 1333 1330 1327 1315 1310 1310 1310 1311 1311 1311 1292 1292 1292 1292 1295 1295 1295 1295 1295 1295 1296 1322 1329 1332 1337 1344 1355 1366 1376 1383 1383 1383 1385 1390 1396 1399 1400 1423 1444 1447 1448 1450 1455 1459 1461 1461 1461 1460 1460 1456 1456 1456 1464 1464 1464 1458 1452 1452 1451 1450 1445 1440 1436 1436 1436 1438 1440 1440 1441 1441 1441 1441 1441 1441 1444 1446 1446 1448 1448 1452 1462 1474 1491 1513 1513 1513 1510 1505 1505 1505 1513 1513 1514 1517 1518 1514 1514 1500 1487 1477 1473 1473 1473 1478 1479 1480 1480 1485 1494 1502 1506 1510 1510 1512 1514 1514 1514 1514 1515 1515 1515 1516 1517 1529 1545 1546 1546 1546 1543 1542 1542 1540 1540 1540 1540 1541 1543 1546 1547 1547 1547 1545 1545 1544 1542 1539 1535 1532 1531 1531 1530 1531 1531 1531 1530 1526 1516 1508 1505 1499 1490 1483 1476 1471 1471 1471 1475 1479 1479 1479 1479 1478 1478 1478 1478 1476 1472 1462 1462 1462 1460 1460 1452 0 0 0 0 0 0 0 0 0 0 0 0 0 1164 1164 1170 1180 1184 1193 1193 1193 1194 0 0 0 0 0 0 0 1040 1040 1110 1110 1110 1067 1028 1028 1028 1028 1028 1006 987 962 0 0 0 0 0 0 0 0 0 0 0 0 0 0 0 630 605 595 593 593 593 0 0 0 0 0 0 0 595 595 595 573 568 0 0 0 0 0 0 0 0 0 0 0 0 0 413 423 423 423 449 475 0 0 0 0 0 0 0 0 0 0 0 0 0 0 0 0 0 0 0 0 0 0 0 0 0 0 0 0 0 0 0 0 0
547 547 547 547 548 548 550 564 570 576 576 587 596 604 604 605 611 622 641 0 0 0 0 0 0 0 0 0 0 1056 1072 1099 1112 1115 1125 1144 1166 1185 1214 1238 1245 1252 1267 1279 1293 1310 1313 1324 1332 1339 1356 1365 1372 1376 1380 1390 1398 1401 1407 1409 1413 1421 1424 1424 1427 1439 1450 1454 1460 1460 1460 1456 0 0 0 0 886 886 886 889 890 895 899 899 900 900 903 907 910 913 916 917 919 924 927 928 930 931 933 935 935 938 939 940 942 942 942 943 946 948 948 948 949 949 949 950 950 951 953 955 959 963 967 970 971 973 976 977 981 983 986 988 989 990 992 993 994 995 997 998 1000 1001 1002 1002 1002 1003 1004 1006 1008 1009 1012 1015 1018 1022 1026 1030 1033 1036 1041 1044 1047 1049 1052 1055 1057 1060 1061 1063 1066 1067 1070 1074 1076 1076 1076 1076 1076 1076 1074 1064 1060 1049 1043 1036 1012 1003 990 982 982 982 984 988 994 996 1007 0 1077 1110 1124 1137 1145 1154 1160 1165 1167 1171 1171 1172 1173 1174 1174 1174 1177 1177 1178 1178 1178 1178 1178 1178 1178 1178 1174 1174 1174 1177 1181 1182 1183 1184 1197 1205 1208 1212 1218 1227 1240 1249 1252 1253 1253 1257 1263 1271 1271 1271 1263 1263 1263 1267 1281 1291 1291 1291 1292 1295 1297 1298 1299 1299 1300 1300 1301 1302 1302 1303 1303 1303 1304 1304 1304 1305 1305 1307 1314 1317 1317 1317 1314 1311 1308 1308 1308 1315 1329 1337 1341 1347 1351 1351 1351 1351 1351 1351 1353 1353 1353 1353 1353 1353 1355 1356 1356 1360 1360 1361 1361 1360 1359 1357 1357 1357 1357 1357 1357 1354 1354 1354 1354 1354 1349 1340 1335 1333 1333 1332 1332 1332 1330 1327 1326 1326 1320 1311 1311 1311 1310 1310 1307 1292 1292 1292 1292 1295 1295 1295 1295 1292 1292 1292 1296 1296 1301 1309 1312 1336 1354 1366 1372 1376 1378 1378 1386 1396 1399 1400 1423 1443 1443 1444 1444 1450 1459 1462 1462 1462 1461 1460 1460 1461 1461 1464 1464 1464 1464 1460 1457 1455 1452 1447 1444 1444 1443 1443 1444 1445 1445 1445 1446 1446 1445 1445 1447 1447 1447 1447 1448 1448 1453 1462 1470 1491 1513 1513 1513 1510 1506 1506 1506 1513 1519 1522 1525 1528 1528 1528 1520 1502 1489 1481 1481 1481 1482 1482 1483 1483 1489 1501 1513 1518 1520 1520 1520 1518 1517 1517 1516 1516 1516 1518 1520 1527 1535 1545 1546 1546 1546 1546 1547 1547 1547 1542 1541 1541 1541 1543 1546 1547 1547 1548 1548 1547 1547 1546 1542 1539 1536 1534 1534 1533 1533 1533 1534 1533 1533 1522 1506 1504 1499 1488 1485 1476 1472 1472 1472 1476 1481 1481 1482 1481 1481 1480 1478 1478 1476 1464 1460 1460 1460 1460 1460 1452 0 0 0 0 0 0 0 0 0 0 0 0 0 1164 1164 1164 1164 1171 1180 1193 1194 1227 0 0 0 0 0 0 0 1040 1040 1075 1075 1075 1067 1040 1030 1030 1025 1020 1006 968 941 0 0 0 0 0 0 0 0 0 0 0 0 0 0 0 631 626 621 600 600 600 0 0 0 0 0 0 0 601 601 601 573 0 0 0 0 0 0 0 0 0 0 0 0 0 438 438 438 438 438 449 475 0 0 0 0 0 0 0 0 0 0 0 0 0 0 0 0 0 0 0 0 0 0 0 0 0 0 0 0 0 0 0 0 0
556 556 554 554 550 550 550 564 570 572 576 587 597 609 617 0 0 0 0 0 0 0 0 0 0 0 0 0 0 1088 1101 1127 1147 1150 1167 1173 1183 1211 1242 1261 1267 1269 1276 1299 1319 1326 1330 1333 1333 1352 1365 1376 1382 1386 1393 1403 1407 1416 1423 1429 1431 1432 1433 1433 1433 1443 1453 1455 1460 1460 1460 1457 0 0 0 0 0 881 881 889 890 899 899 899 902 902 906 912 914 916 918 919 920 924 928 930 932 933 935 937 938 940 941 943 944 945 945 945 947 948 949 949 951 951 951 952 952 952 954 956 959 963 968 970 972 974 976 980 982 985 988 989 990 991 992 995 996 997 999 999 1001 1002 1002 1003 1005 1005 1006 1008 1009 1010 1013 1015 1019 1024 1029 1032 1035 1039 1042 1045 1049 1052 1054 1056 1058 1061 1063 1065 1066 1069 1072 1075 1078 1078 1078 1078 1079 1079 1079 1070 1063 1052 1049 1039 1017 1004 992 989 987 987 988 989 994 999 1011 0 1077 1110 1124 1139 1148 1157 1160 1165 1168 1171 1171 1172 1173 1174 1174 1176 1177 1179 1180 1180 1180 1180 1180 1180 1180 1180 1179 1179 1179 1179 1183 1186 1189 1196 1203 1210 1212 1213 1221 1237 1248 1253 1255 1255 1257 1257 1263 1271 1271 1271 1271 1271 1275 1285 1298 1300 1300 1300 1300 1300 1300 1301 1301 1301 1302 1303 1303 1304 1304 1306 1306 1306 1309 1309 1309 1310 1310 1310 1315 1320 1320 1320 1316 1313 1308 1308 1308 1318 1329 1341 1347 1349 1351 1351 1351 1351 1351 1351 1353 1353 1353 1354 1354 1354 1356 1358 1361 1364 1364 1364 1363 1362 1359 1357 1357 1357 1358 1358 1358 1354 1353 1352 1351 1349 1345 1338 1332 1328 1328 1328 1327 1327 1326 1326 1326 1324 1323 1318 1315 1315 1315 1315 1304 1292 1292 1292 1292 1296 1297 1302 1302 1302 1296 1296 1296 1296 1301 1309 1312 1324 1337 1343 1356 1361 1364 1370 1380 1389 1390 1400 1423 1443 1443 1450 1450 1450 1459 1462 1462 1462 1462 1461 1461 1462 1462 1464 1468 1470 1470 1470 1469 1462 1456 1453 1451 1451 1450 1450 1451 1451 1452 1453 1454 1454 1454 1452 1449 1449 1449 1453 1457 1460 1462 1464 1469 1484 1498 1510 1510 1510 1507 1507 1507 1514 1519 1523 1528 1528 1528 1528 1522 1509 1499 1498 1497 1497 1497 1497 1502 1503 1512 1524 1531 1531 1531 1528 1528 1526 1525 1525 1524 1519 1519 1519 1520 1528 1537 1545 1546 1546 1546 1546 1547 1547 1547 1546 1542 1542 1542 1542 1546 1557 1557 1557 1553 1550 1549 1547 1545 1540 1537 1534 1534 1533 1533 1534 1535 1535 1535 1523 1501 1495 1492 1490 1486 1477 1477 1477 1477 1480 1482 1482 1483 1482 1482 1480 1479 1478 1474 1461 1459 1459 1455 1455 1443 1413 0 0 0 0 0 0 0 0 0 0 0 0 0 1167 1164 1164 1164 1171 1180 1193 1194 1230 1292 1292 1292 0 0 0 0 1075 1075 1075 1075 1075 1066 1044 1028 994 994 984 968 968 932 925 0 0 0 0 0 0 0 0 0 0 0 0 0 0 636 632 627 613 613 613 0 0 0 0 0 0 0 0 0 0 0 0 0 0 0 0 0 0 0 0 0 0 0 445 439 439 439 439 439 449 493 0 0 0 0 0 0 0 0 0 0 0 0 0 0 0 0 0 0 0 0 0 0 0 0 0 0 0 0 0 0 0 0 0
557 557 564 564 564 564 565 570 572 574 576 587 598 615 0 0 0 0 0 0 0 0 0 0 0 1032 1055 1074 1096 1113 1133 1150 1163 1167 1180 1194 1205 1231 1252 1268 1276 1280 1290 1309 1327 1329 1337 1339 1348 1362 1376 1389 1393 1397 1404 1409 1417 1423 1430 1438 1441 1442 1443 1444 1445 1449 1454 1460 1463 1465 1465 1465 0 0 0 0 0 885 885 889 890 902 902 904 907 907 912 916 917 919 919 921 922 925 929 931 933 934 936 940 941 942 942 944 946 947 948 949 950 950 950 952 953 953 953 953 953 954 954 956 960 964 969 971 973 975 978 980 983 986 988 989 990 992 993 995 997 998 1000 1001 1002 1003 1004 1005 1006 1008 1009 1010 1012 1013 1015 1017 1021 1026 1030 1032 1037 1040 1044 1047 1051 1052 1055 1057 1059 1062 1063 1066 1068 1072 1075 1077 1078 1078 1078 1079 1082 1082 1082 1073 1069 1068 1057 1040 1019 1004 998 997 994 989 987 987 987 1001 0 0 1077 1110 1132 1143 1151 1157 1160 1165 1169 1172 1172 1173 1173 1174 1175 1176 1177 1180 1183 1186 1186 1186 1183 1182 1181 1181 1181 1182 1185 1189 1193 1196 1201 1204 1208 1217 1218 1221 1232 1248 1257 1257 1257 1259 1259 1259 1267 1272 1275 1276 1277 1282 1286 1294 1304 1304 1304 1303 1302 1302 1302 1302 1304 1306 1309 1311 1312 1312 1312 1310 1310 1310 1313 1313 1313 1312 1312 1312 1318 1322 1322 1322 1319 1319 1319 1320 1322 1323 1331 1346 1350 1352 1352 1352 1351 1351 1351 1352 1353 1355 1355 1355 1356 1357 1357 1359 1364 1370 1370 1370 1365 1362 1360 1357 1357 1357 1358 1358 1358 1353 1351 1348 1343 1343 1341 1334 1326 1321 1321 1321 1326 1326 1326 1326 1325 1324 1323 1321 1319 1315 1315 1314 1301 1298 1295 1295 1296 1297 1297 1304 1305 1305 1305 1301 1301 1296 1301 1309 1312 1324 1337 1343 1351 1355 1357 1363 1371 1372 1372 1391 1421 1443 1443 1447 1447 1447 1457 1465 1465 1465 1464 1464 1462 1462 1462 1465 1468 1470 1470 1470 1470 1465 1460 1458 1458 1458 1457 1455 1455 1455 1455 1459 1461 1461 1461 1460 1458 1455 1455 1455 1459 1469 1469 1471 1472 1473 1485 1497 1504 1504 1506 1507 1508 1514 1520 1523 1528 1528 1528 1528 1522 1516 1511 1511 1511 1511 1511 1515 1518 1525 1530 1534 1535 1535 1535 1535 1535 1536 1536 1536 1531 1523 1521 1521 1521 1529 1539 1542 1542 1545 1545 1547 1548 1548 1548 1546 1543 1542 1542 1542 1546 1557 1557 1557 1553 1550 1549 1547 1546 1541 1537 1535 1534 1534 1534 1534 1535 1535 1535 1523 1501 1495 1492 1492 1491 1489 1486 1485 1485 1485 1486 1485 1485 1485 1485 1480 1478 1475 1469 1461 1459 1458 1454 1454 1430 1406 0 0 0 0 0 0 0 0 0 0 0 0 0 0 1167 1167 1167 1171 1186 1217 1250 1250 1292 1292 1292 1287 0 0 0 1075 1075 1066 1066 1066 1050 1047 1030 994 984 970 951 935 932 926 0 0 0 0 0 0 0 0 0 0 0 0 0 0 0 641 633 614 612 612 0 0 0 0 0 0 0 0 0 0 0 0 0 0 0 0 0 0 0 0 0 0 0 463 460 439 439 439 439 448 0 488 488 484 0 0 0 0 0 0 0 0 0 0 0 0 0 0 0 0 0 0 0 0 0 0 0 0 0 0 0 0 0 0
557 557 569 569 572 574 576 574 572 576 576 0 0 0 0 0 0 0 0 0 0 0 0 0 1018 1040 1066 1097 1113 1130 1143 1160 1164 1179 1194 1217 1238 1254 1270 1278 1285 1294 1305 1317 1329 1338 1345 1348 1358 1377 1392 1400 1402 1404 1409 1419 1429 1431 1434 1442 1447 1451 1453 1456 1457 1457 1460 1464 1465 1468 1472 1472 0 0 0 0 0 888 875 875 888 904 908 912 914 916 917 919 920 921 922 924 925 927 930 933 934 936 938 941 943 943 944 946 948 949 950 952 953 953 953 953 955 955 955 955 955 955 955 956 960 966 970 973 975 977 978 981 984 987 988 990 992 993 994 997 999 1000 1002 1003 1003 1004 1005 1007 1008 1009 1011 1012 1015 1016 1017 1019 1022 1026 1030 1034 1037 1040 1044 1047 1051 1053 1055 1057 1060 1063 1064 1067 1070 1073 1076 1078 1079 1079 1079 1080 1082 1082 1082 1077 1075 1072 1065 1045 1024 1012 1007 1007 1003 992 987 987 0 0 0 1089 1109 1122 1141 1149 1157 1157 1160 1165 1169 1172 1173 1173 1173 1174 1175 1177 1177 1180 1184 1189 1189 1189 1188 1183 1183 1183 1183 1188 1190 1196 1201 1208 1210 1210 1215 1224 1232 1240 1247 1253 1257 1259 1260 1260 1261 1266 1271 1274 1277 1281 1284 1289 1290 1298 1306 1306 1306 1306 1304 1304 1304 1305 1308 1312 1315 1319 1322 1322 1322 1322 1318 1318 1318 1318 1318 1317 1317 1317 1322 1325 1325 1325 1324 1324 1324 1327 1328 1332 1334 1346 1351 1351 1351 1351 1350 1350 1350 1352 1356 1357 1358 1358 1358 1358 1359 1361 1366 1370 1370 1370 1369 1364 1360 1357 1357 1357 1357 1357 1357 1350 1348 1348 1343 1343 1341 1330 1321 1320 1320 1320 1326 1326 1326 1324 1324 1324 1323 1321 1319 1315 1315 1298 1298 1298 1296 1297 1298 1298 1305 1306 1322 1323 1323 1327 1327 1325 1325 1325 1325 1325 1337 1343 1351 1355 1357 1360 1361 1361 1365 1381 1414 1444 1444 1445 1446 1447 1457 1465 1468 1468 1466 1465 1465 1465 1465 1465 1467 1468 1470 1470 1470 1467 1461 1461 1461 1460 1460 1460 1460 1460 1461 1466 1467 1467 1467 1467 1464 1463 1463 1463 1465 1471 1471 1471 1471 1471 1471 1476 1479 1491 1504 1508 1514 1518 1521 1523 1527 1527 1527 1525 1522 1519 1519 1518 1518 1518 1519 1522 1525 1528 1531 1537 1542 1542 1542 1539 1539 1539 1539 1539 1536 1523 1523 1523 1523 1533 1541 1541 1542 1545 1545 1548 1550 1550 1550 1547 1543 1542 1542 1542 1547 1557 1557 1557 1553 1550 1547 1547 1546 1542 1538 1536 1534 1533 1533 1533 1534 1534 1534 1523 1501 1495 1495 1495 1493 1493 1493 1493 1492 1490 1489 1489 1488 1488 1485 1480 1478 1475 1469 1461 1454 1453 1452 1448 1424 1404 0 0 0 0 0 0 0 0 0 0 0 0 0 0 0 0 1210 1210 1219 1238 1250 1262 1292 1292 1292 1287 0 0 0 1096 1088 1081 1081 1066 1050 1049 1030 994 984 970 951 935 932 932 932 927 916 0 0 0 0 0 0 0 0 0 0 0 0 0 0 614 612 612 0 0 0 0 0 0 0 0 0 0 0 0 0 0 0 0 0 0 0 0 0 0 0 0 451 439 439 425 0 0 470 470 470 470 464 0 0 0 0 0 0 0 0 0 0 0 0 0 0 0 0 0 0 0 0 0 0 0 0 0 0 0 0 0
559 559 569 569 572 575 578 578 586 587 0 0 0 0 0 0 0 0 0 0 0 0 0 1015 1032 1053 1076 1105 1128 1143 1155 1167 1173 1195 1217 1241 1266 1280 1286 1290 1296 1303 1308 1319 1334 1346 1354 1358 1367 1382 1394 1400 1404 1408 1411 1423 1429 1438 1440 1447 1451 1456 1456 1458 1459 1463 1466 1467 1468 1469 1477 1477 1477 0 0 0 0 878 874 874 878 906 910 916 919 920 921 921 921 923 926 927 928 931 933 936 937 938 940 942 945 946 946 947 951 954 955 955 955 956 956 956 957 957 957 957 957 957 958 958 962 967 971 974 978 980 981 982 986 989 990 991 993 994 996 998 1000 1001 1003 1004 1005 1005 1007 1008 1010 1011 1012 1014 1016 1018 1019 1021 1023 1026 1031 1034 1037 1040 1044 1048 1051 1053 1056 1059 1061 1063 1066 1068 1071 1074 1077 1079 1080 1081 1081 1081 1082 1083 1083 1083 1078 1074 1068 1052 1026 1017 1011 1010 1008 1002 987 987 0 0 0 1100 1122 1136 1152 1157 1158 1159 1160 1165 1169 1172 1173 1173 1174 1177 1177 1177 1177 1180 1184 1190 1192 1192 1192 1188 1188 1188 1188 1192 1194 1199 1204 1211 1213 1215 1218 1226 1235 1241 1247 1253 1257 1260 1261 1261 1267 1272 1276 1279 1283 1284 1287 1292 1295 1301 1307 1307 1307 1308 1308 1308 1308 1311 1313 1316 1320 1323 1326 1329 1331 1331 1331 1327 1327 1323 1322 1322 1322 1324 1329 1330 1330 1330 1326 1326 1326 1333 1336 1339 1341 1348 1352 1352 1352 1350 1349 1349 1349 1352 1358 1359 1359 1360 1360 1361 1361 1363 1367 1370 1370 1370 1369 1364 1359 1356 1356 1356 1357 1357 1357 1350 1348 1348 1343 1343 1341 1325 1314 1314 1314 1320 1326 1329 1329 1329 1323 1323 1323 1321 1319 1315 1309 1296 1296 1296 1296 1297 1299 1300 1307 1308 1328 1333 1333 1334 1338 1339 1339 1339 1339 1339 1342 1347 1351 1355 1357 1359 1360 1361 1361 1368 1405 1442 1443 1444 1446 1447 1451 1465 1468 1468 1468 1468 1468 1465 1465 1465 1467 1468 1470 1470 1470 1468 1462 1462 1462 1461 1462 1462 1463 1465 1469 1470 1470 1470 1470 1469 1469 1469 1469 1469 1472 1473 1473 1473 1469 1469 1469 1469 1476 1487 1504 1516 1521 1521 1521 1525 1527 1527 1527 1525 1523 1523 1523 1523 1523 1525 1525 1527 1528 1529 1531 1538 1547 1547 1547 1541 1541 1541 1541 1541 1537 1524 1524 1524 1533 1545 1545 1545 1545 1545 1545 1549 1550 1550 1550 1547 1544 1542 1542 1542 1547 1555 1555 1555 1552 1549 1547 1547 1546 1542 1540 1536 1534 1533 1533 1533 1533 1533 1533 1525 1507 1496 1496 1496 1497 1498 1499 1499 1499 1499 1499 1494 1491 1489 1485 1480 1478 1475 1468 1456 1450 1450 1442 1435 1424 1361 0 0 0 0 0 0 0 0 0 0 1283 1283 1283 0 0 0 0 1238 1238 1238 1250 1262 1291 1291 1291 1287 0 0 1129 1110 1108 1101 1089 1066 1055 1050 1044 1017 1003 995 970 950 943 932 932 927 916 905 884 854 854 854 854 0 0 0 0 0 0 0 0 0 611 611 0 0 0 0 0 0 0 0 0 0 0 0 0 0 0 0 0 0 0 0 0 0 0 0 0 0 0 0 0 0 437 467 467 467 464 0 0 0 0 0 0 0 0 0 0 0 0 0 0 0 0 0 0 0 0 0 0 0 0 0 0 0 0 343
559 559 569 571 577 580 580 580 594 0 0 0 0 0 0 0 0 0 0 0 0 0 0 1030 1048 1067 1090 1120 1139 1150 1163 1170 1189 1212 1231 1252 1271 1281 1288 1295 1305 1307 1320 1332 1340 1353 1356 1367 1377 1385 1394 1402 1405 1409 1414 1423 1435 1440 1445 1450 1455 1457 1457 1459 1459 1465 1469 1469 1471 1472 1481 1488 1488 0 0 0 0 0 878 878 878 906 910 917 921 921 922 923 923 926 929 929 931 935 936 939 939 940 943 944 946 947 949 950 954 957 958 959 959 959 959 959 959 959 959 959 959 959 960 962 964 968 972 975 979 981 983 983 988 990 992 993 994 996 998 999 1000 1002 1003 1005 1007 1007 1009 1010 1012 1014 1015 1016 1018 1019 1020 1023 1025 1027 1032 1035 1038 1041 1045 1048 1051 1054 1057 1059 1062 1064 1066 1069 1072 1074 1077 1080 1081 1082 1082 1082 1082 1083 1083 1083 1083 1078 1073 1059 1031 1017 1017 1016 1010 1006 998 998 0 0 1093 1108 1125 1145 1157 1158 1159 1160 1161 1165 1171 1176 1179 1179 1180 1179 1179 1179 1180 1180 1185 1190 1192 1192 1192 1189 1189 1189 1190 1194 1198 1203 1209 1216 1219 1219 1222 1227 1235 1241 1247 1253 1256 1260 1261 1265 1270 1275 1278 1281 1284 1289 1294 1297 1299 1303 1307 1310 1310 1311 1312 1313 1314 1315 1316 1318 1322 1325 1327 1329 1333 1333 1333 1332 1329 1327 1327 1327 1329 1331 1335 1335 1335 1334 1330 1330 1330 1333 1338 1340 1343 1348 1352 1352 1352 1350 1349 1349 1349 1354 1358 1359 1359 1360 1361 1362 1364 1365 1367 1371 1371 1371 1370 1364 1359 1356 1356 1356 1356 1356 1352 1350 1350 1350 1350 1350 1348 1325 1314 1314 1314 1320 1332 1332 1332 1329 1323 1322 1321 1320 1316 1310 1301 1293 1293 1293 1297 1297 1300 1302 1309 1310 1328 1333 1335 1337 1343 1348 1348 1348 1348 1348 1351 1357 1362 1362 1362 1360 1360 1360 1361 1368 1390 1407 1435 1439 1442 1442 1442 1455 1464 1465 1468 1470 1470 1470 1469 1468 1468 1468 1470 1470 1470 1468 1462 1462 1462 1462 1463 1466 1469 1472 1473 1473 1473 1473 1472 1472 1472 1475 1476 1476 1477 1477 1477 1473 1466 1466 1466 1468 1475 1487 1503 1518 1522 1522 1524 1525 1527 1527 1527 1525 1525 1525 1525 1526 1529 1530 1533 1534 1535 1536 1536 1538 1551 1554 1554 1556 1554 1552 1552 1546 1539 1537 1537 1537 1547 1556 1556 1556 1550 1549 1549 1549 1553 1553 1553 1548 1546 1546 1546 1546 1549 1552 1552 1552 1551 1549 1547 1547 1545 1542 1540 1539 1537 1533 1533 1533 1532 1532 1532 1525 1509 1497 1497 1497 1499 1499 1499 1500 1504 1504 1504 1501 1497 1492 1486 1481 1480 1475 1459 1456 1448 1448 1438 1435 1424 1361 0 0 0 0 0 0 0 0 0 1264 1310 1310 1310 1303 1297 0 0 1238 1238 1238 1239 1262 1276 1276 1276 0 0 0 1133 1132 1129 1125 1112 1093 1082 1078 1067 1045 1031 1019 1001 971 960 952 932 927 916 905 884 854 854 854 862 862 0 0 0 0 0 0 0 0 0 611 0 0 0 0 0 0 0 0 0 0 0 0 0 0 0 0 0 0 0 0 0 0 0 0 0 0 0 0 0 0 432 455 455 455 437 0 0 0 0 383 360 351 351 0 0 0 0 0 0 0 0 0 0 0 0 0 0 0 0 0 0 0 363 363
559 559 568 570 581 586 586 0 0 0 0 0 0 0 0 0 0 0 0 0 0 0 0 1042 1066 1088 1115 1138 1152 1164 1181 1185 1205 1226 1242 1259 1273 1281 1289 1297 1308 1318 1330 1338 1350 1359 1362 1371 1380 1388 1394 1402 1408 1413 1418 1424 1437 1441 1445 1451 1455 1457 1458 1459 1459 1469 1475 1475 1475 1477 1482 1489 1489 0 0 0 0 0 0 878 878 904 914 921 922 922 925 926 928 930 931 932 934 936 940 941 941 943 944 946 947 949 952 954 957 959 961 961 961 961 961 961 961 961 961 961 961 961 963 965 967 971 973 977 980 984 986 987 989 991 993 995 996 998 999 1000 1002 1003 1004 1006 1008 1010 1011 1012 1014 1015 1016 1018 1019 1022 1023 1024 1026 1029 1032 1036 1038 1041 1046 1049 1052 1054 1058 1060 1063 1065 1067 1070 1073 1075 1077 1080 1082 1082 1082 1083 1083 1083 1083 1083 1083 1078 1073 1064 1039 1023 1023 1018 1012 1006 1006 1006 0 0 1116 1123 1132 1152 1160 1161 1161 1162 1166 1170 1175 1180 1183 1183 1183 1183 1182 1181 1181 1181 1185 1191 1195 1195 1195 1191 1191 1191 1197 1199 1204 1213 1223 1226 1227 1227 1228 1231 1238 1241 1244 1248 1256 1260 1263 1265 1271 1276 1280 1284 1290 1296 1300 1301 1305 1310 1312 1315 1316 1316 1316 1316 1316 1317 1319 1321 1323 1325 1327 1329 1333 1335 1335 1335 1333 1332 1332 1332 1335 1338 1338 1338 1338 1335 1333 1333 1333 1336 1339 1340 1343 1348 1351 1351 1351 1350 1349 1349 1349 1355 1358 1359 1359 1360 1361 1363 1364 1365 1367 1371 1371 1371 1370 1365 1359 1355 1355 1355 1355 1355 1352 1350 1350 1350 1353 1353 1353 1325 1314 1314 1314 1324 1336 1336 1336 1329 1316 1316 1315 1313 1313 1310 1301 1301 1301 1309 1309 1309 1312 1312 1312 1327 1329 1333 1335 1340 1347 1351 1357 1357 1359 1364 1364 1370 1370 1370 1364 1361 1361 1361 1361 1368 1377 1387 1402 1421 1429 1432 1437 1446 1453 1460 1467 1470 1470 1470 1469 1469 1469 1469 1471 1471 1471 1469 1464 1464 1464 1467 1468 1470 1476 1476 1476 1476 1475 1474 1474 1474 1475 1478 1479 1480 1480 1480 1479 1474 1466 1466 1466 1467 1475 1486 1503 1518 1522 1522 1524 1525 1527 1531 1531 1531 1531 1531 1531 1533 1538 1541 1541 1541 1541 1541 1541 1546 1555 1559 1560 1560 1560 1556 1552 1546 1543 1543 1543 1552 1558 1560 1560 1560 1554 1554 1554 1554 1556 1556 1556 1556 1555 1553 1553 1553 1555 1555 1555 1552 1551 1549 1547 1547 1545 1543 1541 1539 1537 1537 1534 1534 1534 1533 1531 1523 1514 1500 1499 1499 1499 1499 1500 1504 1509 1510 1510 1510 1506 1495 1490 1488 1484 1479 1457 1452 1441 1435 1434 1429 1424 1361 0 0 0 0 0 0 0 0 1223 1264 1310 1313 1329 1330 1341 1341 0 0 1224 1224 1224 1233 1233 0 0 0 0 1152 1148 1142 1135 1135 1135 1122 1117 1109 1092 1059 1031 1019 1001 971 960 952 924 911 910 899 884 882 882 882 882 882 0 0 0 0 0 0 0 0 0 0 0 0 0 0 0 0 0 0 0 0 0 0 0 0 0 0 0 0 0 0 0 0 0 0 0 0 0 0 0 0 0 452 452 452 0 0 0 0 386 383 366 366 366 366 0 0 0 0 0 0 0 0 0 0 0 0 0 0 0 0 0 0 381 381
560 560 567 570 581 595 0 0 0 0 0 0 0 803 837 852 854 862 869 0 0 0 0 1042 1066 1096 1126 1147 1165 1183 1198 1201 1217 1233 1249 1262 1274 1282 1289 1300 1315 1330 1338 1345 1355 1359 1365 1371 1380 1388 1393 1403 1410 1415 1421 1429 1437 1441 1446 1451 1455 1457 1459 1459 1459 1469 1475 1477 1477 1477 1483 1489 1489 0 0 0 0 0 0 0 889 889 918 925 925 929 930 931 932 932 933 933 935 938 942 943 944 945 947 948 951 952 954 956 958 960 962 964 964 964 964 964 964 964 964 964 964 964 965 968 972 974 978 981 984 985 988 989 991 993 994 995 997 999 1000 1001 1002 1004 1006 1007 1009 1012 1014 1014 1016 1017 1018 1019 1021 1024 1024 1025 1026 1029 1032 1036 1038 1041 1047 1049 1052 1055 1058 1061 1064 1067 1069 1071 1074 1076 1078 1081 1083 1083 1083 1083 1083 1083 1083 1083 1083 1079 1073 1064 1044 1024 1023 1023 1019 1017 1017 1017 0 0 1139 1153 1164 1169 1169 1169 1169 1170 1171 1176 1182 1188 1192 1192 1192 1191 1188 1187 1185 1185 1185 1191 1195 1195 1195 1195 1195 1203 1208 1213 1216 1223 1231 1234 1234 1236 1236 1242 1244 1244 1245 1248 1254 1260 1265 1268 1273 1276 1280 1284 1294 1297 1301 1305 1309 1313 1314 1317 1319 1319 1319 1318 1318 1318 1321 1323 1325 1325 1329 1330 1333 1336 1336 1336 1335 1335 1335 1335 1338 1340 1340 1340 1338 1336 1336 1336 1336 1338 1341 1343 1343 1346 1350 1350 1350 1350 1349 1349 1349 1351 1358 1359 1360 1360 1362 1363 1365 1366 1368 1371 1371 1371 1371 1366 1359 1353 1352 1352 1352 1352 1352 1350 1350 1350 1354 1354 1354 1331 1331 1331 1335 1337 1337 1337 1337 1329 1313 1313 1313 1311 1311 1310 1310 1310 1329 1330 1330 1330 1329 1329 1329 1329 1330 1332 1335 1345 1349 1351 1366 1366 1368 1373 1373 1373 1373 1373 1368 1361 1361 1361 1361 1368 1375 1377 1384 1388 1400 1409 1426 1433 1443 1456 1467 1471 1471 1472 1472 1473 1473 1473 1473 1473 1473 1470 1470 1470 1473 1477 1477 1479 1479 1480 1479 1479 1477 1477 1477 1478 1478 1481 1481 1483 1483 1481 1480 1474 1466 1466 1466 1467 1475 1486 1503 1518 1521 1522 1524 1525 1528 1532 1536 1536 1536 1536 1536 1538 1547 1553 1555 1555 1555 1554 1554 1554 1559 1561 1561 1560 1560 1556 1552 1550 1550 1550 1553 1562 1565 1565 1565 1562 1558 1558 1558 1558 1561 1561 1561 1561 1561 1561 1562 1562 1562 1559 1556 1552 1551 1551 1549 1547 1545 1543 1541 1540 1539 1538 1536 1535 1534 1532 1529 1522 1514 1504 1499 1499 1499 1500 1500 1508 1513 1513 1514 1514 1514 1503 1500 1495 1484 1484 1457 1452 1441 1437 1434 1429 1424 1357 0 0 0 0 0 0 0 1199 1232 1249 1310 1332 1334 1384 1384 1384 0 0 0 0 0 0 0 0 0 0 1155 1152 1149 1149 1149 1149 1149 1137 1117 1109 1092 1059 1031 1019 1001 971 960 950 923 911 909 897 879 879 879 882 882 882 0 0 0 0 0 0 0 0 0 0 0 0 0 0 0 0 0 0 0 0 0 0 543 543 543 543 552 0 0 0 0 0 0 0 0 0 0 0 0 0 0 0 0 0 0 0 0 0 362 361 366 366 366 366 0 0 0 0 0 0 0 0 0 0 0 0 0 0 0 0 0 0 396 396
560 560 568 571 0 0 0 0 0 0 0 0 828 828 856 869 872 877 886 901 934 960 1008 1042 1067 1097 1133 1164 1185 1194 1199 1210 1221 1236 1252 1264 1274 1282 1290 1302 1322 1337 1345 1351 1356 1362 1366 1371 1380 1388 1394 1403 1414 1421 1426 1434 1440 1444 1449 1454 1457 1459 1459 1459 1459 1469 1475 1479 1480 1480 1483 1488 1488 1488 0 0 0 0 0 0 916 916 918 927 929 933 933 934 934 934 934 935 938 940 944 945 946 948 948 951 953 955 957 958 961 962 963 965 966 966 966 966 967 967 967 966 966 966 967 972 974 979 982 984 987 987 989 991 993 995 995 997 998 999 1001 1002 1004 1006 1006 1008 1010 1013 1014 1016 1017 1019 1019 1020 1021 1024 1024 1025 1026 1029 1032 1036 1039 1042 1048 1051 1052 1055 1058 1061 1064 1067 1070 1072 1075 1077 1078 1081 1083 1084 1084 1084 1084 1084 1084 1084 1084 1079 1070 1064 1044 1026 1026 1026 1026 1026 1026 1026 0 0 1156 1171 1175 1176 1177 1177 1177 1178 1182 1187 1191 1193 1200 1200 1200 1200 1196 1193 1192 1192 1192 1194 1196 1197 1197 1200 1204 1208 1212 1215 1219 1223 1231 1237 1241 1242 1244 1245 1245 1248 1248 1248 1254 1260 1265 1268 1273 1276 1280 1285 1294 1297 1301 1305 1311 1313 1315 1317 1320 1320 1320 1320 1320 1320 1321 1324 1329 1329 1329 1330 1333 1338 1338 1338 1335 1335 1335 1337 1340 1342 1342 1342 1339 1339 1339 1339 1341 1343 1343 1343 1344 1344 1348 1350 1350 1350 1350 1350 1352 1353 1357 1359 1360 1363 1364 1366 1367 1367 1368 1371 1373 1373 1373 1367 1359 1353 1347 1347 1347 1346 1346 1348 1349 1349 1354 1354 1354 1349 1348 1345 1345 1344 1344 1342 1337 1329 1313 1313 1313 1313 1315 1323 1341 1366 1366 1366 1356 1346 1335 1333 1332 1330 1332 1332 1336 1347 1352 1354 1368 1384 1384 1384 1377 1376 1375 1374 1369 1365 1362 1362 1362 1368 1372 1372 1373 1373 1373 1373 1375 1390 1419 1449 1467 1473 1473 1474 1475 1475 1478 1478 1478 1475 1473 1473 1473 1476 1481 1484 1484 1484 1484 1483 1482 1482 1482 1482 1482 1483 1483 1484 1485 1485 1485 1484 1481 1481 1478 1467 1467 1467 1475 1483 1496 1514 1520 1521 1522 1525 1529 1533 1539 1539 1539 1539 1539 1545 1555 1559 1559 1559 1558 1558 1558 1564 1565 1565 1565 1565 1560 1554 1554 1554 1557 1565 1567 1568 1568 1567 1567 1565 1562 1558 1558 1558 1563 1563 1563 1564 1564 1565 1566 1566 1566 1564 1559 1557 1554 1554 1552 1552 1551 1548 1544 1541 1539 1539 1539 1539 1537 1532 1528 1522 1515 1505 1499 1499 1499 1502 1513 1520 1521 1521 1520 1520 1515 1514 1513 1509 1498 1484 1457 1452 1441 1437 1434 1429 0 0 0 0 0 0 0 0 0 0 1234 1249 1310 1332 1368 1397 1397 1397 0 0 0 0 0 0 1132 1132 1132 1152 1152 1152 1149 1149 1149 1149 1149 1137 1117 1109 1092 1059 1031 1019 1001 971 938 928 920 908 889 888 867 867 867 888 888 888 0 0 0 0 0 0 0 0 0 0 0 0 0 0 0 0 0 0 0 0 0 545 543 543 543 543 552 553 0 0 0 0 0 0 0 0 0 0 0 0 0 0 0 0 0 0 0 0 369 371 371 371 370 370 0 0 0 0 0 0 0 0 0 0 0 0 0 0 0 0 0 385 396 396
561 561 571 0 0 0 0 0 0 0 0 856 857 861 876 888 890 892 896 910 934 960 1003 1036 1070 1098 1136 1167 1187 1194 1202 1214 1225 1241 1254 1265 1277 1285 1295 1304 1326 1337 1345 1353 1357 1362 1367 1373 1381 1388 1395 1403 1415 1424 1432 1438 1443 1448 1451 1456 1458 1461 1461 1463 1463 1470 1474 1479 1481 1483 1483 1487 1487 1487 0 0 0 0 0 0 914 914 914 929 931 934 934 934 935 935 935 938 939 942 945 947 948 949 951 952 954 957 959 961 964 965 966 967 968 968 969 969 969 971 971 971 971 971 971 975 976 982 984 985 988 989 991 994 994 996 996 998 999 1000 1001 1002 1005 1007 1008 1009 1012 1014 1015 1017 1019 1020 1021 1021 1022 1024 1025 1025 1026 1029 1031 1036 1039 1044 1049 1052 1054 1056 1058 1062 1065 1068 1070 1073 1075 1078 1079 1081 1083 1084 1084 1084 1084 1084 1084 1084 1084 1080 1068 1056 1044 1029 1029 1029 1035 1038 1039 1045 1099 1145 1171 1181 1183 1183 1183 1182 1182 1182 1188 1192 1195 1196 1202 1206 1206 1206 1203 1201 1200 1200 1200 1200 1200 1201 1203 1207 1207 1209 1213 1216 1219 1224 1231 1237 1241 1242 1244 1249 1251 1251 1253 1254 1256 1260 1265 1268 1273 1276 1280 1286 1294 1297 1301 1305 1311 1313 1315 1317 1320 1323 1325 1326 1326 1326 1327 1328 1331 1331 1331 1332 1333 1338 1341 1341 1341 1340 1340 1340 1343 1346 1346 1346 1345 1339 1339 1339 1345 1345 1345 1344 1344 1344 1347 1352 1352 1352 1352 1352 1352 1355 1357 1359 1362 1367 1368 1368 1368 1368 1369 1371 1373 1373 1373 1367 1359 1353 1347 1347 1346 1344 1343 1343 1343 1343 1347 1347 1347 1353 1353 1348 1348 1348 1345 1344 1337 1330 1313 1313 1313 1324 1327 1338 1357 1369 1369 1369 1364 1353 1342 1335 1334 1333 1333 1333 1336 1353 1360 1362 1371 1388 1388 1388 1381 1379 1378 1378 1370 1369 1368 1368 1368 1368 1372 1372 1373 1373 1373 1373 1375 1390 1419 1449 1472 1478 1478 1478 1478 1478 1480 1480 1480 1479 1478 1478 1478 1483 1487 1487 1488 1488 1487 1487 1488 1489 1490 1490 1490 1490 1490 1490 1491 1491 1491 1488 1486 1483 1483 1474 1474 1474 1475 1483 1495 1506 1516 1521 1524 1526 1530 1538 1539 1539 1539 1539 1539 1546 1557 1559 1560 1561 1561 1561 1570 1570 1570 1566 1565 1563 1554 1545 1545 1545 1559 1569 1569 1570 1570 1570 1570 1570 1567 1564 1564 1564 1565 1565 1565 1565 1565 1566 1567 1567 1567 1566 1560 1559 1557 1556 1555 1555 1553 1550 1547 1545 1545 1544 1544 1544 1541 1534 1528 1522 1515 1509 1502 1502 1502 1510 1526 1526 1526 1525 1525 1525 1525 1525 1521 1520 1520 1508 1485 1468 1450 1441 1437 1430 0 0 0 0 0 0 0 0 0 0 0 0 1310 1332 1385 1397 1397 1397 0 0 0 0 0 1135 1123 1123 1123 1155 1161 1161 1161 1161 1160 1151 1150 1137 1114 1108 1089 1064 1031 1019 1001 971 938 928 915 908 889 888 887 887 887 907 907 0 0 0 0 0 0 0 0 0 0 0 0 0 0 0 0 0 0 0 0 0 0 543 543 543 543 543 552 553 0 0 0 0 0 0 0 0 0 0 0 0 0 0 0 0 0 0 0 0 372 375 375 375 372 367 0 0 0 0 0 0 0 0 0 0 0 0 0 0 0 0 399 399 397 397
0 0 0 0 0 0 0 0 851 864 872 881 886 887 898 899 904 906 911 919 934 960 1003 1032 1067 1098 1139 1167 1187 1194 1204 1215 1226 1241 1257 1272 1292 1305 1307 1318 1330 1337 1345 1353 1359 1363 1368 1373 1381 1388 1395 1406 1419 1426 1432 1438 1444 1449 1453 1457 1460 1465 1468 1469 1471 1471 1474 1480 1483 1485 1485 1486 1486 1486 1485 0 0 0 0 0 0 913 913 931 931 934 934 935 935 937 937 939 940 944 946 947 949 950 953 954 955 957 960 964 966 967 967 969 970 970 970 971 971 972 973 974 974 975 976 977 979 984 986 987 988 990 993 995 996 996 998 999 1000 1001 1002 1003 1005 1007 1008 1011 1013 1014 1016 1018 1019 1020 1021 1022 1023 1024 1025 1025 1026 1028 1031 1033 1039 1045 1049 1052 1054 1056 1059 1062 1067 1069 1072 1074 1076 1078 1079 1081 1083 1085 1085 1085 1084 1084 1084 1084 1084 1084 1068 1048 1038 1035 1035 1035 1049 1049 1067 1116 1145 1166 1175 1185 1186 1186 1186 1184 1184 1184 1190 1194 1196 1199 1204 1209 1209 1209 1208 1207 1207 1207 1206 1206 1206 1207 1210 1212 1213 1214 1216 1218 1220 1225 1229 1235 1241 1242 1244 1249 1253 1254 1254 1255 1256 1259 1263 1268 1273 1276 1280 1286 1294 1297 1301 1305 1311 1313 1315 1317 1320 1326 1331 1331 1331 1331 1331 1331 1334 1334 1334 1334 1334 1338 1344 1345 1345 1345 1345 1345 1346 1348 1348 1348 1348 1339 1339 1339 1347 1348 1348 1348 1347 1347 1347 1356 1356 1356 1354 1354 1354 1356 1357 1362 1366 1370 1370 1370 1369 1369 1369 1370 1373 1373 1373 1367 1359 1353 1347 1347 1346 1344 1343 1343 1343 1343 1343 1343 1345 1345 1350 1348 1349 1351 1349 1348 1348 1338 1334 1334 1334 1334 1346 1365 1374 1374 1374 1371 1366 1364 1352 1346 1344 1334 1334 1334 1352 1371 1374 1376 1377 1390 1390 1390 1388 1381 1381 1381 1381 1381 1381 1375 1372 1372 1372 1372 1373 1373 1373 1373 1375 1390 1419 1449 1472 1478 1479 1479 1479 1480 1481 1481 1481 1481 1480 1480 1480 1483 1487 1489 1489 1491 1492 1492 1493 1495 1496 1496 1496 1493 1493 1493 1493 1493 1493 1493 1489 1487 1484 1477 1477 1477 1477 1483 1494 1505 1515 1521 1524 1526 1533 1539 1539 1539 1539 1539 1539 1547 1557 1558 1561 1563 1563 1570 1581 1581 1581 1563 1562 1560 1549 1545 1545 1545 1559 1573 1573 1573 1572 1572 1572 1571 1571 1571 1571 1571 1571 1571 1571 1570 1570 1570 1570 1570 1570 1567 1564 1564 1564 1564 1564 1564 1559 1555 1555 1554 1552 1552 1552 1550 1546 1539 1528 1522 1518 1516 1514 1514 1516 1523 1534 1534 1534 1526 1526 1526 1531 1531 1531 1527 1520 1508 1485 1473 1460 1448 1435 0 0 0 0 0 0 0 0 0 0 0 0 0 0 1376 1409 1409 1409 1396 1354 1312 0 0 0 1101 1101 1101 1122 1160 1164 1169 1169 1169 1166 1160 1144 1123 1112 1107 1076 1064 1045 1035 1016 973 938 928 915 908 889 889 0 0 0 0 0 0 0 0 0 0 0 0 0 0 0 0 0 0 0 0 0 0 0 0 0 0 0 0 542 542 543 543 545 0 0 0 0 0 0 0 0 0 0 0 0 0 0 0 0 0 0 0 0 399 399 392 391 384 369 0 0 0 0 0 0 0 0 0 0 0 0 0 0 0 0 410 410 410 403 403
0 0 0 0 0 0 0 844 859 875 895 906 908 909 911 911 913 917 924 937 954 973 1003 1029 1065 1097 1139 1167 1187 1191 1204 1215 1227 1242 1259 1275 1292 1305 1310 1322 1330 1336 1345 1353 1357 1363 1369 1376 1381 1385 1395 1407 1420 1426 1432 1438 1445 1452 1454 1458 1460 1465 1468 1470 1472 1474 1474 1481 1486 1486 1487 1488 1487 1486 1486 0 0 0 0 0 0 923 923 931 931 934 936 937 937 937 939 940 941 945 948 949 950 953 954 956 957 959 962 966 968 969 970 971 972 973 973 974 974 975 975 976 977 979 979 980 981 985 988 990 990 991 994 997 998 998 998 1000 1001 1001 1002 1003 1005 1007 1009 1011 1013 1015 1016 1018 1020 1021 1022 1023 1024 1025 1025 1026 1027 1028 1031 1033 1039 1045 1049 1053 1054 1056 1059 1063 1067 1069 1072 1074 1076 1079 1081 1083 1085 1086 1086 1086 1085 1084 1084 1085 1085 1084 1068 1046 1037 1035 1035 1035 1049 1055 1074 1119 1167 1180 1188 1189 1190 1190 1190 1186 1186 1186 1193 1196 1201 1205 1208 1211 1211 1211 1211 1211 1211 1210 1210 1210 1210 1212 1215 1216 1221 1223 1225 1227 1227 1227 1229 1232 1238 1241 1244 1249 1253 1254 1254 1255 1257 1259 1263 1268 1273 1276 1281 1286 1294 1297 1299 1303 1306 1311 1315 1318 1321 1326 1332 1332 1332 1332 1332 1332 1335 1337 1337 1338 1339 1343 1347 1348 1348 1349 1349 1349 1349 1350 1350 1350 1348 1342 1342 1342 1348 1352 1352 1352 1348 1348 1348 1360 1363 1363 1363 1363 1359 1359 1359 1365 1370 1372 1372 1372 1371 1370 1370 1370 1370 1370 1367 1362 1359 1353 1349 1347 1346 1345 1343 1343 1343 1343 1343 1343 1350 1350 1355 1355 1356 1359 1359 1359 1359 1354 1346 1346 1346 1356 1378 1382 1382 1382 1377 1373 1369 1368 1365 1364 1364 1364 1365 1367 1377 1388 1396 1398 1400 1400 1403 1404 1404 1404 1404 1395 1392 1392 1388 1388 1388 1387 1386 1386 1382 1377 1377 1377 1377 1394 1419 1449 1472 1478 1479 1479 1479 1480 1481 1481 1481 1481 1480 1480 1480 1483 1487 1489 1490 1492 1493 1493 1493 1496 1498 1498 1498 1496 1496 1496 1500 1501 1501 1501 1496 1492 1491 1487 1481 1481 1481 1484 1494 1504 1514 1521 1524 1527 1534 1538 1538 1538 1537 1537 1537 1547 1553 1557 1558 1564 1568 1581 1583 1583 1583 1562 1560 1556 1540 1540 1540 1548 1563 1579 1579 1579 1575 1573 1572 1572 1572 1575 1575 1576 1576 1576 1576 1575 1573 1573 1573 1572 1572 1572 1572 1574 1579 1579 1579 1577 1575 1574 1573 1571 1570 1557 1552 1551 1547 1540 1535 1534 1531 1527 1522 1522 1522 1530 1538 1538 1538 1531 1531 1531 1531 1531 1531 1528 1520 1508 1485 1474 1474 1448 0 0 0 0 0 0 0 0 0 0 0 0 0 0 0 0 1423 1423 1423 1374 1340 1317 1315 0 0 1101 1101 1101 1123 1160 1165 1179 1179 1179 1166 1160 1139 1109 1095 1086 1076 1069 1065 1064 1047 0 0 0 0 0 0 0 0 0 0 0 0 0 0 0 0 0 0 0 0 0 0 0 0 0 0 0 0 0 0 0 0 0 0 0 0 542 543 543 0 0 0 0 0 0 0 0 0 0 0 0 0 0 0 0 0 0 0 0 0 0 403 403 392 0 0 0 0 0 0 0 0 0 0 0 0 0 0 0 0 0 0 411 411 411 409 409
0 0 0 0 0 0 825 851 866 887 906 922 922 925 925 925 925 927 941 959 975 992 1009 1029 1063 1097 1139 1162 1183 1188 1203 1215 1228 1242 1259 1275 1292 1305 1310 1322 1330 1335 1342 1346 1357 1363 1369 1376 1382 1388 1398 1407 1420 1426 1431 1440 1446 1452 1455 1458 1462 1465 1469 1472 1472 1476 1476 1481 1487 1487 1488 1489 1490 1490 1490 1470 0 0 0 0 0 929 929 929 931 934 938 942 943 943 943 944 946 948 950 951 952 955 956 957 959 960 964 967 969 971 971 973 974 975 976 977 977 977 978 979 980 980 980 981 982 987 991 993 994 995 995 997 999 1000 1000 1000 1001 1002 1002 1003 1006 1008 1010 1011 1013 1016 1017 1018 1020 1022 1023 1023 1025 1026 1027 1028 1028 1028 1031 1033 1039 1045 1049 1052 1054 1057 1060 1064 1068 1070 1073 1075 1078 1081 1082 1084 1086 1086 1086 1086 1086 1084 1084 1084 1084 1084 1071 1042 1034 1034 1034 1037 1050 1062 1085 1135 1172 1193 1198 1198 1198 1198 1195 1190 1190 1190 1198 1202 1204 1210 1214 1215 1217 1217 1217 1214 1214 1214 1215 1215 1217 1220 1223 1226 1230 1230 1231 1231 1229 1229 1231 1232 1234 1236 1242 1248 1253 1254 1254 1255 1257 1259 1263 1268 1273 1276 1281 1286 1293 1297 1299 1303 1306 1311 1315 1319 1322 1327 1332 1335 1335 1335 1336 1336 1336 1339 1341 1342 1344 1346 1349 1349 1349 1350 1350 1351 1351 1351 1351 1350 1348 1346 1346 1346 1348 1352 1354 1357 1358 1360 1365 1366 1368 1369 1369 1369 1366 1366 1366 1369 1374 1376 1376 1376 1374 1374 1372 1370 1370 1369 1365 1361 1358 1354 1350 1348 1348 1348 1351 1351 1351 1347 1347 1347 1350 1350 1356 1360 1360 1367 1373 1376 1376 1376 1366 1366 1366 1383 1394 1394 1394 1387 1377 1373 1373 1373 1374 1374 1375 1375 1375 1387 1387 1401 1409 1412 1416 1417 1417 1418 1417 1416 1415 1412 1405 1401 1401 1401 1403 1403 1403 1397 1389 1384 1380 1380 1380 1395 1438 1450 1471 1477 1478 1479 1479 1480 1481 1482 1482 1482 1480 1480 1480 1483 1485 1489 1490 1492 1493 1493 1494 1496 1498 1500 1502 1503 1503 1503 1505 1507 1507 1507 1504 1501 1498 1495 1491 1486 1486 1486 1495 1504 1514 1521 1526 1529 1535 1535 1535 1533 1533 1533 1539 1548 1552 1555 1556 1558 1569 1587 1587 1587 1583 1560 1550 1540 1540 1540 1557 1567 1575 1586 1592 1592 1592 1580 1573 1573 1573 1576 1580 1580 1580 1579 1578 1577 1576 1574 1573 1573 1573 1575 1580 1580 1580 1581 1581 1581 1577 1577 1575 1573 1571 1558 1552 1551 1550 1544 1541 1539 1537 1534 1531 1531 1531 1536 1539 1539 1539 1536 1532 1532 1531 1531 1531 1528 1512 1500 1485 1475 1474 0 0 0 0 0 0 0 0 0 0 0 0 0 0 0 0 0 0 1409 1391 1357 1328 1317 1315 0 0 1135 1123 1123 1123 1165 1179 1186 1186 1186 1168 1159 1136 1109 1089 1084 1076 1074 1071 1067 1065 1052 0 0 0 0 0 0 0 0 0 0 0 0 0 0 0 870 844 824 810 796 794 780 748 748 746 745 745 743 726 704 0 0 0 0 0 0 0 0 0 0 0 0 0 0 0 0 0 0 0 0 0 0 0 0 0 0 0 0 0 0 0 0 0 0 0 0 0 0 0 0 0 0 0 0 0 0 0 0 0 0 0 411 417 417 417 417
747 747 761 775 789 810 834 855 875 894 917 935 957 971 971 971 966 966 966 982 1000 1010 1017 1032 1063 1093 1133 1160 1167 1187 1203 1215 1228 1242 1259 1275 1284 1294 1310 1322 1328 1334 1340 1344 1353 1363 1369 1376 1382 1389 1398 1407 1420 1425 1431 1438 1449 1454 1456 1458 1462 1465 1469 1472 1474 1479 1482 1482 1488 1488 1490 1490 1490 1499 1499 1499 0 0 0 0 0 945 935 935 935 940 941 948 948 948 948 948 948 950 951 954 955 957 958 960 961 962 965 968 970 972 974 974 976 977 978 979 979 980 981 982 983 983 984 984 984 989 995 996 996 997 998 1000 1000 1000 1000 1001 1002 1002 1003 1004 1006 1009 1011 1012 1014 1016 1018 1020 1021 1022 1024 1024 1026 1026 1027 1028 1028 1028 1031 1034 1039 1045 1049 1052 1055 1059 1061 1065 1069 1072 1075 1076 1078 1081 1084 1086 1088 1088 1088 1088 1086 1086 1085 1085 1084 1083 1071 1042 1020 1020 1020 1037 1057 1065 1095 1136 1187 1201 1203 1203 1203 1202 1198 1196 1196 1196 1204 1209 1211 1214 1215 1219 1221 1221 1221 1219 1219 1219 1224 1229 1229 1233 1236 1236 1237 1237 1237 1237 1237 1235 1235 1235 1235 1236 1240 1246 1250 1251 1253 1254 1257 1260 1265 1268 1273 1276 1281 1286 1293 1298 1299 1303 1306 1311 1318 1320 1323 1328 1332 1336 1336 1336 1337 1337 1337 1344 1348 1348 1349 1350 1350 1350 1350 1350 1350 1351 1352 1352 1352 1350 1348 1346 1346 1346 1348 1352 1354 1357 1361 1365 1366 1369 1370 1371 1371 1370 1370 1370 1370 1371 1376 1378 1378 1378 1378 1376 1374 1371 1370 1369 1365 1361 1358 1354 1354 1354 1355 1357 1360 1365 1365 1365 1361 1361 1361 1363 1363 1363 1370 1377 1383 1389 1394 1394 1394 1394 1394 1395 1402 1402 1402 1396 1388 1385 1385 1385 1384 1383 1386 1386 1386 1400 1401 1414 1420 1425 1427 1428 1429 1431 1432 1432 1432 1432 1431 1419 1419 1419 1418 1418 1418 1410 1403 1396 1396 1396 1401 1424 1439 1453 1459 1465 1469 1473 1476 1478 1481 1483 1484 1484 1484 1483 1483 1483 1485 1489 1490 1492 1493 1494 1494 1496 1498 1500 1503 1503 1503 1508 1509 1509 1512 1512 1512 1510 1504 1500 1499 1493 1493 1493 1496 1504 1514 1521 1527 1533 1533 1533 1529 1529 1529 1533 1539 1548 1550 1552 1552 1558 1577 1587 1587 1587 1574 1548 1540 1540 1540 1553 1574 1586 1593 1598 1600 1600 1600 1595 1585 1576 1576 1576 1581 1582 1582 1582 1579 1577 1576 1576 1576 1576 1576 1578 1581 1581 1581 1581 1581 1581 1577 1577 1576 1575 1571 1562 1553 1552 1550 1546 1543 1540 1539 1536 1536 1536 1539 1541 1542 1542 1542 1538 1534 1533 1532 1531 1529 1524 1506 1497 1485 1475 1474 0 0 0 0 0 0 0 0 0 0 0 0 0 0 0 0 0 0 0 1353 1319 1317 1315 1308 0 0 1146 1145 1145 1145 1166 1189 1191 1191 1189 1174 1159 1136 1109 1089 1089 1086 1084 1083 1075 1066 1055 1029 0 0 0 0 0 0 0 0 0 0 0 0 906 906 870 844 824 810 796 794 780 758 750 747 746 745 743 726 704 693 0 0 0 0 0 0 0 0 0 0 0 458 458 458 458 0 0 0 0 0 0 0 0 0 0 0 0 0 0 0 0 0 0 0 0 0 0 0 0 0 0 0 0 0 0 0 0 0 0 0 0 422 422 422 422
768 768 777 787 797 816 839 864 882 905 926 955 977 984 984 984 986 986 986 997 1011 1019 1022 1032 1063 1093 1132 1158 1164 1186 1203 1215 1228 1242 1259 1274 1284 1293 1302 1320 1327 1332 1336 1343 1349 1354 1361 1373 1382 1388 1398 1406 1418 1424 1430 1438 1450 1454 1460 1460 1462 1467 1469 1473 1478 1483 1488 1490 1491 1493 1493 1493 1497 1499 1500 1500 1500 0 0 0 0 0 935 935 935 940 941 949 949 949 949 949 950 952 954 955 957 957 960 961 962 964 966 969 971 973 975 976 978 979 980 980 981 983 984 985 986 986 987 987 989 991 996 998 998 998 999 1000 1000 1000 1001 1001 1002 1002 1004 1005 1006 1009 1011 1013 1015 1017 1020 1021 1022 1023 1024 1026 1026 1027 1027 1028 1028 1029 1031 1034 1038 1045 1048 1051 1055 1059 1062 1066 1070 1072 1076 1077 1080 1082 1084 1087 1089 1089 1089 1089 1087 1087 1087 1084 1083 1083 1072 1041 1020 1020 1020 1039 1063 0 0 1177 1190 1206 1207 1207 1207 1209 1207 1207 1207 1209 1213 1215 1215 1216 1216 1220 1224 1226 1226 1227 1229 1231 1235 1238 1239 1241 1241 1243 1243 1244 1244 1244 1244 1241 1238 1236 1236 1236 1240 1245 1249 1250 1253 1254 1257 1261 1265 1268 1273 1273 1277 1284 1292 1298 1301 1303 1309 1312 1318 1321 1325 1328 1332 1337 1342 1347 1349 1350 1351 1351 1351 1351 1351 1351 1351 1351 1350 1350 1350 1351 1352 1352 1352 1350 1348 1346 1346 1346 1347 1350 1353 1357 1363 1368 1371 1372 1373 1373 1373 1373 1373 1373 1375 1375 1376 1379 1381 1381 1381 1379 1377 1373 1370 1369 1365 1361 1358 1357 1357 1357 1361 1362 1364 1365 1368 1370 1377 1377 1377 1377 1377 1377 1382 1386 1389 1401 1408 1408 1408 1402 1402 1402 1414 1426 1426 1426 1417 1404 1404 1404 1402 1402 1404 1406 1409 1423 1423 1424 1427 1437 1441 1441 1441 1441 1441 1444 1450 1450 1450 1446 1443 1440 1437 1434 1430 1423 1419 1416 1416 1416 1418 1429 1444 1453 1459 1465 1469 1473 1475 1476 1480 1485 1488 1488 1488 1486 1485 1485 1485 1489 1493 1493 1493 1494 1494 1496 1498 1500 1503 1503 1505 1509 1510 1511 1514 1516 1516 1516 1509 1503 1502 1501 1500 1500 1500 1505 1515 1522 1528 1534 1534 1534 1529 1529 1529 1534 1544 1548 1550 1552 1552 1559 1577 1586 1586 1586 1572 1542 1542 1542 1543 1566 1583 1594 1599 1603 1603 1603 1603 1596 1591 1583 1582 1582 1582 1584 1584 1584 1579 1578 1577 1576 1576 1576 1577 1579 1581 1582 1582 1582 1582 1581 1579 1579 1578 1577 1571 1565 1561 1554 1552 1549 1544 1541 1540 1537 1537 1537 1541 1542 1543 1543 1543 1541 1539 1537 1533 1531 1528 1521 1505 1496 1485 1480 1480 0 0 0 0 0 0 0 0 0 0 0 0 0 0 0 0 0 0 0 1297 1291 1291 1291 1291 0 0 1178 1164 1164 1164 1172 1189 1194 1194 1189 1177 1155 1136 1109 1109 1109 1093 1093 1093 1079 1068 1058 1029 0 0 0 967 960 960 0 0 0 0 848 906 906 906 874 856 828 810 796 794 780 762 754 751 750 739 737 718 701 693 0 0 0 0 0 0 0 0 0 0 458 458 456 456 456 447 447 0 0 0 0 0 0 463 463 461 0 0 0 0 0 0 0 0 0 0 0 0 0 0 0 0 0 0 0 0 0 0 0 0 0 0 422 422 422
785 785 792 798 807 822 846 867 889 910 933 956 979 984 997 997 997 997 997 1007 1023 1037 1044 1060 1079 1093 1129 1133 1161 1184 1203 1215 1228 1242 1258 1271 1283 1293 1300 1309 1322 1331 1334 1341 1345 1350 1356 1367 1378 1385 1396 1405 1414 1422 1428 1438 1450 1455 1462 1464 1465 1467 1470 1477 1486 1493 1497 1497 1499 1500 1500 1500 1500 1500 1500 1501 1501 0 0 0 0 0 933 933 933 943 944 950 950 950 950 950 950 953 956 956 957 958 961 963 964 966 968 970 972 974 977 978 979 980 981 981 982 985 987 988 989 989 989 990 991 994 996 998 999 999 999 1000 1000 1001 1001 1001 1002 1003 1004 1005 1006 1009 1012 1014 1016 1018 1020 1022 1023 1024 1025 1026 1027 1027 1028 1029 1029 1029 1031 1034 1038 1043 1047 1051 1055 1059 1062 1066 1070 1074 1077 1079 1082 1083 1084 1087 1089 1089 1089 1089 1089 1089 1088 1085 1084 1083 1072 1041 1020 1020 1020 0 0 1121 1156 1181 1194 1208 1213 1217 1217 1217 1217 1212 1212 1212 1217 1217 1217 1218 1218 1223 1228 1233 1236 1236 1238 1242 1244 1247 1247 1248 1247 1248 1249 1249 1250 1250 1250 1247 1244 1242 1240 1240 1240 1245 1249 1250 1253 1254 1257 1261 1265 1266 1268 1272 1276 1283 1290 1297 1302 1308 1310 1312 1318 1321 1326 1330 1333 1338 1343 1349 1352 1355 1355 1355 1353 1353 1353 1352 1352 1352 1351 1351 1351 1351 1352 1352 1352 1350 1348 1346 1346 1345 1345 1346 1351 1357 1363 1370 1378 1382 1383 1384 1386 1386 1386 1377 1376 1376 1376 1380 1382 1383 1383 1383 1379 1375 1372 1370 1366 1362 1361 1361 1361 1362 1368 1369 1370 1371 1379 1387 1390 1390 1390 1390 1390 1390 1393 1393 1397 1408 1416 1416 1416 1417 1417 1420 1428 1434 1436 1436 1436 1434 1427 1424 1420 1420 1420 1422 1433 1433 1434 1434 1436 1446 1448 1448 1448 1447 1447 1447 1457 1459 1460 1460 1460 1459 1457 1451 1441 1432 1432 1432 1437 1438 1438 1441 1447 1453 1459 1465 1469 1473 1475 1476 1480 1485 1489 1491 1491 1491 1493 1495 1497 1497 1497 1496 1495 1495 1495 1496 1498 1500 1504 1508 1508 1510 1511 1511 1515 1523 1523 1523 1512 1507 1506 1506 1507 1507 1508 1509 1518 1523 1529 1535 1535 1535 1529 1529 1529 1540 1547 1550 1552 1552 1552 1566 1577 1577 1577 1567 1558 1541 1541 1541 1556 1566 1584 1596 1602 1605 1605 1605 1605 1599 1596 1592 1588 1588 1588 1588 1588 1585 1581 1579 1579 1579 1579 1579 1580 1581 1582 1582 1582 1582 1582 1581 1579 1579 1578 1577 1573 1568 1565 1559 1557 1551 1546 1543 1541 1541 1541 1541 1543 1543 1543 1543 1543 1543 1541 1538 1533 1530 1525 1514 1504 1490 1483 1480 1468 0 0 0 0 0 0 0 0 0 0 0 0 0 0 0 0 0 0 0 1249 1249 1249 1274 1274 1274 1228 1188 1182 1182 1182 1208 1228 1228 1228 1186 1177 1155 1136 1117 1117 1117 1113 1113 1113 1093 1073 1058 1029 0 0 921 921 921 921 901 0 0 848 848 896 896 896 874 856 828 810 793 782 778 764 754 751 743 715 694 694 693 689 689 683 0 0 0 0 0 0 0 0 460 456 456 456 456 456 461 465 0 0 0 0 460 460 457 448 426 0 0 0 0 0 0 0 0 0 0 0 0 0 0 0 0 0 0 0 0 0 0 0 0 0 0 422 422
796 796 797 800 810 838 864 883 902 922 941 959 979 984 1000 1004 1006 1012 1013 1013 1035 1057 1063 1069 1081 1101 1121 1133 1158 1177 1197 1211 1224 1236 1251 1267 1281 1293 1300 1305 1310 1315 1331 1341 1345 1350 1356 1367 1378 1390 1398 1405 1413 1420 1426 1436 1450 1456 1464 1467 1469 1472 1475 1482 1491 1497 1502 1505 1505 1505 1504 1500 1500 1500 1500 1502 1502 1502 0 0 0 0 942 942 942 943 944 948 949 949 950 950 950 953 956 956 957 958 961 964 966 968 970 971 973 976 978 979 979 982 983 983 985 987 988 990 991 991 991 991 993 994 996 998 999 1000 1000 1000 1001 1001 1001 1001 1003 1004 1005 1005 1007 1010 1012 1014 1016 1018 1020 1022 1024 1025 1026 1027 1028 1028 1029 1030 1030 1031 1032 1035 1038 1043 1046 1050 1053 1058 1063 1068 1073 1075 1078 1080 1083 1084 1085 1088 1089 1090 1090 1091 1091 1092 1092 1092 1084 1083 1072 1041 1026 1026 1026 0 1109 1136 1166 1187 1200 1210 1217 1217 1217 1217 1217 1215 1215 1215 1218 1219 1220 1220 1220 1225 1231 1237 1242 1247 1249 1249 1251 1252 1253 1253 1253 1253 1253 1253 1253 1253 1253 1252 1250 1247 1242 1242 1242 1246 1249 1251 1254 1255 1258 1261 1265 1266 1268 1272 1276 1283 1290 1298 1302 1308 1310 1313 1318 1322 1327 1331 1336 1339 1344 1350 1356 1358 1358 1358 1356 1355 1355 1354 1354 1353 1352 1351 1351 1351 1353 1353 1353 1351 1348 1346 1346 1345 1345 1346 1351 1357 1363 1370 1378 1382 1383 1384 1386 1386 1386 1385 1377 1377 1377 1380 1382 1383 1383 1383 1381 1379 1375 1374 1371 1371 1371 1373 1373 1375 1377 1377 1378 1381 1388 1398 1399 1399 1399 1399 1399 1396 1400 1400 1400 1410 1417 1419 1421 1422 1424 1426 1431 1436 1440 1440 1440 1440 1440 1439 1438 1438 1438 1439 1439 1440 1441 1441 1447 1450 1450 1450 1448 1448 1448 1450 1460 1467 1468 1468 1470 1470 1470 1469 1456 1444 1444 1444 1455 1455 1455 1457 1457 1459 1463 1467 1475 1476 1477 1478 1480 1485 1490 1491 1493 1496 1498 1502 1502 1502 1500 1498 1498 1498 1498 1498 1499 1500 1504 1509 1510 1510 1511 1511 1517 1523 1523 1523 1517 1514 1514 1514 1516 1517 1518 1519 1528 1531 1533 1536 1536 1536 1539 1541 1541 1547 1554 1554 1555 1557 1562 1577 1577 1577 1564 1544 1541 1539 1539 1541 1558 1571 1586 1598 1603 1606 1606 1606 1606 1602 1599 1597 1597 1597 1596 1596 1592 1588 1587 1586 1586 1586 1583 1583 1583 1583 1584 1584 1584 1582 1582 1581 1581 1580 1579 1577 1573 1571 1570 1570 1569 1563 1554 1549 1549 1549 1548 1548 1548 1547 1545 1544 1544 1543 1542 1539 1533 1525 1514 1503 1498 1497 1489 1482 1468 0 0 0 0 0 0 0 0 0 0 0 1224 1236 1257 1289 1289 1289 1270 1262 1249 1249 1249 1268 1268 1268 1242 1193 1193 1193 1209 1223 1230 1230 1230 1182 1177 1155 1136 1117 1117 1117 1128 1128 1128 1128 1094 1058 0 0 0 921 921 921 921 900 869 848 848 848 889 889 889 874 856 828 810 791 778 774 764 751 746 740 715 694 694 693 691 691 691 679 0 0 0 0 0 0 0 460 456 456 456 460 463 463 465 0 0 0 0 460 460 455 433 432 0 0 0 0 0 0 0 0 0 0 0 0 0 0 0 0 0 0 0 0 0 0 0 0 0 0 0 0
803 803 804 808 829 864 886 906 925 941 951 963 979 983 1000 1013 1017 1018 1018 1032 1049 1064 1071 1077 1087 1101 1121 1133 1154 1171 1186 1203 1218 1236 1248 1264 1281 1291 1300 1305 1310 1311 1325 1341 1343 1350 1356 1367 1378 1390 1398 1405 1413 1418 1425 1436 1443 1455 1466 1473 1477 1479 1481 1487 1494 1500 1505 1509 1509 1509 1504 1503 1500 1500 1500 1502 1502 1502 0 0 0 0 967 946 944 944 944 948 949 949 950 950 950 953 956 957 958 958 961 964 967 969 971 972 974 977 979 979 980 982 983 986 986 989 991 991 992 993 993 993 994 995 996 998 999 1000 1000 1001 1001 1002 1002 1003 1004 1005 1005 1006 1008 1010 1012 1015 1017 1018 1021 1022 1024 1026 1027 1028 1029 1029 1029 1030 1031 1031 1033 1036 1038 1042 1045 1049 1053 1058 1063 1069 1073 1077 1080 1082 1084 1086 1089 1090 1091 1091 1091 1093 1093 1095 1095 1095 1088 1084 1073 1041 1027 1027 1027 0 1127 1154 1175 1190 1202 1211 1217 1217 1218 1217 1217 1217 1217 1217 1221 1222 1223 1223 1224 1226 1231 1237 1245 1250 1252 1255 1257 1257 1258 1258 1258 1258 1258 1258 1259 1259 1259 1259 1258 1251 1245 1245 1245 1250 1256 1256 1258 1258 1258 1261 1265 1266 1268 1272 1276 1283 1290 1298 1303 1308 1311 1313 1318 1322 1328 1333 1337 1341 1346 1352 1357 1360 1360 1360 1359 1358 1357 1356 1356 1354 1353 1353 1353 1353 1353 1353 1353 1353 1350 1349 1347 1347 1347 1347 1351 1357 1363 1370 1378 1382 1383 1384 1386 1389 1391 1391 1391 1385 1384 1384 1384 1384 1384 1384 1383 1381 1381 1380 1380 1381 1385 1385 1386 1386 1386 1387 1388 1390 1397 1402 1402 1402 1404 1404 1404 1404 1405 1406 1406 1412 1417 1421 1425 1426 1426 1429 1431 1437 1441 1446 1448 1448 1448 1449 1450 1450 1450 1450 1450 1450 1454 1454 1454 1453 1452 1452 1450 1450 1450 1453 1460 1467 1472 1473 1476 1478 1483 1483 1483 1480 1470 1470 1470 1470 1470 1467 1467 1467 1469 1474 1479 1480 1481 1481 1481 1487 1490 1492 1494 1499 1503 1503 1503 1502 1501 1501 1501 1502 1503 1503 1505 1509 1510 1511 1511 1511 1511 1512 1517 1525 1525 1525 1518 1515 1515 1515 1519 1520 1523 1529 1534 1535 1535 1536 1539 1544 1550 1551 1552 1556 1560 1560 1562 1562 1573 1577 1577 1577 1555 1542 1541 1541 1542 1555 1562 1574 1587 1600 1606 1606 1608 1608 1608 1606 1604 1602 1602 1601 1601 1601 1599 1598 1597 1595 1593 1592 1592 1591 1590 1590 1589 1589 1587 1584 1583 1582 1582 1582 1581 1578 1573 1573 1573 1574 1574 1574 1565 1558 1558 1558 1556 1556 1556 1551 1547 1546 1546 1544 1542 1540 1533 1524 1514 1503 1498 1497 1489 1482 1471 0 0 0 0 0 0 0 0 0 0 1224 1236 1244 1256 1265 1269 1269 1265 1262 1249 1249 1249 1264 1264 1264 1257 1217 1209 1209 1209 1223 1230 1230 1230 1164 1162 1121 1117 1113 1113 1117 1128 1128 1128 1128 1094 0 0 0 921 921 921 921 921 894 869 854 839 835 835 835 872 872 872 850 823 781 774 765 764 751 746 738 715 694 694 693 691 691 691 679 0 0 0 0 0 0 0 458 457 457 458 463 465 465 465 0 0 0 0 0 443 442 429 0 0 0 0 0 0 0 0 0 0 0 0 0 0 0 0 0 0 0 0 0 0 0 0 0 0 0 0 0
