590 590 611 635 662 682 706 731 752 753 786 819 851 881 909 938 964 989 1010 1028 1042 1059 1063 1074 1084 1093 1098 1098 1099 1099 1100 1103 1112 1126 1143 1160 1165 1174 1184 1203 1227 1242 1254 1265 1280 1292 1304 1313 1321 1328 1333 1341 1345 1351 1360 1367 1369 1369 1373 1376 1376 1376 1372 1342 0 0 0 0 884 876 873 873 876 876 876 876 872 870 870 869 868 868 867 867 867 867 867 867 867 867 868 869 870 870 870 869 867 0 0 0 0 0 0 0 0 0 0 0 0 0 0 0 0 0 0 0 0 0 0 0 0 0 0 0 0 0 0 0 0 0 0 0 0 0 0 0 0 0 0 0 0 0 0 0 0 0 0 0 0 0 0 0 0 867 867 864 851 849 847 843 839 832 827 825 821 813 812 812 812 813 813 813 813 813 812 811 811 811 816 826 831 831 831 833 833 834 839 842 842 842 843 845 847 847 850 856 866 878 0 0 0 0 0 0 0 0 0 0 0 0 0 0 0 0 0 0 0 0 0 0 0 0 0 0 0 0 0 0 0 0 0 0 0 0 0 0 902 902 898 898 895 894 894 894 894 894 894 893 892 892 892 894 898 900 900 900 899 897 895 895 895 896 896 896 894 893 893 893 896 897 898 898 898 898 898 892 892 892 898 899 0 0 0 0 0 0 0 0 0 0 0 0 0 0 0 0 0 0 0 0 0 0 0 0 0 0 0 0 0 0 0 0 0 0 0 0 0 906 906 906 905 902 898 895 895 895 895 903 904 904 905 906 907 908 908 908 911 914 917 920 922 924 924 924 923 917 915 915 915 918 922 925 926 928 928 928 926 926 926 927 929 929 930 930 930 928 926 920 912 912 912 916 917 917 916 917 917 917 917 917 916 915 914 914 915 915 915 916 917 917 917 918 920 922 923 924 925 927 928 928 929 932 934 934 938 939 941 941 941 940 940 940 941 943 945 945 945 945 945 946 947 950 950 950 950 949 949 949 949 948 948 948 949 951 952 953 953 952 952 952 952 951 949 949 949 948 947 947 945 941 941 941 941 942 943 944 944 944 941 941 941 942 945 948 949 951 951 951 951 952 954 954 957 960 960 960 961 962 962 964 965 967 971 973 973 976 976 976 974 974 974 977 979 982 982 984 984 984 985 986 986 986 987 988 988 990 994 995 996 996 997 998 999 999 1000 1000 1000 1000 1000 1000 1001 1001 1001 1001 1001 1001 1001 1001 1001 1001 1001 1000 1000 1000 1000 999 998 998 997 997 995 994 994 993 993 990 989 982 974 968 958 935 912 0 0 0 0 0 0 0 0 0 0 0 1067 1071 1089 1089 1122 1154 1161 1161 1163 1161 1161 1161 1152 1149 1149 1149 1150 1155 1164 1177 1182 1185 1192 1192 1192 1181 1175 1168 1159 0 1103 1097 1076 0 0 0 0 0 888 884 868 846 825 791 757 0 0 0 0 0 0 0 0 0 0 0 0 0 0 630 630 630 630 630 643 646 646 646 618 616 603 603 603 603 617 0
597 597 616 638 660 683 709 733 756 760 786 819 851 881 909 938 964 989 1010 1028 1042 1059 1063 1075 1085 1092 1096 1097 1098 1098 1100 1103 1112 1126 1143 1155 1165 1171 1184 1200 1222 1241 1254 1267 1283 1294 1304 1313 1321 1328 1334 1341 1346 1351 1358 1363 1365 1369 1372 1376 1376 1376 1359 1323 0 0 0 0 881 875 873 873 873 875 873 873 871 869 869 869 868 868 866 866 866 866 866 866 866 866 866 869 869 869 869 868 866 0 0 0 0 0 0 0 0 0 0 0 0 0 0 0 0 0 0 0 0 0 0 0 0 0 0 0 0 0 0 0 0 0 0 0 0 0 0 0 0 0 0 0 0 0 0 0 0 0 0 0 0 0 0 0 0 0 867 864 851 849 847 843 837 829 827 825 820 813 810 809 808 809 809 811 811 811 811 811 811 811 813 818 822 827 828 828 829 831 834 835 835 837 839 842 845 845 850 856 864 864 0 0 0 0 0 0 0 0 0 0 0 0 0 0 0 0 0 0 0 0 0 0 0 0 0 0 0 0 0 0 0 0 0 0 0 0 0 0 902 902 900 897 895 894 894 894 894 893 893 893 891 890 890 890 891 891 891 891 891 890 890 890 890 891 893 893 893 889 889 889 890 890 890 889 888 887 886 886 886 889 890 890 0 0 0 0 0 0 0 0 0 0 0 0 0 0 0 0 0 0 0 0 0 0 0 0 0 0 0 0 0 0 0 0 0 0 0 0 0 0 911 911 907 902 898 895 892 892 892 893 893 893 893 893 898 901 903 903 903 901 901 901 906 915 915 915 915 910 909 909 909 912 914 915 917 919 920 920 922 923 924 925 926 929 931 931 931 931 931 928 912 912 912 932 932 932 930 927 926 925 924 924 923 923 923 922 922 922 922 923 924 924 924 924 924 926 927 927 927 927 927 927 929 930 930 930 930 930 930 931 931 931 931 931 931 932 936 936 937 937 939 939 942 943 943 944 944 944 944 944 944 944 944 945 946 949 951 952 952 952 952 952 952 952 951 951 951 951 951 951 951 951 948 948 948 949 949 949 949 948 948 948 948 948 948 948 949 951 954 954 954 954 954 954 954 952 951 951 951 952 952 952 954 957 957 958 959 961 963 963 963 961 961 961 964 966 970 972 972 972 974 974 974 976 979 981 984 987 993 993 994 994 995 996 997 997 998 998 998 998 999 999 999 999 999 999 999 1000 1000 1000 1000 999 999 998 998 998 998 997 995 995 995 995 994 993 992 991 990 985 983 982 974 968 958 939 0 0 0 0 0 0 0 0 0 0 0 0 1096 1096 1096 1096 1122 1154 1156 1161 1166 1162 1161 1161 1153 1153 1153 1154 1156 1157 1173 1190 1190 1192 1192 1192 1192 1188 1188 1179 1175 1153 0 0 0 0 0 0 912 893 888 868 868 846 0 0 0 0 0 0 0 0 0 0 0 0 0 0 0 0 0 678 664 655 653 653 653 661 661 661 626 624 602 602 602 602 617 0
601 601 619 638 660 683 709 733 756 760 788 822 853 883 909 942 967 989 1010 1028 1042 1059 1065 1075 1085 1092 1093 1094 1094 1099 1100 1106 1114 1127 1143 1155 1165 1171 1184 1200 1218 1240 1254 1269 1285 1295 1304 1313 1323 1330 1336 1341 1348 1351 1357 1362 1365 1367 1369 1370 1370 1370 1348 1287 0 0 0 0 886 877 876 875 875 873 873 872 870 868 868 868 868 867 866 865 865 865 865 864 864 865 865 868 868 868 868 868 0 0 0 0 0 0 0 0 0 0 0 0 0 0 0 0 0 0 0 0 0 0 0 0 0 0 0 0 0 0 0 0 0 0 0 0 0 0 0 0 0 0 0 0 0 0 0 0 0 0 0 0 0 0 0 0 0 0 863 863 847 845 843 840 835 828 826 824 819 814 812 810 809 809 809 810 810 810 809 809 809 811 811 813 817 823 825 826 827 829 829 829 830 832 832 841 842 845 849 854 855 855 0 0 0 0 0 0 0 0 0 0 0 0 0 0 0 0 0 0 0 0 0 0 0 0 0 0 0 0 0 0 0 0 0 0 0 0 0 0 0 902 900 899 897 894 894 893 893 893 893 891 888 888 888 888 888 888 890 890 890 890 889 889 889 889 889 889 888 888 888 888 890 890 890 887 883 883 883 883 883 883 883 883 0 0 0 0 0 0 0 0 0 0 0 0 0 0 0 0 0 0 0 0 0 0 0 0 0 0 0 0 0 0 0 0 0 0 0 0 0 0 914 914 910 902 898 895 889 886 886 885 886 886 888 888 888 889 892 895 895 895 889 889 889 894 900 900 900 898 898 898 898 900 901 902 906 908 910 911 911 914 918 921 923 927 930 930 931 933 933 933 0 0 0 932 932 932 930 927 927 927 927 927 927 927 927 928 928 928 927 926 926 926 927 927 927 929 929 929 929 927 927 927 927 927 927 925 924 924 924 924 925 926 926 926 926 926 930 933 935 935 935 934 934 934 934 936 936 937 938 939 940 940 940 940 943 947 947 948 949 952 952 952 953 953 953 952 952 952 953 953 953 953 952 951 951 951 952 952 952 952 952 952 952 952 952 954 955 955 955 955 955 955 955 954 953 949 947 944 944 944 944 944 945 945 945 945 945 945 945 944 944 943 943 943 944 949 954 957 957 957 958 958 960 966 970 971 974 979 984 991 991 992 994 994 995 996 996 996 996 996 997 997 998 998 998 998 998 998 998 998 998 998 998 997 997 996 996 995 994 993 993 993 992 992 990 989 988 985 983 979 974 968 958 944 0 0 0 0 0 731 731 731 0 0 0 0 1138 1138 1122 1122 1122 1150 1151 1156 1163 1167 1167 1167 1158 1158 1158 1168 1173 1179 1191 1191 1192 1192 1192 1192 1187 1187 1187 1176 1176 1162 0 0 0 0 0 927 909 893 888 868 859 0 0 0 0 0 0 0 0 0 0 0 0 0 0 0 0 686 686 686 674 660 653 653 653 670 670 670 635 634 604 604 604 602 614 0
601 601 619 638 659 683 709 733 756 761 788 825 856 884 912 942 967 989 1010 1021 1035 1054 1065 1075 1085 1089 1089 1089 1093 1100 1105 1111 1121 1133 1143 1155 1167 1171 1187 1200 1218 1240 1256 1273 1285 1296 1304 1313 1323 1333 1339 1344 1350 1352 1357 1362 1365 1367 1369 1369 1369 1367 0 0 0 0 0 0 889 887 876 875 873 873 872 871 869 868 867 867 867 867 865 864 864 864 864 864 864 864 864 866 867 868 868 867 0 0 0 0 0 0 0 0 0 0 0 0 0 0 0 0 0 0 0 0 0 0 0 0 0 0 0 0 0 0 0 0 0 0 0 0 0 0 0 0 0 0 0 0 0 0 0 0 0 0 0 0 0 0 0 0 0 0 856 856 847 844 841 839 833 827 824 824 819 814 812 810 809 808 808 808 809 809 810 810 810 811 811 813 815 819 822 825 826 826 826 827 827 827 830 837 841 844 848 849 852 0 0 0 0 0 0 0 0 0 0 0 0 0 0 0 0 0 0 0 0 0 0 0 0 0 0 0 0 0 0 0 0 0 0 0 0 0 0 0 0 899 899 898 897 894 894 893 893 893 893 891 888 886 886 886 887 887 887 887 887 888 888 888 888 888 888 887 887 886 886 886 889 889 889 886 883 883 882 880 880 880 883 883 0 0 0 0 0 0 0 0 0 0 0 0 0 0 0 0 0 0 0 0 0 0 0 0 0 0 0 0 0 0 0 0 0 0 0 0 0 0 914 914 910 908 898 895 892 887 884 883 883 883 883 884 884 885 885 885 885 885 885 884 884 884 887 889 889 889 889 888 888 888 889 889 891 898 902 905 908 910 910 921 922 923 924 927 929 933 933 933 0 0 0 932 932 932 930 930 930 930 930 930 931 931 931 931 931 930 929 927 927 927 928 929 930 931 931 931 929 928 926 926 926 924 922 920 919 919 919 919 919 920 920 920 921 921 921 926 928 928 928 925 925 925 928 928 930 932 934 934 934 934 934 934 936 940 943 945 948 951 952 952 953 953 954 954 954 955 955 955 954 954 954 954 954 954 954 954 954 954 954 954 954 956 956 957 957 958 958 958 958 957 956 955 953 949 944 943 939 936 936 936 936 936 935 935 935 935 935 935 934 933 933 933 933 934 939 945 945 945 946 946 950 952 956 962 963 969 974 980 984 986 990 992 992 993 993 994 994 994 995 996 996 996 997 997 997 997 997 997 997 997 996 995 995 994 994 994 994 992 992 990 990 990 988 988 988 984 982 979 974 969 960 944 0 0 0 0 757 731 731 731 749 0 0 0 1138 1138 1122 1122 1122 1136 1145 1150 1156 1181 1181 1181 1167 1167 1167 1178 1186 1192 1194 1194 1194 1193 1192 1190 1185 1185 1185 1176 1176 1162 0 0 0 0 932 918 901 898 896 868 859 0 0 0 0 0 0 0 0 0 602 602 602 636 637 653 674 686 699 699 699 673 653 653 653 670 670 670 661 638 608 603 603 601 597 0
601 601 619 632 653 676 704 729 752 763 788 825 856 884 912 942 967 988 1005 1018 1032 1050 1064 1071 1082 1085 1088 1089 1092 1101 1109 1118 1127 1144 1154 1163 1173 1178 1191 1203 1218 1240 1261 1274 1285 1296 1304 1314 1323 1333 1339 1344 1350 1353 1357 1362 1365 1367 1368 1368 1368 1362 0 0 0 0 0 889 887 880 874 874 872 872 872 870 868 867 867 867 867 865 863 863 863 863 863 863 863 864 864 0 0 0 0 0 0 0 0 0 0 0 0 0 0 0 0 0 0 0 0 0 0 0 0 0 0 0 0 0 0 0 0 0 0 0 0 0 0 0 0 0 0 0 0 0 0 0 0 0 0 0 0 0 0 0 0 0 0 0 0 0 0 0 855 855 845 842 841 838 830 826 824 822 818 815 812 810 808 807 807 807 807 807 808 808 811 812 813 813 815 818 820 822 824 825 825 825 826 826 830 835 838 839 843 845 845 0 0 0 0 0 0 0 0 0 0 0 0 0 0 0 0 0 0 0 0 0 0 0 0 0 0 0 0 0 0 0 0 0 0 0 0 0 0 0 0 899 899 898 893 891 891 893 893 893 893 891 888 886 886 886 886 887 887 887 887 887 887 888 888 888 887 887 886 886 886 886 886 886 886 883 882 882 881 877 877 877 882 882 0 0 0 0 0 0 0 0 0 0 0 0 0 0 0 0 0 0 0 0 0 0 0 0 0 0 0 0 0 0 0 0 0 0 0 0 0 0 914 914 910 908 901 895 892 888 884 883 882 880 880 880 879 879 879 878 878 878 878 878 879 879 879 880 881 881 882 882 882 879 879 879 882 891 897 900 901 904 907 913 919 920 921 922 929 933 933 935 0 0 0 0 0 0 0 0 0 931 931 933 933 933 932 932 932 931 931 931 931 931 931 932 933 933 933 933 931 929 927 925 924 923 921 919 918 918 916 915 914 914 914 916 918 919 921 925 925 925 923 922 922 922 922 924 926 928 928 928 929 929 929 929 929 934 939 940 945 949 949 951 953 953 954 954 954 956 956 956 956 956 956 956 956 956 956 956 956 956 956 957 957 958 958 959 960 960 960 960 959 958 957 956 953 949 944 942 938 933 930 929 928 926 926 926 926 927 927 927 926 925 924 923 923 923 923 929 934 934 934 936 936 937 941 947 954 958 966 971 975 978 983 985 988 990 991 992 992 993 993 994 994 995 995 995 995 995 995 995 995 995 994 994 993 993 993 992 991 990 990 989 988 987 987 985 984 984 981 979 975 970 961 948 0 0 0 757 752 737 733 733 733 0 0 0 1138 1138 1125 1125 1125 1135 1141 1147 1156 1181 1181 1181 1167 1167 1167 1178 1186 1192 1194 1194 1194 1193 1192 1190 1179 1179 1179 1174 1174 1166 0 0 0 0 914 903 903 901 898 884 859 0 0 0 0 0 0 0 636 619 619 619 625 652 653 672 687 697 706 706 706 673 653 653 653 670 670 670 661 649 628 616 605 585 570 0
601 601 611 625 650 670 691 721 751 778 787 825 856 884 912 938 961 981 999 1014 1031 1047 1058 1068 1080 1085 1087 1088 1091 1101 1109 1124 1137 1154 1163 1170 1176 1181 1194 1206 1221 1242 1263 1276 1286 1297 1305 1314 1323 1333 1339 1345 1352 1357 1360 1362 1365 1365 1365 1365 1361 1349 0 0 0 0 0 889 887 880 873 873 872 871 871 867 867 866 866 866 866 864 861 861 861 862 862 862 863 864 864 0 0 0 0 0 0 0 0 0 0 0 0 0 0 0 0 0 0 0 0 0 0 0 0 0 0 0 0 0 0 0 0 0 0 0 0 0 0 0 0 0 0 0 0 0 0 0 0 0 0 0 0 0 0 0 0 0 0 0 0 0 0 0 853 853 844 841 840 834 827 824 823 821 817 814 812 810 808 807 807 807 806 806 806 808 811 812 812 813 815 817 818 820 822 823 823 823 825 825 829 834 834 835 837 837 837 0 0 0 0 0 0 0 0 0 0 0 0 0 0 0 0 0 0 0 0 0 0 0 0 0 0 0 0 0 0 0 0 0 0 0 0 0 0 0 0 897 897 892 889 888 888 888 890 890 890 890 888 886 886 886 886 886 886 886 887 887 887 887 887 886 886 886 886 885 885 885 885 885 885 883 882 881 880 877 877 877 882 882 0 0 0 0 0 0 0 0 0 0 0 0 0 0 0 0 0 0 0 0 0 0 0 0 0 0 0 0 0 0 0 0 0 0 0 0 0 0 911 911 909 908 902 897 892 888 885 883 881 880 879 877 877 877 877 877 876 875 875 874 874 874 873 872 872 872 872 872 871 871 871 871 880 887 887 888 890 892 905 912 912 0 0 0 0 0 0 0 0 0 0 0 0 0 0 0 0 0 934 934 934 934 934 934 934 935 935 935 935 935 935 935 935 935 935 935 933 930 928 925 924 923 921 919 918 917 916 913 913 913 914 916 917 918 921 921 921 919 919 919 919 919 920 922 923 924 925 925 925 924 924 924 925 930 935 937 940 944 947 949 952 953 954 954 954 956 957 958 958 958 958 958 958 958 958 958 958 959 959 960 960 960 960 960 960 960 960 960 959 959 958 956 953 951 944 942 938 933 929 926 926 921 920 920 920 920 920 920 917 915 915 915 907 907 907 919 926 929 929 929 929 929 930 932 941 946 953 960 967 973 978 982 984 987 988 989 990 991 992 993 993 993 993 993 994 994 994 994 994 994 994 993 992 991 991 990 990 989 988 987 986 986 986 984 983 982 981 980 977 970 963 949 0 0 0 757 752 737 731 731 731 0 0 0 1133 1133 1126 1126 1126 1135 1141 1147 1154 1181 1181 1181 1167 1167 1167 1178 1186 1192 1194 1194 1194 1190 1189 1189 1179 1179 1179 1174 1174 1166 0 0 0 0 901 898 898 898 898 884 859 0 0 0 0 0 619 619 619 623 623 623 639 656 670 693 704 711 711 711 706 675 656 656 656 670 670 670 669 649 632 632 613 582 558 0
592 592 605 621 648 665 686 714 748 778 0 0 852 878 903 928 950 973 993 1012 1028 1043 1057 1060 1074 1083 1087 1087 1091 1101 1109 1124 1141 1160 1168 1174 1181 1186 1198 1214 1231 1249 1267 1278 1287 1297 1305 1315 1323 1331 1339 1345 1353 1359 1363 1364 1365 1365 1365 1365 1361 1343 0 0 0 0 0 882 882 875 872 872 871 868 867 865 865 865 865 865 865 863 861 861 861 861 861 862 862 863 863 0 0 0 0 0 0 0 0 0 0 0 0 0 0 0 0 0 0 0 0 0 0 0 0 0 0 0 0 0 0 0 0 0 0 0 0 0 0 0 0 0 0 0 0 0 0 0 0 0 0 0 0 0 0 0 0 0 0 0 0 0 0 0 859 855 844 841 839 833 826 820 818 817 814 814 812 810 808 807 807 806 806 806 806 808 810 812 812 813 815 817 818 819 821 822 823 823 823 824 828 833 833 833 836 836 836 0 0 0 0 0 0 0 0 0 0 0 0 0 0 0 0 0 0 0 0 0 0 0 0 0 0 0 0 0 0 0 0 0 0 0 0 0 0 0 0 897 897 887 887 887 888 888 890 890 890 890 889 888 887 886 886 886 886 886 886 886 886 886 886 886 886 885 885 885 884 884 884 883 883 883 881 880 877 875 875 875 882 882 0 0 0 0 0 0 0 0 0 0 0 0 0 0 0 0 0 0 0 0 0 0 0 0 0 0 0 0 0 0 0 0 0 0 0 0 0 0 911 911 908 908 902 899 892 888 885 882 881 880 878 876 876 875 874 873 872 871 871 871 871 871 870 869 868 867 867 867 867 868 868 869 875 876 878 878 878 889 897 908 908 0 0 0 0 0 0 0 0 0 0 0 0 0 0 0 0 0 0 935 934 934 934 934 937 940 940 940 940 940 939 938 937 937 937 937 936 933 929 925 924 923 922 919 916 915 915 913 912 912 912 912 913 915 917 917 917 915 915 915 915 915 916 917 917 918 919 920 921 921 921 922 923 927 930 933 937 940 942 947 951 952 953 953 954 956 957 958 958 958 958 959 959 959 960 960 960 960 961 961 961 961 961 961 961 961 961 960 960 959 958 956 953 951 944 941 937 932 926 923 921 918 917 916 915 915 914 911 909 909 909 909 906 906 906 912 917 920 924 924 926 926 927 927 932 939 946 953 963 971 977 980 983 984 986 988 989 990 991 991 991 992 992 992 993 993 993 993 993 992 991 991 991 990 989 989 989 988 987 986 985 985 984 983 981 980 980 980 977 977 976 967 0 0 0 757 752 738 735 734 734 0 0 0 0 1119 1119 1122 1126 1126 1137 1150 1153 1163 1165 1165 1165 1165 1165 1178 1182 1182 1184 1182 1182 1180 1180 1180 1176 1176 1176 1176 1176 1166 0 0 0 0 899 896 896 896 896 884 0 0 0 0 0 619 619 634 636 636 636 637 656 661 682 706 710 719 719 719 711 687 687 682 680 679 679 670 669 649 632 632 613 0 556 0
587 587 599 616 639 660 684 714 0 0 0 0 846 869 894 916 939 962 986 1008 1024 1038 1051 1054 1068 1077 1080 1085 1085 1098 1107 1124 1147 1165 1171 1176 1186 1201 1206 1221 1240 1259 1270 1279 1288 1297 1305 1315 1323 1331 1339 1346 1355 1360 1363 1366 1366 1366 1366 1365 1360 0 0 0 0 0 0 879 876 875 875 871 867 867 867 865 864 864 864 863 863 861 861 861 860 860 860 861 862 863 863 0 0 0 0 0 0 0 0 0 0 0 0 0 0 0 0 0 0 0 0 0 0 0 0 0 0 0 0 0 0 0 0 0 0 0 0 0 0 0 0 0 0 0 0 0 0 0 0 0 0 0 0 0 0 0 0 0 0 0 0 0 0 857 857 851 840 839 837 832 825 819 816 815 813 812 810 808 807 806 806 806 806 806 806 808 810 812 812 813 814 816 817 819 821 822 822 822 823 823 827 832 833 833 833 836 836 0 0 0 0 0 0 0 0 0 0 0 0 0 0 0 0 0 0 0 0 0 0 0 0 0 0 0 0 0 0 0 0 0 0 0 0 0 0 0 0 895 895 886 886 886 888 888 890 890 890 890 889 888 887 887 886 886 885 885 885 885 885 885 885 885 884 884 883 883 882 882 882 882 881 880 880 878 875 874 874 874 881 881 0 0 0 0 0 0 0 0 0 0 0 0 0 0 0 0 0 0 0 0 0 0 0 0 0 0 0 0 0 0 0 0 0 0 0 0 0 0 911 911 907 903 902 899 893 889 885 882 881 880 878 876 875 874 871 869 867 867 867 867 867 867 865 864 864 864 866 867 867 867 867 869 871 873 873 874 877 888 894 901 901 0 0 0 0 0 0 0 0 0 0 0 0 0 0 0 0 0 0 0 934 935 935 941 941 941 941 941 941 941 941 940 940 940 940 940 939 936 930 925 925 924 922 919 916 915 914 913 911 910 909 909 909 909 912 912 912 912 912 911 911 912 912 912 912 913 913 914 915 917 918 920 921 923 929 933 937 940 941 945 949 951 951 953 953 955 957 958 958 959 959 959 960 960 960 961 961 961 962 962 962 963 963 963 963 962 962 962 962 959 958 956 955 952 946 941 936 933 926 922 920 915 914 913 912 911 909 906 906 906 904 904 905 905 905 906 909 914 919 923 923 923 924 924 929 937 940 943 955 966 975 980 980 981 983 985 987 988 989 989 990 990 991 991 991 991 991 991 991 991 990 990 989 989 988 988 988 987 987 986 985 984 984 983 981 980 980 980 977 977 976 971 0 0 0 776 766 743 736 735 735 0 0 0 0 0 1119 1122 1126 1126 1137 1148 1150 1154 1154 1154 1153 1153 1153 1168 1168 1168 1160 1160 1160 1162 1165 1169 1172 1180 1192 1192 1192 1166 0 0 0 0 897 895 895 895 895 0 0 0 0 0 0 619 619 637 658 658 661 662 662 670 689 711 717 719 719 719 713 712 712 712 712 712 701 672 670 649 632 632 613 0 556 0
587 587 598 610 631 654 676 0 0 0 0 800 831 857 882 904 928 955 980 1003 1020 1033 1045 1051 1061 1070 1076 1077 1082 1094 1107 1124 1147 1165 1171 1178 1190 1207 1211 1230 1248 1262 1274 1282 1290 1298 1307 1317 1323 1331 1339 1347 1355 1361 1363 1366 1367 1369 1369 1369 1359 0 0 0 0 0 879 876 876 874 870 869 866 864 864 864 863 862 861 861 861 861 861 860 860 858 858 858 861 863 863 0 0 0 0 0 0 0 0 0 0 0 0 0 0 0 0 0 0 0 0 0 0 0 0 0 0 0 0 0 0 0 0 0 0 0 0 0 0 0 0 0 0 0 0 0 0 0 0 0 0 0 0 0 0 0 0 0 0 0 0 0 0 851 851 849 837 837 836 831 823 819 816 815 813 811 808 806 806 805 805 805 805 806 806 808 810 810 811 813 814 816 817 819 820 821 822 822 822 823 827 831 831 833 835 836 836 0 0 0 0 0 0 0 0 0 0 0 0 0 0 0 0 0 0 0 0 0 0 0 0 0 0 0 0 0 0 0 0 0 0 0 0 0 0 0 0 895 895 889 889 889 893 893 893 891 890 889 889 888 887 887 886 886 885 884 884 884 884 884 884 883 883 882 882 881 881 880 879 878 878 878 876 875 872 872 872 873 881 881 0 0 0 0 0 0 0 0 0 0 0 0 0 0 0 0 0 0 0 0 0 0 0 0 0 0 0 0 0 0 0 0 0 0 0 0 0 0 910 910 905 902 899 899 894 889 884 882 881 880 877 875 873 871 868 865 863 863 863 863 863 863 861 861 861 862 864 866 866 866 867 867 869 871 871 873 874 882 891 899 899 0 0 0 0 0 0 0 0 0 0 0 0 0 0 0 0 0 0 0 0 0 0 942 942 942 942 941 941 941 941 940 940 940 940 940 940 937 932 928 926 926 923 919 916 914 912 912 910 910 907 907 907 907 910 910 910 910 910 910 909 909 909 909 909 910 910 911 912 914 916 918 920 921 928 932 936 937 939 942 947 949 950 952 953 955 956 958 958 959 959 959 960 960 961 961 961 962 962 962 963 963 963 963 963 963 963 963 962 960 959 957 955 952 947 941 936 933 926 921 916 913 911 910 909 909 907 903 903 903 902 902 901 901 901 901 905 909 912 915 915 915 916 916 923 933 937 942 951 962 971 973 975 979 982 983 984 986 987 988 988 988 989 990 990 990 990 989 989 989 989 988 988 988 987 987 987 986 986 985 984 984 983 982 981 979 977 977 976 976 976 976 0 0 0 0 774 750 741 738 738 741 0 0 0 0 1112 1114 1114 1125 1137 1145 1145 1145 1146 1146 1143 1143 1147 1144 1144 1153 1152 1152 1153 1158 1163 1165 1169 1180 1192 1192 1192 1166 0 0 0 0 895 892 883 883 883 0 0 0 0 0 0 637 637 637 658 685 685 685 685 685 690 713 719 722 722 721 721 720 719 717 716 712 701 685 671 646 622 619 0 0 553 0
580 580 593 610 630 642 663 0 0 0 0 788 818 847 868 894 917 947 977 998 1013 1027 1040 1048 1055 1063 1069 1074 1078 1091 1105 1124 1147 1165 1171 1178 1192 1210 1216 1233 1252 1265 1275 1283 1291 1298 1309 1317 1325 1332 1340 1347 1355 1361 1363 1366 1367 1369 1369 1369 1359 0 0 0 0 0 876 874 874 874 868 866 866 863 863 863 862 861 861 860 860 860 860 860 860 858 858 858 859 862 862 0 0 0 0 0 0 0 0 0 0 0 0 0 0 0 0 0 0 0 0 0 0 0 0 0 0 0 0 0 0 0 0 0 0 0 0 0 0 0 0 0 0 0 0 0 0 0 0 0 0 0 0 0 0 0 0 0 0 0 0 0 0 853 849 847 837 836 836 828 823 817 815 815 811 809 808 806 805 805 805 805 805 806 806 808 809 810 811 813 814 815 817 818 819 820 822 822 822 824 826 828 829 836 844 846 846 0 0 0 0 0 0 0 0 0 0 0 0 0 0 0 0 0 0 0 0 0 0 0 0 0 0 0 0 0 0 0 0 0 0 0 0 0 0 0 0 0 890 890 890 893 893 893 893 890 890 889 888 888 887 887 886 885 884 884 883 883 883 882 882 882 882 881 881 879 879 878 877 876 876 875 872 872 870 870 870 870 874 874 0 0 0 0 0 0 0 0 0 0 0 0 0 0 0 0 0 0 0 0 0 0 0 0 0 0 0 0 0 0 0 0 0 0 0 0 0 0 908 908 905 902 897 896 893 889 883 882 881 879 877 875 872 869 864 862 862 861 861 861 861 861 861 861 861 861 863 864 866 866 866 866 866 869 870 871 874 882 891 895 895 0 0 0 0 0 0 0 0 0 0 0 0 0 0 0 0 0 0 0 0 0 0 942 0 0 0 0 0 0 941 940 940 940 940 940 940 937 933 930 927 927 923 919 914 912 912 912 910 909 907 907 907 907 908 909 909 909 909 909 908 908 907 906 906 907 908 909 910 911 913 915 916 916 923 927 932 934 935 939 944 946 949 951 953 955 956 957 958 959 959 959 960 961 961 961 961 962 962 962 963 963 963 963 964 964 964 963 962 960 959 957 956 953 948 941 936 933 926 919 916 913 911 910 908 908 905 902 901 901 901 899 897 897 897 899 902 906 908 909 909 910 911 912 918 926 933 939 946 956 963 968 970 975 979 981 982 983 985 986 987 987 987 988 988 988 988 988 988 988 988 988 987 987 986 986 985 985 984 984 983 983 983 981 981 978 977 977 976 976 976 976 969 0 0 0 778 763 743 741 741 741 0 0 0 0 1098 1114 1114 1117 1132 1133 1142 1142 1141 1141 1128 1128 1128 1135 1139 1144 1144 1152 1153 1158 1161 1164 1165 1180 1192 1192 1192 1161 1122 0 0 0 892 891 891 883 865 0 0 0 0 0 665 651 651 651 658 685 685 688 688 694 707 713 713 721 721 721 721 721 721 717 717 716 701 685 671 0 0 0 0 548 540 0
570 570 581 599 622 642 662 681 709 738 761 779 809 837 859 884 911 943 970 989 1003 1019 1033 1046 1049 1058 1063 1068 1073 1090 1105 1124 1148 1165 1171 1180 1195 1212 1218 1234 1254 1266 1276 1285 1291 1301 1314 1319 1325 1332 1341 1347 1355 1361 1363 1365 1367 1370 1370 1370 1355 0 0 0 0 0 876 875 874 874 866 866 865 863 862 862 861 860 860 860 859 859 859 859 859 858 0 0 0 860 861 0 0 0 0 0 0 0 0 0 0 0 0 0 0 0 0 0 0 0 0 0 0 0 0 0 0 0 0 0 0 0 0 0 0 0 0 0 0 0 0 0 0 0 0 0 0 0 0 0 0 0 0 0 0 0 0 0 0 0 0 0 851 851 847 843 836 828 827 827 822 817 815 814 811 809 806 805 805 803 803 803 804 804 806 806 807 809 811 812 814 815 817 817 818 820 821 822 823 824 825 827 829 836 844 846 0 0 0 0 0 0 0 0 0 0 0 0 0 0 0 0 0 0 0 0 0 0 0 0 0 0 0 0 0 0 0 0 0 0 0 0 0 0 0 0 0 0 884 890 890 893 893 893 893 890 890 889 887 887 887 887 886 885 884 884 883 882 882 881 880 880 880 879 879 878 877 877 876 876 875 873 870 870 870 869 869 870 870 870 0 0 0 0 0 0 0 0 0 0 0 0 0 0 0 0 0 0 0 0 0 0 0 0 0 0 0 0 0 0 0 0 0 0 0 0 0 0 0 907 905 897 895 893 891 889 882 880 880 878 876 873 870 866 864 862 861 860 859 859 859 859 859 860 860 860 861 862 864 865 865 866 866 868 870 870 874 880 889 895 895 0 0 0 0 0 0 0 0 0 0 0 0 0 0 0 0 0 0 0 0 0 939 942 0 0 0 0 0 0 0 939 939 940 941 941 941 939 933 928 927 927 923 918 913 912 911 911 910 909 907 906 906 906 907 908 908 908 908 906 906 906 906 906 906 906 906 906 907 907 908 910 910 911 912 917 925 932 934 939 943 946 948 950 951 954 956 957 958 959 959 959 960 961 961 961 961 962 962 962 963 963 963 964 964 964 964 963 962 961 959 958 956 953 949 941 935 933 927 919 916 913 911 910 908 907 905 902 901 900 899 896 895 895 895 898 900 903 904 904 905 905 905 905 909 918 927 930 934 945 954 961 968 971 974 978 979 981 983 985 985 986 986 986 986 986 986 986 986 986 986 986 986 985 985 985 984 984 984 983 983 982 981 981 980 978 977 975 975 975 975 975 974 0 0 0 781 765 751 746 746 746 0 0 0 0 0 1083 1112 1113 1127 1131 1133 1139 1139 1139 1128 1128 1128 1135 1139 1144 1144 1152 1153 1158 1160 1164 1165 1171 1171 1171 1169 1146 1120 0 0 0 0 891 890 868 0 0 0 743 721 706 682 667 667 667 671 689 689 691 694 695 719 719 719 709 709 709 721 721 721 717 707 693 686 685 671 0 0 0 0 533 533 0
564 564 581 599 614 630 656 681 700 728 760 765 798 820 840 861 890 919 957 978 991 1004 1027 1039 1043 1052 1057 1062 1066 1084 1106 1125 1148 1165 1174 1186 1201 1214 1229 1234 1254 1269 1278 1286 1294 1305 1314 1319 1325 1332 1341 1347 1354 1359 1363 1365 1367 1371 1371 1371 0 0 0 0 0 896 876 875 867 867 866 865 864 862 862 861 861 859 859 858 858 857 857 857 857 856 0 0 0 860 861 861 0 0 0 0 0 0 0 0 0 0 0 0 0 0 0 0 0 0 0 0 0 0 0 0 0 0 0 0 0 0 0 0 0 0 0 0 0 0 0 0 0 0 0 0 0 0 0 0 0 0 0 0 0 0 0 0 0 0 0 0 845 845 843 843 832 827 827 824 821 818 814 813 811 808 805 804 803 803 803 803 803 803 804 805 807 809 810 812 813 815 816 817 818 819 821 822 823 823 824 825 828 836 844 844 0 0 0 0 0 0 0 0 0 0 0 0 0 0 0 0 0 0 0 0 0 0 0 0 0 0 0 0 0 0 0 0 0 0 0 0 0 0 0 0 0 0 886 889 889 892 892 892 891 890 889 889 887 887 886 886 886 885 884 883 882 882 881 880 879 879 878 878 877 877 876 876 875 875 874 872 870 870 870 870 870 870 872 870 0 0 0 0 0 0 0 0 0 0 0 0 0 0 0 0 0 0 0 0 0 0 0 0 0 0 0 0 0 0 0 0 0 0 0 0 0 0 0 0 899 898 893 892 890 889 882 880 879 877 874 871 868 865 863 862 860 859 858 857 857 857 858 858 859 859 860 861 862 864 864 864 864 866 869 870 871 877 889 895 895 0 0 0 0 0 0 0 0 0 0 0 0 0 0 0 0 0 0 0 0 0 941 941 0 0 0 0 0 0 0 0 0 0 941 941 941 939 933 928 928 927 922 918 912 912 911 911 910 909 907 906 906 906 907 907 907 907 905 905 905 905 905 905 905 905 905 905 905 906 906 908 910 910 910 917 923 928 933 937 941 944 946 948 950 952 954 955 957 957 958 959 959 960 961 961 961 962 962 962 963 963 963 964 964 964 963 963 962 961 959 958 956 954 949 942 935 933 928 919 916 914 912 910 908 907 904 901 900 900 897 895 892 892 892 894 897 898 899 900 900 900 901 901 904 913 921 925 930 943 952 959 965 970 973 976 978 979 981 983 983 984 984 984 984 984 985 985 985 985 985 985 984 984 983 983 983 983 983 982 982 982 981 980 979 978 977 975 975 974 974 974 972 0 0 0 0 778 774 746 746 0 0 0 0 0 0 0 1105 1112 1115 1117 1119 1139 1139 1139 1128 1128 1128 1135 1139 1157 1158 1158 1161 1161 1161 1158 1159 1156 1154 1154 1151 1138 1114 0 0 0 0 0 0 0 0 0 761 743 721 706 690 676 676 676 687 695 695 695 696 701 732 732 732 707 707 707 710 712 712 712 687 673 668 665 664 0 0 0 532 531 531 0
564 564 581 599 614 628 648 673 700 727 742 746 778 807 829 852 880 903 932 968 982 995 1013 1032 1035 1046 1052 1057 1060 1075 1106 1128 1148 1169 1182 1193 1206 1217 1229 1234 1255 1270 1281 1289 1296 1306 1315 1320 1325 1332 1341 1347 1353 1358 1363 1365 1368 1368 1368 1363 0 0 0 0 914 875 873 870 866 866 866 863 862 861 860 860 860 858 857 857 857 856 856 856 856 856 856 856 856 858 859 860 862 0 0 0 0 0 0 0 0 0 0 0 0 0 0 0 0 0 0 0 0 0 0 0 0 0 0 0 0 0 0 0 0 0 0 0 0 0 0 0 0 0 0 0 0 0 0 0 0 0 0 0 0 0 0 0 0 0 0 0 849 849 843 841 832 826 825 824 821 817 814 812 811 808 805 804 802 802 802 802 803 803 804 805 807 809 810 811 813 814 814 816 817 819 821 822 822 823 823 824 826 832 839 839 0 0 0 0 0 0 0 0 0 0 0 0 0 0 0 0 0 0 0 0 0 0 0 0 0 0 0 0 0 0 0 0 0 0 0 0 0 0 0 0 0 0 887 888 888 888 888 888 888 887 887 887 886 886 885 885 885 884 883 882 882 881 880 879 879 878 877 876 876 875 875 875 874 873 873 872 870 870 870 870 870 870 872 870 0 0 0 0 0 0 0 0 0 0 0 0 0 0 0 0 0 0 0 0 0 0 0 0 0 0 0 0 0 0 0 0 0 0 0 0 0 0 0 0 898 898 893 891 890 889 882 880 877 874 872 869 866 864 862 860 859 858 857 856 856 856 856 857 858 858 859 859 861 861 862 862 863 863 866 869 870 877 889 894 894 0 0 0 0 0 0 0 0 0 0 0 0 0 0 0 0 0 0 0 0 0 0 940 0 0 0 0 0 0 0 0 0 0 0 941 941 939 933 930 928 927 922 918 912 912 911 911 910 908 906 906 906 906 906 906 906 906 905 904 904 904 905 905 905 904 904 904 905 905 906 908 909 909 910 917 922 925 929 933 936 940 944 946 949 951 952 953 955 956 957 957 959 959 959 960 961 961 962 962 963 963 963 963 963 963 963 963 962 961 959 958 956 954 949 943 935 935 932 921 916 914 912 910 908 906 904 901 899 897 896 893 890 890 890 890 892 893 894 896 897 898 898 899 899 907 918 918 923 939 950 953 959 965 971 974 976 977 980 981 982 982 983 983 983 983 983 983 983 983 984 984 984 983 983 983 982 982 982 981 981 980 979 979 978 978 977 975 973 973 973 973 971 0 0 0 0 0 0 0 0 0 0 0 0 0 0 0 1098 1101 1103 1113 1118 1128 1138 1138 1138 1140 1141 1141 1156 1158 1170 1170 1170 1168 1161 1161 1153 1144 1136 1134 1131 1122 0 0 0 0 0 0 0 0 0 0 741 725 719 706 698 698 694 696 696 696 696 696 696 723 735 735 735 707 699 699 699 705 705 705 670 649 645 641 636 0 0 0 520 502 520 0
564 564 582 598 614 627 643 663 689 716 742 746 771 802 823 846 876 898 920 941 969 995 1012 1026 1033 1037 1043 1046 1056 1075 1109 1128 1148 1169 1186 1197 1207 1217 1229 1234 1256 1272 1283 1289 1296 1307 1315 1320 1325 1330 1339 1346 1352 1358 1362 1366 1366 1366 1363 0 0 0 0 0 892 875 873 866 866 866 863 862 860 860 859 859 858 857 856 855 855 855 855 855 855 856 857 857 857 858 858 859 860 0 0 0 0 0 0 0 0 0 0 0 0 0 0 0 0 0 0 0 0 0 0 0 0 0 0 0 0 0 0 0 0 0 0 0 0 0 0 0 0 0 0 0 0 0 0 0 0 0 0 0 0 0 0 0 0 0 0 0 845 845 839 837 831 826 823 823 819 817 814 812 810 806 804 802 802 802 802 802 803 803 804 805 806 808 809 810 812 813 814 815 816 819 821 821 821 821 820 820 820 825 836 836 0 0 0 0 0 0 0 0 0 0 0 0 0 0 0 0 0 0 0 0 0 0 0 0 0 0 0 0 0 0 0 0 0 0 0 0 0 0 0 0 0 0 885 886 887 887 887 886 885 885 885 885 885 885 884 883 883 883 882 881 881 880 879 878 877 876 876 874 874 874 874 873 872 872 871 871 870 870 870 870 870 870 872 875 0 0 0 0 0 0 0 0 0 0 0 0 0 0 0 0 0 0 0 0 0 0 0 0 0 0 0 0 0 0 0 0 0 0 0 0 0 0 0 0 898 898 893 890 889 889 882 880 875 873 870 867 864 862 861 859 858 856 856 856 855 855 856 856 856 857 857 858 858 859 860 860 860 861 864 867 868 870 874 886 886 0 0 0 0 0 0 0 0 0 0 0 0 0 0 0 0 0 0 0 0 0 0 0 0 0 0 0 0 0 0 0 0 0 0 0 939 939 933 930 928 926 922 918 913 911 911 911 910 908 906 906 905 905 905 906 906 906 904 904 904 904 904 904 904 904 904 904 904 905 906 907 908 908 910 916 921 925 927 930 933 937 942 946 949 950 951 953 954 955 956 957 958 958 959 959 960 960 961 961 962 962 963 963 963 963 963 962 961 961 959 958 956 954 951 945 939 936 933 927 920 915 912 911 908 906 904 899 896 894 893 892 889 888 888 888 889 890 892 894 896 896 897 897 897 903 911 914 918 934 943 945 951 958 965 969 971 974 977 978 979 980 981 981 982 982 982 983 983 983 983 982 982 982 982 982 982 981 981 980 980 979 978 977 977 977 976 975 973 972 970 970 967 952 0 0 0 0 0 0 0 0 0 0 0 0 0 0 1073 1081 1099 1100 1105 1117 1132 1140 1145 1146 1150 1161 1175 1176 1185 1185 1185 1185 1172 1161 1153 1144 1130 1120 1114 1098 0 0 0 0 0 0 0 0 0 0 727 723 718 706 702 700 698 698 700 700 698 701 719 723 737 737 737 709 696 694 694 689 684 684 654 640 637 637 625 0 0 0 514 502 514 0
564 564 582 600 614 627 643 663 685 713 738 746 771 792 816 844 876 898 918 939 968 992 1011 1026 1033 1037 1039 1042 1056 1075 1109 1128 1148 1169 1186 1197 1209 1217 1230 1236 1258 1275 1284 1290 1296 1307 1315 1321 1325 1330 1337 1344 1351 1358 1362 1366 1366 1366 1355 0 0 0 0 0 888 874 868 863 862 862 861 860 858 858 857 857 856 856 855 855 855 855 855 855 855 855 856 857 857 857 857 858 857 0 0 0 0 0 0 0 0 0 0 0 0 0 0 0 0 0 0 0 0 0 0 0 0 0 0 0 0 0 0 0 0 0 0 0 0 0 0 0 0 0 0 0 0 0 0 0 0 0 0 0 0 0 0 0 0 0 0 0 844 844 836 831 829 826 823 822 818 816 814 812 809 806 804 802 802 801 801 801 802 803 804 805 806 807 808 809 810 812 813 815 816 817 819 820 820 820 820 820 820 825 835 835 0 0 0 0 0 0 0 0 0 0 0 0 0 0 0 0 0 0 0 0 0 0 0 0 0 0 0 0 0 0 0 0 0 0 0 0 0 0 0 0 0 0 886 887 887 887 887 883 883 883 883 884 884 884 883 882 882 882 881 881 880 878 877 876 875 875 874 873 873 872 872 872 871 871 870 870 870 870 870 870 870 871 872 875 0 0 0 0 0 0 0 0 0 0 0 0 0 0 0 0 0 0 0 0 0 0 0 0 0 0 0 0 0 0 0 0 0 0 0 0 0 0 0 0 897 897 892 890 888 888 881 879 872 869 867 865 863 861 859 858 857 856 855 855 854 854 854 855 856 856 856 857 857 858 859 859 859 861 864 864 865 867 869 876 876 0 0 0 0 0 0 0 0 0 0 0 0 0 0 0 0 0 0 0 0 0 0 0 0 0 0 0 0 0 0 0 0 0 0 0 0 936 933 930 929 925 922 918 914 911 911 911 910 907 906 906 905 904 904 904 904 904 904 904 904 903 903 903 903 903 903 903 904 904 904 905 907 908 910 916 920 924 926 927 929 935 941 944 947 949 951 953 954 954 956 957 957 958 958 959 959 960 960 961 961 961 961 962 962 961 961 961 960 960 959 958 956 954 952 948 945 939 934 929 922 915 913 911 909 907 902 898 896 893 892 891 889 888 888 888 888 889 890 892 894 894 894 894 895 897 905 908 913 927 938 943 948 953 957 966 970 971 974 975 977 978 979 980 980 980 980 981 981 981 981 981 981 981 981 981 981 980 979 979 979 978 978 977 976 976 975 975 973 972 969 968 966 954 940 0 0 0 0 0 0 0 0 0 0 0 0 0 1071 1074 1081 1084 1091 1099 1118 1136 1149 1157 1166 1180 1191 1191 1203 1203 1203 1191 1176 1163 1153 1144 1128 1118 1102 0 0 0 0 0 0 0 0 0 0 734 726 722 715 707 706 702 702 706 707 709 709 710 723 725 741 741 741 712 699 694 689 683 682 671 654 640 637 637 625 0 0 0 495 487 487 0
564 564 585 600 614 627 643 663 685 713 738 759 769 791 815 842 870 896 917 939 967 991 1007 1023 1031 1036 1039 1041 1056 1078 1109 1127 1147 1168 1186 1200 1210 1219 1236 1241 1259 1276 1285 1292 1300 1310 1318 1323 1325 1330 1337 1343 1350 1358 1362 1366 1366 1366 1349 0 0 0 0 0 876 872 864 862 862 862 859 858 856 856 856 856 855 854 854 853 853 853 853 853 855 855 857 858 858 858 857 858 856 0 0 0 0 0 0 0 0 0 0 0 0 0 0 0 0 0 0 0 0 0 0 0 0 0 0 0 0 0 0 0 0 0 0 0 0 0 0 0 0 0 0 0 0 0 0 0 0 0 0 0 0 0 0 0 0 0 0 0 843 843 829 829 826 822 820 817 814 814 813 811 809 805 803 802 802 801 801 801 802 803 804 805 806 807 807 808 809 811 812 814 815 816 818 819 819 819 819 819 819 825 835 835 0 0 0 0 0 0 0 0 0 0 0 0 0 0 0 0 0 0 0 0 0 0 0 0 0 0 0 0 0 0 0 0 0 0 0 0 0 0 0 0 0 0 885 886 887 887 885 882 882 882 882 883 883 883 883 882 882 881 881 879 878 877 876 876 875 874 873 872 872 871 871 871 870 870 869 869 869 870 870 870 870 870 872 872 0 0 0 0 0 0 0 0 0 0 0 0 0 0 0 0 0 0 0 0 0 0 0 0 0 0 0 0 0 0 0 0 0 0 0 0 0 0 0 0 893 893 892 888 886 886 881 874 871 869 867 865 863 861 858 857 856 855 855 853 853 853 854 854 854 854 855 856 856 857 858 858 859 860 863 863 864 867 869 872 872 0 0 0 0 0 0 0 0 0 0 0 0 0 0 0 0 0 0 0 0 0 0 0 0 0 0 0 0 0 0 0 0 0 0 0 0 932 932 931 929 925 922 918 916 914 911 911 909 907 905 904 904 904 904 904 904 904 904 903 903 903 903 903 903 903 903 903 903 903 904 904 905 907 909 913 917 920 924 927 929 934 939 942 947 949 950 952 954 954 955 956 957 957 957 957 958 958 959 960 960 960 960 960 961 961 960 960 960 960 959 957 955 954 952 950 946 940 934 929 922 915 913 911 908 906 902 898 896 892 892 890 889 887 886 886 886 887 888 890 891 891 892 892 893 893 896 898 904 919 933 938 946 950 955 962 968 969 970 972 974 976 977 977 978 979 979 979 980 980 980 980 980 980 980 980 980 979 979 978 978 977 976 976 975 975 974 972 972 970 969 968 966 958 956 938 0 0 0 0 0 0 0 0 0 0 0 0 1047 1053 1063 1066 1076 1084 1097 1127 1149 1190 1205 1206 1207 1207 1211 1211 1211 1192 1176 1164 1154 1144 1124 1112 0 0 0 0 0 0 0 0 0 0 0 725 719 718 715 707 707 707 708 723 726 726 726 726 726 726 730 738 738 738 725 703 688 683 682 671 654 640 637 637 625 0 0 0 494 486 486 0
564 564 587 601 618 634 652 666 685 713 738 763 769 791 814 842 870 887 909 939 966 990 1007 1023 1031 1035 1037 1040 1055 1084 1104 1113 1132 1162 1184 1200 1213 1227 1242 1260 1266 1278 1287 1296 1306 1314 1321 1325 1328 1331 1337 1341 1346 1356 1362 1362 1362 1351 0 0 0 0 0 0 873 870 866 863 861 858 858 856 856 855 855 854 854 853 852 852 852 852 852 852 854 855 857 857 858 857 856 856 0 0 0 0 0 0 0 0 0 0 0 0 0 0 0 0 0 0 0 0 0 0 0 0 0 0 0 0 0 0 0 0 0 0 0 0 0 0 0 0 0 0 0 0 0 0 0 0 0 0 0 0 0 0 0 0 0 0 0 0 835 835 826 824 822 820 819 816 814 813 813 811 808 805 803 802 801 801 801 801 802 802 803 804 806 806 807 807 808 810 811 813 815 816 817 817 818 818 818 818 818 825 839 839 0 0 0 0 0 0 0 0 0 0 0 0 0 0 0 0 0 0 0 0 0 0 0 0 0 0 0 0 0 0 0 0 0 0 0 0 0 0 0 0 0 0 884 884 884 884 884 882 882 882 882 882 882 881 881 881 881 880 880 878 876 875 875 874 873 872 872 871 871 870 870 869 869 868 868 868 868 869 869 869 869 870 872 872 0 0 0 0 0 0 0 0 0 0 0 0 0 0 0 0 0 0 0 0 0 0 0 0 0 0 0 0 0 0 0 0 0 0 0 0 0 0 0 0 893 893 892 887 883 883 881 873 870 869 866 865 862 859 857 856 855 855 854 853 852 852 852 853 853 854 854 855 855 856 857 858 859 860 863 863 863 866 868 872 872 0 0 0 0 0 0 0 0 0 0 0 0 0 0 0 0 0 0 0 0 0 0 0 0 0 0 0 0 0 0 0 0 0 0 0 0 933 933 933 929 925 922 918 916 914 912 911 909 907 905 904 904 903 903 903 903 903 903 903 903 903 903 903 902 902 902 903 903 903 903 903 904 904 904 907 915 918 922 927 929 934 939 942 944 947 950 952 952 953 954 955 956 956 956 956 957 957 958 958 959 959 959 959 959 959 959 959 958 958 958 956 955 954 952 950 946 940 934 929 922 915 913 910 908 904 902 898 895 892 889 889 888 886 886 885 885 885 885 887 890 890 890 890 890 890 890 893 902 915 925 931 939 949 955 960 963 966 968 970 973 974 975 976 976 977 978 978 979 979 979 979 979 979 979 979 979 979 978 978 977 976 976 975 975 974 973 972 971 969 967 966 966 962 960 946 903 0 0 0 798 784 782 0 0 0 0 0 0 1041 1060 1062 1074 1082 1087 1120 1149 1196 1212 1215 1215 1215 1215 1213 1213 1199 1186 1185 1163 1144 1127 0 0 0 0 0 0 0 0 0 0 0 0 713 713 710 712 713 713 719 726 746 746 746 746 744 730 730 730 741 741 741 730 710 690 688 682 674 671 669 666 655 636 0 0 0 486 475 475 0
564 564 587 605 624 641 660 672 690 715 738 764 769 791 814 842 870 887 909 939 966 989 1006 1020 1029 1031 1032 1037 1055 1084 1099 1113 1132 1160 1183 1202 1218 1234 1250 1267 1272 1283 1291 1301 1310 1318 1324 1327 1331 1335 1337 1341 1346 1351 1351 1351 1349 1349 0 0 0 0 0 0 868 867 866 863 858 858 856 855 855 854 854 853 853 852 852 851 851 851 851 851 854 855 856 856 857 856 856 856 0 0 0 0 0 0 0 0 0 0 0 0 0 0 0 0 0 0 0 0 0 0 0 0 0 0 0 0 0 0 0 0 0 0 0 0 0 0 0 0 0 0 0 0 0 0 0 0 0 0 0 0 0 0 0 0 0 0 0 0 829 829 824 822 822 820 817 816 814 813 813 811 808 805 803 802 801 800 800 800 800 801 802 804 805 806 806 806 807 809 810 811 813 814 815 816 816 817 817 817 821 830 842 842 0 0 0 0 0 0 0 0 0 0 0 0 0 0 0 0 0 0 0 0 0 0 0 0 0 0 0 0 0 0 0 0 0 0 0 0 0 0 0 0 0 0 884 884 882 880 880 880 881 881 881 880 880 880 880 879 879 879 879 878 875 874 874 873 873 872 871 871 871 870 869 869 868 867 867 867 867 866 866 866 866 866 869 869 0 0 0 0 0 0 0 0 0 0 0 0 0 0 0 0 0 0 0 0 0 0 0 0 0 0 0 0 0 0 0 0 0 0 0 0 0 0 0 0 891 891 886 884 883 882 878 873 870 869 866 862 859 857 856 855 855 854 853 852 852 852 852 852 853 853 853 853 854 855 856 857 858 860 863 863 863 865 865 870 870 0 0 0 0 0 0 0 0 0 0 0 0 0 0 0 0 0 0 0 0 0 0 0 0 0 0 0 0 0 0 0 0 0 0 0 0 936 936 933 929 925 919 917 916 914 912 911 909 907 905 904 903 902 902 902 902 902 902 903 902 902 902 902 902 902 902 902 902 902 902 903 903 903 903 905 913 916 921 927 929 935 938 941 943 944 947 950 950 950 951 953 955 955 955 956 956 956 957 957 957 957 957 957 958 958 958 958 957 957 957 956 955 954 952 950 946 940 934 929 924 915 911 910 907 904 902 898 895 892 888 887 886 886 885 885 885 885 885 887 887 887 887 887 886 886 887 887 895 911 922 929 939 946 953 957 960 964 967 968 970 972 973 975 975 975 977 977 977 977 978 978 978 978 978 978 978 977 977 976 976 975 975 974 974 973 973 972 970 968 967 966 966 964 961 947 925 0 0 823 805 790 782 782 0 0 0 0 0 0 0 0 1071 1082 1086 1113 1157 1196 1212 1217 1217 1217 1214 1213 1213 1213 1213 1213 1189 1146 1127 0 0 0 0 0 0 0 0 0 0 0 736 713 712 710 712 712 712 719 737 746 746 752 752 747 746 747 747 741 741 741 730 710 697 697 697 689 689 685 680 660 639 0 0 0 486 475 475 0
572 572 593 610 627 645 661 683 702 724 750 766 774 788 814 844 870 887 909 939 963 983 1001 1015 1022 1024 1027 1035 1055 1084 1099 1113 1132 1156 1182 1202 1218 1234 1250 1267 1277 1286 1295 1304 1314 1321 1326 1330 1334 1336 1338 1341 1346 1350 1350 1350 1349 1349 0 0 0 0 0 0 866 864 861 861 858 857 855 854 854 853 853 852 852 852 851 851 851 851 851 851 853 854 855 855 855 855 855 855 852 0 0 0 0 0 0 0 0 0 0 0 0 0 0 0 0 0 0 0 0 0 0 0 0 0 0 0 0 0 0 0 0 0 0 0 0 0 0 0 0 0 0 0 0 0 0 0 0 0 0 0 0 0 0 0 0 0 0 0 822 822 822 822 820 820 817 815 814 813 813 811 808 806 803 802 801 800 800 800 800 801 802 804 805 805 805 806 806 807 808 810 812 812 814 814 814 814 815 816 822 833 842 842 0 0 0 0 0 0 0 0 0 0 0 0 0 0 0 0 0 0 0 0 0 0 0 0 0 0 0 0 0 0 0 0 0 0 0 0 0 0 0 0 0 0 881 881 881 879 879 879 880 880 880 879 879 879 879 878 878 878 877 876 874 874 872 872 871 871 870 870 870 869 869 869 868 867 866 866 866 866 866 865 865 865 868 868 0 0 0 0 0 0 0 0 0 0 0 0 0 0 0 0 0 0 0 0 0 0 0 0 0 0 0 0 0 0 0 0 0 0 0 0 0 0 0 0 891 891 884 882 882 878 873 873 871 869 866 862 859 857 856 855 855 853 852 851 851 851 851 851 852 852 853 853 854 855 856 856 857 859 859 859 857 857 857 863 863 0 0 0 0 0 0 0 0 0 0 0 0 0 0 0 0 0 0 0 0 0 0 0 0 0 0 0 0 0 0 0 0 0 0 0 0 936 936 933 929 925 919 917 916 914 913 911 909 907 905 903 902 901 901 901 901 902 902 902 902 902 902 902 902 902 901 901 901 901 901 902 902 903 903 904 909 915 919 927 929 934 937 940 942 943 946 947 947 948 949 950 953 954 954 955 955 955 956 956 956 956 957 957 957 957 957 957 956 956 955 955 954 952 950 949 947 941 934 929 924 916 911 908 906 904 902 898 895 892 888 886 885 885 885 884 884 884 885 886 886 886 884 884 884 886 886 886 894 905 915 928 937 944 948 953 958 961 965 967 968 970 971 972 974 974 974 975 975 976 977 977 977 977 977 977 977 977 977 976 976 975 974 973 973 972 972 971 970 968 967 966 966 964 961 948 945 0 0 837 822 800 782 782 782 0 0 0 0 0 0 0 0 0 0 1113 1170 1196 1212 1217 1217 1217 1213 1213 1213 1221 1221 1221 1190 1156 1127 0 0 0 0 0 0 0 0 0 0 0 736 713 710 709 709 712 712 724 738 746 746 752 752 748 746 748 748 742 741 741 733 731 709 709 706 709 709 705 680 660 639 621 0 0 509 500 475 0
577 577 600 621 633 646 661 685 711 738 752 766 774 788 814 844 873 890 910 941 962 977 993 1006 1016 1018 1022 1031 1053 1084 1099 1116 1137 1154 1180 1202 1218 1234 1250 1267 1277 1286 1295 1304 1314 1321 1326 1332 1335 1338 1339 1342 1346 1350 1350 1350 1346 1345 0 0 0 0 0 0 865 862 861 859 857 856 853 852 852 852 852 852 851 851 850 850 849 849 849 849 853 853 853 854 854 854 854 854 852 0 0 0 0 0 0 0 0 0 0 0 0 0 0 0 0 0 0 0 0 0 0 0 0 0 0 0 0 0 0 0 0 0 0 0 0 0 0 0 0 0 0 0 0 0 0 0 0 0 0 0 0 0 0 0 0 0 0 0 818 822 822 820 820 820 817 815 814 813 812 811 809 806 804 803 801 801 800 800 800 800 801 802 803 804 805 805 806 807 807 808 810 811 812 812 812 812 812 814 823 833 835 0 0 0 0 0 0 0 0 0 0 0 0 0 0 0 0 0 0 0 0 0 0 0 0 0 0 0 0 0 0 0 0 0 0 0 0 0 0 0 0 0 0 0 873 873 877 877 877 878 878 878 878 878 878 877 877 876 876 876 876 875 873 873 872 871 871 870 870 869 869 869 868 868 867 867 866 866 865 865 865 865 865 865 868 868 0 0 0 0 0 0 0 0 0 0 0 0 0 0 0 0 0 0 0 0 0 0 0 0 0 0 0 0 0 0 0 0 0 0 0 0 0 0 0 0 891 891 884 883 877 873 873 871 869 869 866 862 859 857 856 855 855 853 851 851 851 851 851 851 851 852 852 852 854 854 855 856 856 856 856 856 855 855 855 863 863 0 0 0 0 0 0 0 0 0 0 0 0 0 0 0 0 0 0 0 0 0 0 0 0 0 0 0 0 0 0 0 0 0 0 0 932 933 933 933 928 925 919 917 916 915 913 911 909 907 904 903 902 900 900 900 901 901 901 902 902 901 901 901 901 901 900 900 900 900 900 900 901 902 902 904 908 910 915 925 929 934 936 938 940 942 943 944 947 947 948 949 951 954 954 954 954 954 955 955 956 956 956 956 956 956 956 956 956 955 955 954 952 951 950 949 947 941 933 929 924 919 911 908 906 904 902 898 894 890 888 885 885 885 884 883 883 883 883 886 886 886 883 883 883 884 885 886 894 901 911 926 937 944 944 949 955 960 962 965 967 969 970 971 972 973 973 974 974 976 976 976 976 976 976 976 976 976 975 975 974 974 973 973 973 972 971 969 969 967 967 966 966 964 961 949 945 0 0 844 839 800 776 776 776 801 0 0 0 0 0 0 0 0 0 0 1163 1185 1202 1202 1216 1216 1216 1216 1216 1221 1221 1221 1208 1167 0 0 0 0 0 0 0 0 0 0 0 750 730 730 726 715 712 712 712 725 749 749 757 757 757 757 748 748 747 745 745 741 733 732 715 715 713 713 709 705 680 660 639 621 0 0 509 502 489 0
583 583 606 624 634 646 664 692 718 738 753 766 776 783 814 844 873 898 919 942 961 976 990 997 1007 1014 1017 1031 1053 1084 1100 1124 1137 1154 1172 1194 1215 1232 1250 1265 1277 1286 1295 1304 1314 1321 1327 1332 1337 1339 1341 1344 1347 1349 1349 1349 1339 0 0 0 0 0 0 0 865 859 856 856 855 854 851 851 851 851 851 851 850 850 850 850 849 849 849 849 852 852 852 853 854 854 854 854 852 0 0 0 0 0 0 0 0 0 0 0 0 0 0 0 0 0 0 0 0 0 0 0 0 0 0 0 0 0 0 0 0 0 0 0 0 0 0 0 0 0 0 0 0 0 0 0 0 0 0 0 0 0 0 0 0 0 0 0 819 824 824 820 820 820 817 815 814 813 812 811 809 806 805 803 802 802 801 801 800 800 801 801 802 803 804 805 805 806 806 806 808 810 810 811 811 812 812 814 823 833 833 0 0 0 0 0 0 0 0 0 0 0 0 0 0 0 0 0 0 0 0 0 0 0 0 0 0 0 0 0 0 0 0 0 0 0 0 0 0 0 0 0 0 0 873 873 877 877 877 877 877 877 877 877 877 876 876 875 875 873 873 873 872 872 871 870 870 869 869 869 868 868 868 867 867 866 866 865 865 864 861 861 861 865 868 868 0 0 0 0 0 0 0 0 0 0 0 0 0 0 0 0 0 0 0 0 0 0 0 0 0 0 0 0 0 0 0 0 0 0 0 0 0 0 0 0 888 888 883 877 876 873 873 871 869 869 866 863 861 859 858 856 855 852 851 851 851 851 851 851 851 851 852 852 853 854 855 855 855 855 855 853 853 853 855 863 870 0 0 0 0 0 0 0 0 0 0 0 0 0 0 0 0 0 0 0 0 0 0 0 0 0 0 0 0 0 0 0 0 0 0 0 930 930 930 929 927 925 924 921 916 915 913 909 909 906 904 902 900 899 899 899 899 900 900 900 900 900 900 900 900 899 899 899 899 899 899 899 900 900 902 903 903 908 911 919 927 932 933 935 938 938 939 943 947 947 947 948 949 951 951 952 952 953 953 954 955 955 955 955 955 955 955 955 955 955 954 953 952 951 950 948 945 941 933 929 924 919 912 908 906 904 900 898 893 889 887 885 884 883 883 883 883 883 883 883 883 883 881 881 881 881 882 883 887 896 910 922 934 943 944 947 952 957 960 962 964 967 968 970 970 971 971 973 973 974 975 975 975 975 975 975 975 975 975 974 973 973 972 972 972 971 971 969 968 967 967 965 963 961 958 954 945 0 0 846 841 801 773 773 773 797 0 0 0 0 0 0 0 0 0 0 1169 1181 1192 1193 1217 1217 1217 1219 1219 1221 1221 1221 1208 1167 0 0 0 0 0 0 0 0 0 0 0 748 731 730 729 716 712 712 712 749 753 757 762 761 761 761 751 749 747 745 745 741 733 732 725 718 713 713 709 703 680 652 636 621 0 0 509 502 492 0
591 591 608 625 635 646 669 695 718 738 753 766 776 783 807 842 873 898 919 942 960 973 986 997 998 1009 1017 1031 1053 1094 1111 1127 1137 1152 1166 1187 1207 1231 1247 1261 1275 1280 1292 1305 1314 1322 1327 1333 1338 1342 1346 1350 1352 1352 1352 1340 0 0 0 0 0 0 0 862 860 853 856 856 853 852 850 850 850 850 850 849 849 849 849 849 849 849 849 849 852 852 852 853 853 852 852 852 851 0 0 0 0 0 0 0 0 0 0 0 0 0 0 0 0 0 0 0 0 0 0 0 0 0 0 0 0 0 0 0 0 0 0 0 0 0 0 0 0 0 0 0 0 0 0 0 0 0 0 0 0 0 0 0 0 0 0 0 819 828 824 819 819 819 817 815 813 812 812 811 809 806 805 803 803 802 802 801 801 801 801 801 802 802 803 804 805 806 806 806 807 808 808 810 811 812 812 814 823 833 833 0 0 0 0 0 0 0 0 0 0 0 0 0 0 0 0 0 0 0 0 0 0 0 0 0 0 0 0 0 0 0 0 0 0 0 0 0 0 0 0 0 0 0 873 873 875 877 877 877 877 877 876 876 876 875 874 873 871 871 871 871 871 870 870 869 869 868 868 868 868 868 867 866 866 865 865 864 864 863 859 859 859 861 869 869 0 0 0 0 0 0 0 0 0 0 0 0 0 0 0 0 0 0 0 0 0 0 0 0 0 0 0 0 0 0 0 0 0 0 0 0 0 0 0 0 883 883 882 876 874 873 872 871 869 869 866 865 864 862 860 857 855 852 852 852 851 851 851 851 851 851 852 852 853 853 853 853 853 852 852 851 851 852 858 864 870 870 0 0 0 0 0 0 0 0 0 0 0 0 0 0 0 0 0 0 0 0 0 0 0 0 0 0 0 0 0 0 0 0 0 0 928 928 928 928 927 925 924 921 916 915 911 909 908 905 903 901 899 898 898 898 898 899 899 899 899 899 899 898 898 898 898 897 898 898 898 898 899 899 900 901 903 906 909 912 923 929 933 935 935 937 938 943 946 946 947 948 949 950 950 950 951 952 953 954 954 954 954 954 955 955 955 955 954 953 953 953 951 951 949 947 945 941 934 929 925 920 915 909 906 904 900 897 892 886 885 884 883 882 881 881 881 881 882 882 882 881 881 880 879 879 879 881 887 896 906 913 924 934 942 946 951 956 957 960 963 965 966 968 968 970 970 972 972 973 973 974 974 974 974 974 974 974 974 973 973 972 972 972 971 970 970 968 968 967 965 964 963 960 957 953 945 924 0 846 841 807 771 771 771 788 817 0 0 0 0 0 0 0 0 0 1170 1181 1191 1192 1217 1219 1219 1219 1219 1219 1211 1211 1208 1167 0 0 0 0 0 0 0 0 0 0 0 747 736 734 734 721 721 721 742 790 790 790 786 762 762 761 748 748 747 742 742 741 737 733 725 713 708 702 702 700 669 652 626 0 0 0 0 502 492 0
592 592 611 625 638 649 671 695 718 737 753 766 779 783 807 837 869 898 919 942 960 973 983 989 998 1009 1017 1031 1059 1094 1114 1128 1140 1152 1166 1187 1207 1231 1247 1261 1273 1280 1291 1304 1313 1322 1330 1334 1340 1345 1349 1356 1356 1356 1352 1338 0 0 0 0 0 0 864 861 857 853 854 854 853 850 849 849 849 849 849 848 848 848 848 848 848 848 848 849 852 852 852 852 850 850 849 849 849 0 0 0 0 0 0 0 0 0 0 0 0 0 0 0 0 0 0 0 0 0 0 0 0 0 0 0 0 0 0 0 0 0 0 0 0 0 0 0 0 0 0 0 0 0 0 0 0 0 0 0 0 0 0 0 0 0 0 0 819 824 822 819 819 818 816 815 813 812 811 810 808 806 805 804 803 803 803 802 802 801 801 801 801 802 803 804 805 806 806 806 807 807 808 809 811 813 815 819 824 832 832 0 0 0 0 0 0 0 0 0 0 0 0 0 0 0 0 0 0 0 0 0 0 0 0 0 0 0 0 0 0 0 0 0 0 0 0 0 0 0 0 0 0 0 873 875 875 876 876 877 876 876 876 876 875 874 873 871 871 870 870 870 869 869 869 868 868 868 867 867 867 867 866 866 865 864 864 863 863 862 859 859 859 861 869 869 0 0 0 0 0 0 0 0 0 0 0 0 0 0 0 0 0 0 0 0 0 0 0 0 0 0 0 0 0 0 0 0 0 0 0 0 0 0 0 0 888 888 882 876 874 872 871 870 870 869 867 866 866 864 862 858 855 852 852 852 852 852 852 852 852 852 852 852 853 853 853 852 851 851 851 851 853 857 863 867 872 872 0 0 0 0 0 0 0 0 0 0 0 0 0 0 0 0 0 0 0 0 0 0 0 0 0 0 0 0 0 0 0 0 0 0 0 928 928 928 927 925 924 921 914 912 909 906 906 904 902 899 898 897 896 896 896 896 897 898 898 898 898 897 896 896 896 896 896 896 896 896 897 897 897 899 902 906 909 910 915 927 929 929 930 934 936 942 944 944 945 946 947 948 948 949 950 950 952 953 953 954 954 954 954 954 954 954 954 952 952 951 950 950 949 947 945 941 934 928 924 920 915 909 907 904 900 896 892 886 885 884 883 882 880 880 879 879 879 879 879 879 879 879 878 878 878 881 887 896 901 909 917 928 937 945 950 954 956 958 961 963 965 966 967 968 969 970 971 971 972 973 973 973 973 973 973 973 973 972 972 972 971 971 970 970 968 968 967 967 965 964 961 960 957 954 944 925 0 0 842 821 771 771 769 769 771 0 0 0 0 0 0 0 0 0 1170 1181 1191 1192 1217 1229 1229 1229 1209 1207 1203 1203 1198 1165 0 0 0 0 0 0 0 0 0 0 0 747 740 739 735 728 728 728 0 802 805 805 805 799 797 774 748 748 748 741 742 741 737 733 725 713 708 701 699 686 669 641 613 0 0 0 0 0 0 0
594 594 612 627 642 653 672 695 713 731 753 767 782 786 807 837 865 892 918 938 954 968 976 983 992 1007 1026 1042 1072 1094 1115 1130 1141 1152 1166 1187 1207 1230 1247 1260 1273 1280 1290 1303 1312 1322 1330 1334 1342 1346 1352 1359 1359 1359 1352 1338 0 0 0 0 0 0 863 861 858 853 853 853 852 848 848 848 848 848 848 847 846 846 846 846 846 847 848 849 852 852 852 850 849 849 0 0 0 0 0 0 0 0 0 0 0 0 0 0 0 0 0 0 0 0 0 0 0 0 0 0 0 0 0 0 0 0 0 0 0 0 0 0 0 0 0 0 0 0 0 0 0 0 0 0 0 0 0 0 0 0 0 0 0 0 0 0 819 822 822 819 819 818 816 815 812 812 811 809 807 806 805 804 804 804 804 804 803 803 801 801 801 802 803 803 805 806 806 806 807 807 808 809 811 813 816 822 825 832 832 0 0 0 0 0 0 0 0 0 0 0 0 0 0 0 0 0 0 0 0 0 0 0 0 0 0 0 0 0 0 0 0 0 0 0 0 0 0 0 0 0 0 0 872 873 873 873 875 876 876 875 875 875 875 874 872 871 871 870 870 868 868 867 867 867 867 867 867 867 867 867 866 866 865 864 864 863 863 862 859 859 859 861 869 869 0 0 0 0 0 0 0 0 0 0 0 0 0 0 0 0 0 0 0 0 0 0 0 0 0 0 0 0 0 0 0 0 0 0 0 0 0 0 0 0 891 891 881 876 875 871 871 871 870 869 867 866 866 866 863 860 856 852 852 852 852 852 852 853 853 854 854 854 854 853 853 852 851 851 851 851 857 860 865 867 873 879 0 0 0 0 0 0 0 0 0 0 0 0 0 0 0 0 0 0 0 0 0 0 0 0 0 0 0 0 0 0 0 0 0 0 0 0 0 927 927 926 924 922 914 911 906 903 902 902 901 897 896 895 894 894 894 894 895 895 895 895 895 895 895 894 894 894 894 894 894 895 895 895 896 896 901 904 908 908 912 920 920 920 0 0 0 941 941 942 942 945 946 947 948 948 948 949 950 952 953 953 953 953 953 953 953 953 953 952 952 951 950 948 947 946 943 939 935 929 924 921 915 909 907 905 901 896 892 886 885 884 883 882 880 880 879 879 879 878 878 877 877 876 876 876 877 881 888 896 901 908 916 926 933 942 948 951 954 956 960 961 963 965 966 967 967 968 969 970 971 971 972 972 972 972 972 972 972 972 971 971 971 970 969 968 968 967 967 966 965 963 960 960 957 954 944 927 0 0 842 822 786 771 771 771 771 0 0 0 0 0 0 0 0 0 1178 1188 1191 1214 1233 1233 1233 1233 1209 1184 1179 1177 1161 1142 0 0 0 0 0 0 886 862 848 800 776 776 776 763 763 763 763 763 0 808 814 814 814 813 808 783 749 749 748 749 749 742 737 733 723 713 708 687 685 673 662 637 611 0 0 0 0 0 0 0
597 597 613 628 643 654 673 695 713 731 753 772 788 792 813 837 865 890 915 933 946 957 969 979 989 1007 1037 1042 1072 1096 1117 1130 1141 1154 1171 1190 1208 1230 1247 1259 1272 1280 1289 1301 1310 1319 1330 1334 1342 1347 1353 1359 1359 1359 1352 0 0 0 0 0 0 0 859 859 859 853 853 851 850 847 847 847 847 847 846 845 845 845 845 845 845 844 844 844 844 846 848 848 849 0 0 0 0 0 0 0 0 0 0 0 0 0 0 0 0 0 0 0 0 0 0 0 0 0 0 0 0 0 0 0 0 0 0 0 0 0 0 0 0 0 0 0 0 0 0 0 0 0 0 0 0 0 0 0 0 0 0 0 0 0 0 0 819 820 819 818 818 818 816 815 812 812 811 809 807 806 805 804 804 804 805 805 805 803 801 801 801 802 803 803 805 806 807 807 808 808 808 809 811 813 816 822 825 832 832 0 0 0 0 0 0 0 0 0 0 0 0 0 0 0 0 0 0 0 0 0 0 0 0 0 0 0 0 0 0 0 0 0 0 0 0 0 0 0 0 0 0 0 871 873 873 873 873 876 876 875 875 875 875 874 872 871 871 870 869 868 867 867 866 866 866 866 867 867 867 867 866 866 865 864 864 863 863 861 858 858 858 861 868 868 0 0 0 0 0 0 0 0 0 0 0 0 0 0 0 0 0 0 0 0 0 0 0 0 0 0 0 0 0 0 0 0 0 0 0 0 0 0 0 0 891 891 881 876 875 871 871 871 871 869 868 867 867 867 865 860 857 853 853 853 853 853 853 853 855 855 855 855 854 854 853 852 851 851 851 855 857 860 865 867 873 879 0 0 0 0 0 0 0 0 0 0 0 0 0 0 0 0 0 0 0 0 0 0 0 0 0 0 0 0 0 0 0 0 0 0 0 0 0 924 924 924 924 920 914 910 906 902 900 899 898 896 895 894 893 893 893 893 893 893 893 893 893 893 893 892 892 892 893 893 893 893 894 894 894 894 897 904 907 907 910 917 917 0 0 0 0 0 941 941 942 945 945 946 947 947 948 949 949 950 950 952 952 952 952 952 952 952 952 951 951 950 949 948 946 945 942 939 935 929 924 921 914 907 907 905 901 896 892 886 885 884 883 882 880 880 879 879 879 878 878 877 877 876 876 876 877 882 890 896 900 908 914 924 932 938 944 949 953 956 958 961 962 964 965 965 967 967 968 969 969 970 970 971 971 971 971 971 971 971 971 971 970 970 969 968 967 967 966 966 965 962 960 959 956 953 943 927 896 848 842 822 802 800 790 800 802 0 0 0 0 0 0 0 0 0 1211 1227 1228 1228 1233 1233 1233 1233 1194 1170 1161 1153 1145 1142 0 0 0 0 0 896 867 862 830 800 787 787 787 787 787 775 775 775 0 808 818 819 819 819 809 790 771 771 771 773 773 773 742 733 723 714 702 687 677 649 633 624 0 0 0 0 0 0 0 0
599 599 616 633 646 656 673 695 713 731 757 781 797 812 816 837 865 890 911 930 942 950 963 975 984 1007 1050 1057 1076 1096 1121 1135 1149 1165 1181 1194 1208 1230 1244 1257 1269 1278 1284 1295 1306 1315 1324 1334 1342 1347 1353 1353 1353 1353 1341 0 0 0 0 0 0 0 859 857 855 853 853 850 846 846 846 846 846 846 845 844 844 843 843 843 843 842 843 843 843 845 0 0 0 0 0 0 0 0 0 0 0 0 0 0 0 0 0 0 0 0 0 0 0 0 0 0 0 0 0 0 0 0 0 0 0 0 0 0 0 0 0 0 0 0 0 0 0 0 0 0 0 0 0 0 0 0 0 0 0 0 0 0 0 0 0 0 819 820 819 818 818 818 817 814 812 812 810 809 807 806 805 805 805 805 805 805 805 803 801 801 801 802 803 803 805 806 807 808 810 810 810 811 811 813 816 822 824 830 830 0 0 0 0 0 0 0 0 0 0 0 0 0 0 0 0 0 0 0 0 0 0 0 0 0 0 0 0 0 0 0 0 0 0 0 0 0 0 0 0 0 0 0 869 872 872 873 873 873 872 872 872 872 871 871 871 871 870 870 869 867 867 867 866 866 866 866 866 867 867 867 866 865 864 864 863 863 863 861 858 858 858 861 867 867 0 0 0 0 0 0 0 0 0 0 0 0 0 0 0 0 0 0 0 0 0 0 0 0 0 0 0 0 0 0 0 0 0 0 0 0 0 0 0 0 0 0 878 877 875 874 873 872 870 870 870 870 869 869 866 863 861 859 858 856 855 855 855 855 856 858 858 858 856 856 855 854 854 855 856 856 857 862 865 867 877 877 0 0 0 0 0 0 0 0 0 0 0 0 0 0 0 0 0 0 0 0 0 0 0 0 0 0 0 0 0 0 0 0 0 0 0 0 0 924 924 924 924 920 914 909 904 902 898 898 897 896 894 894 893 893 892 891 890 890 890 890 890 890 890 890 890 891 891 891 892 892 892 892 890 890 890 897 906 906 910 916 916 0 0 0 0 0 939 940 942 944 945 946 946 947 947 947 947 947 948 949 949 949 949 949 949 950 950 949 949 949 948 947 946 944 942 939 934 929 924 921 914 907 906 904 901 897 893 889 887 886 885 884 882 881 880 879 879 878 878 877 877 876 876 876 878 882 890 895 898 901 912 922 931 937 942 947 951 954 956 960 962 962 963 964 966 966 967 968 968 969 970 970 970 970 970 970 970 970 969 969 969 969 968 968 967 966 966 965 963 962 960 955 953 943 940 927 896 853 838 822 822 814 813 814 816 0 0 0 0 0 0 0 0 1235 1235 1235 1233 1233 1230 1230 1230 1200 1173 1156 1141 1140 1139 1137 0 0 0 0 0 876 867 851 827 800 788 788 788 788 788 777 777 777 799 834 839 839 839 837 811 798 798 798 800 800 800 773 742 732 723 714 701 681 675 642 630 620 0 0 0 0 0 0 0 0
603 603 619 642 654 664 680 695 716 739 765 786 803 816 820 840 862 889 910 925 936 947 958 968 979 1013 1050 1063 1078 1101 1121 1135 1159 1176 1187 1197 1208 1225 1239 1247 1263 1274 1280 1288 1297 1310 1323 1330 1338 1347 1353 1353 1353 1338 0 0 0 0 0 0 0 868 859 853 851 851 849 849 846 844 844 844 844 843 843 843 842 842 842 842 842 842 842 842 843 845 0 0 0 0 0 0 0 0 0 0 0 0 0 0 0 0 0 0 0 0 0 0 0 0 0 0 0 0 0 0 0 0 0 0 0 0 0 0 0 0 0 0 0 0 0 0 0 0 0 0 0 0 0 0 0 0 0 0 0 0 0 0 0 0 0 0 822 821 820 820 818 818 817 814 812 811 810 809 807 806 805 805 805 805 805 805 805 803 801 801 801 802 803 803 805 806 808 809 810 811 811 811 811 813 816 821 824 832 832 0 0 0 0 0 0 0 0 0 0 0 0 0 0 0 0 0 0 0 0 0 0 0 0 0 0 0 0 0 0 0 0 0 0 0 0 0 0 0 0 0 0 0 869 872 872 875 875 875 871 870 870 870 870 871 871 871 870 870 869 866 866 866 866 866 866 866 866 867 867 867 866 865 864 864 863 863 863 860 855 855 855 858 866 866 0 0 0 0 0 0 0 0 0 0 0 0 0 0 0 0 0 0 0 0 0 0 0 0 0 0 0 0 0 0 0 0 0 0 0 0 0 0 0 0 0 0 875 878 875 874 874 873 871 871 871 871 871 871 869 864 862 861 860 858 856 856 856 857 858 860 860 860 858 857 855 855 855 855 856 856 858 863 863 867 877 877 0 0 0 0 0 0 0 0 0 0 0 0 0 0 0 0 0 0 0 0 0 0 0 0 0 0 0 0 0 0 0 0 0 0 0 0 0 0 924 924 924 920 914 907 903 900 897 896 895 895 894 893 893 893 891 891 889 888 888 888 888 888 888 888 888 888 888 889 891 891 891 890 888 888 888 889 897 901 906 914 914 0 0 0 0 0 939 940 942 943 944 944 944 946 946 946 946 946 946 946 946 946 946 947 948 949 949 949 948 948 946 946 944 944 942 938 934 929 924 921 914 907 906 903 901 898 894 891 889 888 887 886 884 883 882 882 881 880 880 879 879 879 878 878 878 884 890 895 898 901 910 920 928 936 941 946 950 951 955 958 960 961 962 964 964 965 966 966 967 967 968 968 969 969 969 969 969 969 969 969 968 968 968 968 967 965 964 962 962 960 958 955 952 939 926 903 901 873 838 823 823 823 839 842 0 0 0 0 0 0 0 0 1229 1238 1238 1238 1237 1232 1231 1216 1191 1177 1158 1156 1141 1139 1135 1134 0 0 0 0 0 872 867 846 827 801 801 801 803 803 803 791 791 791 816 852 852 852 843 843 820 817 802 802 802 802 800 773 745 729 723 714 701 678 666 640 625 0 0 0 0 0 0 0 0 0
621 621 623 649 665 678 689 703 723 748 768 789 806 820 824 840 862 886 904 918 928 939 947 957 973 1013 1050 1075 1080 1109 1125 1142 1160 1187 1194 1198 1208 1225 1239 1247 1261 1272 1280 1285 1295 1309 1319 1326 1334 1343 1345 1345 1345 1332 0 0 0 0 0 0 0 856 854 853 849 848 848 847 844 843 843 843 843 843 842 842 842 842 842 842 842 842 842 842 842 844 846 848 848 0 0 0 0 0 0 0 0 0 0 0 0 0 0 0 0 0 0 0 0 0 0 0 0 0 0 0 0 0 0 0 0 0 0 0 0 0 0 0 0 0 0 0 0 0 0 0 0 0 0 0 0 0 0 0 0 0 0 0 0 0 0 835 828 821 820 820 819 817 816 814 812 811 811 810 808 806 805 805 805 805 805 805 805 803 802 802 802 803 804 804 806 807 808 809 810 811 811 811 812 813 816 820 824 830 830 0 0 0 0 0 0 0 0 0 0 0 0 0 0 0 0 0 0 0 0 0 0 0 0 0 0 0 0 0 0 0 0 0 0 0 0 0 0 0 0 0 0 0 862 865 872 875 875 875 871 870 869 869 869 869 869 869 868 868 866 864 864 864 864 864 864 864 864 866 866 866 866 864 864 864 863 862 861 858 851 851 851 852 858 858 0 0 0 0 0 0 0 0 0 0 0 0 0 0 0 0 0 0 0 0 0 0 0 0 0 0 0 0 0 0 0 0 0 0 0 0 0 0 0 0 0 0 875 878 876 875 875 874 874 871 871 871 871 871 871 865 863 862 862 859 858 858 858 858 858 860 860 860 858 858 857 857 857 857 857 859 861 863 863 866 873 873 0 0 0 0 0 0 0 0 0 0 0 0 0 0 0 0 0 0 0 0 0 0 0 0 0 0 0 0 0 0 0 0 0 0 0 0 0 0 0 920 920 920 913 902 902 900 897 895 895 895 893 893 893 892 890 889 887 885 885 885 885 885 885 885 885 885 885 886 887 888 888 888 888 884 884 884 893 898 906 912 912 0 0 0 0 0 936 939 940 940 942 942 944 944 944 944 944 944 944 944 945 945 945 946 947 947 947 947 946 946 945 945 944 942 941 937 934 929 924 921 915 908 906 903 901 899 895 892 890 890 889 887 886 885 884 884 883 882 882 881 880 880 881 881 882 886 890 894 898 901 908 915 924 931 940 944 947 950 953 955 958 959 961 962 963 964 965 965 966 967 968 968 968 968 968 968 968 968 968 968 968 968 967 967 967 965 962 961 961 959 958 955 950 935 919 900 892 879 838 838 0 0 0 0 0 0 0 0 0 0 0 0 1244 1244 1244 1242 1240 1237 1231 1216 1191 1177 1158 1156 1141 1136 1135 1129 0 0 0 0 0 872 865 845 827 803 803 803 810 810 810 807 807 807 834 856 856 856 846 843 820 817 802 802 0 802 0 0 0 0 0 0 0 670 654 640 0 0 0 0 0 0 470 467 467 0
625 625 626 653 671 687 699 711 730 751 773 790 806 820 825 840 859 877 895 910 921 930 945 957 973 1015 1050 1075 1080 1109 1125 1142 1160 1187 1195 1199 1210 1225 1239 1247 1261 1270 1280 1283 1294 1307 1315 1322 1328 1335 1341 1341 1341 1330 0 0 0 0 0 0 868 851 849 849 847 847 845 843 843 842 842 842 842 841 841 840 841 841 841 841 841 841 841 841 841 844 846 847 847 847 0 0 0 0 0 0 0 0 0 0 0 0 0 0 0 0 0 0 0 0 0 0 0 0 0 0 0 0 0 0 0 0 0 0 0 0 0 0 0 0 0 0 0 0 0 0 0 0 0 0 0 0 0 0 0 0 0 0 0 0 834 834 834 829 822 822 821 817 816 814 814 814 812 811 811 807 805 805 805 806 806 806 805 803 802 802 802 803 804 805 806 807 808 809 810 811 811 811 812 813 815 819 823 827 827 0 0 0 0 0 0 0 0 0 0 0 0 0 0 0 0 0 0 0 0 0 0 0 0 0 0 0 0 0 0 0 0 0 0 0 0 0 0 0 0 0 0 0 860 862 872 875 875 875 871 870 868 868 868 867 867 866 865 865 865 864 864 864 862 862 864 864 864 865 865 865 864 864 863 863 862 861 861 855 849 848 848 848 852 852 0 0 0 0 0 0 0 0 0 0 0 0 0 0 0 0 0 0 0 0 0 0 0 0 0 0 0 0 0 0 0 0 0 0 0 0 0 0 0 0 0 0 876 884 884 884 884 881 874 873 873 873 874 874 874 871 865 865 864 863 861 860 860 860 860 861 861 861 860 860 860 860 860 861 861 862 863 864 864 866 870 870 0 0 0 0 0 0 0 0 0 0 0 0 0 0 0 0 0 0 0 0 0 0 0 0 0 0 0 0 0 0 0 0 0 0 0 0 0 0 0 916 916 916 910 896 896 896 896 895 894 893 893 893 892 891 890 888 885 882 879 879 879 880 881 881 882 882 882 882 882 882 884 884 884 880 880 880 887 898 906 911 914 0 0 0 0 0 931 937 939 939 940 941 942 944 944 944 944 0 0 0 942 944 944 945 946 946 946 946 945 944 943 943 942 941 939 936 934 930 925 923 916 910 906 903 902 900 897 893 891 891 890 889 888 887 886 884 884 883 883 883 883 883 883 884 884 887 890 894 898 901 908 915 924 931 940 944 946 949 953 954 956 958 960 962 962 963 963 965 965 966 966 966 967 967 967 967 968 968 968 968 967 967 966 966 966 964 962 961 960 959 956 954 948 934 914 897 892 889 883 883 0 0 0 0 0 0 0 0 0 0 0 0 1257 1257 1257 1255 1240 1237 1231 1216 1191 1191 1177 1161 1158 1128 1119 0 0 0 0 0 0 872 865 844 842 822 810 810 810 810 810 815 815 815 842 856 856 856 846 843 820 817 802 0 777 777 767 753 746 0 0 0 0 0 0 0 0 0 0 522 517 498 472 468 468 0
630 630 632 654 673 691 701 716 733 754 775 791 807 821 835 841 859 877 895 910 921 930 945 957 973 1015 1049 1075 1084 1109 1125 1142 1160 1187 1195 1200 1216 1227 1239 1250 1259 1269 1280 1283 1293 1302 1309 1314 1320 1328 1332 1332 1332 1323 0 0 0 0 0 869 867 851 847 846 846 846 843 842 842 842 842 841 841 840 840 839 839 839 839 839 840 841 841 841 841 844 846 846 846 846 844 840 0 0 0 0 0 0 0 0 0 0 0 0 0 0 0 0 0 0 0 0 0 0 0 0 0 0 0 0 0 0 0 0 0 0 0 0 0 0 0 0 0 0 0 0 0 0 0 0 0 0 0 0 0 0 0 0 0 0 834 835 834 830 828 828 822 822 816 816 816 816 815 815 812 807 805 805 805 806 806 806 805 803 802 802 802 804 806 806 807 808 808 809 810 811 812 812 813 813 815 817 821 827 827 0 0 0 0 0 0 0 0 0 0 0 0 0 0 0 0 0 0 0 0 0 0 0 0 0 0 0 0 0 0 0 0 0 0 0 0 0 0 0 0 0 0 0 860 862 869 873 873 873 871 870 867 867 866 863 863 863 863 864 864 863 862 862 861 861 862 862 863 863 863 863 863 863 863 862 861 858 856 853 849 848 848 848 851 851 0 0 0 0 0 0 0 0 0 0 0 0 0 0 0 0 0 0 0 0 0 0 0 0 0 0 0 0 0 0 0 0 0 0 0 0 0 0 0 0 0 0 876 886 886 886 886 886 877 876 875 875 875 878 878 878 874 869 868 868 864 862 862 862 863 863 863 862 862 862 863 864 865 865 865 866 866 866 866 867 869 866 0 0 0 0 0 0 0 0 0 0 0 0 0 0 0 0 0 0 0 0 0 0 0 0 0 0 0 0 0 0 0 0 0 0 0 0 0 0 0 914 914 912 905 892 890 890 890 893 893 893 889 889 889 888 888 886 882 880 878 878 877 876 876 876 880 880 880 879 879 879 882 882 882 878 878 878 885 894 904 905 908 908 908 0 0 0 930 936 938 938 938 938 938 939 940 940 940 0 0 0 940 942 944 944 945 945 945 944 943 943 942 941 940 939 938 935 934 930 927 923 919 913 910 907 904 902 898 894 892 892 892 891 890 889 887 886 884 884 884 884 884 884 884 884 885 887 890 894 899 901 906 915 924 930 939 942 944 948 951 953 955 957 958 960 961 962 963 964 964 964 965 966 966 966 966 966 966 967 967 967 966 966 965 965 965 964 961 960 958 956 956 954 944 930 904 892 892 892 895 896 0 0 0 0 0 0 0 0 0 0 0 0 1269 1273 1273 1273 1250 1249 1240 1235 1234 1227 1225 1206 1174 0 0 0 0 0 0 0 0 872 855 844 842 822 810 810 810 810 810 819 819 824 842 847 847 847 846 832 805 772 752 749 749 751 749 749 745 725 0 0 0 0 0 0 0 537 533 522 516 489 470 468 468 0
634 634 635 655 673 691 703 717 737 758 781 795 808 822 837 841 859 877 893 909 921 930 945 968 994 1019 1049 1072 1085 1105 1120 1136 1157 1187 1196 1203 1216 1231 1242 1252 1260 1269 1280 1283 1292 1297 1303 1307 1312 1319 1325 1325 1325 1314 0 0 0 0 0 864 862 851 849 846 845 844 843 841 841 841 841 839 839 839 839 839 838 838 838 839 840 841 841 841 841 842 843 845 845 845 844 840 0 0 0 0 0 0 0 0 0 0 0 0 0 0 0 0 0 0 0 0 0 0 0 0 0 0 0 0 0 0 0 0 0 0 0 0 0 0 0 0 0 0 0 0 0 0 0 0 0 0 0 0 0 0 0 0 0 0 834 836 836 834 832 832 831 829 823 822 822 819 817 816 814 808 806 806 806 807 807 807 807 803 803 803 804 804 806 808 808 808 810 810 810 811 813 813 813 814 815 817 821 827 827 0 0 0 0 0 0 0 0 0 0 0 0 0 0 0 0 0 0 0 0 0 0 0 0 0 0 0 0 0 0 0 0 0 0 0 0 0 0 0 0 0 0 0 863 867 869 873 873 873 871 870 867 866 862 860 860 860 861 862 862 862 861 859 859 855 855 855 856 861 862 862 862 862 862 860 858 858 856 853 849 846 846 846 850 850 0 0 0 0 0 0 0 0 0 0 0 0 0 0 0 0 0 0 0 0 0 0 0 0 0 0 0 0 0 0 0 0 0 0 0 0 0 0 0 0 0 0 876 886 886 886 886 886 886 881 877 877 877 878 878 878 877 874 873 871 869 869 866 866 866 865 863 863 863 864 864 865 869 869 869 870 870 868 867 870 872 867 0 0 0 0 0 0 0 0 0 0 0 0 0 0 0 0 0 0 0 0 0 0 0 0 0 0 0 0 0 0 0 0 0 0 0 0 0 0 0 906 906 904 896 892 890 888 888 888 888 888 886 885 885 884 884 884 881 878 876 873 873 872 872 872 876 877 877 878 878 878 880 880 880 878 878 878 881 891 901 904 908 908 909 912 917 918 928 933 934 934 935 935 935 935 935 935 935 930 930 930 936 938 942 943 943 943 942 942 942 941 940 939 939 938 937 935 934 930 927 924 924 920 914 910 908 906 902 897 896 895 894 893 892 891 889 887 885 885 885 885 885 885 886 886 886 888 891 894 900 903 908 915 924 930 935 939 942 948 951 952 953 956 957 959 959 960 961 962 963 964 964 964 965 965 965 966 966 966 966 966 965 965 965 965 964 964 961 958 955 951 948 945 938 925 883 883 883 889 895 910 0 0 0 0 0 0 0 0 0 0 0 0 1269 1273 1273 1273 1264 1262 1251 1235 1234 1227 1225 1206 0 0 0 0 0 0 0 0 0 869 845 842 841 822 809 807 795 795 795 799 807 824 838 838 838 829 827 812 803 770 747 747 746 746 744 744 740 728 0 0 0 0 0 0 541 537 532 517 504 488 467 464 464 0
636 636 652 655 673 691 705 720 740 764 789 797 810 826 840 843 859 875 892 909 921 934 951 974 1002 1026 1049 1071 1086 1096 1114 1128 1150 1180 1197 1210 1221 1232 1242 1253 1260 1267 1276 1282 1288 1294 1299 1303 1306 1312 1312 1312 1307 1272 0 0 0 0 0 854 850 850 850 846 844 844 841 841 840 840 839 838 838 838 838 837 837 837 838 838 839 840 840 840 840 842 842 843 844 844 844 840 0 0 0 0 0 0 0 0 0 0 0 0 0 0 0 0 0 0 0 0 0 0 0 0 0 0 0 0 0 0 0 0 0 0 0 0 0 0 0 0 0 0 0 0 0 0 0 0 0 0 0 0 0 0 0 0 0 0 837 845 845 842 842 842 837 833 824 824 824 821 821 820 815 811 811 811 813 814 814 814 811 808 808 808 811 812 812 812 812 812 815 815 815 815 814 814 814 814 815 817 821 827 827 0 0 0 0 0 0 0 0 0 0 0 0 0 0 0 0 0 0 0 0 0 0 0 0 0 0 0 0 0 0 0 0 0 0 0 0 0 0 0 0 0 0 0 863 869 872 872 870 870 869 867 867 864 862 860 860 860 861 862 862 862 861 859 858 855 855 855 856 858 859 862 862 862 862 860 858 858 856 853 849 848 848 848 850 851 0 0 0 0 0 0 0 0 0 0 0 0 0 0 0 0 0 0 0 0 0 0 0 0 0 0 0 0 0 0 0 0 0 0 0 0 0 0 0 0 0 0 877 886 886 887 887 887 887 885 879 878 878 878 879 879 879 875 874 874 873 872 870 868 868 867 867 867 867 867 867 870 873 873 873 872 872 870 870 872 872 872 0 0 0 0 0 0 0 0 0 0 0 0 0 0 0 0 0 0 0 0 0 0 0 0 0 0 0 0 0 0 0 0 0 0 0 0 0 0 0 906 906 903 892 890 890 888 886 885 886 885 885 883 882 882 881 881 881 878 876 870 869 869 869 870 873 877 877 877 877 877 878 878 878 878 878 878 880 889 896 903 903 906 908 908 917 918 920 926 927 927 928 931 933 933 933 933 933 930 930 930 933 935 937 937 938 938 939 939 939 939 938 938 937 937 936 934 932 929 927 926 924 920 916 914 912 909 907 905 903 900 897 895 893 891 889 888 886 886 886 886 886 886 887 887 887 888 892 894 900 903 908 916 925 930 934 938 941 944 946 947 950 954 955 957 958 959 959 961 961 962 962 963 964 964 964 965 965 965 965 965 965 965 964 963 963 963 961 958 952 947 944 943 936 906 874 874 874 885 895 928 0 0 0 0 0 0 0 0 0 0 0 0 1269 1273 1273 1273 1264 1262 1251 1235 1234 1227 1225 1206 0 0 0 0 0 0 0 0 846 844 829 827 818 816 807 795 794 794 795 799 810 824 824 824 823 822 812 811 792 768 747 746 744 744 739 736 735 728 0 0 0 0 0 0 539 536 523 512 504 488 464 460 460 0
641 641 658 659 681 696 706 723 746 768 789 803 817 830 842 846 862 876 892 909 921 936 954 975 1002 1028 1050 1070 1089 1096 1114 1128 1150 1180 1199 1215 1225 1236 1245 1253 1260 1266 1272 1278 1281 1289 1295 1300 1304 1309 1309 1309 1295 0 0 0 0 0 855 851 851 851 851 849 844 842 842 840 840 839 839 838 837 837 837 837 837 837 837 838 839 839 839 840 840 841 841 841 841 840 838 0 0 0 0 0 0 0 0 0 0 0 0 0 0 0 0 0 0 0 0 0 0 0 0 0 0 0 0 0 0 0 0 0 0 819 819 819 0 0 0 0 0 0 0 0 0 0 0 0 0 0 0 0 0 0 0 0 0 0 0 0 0 0 0 0 0 0 0 0 0 0 0 0 0 0 0 0 0 0 0 0 0 0 0 0 0 0 0 0 0 0 0 0 0 0 0 818 818 821 821 825 827 836 838 839 0 0 0 0 0 0 0 0 0 0 0 0 0 0 0 0 0 0 0 0 0 0 0 0 0 0 0 0 0 0 0 0 0 0 0 0 0 0 0 0 0 865 869 871 871 871 869 867 0 0 0 862 862 860 860 860 861 862 862 862 0 0 0 0 0 855 856 857 858 862 862 862 862 860 860 860 859 860 860 859 854 852 852 852 868 868 0 0 0 0 0 0 0 0 0 0 0 0 0 0 0 0 0 0 0 0 0 0 0 0 0 0 0 0 0 0 0 0 0 0 0 0 0 0 879 879 886 886 886 893 893 893 890 888 884 881 880 880 880 880 880 878 876 875 874 873 871 871 871 871 871 871 868 871 872 873 873 873 873 873 873 872 872 872 872 872 879 887 0 0 0 0 0 0 0 0 0 0 0 0 0 0 0 0 0 0 0 0 0 0 0 0 0 0 0 0 0 0 0 0 0 0 0 898 906 906 906 903 898 896 896 888 886 885 886 885 885 883 882 882 881 881 881 878 876 870 869 869 869 870 873 877 877 877 877 877 878 878 878 879 879 879 880 888 890 895 900 903 903 908 917 918 918 920 921 924 925 930 931 931 931 930 930 930 930 930 931 931 933 933 933 933 936 937 937 937 936 936 936 936 935 932 931 929 927 926 925 922 921 920 919 917 911 908 905 902 900 896 894 892 892 890 888 887 887 887 887 887 887 889 893 895 898 901 902 905 911 917 925 930 934 937 939 941 943 946 949 953 955 956 957 958 959 959 960 961 962 962 962 962 963 964 964 964 964 964 964 964 963 963 963 962 961 958 952 947 937 913 901 884 861 861 861 868 0 0 1054 1064 1064 1064 1040 1010 1010 1010 0 0 1150 1184 1246 1248 1248 1262 1262 1262 1251 1233 1226 1221 1219 1206 0 0 0 0 895 870 858 847 845 834 825 822 808 807 806 795 794 794 795 799 810 818 818 818 810 801 800 799 782 764 744 744 735 0 0 0 0 0 0 0 0 0 0 0 0 0 0 0 0 0 0 0 0 0
650 650 668 669 688 702 714 728 751 776 794 808 820 834 847 857 862 877 891 905 919 936 958 977 1002 1029 1050 1070 1092 1096 1114 1128 1150 1180 1201 1215 1226 1236 1245 1254 1260 1266 1271 1277 1281 1286 1290 1295 1301 1304 1304 1304 0 0 0 0 0 0 853 851 851 850 850 848 844 842 840 839 839 839 838 837 836 836 836 836 836 836 837 837 838 839 839 839 839 839 841 841 841 840 838 0 0 0 0 0 0 0 0 0 0 0 0 0 0 0 0 0 826 822 822 820 818 818 818 817 816 814 814 814 819 824 824 824 822 819 819 819 820 823 823 823 818 816 816 816 820 820 820 820 827 827 831 831 831 833 833 833 0 0 0 0 0 0 0 0 0 0 0 0 0 0 0 0 0 0 0 0 0 0 0 0 0 0 0 0 0 0 0 0 0 0 0 0 0 0 0 0 818 821 821 825 846 848 848 848 844 841 840 839 837 835 0 0 0 0 0 0 0 0 0 0 0 0 0 0 0 0 0 0 0 0 0 0 0 0 0 0 0 0 0 0 0 0 0 0 0 0 866 870 870 870 867 0 0 0 0 0 860 860 860 860 860 861 861 859 0 0 0 0 0 0 855 856 857 862 862 862 859 859 859 859 860 861 862 864 866 867 867 867 871 0 0 0 0 0 0 0 0 0 0 0 0 0 0 0 0 0 0 0 0 0 0 0 0 0 0 0 0 0 0 0 0 0 0 0 0 0 0 0 892 892 890 890 890 892 893 893 893 889 885 884 884 882 880 880 880 880 881 881 879 875 875 875 877 877 877 875 873 873 873 873 874 876 876 876 876 875 875 875 875 876 879 0 0 0 0 0 0 0 0 0 0 0 0 0 0 0 0 0 0 0 0 0 0 0 0 0 0 0 0 0 0 0 0 0 0 0 0 898 906 906 906 903 901 900 900 895 891 886 886 886 886 885 883 883 883 883 883 883 880 870 869 869 869 870 873 877 877 877 878 878 878 880 881 881 881 882 882 888 888 890 894 896 900 908 912 912 915 916 917 921 924 927 927 927 927 927 927 927 927 927 928 930 930 930 930 930 930 931 931 932 932 932 932 932 931 930 929 928 928 928 927 924 922 922 921 917 913 910 907 905 902 901 899 897 895 893 893 893 895 897 897 898 899 901 902 902 902 902 904 909 915 922 926 930 933 935 937 941 943 946 949 951 953 955 955 956 958 958 959 959 960 961 961 961 962 962 963 963 963 963 963 963 962 962 962 960 959 957 951 947 931 900 873 855 846 846 846 859 0 0 0 1064 1064 1064 1040 1016 1016 0 0 0 1150 1184 1210 1210 1221 1229 1234 1234 1234 1229 1225 1221 1210 0 0 0 0 0 895 870 858 847 845 834 825 822 808 807 806 807 807 814 815 815 820 815 815 805 800 798 791 781 764 747 731 718 706 0 0 0 0 0 0 0 0 0 0 0 0 0 0 0 0 0 0 0 0 0
650 650 668 675 692 708 722 736 762 786 801 808 820 835 848 860 864 878 891 904 919 939 960 981 1002 1030 1052 1071 1093 1098 1116 1134 1159 1180 1201 1215 1227 1237 1247 1255 1261 1266 1271 1277 1281 1286 1289 1290 1294 1297 1297 1297 0 0 0 0 0 0 850 850 850 850 850 844 843 842 839 839 837 837 836 836 836 836 835 835 835 835 835 835 836 836 836 837 838 838 838 838 838 838 838 0 0 0 0 0 0 0 0 0 0 0 0 834 830 830 830 826 826 822 820 817 817 817 817 817 816 814 814 814 819 824 824 824 822 819 819 819 820 823 823 823 818 816 816 816 820 820 820 820 827 827 831 831 831 833 833 833 837 0 0 0 0 0 0 0 0 0 0 0 0 0 0 0 0 0 0 0 0 0 0 0 0 0 0 0 0 0 0 0 0 0 0 0 0 0 0 0 0 0 0 0 0 0 848 848 844 841 840 839 837 835 834 833 833 832 832 832 832 835 838 841 841 841 841 841 841 840 840 840 840 844 848 848 848 848 848 847 847 847 851 852 852 856 857 861 0 0 0 0 0 0 0 0 0 0 0 0 0 0 0 0 0 0 0 0 0 0 0 0 0 0 0 0 0 0 0 0 0 0 0 0 0 0 0 864 866 867 868 0 0 871 871 869 869 869 875 875 875 875 876 876 877 877 882 884 884 884 884 880 880 880 881 883 884 884 885 885 885 884 882 882 882 883 884 887 887 892 895 895 895 893 890 890 890 890 891 891 891 889 885 884 884 882 880 880 880 880 881 881 879 875 875 875 877 877 877 875 873 873 873 873 874 876 876 876 876 875 875 875 876 0 0 0 888 894 896 896 896 892 892 892 892 893 895 896 896 896 893 893 893 0 0 0 0 0 0 900 898 896 0 0 0 0 0 889 891 892 892 898 903 903 905 907 905 905 905 901 899 885 885 885 885 885 883 883 883 883 883 883 881 880 876 876 876 876 879 879 883 883 883 880 880 880 881 884 886 887 888 888 888 889 890 890 895 903 907 908 909 910 914 915 916 916 918 920 920 920 920 920 920 923 924 925 926 926 926 926 926 926 926 926 926 927 928 928 928 928 928 928 928 927 926 926 926 925 925 922 918 916 915 912 909 907 907 906 905 905 904 904 904 906 906 907 908 910 910 910 911 911 912 916 921 925 928 931 933 935 937 941 943 946 948 950 951 953 954 955 956 957 958 958 959 960 960 961 961 961 961 962 962 962 962 962 962 961 960 958 957 956 950 947 931 900 873 855 846 846 846 849 0 0 0 1064 1064 1064 1036 1036 1036 0 0 0 1154 1184 1201 1209 1216 1226 1226 1226 1222 1221 1220 1214 1192 0 0 0 0 0 895 870 858 847 845 834 825 822 818 818 818 825 825 825 825 822 815 814 807 805 781 770 767 764 751 726 704 689 673 652 640 0 0 0 0 0 0 0 0 0 0 0 0 0 0 0 0 0 0 0
650 650 668 679 692 710 725 742 765 786 801 808 820 836 851 865 868 879 891 902 919 945 973 989 1002 1032 1052 1072 1093 1118 1122 1140 1160 1180 1201 1215 1228 1240 1250 1258 1262 1267 1271 1277 1284 1286 1288 1289 1289 1290 1290 1289 0 0 0 0 0 864 849 849 849 849 849 842 841 840 839 837 837 836 836 836 835 835 834 834 834 834 833 833 833 833 835 835 835 835 835 836 838 839 839 0 0 0 0 0 0 0 0 0 0 0 830 830 830 826 824 822 822 820 806 798 798 798 798 798 800 800 800 802 802 802 802 801 800 800 800 800 806 809 809 809 805 805 805 805 807 807 809 810 810 812 814 814 820 822 824 829 833 0 0 0 0 0 0 0 0 0 0 0 0 0 0 0 0 0 0 0 0 0 0 0 0 0 0 0 0 0 0 0 0 0 0 0 0 0 0 0 0 0 0 0 0 0 848 848 841 839 838 837 834 833 833 832 832 832 832 832 832 835 838 841 841 841 841 841 841 840 840 840 840 840 844 848 848 848 848 847 847 847 851 852 852 852 855 855 855 0 0 0 0 0 0 0 0 0 0 0 0 0 0 0 0 0 0 0 0 0 0 0 0 0 0 0 0 0 0 0 0 0 0 0 0 0 0 0 0 0 0 0 871 871 871 871 871 871 875 875 875 875 876 876 877 877 882 884 884 884 884 881 881 881 881 883 884 884 885 885 885 885 885 886 886 886 887 887 887 892 895 895 895 895 0 0 0 0 0 0 0 0 0 0 0 0 0 0 0 0 0 0 0 0 0 0 0 0 0 0 0 0 0 0 0 0 0 0 0 0 0 0 0 0 0 888 888 894 895 895 895 892 892 892 892 893 895 896 896 896 893 893 893 892 893 897 898 900 900 900 898 896 895 884 884 884 887 889 891 891 892 892 897 903 903 906 905 905 905 903 0 0 0 0 0 0 0 0 0 0 0 0 0 0 0 892 892 892 892 892 892 892 892 891 0 0 0 0 0 897 897 897 891 890 890 890 895 903 905 905 906 908 911 911 911 909 908 908 907 908 908 909 913 919 919 919 920 920 920 920 920 920 920 920 920 920 923 926 928 928 928 928 928 927 926 927 927 927 927 927 925 923 921 919 916 915 915 915 914 914 913 913 914 913 914 915 915 916 919 919 919 919 921 923 926 929 931 932 933 935 937 941 943 945 946 948 950 951 952 954 955 956 956 957 957 958 959 960 960 960 960 961 961 961 961 961 960 960 959 958 956 954 951 948 934 900 873 855 843 843 843 845 0 0 0 0 1032 1036 1036 1036 0 0 0 1146 1172 1191 1201 1208 1216 1223 1223 1223 1216 1212 1210 1185 1162 0 0 0 0 0 900 898 895 871 867 844 840 838 833 825 825 825 825 825 825 822 815 814 806 783 772 754 754 746 741 718 700 689 673 652 640 630 0 0 0 0 0 0 0 0 0 0 0 0 0 0 0 0 0 0
