669 669 671 691 703 714 725 740 757 777 800 818 834 850 865 869 886 905 930 956 979 1001 1019 1035 1052 1069 1085 1092 1101 1106 1116 1123 1133 1146 1158 1167 1174 1174 1174 1174 1172 1172 1172 1178 1205 1210 1239 1266 1292 1318 1336 1350 1364 1375 1384 1393 1401 1411 1426 1443 1454 1459 1469 1479 1481 1488 1494 1498 1504 1510 1516 1521 1525 1529 1534 1537 1543 1547 1550 1553 1557 1561 1567 1569 1572 1574 1577 1579 1581 1584 1586 1588 1590 1592 1594 1597 1600 1603 1605 1609 1614 1623 1630 1636 1639 1645 1651 1656 1663 1669 1673 1677 1680 1683 1686 1688 1690 1692 1694 1695 1698 1700 1702 1703 1703 1704 1704 1704 1707 1711 1713 1717 1720 1721 1723 1723 1723 1715 1706 1699 1683 1664 1653 1652 1652 1652 1654 1656 1662 1665 1665 1665 1661 1658 1655 1651 1648 1643 1639 1637 1637 1637 1637 1639 1642 1644 1647 1649 1651 1652 1654 1655 1656 1656 1656 1656 1656 1656 1656 1656 1655 1651 1648 0 0 0 0 0 1122 1121 1120 1120 1117 1117 1117 1117 1117 1117 1117 1117 1117 1117 1118 1118 1119 1119 1120 1120 1121 1121 1121 1121 1121 1121 1121 1122 1122 1122 1121 1121 1121 1121 1121 1120 1120 1120 1120 1120 1120 1119 1119 1119 1119 1119 1119 1118 1118 1118 1118 1119 1119 1119 1119 1119 1119 1119 1119 1119 1119 1119 1119 1117 1116 1116 1115 1115 1110 1102 1097 1096 1094 1092 1092 1092 1092 1092 1092 1090 1090 1090 1091 1091 1091 1090 1090 1090 1090 1092 1092 1093 1096 1097 1098 1099 1099 1105 1116 1123 1126 1129 1131 1133 1134 1134 1135 1135 1135 1135 1135 1135 1135 1135 1135 1135 1136 1136 1136 1136 1137 1137 1138 1138 1138 1138 1137 1137 1136 1136 1136 1135 1133 1131 1125 1122 1121 1120 1120 1118 1115 1111 1108 1107 1107 1107 1107 1107 1105 1104 1104 1103 1103 1103 1104 1106 1108 1111 1111 1111 1112 1112 1112 1125 1126 1133 1138 1140 1140 1141 1141 1142 1142 1143 1143 1143 1143 1144 1144 1145 1145 1146 1146 1146 1146 1146 1146 1146 1146 1147 1147 1147 1146 1146 1146 1146 1146 1146 1139 1126 1119 1115 1104 1102 1100 1096 1094 1092 1092 1092 1091 1091 1091 1090 1087 1087 1087 1092 1095 1095 1097 1097 1097 1096 1096 1096 1100 1114 1126 1140 1149 1152 1153 1153 1154 1154 1155 1157 1157 1157 1157 1157 1158 1159 1159 1160 1161 1162 1163 1164 1164 1164 1165 1165 1165 1165 1164 1162 1160 1160 1158 1153 1146 1141 1133 1129 1123 1119 1119 1119 1118 1118 1117 1117 1116 1116 1116 1114 1110 1109 1109 1108 1106 1097 1097 1097 1105 1109 1112 1118 1126 1144 1149 1155 1158 1163 1170 1172 1172 1173 1174 1175 1177 1178 1179 1179 1179 1179 1179 1180 1182 1183 1183 1183 1184 1184 1184 1182 1181 1181 1180 1176 1174 1170 1169 1164 1149 1139 1125 1123 1121 1117 1117 1117 1116 1116 1116 1116 1115 1113 1112 1112 1109 1107 1107 1107 1112 1119 1126 1139 1157 1164 1165 1165 1175 1186 1193 1198 1203 1203 1206 1206 1206 1205 1205 1204 1203 1202 1201 1200 1198 1196 1195 1191 1188 1186 1182 1182 1180 1177 1170 1170 1170 1175 1175 1178 1180 1178 1174 1174 1169 1143 1132 1132 1126 1122 1100 1074 0 0 0 0 0 0 0 0 0 0 0 0 0 0 0 0 0 0 0 0 0 0 1069 1080 1080 1080 1062 1036 1008 975 0 0 0 795 787 787 787 787 787 783 781 761 0 0 0 0 0 0 0 0 0 0 0 0
665 665 666 684 695 709 724 737 756 777 800 817 834 850 864 869 885 903 926 950 979 1001 1020 1036 1053 1066 1078 1089 1101 1106 1116 1128 1137 1146 1157 1166 1172 1174 1174 1174 1172 1172 1172 1178 1207 1211 1239 1267 1296 1325 1343 1356 1368 1379 1388 1398 1406 1415 1426 1443 1454 1459 1469 1478 1481 1488 1495 1500 1508 1514 1521 1526 1530 1537 1541 1545 1546 1549 1552 1555 1557 1561 1567 1569 1572 1574 1577 1579 1581 1582 1584 1587 1588 1590 1593 1595 1597 1599 1600 1603 1611 1620 1628 1634 1638 1641 1646 1653 1660 1668 1673 1677 1680 1683 1686 1688 1691 1692 1694 1695 1698 1699 1702 1704 1705 1705 1705 1706 1709 1712 1715 1718 1720 1722 1727 1727 1727 1727 1715 1708 1694 1671 1660 1653 1653 1653 1654 1656 1658 1662 1662 1662 1661 1658 1655 1652 1649 1643 1639 1637 1637 1637 1638 1639 1642 1644 1646 1649 1651 1652 1654 1655 1655 1655 1654 1654 1654 1654 1654 1654 1654 1651 0 0 0 0 0 0 1119 1118 1116 1116 1114 1114 1114 1115 1115 1116 1116 1116 1116 1117 1117 1117 1118 1119 1119 1119 1120 1120 1120 1120 1120 1121 1121 1121 1121 1121 1121 1121 1121 1121 1121 1120 1120 1120 1120 1120 1120 1120 1120 1120 1119 1119 1119 1119 1119 1119 1119 1119 1120 1120 1121 1121 1121 1120 1120 1120 1120 1120 1120 1119 1116 1116 1115 1115 1110 1100 1096 1094 1092 1089 1089 1089 1088 1087 1087 1085 1085 1085 1086 1086 1086 1086 1086 1085 1085 1085 1085 1085 1090 1095 1098 1098 1099 1105 1115 1120 1126 1128 1131 1132 1134 1135 1135 1135 1136 1136 1136 1136 1136 1136 1136 1136 1137 1137 1137 1137 1137 1138 1138 1138 1139 1139 1138 1138 1137 1136 1136 1135 1132 1131 1125 1118 1117 1117 1117 1116 1114 1110 1106 1104 1103 1103 1102 1102 1101 1100 1098 1098 1098 1099 1100 1100 1104 1105 1106 1106 1109 1110 1110 1115 1124 1133 1138 1140 1141 1142 1142 1143 1143 1144 1144 1144 1144 1145 1146 1146 1146 1146 1146 1147 1147 1147 1147 1147 1147 1148 1148 1148 1147 1146 1146 1145 1145 1139 1131 1124 1118 1114 1101 1095 1092 1090 1090 1090 1090 1090 1090 1089 1088 1087 1085 1085 1085 1090 1094 1095 1097 1099 1099 1099 1100 1100 1100 1113 1122 1140 1149 1152 1153 1154 1154 1154 1155 1157 1157 1158 1159 1159 1160 1161 1161 1162 1163 1164 1164 1164 1165 1165 1165 1165 1165 1164 1164 1161 1159 1159 1157 1152 1146 1141 1136 1129 1121 1118 1118 1117 1116 1114 1114 1113 1113 1111 1110 1109 1104 1104 1103 1103 1103 1096 1096 1096 1102 1108 1112 1117 1126 1144 1148 1155 1159 1164 1170 1173 1174 1175 1176 1177 1179 1181 1181 1182 1182 1182 1182 1182 1184 1184 1184 1184 1184 1184 1184 1182 1181 1180 1177 1174 1173 1169 1167 1161 1148 1132 1121 1120 1119 1116 1116 1115 1115 1116 1115 1115 1115 1112 1112 1109 1109 1106 1106 1106 1110 1116 1125 1134 1143 1152 1155 1164 1174 1185 1194 1199 1200 1202 1203 1204 1204 1204 1203 1203 1202 1201 1200 1198 1198 1196 1195 1191 1189 1186 1183 1182 1182 1181 1172 1172 1172 1177 1180 1184 1185 1188 1188 1188 1179 1159 1150 1125 1124 1122 1098 1065 1037 0 0 0 0 0 0 0 907 905 897 0 0 0 0 0 0 0 0 0 1055 1084 1095 1095 1095 1085 1062 1030 1004 975 0 0 0 795 787 782 779 775 763 758 756 0 0 0 0 0 0 0 0 0 0 0 0 0
655 655 661 677 686 704 721 737 756 777 799 817 834 850 864 869 885 903 926 950 979 1001 1020 1038 1053 1065 1075 1088 1101 1106 1121 1132 1141 1147 1156 1165 1172 1174 1174 1174 1173 1173 1173 1178 1209 1214 1240 1269 1300 1327 1347 1362 1372 1383 1393 1402 1409 1417 1429 1443 1454 1459 1469 1478 1481 1489 1496 1503 1510 1516 1524 1529 1534 1541 1546 1551 1554 1556 1559 1561 1563 1564 1567 1569 1572 1574 1577 1579 1581 1582 1584 1584 1586 1590 1591 1594 1595 1596 1598 1603 1609 1617 1628 1634 1637 1639 1644 1649 1659 1667 1673 1676 1678 1682 1685 1688 1691 1692 1694 1695 1696 1699 1702 1704 1706 1706 1707 1708 1710 1714 1716 1718 1720 1722 1727 1727 1727 1727 1724 1715 1704 1685 1670 1662 1657 1656 1656 1657 1656 1656 1658 1658 1656 1656 1655 1652 1648 1645 1642 1638 1638 1638 1639 1640 1642 1644 1646 1648 1650 1651 1653 1654 1654 1654 1654 1654 1654 1654 1654 1654 1653 1651 0 0 0 0 0 0 1119 1116 1115 1115 1114 1114 1114 1114 1114 1114 1115 1115 1116 1116 1117 1117 1117 1117 1118 1118 1119 1119 1119 1119 1119 1119 1119 1120 1120 1121 1121 1121 1121 1121 1121 1121 1120 1120 1120 1120 1120 1120 1120 1120 1120 1121 1121 1121 1121 1121 1121 1121 1121 1121 1121 1121 1121 1122 1121 1121 1121 1121 1121 1120 1117 1116 1115 1115 1107 1099 1096 1094 1092 1089 1085 1083 1082 1082 1081 1082 1082 1083 1086 1086 1086 1085 1085 1085 1085 1084 1084 1084 1085 1093 1098 1099 1099 1105 1112 1119 1125 1128 1129 1132 1133 1135 1135 1135 1136 1136 1136 1136 1136 1136 1136 1136 1137 1137 1137 1137 1138 1138 1138 1139 1139 1139 1139 1138 1137 1135 1135 1134 1132 1130 1124 1116 1115 1115 1114 1114 1114 1110 1105 1102 1100 1100 1100 1100 1098 1096 1096 1096 1096 1096 1097 1097 1102 1102 1102 1103 1104 1105 1110 1115 1121 1132 1138 1140 1141 1142 1142 1143 1144 1145 1145 1145 1145 1146 1146 1146 1146 1147 1147 1147 1147 1148 1148 1148 1148 1148 1148 1148 1147 1146 1146 1146 1145 1139 1131 1124 1112 1111 1100 1093 1087 1087 1087 1088 1088 1088 1087 1086 1085 1084 1084 1084 1084 1089 1092 1094 1097 1099 1101 1101 1101 1102 1104 1113 1121 1136 1146 1152 1153 1154 1154 1155 1156 1157 1159 1160 1160 1161 1163 1164 1164 1164 1165 1165 1166 1166 1166 1166 1166 1165 1165 1164 1163 1160 1159 1157 1154 1150 1145 1138 1133 1127 1120 1117 1116 1114 1113 1110 1108 1107 1106 1104 1102 1102 1100 1097 1095 1093 1092 1092 1092 1096 1101 1107 1111 1116 1125 1144 1146 1154 1158 1163 1170 1175 1176 1176 1177 1178 1180 1181 1182 1183 1183 1183 1183 1184 1184 1184 1184 1184 1184 1184 1184 1182 1181 1179 1176 1174 1173 1167 1162 1160 1146 1128 1119 1119 1116 1112 1112 1112 1112 1113 1113 1113 1113 1111 1109 1109 1109 1106 1106 1106 1109 1116 1124 1132 1137 1137 1144 1157 1172 1184 1193 1196 1199 1200 1202 1202 1202 1203 1202 1202 1201 1200 1199 1198 1196 1196 1194 1191 1190 1188 1186 1186 1186 1183 1183 1179 1179 1178 1179 1182 1185 1188 1188 1188 1179 1166 1150 1127 1125 1114 1095 1065 1037 1014 0 0 0 0 0 889 888 884 883 864 0 0 0 0 0 0 1056 1060 1082 1106 1106 1106 1105 1089 1062 1026 997 0 0 0 0 0 790 778 770 0 0 0 0 0 0 0 0 0 0 0 0 0 0 0 0 0
647 647 658 664 680 699 716 737 756 777 799 817 834 850 864 869 885 903 926 950 980 1006 1024 1040 1053 1065 1075 1088 1103 1107 1123 1133 1142 1147 1156 1165 1172 1175 1175 1175 1173 1173 1173 1190 1212 1215 1242 1271 1303 1330 1352 1366 1379 1388 1395 1402 1410 1420 1433 1445 1455 1462 1470 1478 1483 1489 1496 1504 1510 1517 1526 1532 1537 1544 1550 1555 1560 1564 1567 1571 1572 1572 1572 1574 1577 1577 1579 1580 1582 1582 1584 1584 1586 1589 1591 1592 1594 1596 1598 1602 1608 1617 1623 1628 1632 1636 1640 1646 1656 1667 1673 1676 1678 1681 1685 1688 1691 1692 1694 1695 1696 1699 1702 1704 1706 1708 1708 1709 1712 1714 1716 1718 1720 1722 1727 1728 1728 1728 1725 1717 1712 1702 1684 1671 1664 1662 1661 1659 1658 1658 1658 1658 1656 1656 1654 1651 1647 1645 1642 1639 1639 1639 1639 1640 1642 1644 1646 1648 1649 1650 1652 1653 1653 1653 1653 1653 1654 1654 1654 1654 1652 1650 0 0 0 0 0 0 1118 1117 1115 1114 1114 1114 1114 1114 1114 1114 1114 1114 1114 1115 1116 1116 1116 1116 1117 1117 1118 1118 1118 1118 1118 1118 1118 1119 1120 1120 1121 1121 1121 1121 1121 1121 1121 1120 1121 1121 1121 1121 1121 1121 1121 1121 1121 1121 1121 1122 1122 1122 1122 1122 1122 1122 1122 1122 1122 1122 1121 1121 1121 1120 1119 1116 1115 1112 1106 1099 1095 1092 1090 1086 1082 1078 1076 1076 1076 1077 1078 1081 1085 1085 1085 1085 1085 1085 1085 1083 1083 1083 1085 1092 1097 1098 1099 1105 1112 1119 1124 1128 1129 1132 1133 1135 1135 1136 1136 1137 1137 1137 1136 1136 1136 1136 1137 1137 1137 1137 1138 1138 1138 1139 1139 1139 1139 1138 1137 1135 1135 1134 1132 1130 1123 1115 1113 1113 1112 1112 1112 1109 1102 1099 1096 1096 1096 1095 1094 1094 1094 1094 1094 1094 1094 1096 1098 1099 1099 1100 1102 1105 1109 1114 1121 1131 1136 1139 1140 1142 1142 1144 1144 1145 1145 1146 1146 1147 1147 1147 1148 1148 1148 1148 1148 1148 1148 1148 1149 1149 1149 1148 1147 1146 1146 1146 1145 1139 1131 1123 1109 1107 1097 1092 1086 1086 1086 1087 1087 1087 1086 1085 1084 1082 1082 1082 1084 1087 1088 1088 1091 1095 1101 1101 1101 1102 1104 1107 1121 1136 1145 1151 1153 1153 1154 1155 1156 1159 1159 1161 1161 1162 1163 1164 1164 1165 1165 1166 1166 1166 1166 1166 1166 1165 1165 1164 1162 1160 1159 1157 1154 1150 1144 1139 1131 1127 1119 1116 1115 1111 1110 1106 1103 1103 1100 1100 1100 1097 1097 1090 1082 1082 1082 1088 1092 1096 1100 1107 1110 1115 1122 1133 1139 1148 1158 1166 1171 1175 1176 1177 1178 1179 1180 1181 1183 1183 1183 1183 1183 1184 1184 1184 1184 1184 1184 1183 1183 1182 1180 1179 1176 1173 1172 1167 1162 1155 1145 1132 1119 1119 1111 1108 1106 1106 1106 1108 1108 1108 1109 1109 1109 1109 1109 1106 1106 1106 1109 1116 1123 1131 1136 1136 1144 1154 1171 1179 1191 1196 1198 1198 1199 1201 1201 1201 1201 1201 1201 1199 1197 1197 1195 1194 1194 1191 1190 1189 1188 1186 1186 1186 1186 1186 1186 1184 1184 1184 1188 1188 1188 1188 1179 1168 1153 1127 1125 1114 1098 1074 1058 1032 0 0 0 0 0 857 857 857 858 860 0 0 0 0 0 1071 1084 1084 1084 1108 1123 1123 1123 1091 1062 0 0 0 0 0 0 0 0 0 0 0 0 0 0 0 0 0 0 0 0 0 0 0 0 0 0 0
632 632 657 658 676 695 715 738 758 777 796 814 834 853 870 874 894 913 935 958 984 1007 1029 1044 1056 1065 1075 1088 1103 1108 1124 1135 1142 1149 1156 1165 1174 1181 1181 1181 1181 1181 1181 1190 1215 1218 1243 1277 1310 1332 1353 1371 1383 1392 1396 1402 1410 1421 1435 1448 1460 1469 1475 1480 1484 1489 1496 1504 1510 1518 1527 1534 1540 1545 1553 1560 1564 1569 1573 1576 1577 1579 1582 1585 1585 1585 1584 1584 1584 1584 1584 1584 1586 1589 1591 1592 1594 1596 1598 1602 1606 1611 1615 1619 1624 1631 1635 1639 1647 1659 1667 1673 1675 1679 1683 1687 1690 1692 1693 1694 1695 1699 1701 1704 1706 1708 1709 1711 1713 1714 1716 1718 1720 1722 1726 1728 1728 1728 1725 1723 1721 1712 1701 1687 1677 1669 1668 1666 1661 1658 1658 1658 1656 1656 1654 1652 1648 1645 1643 1640 1640 1640 1640 1640 1642 1645 1646 1648 1649 1650 1650 1652 1652 1652 1652 1652 1654 1654 1654 1654 1652 1650 0 0 0 0 0 0 1124 1118 1115 1114 1114 1114 1114 1113 1113 1113 1113 1113 1114 1114 1115 1115 1115 1116 1116 1116 1117 1117 1117 1117 1117 1117 1118 1118 1119 1119 1119 1120 1120 1120 1121 1121 1121 1120 1121 1121 1121 1121 1121 1121 1121 1121 1121 1121 1122 1122 1122 1122 1122 1122 1122 1122 1122 1122 1122 1122 1122 1122 1121 1120 1119 1116 1115 1112 1105 1099 1092 1088 1085 1083 1081 1076 1072 1072 1072 1073 1075 1078 1083 1084 1085 1085 1084 1084 1084 1083 1083 1083 1084 1092 1097 1098 1099 1104 1111 1116 1124 1127 1129 1132 1133 1134 1135 1136 1136 1137 1137 1137 1136 1136 1136 1136 1137 1137 1137 1137 1138 1138 1138 1139 1139 1139 1138 1137 1136 1135 1133 1133 1132 1128 1122 1114 1110 1110 1109 1109 1109 1105 1100 1096 1094 1094 1093 1092 1092 1092 1091 1091 1091 1091 1093 1093 1095 1095 1097 1098 1099 1100 1108 1113 1120 1126 1132 1137 1139 1141 1142 1144 1144 1145 1146 1147 1147 1147 1147 1148 1148 1148 1149 1149 1149 1149 1149 1149 1149 1149 1149 1148 1147 1146 1145 1145 1145 1140 1132 1122 1107 1100 1093 1088 1084 1084 1084 1084 1084 1084 1083 1083 1081 1081 1081 1081 1084 1086 1087 1087 1087 1089 1094 1101 1101 1102 1104 1104 1118 1136 1143 1149 1152 1153 1154 1155 1157 1159 1160 1161 1162 1163 1163 1164 1165 1165 1166 1166 1166 1166 1166 1166 1166 1166 1165 1164 1162 1160 1158 1156 1154 1148 1144 1139 1131 1123 1117 1114 1114 1111 1109 1106 1102 1099 1098 1098 1097 1097 1094 1085 1082 1082 1082 1087 1090 1093 1100 1102 1104 1107 1114 1126 1139 1148 1157 1166 1172 1176 1177 1177 1178 1179 1180 1181 1183 1183 1183 1183 1183 1184 1184 1184 1183 1183 1183 1183 1182 1182 1180 1178 1175 1173 1169 1162 1160 1155 1145 1133 1125 1119 1111 1107 1105 1105 1105 1105 1105 1105 1105 1105 1106 1106 1106 1106 1106 1106 1109 1116 1122 1127 1132 1133 1143 1149 1157 1163 1174 1193 1194 1194 1196 1196 1198 1199 1199 1199 1199 1198 1197 1195 1195 1193 1192 1191 1190 1190 1189 1186 1186 1186 1188 1188 1188 1184 1184 1184 1184 1187 1187 1183 1182 1172 1165 1149 1126 1114 1098 1086 1081 1067 0 0 0 0 0 0 836 836 839 0 0 0 0 0 0 1087 1087 1092 1092 1110 1147 1147 1147 1133 0 0 0 0 0 0 0 0 0 0 0 0 0 0 0 0 0 0 0 0 0 0 0 0 0 0 0 0
626 626 645 646 670 692 714 738 758 777 793 813 834 853 870 877 894 913 935 958 984 1008 1029 1044 1056 1065 1076 1087 1103 1111 1124 1135 1143 1152 1160 1169 1178 1184 1185 1186 1186 1188 1191 1198 1218 1224 1251 1284 1317 1335 1354 1372 1390 1398 1402 1403 1411 1422 1435 1449 1461 1472 1477 1481 1485 1490 1497 1504 1510 1519 1527 1535 1541 1546 1553 1560 1564 1570 1575 1578 1581 1584 1588 1590 1590 1590 1590 1589 1589 1589 1589 1589 1589 1589 1591 1592 1594 1596 1598 1602 1603 1605 1608 1613 1619 1626 1629 1632 1638 1650 1660 1666 1671 1675 1680 1684 1689 1691 1693 1694 1695 1698 1701 1704 1706 1708 1709 1711 1713 1714 1716 1718 1719 1722 1724 1727 1727 1727 1726 1726 1724 1720 1711 1701 1690 1681 1678 1674 1667 1665 1663 1663 1660 1658 1654 1652 1649 1646 1644 1641 1641 1641 1641 1642 1642 1645 1646 1648 1649 1650 1650 1650 1651 1651 1652 1652 1654 1654 1654 1653 1651 1650 0 0 0 0 0 1132 1124 1118 1115 1114 1113 1113 1113 1113 1113 1113 1113 1113 1113 1113 1114 1115 1115 1115 1116 1116 1116 1116 1116 1116 1117 1117 1117 1118 1118 1119 1119 1119 1120 1120 1120 1120 1120 1120 1120 1120 1121 1121 1121 1121 1121 1121 1121 1121 1122 1122 1122 1122 1122 1122 1122 1122 1122 1122 1122 1122 1122 1122 1121 1120 1119 1116 1114 1112 1105 1096 1090 1084 1083 1081 1080 1076 1072 1072 1072 1072 1073 1077 1081 1083 1083 1083 1082 1081 1081 1081 1081 1081 1084 1091 1096 1098 1099 1102 1109 1116 1121 1124 1129 1132 1133 1134 1135 1136 1136 1137 1137 1137 1136 1136 1136 1136 1137 1137 1137 1137 1138 1138 1138 1138 1138 1138 1137 1136 1135 1134 1133 1132 1130 1127 1121 1114 1107 1106 1106 1105 1104 1100 1096 1094 1092 1092 1092 1091 1091 1090 1089 1089 1089 1090 1091 1092 1092 1092 1092 1092 1093 1093 1098 1111 1117 1125 1131 1136 1138 1140 1142 1144 1144 1145 1146 1147 1147 1148 1148 1148 1149 1149 1149 1149 1149 1149 1149 1149 1149 1149 1149 1148 1147 1146 1145 1145 1144 1140 1132 1122 1107 1094 1089 1085 1083 1081 1081 1081 1081 1079 1079 1079 1079 1079 1079 1080 1082 1085 1085 1085 1085 1085 1087 1092 1098 1099 1099 1104 1118 1136 1142 1149 1151 1153 1154 1155 1158 1159 1160 1161 1162 1163 1163 1164 1165 1165 1166 1166 1166 1166 1166 1166 1166 1165 1165 1164 1162 1159 1157 1156 1153 1148 1143 1138 1129 1120 1116 1112 1111 1109 1107 1105 1101 1097 1097 1096 1096 1096 1091 1081 1081 1081 1081 1086 1090 1093 1097 1097 1098 1100 1108 1123 1139 1148 1157 1166 1174 1176 1176 1177 1178 1179 1180 1181 1183 1183 1183 1183 1183 1183 1183 1183 1183 1183 1183 1182 1182 1181 1180 1177 1175 1172 1166 1162 1159 1153 1143 1133 1126 1114 1110 1107 1104 1104 1104 1104 1104 1104 1103 1103 1103 1103 1103 1103 1103 1105 1108 1116 1118 1122 1128 1130 1137 1144 1150 1153 1170 1188 1191 1192 1193 1194 1196 1197 1197 1197 1197 1196 1196 1195 1195 1193 1192 1191 1191 1190 1189 1188 1188 1188 1188 1188 1188 1187 1187 1185 1185 1185 1185 1183 1182 1176 1169 1157 1143 1128 1122 1112 1103 1075 0 0 0 0 0 0 0 0 0 0 0 0 0 0 0 1097 1098 1098 1101 1118 1148 1148 1148 1133 0 0 0 0 0 0 0 0 0 0 0 0 0 0 0 0 0 0 0 0 0 0 0 0 0 0 0 0
626 626 640 641 663 684 711 738 758 776 791 811 831 853 870 878 894 913 935 958 985 1009 1030 1044 1056 1065 1076 1087 1103 1113 1124 1135 1147 1159 1171 1181 1185 1186 1186 1188 1189 1192 1198 1206 1227 1233 1261 1293 1322 1340 1360 1381 1393 1401 1406 1411 1416 1426 1437 1449 1463 1474 1478 1481 1486 1491 1497 1504 1510 1519 1528 1536 1541 1546 1553 1560 1564 1570 1575 1580 1583 1587 1591 1593 1595 1595 1596 1596 1597 1598 1598 1598 1598 1598 1598 1598 1598 1599 1599 1602 1603 1605 1608 1613 1613 1619 1625 1627 1630 1639 1650 1655 1663 1670 1675 1681 1686 1690 1691 1692 1694 1697 1701 1703 1705 1707 1709 1711 1713 1714 1716 1718 1719 1722 1723 1725 1726 1726 1726 1726 1724 1720 1715 1707 1698 1690 1682 1677 1673 1673 1671 1671 1671 1668 1661 1654 1653 1650 1644 1641 1641 1641 1642 1642 1643 1646 1647 1648 1649 1649 1650 1650 1651 1651 1651 1652 1653 1653 1653 1653 1650 1648 0 0 0 0 0 1124 1119 1118 1115 1114 1113 1112 1112 1112 1112 1112 1112 1113 1113 1113 1114 1114 1114 1115 1115 1115 1115 1116 1116 1116 1116 1116 1116 1116 1117 1117 1118 1118 1119 1119 1119 1119 1119 1120 1120 1120 1120 1120 1121 1121 1121 1121 1121 1121 1121 1122 1122 1122 1122 1122 1122 1122 1122 1122 1122 1122 1122 1121 1121 1120 1119 1116 1113 1111 1105 1093 1087 1083 1081 1080 1078 1076 1072 1072 1072 1072 1073 1076 1080 1082 1082 1082 1079 1079 1079 1080 1080 1080 1084 1088 1093 1095 1095 1101 1109 1115 1120 1123 1127 1131 1132 1133 1135 1135 1135 1136 1136 1136 1136 1136 1136 1136 1136 1136 1136 1137 1137 1137 1137 1137 1137 1137 1137 1136 1134 1133 1133 1131 1128 1126 1121 1113 1106 1103 1103 1102 1100 1097 1094 1092 1090 1090 1090 1090 1090 1089 1088 1088 1088 1088 1089 1090 1090 1090 1090 1086 1086 1086 1093 1109 1117 1123 1131 1135 1138 1140 1142 1144 1144 1145 1146 1147 1147 1148 1148 1148 1149 1149 1149 1149 1149 1149 1149 1149 1149 1149 1149 1148 1146 1146 1145 1144 1144 1140 1132 1122 1107 1093 1085 1083 1080 1080 1079 1078 1076 1073 1073 1073 1073 1075 1076 1078 1080 1082 1082 1082 1082 1083 1086 1089 1092 1094 1099 1104 1118 1132 1142 1149 1151 1153 1154 1155 1158 1159 1160 1161 1162 1162 1163 1163 1165 1165 1165 1166 1166 1166 1166 1166 1165 1165 1164 1163 1160 1157 1156 1155 1153 1148 1142 1137 1129 1119 1112 1109 1107 1105 1104 1104 1099 1096 1094 1094 1094 1089 1076 1076 1076 1079 1081 1086 1090 1092 1093 1095 1098 1100 1105 1121 1140 1149 1157 1166 1174 1176 1176 1176 1178 1179 1180 1181 1181 1182 1183 1183 1183 1183 1183 1183 1183 1183 1183 1182 1181 1180 1179 1177 1174 1171 1166 1162 1158 1153 1143 1134 1126 1114 1108 1106 1104 1103 1102 1102 1103 1102 1102 1101 1100 1100 1100 1100 1101 1103 1108 1112 1115 1118 1120 1121 1137 1144 1150 1153 1170 1188 1191 1191 1193 1193 1194 1195 1196 1196 1196 1195 1194 1193 1193 1193 1192 1191 1191 1191 1190 1189 1189 1188 1188 1188 1188 1187 1186 1180 1179 1179 1179 1178 1176 1172 1169 1159 1144 1135 1127 1122 1103 1085 1037 0 0 0 0 0 0 0 0 0 0 0 0 0 0 1097 1098 1098 1101 1118 1148 1148 1148 1133 0 0 0 0 0 0 0 0 0 0 0 0 0 0 0 0 0 0 0 0 0 0 0 0 0 0 0 0
621 621 635 636 656 679 707 733 756 772 784 804 827 849 868 884 893 913 934 960 986 1011 1031 1039 1049 1062 1076 1087 1102 1114 1120 1135 1147 1161 1176 1186 1188 1188 1188 1188 1189 1192 1202 1214 1237 1266 1271 1296 1328 1353 1373 1388 1398 1405 1413 1419 1426 1432 1440 1451 1464 1475 1480 1482 1487 1493 1497 1505 1511 1519 1528 1536 1541 1546 1552 1557 1564 1570 1575 1582 1585 1590 1592 1594 1598 1599 1599 1600 1601 1603 1605 1607 1609 1610 1610 1610 1609 1607 1603 1603 1603 1605 1608 1613 1613 1618 1619 1622 1628 1636 1644 1651 1656 1659 1665 1673 1683 1685 1687 1689 1693 1696 1699 1702 1704 1705 1706 1709 1712 1714 1716 1718 1720 1722 1724 1725 1727 1727 1727 1726 1724 1720 1716 1710 1705 1698 1686 1678 1674 1674 1674 1674 1674 1674 1671 1665 1656 1650 1645 1641 1641 1641 1642 1643 1644 1646 1647 1648 1649 1649 1650 1650 1651 1651 1651 1652 1653 1653 1653 1652 1650 1646 0 0 0 0 0 1122 1118 1116 1115 1114 1112 1112 1111 1111 1111 1111 1111 1111 1112 1112 1113 1113 1113 1114 1114 1114 1115 1115 1115 1115 1115 1115 1115 1116 1116 1116 1117 1118 1118 1118 1119 1119 1119 1119 1119 1119 1119 1119 1119 1120 1120 1120 1120 1121 1121 1121 1121 1121 1121 1122 1122 1122 1122 1122 1122 1122 1122 1121 1120 1120 1119 1115 1112 1109 1103 1092 1087 1082 1081 1078 1077 1075 1074 1073 1073 1073 1073 1075 1079 1080 1080 1080 1078 1078 1078 1079 1079 1080 1081 1082 1086 1089 1093 1100 1108 1113 1117 1121 1125 1130 1132 1133 1134 1134 1135 1135 1135 1135 1135 1135 1135 1135 1136 1136 1136 1136 1137 1137 1137 1137 1137 1137 1136 1135 1133 1132 1131 1129 1126 1123 1119 1111 1106 1103 1100 1099 1096 1094 1092 1091 1088 1088 1088 1088 1088 1088 1087 1087 1087 1087 1088 1088 1088 1088 1086 1084 1084 1084 1091 1107 1116 1123 1130 1134 1137 1140 1140 1142 1143 1145 1146 1147 1147 1148 1148 1148 1149 1149 1149 1149 1149 1149 1149 1149 1149 1149 1148 1147 1146 1145 1144 1144 1142 1140 1132 1120 1107 1092 1083 1080 1078 1077 1076 1074 1072 1070 1070 1070 1071 1073 1074 1076 1078 1080 1080 1080 1081 1082 1085 1088 1091 1094 1098 1107 1118 1133 1141 1147 1150 1151 1151 1154 1158 1159 1160 1161 1162 1162 1162 1163 1164 1164 1165 1165 1165 1165 1165 1165 1164 1164 1163 1162 1159 1156 1154 1152 1150 1146 1140 1134 1127 1119 1111 1109 1107 1105 1102 1101 1098 1093 1091 1090 1088 1080 1072 1072 1072 1079 1081 1083 1086 1088 1091 1095 1097 1100 1105 1121 1140 1149 1155 1166 1174 1175 1175 1176 1176 1178 1179 1180 1181 1181 1182 1182 1182 1182 1182 1182 1182 1182 1182 1181 1180 1179 1176 1174 1172 1170 1165 1162 1157 1151 1143 1135 1126 1114 1103 1103 1103 1102 1100 1100 1100 1100 1100 1099 1097 1097 1097 1097 1099 1102 1104 1109 1112 1114 1120 1121 1133 1140 1150 1153 1162 1185 1190 1190 1191 1191 1193 1195 1195 1195 1194 1194 1193 1193 1193 1193 1192 1191 1191 1191 1191 1190 1189 1189 1189 1188 1188 1187 1186 1180 1180 1180 1179 1178 1176 1172 1169 1163 1147 1142 1134 1123 1109 1094 1074 1048 1036 0 0 0 0 0 0 0 0 0 0 0 0 0 1097 1098 1101 1118 1148 1148 1148 1126 1091 0 0 0 0 0 0 0 0 0 0 0 0 0 0 0 0 0 0 0 0 0 0 0 0 0 0 0
611 611 623 625 644 670 697 727 749 764 777 796 820 845 866 884 892 912 934 959 986 1009 1029 1039 1046 1048 1058 1077 1096 1115 1120 1135 1153 1165 1177 1187 1188 1188 1188 1188 1189 1192 1203 1222 1245 1269 1273 1300 1328 1358 1379 1393 1402 1411 1419 1425 1431 1437 1443 1452 1465 1477 1481 1487 1491 1496 1501 1505 1511 1519 1528 1536 1541 1546 1551 1557 1562 1569 1575 1582 1586 1591 1594 1597 1601 1601 1603 1604 1606 1608 1611 1614 1618 1621 1625 1625 1625 1624 1623 1623 1622 1622 1617 1617 1617 1618 1619 1622 1628 1636 1641 1641 1648 1654 1658 1664 1675 1681 1684 1687 1691 1694 1698 1699 1701 1703 1705 1709 1712 1714 1717 1719 1721 1723 1724 1725 1727 1727 1727 1726 1721 1720 1718 1714 1711 1707 1700 1685 1675 1675 1675 1677 1677 1677 1674 1670 1664 1654 1647 1641 1641 1641 1643 1644 1647 1647 1647 1648 1649 1650 1650 1651 1651 1651 1651 1651 1651 1650 1650 1650 1649 1642 0 0 0 0 0 1118 1116 1114 1114 1114 1112 1110 1110 1110 1110 1110 1110 1111 1111 1112 1112 1112 1112 1113 1113 1113 1113 1113 1114 1114 1114 1114 1114 1114 1116 1116 1116 1116 1116 1117 1117 1118 1118 1118 1119 1119 1119 1118 1119 1119 1119 1119 1120 1120 1120 1120 1121 1121 1121 1121 1121 1121 1121 1121 1121 1121 1120 1120 1120 1120 1118 1114 1110 1107 1102 1092 1087 1082 1080 1077 1075 1074 1074 1074 1074 1074 1075 1075 1077 1079 1079 1079 1078 1077 1077 1077 1077 1078 1078 1080 1081 1085 1091 1098 1104 1110 1116 1121 1125 1129 1130 1132 1133 1134 1134 1134 1134 1135 1135 1135 1135 1135 1135 1135 1135 1135 1136 1136 1136 1136 1136 1135 1135 1134 1133 1131 1129 1127 1123 1120 1116 1111 1106 1101 1098 1096 1095 1093 1091 1089 1087 1085 1085 1085 1085 1085 1085 1085 1085 1087 1087 1087 1087 1085 1084 1084 1084 1084 1087 1103 1115 1121 1130 1134 1137 1139 1140 1142 1143 1145 1145 1147 1147 1147 1147 1148 1148 1148 1148 1148 1148 1148 1148 1148 1148 1148 1147 1146 1145 1145 1144 1143 1142 1139 1126 1113 1103 1088 1081 1077 1075 1075 1074 1073 1071 1069 1069 1069 1070 1071 1073 1073 1076 1077 1078 1079 1080 1082 1085 1088 1090 1094 1098 1107 1117 1127 1141 1147 1150 1150 1151 1153 1157 1159 1160 1160 1162 1162 1162 1163 1164 1164 1164 1165 1165 1165 1165 1164 1164 1163 1162 1161 1159 1156 1154 1150 1145 1144 1139 1134 1127 1116 1110 1108 1106 1105 1102 1098 1096 1092 1089 1087 1086 1078 1068 1068 1068 1079 1080 1081 1083 1086 1088 1094 1097 1099 1105 1119 1140 1149 1155 1166 1171 1172 1172 1174 1175 1177 1179 1179 1180 1180 1181 1181 1182 1182 1182 1182 1182 1182 1181 1181 1179 1177 1175 1173 1172 1169 1165 1162 1156 1153 1145 1137 1125 1109 1102 1101 1100 1099 1099 1099 1098 1098 1098 1097 1096 1096 1096 1097 1099 1102 1102 1104 1106 1111 1120 1121 1133 1140 1148 1156 1158 1173 1183 1184 1185 1187 1192 1192 1194 1194 1194 1193 1193 1193 1192 1192 1191 1191 1191 1191 1191 1190 1190 1190 1189 1188 1188 1187 1186 1180 1180 1180 1179 1178 1176 1172 1165 1163 1157 1155 1146 1134 1115 1094 1082 1067 1064 1052 0 0 0 0 0 0 0 0 0 0 0 0 1060 1078 1090 1100 1112 1112 1112 1103 1086 0 0 0 0 0 0 0 0 0 0 0 0 0 0 0 0 0 0 0 0 0 0 0 0 0 0 0
602 602 615 617 640 666 693 720 739 753 770 793 816 839 862 884 887 910 933 958 986 1009 1029 1039 1046 1048 1058 1072 1094 1114 1119 1138 1154 1166 1177 1187 1187 1187 1182 1182 1182 1191 1203 1230 1249 1269 1274 1301 1329 1358 1379 1394 1408 1415 1423 1430 1436 1440 1448 1458 1471 1479 1486 1490 1495 1500 1504 1506 1511 1519 1527 1534 1541 1546 1551 1556 1562 1566 1575 1582 1586 1591 1596 1599 1602 1605 1607 1609 1611 1614 1617 1619 1625 1627 1631 1634 1636 1636 1636 1636 1636 1635 1635 1633 1628 1622 1622 1622 1628 1636 1641 1641 1648 1654 1658 1662 1666 1673 1680 1684 1689 1694 1697 1699 1701 1703 1705 1709 1712 1715 1718 1720 1722 1723 1724 1725 1727 1727 1727 1726 1721 1720 1719 1718 1713 1710 1707 1700 1685 1682 1679 1679 1678 1678 1675 1671 1666 1660 1648 1641 1641 1641 1643 1647 1648 1648 1648 1648 1649 1650 1651 1651 1651 1651 1651 1649 1648 1648 1648 1648 1647 1641 0 0 0 0 0 1116 1115 1112 1112 1112 1110 1108 1108 1108 1108 1109 1109 1109 1110 1111 1111 1111 1111 1112 1112 1112 1112 1112 1112 1113 1113 1113 1113 1113 1114 1114 1115 1115 1115 1115 1116 1116 1117 1117 1117 1118 1118 1118 1118 1118 1118 1118 1119 1119 1119 1120 1120 1120 1120 1120 1120 1120 1120 1120 1120 1120 1119 1119 1119 1118 1117 1113 1109 1105 1099 1091 1087 1081 1078 1076 1075 1075 1075 1075 1075 1073 1073 1073 1075 1077 1077 1077 1077 1076 1076 1076 1077 1077 1077 1077 1080 1083 1089 1093 1103 1110 1115 1120 1124 1127 1129 1131 1132 1132 1133 1133 1133 1133 1134 1134 1134 1134 1134 1134 1134 1134 1134 1134 1135 1135 1134 1134 1134 1132 1132 1130 1128 1126 1123 1120 1115 1110 1101 1098 1097 1095 1095 1092 1090 1087 1084 1082 1082 1082 1083 1083 1083 1084 1085 1085 1085 1085 1084 1084 1084 1082 1084 1084 1087 1099 1113 1120 1130 1134 1137 1138 1139 1141 1143 1144 1145 1146 1146 1146 1147 1147 1147 1147 1148 1147 1147 1147 1147 1147 1147 1147 1146 1146 1144 1143 1143 1142 1142 1138 1125 1113 1101 1083 1076 1073 1073 1073 1073 1071 1071 1069 1069 1069 1070 1071 1071 1072 1073 1073 1075 1076 1076 1079 1083 1086 1090 1092 1098 1107 1116 1126 1137 1147 1149 1149 1151 1153 1156 1157 1159 1159 1160 1161 1161 1162 1163 1163 1163 1164 1164 1164 1163 1163 1162 1161 1161 1159 1158 1156 1154 1149 1144 1142 1137 1131 1126 1116 1109 1107 1105 1103 1100 1095 1091 1090 1088 1087 1083 1078 1068 1068 1068 1077 1079 1079 1079 1082 1086 1091 1097 1099 1105 1118 1128 1134 1147 1162 1168 1169 1170 1174 1175 1176 1177 1178 1179 1180 1180 1181 1181 1182 1182 1182 1181 1181 1180 1180 1178 1176 1174 1172 1170 1168 1164 1160 1155 1150 1145 1137 1124 1107 1102 1099 1099 1098 1098 1098 1098 1098 1097 1096 1096 1096 1096 1097 1099 1101 1101 1102 1106 1111 1119 1123 1133 1140 1148 1156 1158 1164 1171 1177 1182 1185 1189 1190 1191 1192 1192 1192 1192 1192 1192 1192 1191 1191 1191 1191 1190 1190 1190 1190 1189 1189 1189 1188 1188 1186 1180 1179 1178 1174 1172 1169 1166 1165 1163 1158 1157 1137 1115 1095 1085 1081 1079 1079 1074 0 0 0 0 0 0 0 0 0 0 0 1042 1067 1080 1091 1097 1097 1097 1086 1076 0 0 0 0 0 0 0 0 0 0 0 0 0 0 0 0 0 0 0 0 0 0 0 0 0 0 0
595 595 606 607 0 0 0 716 731 743 762 786 812 835 854 878 882 906 931 958 986 1009 1027 1037 1038 1046 1057 1072 1093 1113 1118 1138 1154 1166 1177 1187 1187 1187 1182 1182 1182 1191 1207 1237 1257 1275 1279 1301 1329 1358 1379 1394 1408 1416 1427 1434 1439 1445 1453 1464 1475 1482 1488 1494 1500 1504 1507 1510 1513 1520 1527 1534 1540 1544 1551 1556 1561 1566 1574 1581 1586 1591 1597 1600 1604 1606 1610 1612 1615 1617 1620 1624 1626 1629 1634 1638 1641 1643 1646 1646 1648 1649 1651 1651 1651 1644 1642 1641 1641 1641 1641 1641 1648 1654 1658 1662 1664 1669 1674 1680 1686 1692 1697 1699 1701 1703 1705 1709 1712 1716 1720 1722 1725 1725 1725 1727 1732 1732 1732 1728 1721 1721 1720 1718 1713 1710 1707 1700 1700 1691 1685 1680 1679 1678 1675 1672 1667 1662 1652 1643 1643 1643 1643 1648 1651 1651 1652 1652 1652 1652 1652 1652 1652 1651 1651 1647 1647 1646 1645 1645 1643 1635 0 0 0 0 0 1111 1111 1109 1109 1108 1108 1107 1107 1107 1107 1108 1109 1109 1109 1109 1110 1110 1110 1111 1111 1111 1111 1112 1112 1112 1112 1112 1112 1113 1113 1113 1113 1113 1113 1114 1115 1115 1115 1116 1116 1116 1117 1117 1117 1117 1117 1117 1118 1118 1118 1119 1119 1119 1119 1119 1119 1119 1119 1119 1119 1118 1118 1117 1117 1117 1115 1111 1108 1103 1097 1091 1084 1079 1077 1076 1076 1076 1075 1075 1075 1072 1072 1072 1072 1074 1076 1076 1076 1075 1075 1075 1076 1076 1077 1077 1080 1083 1086 1087 1101 1110 1115 1120 1124 1127 1129 1130 1131 1132 1132 1132 1133 1133 1133 1133 1133 1133 1133 1133 1133 1133 1133 1134 1134 1133 1133 1133 1132 1131 1131 1129 1127 1125 1123 1120 1115 1108 1099 1096 1094 1094 1094 1092 1089 1086 1083 1081 1080 1079 1079 1079 1079 1079 1082 1082 1082 1082 1082 1082 1083 1083 1083 1083 1087 1092 1100 1115 1130 1134 1135 1137 1138 1141 1142 1143 1144 1145 1146 1146 1146 1147 1147 1147 1147 1147 1147 1146 1146 1146 1146 1146 1146 1145 1143 1142 1141 1140 1139 1133 1123 1111 1099 1082 1071 1071 1071 1071 1071 1070 1069 1069 1069 1069 1069 1070 1071 1071 1071 1072 1072 1072 1073 1075 1078 1082 1084 1087 1092 1106 1113 1125 1136 1143 1146 1147 1149 1152 1154 1156 1157 1159 1160 1160 1161 1161 1162 1162 1162 1163 1162 1162 1162 1162 1161 1160 1159 1158 1157 1154 1152 1148 1143 1139 1136 1129 1122 1114 1108 1106 1103 1098 1094 1090 1088 1087 1086 1083 1082 1077 1069 1069 1069 1077 1077 1078 1079 1079 1084 1090 1092 1099 1105 1115 1125 1133 1145 1159 1167 1168 1168 1172 1173 1174 1175 1176 1177 1179 1179 1180 1181 1181 1181 1181 1180 1180 1180 1177 1177 1175 1173 1171 1170 1168 1164 1158 1155 1150 1145 1137 1123 1107 1102 1099 1098 1097 1097 1097 1097 1096 1096 1095 1095 1095 1095 1097 1098 1100 1101 1101 1104 1111 1119 1123 1133 1136 1145 1155 1156 1164 1171 1176 1182 1184 1186 1189 1190 1191 1192 1192 1192 1191 1191 1191 1191 1191 1191 1191 1190 1190 1190 1190 1189 1189 1189 1188 1188 1186 1182 1181 1178 1172 1170 1169 1163 1163 1163 1163 1159 1146 1125 1115 1101 1097 1088 1086 1083 1083 0 0 0 0 0 0 0 0 0 0 1042 1062 1075 1079 1082 1082 1082 1074 1045 1013 0 0 0 0 0 0 0 0 0 0 0 0 0 0 0 0 0 0 0 0 0 0 0 0 0 0
583 583 590 591 0 0 0 706 718 728 749 774 801 825 844 866 869 895 923 951 975 995 1014 1034 1038 1046 1055 1072 1089 1110 1114 1138 1154 1166 1176 1185 1185 1185 1182 1182 1182 1191 1215 1242 1264 1281 1286 1304 1329 1355 1375 1394 1408 1416 1427 1438 1442 1450 1458 1468 1476 1485 1492 1498 1504 1507 1509 1512 1517 1523 1527 1534 1540 1544 1551 1556 1561 1566 1573 1579 1585 1591 1597 1602 1605 1608 1611 1614 1616 1618 1621 1625 1627 1631 1635 1639 1643 1646 1648 1652 1657 1659 1663 1663 1663 1663 1661 1658 1654 1651 1651 1651 1653 1656 1658 1662 1664 1667 1674 1678 1684 1691 1697 1700 1704 1706 1709 1711 1714 1718 1722 1726 1728 1728 1730 1734 1737 1737 1737 1731 1722 1722 1720 1719 1713 1710 1707 1700 1700 1696 1695 1691 1683 1680 1677 1675 1671 1664 1659 1654 1648 1648 1648 1650 1651 1655 1656 1656 1656 1655 1654 1653 1652 1651 1649 1647 1646 1644 1641 1640 1638 0 0 0 0 0 0 1111 1108 1108 1108 1108 1107 1107 1107 1107 1107 1107 1108 1108 1108 1108 1109 1109 1109 1110 1110 1110 1110 1110 1111 1111 1111 1111 1111 1112 1112 1112 1112 1112 1113 1113 1114 1114 1114 1114 1115 1115 1115 1115 1116 1116 1116 1116 1116 1116 1117 1117 1118 1118 1118 1119 1119 1118 1118 1118 1118 1117 1117 1117 1116 1115 1113 1109 1107 1101 1097 1088 1082 1078 1076 1074 1074 1074 1075 1075 1075 1072 1072 1072 1072 1072 1073 1074 1074 1074 1074 1074 1075 1075 1077 1077 1080 1083 1086 1087 1100 1109 1114 1119 1124 1127 1128 1129 1129 1131 1131 1132 1132 1132 1132 1132 1132 1132 1132 1132 1133 1133 1133 1133 1132 1132 1132 1132 1131 1130 1129 1127 1126 1125 1122 1117 1113 1106 1099 1096 1094 1093 1092 1092 1089 1086 1083 1079 1076 1075 1075 1075 1075 1077 1080 1080 1080 1080 1080 1080 1081 1082 1083 1086 1087 1092 1100 1115 1128 1134 1134 1136 1138 1139 1141 1142 1143 1144 1145 1145 1145 1146 1146 1146 1146 1146 1146 1146 1146 1146 1146 1145 1144 1143 1142 1141 1141 1140 1139 1133 1123 1111 1099 1082 1071 1068 1068 1068 1068 1068 1069 1069 1069 1069 1069 1070 1070 1070 1070 1070 1070 1070 1072 1073 1074 1075 1080 1082 1087 1095 1108 1124 1131 1138 1143 1147 1149 1150 1153 1155 1156 1157 1158 1159 1159 1160 1161 1161 1161 1161 1161 1161 1161 1161 1160 1159 1159 1157 1156 1154 1151 1148 1142 1137 1134 1127 1117 1107 1103 1098 1095 1088 1086 1085 1085 1083 1082 1081 1080 1077 1071 1071 1071 1076 1076 1078 1079 1079 1084 1087 1090 1097 1101 1108 1120 1130 1144 1156 1161 1165 1168 1169 1171 1172 1174 1175 1177 1177 1178 1179 1179 1180 1180 1179 1179 1179 1178 1176 1175 1173 1172 1169 1168 1167 1164 1158 1152 1149 1145 1137 1122 1109 1102 1098 1097 1097 1096 1096 1096 1096 1096 1095 1094 1094 1094 1095 1097 1098 1099 1099 1102 1109 1119 1123 1132 1135 1141 1150 1155 1164 1168 1176 1181 1184 1186 1187 1188 1189 1190 1190 1191 1191 1191 1191 1191 1191 1191 1191 1190 1190 1190 1190 1190 1189 1189 1189 1188 1186 1186 1184 1179 1172 1170 1169 1163 1163 1163 1161 1159 1151 1143 1125 1120 1109 1100 1095 1092 1083 0 0 0 0 0 0 0 0 0 0 1042 1061 1069 1070 1070 1070 1070 1065 1036 1004 0 0 0 0 0 0 0 0 0 0 0 0 0 0 0 0 0 0 0 0 0 0 0 0 0 0
565 565 578 579 0 0 0 691 699 711 730 756 0 0 0 0 0 0 0 0 0 974 998 1020 1036 1046 1055 1067 1079 1098 1101 1127 1147 1160 1170 1178 1186 1186 1186 1186 1186 1199 1220 1245 1270 1288 1294 1310 1331 1355 1373 1393 1406 1416 1427 1438 1446 1453 1462 1471 1478 1485 1493 1500 1505 1509 1511 1516 1521 1526 1530 1534 1540 1544 1551 1556 1561 1566 1573 1579 1585 1592 1597 1602 1605 1609 1613 1616 1618 1621 1623 1626 1630 1633 1635 1639 1643 1647 1650 1654 1657 1661 1665 1666 1669 1669 1671 1671 1671 1671 1667 1667 1667 1666 1666 1667 1667 1667 1673 1677 1683 1691 1697 1700 1704 1707 1710 1713 1717 1719 1723 1727 1730 1733 1736 1741 1741 1741 1741 1737 1728 1724 1723 1719 1713 1707 1701 1700 1700 1697 1697 1696 1695 1694 1690 1686 1679 1673 1668 1662 1659 1651 1651 1651 1651 1655 1657 1657 1657 1657 1655 1654 1653 1651 1649 1647 1646 1643 1640 1637 1631 0 0 0 0 0 0 1111 1108 1108 1108 1107 1107 1106 1106 1106 1106 1106 1106 1107 1107 1107 1107 1108 1108 1109 1109 1109 1109 1110 1110 1110 1110 1110 1111 1111 1111 1111 1111 1111 1111 1111 1112 1112 1112 1113 1113 1114 1114 1114 1114 1114 1114 1115 1115 1115 1115 1116 1116 1116 1117 1117 1117 1117 1117 1117 1117 1116 1116 1115 1115 1114 1113 1109 1104 1098 1095 1087 1082 1077 1073 1073 1073 1073 1075 1075 1075 1071 1071 1071 1071 1072 1072 1073 1073 1073 1074 1074 1074 1075 1077 1079 1081 1084 1086 1087 1100 1108 1114 1118 1122 1126 1127 1129 1129 1130 1130 1130 1131 1131 1131 1131 1131 1131 1131 1131 1132 1132 1132 1132 1131 1131 1130 1130 1129 1128 1127 1126 1125 1124 1121 1116 1112 1106 1099 1096 1094 1093 1092 1091 1088 1085 1082 1079 1076 1075 1074 1074 1074 1076 1079 1079 1079 1079 1079 1079 1079 1080 1082 1086 1089 1092 1100 1114 1126 1132 1133 1134 1136 1139 1139 1141 1142 1143 1143 1143 1144 1145 1145 1145 1145 1145 1145 1145 1144 1144 1144 1143 1143 1142 1141 1140 1140 1140 1138 1133 1123 1113 1101 1083 1071 1068 1068 1068 1068 1068 1068 1068 1068 1069 1069 1069 1069 1069 1069 1069 1070 1070 1072 1073 1074 1075 1078 1082 1087 1095 1108 1124 1130 1136 1142 1146 1148 1150 1151 1153 1155 1156 1157 1158 1159 1159 1159 1160 1160 1160 1160 1160 1160 1160 1159 1158 1158 1157 1154 1153 1151 1147 1142 1137 1134 1126 1114 1104 1101 1097 1091 1086 1086 1085 1085 1083 1082 1081 1079 1076 1071 1071 1071 1074 1076 1078 1079 1079 1084 1087 1089 1091 1096 1105 1112 1129 1143 1154 1159 1162 1165 1168 1170 1170 1172 1174 1175 1176 1178 1178 1178 1178 1178 1178 1178 1177 1176 1175 1174 1172 1171 1169 1166 1165 1161 1156 1147 1143 1140 1134 1121 1109 1102 1098 1097 1097 1096 1096 1096 1096 1096 1095 1092 1092 1092 1093 1094 1094 1096 1098 1102 1109 1112 1118 1128 1134 1141 1148 1155 1164 1167 1176 1180 1183 1184 1187 1187 1188 1189 1190 1190 1191 1191 1191 1191 1191 1191 1191 1190 1190 1190 1190 1190 1189 1189 1189 1188 1187 1186 1186 1182 1178 1170 1170 1164 1163 1162 1161 1159 1152 1144 1133 1123 1111 1109 1100 1093 1080 1069 0 0 0 0 0 0 0 0 0 1042 1059 1061 1063 1067 1067 1067 1062 1032 1004 987 0 0 0 0 0 0 0 0 0 669 667 649 642 0 0 0 0 0 0 0 0 0 0 0 0
552 552 562 563 0 0 0 671 681 692 711 732 0 0 0 0 0 0 0 0 0 0 978 1001 1017 1033 1046 1054 1064 1084 1087 1113 1136 1149 1159 1170 1182 1186 1188 1189 1190 1199 1222 1254 1274 1294 1299 1318 1337 1355 1373 1387 1402 1415 1425 1438 1448 1456 1463 1472 1479 1486 1494 1500 1506 1509 1514 1520 1525 1529 1534 1538 1543 1547 1552 1556 1561 1566 1573 1579 1585 1592 1597 1602 1605 1609 1613 1618 1621 1623 1626 1628 1631 1634 1636 1640 1644 1647 1650 1654 1658 1661 1665 1667 1669 1670 1673 1676 1679 1682 1682 1683 1683 1682 1679 1673 1673 1673 1673 1677 1683 1690 1697 1700 1704 1707 1710 1714 1718 1722 1726 1730 1732 1737 1742 1746 1748 1748 1748 1746 1740 1733 1727 1720 1713 1707 1701 1700 1699 1698 1698 1697 1696 1694 1690 1686 1680 1673 1668 1662 1659 1657 1651 1651 1651 1655 1657 1658 1658 1657 1656 1655 1653 1651 1649 1648 1648 1643 1639 1636 1629 0 0 0 0 0 0 1108 1106 1106 1106 1106 1105 1105 1105 1105 1105 1105 1105 1105 1106 1106 1106 1107 1107 1107 1108 1108 1108 1109 1109 1109 1109 1109 1109 1109 1109 1109 1109 1109 1109 1110 1111 1111 1111 1111 1112 1112 1113 1113 1113 1113 1114 1114 1114 1115 1115 1115 1116 1116 1116 1116 1116 1116 1116 1116 1116 1115 1115 1114 1114 1113 1111 1108 1104 1097 1092 1087 1082 1077 1073 1073 1073 1073 1073 1073 1070 1070 1070 1070 1071 1072 1072 1073 1073 1073 1073 1073 1073 1075 1077 1079 1081 1084 1087 1091 1100 1108 1114 1117 1120 1125 1126 1128 1128 1129 1129 1129 1130 1130 1130 1130 1130 1130 1130 1130 1131 1131 1131 1131 1131 1130 1130 1129 1128 1127 1126 1125 1124 1122 1120 1116 1111 1105 1099 1096 1094 1093 1092 1091 1087 1084 1080 1077 1076 1075 1073 1073 1073 1075 1076 1077 1077 1077 1077 1077 1077 1078 1082 1086 1090 1098 1105 1114 1122 1128 1131 1133 1135 1137 1139 1140 1141 1141 1142 1143 1143 1144 1144 1144 1144 1144 1144 1144 1144 1144 1143 1142 1142 1141 1140 1139 1139 1138 1137 1132 1124 1113 1101 1083 1074 1068 1068 1068 1068 1068 1068 1068 1068 1069 1069 1069 1069 1069 1069 1069 1070 1070 1072 1073 1074 1075 1078 1082 1087 1095 1105 1114 1128 1136 1142 1146 1147 1148 1150 1152 1154 1155 1156 1156 1157 1158 1158 1159 1159 1159 1159 1159 1159 1158 1158 1157 1156 1156 1154 1152 1149 1145 1142 1137 1134 1126 1114 1104 1101 1096 1090 1086 1086 1085 1084 1083 1082 1081 1079 1076 1074 1074 1074 1074 1080 1083 1084 1084 1085 1087 1089 1091 1096 1105 1112 1125 1143 1154 1157 1160 1165 1167 1168 1169 1171 1172 1174 1176 1176 1177 1178 1178 1178 1178 1177 1177 1175 1174 1173 1172 1170 1168 1166 1163 1159 1154 1146 1143 1140 1134 1121 1110 1103 1098 1098 1097 1096 1095 1094 1094 1094 1090 1089 1089 1089 1090 1091 1092 1092 1096 1102 1106 1108 1112 1121 1131 1140 1148 1154 1164 1167 1172 1178 1179 1183 1186 1187 1188 1189 1190 1190 1190 1190 1190 1190 1190 1191 1190 1190 1190 1190 1190 1190 1190 1189 1189 1187 1187 1187 1186 1186 1183 1182 1178 1171 1167 1162 1161 1159 1152 1144 1136 1127 1123 1110 1100 1093 1080 1061 1052 0 0 0 0 0 0 0 0 1031 1031 1042 1047 1057 1058 1058 1057 1031 1004 987 0 0 0 0 0 0 745 728 693 670 670 670 672 672 0 0 0 0 649 649 0 0 0 0 0
543 543 555 556 575 0 0 656 669 682 696 712 728 738 748 773 776 0 0 0 0 0 0 0 989 1008 1026 1037 1055 1076 1081 1102 1120 1132 1145 1160 1173 1183 1186 1189 1194 1208 1243 1263 1279 1298 1303 1322 1341 1355 1370 1385 1397 1411 1425 1436 1448 1457 1465 1472 1479 1488 1495 1501 1506 1510 1516 1521 1525 1530 1536 1541 1546 1549 1553 1556 1561 1566 1573 1580 1587 1592 1598 1602 1605 1609 1613 1618 1621 1624 1627 1630 1632 1635 1638 1642 1645 1648 1650 1654 1658 1661 1665 1667 1669 1670 1673 1676 1679 1682 1683 1685 1690 1690 1690 1688 1679 1677 1677 1677 1683 1690 1696 1700 1704 1707 1710 1714 1719 1724 1728 1733 1738 1742 1747 1751 1754 1754 1754 1754 1750 1743 1739 1728 1717 1707 1701 1700 1699 1698 1698 1697 1696 1694 1690 1686 1680 1673 1668 1662 1659 1657 1653 1653 1653 1655 1659 1659 1659 1659 1658 1656 1654 1653 1649 1649 1648 1643 1639 1636 1629 0 0 0 0 0 1117 1109 1106 1106 1106 1105 1104 1104 1104 1104 1104 1104 1104 1104 1104 1105 1105 1106 1106 1106 1107 1107 1108 1108 1108 1108 1108 1108 1108 1108 1108 1108 1108 1108 1109 1109 1109 1109 1110 1110 1111 1111 1111 1111 1112 1112 1113 1113 1113 1113 1114 1114 1114 1114 1114 1115 1115 1115 1115 1115 1115 1114 1114 1113 1112 1112 1109 1108 1102 1096 1091 1087 1082 1077 1073 1073 1073 1073 1073 1073 1070 1070 1070 1070 1071 1071 1072 1073 1073 1073 1073 1073 1073 1075 1076 1079 1081 1084 1087 1093 1098 1106 1112 1116 1120 1123 1124 1126 1127 1127 1127 1129 1129 1129 1129 1129 1129 1129 1129 1129 1129 1129 1129 1129 1129 1129 1129 1128 1128 1126 1125 1124 1122 1121 1119 1115 1111 1105 1099 1097 1095 1094 1092 1090 1087 1083 1080 1077 1076 1074 1073 1073 1073 1073 1075 1075 1075 1076 1076 1076 1077 1078 1078 1085 1090 1098 1106 1115 1122 1128 1131 1132 1134 1135 1137 1139 1140 1140 1141 1142 1142 1143 1143 1143 1143 1143 1143 1142 1142 1142 1142 1141 1141 1140 1139 1138 1137 1136 1135 1132 1124 1112 1096 1082 1074 1070 1069 1068 1068 1068 1068 1068 1068 1068 1068 1069 1069 1068 1069 1069 1070 1072 1073 1074 1074 1075 1077 1082 1089 1099 1105 1114 1128 1137 1142 1146 1147 1148 1150 1151 1152 1154 1155 1155 1156 1157 1157 1157 1158 1158 1158 1158 1158 1157 1156 1156 1156 1154 1154 1151 1147 1145 1141 1138 1134 1125 1114 1104 1100 1092 1087 1086 1086 1085 1083 1083 1082 1081 1079 1076 1074 1074 1074 1074 1080 1083 1084 1085 1086 1087 1089 1091 1096 1105 1111 1120 1127 1138 1153 1160 1163 1163 1167 1168 1169 1170 1173 1174 1175 1176 1176 1176 1176 1176 1176 1176 1175 1174 1172 1171 1169 1167 1165 1161 1156 1151 1146 1143 1139 1132 1121 1110 1104 1098 1098 1097 1096 1095 1094 1091 1091 1087 1086 1086 1086 1089 1090 1091 1092 1096 1100 1105 1105 1109 1114 1127 1137 1144 1151 1160 1166 1170 1177 1179 1183 1185 1187 1187 1189 1189 1190 1190 1190 1190 1190 1190 1190 1190 1190 1190 1190 1190 1190 1190 1189 1189 1187 1187 1187 1186 1186 1183 1182 1181 1178 1172 1166 1162 1159 1153 1147 1138 1129 1126 1114 1100 1093 1083 1067 1052 1032 0 0 960 960 960 0 0 0 1031 1036 1038 1056 1056 1056 1050 1031 1004 987 0 0 0 0 0 750 745 728 693 673 672 672 672 683 683 683 654 654 654 654 654 0 0 0 0
541 541 554 555 569 587 608 638 660 674 686 700 714 725 744 765 769 792 819 838 861 889 921 942 959 979 998 1026 1048 1071 1075 1091 1106 1119 1132 1148 1165 1174 1181 1189 1198 1225 1252 1269 1282 1299 1304 1323 1341 1355 1370 1385 1396 1408 1423 1435 1448 1457 1466 1472 1483 1492 1497 1501 1506 1510 1516 1521 1526 1531 1537 1542 1547 1551 1554 1557 1562 1567 1574 1580 1587 1592 1598 1601 1605 1609 1613 1618 1621 1624 1627 1630 1632 1635 1638 1642 1645 1649 1651 1655 1658 1661 1665 1667 1669 1671 1673 1676 1679 1682 1683 1685 1694 1695 1695 1695 1693 1689 1687 1687 1687 1690 1696 1700 1704 1707 1710 1716 1724 1728 1734 1739 1743 1746 1750 1755 1758 1761 1761 1761 1761 1756 1752 1745 1732 1718 1707 1702 1699 1698 1696 1695 1692 1686 1685 1684 1680 1670 1669 1665 1659 1657 1656 1655 1655 1655 1659 1659 1659 1659 1658 1658 1657 1657 1656 1654 1650 1644 1639 1636 1629 0 0 0 0 0 1111 1109 1107 1106 1105 1104 1104 1104 1103 1103 1103 1103 1103 1103 1103 1104 1104 1104 1105 1106 1106 1106 1106 1106 1107 1107 1107 1107 1107 1107 1107 1107 1107 1108 1108 1108 1108 1108 1109 1109 1110 1110 1110 1111 1111 1112 1112 1112 1112 1112 1113 1113 1113 1113 1113 1114 1114 1114 1114 1114 1114 1113 1113 1112 1111 1109 1108 1104 1102 1096 1091 1086 1082 1077 1075 1073 1073 1073 1073 1073 1070 1070 1070 1070 1071 1071 1071 1072 1072 1072 1073 1073 1073 1075 1076 1077 1080 1084 1089 1093 1098 1106 1111 1115 1118 1121 1123 1123 1125 1126 1126 1127 1127 1127 1128 1128 1128 1128 1128 1128 1128 1128 1128 1128 1128 1128 1128 1128 1126 1125 1124 1124 1122 1121 1119 1115 1111 1105 1099 1097 1095 1094 1092 1090 1087 1083 1079 1077 1075 1074 1073 1072 1072 1072 1073 1073 1073 1075 1076 1076 1077 1078 1078 1079 1090 1098 1108 1115 1122 1128 1130 1131 1132 1133 1136 1137 1138 1139 1140 1140 1140 1140 1141 1142 1142 1142 1142 1141 1141 1140 1140 1140 1140 1138 1138 1136 1134 1134 1133 1131 1124 1112 1096 1082 1074 1071 1070 1070 1068 1068 1068 1068 1068 1068 1068 1069 1069 1069 1069 1069 1071 1072 1074 1074 1074 1075 1077 1083 1090 1099 1105 1110 1126 1136 1141 1144 1146 1148 1149 1150 1152 1153 1154 1154 1155 1156 1156 1156 1156 1156 1156 1156 1156 1156 1156 1155 1155 1154 1152 1150 1147 1144 1140 1138 1133 1125 1116 1104 1101 1089 1087 1086 1086 1085 1083 1083 1083 1081 1080 1077 1077 1073 1073 1073 1079 1083 1084 1086 1087 1090 1093 1096 1102 1107 1111 1120 1127 1138 1153 1159 1159 1161 1165 1167 1168 1170 1171 1172 1173 1174 1175 1175 1175 1175 1175 1175 1175 1174 1171 1170 1167 1165 1164 1160 1155 1150 1145 1142 1139 1132 1121 1110 1106 1101 1100 1100 1100 1095 1094 1091 1090 1087 1084 1084 1084 1087 1088 1090 1092 1096 1100 1105 1105 1109 1114 1126 1135 1143 1149 1159 1161 1169 1177 1179 1183 1184 1186 1187 1188 1188 1189 1189 1190 1190 1190 1190 1190 1190 1190 1190 1190 1190 1190 1190 1189 1188 1187 1187 1187 1186 1186 1183 1182 1181 1178 1173 1167 1164 1161 1157 1151 1140 1129 1129 1118 1105 1095 1087 1067 1059 1037 0 962 960 930 930 930 0 0 0 1025 1025 1048 1048 1048 1048 1028 1004 987 0 0 0 0 750 748 745 728 693 676 674 674 674 683 683 683 676 660 654 654 0 0 0 0 0
541 541 553 555 568 581 594 623 645 665 679 693 709 724 744 765 769 792 817 835 854 872 893 924 945 968 987 1004 1032 1053 1057 1078 1098 1111 1123 1137 1153 1164 1174 1189 1203 1225 1255 1274 1288 1300 1305 1324 1341 1355 1368 1381 1396 1407 1421 1435 1447 1460 1470 1477 1486 1494 1499 1503 1508 1513 1518 1522 1527 1533 1539 1544 1547 1552 1556 1560 1564 1569 1574 1580 1587 1592 1598 1601 1605 1609 1613 1618 1621 1624 1627 1630 1632 1635 1638 1642 1645 1649 1651 1654 1658 1661 1663 1665 1669 1671 1672 1674 1675 1680 1683 1685 1694 1695 1697 1697 1702 1702 1702 1698 1696 1696 1696 1700 1704 1707 1714 1720 1725 1731 1737 1743 1747 1751 1757 1760 1764 1766 1767 1767 1767 1767 1762 1758 1747 1732 1715 1706 1701 1698 1696 1695 1692 1686 1683 1680 1677 1670 1669 1665 1659 1657 1657 1657 1657 1659 1659 1660 1660 1660 1660 1660 1660 1660 1661 1661 1661 1660 1654 1639 1630 0 0 0 0 0 1108 1108 1107 1106 1104 1104 1104 1104 1101 1101 1101 1101 1101 1102 1102 1103 1103 1103 1103 1104 1105 1105 1105 1105 1105 1106 1106 1106 1106 1106 1106 1106 1106 1107 1107 1107 1107 1107 1108 1108 1108 1109 1109 1110 1110 1110 1111 1111 1111 1111 1111 1112 1112 1112 1112 1113 1113 1113 1113 1113 1113 1112 1112 1110 1108 1107 1106 1102 1098 1094 1091 1086 1082 1078 1075 1074 1074 1074 1074 1074 1072 1070 1070 1070 1071 1071 1071 1073 1073 1073 1073 1073 1073 1075 1076 1077 1080 1084 1089 1093 1098 1106 1110 1114 1116 1119 1120 1122 1124 1125 1125 1126 1126 1127 1127 1127 1127 1127 1127 1127 1127 1127 1127 1127 1127 1127 1127 1127 1126 1125 1124 1123 1122 1121 1118 1114 1110 1104 1100 1096 1094 1094 1092 1090 1086 1082 1079 1077 1075 1074 1073 1071 1071 1071 1072 1073 1073 1075 1076 1077 1077 1078 1078 1079 1086 1095 1111 1114 1120 1126 1128 1130 1130 1133 1135 1137 1137 1138 1138 1138 1139 1139 1139 1139 1140 1140 1140 1139 1139 1139 1139 1139 1138 1138 1136 1134 1133 1131 1128 1126 1122 1110 1095 1081 1071 1070 1070 1070 1069 1069 1069 1069 1069 1069 1069 1069 1069 1069 1069 1070 1071 1073 1074 1074 1075 1076 1077 1083 1090 1099 1103 1108 1122 1136 1141 1142 1143 1146 1148 1150 1151 1152 1152 1153 1154 1154 1154 1155 1155 1155 1155 1155 1155 1155 1154 1154 1153 1152 1151 1149 1147 1144 1140 1138 1133 1125 1117 1108 1102 1089 1087 1086 1086 1085 1083 1083 1082 1082 1081 1080 1078 1074 1074 1074 1077 1082 1084 1086 1088 1090 1093 1096 1102 1108 1111 1120 1124 1138 1152 1158 1158 1160 1164 1165 1167 1167 1169 1170 1172 1173 1174 1174 1174 1174 1174 1174 1173 1170 1169 1167 1165 1164 1162 1159 1154 1148 1143 1142 1139 1131 1120 1111 1107 1107 1106 1103 1102 1096 1092 1091 1090 1085 1082 1082 1082 1086 1087 1090 1094 1098 1100 1105 1105 1109 1112 1119 1130 1139 1147 1156 1160 1167 1174 1177 1180 1184 1185 1187 1188 1188 1189 1189 1190 1190 1190 1190 1190 1190 1190 1190 1190 1190 1190 1189 1189 1188 1187 1186 1186 1185 1184 1181 1181 1181 1178 1173 1169 1164 1161 1157 1154 1141 1132 1129 1121 1108 1098 1090 1067 1059 1049 0 955 935 916 916 916 920 0 0 1017 1017 1020 1024 1024 1024 1024 1004 0 0 0 0 0 750 748 745 730 720 706 702 687 687 684 684 684 676 656 654 0 0 0 0 0 0
538 538 550 555 568 580 593 611 632 650 671 687 705 723 744 765 769 792 817 835 854 872 888 909 933 956 979 995 1008 1025 1035 1057 1081 1104 1116 1128 1141 1152 1167 1184 1204 1226 1257 1281 1294 1305 1309 1324 1339 1351 1364 1378 1396 1406 1418 1431 1445 1460 1471 1482 1488 1494 1499 1504 1509 1514 1519 1525 1531 1536 1542 1546 1549 1552 1557 1561 1565 1571 1576 1581 1587 1592 1597 1600 1605 1609 1613 1617 1620 1623 1624 1627 1631 1634 1637 1641 1645 1649 1651 1654 1658 1661 1662 1665 1668 1670 1672 1672 1673 1673 1676 1679 1689 1695 1697 1697 1702 1705 1709 1709 1709 1706 1706 1706 1708 1711 1715 1720 1726 1732 1738 1745 1750 1756 1760 1764 1767 1770 1771 1774 1774 1774 1774 1769 1759 1744 1729 1714 1706 1699 1697 1695 1692 1686 1683 1680 1677 1670 1669 1665 1660 1660 1660 1663 1667 1667 1667 1665 1664 1664 1661 1660 1660 1660 1661 1662 1663 1663 1662 1662 1646 0 0 0 0 0 1107 1107 1104 1104 1103 1102 1102 1102 1100 1100 1100 1100 1100 1101 1101 1101 1102 1102 1103 1103 1103 1104 1104 1104 1105 1105 1105 1105 1105 1105 1106 1106 1105 1105 1105 1105 1106 1106 1107 1107 1107 1107 1108 1109 1109 1110 1110 1110 1110 1110 1110 1110 1110 1111 1111 1112 1112 1112 1112 1112 1111 1111 1110 1109 1108 1105 1105 1102 1098 1093 1091 1087 1082 1078 1075 1074 1074 1074 1074 1074 1073 1070 1070 1070 1071 1071 1071 1073 1073 1073 1073 1073 1073 1075 1076 1077 1080 1084 1089 1094 1098 1104 1108 1111 1115 1117 1120 1121 1122 1123 1123 1125 1125 1125 1126 1126 1126 1126 1126 1126 1126 1126 1126 1126 1126 1126 1126 1126 1125 1124 1123 1121 1121 1121 1118 1113 1109 1104 1100 1096 1093 1090 1088 1087 1084 1082 1079 1077 1075 1074 1073 1071 1071 1071 1072 1073 1073 1075 1078 1078 1078 1079 1079 1079 1086 1094 1111 1113 1119 1125 1127 1128 1130 1132 1134 1135 1135 1136 1136 1137 1137 1138 1138 1138 1138 1138 1138 1138 1138 1138 1138 1137 1136 1136 1135 1134 1132 1129 1126 1123 1119 1107 1093 1079 1071 1070 1068 1068 1069 1069 1069 1070 1070 1070 1070 1070 1070 1071 1071 1071 1071 1073 1074 1074 1075 1076 1077 1082 1090 1097 1102 1108 1122 1130 1139 1141 1142 1144 1148 1148 1150 1150 1151 1152 1152 1153 1153 1153 1153 1154 1154 1154 1154 1154 1154 1153 1152 1152 1150 1148 1146 1144 1140 1137 1133 1127 1118 1113 1104 1089 1086 1085 1083 1083 1083 1083 1083 1083 1083 1082 1081 1075 1075 1075 1077 1080 1084 1086 1088 1090 1093 1096 1102 1108 1113 1120 1124 1138 1152 1153 1156 1159 1163 1165 1165 1165 1168 1169 1171 1172 1173 1173 1173 1173 1172 1172 1171 1169 1167 1165 1164 1162 1161 1158 1154 1148 1143 1139 1136 1131 1121 1113 1108 1107 1106 1104 1102 1096 1091 1091 1087 1080 1079 1079 1079 1083 1086 1090 1094 1100 1105 1107 1108 1109 1111 1115 1128 1138 1144 1154 1160 1162 1167 1176 1180 1183 1185 1186 1187 1187 1188 1188 1189 1189 1189 1189 1189 1189 1189 1189 1189 1189 1189 1188 1188 1187 1187 1186 1185 1184 1183 1181 1180 1178 1177 1173 1169 1164 1162 1157 1154 1149 1143 1137 1124 1108 1098 1095 1072 1059 1049 0 0 935 916 916 916 920 934 0 0 1006 1013 1014 1020 1020 1020 0 0 0 0 0 0 750 748 745 730 720 716 706 704 687 687 686 682 676 654 0 0 0 0 0 0 0
536 536 550 555 565 578 593 609 624 639 662 681 701 723 747 771 775 796 817 833 851 869 888 906 926 949 973 992 1005 1021 1028 1046 1069 1086 1094 1103 1117 1131 1154 1181 1206 1234 1259 1286 1301 1309 1314 1324 1339 1351 1361 1378 1396 1406 1417 1430 1445 1460 1471 1482 1488 1494 1499 1504 1509 1514 1521 1527 1533 1538 1543 1547 1550 1553 1557 1563 1567 1572 1576 1582 1587 1592 1597 1600 1604 1609 1613 1617 1619 1622 1623 1625 1628 1632 1634 1636 1642 1647 1651 1654 1656 1658 1661 1665 1668 1669 1669 1669 1669 1669 1670 1674 1678 1682 1689 1697 1702 1705 1709 1714 1714 1714 1713 1713 1713 1715 1718 1721 1727 1733 1740 1747 1753 1758 1763 1767 1770 1773 1775 1778 1781 1784 1784 1784 1772 1758 1742 1724 1712 1707 1699 1696 1693 1689 1683 1680 1677 1676 1675 1674 1674 1674 1676 1679 1679 1679 1671 1669 1665 1665 1661 1660 1660 1660 1661 1662 1663 1663 1662 1662 1658 0 0 0 0 0 1104 1104 1103 1102 1102 1101 1101 1101 1099 1099 1099 1099 1099 1099 1100 1100 1101 1101 1102 1102 1102 1103 1104 1104 1104 1104 1104 1104 1105 1105 1104 1104 1104 1104 1104 1105 1105 1105 1105 1105 1106 1106 1107 1108 1108 1108 1108 1109 1109 1109 1109 1109 1109 1109 1110 1110 1110 1110 1110 1110 1110 1110 1109 1107 1106 1105 1104 1102 1098 1093 1091 1087 1081 1078 1075 1074 1074 1074 1074 1074 1074 1071 1071 1071 1071 1071 1071 1073 1073 1073 1073 1073 1073 1075 1076 1078 1080 1084 1090 1094 1098 1103 1107 1110 1114 1115 1118 1119 1121 1122 1123 1123 1124 1124 1125 1125 1125 1125 1125 1125 1125 1125 1125 1125 1125 1125 1125 1125 1124 1123 1121 1120 1120 1120 1118 1113 1108 1103 1100 1096 1092 1088 1086 1085 1083 1082 1081 1078 1075 1074 1073 1071 1071 1071 1072 1073 1075 1077 1080 1080 1080 1081 1081 1082 1086 1093 1111 1113 1116 1121 1125 1127 1129 1129 1131 1133 1133 1133 1134 1135 1135 1135 1136 1136 1136 1136 1136 1136 1136 1136 1136 1135 1134 1133 1132 1132 1131 1128 1125 1122 1118 1107 1093 1079 1070 1067 1066 1065 1066 1066 1069 1070 1070 1070 1070 1070 1071 1071 1071 1072 1072 1073 1074 1074 1075 1077 1077 1082 1088 1097 1102 1108 1120 1126 1133 1139 1140 1142 1144 1147 1147 1149 1149 1150 1150 1151 1151 1152 1152 1152 1152 1153 1153 1153 1152 1152 1151 1150 1149 1146 1146 1143 1140 1136 1133 1128 1120 1116 1104 1091 1086 1085 1083 1081 1081 1081 1083 1084 1084 1084 1084 1080 1077 1077 1077 1080 1082 1086 1088 1092 1093 1096 1101 1108 1113 1120 1122 1134 1149 1150 1150 1157 1162 1164 1165 1165 1166 1168 1168 1170 1171 1171 1171 1171 1171 1170 1169 1168 1166 1165 1164 1162 1160 1158 1154 1148 1143 1139 1136 1131 1121 1113 1111 1107 1106 1106 1102 1096 1088 1085 1083 1078 1076 1076 1076 1080 1083 1088 1095 1102 1106 1108 1108 1109 1111 1115 1128 1136 1143 1145 1150 1159 1166 1169 1177 1182 1184 1186 1187 1187 1188 1188 1188 1188 1188 1188 1188 1188 1188 1188 1188 1188 1187 1186 1186 1186 1185 1185 1185 1181 1181 1180 1178 1177 1174 1172 1169 1164 1162 1156 1156 1151 1145 1138 1125 1119 1111 1103 1087 1066 1044 0 0 935 916 916 916 920 934 947 0 0 1005 1006 1008 1008 0 0 0 0 0 0 0 734 730 726 726 720 716 706 704 686 685 682 676 676 0 0 0 0 0 0 0 0
528 528 543 554 560 578 593 608 620 635 652 673 693 722 747 771 778 796 817 833 851 869 888 906 923 942 966 985 1000 1016 1024 1039 1054 1062 1077 1090 1109 1123 1151 1181 1211 1243 1269 1295 1309 1317 1321 1330 1339 1351 1361 1378 1396 1406 1417 1424 1436 1452 1471 1482 1488 1493 1499 1504 1510 1515 1521 1527 1533 1538 1543 1547 1550 1554 1558 1563 1567 1572 1576 1582 1586 1592 1597 1600 1604 1609 1613 1616 1619 1621 1623 1625 1626 1629 1632 1634 1638 1642 1647 1651 1655 1656 1660 1663 1667 1669 1669 1669 1667 1666 1666 1666 1668 1671 1673 1687 1700 1705 1709 1714 1715 1716 1717 1718 1719 1720 1723 1725 1730 1735 1742 1748 1755 1762 1768 1772 1775 1779 1781 1782 1785 1789 1792 1792 1792 1774 1758 1740 1723 1713 1709 1703 1696 1689 1686 1684 1683 1683 1682 1681 1681 1681 1687 1687 1687 1683 1674 1670 1666 1665 1661 1659 1655 1655 1655 1655 1657 1662 1662 1662 1658 0 0 0 0 0 1102 1098 1097 1098 1099 1099 1099 1099 1099 1098 1098 1098 1099 1099 1099 1100 1100 1100 1101 1102 1102 1102 1102 1103 1103 1103 1103 1103 1103 1103 1103 1103 1103 1103 1103 1103 1104 1104 1104 1104 1105 1105 1106 1106 1107 1107 1107 1107 1107 1108 1108 1108 1108 1108 1109 1109 1110 1110 1110 1109 1109 1108 1108 1106 1105 1104 1103 1101 1097 1093 1092 1088 1081 1078 1076 1074 1074 1074 1074 1074 1074 1072 1071 1071 1071 1073 1074 1074 1074 1074 1073 1073 1073 1073 1075 1078 1082 1086 1090 1094 1096 1102 1106 1109 1112 1115 1116 1118 1120 1120 1121 1122 1123 1123 1123 1123 1124 1124 1124 1124 1124 1124 1124 1124 1124 1124 1124 1123 1123 1122 1121 1120 1119 1119 1117 1113 1108 1103 1099 1095 1089 1086 1083 1083 1083 1083 1083 1083 1078 1076 1075 1074 1074 1074 1074 1074 1075 1077 1080 1080 1080 1081 1081 1083 1086 1093 1105 1109 1115 1121 1123 1124 1126 1127 1129 1130 1130 1131 1132 1132 1132 1133 1133 1134 1135 1135 1135 1135 1135 1135 1134 1133 1132 1131 1130 1130 1128 1127 1125 1122 1118 1107 1093 1079 1070 1067 1066 1065 1066 1066 1069 1070 1070 1070 1070 1070 1071 1072 1072 1073 1073 1074 1075 1078 1079 1080 1081 1082 1088 1097 1101 1108 1118 1126 1131 1137 1140 1141 1142 1145 1146 1147 1147 1148 1148 1149 1149 1149 1150 1150 1150 1150 1151 1151 1151 1150 1150 1149 1147 1145 1145 1142 1140 1136 1133 1129 1120 1117 1107 1095 1087 1084 1081 1081 1081 1081 1083 1085 1086 1087 1087 1087 1085 1083 1082 1082 1082 1084 1088 1092 1093 1096 1101 1109 1113 1120 1122 1130 1144 1148 1150 1155 1161 1162 1164 1165 1165 1166 1167 1167 1169 1169 1169 1169 1169 1169 1168 1166 1164 1164 1163 1162 1160 1157 1151 1147 1144 1139 1136 1132 1125 1118 1114 1108 1101 1099 1094 1086 1082 1081 1081 1078 1076 1075 1075 1076 1081 1088 1096 1104 1106 1108 1108 1109 1109 1115 1127 1135 1140 1145 1149 1159 1165 1168 1174 1181 1183 1184 1186 1186 1187 1187 1187 1187 1187 1187 1187 1187 1187 1187 1187 1187 1187 1186 1185 1184 1184 1183 1182 1180 1179 1179 1178 1177 1173 1171 1168 1164 1162 1156 1156 1151 1147 1140 1125 1119 1114 1106 1090 1069 1047 1023 993 967 926 925 921 920 920 920 921 0 0 0 0 0 0 0 0 0 0 0 0 703 699 699 703 704 704 704 704 686 680 679 670 0 0 0 0 0 0 0 0 0
524 524 540 552 555 576 593 607 620 635 651 672 693 719 748 774 780 796 817 833 851 869 888 906 923 942 965 978 992 1004 1021 1024 1036 1050 1064 1082 1104 1123 1151 1181 1227 1265 1285 1306 1318 1325 1330 1336 1343 1352 1361 1378 1397 1410 1417 1424 1436 1449 1462 1474 1486 1493 1499 1504 1511 1517 1521 1528 1533 1538 1543 1547 1551 1555 1560 1563 1567 1572 1576 1582 1586 1592 1597 1600 1604 1609 1613 1616 1618 1620 1622 1624 1625 1626 1629 1632 1635 1637 1643 1647 1651 1654 1656 1661 1665 1668 1668 1668 1666 1665 1665 1665 1665 1665 1666 1672 1686 1695 1706 1714 1715 1716 1717 1718 1722 1726 1729 1731 1734 1738 1743 1752 1760 1768 1775 1776 1779 1782 1787 1791 1795 1802 1808 1808 1808 1800 1787 1772 1756 1735 1718 1715 1707 1696 1690 1690 1690 1689 1689 1688 1688 1688 1697 1697 1697 1691 1681 1671 1666 1665 1661 1657 1653 1649 1649 1649 1649 1653 1658 1658 1658 0 0 0 0 0 1100 1097 1097 1097 1098 1098 1098 1098 1098 1098 1098 1098 1098 1098 1098 1099 1099 1100 1100 1100 1101 1101 1102 1102 1102 1102 1102 1103 1103 1103 1103 1103 1103 1102 1102 1102 1102 1102 1103 1103 1103 1104 1104 1105 1105 1105 1105 1105 1106 1106 1106 1107 1107 1107 1107 1108 1108 1108 1108 1108 1108 1107 1106 1105 1104 1103 1102 1100 1097 1092 1092 1088 1081 1078 1076 1076 1076 1075 1075 1075 1074 1073 1073 1073 1073 1074 1075 1076 1076 1076 1074 1073 1073 1073 1075 1078 1085 1090 1092 1095 1096 1102 1106 1108 1111 1113 1115 1117 1118 1119 1120 1120 1121 1121 1121 1121 1122 1122 1122 1122 1122 1122 1122 1122 1122 1122 1122 1122 1121 1120 1120 1119 1118 1118 1116 1113 1108 1101 1098 1094 1089 1086 1083 1083 1083 1083 1083 1083 1081 1078 1077 1077 1077 1076 1075 1075 1075 1078 1080 1081 1082 1082 1083 1085 1088 1093 1098 1105 1115 1120 1120 1121 1124 1126 1127 1127 1129 1129 1130 1130 1130 1130 1130 1132 1133 1133 1133 1133 1133 1132 1131 1131 1130 1129 1129 1127 1126 1126 1125 1121 1118 1111 1098 1088 1078 1073 1070 1066 1066 1066 1069 1070 1070 1070 1070 1070 1071 1073 1073 1073 1073 1074 1075 1078 1079 1082 1083 1083 1088 1096 1101 1108 1116 1125 1131 1136 1139 1139 1141 1142 1143 1144 1145 1145 1145 1146 1147 1147 1147 1147 1148 1148 1149 1149 1148 1147 1146 1145 1144 1144 1143 1142 1140 1136 1133 1129 1126 1117 1108 1096 1087 1083 1081 1081 1081 1081 1084 1085 1086 1087 1087 1087 1087 1086 1086 1084 1084 1084 1088 1092 1093 1096 1100 1107 1113 1120 1121 1129 1138 1146 1150 1155 1157 1161 1163 1164 1164 1164 1165 1165 1166 1167 1168 1168 1168 1168 1166 1164 1164 1163 1162 1160 1158 1153 1150 1147 1144 1138 1136 1134 1129 1125 1121 1109 1101 1092 1086 1082 1081 1078 1078 1079 1078 1078 1078 1079 1079 1088 1096 1105 1107 1108 1109 1109 1110 1115 1127 1135 1140 1145 1149 1159 1165 1168 1174 1180 1182 1183 1185 1186 1186 1186 1186 1186 1186 1186 1186 1186 1186 1186 1186 1186 1185 1184 1183 1183 1182 1181 1179 1179 1178 1177 1177 1175 1171 1168 1166 1163 1162 1156 1154 1151 1147 1140 1125 1119 1114 1106 1091 1075 1049 1025 1009 987 956 944 939 920 916 916 916 921 936 939 939 0 0 0 0 0 0 0 0 683 678 678 678 699 701 701 699 682 678 0 0 0 0 0 0 0 0 0 0 0
522 522 534 550 553 569 593 608 620 635 650 669 693 719 748 774 788 797 809 820 841 867 888 908 923 942 965 978 992 1004 1021 1024 1036 1050 1064 1082 1104 1123 1151 0 1242 1270 1293 1311 1325 1334 1339 1343 1349 1358 1367 1378 1404 1414 1419 1424 1436 1449 1460 1469 1479 1491 1498 1504 1511 1517 1521 1528 1533 1538 1543 1547 1552 1557 1560 1564 1568 1572 1577 1582 1586 1591 1596 1600 1604 1607 1612 1616 1618 1620 1622 1623 1625 1626 1627 1630 1632 1635 1638 1645 1649 1651 1654 1658 1663 1666 1666 1666 1665 1665 1664 1663 1663 1663 1664 1669 1674 1688 1700 1710 1714 1716 1717 1718 1722 1726 1729 1732 1736 1742 1750 1760 1766 1768 1775 1778 1784 1790 1793 1797 1801 1806 1811 1815 1815 1815 1812 1808 1797 1783 1759 1755 1753 1746 1727 1720 1712 1707 1702 1696 1696 1696 1703 1703 1703 1694 1685 1675 1666 1665 1661 1657 1653 1647 1644 1644 1644 1646 1647 1647 0 0 0 0 0 0 1099 1097 1096 1097 1096 1096 1097 1097 1097 1097 1097 1097 1098 1098 1098 1098 1098 1099 1099 1100 1100 1100 1101 1101 1101 1101 1102 1102 1102 1101 1101 1101 1101 1101 1100 1100 1100 1101 1101 1101 1101 1102 1102 1103 1104 1104 1104 1104 1104 1104 1104 1105 1105 1105 1105 1106 1106 1106 1106 1106 1106 1106 1106 1104 1103 1101 1100 1099 1096 1092 1092 1088 1082 1078 1076 1076 1076 1076 1075 1075 1074 1074 1073 1073 1073 1074 1076 1076 1076 1076 1075 1073 1073 1073 1075 1082 1090 1094 1095 1095 1096 1102 1106 1108 1110 1112 1114 1115 1117 1117 1118 1119 1120 1120 1120 1120 1120 1120 1120 1120 1120 1120 1121 1121 1121 1120 1120 1120 1120 1119 1119 1118 1117 1116 1115 1113 1108 1101 1097 1094 1089 1086 1084 1084 1084 1084 1084 1083 1081 1080 1080 1080 1080 1078 1075 1075 1075 1078 1080 1080 1082 1082 1086 1087 1089 1092 1096 1105 1114 1119 1120 1120 1124 1125 1125 1126 1126 1127 1127 1127 1127 1128 1128 1130 1131 1131 1131 1131 1131 1130 1129 1128 1128 1128 1126 1126 1126 1125 1125 1122 1118 1113 1100 1088 1078 1074 1074 1072 1071 1071 1071 1070 1070 1071 1072 1072 1075 1076 1076 1076 1075 1075 1075 1076 1079 1083 1086 1087 1090 1096 1100 1104 1116 1122 1129 1136 1137 1138 1138 1141 1141 1142 1143 1143 1143 1144 1144 1145 1145 1145 1145 1145 1146 1146 1146 1145 1144 1143 1142 1142 1142 1140 1138 1135 1133 1129 1126 1120 1112 1100 1087 1083 1081 1081 1081 1081 1084 1086 1087 1087 1088 1088 1088 1088 1088 1088 1088 1088 1090 1095 1096 1097 1101 1107 1113 1114 1121 1128 1136 1145 1150 1155 1157 1158 1162 1163 1163 1163 1163 1163 1164 1164 1165 1166 1166 1166 1165 1163 1161 1161 1160 1157 1154 1151 1149 1146 1144 1138 1136 1134 1132 1128 1124 1110 1101 1092 1086 1082 1081 1081 1081 1082 1083 1083 1083 1083 1083 1088 1097 1105 1107 1108 1109 1109 1110 1116 1127 1135 1143 1145 1149 1164 1166 1169 1176 1179 1182 1183 1184 1185 1185 1185 1185 1185 1185 1185 1185 1185 1185 1185 1185 1184 1184 1183 1183 1181 1181 1180 1178 1177 1176 1175 1175 1174 1171 1167 1164 1162 1162 1156 1154 1150 1147 1138 1124 1118 1114 1106 1091 1075 1050 1026 1010 994 979 944 941 916 916 916 916 921 936 939 939 936 0 0 0 0 0 0 0 673 673 673 676 696 696 696 692 666 0 0 0 0 0 0 0 0 0 0 0 0
516 516 531 547 549 569 593 609 620 635 649 669 695 719 748 771 791 797 809 820 841 867 891 914 932 948 965 978 992 1004 1021 1024 1036 1050 1064 1082 1104 1130 1160 0 1243 1273 1293 1314 1336 1343 1347 1351 1358 1367 1378 1398 1412 1421 1426 1432 1439 1449 1460 1468 1478 1489 1498 1504 1511 1517 1521 1527 1532 1538 1543 1547 1552 1557 1561 1564 1568 1573 1577 1582 1586 1590 1595 1599 1603 1607 1610 1614 1617 1619 1622 1623 1624 1625 1626 1628 1630 1632 1635 1640 1646 1651 1652 1656 1661 1662 1663 1663 1663 1663 1663 1663 1663 1663 1663 1666 1672 1680 1693 1704 1708 1710 1714 1716 1722 1726 1729 1732 1736 1742 1750 1760 1766 1768 1775 1778 1784 1790 1793 1797 1804 1808 1811 1815 1815 1815 1815 1811 1809 1806 1797 1793 1791 1787 1772 1754 1742 1730 1716 1711 1709 1709 1708 1708 1704 1697 1689 1680 1670 1665 1661 1657 1653 1645 1639 1636 1636 1633 1633 1633 0 0 0 0 0 0 1106 1099 1095 1095 1096 1096 1096 1096 1096 1096 1096 1096 1097 1097 1097 1098 1098 1098 1099 1099 1099 1099 1100 1100 1100 1100 1100 1100 1100 1100 1100 1099 1099 1098 1098 1098 1098 1099 1099 1100 1100 1100 1100 1101 1101 1102 1102 1102 1102 1102 1103 1103 1103 1104 1105 1105 1105 1105 1105 1105 1105 1105 1105 1103 1102 1100 1100 1099 1096 1092 1091 1088 1082 1080 1078 1077 1077 1076 1075 1075 1075 1075 1074 1075 1075 1075 1077 1077 1077 1077 1076 1076 1076 1076 1081 1086 1090 1094 1095 1095 1097 1102 1105 1108 1109 1110 1112 1114 1115 1115 1116 1116 1118 1118 1118 1118 1118 1118 1118 1119 1119 1119 1119 1118 1118 1118 1118 1118 1117 1117 1117 1116 1116 1115 1115 1112 1108 1101 1097 1094 1092 1090 1087 1085 1085 1084 1084 1084 1083 1081 1080 1080 1080 1078 1075 1075 1075 1078 1080 1080 1082 1084 1087 1089 1089 1092 1095 1102 1112 1119 1119 1120 1123 1124 1124 1124 1125 1125 1125 1125 1125 1125 1126 1129 1130 1130 1130 1129 1128 1128 1127 1125 1125 1125 1125 1124 1124 1124 1123 1122 1118 1113 1100 1089 1079 1075 1075 1074 1074 1072 1072 1071 1071 1071 1072 1073 1077 1080 1080 1080 1078 1076 1076 1076 1079 1083 1087 1089 1090 1096 1099 1103 1116 1122 1129 1130 1131 1133 1137 1138 1139 1140 1140 1140 1141 1142 1142 1142 1142 1142 1142 1142 1143 1143 1143 1142 1142 1141 1140 1140 1140 1139 1137 1132 1130 1128 1128 1122 1113 1101 1089 1084 1084 1084 1085 1085 1087 1088 1088 1088 1088 1090 1090 1090 1091 1091 1092 1094 1094 1097 1097 1098 1103 1107 1113 1114 1122 1129 1136 1145 1150 1155 1156 1157 1159 1160 1160 1160 1160 1161 1161 1163 1164 1164 1164 1164 1164 1162 1161 1160 1158 1154 1152 1149 1147 1146 1143 1137 1136 1134 1134 1132 1124 1115 1101 1092 1086 1083 1083 1083 1103 1106 1106 1106 1097 1088 1088 1088 1102 1111 1114 1114 1117 1118 1118 1118 1127 1139 1147 1149 1154 1165 1170 1176 1177 1179 1182 1182 1183 1183 1184 1184 1184 1184 1184 1184 1184 1184 1184 1184 1183 1182 1182 1181 1181 1180 1180 1178 1178 1176 1173 1173 1172 1171 1170 1167 1164 1162 1161 1156 1153 1147 1138 1129 1123 1118 1114 1106 1092 1077 1056 1026 1016 1000 979 944 941 914 914 914 916 921 936 939 939 936 0 0 0 0 0 0 0 673 669 669 669 696 696 696 692 665 0 0 0 0 0 0 0 0 0 0 0 0
514 514 528 547 549 569 593 607 620 635 649 669 696 723 748 771 793 797 809 820 841 866 891 918 942 962 974 984 994 1007 1021 1025 1039 1054 1067 1091 1116 1143 0 1224 1247 1274 1300 1326 1342 1349 1353 1358 1365 1378 1393 1407 1418 1427 1432 1437 1444 1450 1460 1468 1477 1487 1497 1503 1511 1517 1521 1527 1532 1538 1542 1547 1552 1557 1562 1564 1568 1573 1577 1582 1586 1590 1594 1598 1602 1605 1609 1612 1615 1618 1620 1623 1623 1624 1625 1627 1628 1630 1632 1634 1641 1647 1649 1651 1654 1656 1658 1658 1659 1659 1659 1660 1661 1663 1663 1665 1671 1677 1685 1697 1704 1707 1709 1714 1720 1725 1728 1732 1736 1742 1750 1760 1766 1768 1772 1778 1784 1790 1793 1797 1804 1808 1811 1814 1815 1815 1815 1811 1809 1806 1797 1793 1791 1787 1772 1754 1742 1730 1716 1715 1715 1714 1714 1712 1710 1702 1698 1693 1682 1675 1666 1660 1653 1645 1637 1631 1629 1626 1625 1624 0 0 0 0 0 0 1106 1094 1094 1094 1094 1095 1095 1095 1095 1095 1095 1095 1095 1096 1096 1097 1097 1097 1097 1098 1098 1098 1098 1098 1098 1098 1098 1098 1098 1099 1098 1098 1097 1096 1096 1096 1096 1096 1097 1098 1098 1098 1098 1098 1099 1099 1099 1100 1100 1100 1100 1101 1102 1102 1102 1102 1103 1103 1103 1103 1103 1102 1102 1102 1101 1099 1099 1098 1095 1092 1091 1088 1082 1081 1080 1078 1077 1076 1076 1075 1075 1075 1075 1076 1076 1078 1081 1081 1081 1078 1078 1078 1080 1083 1085 1088 1090 1094 1095 1096 1097 1102 1105 1107 1107 1107 1109 1110 1111 1113 1115 1116 1117 1117 1117 1117 1117 1117 1117 1118 1118 1118 1118 1116 1116 1116 1116 1116 1115 1115 1115 1115 1115 1115 1113 1112 1108 1103 1097 1095 1094 1093 1090 1087 1085 1085 1085 1084 1083 1081 1081 1081 1081 1078 1077 1077 1077 1079 1080 1080 1082 1085 1087 1089 1090 1093 1095 1102 1112 1118 1118 1119 1121 1121 1121 1123 1123 1123 1123 1123 1123 1123 1125 1126 1129 1129 1129 1127 1125 1124 1123 1123 1123 1123 1123 1123 1123 1123 1123 1121 1118 1113 1100 1089 1079 1079 1078 1078 1077 1074 1072 1072 1072 1072 1073 1076 1080 1082 1082 1082 1082 1078 1078 1078 1079 1084 1087 1090 1093 1096 1099 1103 1116 1121 1127 1130 1130 1132 1134 1136 1137 1139 1139 1139 1140 1142 1142 1142 1142 1142 1140 1139 1139 1138 1138 1138 1138 1137 1136 1136 1136 1134 1131 1127 1127 1126 1126 1122 1114 1108 1101 1094 1094 1094 1094 1095 1096 1096 1098 1098 1096 1096 1096 1096 1097 1098 1100 1102 1102 1102 1102 1102 1103 1109 1113 1114 1125 1130 1135 1144 1149 1154 1155 1156 1156 1157 1158 1159 1160 1160 1161 1163 1164 1164 1164 1164 1164 1162 1160 1157 1154 1152 1149 1146 1146 1142 1138 1135 1134 1134 1133 1132 1126 1117 1112 1100 1098 1098 1098 1104 1106 1108 1108 1108 1104 1104 1104 1110 1118 1121 1121 1123 1126 1128 1131 1137 1142 1150 1157 1157 1159 1167 1174 1177 1177 1179 1181 1182 1182 1182 1183 1183 1183 1183 1183 1183 1183 1183 1183 1182 1182 1181 1181 1179 1179 1178 1178 1177 1176 1174 1173 1171 1170 1170 1168 1167 1164 1161 1160 1156 1150 1147 1135 1129 1123 1118 1114 1106 1092 1077 1064 1055 1026 1004 979 956 925 915 915 915 945 945 945 948 945 937 0 0 0 0 0 0 0 0 660 660 660 692 692 692 690 663 632 0 0 0 0 0 0 0 0 0 0 0
514 514 527 545 547 574 597 605 615 633 649 672 696 724 748 771 793 797 809 823 842 866 891 918 942 962 974 984 994 1011 1025 1029 1045 1058 1071 1092 1118 1150 1186 1225 1255 1275 1305 1326 1344 1353 1363 1365 1374 1387 1400 1412 1422 1432 1439 1443 1447 1454 1461 1468 1477 1486 1493 1502 1509 1517 1520 1527 1532 1537 1542 1547 1552 1558 1563 1566 1570 1573 1578 1583 1587 1590 1594 1598 1602 1605 1609 1612 1614 1616 1618 1620 1621 1621 1622 1625 1626 1628 1629 1632 1638 1640 1644 1648 1649 1649 1651 1653 1655 1657 1657 1658 1660 1662 1662 1665 1670 1675 1683 1691 1700 1704 1706 1709 1714 1718 1720 1724 1729 1737 1746 1757 1762 1763 1764 1769 1775 1784 1790 1795 1804 1808 1811 1814 1815 1815 1815 1811 1809 1806 1797 1793 1791 1787 1772 1754 1742 1730 1719 1718 1718 1718 1718 1718 1713 1709 1709 1700 1693 1688 1681 1668 1656 1645 1637 1631 1629 1624 1624 1617 0 0 0 0 0 1121 1106 1094 1092 1092 1092 1093 1093 1094 1094 1094 1094 1094 1094 1095 1095 1095 1096 1096 1097 1097 1097 1097 1098 1097 1097 1097 1097 1097 1097 1097 1096 1096 1095 1095 1095 1095 1095 1095 1094 1094 1094 1094 1095 1096 1097 1097 1097 1096 1096 1096 1097 1097 1097 1098 1098 1098 1098 1098 1100 1100 1100 1100 1100 1099 1098 1098 1098 1097 1094 1092 1091 1091 1089 1087 1085 1084 1084 1084 1080 1079 1079 1079 1080 1080 1081 1086 1086 1086 1085 1085 1085 1085 1088 1088 1088 1089 1092 1095 1096 1096 1097 1099 1102 1106 1106 1107 1107 1109 1110 1111 1111 1112 1113 1114 1114 1114 1114 1114 1114 1114 1114 1114 1114 1113 1113 1113 1113 1114 1114 1114 1114 1115 1115 1114 1113 1112 1108 1104 1104 1101 1099 1097 1096 1094 1090 1089 1087 1085 1085 1085 1085 1085 1085 1084 1083 1083 1083 1083 1085 1086 1086 1086 1088 1091 1093 1095 1095 1102 1112 1116 1117 1117 1117 1117 1118 1119 1120 1121 1121 1122 1122 1122 1122 1123 1123 1123 1123 1121 1121 1121 1120 1120 1120 1121 1122 1122 1122 1122 1122 1120 1117 1112 1100 1092 1090 1090 1090 1090 1088 1088 1084 1084 1084 1086 1087 1087 1087 1087 1087 1089 1089 1089 1089 1089 1089 1093 1096 1096 1097 1099 1099 1103 1119 1121 1124 1129 1130 1131 1131 1132 1134 1136 1136 1136 1137 1137 1137 1138 1138 1138 1138 1136 1136 1136 1136 1136 1135 1133 1133 1133 1131 1128 1125 1125 1125 1125 1125 1122 1118 1116 1108 1105 1105 1105 1107 1109 1111 1111 1114 1114 1114 1109 1108 1108 1108 1110 1111 1111 1111 1112 1112 1112 1114 1125 1129 1132 1135 1135 1135 1144 1148 1151 1151 1152 1153 1155 1156 1158 1159 1159 1160 1161 1161 1161 1161 1161 1161 1161 1158 1154 1150 1149 1148 1145 1142 1138 1135 1134 1134 1134 1134 1134 1128 1128 1126 1123 1120 1115 1115 1115 1118 1123 1123 1123 1124 1125 1130 1134 1134 1134 1137 1137 1137 1143 1148 1153 1157 1158 1159 1160 1164 1169 1176 1177 1179 1179 1181 1181 1181 1181 1182 1182 1182 1182 1182 1182 1182 1182 1182 1181 1180 1180 1180 1179 1177 1177 1177 1176 1176 1174 1172 1170 1169 1167 1166 1165 1163 1159 1156 1155 1150 1145 1135 1129 1124 1122 1116 1107 1092 1077 1068 1060 1032 1004 985 956 925 915 915 915 954 979 979 979 973 951 0 0 0 0 0 0 0 0 660 660 660 692 692 692 690 663 632 632 0 0 0 0 0 0 0 0 0 0
514 514 526 543 546 578 602 609 612 633 649 674 699 725 749 771 793 797 809 823 842 866 890 918 942 962 974 984 994 1011 1030 1034 1050 1061 1074 1092 1118 1151 1191 1229 1263 1288 1307 1327 1347 1358 1368 1372 1380 1392 1403 1416 1430 1441 1448 1452 1454 1457 1462 1469 1477 1486 1493 1498 1504 1512 1516 1525 1532 1537 1542 1547 1552 1559 1565 1567 1572 1577 1580 1584 1587 1590 1594 1598 1602 1605 1609 1612 1614 1616 1618 1620 1620 1621 1622 1622 1624 1627 1629 1630 1632 1635 1639 1640 1642 1644 1646 1650 1652 1654 1655 1657 1659 1659 1659 1661 1666 1672 1682 1688 1695 1701 1705 1707 1711 1714 1717 1721 1724 1731 1739 1749 1755 1756 1758 1758 1763 1770 1779 1790 1795 1797 1798 1799 1799 1799 1799 1799 1798 1794 1788 1784 1774 1761 1748 1727 1724 1722 1722 1722 1722 1722 1722 1719 1718 1717 1713 1706 1698 1692 1684 1680 1672 1651 1637 1633 1629 1624 1624 1617 0 0 0 0 0 1106 1104 1095 1092 1092 1092 1092 1092 1092 1093 1093 1093 1093 1093 1094 1094 1095 1095 1095 1096 1096 1096 1096 1096 1097 1097 1097 1097 1097 1096 1096 1095 1095 1095 1094 1094 1094 1094 1094 1092 1091 1091 1090 1090 1090 1090 1093 1094 1094 1094 1094 1094 1094 1096 1096 1096 1094 1094 1094 1094 1094 1096 1097 1097 1097 1097 1097 1095 1095 1094 1094 1092 1091 1090 1089 1088 1088 1088 1088 1087 1086 1086 1086 1086 1087 1087 1088 1089 1090 1090 1090 1090 1090 1090 1089 1089 1089 1092 1095 1096 1096 1097 1098 1098 1102 1104 1104 1105 1106 1106 1107 1107 1108 1111 1111 1111 1111 1112 1112 1112 1112 1110 1110 1108 1108 1108 1109 1110 1112 1113 1114 1114 1114 1114 1114 1113 1110 1108 1105 1104 1101 1101 1100 1100 1097 1097 1096 1096 1094 1093 1092 1092 1092 1091 1090 1089 1089 1089 1089 1091 1092 1093 1093 1094 1096 1099 1099 1100 1103 1111 1115 1116 1117 1117 1117 1117 1118 1118 1118 1117 1115 1115 1114 1113 1113 1112 1112 1112 1112 1114 1116 1117 1117 1119 1119 1119 1119 1116 1116 1115 1113 1112 1106 1101 1100 1100 1100 1100 1100 1100 1100 1099 1098 1097 1097 1096 1096 1095 1095 1095 1097 1100 1100 1100 1100 1101 1103 1106 1109 1110 1112 1117 1121 1121 1121 1122 1123 1126 1127 1130 1130 1130 1130 1130 1132 1134 1136 1136 1136 1136 1136 1133 1132 1132 1131 1131 1129 1128 1124 1123 1122 1122 1122 1122 1122 1123 1123 1122 1120 1118 1118 1117 1117 1117 1115 1115 1115 1117 1118 1120 1123 1123 1123 1123 1120 1120 1120 1121 1125 1128 1129 1129 1131 1132 1135 1137 1137 1137 1137 1137 1143 1143 1143 1143 1143 1147 1149 1151 1152 1152 1152 1152 1152 1152 1152 1153 1154 1154 1154 1154 1151 1145 1142 1138 1135 1133 1133 1132 1133 1133 1134 1134 1136 1137 1138 1138 1138 1138 1138 1142 1144 1144 1144 1145 1145 1144 1144 1144 1144 1144 1146 1147 1148 1149 1153 1162 1165 1165 1166 1168 1172 1174 1176 1176 1178 1179 1179 1180 1181 1181 1181 1181 1181 1182 1182 1182 1182 1181 1181 1180 1180 1179 1179 1179 1178 1177 1176 1176 1176 1175 1174 1171 1168 1167 1166 1166 1164 1159 1156 1153 1150 1148 1145 1135 1131 1126 1126 1116 1107 1093 1080 1071 1060 1032 1004 985 956 925 915 915 915 954 979 979 979 973 0 0 0 0 0 0 0 0 0 660 660 660 692 692 692 692 663 663 663 659 0 0 0 0 0 0 0 0 0
516 516 526 543 546 578 602 607 612 633 649 676 703 728 750 771 792 796 808 823 842 866 889 907 924 940 958 977 994 1011 1031 1035 1052 1063 1078 1094 1121 1156 1194 1229 1263 1288 1309 1328 1348 1361 1371 1374 1383 1394 1405 1420 1439 1452 1459 1460 1461 1462 1467 1473 1480 1486 1493 1498 1503 1511 1515 1522 1530 1537 1541 1546 1552 1559 1565 1568 1573 1578 1582 1586 1589 1592 1595 1598 1603 1607 1610 1613 1614 1616 1618 1620 1620 1621 1622 1622 1624 1627 1629 1630 1630 1631 1631 1631 1632 1634 1639 1642 1644 1646 1647 1650 1653 1653 1654 1655 1656 1664 1676 1685 1686 1690 1698 1707 1710 1712 1716 1718 1723 1728 1733 1740 1746 1747 1747 1749 1750 1757 1764 1773 1779 1780 1780 1780 1771 1768 1764 1763 1763 1763 1761 1755 1735 1728 1727 1727 1724 1722 1722 1724 1725 1725 1725 1719 1718 1717 1713 1706 1703 1695 1689 1686 1686 1675 1663 1650 1637 1631 1624 1617 0 0 0 0 0 1095 1095 1093 1092 1092 1091 1091 1091 1091 1091 1091 1092 1092 1092 1093 1093 1094 1094 1095 1095 1095 1095 1095 1095 1095 1095 1095 1096 1095 1095 1094 1094 1094 1094 1094 1093 1092 1090 1086 1086 1086 1086 1085 1084 1084 1084 1084 1089 1091 1091 1092 1092 1092 1091 1091 1091 1091 1091 1091 1091 1092 1093 1093 1093 1093 1093 1093 1093 1094 1094 1094 1092 1091 1091 1091 1091 1091 1091 1091 1091 1091 1091 1091 1091 1091 1092 1092 1093 1093 1093 1093 1093 1093 1093 1093 1093 1093 1093 1095 1096 1096 1097 1097 1098 1099 1101 1101 1101 1102 1102 1102 1104 1106 1107 1108 1108 1108 1109 1109 1109 1108 1107 1106 1105 1105 1105 1106 1108 1109 1110 1110 1111 1111 1111 1111 1111 1109 1105 1105 1105 1104 1104 1104 1104 1104 1104 1103 1102 1099 1099 1098 1098 1098 1098 1096 1095 1095 1095 1096 1098 1099 1101 1102 1103 1105 1106 1106 1107 1108 1111 1113 1114 1116 1116 1116 1116 1116 1114 1113 1110 1100 1100 1100 1101 1102 1103 1103 1104 1104 1105 1110 1113 1114 1114 1114 1113 1110 1107 1107 1107 1107 1107 1105 1105 1105 1105 1105 1105 1105 1106 1106 1106 1105 1105 1104 1104 1104 1104 1106 1106 1107 1108 1109 1110 1111 1111 1113 1114 1116 1117 1120 1122 1122 1122 1122 1122 1121 1121 1120 1115 1115 1115 1117 1121 1124 1127 1129 1129 1129 1128 1126 1124 1120 1120 1120 1118 1118 1116 1109 1105 1103 1103 1103 1103 1103 1103 1103 1106 1117 1122 1125 1125 1125 1124 1123 1123 1123 1124 1125 1125 1126 1128 1130 1130 1130 1129 1129 1129 1133 1136 1138 1140 1141 1142 1142 1142 1142 1142 1142 1142 1142 1142 1138 1135 1131 1131 1132 1132 1137 1141 1141 1141 1138 1130 1124 1124 1124 1126 1130 1130 1130 1126 1113 1113 1113 1116 1116 1116 1118 1118 1126 1132 1134 1136 1142 1146 1146 1146 1152 1157 1157 1157 1157 1154 1154 1154 1155 1156 1156 1156 1155 1155 1155 1155 1155 1162 1166 1169 1170 1171 1173 1175 1176 1176 1178 1179 1179 1180 1180 1180 1181 1181 1181 1181 1181 1180 1180 1180 1179 1179 1179 1178 1177 1177 1177 1176 1175 1174 1174 1174 1172 1170 1167 1165 1164 1164 1161 1158 1154 1152 1149 1147 1143 1135 1131 1126 1126 1116 1107 1100 1089 1080 1061 1032 1004 985 973 954 907 907 907 954 979 979 979 973 0 0 0 0 0 0 0 0 0 694 694 694 699 699 699 690 683 683 683 675 675 0 0 0 0 0 750 774 0
517 517 526 543 546 578 602 607 612 634 654 679 708 735 753 772 789 792 806 822 841 866 889 907 924 938 949 967 985 1009 1032 1036 1055 1068 1080 1098 1127 1168 1203 1236 1263 1290 1309 1330 1350 1364 1375 1378 1387 1398 1409 1424 1445 1457 1463 1465 1467 1468 1473 1479 1486 1490 1493 1498 1503 1508 1515 1520 1527 1536 1541 1545 1551 1559 1565 1568 1573 1578 1582 1586 1590 1592 1596 1600 1603 1608 1611 1613 1615 1617 1618 1620 1620 1621 1622 1622 1624 1627 1629 1630 1630 1631 1631 1631 1632 1634 1635 1635 1637 1639 1639 1640 1642 1647 1648 1648 1652 1657 1665 1678 1684 1688 1698 1705 1708 1711 1714 1716 1722 1727 1733 1736 1739 1739 1739 1740 1743 1744 1747 1752 1758 1758 1758 1733 1727 1724 1723 1723 1723 1725 1725 1727 1728 1728 1727 1727 1727 1727 1728 1736 1736 1736 1725 1719 1718 1717 1713 1706 1703 1698 1698 1698 1690 1690 1687 1665 1657 1655 1654 1636 0 0 0 0 0 1095 1095 1093 1092 1090 1090 1090 1090 1090 1090 1090 1090 1091 1091 1092 1092 1093 1093 1094 1094 1094 1094 1094 1094 1094 1094 1094 1094 1094 1094 1093 1092 1092 1092 1091 1087 1081 1073 1073 1073 1074 1074 1074 1072 1070 1070 1070 1073 1076 1077 1077 1077 1076 1076 1076 1076 1076 1078 1084 1085 1085 1085 1085 1085 1085 1086 1087 1091 1093 1094 1094 1095 1095 1096 1096 1096 1096 1094 1093 1093 1093 1094 1094 1094 1094 1094 1094 1094 1094 1094 1095 1095 1095 1096 1096 1096 1096 1096 1096 1096 1097 1097 1098 1098 1097 1096 1096 1095 1095 1095 1097 1101 1102 1102 1102 1102 1102 1102 1102 1102 1101 1098 1098 1098 1099 1099 1099 1099 1098 1098 1098 1101 1104 1105 1106 1106 1106 1106 1106 1108 1108 1108 1108 1107 1106 1106 1105 1104 1103 1103 1103 1103 1103 1102 1101 1100 1100 1100 1102 1102 1102 1104 1104 1105 1106 1107 1108 1109 1109 1109 1109 1108 1105 1105 1104 1102 1101 1100 1098 1096 1091 1087 1087 1087 1095 1095 1095 1095 1095 1095 1096 1097 1097 1097 1094 1092 1092 1092 1095 1096 1100 1103 1104 1105 1109 1110 1111 1112 1113 1113 1113 1113 1113 1112 1112 1111 1111 1111 1112 1112 1114 1116 1116 1116 1116 1116 1117 1118 1118 1119 1121 1123 1123 1123 1122 1121 1120 1119 1112 1100 1095 1095 1095 1095 1101 1105 1108 1108 1108 1106 1103 1100 1097 1097 1097 1100 1100 1100 1090 1089 1089 1089 1090 1090 1090 1090 1091 1097 1114 1120 1125 1128 1128 1129 1129 1129 1132 1133 1133 1134 1134 1135 1137 1138 1138 1138 1137 1137 1137 1141 1142 1143 1144 1144 1144 1144 1143 1143 1143 1142 1142 1141 1137 1128 1125 1117 1114 1114 1114 1120 1120 1120 1119 1110 1109 1108 1107 1107 1103 1098 1098 1096 1096 1098 1099 1105 1105 1105 1108 1110 1122 1131 1132 1136 1144 1148 1149 1153 1158 1160 1160 1160 1159 1159 1159 1160 1160 1161 1162 1162 1164 1164 1164 1164 1165 1165 1168 1169 1170 1173 1173 1175 1176 1176 1178 1179 1179 1180 1180 1180 1180 1180 1180 1180 1180 1179 1179 1178 1178 1178 1177 1177 1176 1175 1175 1174 1174 1173 1172 1171 1170 1168 1166 1164 1163 1159 1158 1157 1154 1148 1145 1145 1141 1135 1131 1126 1126 1113 1107 1102 1099 1091 1063 1031 1010 994 976 960 924 924 924 935 959 959 959 955 0 0 0 0 767 757 757 0 0 0 710 710 710 710 702 695 695 695 695 691 691 701 703 703 736 758 758 774 0
517 517 526 543 546 578 602 607 617 640 661 683 711 735 753 771 788 792 806 822 841 867 889 907 924 938 949 967 981 1005 1033 1036 1058 1072 1087 1104 1127 0 1211 1236 1262 1290 1312 1332 1352 1370 1382 1385 1393 1403 1414 1428 1446 1459 1466 1469 1470 1473 1478 1484 1490 1493 1495 1499 1503 1508 1515 1519 1525 1531 1537 1544 1551 1558 1563 1568 1573 1578 1582 1586 1590 1592 1596 1600 1603 1608 1611 1613 1616 1618 1620 1623 1624 1626 1628 1628 1628 1629 1630 1631 1631 1631 1631 1631 1632 1634 1635 1635 1637 1639 1639 1639 1639 1641 1644 1648 1652 1655 1659 1668 1683 1688 1695 1703 1708 1709 1714 1715 1722 1726 1726 1727 1727 1726 1725 1724 1724 1724 1726 1728 1730 1733 1733 1733 1727 1724 1723 1723 1723 1725 1725 1727 1728 1729 1729 1729 1732 1737 1743 1743 1743 1736 1725 1718 1717 1716 1712 1706 1703 1698 1698 1698 1704 1704 1704 1687 1677 1666 1656 1636 0 0 0 0 0 1095 1094 1093 1092 1089 1089 1089 1089 1089 1090 1090 1090 1090 1091 1091 1091 1092 1092 1093 1093 1093 1093 1093 1093 1093 1093 1093 1093 1093 1093 1092 1090 1090 1090 1088 1082 1075 1066 1066 1065 1063 1063 1062 1061 1059 1057 1057 1057 1058 1059 1060 1061 1061 1062 1061 1061 1063 1063 1067 1069 1074 1074 1075 1078 1079 1083 1085 1086 1092 1093 1094 1095 1096 1096 1097 1097 1097 1096 1096 1096 1096 1096 1097 1097 1097 1096 1096 1096 1096 1096 1096 1096 1097 1098 1098 1098 1098 1098 1098 1098 1098 1098 1097 1096 1096 1090 1089 1089 1089 1091 1094 1094 1094 1094 1094 1094 1096 1096 1096 1096 1092 1091 1089 1089 1089 1089 1089 1089 1090 1093 1093 1096 1101 1102 1103 1103 1103 1104 1105 1108 1108 1108 1108 1108 1107 1107 1107 1107 1106 1106 1105 1105 1105 1104 1104 1104 1104 1104 1105 1105 1106 1106 1107 1107 1108 1109 1109 1109 1109 1109 1107 1103 1101 1098 1096 1095 1094 1090 1086 1083 1082 1082 1082 1082 1082 1082 1081 1080 1080 1079 1075 1074 1074 1074 1076 1076 1077 1078 1080 1090 1096 1097 1099 1105 1109 1111 1113 1117 1117 1117 1116 1116 1115 1115 1115 1115 1115 1115 1115 1116 1116 1117 1119 1119 1120 1120 1121 1122 1122 1123 1123 1124 1124 1124 1122 1118 1118 1115 1108 1097 1094 1092 1092 1092 1094 1094 1094 1091 1091 1091 1091 1090 1090 1088 1088 1087 1087 1086 1081 1081 1081 1084 1085 1087 1088 1089 1089 1095 1111 1120 1125 1128 1130 1131 1133 1134 1136 1138 1139 1139 1140 1140 1140 1141 1141 1141 1141 1141 1143 1144 1145 1145 1145 1145 1145 1145 1144 1144 1144 1142 1142 1141 1134 1128 1114 1104 1104 1104 1107 1109 1109 1109 1102 1096 1096 1096 1095 1095 1088 1079 1079 1079 1081 1082 1088 1096 1099 1102 1103 1106 1112 1118 1130 1136 1145 1148 1150 1155 1160 1162 1163 1164 1164 1164 1164 1165 1165 1165 1165 1165 1165 1165 1167 1167 1167 1167 1169 1171 1171 1173 1174 1174 1175 1176 1178 1179 1179 1179 1179 1179 1179 1180 1180 1180 1179 1178 1178 1177 1177 1177 1177 1176 1176 1175 1173 1173 1172 1171 1171 1169 1168 1167 1165 1164 1161 1158 1156 1156 1152 1148 1144 1142 1136 1132 1128 1124 1118 1112 1107 1102 1099 1091 1063 1031 1013 997 977 966 941 913 913 913 937 939 939 937 0 0 0 771 767 763 757 757 0 0 0 745 745 745 708 708 708 708 708 708 707 704 704 704 736 758 758 774 0
522 522 528 543 546 574 600 607 617 640 665 689 711 735 753 771 788 792 806 822 841 868 890 908 925 938 949 967 981 1005 1033 1055 1059 1076 1092 1108 1127 0 1216 1239 1262 1287 1313 1333 1354 1374 1388 1397 1401 1410 1420 1431 1447 1459 1468 1473 1477 1478 1483 1488 1492 1495 1497 1499 1503 1508 1513 1518 1524 1530 1535 1543 1550 1557 1561 1567 1572 1577 1582 1586 1590 1592 1596 1600 1603 1608 1611 1613 1616 1619 1622 1625 1628 1631 1633 1635 1638 1640 1641 1644 1644 1645 1645 1644 1644 1639 1637 1637 1637 1639 1639 1639 1639 1641 1644 1648 1652 1655 1658 1665 1678 1685 1695 1699 1703 1706 1709 1711 1714 1716 1716 1716 1716 1713 1713 1713 1715 1720 1725 1728 1730 1733 1733 1733 1727 1724 1723 1723 1723 1725 1725 1738 1740 1742 1745 1747 1748 1749 1749 1749 1743 1736 1725 1717 1717 1714 1711 1705 1701 1698 1698 1698 1704 1704 1704 1704 1700 1689 1667 1650 0 0 0 0 0 1095 1094 1093 1092 1089 1088 1088 1088 1088 1088 1088 1088 1089 1089 1090 1090 1091 1091 1091 1091 1092 1092 1092 1092 1092 1092 1092 1091 1091 1091 1090 1089 1088 1086 1082 1077 1072 1058 1051 1044 1040 1040 1040 1043 1043 1044 1044 1044 1045 1046 1048 1048 1048 1048 1048 1049 1051 1053 1056 1059 1062 1065 1065 1065 1071 1077 1079 1079 1086 1093 1094 1095 1096 1096 1097 1097 1097 1097 1097 1098 1098 1098 1098 1098 1098 1098 1098 1098 1098 1098 1099 1099 1099 1099 1099 1099 1099 1099 1099 1099 1098 1097 1095 1091 1089 1085 1085 1085 1085 1086 1088 1088 1088 1087 1085 1085 1085 1087 1087 1087 1087 1085 1083 1081 1081 1081 1083 1085 1087 1088 1088 1091 1097 1098 1099 1099 1099 1104 1106 1108 1108 1108 1108 1108 1108 1109 1109 1109 1108 1107 1107 1107 1107 1106 1106 1107 1107 1107 1107 1107 1108 1109 1110 1110 1110 1110 1110 1110 1109 1108 1105 1102 1099 1094 1091 1089 1088 1086 1082 1078 1074 1074 1074 1074 1074 1073 1072 1071 1071 1070 1067 1067 1067 1068 1071 1072 1073 1073 1076 1087 1095 1096 1098 1105 1111 1112 1114 1117 1117 1117 1117 1117 1117 1117 1117 1117 1117 1117 1118 1118 1118 1119 1120 1122 1123 1123 1123 1123 1124 1124 1124 1124 1124 1123 1122 1118 1113 1112 1107 1097 1090 1087 1087 1087 1087 1087 1087 1083 1083 1083 1082 1082 1082 1081 1081 1080 1080 1080 1078 1078 1078 1080 1085 1085 1088 1089 1089 1095 1107 1110 1124 1127 1130 1131 1133 1136 1138 1139 1141 1141 1141 1141 1142 1142 1142 1142 1142 1143 1143 1145 1145 1145 1145 1145 1145 1145 1144 1144 1142 1140 1136 1134 1133 1126 1111 1100 1100 1100 1102 1104 1104 1104 1093 1088 1088 1088 1087 1087 1087 1077 1077 1077 1078 1080 1084 1089 1094 1098 1103 1105 1109 1118 1126 1136 1145 1150 1153 1155 1160 1162 1163 1164 1164 1164 1165 1165 1165 1165 1166 1166 1166 1166 1168 1169 1169 1169 1170 1173 1173 1173 1173 1174 1175 1176 1178 1178 1179 1179 1179 1179 1179 1179 1179 1178 1178 1178 1178 1176 1176 1176 1176 1175 1175 1173 1173 1173 1172 1170 1169 1168 1167 1166 1164 1163 1161 1158 1156 1155 1152 1147 1144 1142 1135 1127 1122 1117 1112 1108 1105 1102 1099 1091 1068 1031 1017 1000 977 970 948 903 903 903 919 920 920 0 0 0 0 771 771 771 785 786 0 0 0 778 775 757 724 724 724 721 721 721 713 709 709 709 738 758 758 759 0
524 524 534 544 558 567 593 600 617 640 665 689 711 732 749 769 787 803 808 824 846 869 892 912 933 948 956 967 981 1005 1033 1056 1060 1079 1100 1108 1138 0 1219 1239 1262 1287 1314 1335 1363 1380 1392 1403 1406 1416 1425 1435 1448 1462 1472 1479 1483 1485 1489 1492 1496 1498 1500 1502 1504 1508 1515 1518 1524 1528 1534 1543 1550 1557 1561 1567 1572 1576 1580 1583 1589 1592 1594 1597 1602 1606 1609 1613 1616 1619 1624 1627 1629 1633 1635 1638 1642 1647 1649 1649 1651 1654 1657 1661 1661 1661 1659 1658 1657 1654 1648 1642 1642 1642 1644 1648 1652 1655 1658 1664 1673 1682 1691 1699 1702 1704 1706 1708 1708 1709 1709 1712 1712 1712 1713 1713 1715 1720 1725 1728 1730 1737 1740 1741 1741 1742 1742 1744 1748 1755 1758 1758 1758 1757 1755 1754 1754 1753 1753 1749 1743 1736 1725 1717 1716 1713 1708 1705 1697 1694 1694 1694 1697 1704 1704 1704 1704 1704 1693 0 0 0 0 0 0 1094 1093 1093 1089 1088 1087 1087 1087 1087 1087 1087 1087 1087 1088 1089 1089 1089 1090 1090 1090 1091 1091 1091 1091 1091 1091 1091 1091 1090 1089 1088 1087 1085 1083 1082 1075 1068 1055 1045 1040 1035 1035 1035 1036 1036 1036 1036 1036 1037 1039 1041 1041 1041 1041 1041 1041 1045 1048 1049 1052 1055 1058 1060 1061 1067 1069 1073 1079 1083 1088 1092 1094 1095 1097 1097 1098 1098 1098 1099 1100 1100 1100 1100 1100 1100 1099 1099 1099 1099 1099 1100 1101 1101 1101 1101 1101 1101 1101 1101 1099 1098 1096 1093 1091 1088 1085 1082 1082 1082 1082 1082 1082 1082 1082 1079 1079 1079 1081 1081 1082 1082 1082 1080 1080 1080 1081 1082 1082 1083 1083 1085 1086 1090 1095 1096 1098 1098 1103 1106 1107 1108 1108 1109 1109 1109 1109 1109 1109 1109 1108 1108 1108 1108 1108 1108 1109 1109 1109 1109 1109 1110 1111 1111 1111 1111 1111 1110 1110 1109 1106 1104 1102 1099 1092 1087 1083 1082 1082 1078 1075 1071 1070 1070 1070 1070 1068 1065 1063 1063 1063 1062 1062 1062 1065 1066 1066 1066 1070 1074 1080 1092 1095 1098 1105 1111 1116 1116 1117 1117 1118 1118 1119 1119 1119 1119 1119 1119 1119 1120 1121 1121 1121 1122 1122 1123 1124 1124 1124 1124 1124 1124 1124 1123 1122 1120 1117 1113 1110 1107 1097 1087 1085 1085 1085 1084 1084 1082 1077 1075 1075 1074 1073 1073 1073 1073 1074 1075 1076 1076 1077 1078 1080 1082 1084 1089 1089 1089 1097 1107 1110 1121 1127 1130 1131 1133 1136 1138 1140 1141 1141 1142 1142 1143 1143 1143 1143 1143 1144 1144 1145 1145 1145 1145 1145 1145 1145 1144 1143 1142 1139 1136 1132 1130 1126 1110 1099 1094 1094 1094 1096 1096 1096 1085 1081 1081 1081 1082 1082 1082 1076 1076 1075 1075 1076 1077 1083 1092 1098 1103 1104 1108 1118 1120 1129 1145 1150 1153 1155 1160 1162 1163 1164 1164 1164 1165 1166 1166 1166 1166 1166 1167 1167 1169 1169 1169 1169 1170 1173 1173 1173 1173 1174 1174 1176 1177 1178 1178 1178 1178 1178 1179 1178 1178 1178 1177 1177 1176 1176 1176 1175 1175 1174 1174 1173 1172 1171 1171 1169 1168 1167 1166 1165 1164 1162 1160 1157 1156 1154 1152 1147 1144 1142 1134 1127 1122 1112 1104 1103 1101 1099 1091 1084 1068 1049 1019 1003 987 976 953 903 896 893 893 0 0 0 0 0 790 766 766 766 785 802 802 802 787 778 775 757 746 746 746 748 759 759 759 725 725 725 738 750 750 750 0
