761 761 783 799 816 837 863 897 926 959 991 1012 1024 1030 1038 1048 1052 1063 1075 1088 1098 1106 1114 1122 1127 1131 1135 1139 1145 1155 1168 1176 1201 1229 1255 1268 1276 1281 1285 1292 1297 1305 1315 1330 1343 1353 1360 1380 1403 1412 1423 1433 1439 1442 1446 1450 1454 1458 1461 1463 1466 1468 1470 1471 1473 1475 1478 1479 1481 1483 1485 1487 1489 1491 1492 1494 1496 1498 1499 1501 1503 1504 1506 1508 1510 1512 1515 1516 1518 1519 1521 1522 1524 1526 1528 1530 1532 1534 1536 1538 1539 1541 1542 1544 1546 1548 1549 1550 1552 1553 1555 1557 1560 1562 1564 1565 1567 1569 1571 1572 1574 1574 1576 1577 1578 1580 1582 1582 1584 1585 1586 1587 1588 1588 1590 1590 1591 1592 1592 1593 1593 1594 1594 1594 1594 1594 1593 1593 1592 1592 1590 1589 1587 1586 1584 1582 1581 1581 1580 1580 1580 1580 1581 1583 1586 1588 1590 1592 1596 1600 1605 1608 1610 1613 1618 1622 1624 1624 1624 1621 1615 0 0 0 0 0 1182 1179 1177 1175 1174 1172 1168 1165 1163 1162 1162 1162 1162 1161 1161 1161 1161 1161 1161 1162 1162 1164 1164 1165 1165 1165 1165 1165 1165 1165 1165 1164 1164 1163 1163 1164 1164 1164 1164 1164 1165 1165 1165 1165 1166 1166 1167 1167 1167 1167 1167 1167 1167 1167 1166 1166 1166 1165 1164 1163 1162 1159 1156 1151 1144 1135 1131 1125 1118 1117 1116 1108 1094 1086 1086 1086 1086 1093 1093 1093 1093 1086 1086 1086 1087 1087 1088 1106 1110 1112 1117 1121 1123 1127 1133 1142 1145 1151 1162 1162 1164 1165 1166 1166 1166 1165 1164 1164 1163 1163 1163 1163 1164 1164 1164 1164 1164 1159 1153 1151 1151 1146 1146 1146 1151 1154 1157 1158 1158 1158 1160 1165 1172 1177 1180 1182 1183 1183 1184 1185 1186 1188 1188 1188 1189 1191 1193 1193 1193 1193 1192 1192 1192 1191 1190 1187 1187 1187 1187 1184 1176 1167 1154 1151 1146 1142 1136 1115 1101 1094 1092 1090 1087 1079 1079 1079 1078 1076 1075 1074 1070 1068 1068 1068 1071 1076 1081 1093 1105 1105 1110 1114 1129 1162 1169 1171 1176 1179 1182 1187 1190 1191 1192 1193 1195 1195 1197 1197 1198 1198 1199 1199 1199 1199 1199 1199 1199 1199 1198 1196 1195 1194 1193 1192 1185 1173 1171 1141 1139 1139 1132 1122 1115 1101 1088 1088 1087 1087 1087 1081 1073 1067 1063 1058 1057 1057 1057 1064 1065 1066 1069 1070 1078 1091 1105 1130 1152 1164 1176 1183 1190 1197 1201 1202 1204 1204 1205 1206 1206 1206 1206 1206 1206 1206 1206 1206 1206 1207 1207 1207 1206 1206 1206 1205 1204 1204 1204 1203 1203 1199 1199 1199 1200 1200 1200 1199 1199 1199 1202 1202 1203 1204 1207 1208 1208 1210 1210 1210 1209 1209 1209 1211 1211 1211 1210 1210 1210 1210 1210 1210 1211 1212 1212 1212 1212 1213 1213 1213 1213 1213 1213 1213 1214 1214 1215 1215 1215 1215 1215 1215 1215 1215 1215 1216 1216 1216 1216 1216 1216 1216 1218 1218 1218 1217 1217 1217 1218 1218 1218 1214 1213 1212 1212 1211 1211 1211 1213 1218 1218 1218 1218 1217 1217 1214 1211 1208 1199 1182 1157 0 0 0 0 0 0 0 0 0 0 0 622 622 622 0 0 0 0 0 0 0 0 0 0 0 0 0 0 0 0 0 0 0 0 0 0 0 0 0 0 0 0 0 0 0 0 0 0 0 0 0 0 0 0 0 0 0 0 0 0 0 483 488 488 488 488 0 0 0 0 0 0 0 0 0
761 761 783 802 811 832 856 893 919 939 967 985 994 1011 1032 1045 1052 1062 1075 1088 1098 1106 1114 1119 1123 1127 1133 1139 1144 1153 1168 1176 1201 1235 1256 1268 1276 1282 1286 1292 1298 1305 1315 1339 1354 1366 1372 1387 1406 1414 1423 1433 1439 1442 1445 1448 1453 1457 1461 1463 1465 1467 1469 1471 1474 1476 1478 1480 1482 1484 1487 1488 1490 1491 1492 1494 1496 1498 1499 1501 1503 1504 1506 1508 1510 1513 1515 1516 1518 1519 1521 1522 1524 1526 1528 1530 1532 1533 1535 1537 1539 1540 1542 1543 1546 1547 1549 1550 1551 1553 1554 1557 1558 1560 1562 1564 1566 1569 1570 1572 1573 1574 1575 1577 1578 1580 1581 1582 1584 1585 1585 1586 1587 1588 1589 1589 1590 1592 1592 1593 1593 1594 1594 1594 1594 1594 1593 1592 1591 1590 1589 1588 1586 1584 1583 1581 1581 1579 1579 1579 1579 1579 1579 1581 1583 1585 1588 1591 1596 1600 1605 1608 1610 1613 1615 1618 1623 1623 1623 1622 1617 0 0 0 0 0 0 1179 1179 1177 1175 1173 1170 1167 1165 1165 1165 1164 1164 1163 1163 1163 1163 1163 1163 1164 1164 1165 1165 1166 1166 1166 1167 1167 1167 1167 1167 1166 1166 1165 1165 1165 1165 1165 1165 1165 1165 1165 1165 1167 1167 1167 1168 1168 1168 1168 1168 1168 1168 1167 1167 1167 1167 1166 1165 1165 1163 1160 1158 1156 1149 1136 1133 1125 1125 1124 1120 1117 1098 1086 1086 1086 1087 1095 1104 1104 1105 1104 1104 1105 1105 1117 1136 1136 1136 1136 1132 1132 1132 1134 1136 1146 1149 1159 1159 1162 1162 1163 1163 1163 1163 1160 1159 1159 1157 1155 1153 1153 1152 1151 1150 1149 1149 1146 1145 1144 1136 1123 1123 1123 1125 1134 1142 1146 1151 1155 1160 1165 1173 1178 1180 1184 1187 1187 1187 1187 1188 1190 1191 1192 1193 1194 1195 1195 1195 1195 1195 1195 1194 1193 1192 1192 1191 1191 1190 1187 1181 1179 1165 1152 1148 1142 1136 1115 1105 1098 1094 1090 1087 1083 1080 1079 1077 1072 1070 1070 1070 1070 1071 1077 1084 1086 1092 1099 1107 1108 1112 1115 1139 1162 1170 1171 1177 1180 1185 1189 1192 1193 1195 1196 1197 1198 1199 1200 1200 1200 1200 1201 1201 1201 1201 1201 1201 1201 1199 1199 1196 1196 1196 1195 1192 1188 1173 1146 1140 1140 1133 1123 1115 1101 1090 1090 1087 1087 1087 1082 1075 1067 1063 1058 1058 1058 1058 1066 1066 1066 1070 1070 1078 1091 1105 1133 1155 1167 1179 1183 1193 1201 1204 1206 1206 1206 1207 1208 1208 1208 1208 1208 1207 1207 1208 1208 1208 1208 1209 1209 1209 1208 1208 1208 1207 1207 1207 1206 1205 1203 1203 1203 1203 1203 1203 1202 1202 1203 1203 1203 1203 1204 1207 1209 1210 1212 1212 1212 1212 1212 1212 1214 1215 1215 1215 1213 1213 1213 1213 1213 1213 1213 1213 1213 1213 1213 1213 1214 1214 1214 1214 1214 1215 1215 1215 1215 1215 1215 1215 1215 1215 1215 1216 1216 1216 1216 1216 1216 1216 1218 1218 1218 1218 1217 1217 1217 1218 1218 1218 1214 1213 1213 1212 1212 1212 1213 1215 1219 1219 1219 1219 1217 1217 1214 1211 1194 1182 1167 0 0 0 0 0 0 0 0 0 0 0 0 609 615 0 0 0 0 0 0 0 0 0 0 0 0 0 0 0 0 0 0 0 0 0 0 0 0 0 0 0 0 0 0 0 0 0 0 0 0 0 0 0 0 0 0 0 0 0 0 0 0 483 488 488 488 488 0 0 0 0 0 0 0 0 0
761 761 783 805 811 832 856 886 918 933 947 961 979 1001 1024 1042 1052 1062 1075 1088 1098 1107 1114 1116 1119 1123 1130 1138 1143 1152 1170 1176 1206 1235 1257 1268 1277 1284 1288 1292 1299 1311 1328 1347 1364 1374 1387 1392 1408 1416 1423 1434 1440 1442 1445 1448 1452 1456 1459 1462 1464 1466 1469 1472 1474 1476 1478 1480 1482 1485 1487 1488 1490 1492 1493 1495 1497 1498 1500 1501 1503 1504 1506 1508 1510 1513 1515 1516 1518 1519 1521 1522 1524 1526 1528 1529 1531 1533 1535 1537 1539 1540 1541 1543 1546 1547 1549 1550 1551 1552 1554 1555 1557 1560 1561 1563 1565 1567 1568 1570 1572 1573 1575 1576 1577 1580 1581 1582 1583 1583 1584 1585 1586 1588 1589 1589 1590 1592 1592 1592 1593 1593 1594 1594 1594 1594 1593 1592 1590 1590 1588 1587 1586 1584 1582 1581 1580 1579 1578 1577 1577 1577 1577 1579 1580 1583 1587 1591 1596 1601 1605 1608 1610 1611 1611 1612 1614 1625 1625 1625 1621 1617 0 0 0 0 0 1184 1179 1178 1178 1174 1171 1169 1168 1168 1167 1167 1166 1165 1165 1165 1165 1165 1165 1165 1166 1166 1167 1168 1168 1168 1168 1168 1168 1168 1168 1167 1166 1166 1166 1166 1166 1166 1166 1166 1166 1166 1167 1167 1167 1168 1168 1168 1168 1168 1168 1168 1168 1169 1168 1168 1167 1166 1165 1165 1164 1161 1158 1157 1150 1139 1137 1132 1132 1130 1129 1129 1104 1096 1096 1096 1107 1107 1107 1109 1109 1112 1121 1124 1131 1136 1139 1147 1154 1154 1154 1149 1143 1143 1143 1148 1163 1163 1163 1162 1162 1161 1157 1157 1157 1153 1150 1148 1144 1140 1135 1135 1133 1133 1133 1131 1131 1131 1131 1131 1126 1123 1123 1121 1123 1124 1125 1134 1144 1155 1160 1167 1174 1178 1184 1186 1189 1189 1189 1190 1192 1193 1195 1195 1196 1197 1198 1198 1198 1198 1198 1197 1197 1197 1196 1195 1194 1194 1192 1190 1189 1186 1173 1154 1148 1142 1126 1115 1109 1102 1095 1091 1088 1087 1084 1079 1077 1072 1070 1070 1070 1072 1076 1086 1092 1097 1101 1105 1108 1111 1112 1120 1136 1155 1169 1171 1178 1183 1188 1192 1194 1196 1197 1199 1200 1200 1202 1202 1202 1202 1203 1203 1204 1204 1204 1204 1203 1203 1201 1200 1199 1198 1198 1197 1193 1189 1176 1153 1142 1142 1134 1123 1115 1101 1090 1090 1089 1087 1087 1086 1079 1071 1063 1058 1058 1058 1059 1066 1066 1066 1070 1070 1078 1106 1130 1146 1160 1172 1184 1188 1197 1203 1205 1207 1208 1208 1209 1209 1209 1209 1209 1209 1209 1209 1209 1210 1210 1210 1211 1211 1210 1210 1210 1210 1209 1209 1209 1209 1208 1208 1208 1208 1208 1207 1207 1207 1206 1206 1206 1206 1206 1208 1209 1209 1210 1213 1213 1213 1214 1214 1215 1217 1217 1217 1217 1216 1216 1215 1215 1215 1215 1214 1214 1214 1214 1214 1216 1216 1216 1216 1217 1217 1217 1217 1216 1215 1215 1215 1215 1215 1215 1216 1217 1217 1218 1218 1218 1218 1218 1220 1220 1220 1219 1218 1218 1218 1218 1218 1218 1214 1213 1213 1212 1212 1212 1213 1215 1219 1219 1219 1219 1217 1217 1214 1197 1178 1171 0 0 0 0 0 0 0 0 0 0 0 0 0 0 0 0 0 0 0 0 0 0 0 0 0 0 0 0 0 0 0 0 0 0 0 0 0 0 0 0 0 0 0 0 0 0 0 0 0 0 0 0 0 0 0 0 0 0 0 0 0 0 0 0 488 488 488 488 488 0 0 0 0 0 0 0 0
767 767 789 808 811 832 855 886 911 925 939 953 971 993 1019 1040 1056 1063 1075 1090 1099 1107 1114 1116 1119 1123 1126 1130 1141 1152 1170 1176 1206 1243 1261 1269 1278 1286 1293 1298 1307 1322 1333 1348 1369 1392 1399 1404 1412 1419 1424 1434 1440 1442 1445 1448 1451 1455 1458 1461 1463 1466 1469 1472 1474 1477 1479 1481 1483 1485 1487 1489 1491 1493 1494 1495 1497 1499 1500 1502 1503 1505 1507 1508 1510 1513 1514 1516 1517 1519 1521 1522 1524 1526 1527 1529 1531 1533 1534 1537 1538 1540 1541 1543 1545 1547 1548 1549 1551 1552 1553 1555 1556 1559 1560 1562 1565 1566 1568 1570 1571 1573 1574 1575 1576 1578 1580 1581 1582 1583 1584 1585 1586 1587 1588 1589 1590 1591 1592 1592 1593 1593 1594 1594 1594 1594 1592 1592 1590 1589 1588 1586 1585 1584 1582 1580 1579 1578 1578 1576 1576 1576 1576 1577 1579 1582 1587 1591 1597 1602 1606 1608 1609 1609 1609 1609 1609 1617 1624 1624 1624 1620 0 0 0 0 0 0 1184 1183 1179 1175 1174 1173 1172 1171 1171 1170 1169 1168 1167 1167 1167 1167 1167 1167 1168 1169 1169 1169 1169 1169 1170 1170 1170 1170 1170 1170 1169 1168 1167 1167 1167 1166 1167 1167 1167 1167 1167 1167 1168 1168 1168 1168 1168 1168 1168 1168 1168 1169 1169 1168 1168 1167 1166 1165 1165 1162 1159 1157 1151 1142 1140 1139 1139 1134 1133 1133 1122 1119 1119 1119 1124 1124 1125 1125 1127 1140 1147 1148 1148 1148 1156 1160 1163 1163 1161 1160 1156 1156 1156 1164 1168 1168 1168 1162 1162 1157 1155 1155 1151 1148 1140 1134 1127 1121 1121 1121 1121 1121 1121 1121 1121 1122 1126 1126 1126 1123 1123 1121 1123 1124 1125 1134 1143 1152 1161 1170 1174 1181 1186 1189 1191 1191 1192 1193 1195 1196 1197 1198 1198 1199 1200 1200 1200 1200 1200 1200 1200 1199 1199 1198 1197 1196 1194 1192 1191 1186 1176 1161 1149 1142 1126 1115 1111 1111 1103 1097 1094 1094 1089 1083 1077 1072 1070 1070 1070 1072 1076 1086 1094 1103 1104 1107 1108 1112 1113 1120 1136 1153 1165 1172 1181 1186 1191 1193 1197 1198 1200 1201 1202 1203 1204 1204 1204 1205 1205 1205 1205 1205 1205 1205 1205 1205 1203 1202 1201 1201 1199 1198 1194 1191 1183 1160 1152 1148 1136 1125 1115 1102 1090 1090 1089 1089 1089 1089 1084 1076 1073 1070 1065 1065 1065 1086 1086 1089 1090 1092 1097 1116 1145 1166 1175 1185 1197 1201 1204 1206 1208 1209 1210 1211 1211 1211 1211 1211 1211 1211 1211 1211 1211 1212 1212 1212 1212 1212 1212 1212 1212 1212 1211 1211 1211 1211 1211 1211 1210 1210 1210 1210 1210 1209 1209 1209 1209 1210 1211 1211 1211 1212 1212 1213 1214 1214 1215 1215 1216 1218 1218 1218 1218 1217 1217 1217 1216 1216 1215 1214 1214 1214 1214 1216 1218 1218 1218 1218 1219 1219 1219 1219 1216 1215 1215 1215 1215 1215 1217 1220 1220 1220 1219 1218 1218 1219 1219 1221 1221 1221 1219 1219 1217 1217 1217 1217 1217 1213 1212 1212 1212 1212 1212 1213 1215 1217 1217 1217 1199 1198 1197 0 0 0 0 0 0 0 0 0 0 0 0 0 0 0 0 0 0 0 0 0 0 0 0 0 0 0 0 0 0 0 0 0 0 0 0 0 0 0 0 0 0 0 0 0 0 0 0 0 0 0 0 0 0 0 0 0 0 0 0 0 0 0 0 0 0 0 0 0 468 468 486 0 0 0 0 0 0 0 0 0
770 770 791 811 814 832 855 882 899 916 933 947 965 988 1014 1040 1057 1063 1078 1090 1101 1110 1116 1116 1119 1123 1126 1130 1139 1152 1172 1177 1212 1246 1266 1275 1282 1289 1297 1305 1316 1326 1336 1352 1382 1399 1403 1408 1415 1424 1430 1436 1439 1442 1445 1447 1451 1455 1458 1461 1463 1466 1469 1472 1475 1477 1479 1481 1483 1485 1487 1489 1491 1493 1494 1495 1498 1499 1501 1502 1503 1506 1507 1508 1510 1513 1514 1516 1517 1519 1520 1522 1524 1526 1527 1529 1531 1532 1534 1536 1538 1540 1541 1543 1545 1546 1548 1549 1550 1551 1552 1554 1555 1557 1559 1562 1564 1566 1568 1569 1570 1571 1572 1574 1576 1577 1578 1579 1581 1582 1584 1585 1586 1587 1587 1589 1590 1591 1592 1592 1593 1593 1594 1594 1594 1594 1592 1592 1590 1589 1588 1586 1585 1584 1582 1580 1579 1578 1577 1576 1576 1575 1575 1575 1578 1582 1587 1591 1597 1602 1606 1607 1607 1607 1607 1606 1606 1606 1616 1622 1622 1622 1610 0 0 0 0 0 1185 1184 1182 1181 1179 1175 1175 1174 1173 1173 1172 1170 1170 1169 1169 1169 1169 1169 1170 1170 1170 1171 1171 1171 1171 1171 1171 1171 1171 1171 1170 1169 1167 1167 1167 1167 1167 1167 1167 1167 1167 1167 1168 1168 1168 1168 1168 1168 1168 1168 1168 1169 1169 1168 1168 1167 1166 1166 1165 1162 1159 1157 1154 1153 1151 1149 1147 1141 1138 1141 1142 1142 1145 1145 1145 1145 1145 1147 1156 1163 1163 1163 1165 1166 1174 1174 1174 1174 1174 1174 1174 1174 1174 1180 1180 1180 1176 1165 1160 1156 1155 1149 1140 1138 1137 1133 1126 1120 1120 1120 1120 1121 1121 1121 1121 1122 1125 1126 1126 1126 1126 1126 1125 1125 1125 1133 1141 1150 1162 1172 1175 1181 1187 1190 1191 1193 1195 1196 1197 1199 1199 1200 1201 1201 1201 1201 1202 1202 1202 1202 1202 1202 1200 1199 1198 1198 1197 1195 1195 1192 1189 1178 1155 1142 1126 1116 1115 1115 1111 1102 1099 1094 1094 1088 1084 1082 1082 1078 1078 1078 1079 1086 1094 1103 1108 1109 1109 1113 1113 1122 1136 1147 1166 1176 1188 1191 1194 1197 1199 1201 1203 1203 1204 1206 1206 1207 1207 1207 1207 1207 1207 1207 1207 1207 1207 1206 1206 1206 1205 1204 1203 1200 1196 1193 1183 1168 1163 1154 1139 1125 1115 1102 1097 1096 1096 1091 1091 1103 1103 1103 1103 0 0 0 0 1115 1123 1123 1134 1138 0 1162 1177 1187 1190 1194 1199 1205 1208 1210 1211 1212 1212 1213 1213 1213 1213 1213 1213 1213 1213 1213 1213 1214 1214 1214 1214 1214 1214 1214 1214 1214 1214 1214 1214 1214 1214 1213 1212 1212 1212 1212 1212 1212 1212 1212 1212 1213 1215 1215 1215 1214 1214 1214 1215 1216 1216 1217 1218 1220 1220 1220 1219 1219 1218 1218 1217 1216 1216 1214 1214 1214 1216 1217 1219 1219 1219 1221 1222 1222 1222 1220 1217 1216 1215 1215 1216 1216 1219 1220 1220 1220 1219 1218 1218 1219 1221 1221 1221 1221 1219 1219 1215 1215 1215 1215 1215 1212 1210 1210 1210 1207 1188 0 0 0 0 0 0 0 0 0 0 0 0 0 0 0 0 0 0 0 0 0 0 0 0 0 0 0 0 0 0 0 0 0 0 0 0 0 0 0 0 0 0 0 0 0 0 0 0 0 0 0 0 0 0 0 0 0 0 0 0 0 0 0 0 0 0 0 0 0 0 0 0 0 0 0 0 0 0 0 0 0 0 0 0 0 0 0 0 0
770 770 792 813 814 832 855 872 890 908 924 942 962 986 1010 1040 1062 1068 1083 1095 1105 1116 1123 1123 1124 1125 1126 1130 1139 1152 1174 1179 1214 1249 1266 1276 1287 1293 1299 1309 1320 1333 1353 1382 1397 1404 1410 1414 1419 1424 1430 1436 1439 1442 1445 1447 1451 1455 1458 1461 1463 1466 1469 1472 1475 1477 1479 1481 1483 1485 1487 1489 1491 1493 1494 1496 1498 1499 1501 1502 1504 1506 1507 1509 1510 1513 1514 1516 1517 1519 1520 1522 1524 1526 1526 1529 1531 1532 1534 1536 1538 1539 1541 1543 1544 1546 1547 1548 1549 1551 1552 1554 1555 1556 1559 1561 1563 1566 1567 1568 1569 1571 1571 1573 1574 1576 1577 1578 1580 1581 1582 1584 1585 1586 1587 1588 1590 1591 1592 1592 1593 1593 1594 1594 1594 1594 1592 1592 1590 1589 1588 1587 1585 1585 1582 1580 1579 1578 1577 1576 1576 1575 1575 1575 1578 1581 1587 1591 1597 1602 1606 1607 1607 1607 1606 1606 1606 1606 1607 1611 1613 1613 1613 0 0 0 0 0 1195 1187 1185 1183 1182 1180 1180 1177 1175 1174 1174 1173 1171 1171 1171 1171 1171 1172 1172 1172 1173 1173 1173 1173 1173 1173 1173 1172 1172 1171 1170 1169 1168 1167 1167 1167 1167 1167 1167 1167 1167 1167 1168 1168 1168 1168 1168 1168 1168 1168 1168 1169 1169 1168 1168 1167 1166 1166 1165 1162 1159 1157 1155 1155 1154 1151 1150 1150 1150 1150 1154 1161 1163 1163 1163 1161 1161 1161 1161 1174 1178 1181 1182 1185 1187 1187 1187 1187 1186 1186 1183 1183 1184 1184 1184 1184 1176 1165 1155 1155 1153 1144 1137 1135 1133 1131 1126 1120 1120 1120 1120 1121 1121 1121 1121 1122 1125 1125 1126 1130 1130 1130 1129 1129 1129 1134 1141 1150 1162 1174 1177 1183 1188 1191 1193 1195 1196 1198 1199 1200 1201 1202 1203 1204 1204 1204 1203 1203 1203 1203 1203 1203 1202 1202 1200 1199 1198 1198 1196 1195 1189 1179 1160 1144 1135 1127 1121 1119 1117 1106 1100 1096 1096 1091 1091 1091 1089 1089 1080 1080 1080 1085 1094 1103 1108 1109 1113 1113 1114 1123 1128 1147 1166 1180 1192 1197 1200 1201 1202 1204 1204 1206 1207 1208 1208 1209 1209 1209 1209 1209 1209 1209 1209 1209 1209 1209 1208 1208 1207 1207 1204 1201 1199 1196 1189 1175 1168 1157 1150 1149 1140 1133 1133 1131 1127 1126 1118 1118 1118 0 0 0 0 0 0 1152 1157 1165 1174 1177 1181 1190 1198 1198 1198 1199 1206 1211 1213 1213 1213 1214 1215 1215 1215 1215 1215 1215 1215 1215 1215 1215 1215 1215 1215 1215 1215 1215 1215 1216 1215 1215 1215 1215 1215 1215 1215 1215 1214 1213 1213 1213 1214 1214 1214 1214 1215 1217 1217 1217 1217 1217 1216 1216 1216 1217 1218 1219 1220 1221 1221 1221 1220 1220 1219 1218 1217 1217 1216 1216 1216 1216 1218 1219 1219 1219 1221 1224 1224 1224 1223 1222 1218 1216 1215 1215 1215 1218 1220 1220 1220 1220 1219 1218 1218 1219 1219 1218 1219 1219 1218 1217 1211 1211 1211 1207 1203 1202 1202 0 0 0 0 0 0 0 0 0 0 0 0 0 0 0 0 0 0 0 0 0 0 0 0 0 0 0 0 0 0 0 0 0 0 0 0 0 0 0 0 0 0 0 0 0 0 0 0 0 0 0 0 0 0 0 0 0 0 0 0 0 0 0 0 0 0 0 0 0 0 0 0 0 0 0 0 0 0 0 0 0 0 0 0 0 0 0 0 0 0 0 0 0
773 773 794 813 814 832 852 867 879 898 918 936 960 983 1010 1039 1069 1073 1089 1100 1110 1121 1125 1125 1129 1129 1129 1134 1139 1152 1174 1180 1221 1249 1266 1276 1287 1294 1300 1311 1330 1345 1367 1392 1403 1411 1414 1418 1421 1424 1430 1436 1439 1442 1445 1447 1451 1454 1458 1461 1464 1466 1469 1472 1475 1477 1479 1481 1483 1485 1487 1489 1491 1493 1494 1496 1498 1499 1501 1502 1504 1506 1507 1509 1510 1513 1514 1516 1517 1519 1520 1522 1523 1525 1526 1529 1531 1532 1534 1536 1538 1539 1541 1543 1544 1545 1546 1548 1549 1551 1552 1553 1555 1556 1558 1560 1562 1565 1566 1567 1568 1569 1570 1572 1573 1574 1575 1577 1578 1580 1582 1583 1585 1586 1586 1587 1589 1591 1591 1592 1593 1593 1594 1594 1594 1593 1592 1591 1590 1589 1588 1587 1586 1585 1582 1580 1579 1578 1577 1576 1576 1575 1575 1575 1578 1582 1587 1591 1595 1600 1605 1607 1607 1607 1607 1606 1606 1607 1607 1607 1611 1611 1611 1595 0 0 0 0 1199 1188 1185 1185 1185 1184 1181 1180 1177 1176 1175 1174 1173 1173 1173 1173 1174 1174 1174 1174 1174 1174 1174 1174 1174 1174 1174 1174 1174 1172 1171 1171 1169 1168 1168 1168 1168 1167 1167 1167 1167 1166 1166 1166 1166 1166 1167 1167 1167 1167 1165 1163 1163 1163 1163 1164 1164 1164 1164 1161 1157 1157 1155 1155 1155 1155 1159 1161 1162 1166 1176 1176 1177 1177 1177 1177 1177 1177 1177 1183 1186 1188 1189 1190 1190 1190 1189 1189 1188 1188 1188 1187 1187 1186 1184 1184 1178 1165 1155 1150 1144 1137 1137 1135 1132 1125 1120 1117 1117 1117 1120 1123 1128 1128 1128 1125 1125 1125 1126 1130 1130 1130 1129 1129 1129 1134 1142 1152 1166 1174 1178 1185 1189 1192 1194 1197 1199 1200 1201 1203 1204 1204 1205 1205 1205 1205 1205 1205 1205 1205 1205 1204 1204 1203 1202 1202 1201 1199 1198 1196 1190 1180 1166 1159 1147 1142 1135 1129 1122 1107 1103 1102 1098 1097 1097 1095 1095 1089 1080 1080 1080 1084 1089 1098 1108 1109 1113 1116 1123 1128 1128 1147 1161 1180 1192 1197 1201 1204 1204 1205 1206 1208 1209 1210 1211 1211 1211 1211 1211 1211 1211 1211 1211 1211 1211 1211 1210 1210 1209 1209 1206 1204 1202 1200 1194 1181 1175 1165 1162 1160 1160 1162 1167 1176 1176 1176 1161 1161 1161 1169 1169 1177 1185 1187 1189 1191 1195 1195 1198 1198 1198 1201 1203 1206 1206 1206 1208 1211 1213 1214 1214 1216 1217 1217 1217 1218 1218 1218 1218 1217 1217 1217 1217 1217 1217 1217 1217 1218 1218 1218 1218 1217 1217 1217 1217 1217 1217 1216 1215 1215 1215 1215 1215 1216 1216 1216 1217 1218 1218 1219 1219 1219 1219 1220 1220 1220 1220 1221 1222 1223 1223 1223 1223 1222 1221 1219 1218 1217 1217 1217 1218 1218 1218 1219 1220 1220 1222 1226 1226 1226 1223 1222 1218 1216 1215 1215 1215 1218 1220 1220 1220 1216 1206 1206 1206 1212 1212 1212 0 0 0 0 0 0 0 0 0 0 0 0 0 0 0 0 0 0 0 0 0 0 0 0 0 0 793 793 793 0 0 0 0 0 0 0 0 0 0 0 0 0 0 0 0 0 0 0 0 0 0 0 0 0 0 0 0 0 0 0 0 0 0 0 567 567 567 590 0 0 0 0 0 0 0 0 0 0 0 0 0 0 0 0 0 0 0 0 0 0 0 0 0 0 0 0 0 0 0 0 0 0 0 0
774 774 794 812 814 832 849 861 877 892 911 931 949 978 1007 1039 1069 1074 1092 1105 1116 1127 1128 1128 1129 1129 1129 1137 1142 1152 1174 1180 1221 1249 1262 1277 1288 1296 1302 1315 1336 1360 1374 1392 1405 1412 1415 1418 1421 1424 1426 1435 1439 1441 1445 1447 1451 1454 1458 1461 1464 1466 1469 1472 1475 1477 1479 1481 1483 1484 1486 1489 1490 1493 1494 1496 1498 1499 1501 1502 1504 1506 1507 1509 1511 1512 1514 1516 1517 1519 1520 1522 1523 1525 1526 1529 1531 1532 1534 1536 1537 1539 1541 1543 1544 1545 1546 1548 1549 1551 1552 1553 1555 1556 1557 1559 1561 1564 1565 1566 1567 1568 1570 1570 1571 1572 1573 1575 1576 1578 1580 1581 1584 1584 1585 1587 1588 1589 1590 1592 1593 1593 1593 1593 1593 1592 1592 1591 1591 1590 1589 1588 1587 1585 1583 1581 1579 1578 1577 1577 1576 1575 1575 1575 1578 1582 1587 1590 1593 1597 1602 1606 1606 1606 1607 1606 1606 1607 1607 1607 1608 1608 1608 1595 0 0 0 0 1217 1193 1189 1188 1186 1185 1184 1181 1180 1178 1176 1176 1176 1175 1175 1175 1175 1176 1176 1176 1176 1176 1176 1176 1176 1176 1176 1176 1175 1174 1174 1174 1174 1171 1168 1168 1168 1167 1167 1166 1166 1166 1165 1165 1165 1164 1165 1165 1164 1163 1163 1161 1157 1157 1157 1158 1158 1158 1157 1156 1156 1155 1155 1155 1156 1162 1164 1168 1170 1172 1178 1179 1181 1185 1186 1189 1189 1189 1188 1188 1188 1190 1192 1192 1193 1193 1193 1193 1192 1192 1191 1190 1188 1186 1186 1184 1177 1160 1155 1150 1144 1129 1124 1123 1123 1122 1118 1118 1118 1118 1121 1123 1128 1128 1128 1125 1125 1125 1125 1130 1130 1130 1129 1129 1129 1134 1139 1147 1166 1174 1179 1185 1190 1193 1195 1198 1200 1202 1203 1205 1205 1206 1206 1206 1207 1207 1207 1207 1207 1207 1207 1206 1206 1205 1204 1204 1202 1202 1200 1196 1194 1182 1174 1165 1147 1142 1135 1129 1122 1111 1106 1104 1103 1100 1100 1098 1096 1089 1080 1080 1080 1084 1089 1098 1098 1105 1112 1119 1127 1128 1139 1151 1165 1181 1192 1198 1202 1206 1206 1207 1208 1210 1211 1212 1213 1214 1214 1214 1213 1213 1213 1213 1213 1213 1213 1212 1212 1211 1211 1210 1209 1207 1204 1202 1197 1191 1186 1181 1177 1176 1173 1173 1173 1181 1187 1190 1191 1192 1193 1197 1199 1201 1203 1203 1204 1210 1210 1210 1209 1209 1209 1210 1212 1212 1212 1213 1213 1213 1215 1217 1217 1217 1218 1219 1219 1219 1219 1219 1219 1219 1219 1218 1218 1218 1218 1218 1219 1219 1219 1219 1219 1219 1219 1219 1219 1219 1219 1218 1218 1218 1218 1218 1218 1218 1218 1218 1219 1219 1220 1220 1220 1221 1222 1223 1223 1223 1223 1223 1224 1224 1225 1225 1225 1224 1223 1222 1221 1220 1219 1219 1219 1219 1219 1220 1220 1220 1222 1226 1226 1226 1222 1222 1218 1216 1215 1215 1215 1218 1218 0 0 0 0 0 0 0 0 0 0 0 0 0 0 0 0 0 0 0 0 0 0 0 0 0 0 0 0 0 0 0 0 0 0 781 781 792 792 792 0 0 0 0 0 0 0 0 0 0 0 0 0 0 0 0 0 0 0 0 0 0 0 0 0 0 0 0 0 0 0 0 0 567 567 567 567 590 590 0 0 0 0 0 0 0 0 0 0 0 0 0 0 0 0 0 0 0 0 0 0 0 0 0 0 0 0 0 0 0 0 0 0 0
783 783 796 813 815 832 838 856 874 890 903 923 944 970 1002 1040 1070 1075 1096 1110 1121 1130 1132 1132 1132 1132 1132 1137 1144 1153 1175 1180 1221 1247 1262 1277 1289 1296 1303 1317 1345 1371 1383 1394 1406 1412 1415 1418 1421 1421 1425 1429 1436 1440 1444 1448 1451 1454 1458 1461 1464 1466 1469 1472 1475 1478 1479 1481 1483 1484 1486 1489 1490 1493 1494 1496 1498 1499 1501 1502 1504 1505 1507 1509 1511 1513 1514 1516 1518 1519 1520 1522 1523 1525 1526 1529 1531 1532 1534 1536 1537 1539 1541 1543 1544 1545 1546 1547 1549 1551 1552 1553 1554 1556 1557 1559 1560 1563 1564 1565 1565 1566 1568 1569 1571 1571 1572 1574 1575 1577 1579 1581 1582 1584 1584 1585 1586 1588 1589 1591 1592 1593 1593 1593 1593 1592 1592 1591 1591 1591 1590 1589 1587 1586 1583 1582 1580 1579 1577 1577 1577 1577 1577 1577 1578 1583 1587 1590 1593 1596 1600 1606 1606 1608 1608 1609 1611 1611 1611 1608 1607 1603 1600 1595 0 0 0 0 0 1209 1189 1189 1186 1186 1185 1183 1181 1179 1178 1177 1177 1177 1177 1177 1177 1177 1177 1177 1177 1177 1178 1178 1178 1178 1178 1178 1177 1177 1177 1176 1174 1171 1168 1167 1166 1166 1166 1164 1163 1163 1160 1159 1158 1159 1160 1161 1161 1161 1159 1152 1147 1147 1146 1146 1146 1146 1145 1144 1144 1145 1149 1151 1156 1165 1167 1173 1178 1181 1182 1184 1187 1189 1190 1190 1191 1192 1192 1192 1192 1195 1195 1195 1195 1195 1195 1195 1194 1193 1193 1193 1191 1187 1187 1186 1177 1160 1156 1150 1144 1129 1123 1120 1120 1119 1118 1118 1118 1119 1121 1123 1128 1128 1128 1126 1124 1124 1124 1125 1125 1125 1125 1125 1129 1133 1139 1146 1168 1179 1185 1188 1191 1193 1196 1199 1202 1204 1206 1207 1207 1208 1208 1209 1209 1209 1209 1209 1209 1209 1208 1208 1207 1206 1206 1205 1204 1203 1202 1199 1195 1190 1177 1165 1149 1142 1135 1129 1122 1119 1119 1117 1113 1108 1104 1104 1103 1097 1090 1084 1084 1084 1089 1098 1098 1105 1106 1119 1138 1139 1140 1152 1166 1181 1192 1199 1204 1208 1209 1211 1212 1212 1213 1215 1215 1216 1216 1216 1216 1216 1216 1215 1215 1215 1215 1214 1214 1214 1213 1213 1213 1211 1210 1209 1208 1202 1202 1202 1200 1200 1196 1196 1196 1196 1199 1201 1203 1203 1206 1208 1210 1210 1210 1210 1210 1214 1214 1214 1211 1211 1211 1214 1216 1216 1216 1215 1215 1215 1218 1219 1219 1219 1219 1220 1220 1220 1221 1221 1220 1220 1220 1220 1220 1220 1221 1221 1221 1221 1221 1221 1221 1221 1221 1221 1220 1220 1220 1220 1220 1220 1220 1220 1220 1220 1220 1220 1221 1221 1221 1222 1223 1223 1224 1225 1225 1225 1225 1225 1225 1225 1226 1226 1226 1225 1224 1223 1222 1222 1221 1219 1219 1219 1219 1220 1220 1220 1222 1226 1226 1226 1220 1217 1216 1195 1195 1191 0 0 0 0 0 0 0 0 0 0 0 0 0 0 0 0 0 0 0 0 0 0 0 0 0 0 0 0 0 0 0 0 0 0 0 0 762 767 770 784 784 784 0 0 0 0 0 0 0 0 0 0 0 631 630 630 629 0 0 0 0 0 0 0 0 0 0 0 0 0 0 0 0 0 0 544 544 556 556 571 590 0 0 0 0 0 0 0 0 0 0 0 0 0 0 0 0 0 0 0 0 0 0 0 0 0 0 0 0 0 0 0 0 0 0 0
783 783 796 812 814 834 838 852 869 887 903 920 944 969 999 1039 1076 1081 1101 1115 1126 1136 1136 1136 1132 1132 1132 1137 1147 1157 1176 1181 1219 1245 1262 1277 1292 1300 1307 1319 1353 1375 1388 1398 1407 1412 1415 1417 1419 1421 1424 1429 1434 1439 1444 1448 1451 1454 1458 1461 1464 1466 1469 1472 1475 1478 1480 1481 1483 1485 1486 1489 1490 1493 1494 1496 1497 1499 1500 1502 1503 1505 1507 1509 1511 1513 1514 1517 1518 1519 1521 1522 1523 1525 1527 1529 1531 1532 1534 1536 1537 1539 1541 1543 1544 1545 1546 1547 1549 1550 1552 1553 1554 1555 1556 1558 1560 1562 1564 1564 1565 1566 1567 1568 1569 1571 1571 1573 1574 1577 1578 1580 1581 1582 1583 1584 1586 1587 1589 1591 1592 1593 1593 1593 1592 1592 1592 1591 1591 1591 1590 1589 1587 1586 1584 1582 1581 1579 1579 1578 1578 1578 1578 1579 1581 1584 1587 1590 1593 1595 1599 1604 1607 1608 1608 1609 1611 1613 1613 1613 1608 1603 1596 1591 1580 0 0 0 0 0 1194 1193 1189 1188 1187 1186 1184 1182 1181 1180 1180 1180 1179 1179 1179 1179 1179 1179 1179 1179 1179 1179 1180 1180 1180 1179 1179 1179 1178 1177 1174 1171 1168 1164 1163 1161 1161 1160 1160 1156 1144 1143 1142 1142 1142 1142 1140 1137 1135 1128 1106 1106 1106 1112 1112 1112 1113 1115 1115 1126 1149 1150 1153 1154 1164 1173 1178 1185 1187 1189 1190 1191 1192 1192 1194 1195 1196 1196 1196 1196 1197 1197 1197 1197 1197 1196 1196 1195 1195 1195 1193 1188 1187 1187 1179 1160 1159 1150 1139 1129 1123 1120 1120 1118 1118 1118 1121 1121 1121 1122 1123 1124 1124 1123 1121 1114 1109 1109 1109 1115 1116 1117 1118 1119 1127 1148 1170 1180 1185 1188 1191 1193 1196 1200 1204 1207 1207 1208 1209 1210 1210 1210 1211 1211 1211 1211 1211 1211 1210 1209 1209 1208 1207 1207 1206 1204 1202 1200 1197 1192 1177 1165 1155 1145 1134 1129 1124 1124 1124 1124 1124 1120 1116 1114 1112 1101 1099 1096 1096 1096 1098 1098 1098 1105 1106 1120 1140 1143 1144 1153 1167 1184 1195 1203 1210 1212 1214 1214 1215 1215 1216 1217 1217 1218 1218 1218 1218 1217 1217 1217 1217 1217 1217 1217 1217 1216 1216 1216 1215 1215 1214 1213 1213 1209 1205 1205 1205 1205 1205 1206 1206 1210 1211 1212 1212 1213 1213 1213 1213 1216 1216 1216 1216 1216 1216 1216 1213 1213 1213 1216 1218 1219 1219 1219 1219 1220 1220 1221 1221 1221 1221 1221 1221 1222 1222 1222 1222 1221 1221 1221 1221 1222 1222 1222 1222 1223 1223 1223 1223 1223 1223 1223 1224 1224 1224 1224 1224 1224 1224 1224 1224 1224 1224 1224 1224 1224 1225 1225 1226 1226 1226 1226 1227 1227 1227 1227 1227 1227 1227 1226 1226 1225 1224 1224 1223 1222 1222 1219 1219 1219 1218 1218 1219 1220 1220 1220 1219 0 0 0 0 0 0 0 0 0 0 0 0 0 0 0 0 0 0 0 0 0 0 0 0 0 0 0 0 0 0 0 0 0 0 0 0 0 0 0 0 0 0 0 745 749 749 761 778 778 0 0 0 0 0 0 0 0 0 0 676 639 634 634 634 632 0 0 0 0 0 0 0 0 0 0 0 0 0 0 0 0 0 544 544 556 556 571 580 0 0 0 0 0 0 0 0 0 0 0 0 0 0 0 0 0 0 0 0 0 0 0 0 0 0 0 0 0 0 0 0 0 0 0
785 785 796 812 815 834 838 852 869 887 903 919 943 968 999 0 1079 1085 1104 1117 1127 1138 1138 1138 1132 1132 1132 1137 1147 1159 1176 1181 1215 1245 1262 1280 1292 1303 1309 1320 1358 1375 1389 1401 1406 1412 1414 1416 1418 1421 1424 1429 1433 1438 1443 1448 1452 1455 1458 1461 1464 1467 1469 1472 1475 1478 1480 1482 1483 1485 1487 1489 1491 1493 1494 1496 1497 1499 1500 1502 1503 1506 1508 1509 1511 1513 1515 1517 1518 1519 1521 1522 1524 1525 1527 1529 1531 1532 1535 1537 1538 1540 1541 1543 1544 1545 1546 1547 1549 1550 1552 1553 1554 1555 1556 1558 1560 1561 1563 1564 1565 1565 1567 1568 1569 1570 1571 1572 1574 1576 1577 1579 1580 1581 1583 1584 1586 1587 1589 1591 1592 1593 1593 1593 1592 1591 1591 1591 1591 1591 1590 1590 1587 1586 1585 1583 1582 1580 1579 1579 1579 1579 1579 1580 1583 1586 1588 1591 1593 1595 1598 1602 1605 1606 1607 1609 1611 1613 1613 1613 1611 1603 1596 1591 1584 0 0 0 0 0 1198 1195 1190 1190 1189 1188 1186 1184 1184 1183 1182 1182 1182 1181 1181 1181 1181 1181 1181 1181 1181 1181 1181 1181 1181 1181 1180 1180 1178 1177 1174 1170 1165 1161 1160 1157 1157 1154 1152 1144 1130 1119 1119 1118 1118 1118 1102 1092 1090 1088 1080 1080 1080 1085 1091 1092 1095 1095 1095 1123 1145 1147 1147 1153 1164 1173 1180 1186 1188 1190 1192 1194 1194 1194 1196 1198 1198 1198 1198 1198 1199 1199 1199 1199 1199 1199 1198 1198 1198 1198 1196 1192 1188 1187 1184 1179 1166 1150 1140 1134 1126 1120 1120 1120 1120 1120 1121 1121 1121 1118 1118 1118 1119 1119 1119 1114 1109 1107 1107 1107 1108 1115 1117 1119 1127 1145 1170 1180 1186 1189 1191 1194 1198 1202 1206 1208 1209 1209 1210 1211 1211 1212 1212 1212 1212 1212 1212 1211 1211 1211 1211 1210 1209 1208 1207 1205 1204 1202 1197 1192 1177 1163 1155 1145 1134 1129 1129 1129 1127 1127 1127 1125 1123 1120 1113 1105 1105 1105 1114 1114 1114 1114 1107 1107 1107 1120 1141 1145 1145 1160 1177 1190 1197 1207 1213 1215 1215 1216 1216 1218 1218 1219 1219 1220 1220 1220 1219 1219 1219 1219 1219 1219 1219 1218 1218 1218 1218 1218 1217 1217 1217 1216 1216 1214 1213 1212 1212 1212 1212 1212 1212 1214 1214 1215 1215 1215 1214 1214 1214 1216 1217 1217 1218 1217 1217 1217 1216 1216 1216 1217 1219 1220 1220 1220 1221 1221 1222 1222 1222 1222 1222 1223 1223 1223 1223 1223 1223 1223 1223 1223 1223 1224 1225 1225 1225 1225 1225 1226 1226 1226 1226 1226 1226 1226 1226 1227 1227 1227 1227 1227 1227 1227 1226 1226 1226 1227 1228 1228 1228 1228 1227 1227 1227 1227 1229 1229 1229 1229 1228 1228 1227 1225 1225 1224 1223 1222 1222 1217 1214 1210 1207 1205 0 0 0 0 0 0 0 0 0 0 0 0 0 0 0 0 0 0 0 0 0 0 0 0 0 0 0 0 0 0 0 0 0 0 0 0 0 0 0 0 0 0 0 0 0 0 0 0 749 750 750 761 789 789 0 0 0 0 0 0 0 0 0 0 676 644 641 638 638 638 0 0 0 0 0 0 0 0 0 0 0 0 0 0 0 0 0 544 544 556 556 556 556 0 0 0 0 0 0 0 0 0 0 0 0 0 0 0 0 0 0 0 0 0 0 0 0 0 0 0 0 0 0 0 0 0 642 0
786 786 797 812 815 834 842 852 868 886 902 919 943 968 998 0 1079 1090 1108 1121 1133 1141 1143 1143 1143 1138 1138 1138 1148 1161 1180 1207 1214 1242 1264 1281 1292 1304 1314 1325 1358 1382 1392 1401 1406 1410 1411 1414 1417 1420 1424 1428 1433 1436 1443 1448 1452 1455 1458 1461 1464 1467 1470 1472 1475 1478 1480 1482 1483 1485 1487 1489 1491 1493 1494 1496 1497 1498 1500 1502 1503 1506 1508 1510 1511 1513 1515 1517 1519 1520 1521 1523 1524 1526 1528 1529 1531 1533 1535 1537 1538 1540 1542 1543 1545 1545 1546 1547 1549 1550 1552 1553 1554 1555 1556 1558 1559 1561 1562 1563 1564 1565 1567 1568 1569 1570 1571 1572 1573 1574 1576 1577 1579 1581 1582 1584 1585 1587 1588 1591 1591 1593 1593 1593 1592 1591 1591 1591 1591 1591 1591 1590 1588 1587 1586 1584 1582 1581 1580 1580 1580 1580 1580 1582 1584 1588 1590 1591 1593 1595 1597 1600 1604 1606 1606 1608 1611 1613 1613 1613 1611 1606 1596 1591 1589 0 0 0 0 0 1212 1199 1197 1191 1190 1189 1188 1187 1186 1186 1184 1184 1184 1184 1183 1183 1183 1183 1183 1183 1183 1183 1183 1182 1182 1182 1182 1180 1179 1177 1174 1170 1165 1146 1143 1134 1122 1121 1121 1116 1107 1100 1091 1091 1091 1086 1084 1075 1075 1075 1075 1076 1077 1077 1078 1078 1078 1084 1090 1120 1133 1139 1143 1151 1166 1173 1180 1187 1189 1191 1193 1194 1195 1197 1198 1200 1201 1201 1201 1201 1201 1201 1201 1201 1201 1201 1201 1201 1200 1200 1198 1196 1192 1190 1185 1179 1173 1154 1145 1136 1130 1124 1121 1121 1121 1122 1122 1122 1121 1118 1118 1118 1119 1119 1119 1114 1109 1107 1107 1107 1108 1115 1117 1119 1127 1143 1166 1180 1188 1191 1191 1195 1198 1203 1207 1209 1210 1211 1211 1212 1212 1213 1214 1214 1214 1214 1214 1213 1213 1213 1213 1212 1211 1210 1209 1208 1207 1205 1201 1192 1174 1163 1156 1147 1134 1134 1134 1134 1134 1131 1129 1127 1123 1121 1116 1116 1116 1118 1122 1122 1122 1120 1120 1120 1129 1144 1151 1157 1165 1177 1191 1200 1203 1211 1215 1216 1216 1217 1218 1219 1220 1221 1221 1222 1222 1222 1222 1222 1221 1221 1220 1220 1220 1220 1220 1219 1219 1219 1219 1219 1219 1219 1219 1219 1220 1220 1220 1220 1218 1216 1216 1216 1217 1217 1217 1217 1217 1217 1217 1218 1219 1219 1219 1219 1219 1219 1219 1219 1219 1219 1220 1221 1222 1222 1222 1222 1223 1223 1223 1223 1223 1224 1224 1225 1225 1224 1224 1224 1224 1224 1224 1226 1227 1228 1228 1228 1228 1228 1228 1228 1228 1228 1228 1228 1227 1227 1227 1227 1228 1228 1229 1229 1229 1229 1229 1229 1229 1229 1229 1229 1228 1228 1228 1229 1229 1229 1229 1230 1229 1229 1228 1225 1225 1224 1223 1222 1212 1207 0 0 0 0 0 0 0 0 0 0 0 0 0 0 0 0 0 0 0 0 0 0 0 0 0 0 0 0 0 0 0 0 0 0 0 0 0 0 0 0 0 0 0 0 0 0 0 0 0 0 0 0 0 749 750 761 791 0 0 0 0 0 0 0 0 0 0 0 673 650 649 647 648 648 0 0 0 0 0 0 0 0 0 0 0 0 0 0 0 0 0 0 518 566 566 566 0 0 0 0 0 0 0 0 0 0 0 0 0 0 0 0 0 0 0 0 0 0 0 0 0 0 0 0 0 0 0 0 0 632 642 0
786 786 800 813 827 831 842 849 865 886 902 919 940 966 997 0 0 1109 1114 1128 1139 1148 1153 1153 1153 1148 1148 1148 1152 1165 1184 1207 1212 1242 1264 1281 1294 1305 1317 1335 1368 1382 1392 1401 1405 1407 1409 1411 1414 1419 1423 1427 1431 1436 1443 1448 1452 1455 1458 1461 1464 1467 1470 1473 1475 1478 1480 1482 1483 1485 1487 1489 1491 1493 1494 1495 1497 1498 1500 1502 1504 1506 1508 1510 1511 1514 1516 1518 1520 1520 1522 1523 1524 1526 1528 1530 1532 1533 1535 1537 1539 1541 1542 1543 1545 1545 1546 1548 1549 1550 1552 1554 1554 1555 1556 1558 1559 1561 1562 1563 1564 1565 1566 1567 1569 1569 1571 1572 1573 1574 1575 1577 1578 1580 1581 1583 1585 1586 1588 1589 1591 1592 1592 1592 1592 1591 1591 1591 1592 1592 1592 1591 1589 1588 1586 1584 1583 1582 1581 1581 1581 1581 1581 1583 1586 1590 1591 1592 1594 1595 1597 1599 1602 1604 1606 1606 1609 1613 1613 1613 1612 1608 1604 1598 1593 0 0 0 0 0 1234 1207 1199 1199 1196 1193 1192 1189 1188 1187 1186 1186 1186 1186 1185 1185 1185 1185 1185 1185 1184 1184 1184 1184 1184 1184 1183 1181 1180 1178 1175 1170 1164 1144 1120 1102 1088 1085 1085 1080 1073 1067 1067 1067 1069 1069 1069 1069 1069 1069 1073 1074 1074 1073 1076 1076 1077 1084 1090 1116 1132 1139 1144 1151 1163 1173 1180 1187 1193 1194 1194 1196 1197 1199 1201 1203 1203 1203 1204 1204 1204 1204 1204 1204 1204 1204 1204 1204 1203 1203 1202 1199 1198 1194 1190 1182 1174 1156 1145 1139 1135 1128 1124 1122 1122 1122 1122 1122 1121 1118 1118 1118 1119 1119 1119 1119 1116 1113 1110 1110 1110 1115 1122 1123 1129 1143 1161 1181 1188 1193 1193 1196 1201 1204 1207 1209 1211 1211 1213 1213 1214 1215 1215 1215 1216 1216 1215 1215 1215 1215 1215 1214 1213 1213 1211 1210 1209 1208 1206 1192 1174 1163 1162 1153 1141 1141 1140 1140 1140 1132 1129 1128 1124 1122 1120 1120 1120 1128 1128 1128 1127 1127 1127 1127 1150 1158 1161 1172 1188 1190 1193 1200 1209 1213 1216 1217 1217 1219 1219 1221 1223 1223 1223 1223 1223 1223 1223 1223 1223 1223 1222 1222 1222 1222 1222 1222 1222 1222 1222 1222 1222 1222 1222 1221 1221 1221 1220 1220 1220 1218 1218 1218 1218 1219 1219 1219 1219 1219 1220 1220 1221 1221 1221 1221 1221 1221 1221 1221 1221 1221 1221 1223 1224 1224 1224 1225 1225 1225 1225 1225 1225 1225 1226 1226 1226 1226 1226 1225 1225 1225 1227 1229 1230 1230 1230 1230 1230 1230 1230 1230 1230 1230 1229 1228 1228 1228 1228 1228 1228 1230 1231 1232 1233 1233 1233 1233 1233 1233 1231 1230 1230 1230 1230 1230 1231 1234 1234 1234 1234 1233 1229 1226 1225 0 0 0 0 0 0 0 0 0 0 0 0 0 0 0 0 0 0 0 0 0 0 0 0 0 0 0 0 0 0 0 0 0 0 0 0 0 0 0 0 0 0 0 0 0 0 0 0 0 0 0 0 0 0 0 0 0 0 0 0 0 0 0 0 0 0 0 0 0 0 0 0 0 656 655 655 650 648 648 0 0 0 0 0 0 0 0 0 0 0 0 0 0 0 0 0 0 0 0 0 0 0 0 0 0 0 0 0 0 0 0 0 0 0 0 0 0 0 0 0 0 0 0 0 0 0 0 0 0 0 0 0 0 0 632 635 0
786 786 804 813 827 831 845 849 862 881 899 917 940 966 985 0 0 1112 1117 1132 1147 1157 1163 1163 1163 1159 1159 1159 1159 1171 1186 1207 1212 1242 1264 1280 1292 1307 1327 1349 1368 1382 1392 1398 1401 1402 1405 1409 1412 1418 1421 1424 1430 1436 1442 1448 1452 1455 1458 1461 1464 1467 1470 1473 1475 1478 1480 1482 1483 1485 1487 1489 1491 1493 1494 1495 1497 1498 1500 1502 1504 1506 1508 1510 1512 1514 1516 1518 1520 1521 1522 1524 1524 1527 1529 1531 1533 1534 1536 1537 1539 1541 1542 1543 1545 1546 1546 1548 1549 1550 1552 1554 1554 1555 1556 1557 1559 1560 1561 1563 1564 1565 1566 1567 1569 1569 1570 1571 1572 1573 1575 1576 1577 1579 1580 1582 1583 1585 1587 1589 1591 1591 1591 1591 1591 1591 1591 1591 1592 1592 1592 1592 1591 1590 1588 1586 1584 1583 1582 1582 1582 1583 1583 1584 1588 1590 1592 1593 1594 1595 1597 1599 1601 1602 1604 1606 1609 1612 1615 1615 1615 1611 1607 1603 1594 1582 0 0 0 0 1250 1217 1213 1204 1200 1197 1196 1192 1189 1189 1188 1188 1188 1187 1187 1187 1187 1187 1187 1187 1186 1186 1186 1186 1186 1186 1185 1184 1183 1180 1176 1173 1164 1144 1120 1102 1088 1078 1074 1067 1057 1057 1057 1062 1062 1064 1064 1064 1064 1067 1069 1072 1072 1072 1072 1072 1077 1084 1088 1091 1113 1136 1139 1151 1161 1173 1180 1188 1194 1196 1196 1198 1200 1202 1204 1205 1206 1206 1206 1206 1206 1206 1206 1206 1207 1207 1207 1207 1207 1206 1204 1202 1201 1199 1191 1188 1177 1156 1145 1143 1140 1131 1125 1122 1122 1122 1122 1122 1121 1118 1118 1118 1120 1120 1120 1120 1119 1119 1114 1114 1114 1118 1128 1128 1129 1143 1161 1181 1189 1194 1195 1199 1204 1208 1208 1210 1212 1213 1214 1215 1216 1217 1217 1217 1217 1217 1217 1218 1218 1218 1217 1217 1216 1215 1214 1214 1212 1211 1209 1198 1175 1174 1174 1165 1159 1157 1156 1155 1146 1135 1135 1135 1137 1137 1140 1137 1140 1143 1143 1151 1156 1156 1160 1160 1169 1177 1182 1195 1195 1196 1199 1205 1212 1217 1217 1217 1219 1221 1223 1223 1224 1224 1224 1225 1225 1224 1224 1224 1224 1224 1224 1224 1224 1224 1224 1224 1223 1223 1223 1223 1223 1223 1223 1223 1222 1222 1222 1222 1221 1221 1220 1220 1220 1221 1221 1221 1222 1222 1222 1223 1223 1223 1223 1223 1223 1222 1222 1222 1222 1223 1223 1224 1225 1225 1226 1226 1226 1227 1227 1227 1228 1228 1228 1228 1228 1228 1228 1228 1228 1228 1229 1230 1231 1231 1231 1231 1231 1230 1230 1230 1230 1230 1230 1230 1229 1229 1229 1229 1229 1230 1232 1234 1235 1235 1235 1234 1234 1234 1234 1233 1231 1231 1231 1231 1232 1237 1240 1240 1242 1240 1240 1239 0 0 0 0 0 0 0 0 0 0 0 0 0 0 0 0 0 905 907 907 905 0 0 0 0 0 0 0 0 0 0 0 0 0 0 0 0 0 0 0 0 0 0 0 0 0 0 0 0 0 0 0 0 0 0 0 0 0 0 0 0 0 0 0 0 0 0 0 0 0 0 0 0 0 643 650 650 650 636 0 0 0 0 0 0 0 0 0 0 0 0 0 0 0 0 0 0 0 0 0 0 0 0 0 0 0 0 0 0 0 0 0 0 0 0 0 0 0 0 0 0 0 0 0 0 0 0 0 0 0 0 0 0 0 0 632 635 0
786 786 804 815 828 831 845 849 859 874 891 913 939 963 984 0 0 1112 1117 1132 1150 1162 1170 1171 1171 1171 1168 1168 1168 1177 1189 1204 1207 1233 1264 1280 1289 1311 1330 1352 1368 1379 1387 1391 1394 1397 1402 1406 1410 1414 1419 1424 1430 1436 1442 1447 1451 1455 1458 1461 1464 1468 1470 1473 1475 1478 1480 1482 1483 1485 1487 1489 1491 1493 1494 1495 1497 1498 1500 1502 1504 1506 1508 1510 1512 1514 1516 1518 1520 1521 1522 1524 1525 1527 1529 1532 1533 1534 1536 1537 1540 1541 1543 1545 1545 1546 1546 1548 1550 1550 1552 1553 1554 1555 1556 1557 1558 1560 1561 1562 1564 1564 1565 1567 1567 1568 1569 1570 1571 1572 1573 1576 1577 1578 1579 1580 1582 1585 1586 1588 1590 1591 1591 1591 1591 1592 1592 1592 1593 1593 1593 1593 1592 1590 1589 1587 1586 1584 1584 1583 1583 1583 1584 1585 1588 1590 1592 1594 1594 1596 1597 1599 1600 1601 1602 1604 1607 1612 1615 1615 1615 1614 1610 1607 1598 1586 0 0 0 0 0 1241 1222 1220 1208 1200 1199 1196 1192 1191 1191 1191 1190 1190 1190 1190 1190 1189 1189 1189 1189 1189 1189 1189 1188 1188 1187 1185 1184 1182 1179 1175 1165 1144 1120 1102 1088 1078 1074 1067 1057 1057 1057 1062 1062 1062 1061 1061 1061 1062 1063 1066 1069 1070 1070 1072 1077 1084 1088 1091 1110 1135 1136 1152 1163 1173 1180 1188 1194 1198 1200 1201 1203 1205 1206 1207 1208 1208 1208 1208 1209 1209 1209 1209 1209 1209 1209 1209 1209 1207 1206 1205 1205 1204 1204 1194 1177 1157 1149 1147 1144 1137 1130 1128 1123 1121 1121 1120 1118 1118 1118 1118 1120 1120 1120 1120 1119 1119 1114 1114 1114 1119 1129 1129 1131 1143 1161 1182 1194 1197 1198 1200 1205 1210 1210 1211 1212 1214 1215 1216 1217 1218 1218 1218 1218 1218 1219 1219 1219 1219 1219 1219 1219 1218 1217 1216 1215 1214 1212 1205 1197 1196 1195 1194 1194 1189 1189 1189 1189 1188 1176 1176 1175 1174 1171 1171 1174 1179 1190 1193 1193 1193 1193 1193 1193 1204 1204 1208 1211 1211 1212 1213 1216 1220 1220 1222 1223 1224 1224 1225 1225 1226 1226 1225 1225 1225 1225 1225 1225 1225 1225 1225 1225 1225 1225 1225 1225 1225 1225 1225 1225 1225 1225 1224 1224 1224 1224 1224 1224 1223 1223 1223 1223 1223 1223 1224 1224 1224 1224 1224 1225 1225 1225 1225 1224 1224 1224 1224 1225 1226 1226 1227 1227 1227 1228 1228 1228 1229 1229 1230 1230 1230 1232 1232 1232 1232 1231 1231 1230 1230 1230 1232 1233 1233 1233 1232 1232 1231 1231 1230 1230 1230 1230 1230 1231 1231 1231 1231 1231 1233 1233 1235 1235 1236 1236 1236 1236 1236 1236 1233 1233 1233 1235 1235 1237 1246 1258 1262 1266 1266 1262 1252 0 0 0 0 0 0 0 0 845 859 859 859 859 859 861 866 880 891 904 904 903 891 880 832 0 0 0 0 0 0 0 0 0 0 0 0 0 0 0 0 0 0 0 0 0 0 0 0 0 0 0 0 0 0 0 0 0 0 0 0 0 0 0 0 0 0 0 0 0 0 0 0 0 0 0 0 0 0 0 0 0 0 0 0 0 0 0 0 0 0 0 0 0 0 0 0 0 0 0 0 0 0 0 0 0 0 0 0 0 0 0 0 0 0 0 0 0 0 0 0 0 0 0 0 0 0 0 0 0 0 0 0 0 0 0 632 635 0
783 783 804 817 832 834 848 851 859 874 891 913 939 963 984 0 0 1112 1117 1134 1156 1167 1175 1178 1184 1184 1184 1183 1183 1183 1190 1204 1207 1225 1253 1274 1292 1314 1335 1357 1368 1374 1379 1385 1390 1396 1401 1405 1409 1413 1419 1424 1430 1436 1442 1446 1450 1453 1458 1461 1464 1468 1471 1474 1476 1478 1480 1482 1483 1485 1488 1489 1491 1493 1495 1496 1497 1498 1500 1502 1504 1506 1509 1510 1512 1514 1516 1518 1520 1521 1522 1524 1526 1527 1530 1532 1534 1535 1536 1537 1540 1542 1544 1545 1546 1547 1547 1549 1550 1550 1552 1553 1554 1555 1556 1557 1558 1560 1560 1562 1563 1564 1564 1566 1567 1567 1569 1569 1570 1571 1573 1573 1575 1576 1577 1579 1581 1584 1586 1588 1590 1590 1591 1591 1591 1592 1592 1592 1593 1593 1593 1593 1592 1591 1590 1588 1587 1586 1586 1585 1585 1585 1585 1586 1588 1591 1592 1594 1596 1597 1597 1599 1600 1601 1602 1604 1606 1607 1609 1614 1616 1617 1617 1617 1605 1586 1568 0 0 0 0 0 1226 1220 1211 1201 1201 1198 1195 1194 1194 1194 1193 1193 1193 1192 1191 1191 1191 1192 1192 1192 1192 1191 1191 1190 1189 1188 1186 1184 1180 1178 1169 1156 1142 1117 1098 1078 1074 1067 1057 1057 1057 1062 1062 1062 1061 1061 1061 1062 1062 1062 1065 1067 1069 1072 1078 1084 1088 1091 1109 1133 1136 1152 1165 1173 1180 1188 1195 1200 1202 1204 1205 1207 1208 1209 1210 1210 1211 1211 1211 1211 1211 1212 1212 1212 1212 1212 1211 1210 1209 1209 1209 1208 1208 1200 1186 1163 1155 1153 1150 1143 1135 1132 1126 1120 1118 1118 1118 1118 1118 1118 1120 1120 1120 1120 1119 1119 1114 1114 1114 1121 1130 1131 1132 1143 1166 1188 1195 1200 1203 1204 1207 1211 1212 1213 1214 1216 1216 1218 1219 1219 1220 1220 1220 1220 1221 1221 1222 1221 1221 1221 1220 1220 1220 1220 1219 1219 1216 1208 1201 1201 1201 1201 1205 1205 1201 1197 1193 1189 1189 1191 1193 1198 1198 1199 1201 1201 1205 1208 1209 1210 1211 1213 1213 1213 1213 1214 1214 1218 1220 1221 1221 1223 1224 1224 1225 1225 1226 1226 1227 1227 1227 1227 1227 1227 1226 1226 1226 1226 1226 1226 1226 1226 1226 1226 1226 1226 1227 1227 1227 1227 1226 1226 1226 1226 1226 1226 1225 1225 1225 1225 1225 1225 1225 1225 1225 1225 1225 1225 1226 1226 1226 1226 1225 1225 1225 1226 1227 1227 1227 1228 1228 1229 1229 1229 1230 1231 1232 1233 1234 1235 1235 1237 1237 1237 1236 1234 1233 1233 1233 1233 1234 1234 1234 1234 1234 1233 1232 1231 1231 1231 1230 1230 1231 1231 1233 1233 1234 1238 1238 1243 1243 1243 1242 1242 1242 1242 1242 1237 1237 1237 1238 1238 1255 1284 1285 1285 1285 1281 1271 0 0 0 0 0 0 0 0 845 845 859 859 859 855 845 845 846 841 842 846 848 890 890 890 826 818 0 0 0 0 0 0 0 0 0 0 0 0 0 0 0 0 0 0 652 650 640 640 0 0 0 0 0 0 0 0 0 0 0 0 0 0 0 0 0 0 0 0 0 0 0 0 0 0 0 0 0 0 0 0 0 0 0 0 0 0 0 0 0 0 0 0 0 0 0 0 0 0 0 0 0 0 0 0 0 0 0 0 0 0 0 0 0 0 0 0 0 0 0 0 0 0 0 0 0 0 0 0 0 0 0 0 0 0 0 0 632 635 0
783 783 800 819 841 842 859 859 860 874 891 913 939 963 984 1006 0 1083 1089 1137 1157 1174 1178 1181 1188 1195 1199 1199 1199 1199 1199 1204 1207 1225 1251 1269 1292 1316 1342 1359 1365 1369 1373 1381 1390 1396 1401 1405 1409 1413 1419 1424 1430 1436 1442 1446 1450 1453 1458 1461 1464 1468 1472 1474 1476 1478 1480 1482 1483 1486 1488 1489 1492 1493 1495 1496 1497 1498 1500 1503 1505 1506 1509 1510 1512 1514 1516 1517 1520 1521 1523 1525 1526 1528 1530 1532 1534 1535 1536 1538 1540 1543 1544 1545 1546 1547 1548 1549 1550 1550 1552 1553 1554 1556 1556 1557 1558 1559 1560 1562 1563 1563 1564 1565 1566 1567 1568 1569 1570 1571 1572 1572 1573 1575 1576 1578 1580 1583 1585 1588 1589 1589 1590 1591 1591 1591 1592 1592 1593 1593 1593 1593 1592 1591 1590 1589 1588 1586 1586 1586 1586 1586 1586 1586 1588 1591 1594 1596 1597 1598 1599 1599 1600 1601 1602 1604 1606 1607 1609 1611 1616 1617 1618 1618 1618 1593 1577 0 0 0 0 0 1230 1222 1218 1204 1203 1201 1198 1197 1196 1196 1196 1195 1195 1194 1194 1194 1194 1194 1194 1194 1194 1194 1194 1193 1192 1192 1190 1188 1185 1182 1178 1167 1154 1130 1109 1095 1077 1067 1062 1062 1062 1064 1064 1064 1064 1062 1061 1060 1061 1061 1061 1066 1069 1074 1079 1084 1089 1092 1099 1115 1129 1152 1163 1170 1180 1188 1195 1201 1203 1206 1208 1209 1210 1212 1212 1212 1213 1214 1214 1214 1214 1214 1214 1214 1214 1214 1213 1213 1212 1212 1211 1211 1211 1202 1193 1177 1157 1157 1155 1144 1139 1133 1126 1120 1117 1117 1117 1117 1118 1118 1119 1119 1119 1116 1116 1115 1115 1115 1115 1125 1131 1133 1134 1141 1166 1188 1197 1201 1204 1208 1212 1213 1214 1216 1218 1218 1218 1219 1220 1221 1221 1222 1222 1223 1223 1223 1224 1224 1224 1223 1223 1222 1222 1222 1222 1222 1220 1214 1213 1213 1213 1219 1219 1219 1218 1212 1206 1206 1206 1207 1211 1216 1217 1217 1217 1215 1213 1210 1213 1213 1213 1216 1216 1218 1218 1219 1222 1222 1223 1223 1224 1225 1226 1226 1226 1227 1227 1228 1228 1228 1228 1228 1228 1228 1228 1228 1228 1228 1228 1228 1228 1228 1228 1228 1228 1228 1228 1228 1228 1228 1228 1228 1228 1228 1228 1228 1228 1228 1227 1227 1227 1227 1227 1227 1227 1227 1227 1227 1228 1228 1228 1228 1227 1227 1227 1227 1227 1228 1228 1228 1228 1229 1230 1231 1231 1232 1233 1234 1234 1235 1236 1237 1237 1237 1236 1235 1235 1235 1235 1236 1236 1236 1237 1237 1237 1237 1235 1234 1234 1234 1234 1234 1235 1238 1241 1241 1242 1247 1251 1252 1252 1254 1254 1254 1267 1267 1267 1265 1265 1265 1282 1284 1284 1288 1288 1288 1285 1281 1271 0 0 0 0 0 0 0 0 845 845 865 865 865 846 834 834 834 835 840 844 844 879 879 879 848 826 0 0 0 0 0 0 0 0 0 0 0 0 0 0 0 0 0 640 640 636 636 636 636 0 0 0 0 0 0 0 0 0 0 0 0 0 0 0 0 0 0 0 0 0 0 0 0 0 0 0 0 0 0 0 0 0 0 0 0 0 0 0 0 0 0 0 0 0 0 0 0 0 0 0 0 0 0 0 0 0 0 0 0 0 0 0 0 0 0 0 0 0 0 0 0 0 0 0 0 0 0 0 0 0 0 0 0 0 0 0 655 655 0
783 783 800 820 846 847 866 866 867 879 894 914 939 963 984 1006 0 1083 1089 1137 1167 1175 1180 1183 1193 1201 1206 1208 1208 1212 1215 1215 1215 1225 1251 1269 1292 1325 1346 1359 1364 1368 1372 1381 1390 1396 1401 1405 1409 1413 1419 1424 1431 1437 1442 1446 1450 1453 1458 1461 1464 1468 1472 1474 1476 1478 1480 1482 1484 1487 1488 1490 1492 1493 1495 1497 1497 1498 1500 1503 1505 1506 1509 1510 1512 1514 1516 1517 1519 1521 1523 1525 1526 1528 1530 1532 1534 1535 1537 1538 1540 1543 1544 1546 1547 1548 1549 1549 1550 1551 1552 1553 1554 1556 1557 1557 1558 1559 1560 1561 1562 1563 1564 1565 1566 1566 1567 1568 1569 1570 1571 1572 1573 1574 1575 1577 1579 1582 1584 1585 1588 1588 1590 1590 1591 1591 1591 1592 1593 1593 1593 1593 1592 1592 1591 1590 1588 1587 1587 1587 1587 1587 1587 1587 1588 1591 1595 1596 1597 1598 1599 1600 1602 1603 1603 1605 1606 1607 1609 1611 1615 1617 1619 1619 1619 1611 1587 1575 0 0 0 0 1231 1223 1222 1210 1205 1204 1203 1199 1198 1198 1198 1198 1198 1196 1196 1196 1196 1195 1196 1196 1196 1196 1196 1196 1195 1194 1193 1190 1188 1187 1184 1177 1169 1138 1118 1099 1083 1076 1067 1066 1066 1066 1066 1065 1065 1060 1060 1059 1059 1060 1060 1066 1070 1075 1080 1084 1089 1093 1099 1106 1122 1146 1157 1168 1180 1188 1196 1201 1203 1207 1208 1210 1212 1213 1214 1215 1215 1216 1216 1216 1216 1216 1216 1216 1216 1216 1216 1215 1215 1214 1214 1213 1211 1204 1194 1179 1174 1173 1164 1145 1143 1141 1134 1122 1117 1115 1114 1115 1116 1116 1119 1119 1119 1116 1116 1116 1116 1121 1134 1138 1138 1141 1141 1145 1166 1188 1200 1202 1205 1210 1215 1217 1217 1219 1220 1220 1221 1222 1223 1223 1224 1224 1224 1225 1225 1225 1226 1226 1226 1226 1225 1225 1225 1225 1225 1225 1224 1224 1223 1222 1223 1222 1222 1221 1219 1218 1218 1218 1218 1219 1221 1224 1224 1224 1224 1222 1222 1222 1222 1222 1222 1221 1221 1221 1223 1224 1224 1224 1225 1225 1226 1227 1227 1228 1228 1229 1229 1229 1230 1230 1230 1230 1229 1229 1229 1229 1229 1229 1229 1228 1228 1229 1229 1229 1229 1230 1230 1230 1230 1230 1230 1230 1230 1231 1231 1231 1231 1231 1230 1230 1230 1229 1228 1228 1228 1228 1229 1230 1231 1231 1231 1231 1230 1230 1230 1229 1229 1229 1229 1229 1231 1231 1232 1233 1233 1233 1233 1235 1236 1237 1238 1238 1238 1238 1238 1235 1235 1235 1239 1239 1239 1240 1241 1241 1244 1246 1247 1249 1250 1256 1259 1261 1263 1271 1279 1285 1285 1285 1287 1284 1282 1282 1287 1287 1290 1290 1291 1291 1293 1295 1295 1295 1295 1295 1295 1292 1285 1270 0 0 0 0 0 0 0 0 831 843 866 866 866 865 830 830 830 834 834 835 836 838 872 872 872 870 857 0 0 0 0 0 0 0 0 0 0 0 0 0 0 0 0 0 628 628 621 621 594 594 0 0 0 0 0 0 0 0 0 0 0 0 0 0 0 0 0 0 0 0 0 0 0 0 0 0 0 0 0 0 0 0 0 0 0 0 0 0 0 0 0 0 0 0 0 0 0 0 0 0 0 0 0 0 0 0 0 0 0 0 0 0 0 0 0 0 0 0 0 0 0 0 0 0 0 0 0 0 0 0 0 0 0 0 0 0 0 0 669 0
783 783 800 821 853 855 866 868 872 879 895 914 939 963 984 1006 1035 1083 1089 1148 1172 1180 1181 1184 1194 1203 1207 1209 1210 1217 1220 1225 1228 1237 1251 1268 1292 1325 1346 1359 1364 1367 1371 1379 1389 1396 1401 1405 1410 1414 1419 1426 1432 1437 1442 1446 1450 1453 1458 1461 1464 1468 1472 1474 1476 1478 1481 1483 1485 1487 1488 1490 1492 1494 1495 1497 1498 1499 1501 1503 1505 1507 1509 1511 1512 1514 1516 1517 1520 1521 1524 1525 1527 1528 1530 1532 1534 1536 1537 1539 1540 1543 1545 1546 1547 1548 1549 1549 1550 1551 1552 1553 1554 1556 1557 1557 1558 1559 1560 1561 1562 1563 1564 1564 1565 1566 1567 1568 1569 1570 1570 1572 1573 1574 1575 1577 1578 1581 1582 1584 1586 1587 1588 1589 1590 1590 1591 1592 1593 1593 1593 1593 1592 1592 1591 1590 1590 1589 1588 1588 1588 1588 1588 1588 1588 1591 1595 1596 1598 1598 1599 1601 1602 1603 1604 1606 1606 1608 1609 1610 1613 1617 1618 1618 1618 1618 1609 1592 0 0 0 0 1254 1226 1223 1220 1209 1207 1205 1203 1201 1201 1200 1200 1200 1199 1198 1198 1198 1198 1198 1198 1198 1198 1198 1198 1198 1197 1196 1194 1193 1193 1192 1185 1169 1138 1118 1099 1083 1076 1075 1071 1068 1067 1065 1062 1061 1061 1059 1058 1058 1058 1060 1065 1071 1076 1080 1084 1092 1096 1098 1105 1120 1141 1153 1161 1176 1188 1196 1201 1205 1207 1209 1210 1213 1215 1216 1217 1218 1218 1218 1219 1219 1219 1219 1219 1218 1218 1218 1218 1217 1217 1216 1216 1213 1207 1203 1195 1189 1188 1174 1156 1154 1152 1149 1139 1127 1119 1117 1116 1116 1116 1119 1119 1119 1116 1116 1116 1116 1123 1134 1141 1141 1146 1149 1149 1166 1188 1200 1202 1206 1212 1218 1220 1221 1222 1223 1223 1224 1224 1226 1226 1226 1226 1227 1227 1227 1227 1228 1228 1228 1228 1228 1228 1228 1228 1228 1228 1228 1228 1228 1228 1228 1226 1224 1223 1223 1223 1222 1223 1223 1224 1225 1225 1225 1226 1226 1226 1228 1229 1229 1229 1228 1226 1226 1226 1226 1227 1227 1227 1227 1227 1228 1228 1229 1229 1230 1230 1230 1230 1231 1231 1231 1231 1231 1230 1230 1229 1229 1229 1229 1229 1229 1229 1229 1230 1230 1231 1231 1231 1231 1232 1232 1232 1233 1233 1233 1233 1232 1232 1232 1231 1230 1230 1230 1230 1231 1232 1232 1233 1233 1232 1232 1232 1232 1232 1232 1229 1229 1229 1232 1235 1235 1235 1235 1234 1234 1234 1234 1235 1236 1238 1239 1240 1240 1240 1240 1237 1237 1237 1244 1244 1244 1250 1250 1250 1262 1269 1272 1279 1291 1291 1293 1294 1294 1293 1293 1293 1290 1290 1287 1287 1287 1289 1291 1293 1293 1295 1293 1295 1295 1297 1297 1299 1299 1299 1288 1260 1240 0 0 0 0 0 0 0 0 858 858 862 866 866 866 865 830 830 830 834 834 834 835 838 850 850 858 872 0 0 0 0 0 0 0 0 0 0 0 0 0 0 0 0 0 621 628 623 621 621 594 0 0 0 0 0 0 0 0 0 0 0 0 0 0 0 0 0 0 0 0 0 0 0 0 0 0 0 0 0 0 0 0 0 0 0 0 0 0 0 0 0 0 0 0 0 0 0 0 0 0 0 0 0 0 0 0 0 0 0 0 0 0 0 0 0 0 0 0 0 0 0 0 0 0 0 0 0 0 0 0 0 0 0 0 0 0 0 0 0 0 0
789 789 803 838 860 862 867 869 872 879 895 914 937 963 988 1014 1046 1083 1090 1148 1172 1185 1189 1193 1205 1208 1209 1210 1211 1217 1221 1229 1237 1242 1254 1269 1292 1325 1346 1358 1364 1367 1370 1378 1388 1395 1401 1405 1410 1414 1421 1427 1433 1438 1442 1446 1450 1454 1458 1460 1464 1468 1471 1474 1476 1478 1481 1484 1486 1487 1489 1491 1492 1494 1496 1497 1498 1500 1501 1503 1506 1507 1509 1511 1513 1515 1516 1518 1520 1522 1524 1525 1527 1528 1530 1532 1534 1536 1538 1540 1542 1543 1545 1546 1547 1548 1549 1549 1550 1551 1552 1553 1555 1556 1557 1557 1558 1559 1560 1561 1562 1563 1564 1564 1565 1566 1567 1568 1568 1569 1570 1571 1573 1574 1575 1577 1578 1579 1581 1583 1584 1586 1587 1589 1589 1590 1590 1592 1592 1593 1593 1593 1592 1592 1592 1591 1590 1590 1590 1589 1589 1588 1588 1588 1589 1591 1595 1596 1598 1599 1600 1602 1603 1603 1604 1606 1608 1609 1609 1610 1612 1615 1618 1618 1618 1618 1613 1603 0 0 0 0 0 1234 1230 1227 1213 1210 1208 1205 1203 1203 1203 1203 1202 1201 1201 1201 1201 1200 1200 1201 1200 1200 1200 1200 1200 1200 1198 1197 1195 1194 1192 1185 1170 1148 1125 1099 1083 1076 1075 1071 1068 1062 1062 1062 1061 1061 1059 1057 1057 1057 1060 1065 1071 1076 1081 1088 1094 1096 1098 1104 1119 1136 1152 1161 1174 1188 1196 1201 1205 1207 1211 1213 1215 1217 1219 1221 1221 1221 1221 1221 1221 1221 1221 1221 1220 1220 1220 1220 1220 1220 1220 1219 1219 1216 1214 1206 1192 1189 1181 1165 1160 1156 1152 1139 1127 1119 1117 1116 1116 1116 1122 1122 1122 1120 1118 1118 1118 1127 1142 1150 1150 1150 1152 1157 1166 1188 1200 1206 1209 1214 1220 1224 1224 1224 1224 1225 1226 1227 1227 1227 1228 1228 1229 1229 1229 1229 1229 1230 1230 1230 1230 1230 1230 1230 1230 1230 1230 1229 1229 1229 1229 1229 1227 1226 1226 1226 1228 1228 1228 1228 1230 1230 1230 1227 1227 1227 1228 1230 1230 1230 1230 1230 1229 1229 1229 1229 1229 1229 1229 1229 1230 1231 1231 1231 1231 1232 1232 1232 1232 1232 1232 1232 1231 1230 1230 1230 1230 1230 1230 1229 1229 1229 1229 1230 1231 1231 1231 1232 1232 1233 1234 1234 1234 1234 1234 1234 1233 1232 1232 1232 1232 1232 1233 1233 1233 1233 1233 1234 1234 1234 1233 1233 1233 1233 1233 1231 1231 1231 1234 1237 1238 1238 1238 1234 1234 1234 1234 1235 1237 1238 1243 1251 1254 1254 1254 1253 1256 1256 1256 1272 1275 1281 1289 1293 1294 1295 1300 1302 1302 1302 1295 1295 1295 1294 1294 1295 1294 1293 1292 1289 1289 1289 1292 1296 1296 1296 1296 1298 1298 1300 1301 1301 1299 1299 1270 0 0 0 0 0 0 0 0 0 0 843 858 858 858 858 858 857 846 837 837 837 837 837 835 823 0 0 0 0 0 0 0 0 0 0 0 0 0 0 0 0 0 0 0 0 0 0 628 628 610 610 0 0 0 0 0 0 0 0 0 0 0 0 0 0 0 0 0 0 0 0 0 0 0 0 0 0 0 0 0 0 0 0 0 0 0 0 0 0 0 0 0 0 0 0 0 0 0 0 0 0 0 0 0 0 0 0 0 0 0 0 0 0 0 0 0 0 0 0 0 0 0 0 0 0 0 0 0 0 0 0 0 0 0 0 0 0 0 0 0 0 0 0
797 797 814 838 862 868 869 870 872 880 895 913 934 963 989 1022 1051 1083 1092 1148 1172 1185 1189 1193 1205 1208 1211 1212 1216 1216 1221 1229 1237 1242 1254 1270 1290 1321 1345 1358 1364 1367 1367 1374 1386 1393 1399 1405 1410 1414 1422 1428 1434 1438 1442 1446 1450 1454 1458 1460 1464 1468 1471 1474 1476 1478 1481 1484 1486 1488 1489 1491 1492 1494 1496 1497 1499 1500 1502 1504 1506 1507 1509 1511 1513 1515 1516 1518 1520 1522 1525 1526 1528 1529 1531 1532 1534 1536 1538 1540 1542 1543 1545 1546 1548 1548 1549 1549 1550 1551 1552 1554 1555 1556 1557 1557 1558 1559 1560 1561 1562 1563 1564 1564 1565 1566 1566 1568 1568 1569 1570 1571 1572 1574 1575 1576 1578 1579 1580 1582 1584 1584 1585 1587 1589 1589 1590 1590 1592 1592 1592 1592 1592 1592 1592 1591 1591 1591 1591 1590 1590 1589 1589 1589 1589 1591 1594 1596 1598 1600 1601 1603 1603 1605 1606 1608 1608 1609 1610 1610 1612 1615 1618 1618 1618 1618 1614 1607 1597 0 0 0 0 0 1230 1230 1221 1211 1209 1208 1207 1207 1206 1206 1205 1204 1203 1203 1202 1202 1202 1203 1203 1203 1203 1202 1201 1201 1200 1199 1196 1195 1193 1186 1173 1160 1128 1099 1083 1083 1077 1073 1068 1060 1060 1060 1058 1058 1057 1057 1057 1057 1060 1064 1071 1076 1081 1088 1094 1098 1099 1105 1111 1128 1148 1161 1171 1183 1194 1201 1208 1211 1215 1217 1218 1220 1222 1223 1224 1224 1224 1224 1224 1223 1223 1223 1223 1223 1223 1223 1223 1223 1223 1223 1219 1217 1214 1209 1206 1196 1187 1173 1163 1160 1152 1139 1127 1119 1119 1119 1124 1126 1129 1135 1135 1136 1138 1136 1138 1139 1142 1152 1155 1173 1186 1188 1193 1202 1209 1214 1215 1216 1223 1227 1227 1227 1227 1227 1228 1229 1229 1230 1230 1230 1231 1231 1231 1231 1231 1232 1232 1231 1231 1232 1232 1232 1232 1231 1231 1230 1230 1230 1230 1230 1229 1229 1229 1229 1229 1229 1230 1231 1231 1231 1231 1230 1230 1230 1231 1232 1232 1232 1232 1231 1231 1231 1231 1231 1231 1231 1231 1231 1231 1231 1232 1232 1233 1233 1233 1233 1233 1233 1232 1232 1231 1230 1230 1230 1230 1230 1230 1230 1229 1229 1230 1230 1231 1232 1232 1233 1233 1233 1234 1234 1236 1236 1236 1236 1234 1234 1234 1236 1236 1236 1236 1236 1235 1235 1235 1235 1235 1235 1234 1234 1234 1234 1234 1235 1235 1235 1237 1240 1243 1243 1243 1241 1239 1239 1239 1248 1255 1256 1260 1275 1290 1301 1306 1306 1306 1292 1292 1292 1299 1315 1323 1324 1327 1324 1324 1323 1317 1305 1304 1301 1301 1301 1301 1301 1301 1299 1292 1292 1292 1299 1299 1299 1299 1298 1297 1297 1297 1298 1302 1302 1299 1299 0 0 0 0 0 0 0 0 0 0 0 843 843 843 858 858 846 846 846 842 842 842 837 837 835 816 0 0 0 0 0 0 0 0 0 0 0 0 0 0 0 0 0 0 0 0 0 0 0 0 0 0 0 0 0 0 0 0 0 0 0 0 0 0 0 0 0 0 0 0 0 0 0 0 0 0 0 0 0 0 0 0 0 0 0 0 0 0 0 0 0 0 0 0 0 0 0 0 0 0 0 0 0 0 0 0 0 0 0 0 0 0 0 0 0 0 0 0 0 0 0 0 0 0 0 0 0 0 0 0 0 0 0 0 0 0 0 0 0 0 0 0 0 0
804 804 827 851 862 868 871 873 875 882 895 913 934 962 993 1026 1051 1083 1095 1125 1172 1185 1189 1193 1205 1212 1212 1212 1215 1215 1220 1229 1237 1242 1254 1270 1290 1320 1341 1348 1356 1358 1363 1373 1383 1393 1399 1405 1410 1415 1423 1429 1434 1438 1442 1446 1450 1454 1458 1460 1464 1467 1471 1474 1476 1478 1481 1484 1486 1488 1490 1492 1493 1496 1497 1497 1499 1501 1503 1504 1506 1508 1510 1511 1513 1515 1517 1518 1520 1523 1525 1526 1528 1530 1531 1533 1534 1536 1538 1540 1542 1543 1545 1546 1548 1548 1549 1549 1550 1551 1552 1554 1555 1556 1557 1557 1558 1559 1560 1561 1563 1563 1564 1564 1565 1565 1566 1567 1568 1569 1570 1571 1572 1574 1575 1576 1578 1579 1580 1581 1582 1583 1585 1586 1587 1589 1590 1590 1591 1592 1592 1592 1592 1592 1592 1592 1592 1592 1591 1591 1590 1590 1590 1590 1590 1592 1594 1596 1598 1600 1602 1603 1605 1607 1607 1608 1609 1610 1611 1611 1612 1615 1617 1618 1618 1618 1614 1611 1606 0 0 0 0 0 0 1230 1225 1211 1211 1209 1210 1209 1209 1209 1207 1206 1206 1206 1205 1205 1205 1205 1205 1205 1204 1204 1204 1203 1202 1200 1198 1195 1193 1186 1176 1160 1135 1099 1083 1083 1083 1080 1069 1060 1053 1053 1053 1054 1054 1056 1056 1057 1060 1064 1071 1076 1081 1088 1094 1099 1099 1106 1111 1120 1142 1157 1171 1183 1194 1203 1211 1215 1219 1220 1221 1223 1224 1226 1226 1226 1226 1226 1226 1226 1226 1226 1226 1226 1226 1226 1226 1226 1226 1225 1221 1218 1216 1214 1209 1199 1193 1181 1171 1165 1152 1140 1127 1127 1127 1129 1133 1137 1137 1162 1165 1165 1172 1172 1182 1182 1182 1182 1182 1187 1206 1206 1208 1214 1214 1217 1223 1225 1227 1228 1228 1229 1229 1230 1230 1231 1232 1232 1232 1233 1233 1233 1233 1233 1233 1233 1233 1233 1233 1233 1233 1233 1232 1232 1231 1231 1231 1230 1230 1230 1230 1230 1230 1231 1230 1230 1231 1232 1233 1233 1233 1232 1232 1232 1232 1233 1233 1233 1233 1232 1232 1232 1232 1232 1231 1231 1231 1231 1231 1232 1232 1233 1233 1233 1234 1234 1234 1233 1233 1232 1231 1230 1230 1230 1230 1230 1230 1230 1230 1230 1230 1230 1231 1232 1233 1233 1233 1234 1235 1238 1238 1238 1238 1237 1235 1235 1235 1237 1240 1240 1240 1239 1239 1239 1239 1239 1240 1240 1240 1240 1240 1239 1239 1239 1240 1243 1246 1249 1249 1249 1249 1251 1251 1251 1280 1294 1297 1299 1305 1313 1314 1314 1317 1326 1329 1334 1334 1334 1332 1330 1330 1332 1334 1334 1334 1334 1324 1311 1304 1302 1301 1301 1301 1301 1301 1299 1292 1292 1292 1299 1302 1305 1305 1305 1297 1297 1297 1297 1295 1286 1281 0 0 0 0 0 0 0 0 0 0 0 0 0 833 833 839 839 857 857 857 842 842 842 844 844 844 811 0 0 0 0 0 0 0 0 0 0 0 0 0 0 0 0 0 0 0 0 0 0 0 0 0 0 0 0 0 0 0 0 0 0 0 0 0 0 0 0 0 0 0 0 0 0 0 0 0 0 0 0 0 0 0 0 0 0 0 0 0 0 0 0 0 0 0 0 0 0 0 0 0 0 0 0 0 0 0 0 0 0 0 0 0 0 0 0 0 0 0 0 0 0 0 0 0 0 0 0 0 0 0 0 0 0 0 0 0 0 0 0 0 0 0 0 0 0
810 810 835 854 862 869 871 878 882 882 895 913 934 962 995 1026 1051 1074 1095 1109 1145 1178 1188 1193 1201 1212 1212 1212 1212 1212 1216 1226 1237 1242 1252 1270 1287 1317 1331 1341 1344 1350 1360 1371 1383 1393 1399 1405 1411 1415 1423 1429 1434 1439 1442 1446 1450 1454 1458 1461 1464 1467 1471 1473 1476 1479 1481 1484 1486 1489 1491 1493 1494 1496 1497 1499 1500 1501 1503 1505 1507 1509 1510 1512 1513 1516 1517 1518 1521 1523 1525 1526 1528 1530 1531 1533 1534 1536 1538 1540 1542 1543 1545 1546 1547 1548 1549 1549 1550 1551 1552 1554 1555 1556 1557 1557 1558 1559 1560 1561 1563 1563 1564 1564 1565 1565 1566 1567 1568 1569 1570 1571 1572 1573 1575 1575 1577 1579 1579 1580 1582 1583 1584 1585 1586 1588 1589 1590 1591 1591 1592 1592 1592 1593 1593 1593 1593 1593 1592 1591 1591 1591 1591 1591 1591 1592 1594 1596 1598 1601 1602 1604 1606 1607 1609 1610 1611 1611 1611 1613 1613 1615 1618 1618 1618 1618 1614 1613 1613 1602 1569 1534 0 0 0 1229 1225 1216 1215 1214 1213 1213 1213 1211 1210 1208 1208 1208 1207 1207 1207 1207 1207 1206 1206 1206 1206 1205 1204 1203 1201 1199 1197 1194 1190 1179 1149 1119 1103 1094 1083 1080 1069 1060 1053 1053 1053 1053 1053 1053 1055 1059 1062 1064 1071 1072 1078 1086 1094 1102 1109 1109 1111 1120 1135 1154 1174 1182 1193 1203 1211 1216 1220 1223 1225 1225 1226 1227 1228 1228 1228 1228 1229 1229 1228 1229 1229 1228 1228 1229 1228 1228 1228 1227 1225 1220 1217 1217 1211 1199 1194 1189 1179 1165 1152 1140 1140 1140 1146 1171 1172 1175 1175 1175 1179 1196 1197 1209 1209 1209 1198 1198 1198 1208 1219 1221 1222 1224 1226 1226 1228 1230 1230 1231 1231 1231 1232 1232 1233 1233 1234 1234 1234 1234 1234 1234 1234 1234 1234 1235 1234 1234 1234 1234 1234 1233 1233 1232 1232 1232 1232 1232 1232 1232 1232 1232 1232 1232 1232 1232 1232 1234 1234 1234 1234 1234 1234 1234 1234 1234 1234 1234 1233 1233 1233 1233 1233 1233 1232 1232 1232 1232 1232 1232 1232 1233 1235 1235 1235 1235 1234 1234 1233 1232 1231 1230 1230 1230 1230 1230 1230 1230 1230 1230 1230 1230 1231 1233 1233 1233 1233 1235 1237 1238 1238 1239 1239 1238 1238 1238 1238 1239 1242 1242 1242 1244 1244 1246 1247 1250 1250 1250 1248 1250 1250 1250 1253 1257 1263 1264 1265 1267 1268 1278 1278 1279 1289 1291 1313 1320 1320 1320 1320 1319 1319 1319 1323 1337 1345 1345 1345 1335 1333 1333 1333 1337 1339 1339 1339 1334 1326 1320 1315 1311 1311 1311 1313 1313 1313 1310 1303 1299 1299 1299 1307 1312 1312 1312 1302 1302 1300 1298 1295 1277 0 0 0 0 0 0 0 0 0 0 0 0 0 0 0 0 815 828 857 857 857 842 842 842 844 844 844 811 0 0 0 0 0 0 0 0 738 734 733 0 0 0 0 0 0 0 0 0 0 0 0 0 0 0 0 546 540 546 546 0 0 0 0 0 0 0 0 0 0 0 0 0 0 0 0 0 0 0 0 0 0 0 0 0 0 0 0 0 0 0 0 0 0 0 0 0 0 0 0 0 0 0 0 0 0 0 0 0 0 0 0 0 0 0 0 0 0 0 0 0 0 0 0 0 0 0 0 0 0 0 0 0 0 0 0 0 0 0 0 0 0 0 0 0 0 0
819 819 838 854 862 869 871 882 890 890 902 913 934 962 997 1026 1051 1073 1095 1100 1127 1168 1185 1193 1200 1207 1207 1207 1210 1210 1210 1217 1230 1235 1252 1270 1287 1305 1322 1330 1336 1343 1355 1371 1382 1393 1400 1407 1414 1418 1424 1429 1434 1439 1442 1447 1451 1454 1458 1461 1464 1467 1470 1473 1476 1478 1481 1484 1486 1489 1491 1493 1495 1497 1499 1499 1501 1502 1504 1506 1507 1509 1510 1512 1514 1516 1517 1519 1521 1523 1525 1527 1528 1530 1531 1533 1534 1536 1538 1540 1542 1543 1544 1546 1547 1548 1549 1549 1550 1551 1552 1554 1555 1556 1557 1558 1558 1559 1560 1561 1563 1563 1564 1564 1564 1565 1566 1567 1568 1569 1570 1570 1571 1573 1574 1575 1577 1578 1579 1580 1582 1582 1583 1584 1585 1586 1588 1589 1590 1591 1592 1592 1592 1593 1593 1594 1594 1594 1594 1592 1592 1592 1591 1591 1591 1594 1595 1598 1600 1601 1603 1604 1606 1607 1609 1610 1611 1612 1612 1614 1615 1616 1617 1618 1618 1619 1618 1618 1616 1611 1592 1556 0 0 0 1229 1228 1226 1220 1218 1217 1217 1215 1215 1213 1211 1210 1210 1210 1210 1210 1209 1209 1209 1209 1208 1208 1208 1207 1207 1205 1202 1202 1201 1200 1197 1170 1126 1110 1105 1094 1082 1074 1064 1053 1053 1053 1053 1053 1053 1055 1060 1069 1071 1073 1073 1074 1084 1094 1102 1112 1113 1114 1120 1135 1152 1165 1177 1192 1203 1211 1216 1220 1224 1226 1228 1229 1229 1230 1230 1231 1231 1231 1231 1231 1231 1231 1231 1231 1231 1231 1231 1230 1230 1228 1226 1223 1220 1212 1203 1196 1195 1189 1172 1166 1166 1166 1192 1199 1202 1202 1202 1201 1201 1201 1205 1208 1217 1217 1217 1219 1219 1219 1222 1223 1226 1226 1226 1230 1231 1233 1233 1234 1234 1234 1234 1234 1234 1235 1235 1235 1236 1236 1236 1236 1236 1236 1236 1236 1235 1235 1235 1235 1235 1235 1235 1235 1234 1234 1234 1234 1233 1233 1233 1233 1233 1233 1233 1233 1233 1233 1235 1235 1235 1234 1234 1234 1235 1235 1235 1235 1234 1234 1234 1234 1234 1233 1233 1232 1232 1232 1233 1233 1233 1233 1234 1235 1235 1235 1235 1234 1234 1233 1231 1231 1231 1230 1230 1230 1230 1230 1231 1232 1232 1232 1233 1233 1233 1233 1233 1233 1235 1238 1239 1239 1240 1240 1240 1240 1240 1240 1240 1244 1248 1248 1249 1255 1258 1270 1271 1273 1285 1287 1289 1290 0 0 0 0 0 0 0 0 1326 1330 1330 1330 1330 1330 1333 1331 1331 1331 1326 1326 1326 1339 1344 1345 1345 1345 1335 1333 1333 1333 1337 1339 1339 1339 1335 1327 1324 1323 1322 1322 1322 1321 1321 1315 1312 1310 1310 1308 1308 1312 1315 1315 1315 1315 1305 1300 1295 1294 1258 0 0 0 0 0 0 0 0 0 0 0 0 0 0 0 0 0 0 857 857 857 834 834 834 844 844 844 803 0 0 0 0 762 762 743 731 731 720 720 719 0 0 0 0 0 0 0 0 636 644 659 0 0 0 549 549 546 546 535 517 517 0 0 0 0 0 0 0 0 0 0 0 0 0 0 0 0 0 0 0 0 0 0 0 0 0 0 0 0 0 0 0 0 0 0 0 0 0 0 0 0 0 0 0 0 0 0 0 0 0 0 0 0 0 0 0 0 0 0 0 0 0 0 0 0 0 0 0 0 0 0 0 0 0 0 0 0 0 0 0 0 0 0 0 0 0
819 819 838 856 862 872 874 890 895 898 911 928 949 975 1000 1026 1049 1072 1089 1095 1115 1150 1172 1189 1196 1202 1206 1206 1207 1208 1209 1210 1219 1234 1246 1270 1286 1304 1306 1318 1326 1341 1353 1366 1382 1394 1402 1411 1416 1422 1427 1430 1434 1440 1445 1448 1452 1455 1458 1461 1464 1467 1469 1472 1475 1478 1482 1484 1487 1489 1491 1494 1496 1498 1499 1500 1502 1503 1505 1506 1508 1509 1511 1512 1514 1516 1517 1519 1520 1523 1525 1527 1528 1530 1531 1533 1535 1536 1538 1539 1541 1543 1544 1546 1547 1548 1549 1549 1550 1551 1552 1554 1555 1556 1557 1558 1559 1559 1561 1562 1562 1563 1564 1564 1564 1565 1566 1567 1568 1569 1570 1570 1571 1573 1574 1575 1577 1578 1579 1580 1581 1582 1583 1584 1584 1586 1587 1588 1589 1590 1591 1592 1592 1593 1593 1594 1594 1594 1594 1594 1593 1592 1592 1592 1593 1594 1597 1599 1600 1602 1604 1605 1606 1608 1609 1610 1612 1613 1613 1615 1616 1617 1617 1619 1619 1619 1619 1619 1616 1612 1600 1569 0 0 0 1234 1233 1229 1223 1221 1220 1219 1219 1217 1216 1214 1214 1213 1212 1212 1212 1212 1211 1211 1211 1211 1210 1210 1210 1209 1209 1205 1204 1204 1203 1199 1173 1134 1121 1112 1097 1089 1083 1074 1072 1056 1055 1053 1053 1053 1055 1061 1071 1071 1074 1075 1075 1084 1094 1102 1112 1117 1120 1121 1135 1152 1164 1174 1187 1201 1212 1216 1221 1225 1228 1230 1231 1232 1232 1233 1233 1234 1234 1234 1234 1234 1234 1234 1234 1233 1233 1233 1233 1233 1232 1231 1228 1228 1221 1213 1207 1205 1204 1198 1197 1197 1197 1211 1214 1216 1220 1220 1220 1221 1221 1221 1221 1222 1222 1223 1225 1225 1228 1230 1230 1230 1230 1230 1231 1232 1235 1235 1235 1235 1236 1236 1236 1236 1236 1237 1237 1237 1237 1238 1238 1237 1237 1237 1237 1237 1237 1236 1236 1236 1236 1236 1235 1235 1235 1235 1235 1234 1234 1234 1234 1234 1234 1234 1234 1234 1235 1235 1235 1235 1235 1235 1235 1235 1236 1236 1236 1235 1235 1234 1234 1234 1234 1233 1233 1233 1233 1233 1233 1234 1234 1234 1235 1235 1235 1235 1234 1234 1233 1231 1231 1231 1230 1230 1230 1230 1230 1231 1232 1232 1232 1233 1234 1234 1237 1237 1238 1239 1239 1239 1239 1240 1240 1240 1240 1241 1245 1248 1257 1263 1267 1274 1281 1290 1292 1302 1318 1333 1336 1338 1343 0 0 0 0 0 0 0 1359 1353 1348 1343 1339 1334 1334 1334 1338 1338 1338 1337 1337 1337 1345 1346 1346 1346 1345 1334 1332 1332 1332 1337 1339 1339 1339 1335 1328 1328 1328 1331 1331 1331 1329 1322 1315 1315 1315 1314 1313 1315 1315 1315 1323 1323 1323 1295 1292 1289 1258 1208 0 0 0 0 0 0 0 0 0 0 0 0 0 0 0 0 0 0 735 802 802 802 802 802 815 815 815 807 0 0 0 807 790 762 743 731 731 720 720 719 0 0 0 0 0 0 0 644 0 657 659 659 0 0 559 559 549 549 535 504 504 504 0 0 0 0 0 0 0 0 0 0 0 0 0 0 0 0 0 0 0 0 0 0 0 0 0 0 0 0 0 0 0 0 0 0 0 0 0 0 0 0 0 0 0 0 0 0 0 0 0 0 0 0 0 0 0 0 0 0 0 0 0 0 0 0 0 0 0 0 0 0 0 0 0 0 0 0 0 0 0 0 0 0 0 0
819 819 838 858 866 880 883 895 901 902 919 935 955 979 1004 1026 1049 1072 1089 1094 1112 1137 1165 1183 1192 1199 1204 1206 1207 1207 1208 1210 1219 1234 1238 1266 1284 1296 1306 1313 1325 1341 1353 1366 1381 1394 1404 1411 1416 1422 1427 1430 1434 1440 1445 1449 1452 1455 1458 1461 1464 1467 1469 1472 1475 1479 1482 1484 1487 1489 1492 1495 1496 1498 1499 1500 1502 1503 1505 1506 1508 1509 1511 1513 1514 1516 1517 1519 1520 1523 1525 1527 1528 1530 1531 1533 1535 1536 1538 1539 1541 1542 1543 1545 1546 1547 1548 1549 1550 1551 1552 1554 1555 1556 1557 1558 1559 1560 1561 1562 1562 1563 1564 1564 1564 1565 1566 1567 1568 1569 1570 1570 1572 1573 1574 1575 1577 1578 1579 1580 1581 1582 1583 1583 1584 1586 1587 1588 1589 1590 1591 1592 1592 1592 1593 1594 1595 1595 1595 1595 1594 1594 1594 1595 1595 1597 1598 1600 1602 1603 1605 1606 1607 1608 1610 1611 1612 1613 1614 1615 1616 1618 1618 1620 1620 1620 1620 1619 1618 1613 1604 1574 0 0 0 0 1240 1237 1229 1222 1222 1221 1220 1219 1218 1217 1216 1216 1215 1215 1215 1214 1214 1213 1213 1212 1212 1212 1212 1212 1212 1211 1210 1208 1205 1200 1187 1168 1136 1116 1103 1089 1086 1080 1074 1064 1064 1062 1060 1062 1063 1063 1076 1076 1076 1080 1080 1084 1094 1101 1112 1117 1122 1132 1137 1152 1165 1171 1183 1201 1213 1217 1221 1226 1231 1232 1234 1234 1235 1235 1235 1236 1236 1236 1236 1236 1236 1236 1236 1236 1236 1236 1236 1235 1235 1235 1234 1233 1230 1224 1222 1222 1218 1214 1214 1214 1214 1220 1225 1229 1229 1231 1231 1231 1229 1229 1229 1230 1230 1230 1230 1230 1230 1234 1235 1235 1235 1235 1235 1235 1236 1237 1237 1237 1237 1237 1237 1237 1237 1238 1238 1238 1238 1238 1238 1238 1238 1238 1238 1238 1238 1238 1238 1237 1237 1237 1237 1236 1236 1236 1236 1235 1235 1235 1234 1234 1234 1234 1234 1235 1235 1235 1235 1235 1235 1235 1235 1235 1236 1236 1236 1235 1235 1234 1234 1234 1234 1234 1234 1234 1234 1235 1235 1235 1235 1235 1235 1235 1235 1234 1234 1233 1233 1231 1231 1231 1231 1230 1230 1230 1230 1231 1232 1232 1232 1233 1236 1239 1240 1240 1242 1242 1242 0 0 0 0 0 0 0 0 0 0 0 0 0 1328 1337 1338 1340 1351 1359 1366 1373 1382 1382 1382 1375 1374 1372 1369 1365 1359 1353 1348 1346 1343 1335 1335 1335 1338 1338 1338 1340 1340 1340 1346 1347 1347 1346 1343 1325 1325 1325 1332 1338 1339 1339 1339 1335 1331 1331 1331 1333 1333 1333 1329 1322 1320 1315 1315 1314 1314 1313 1313 1313 1323 1323 0 0 0 0 0 0 0 0 0 0 0 0 682 668 653 653 653 0 0 722 722 714 714 714 0 0 0 0 0 0 0 0 0 0 0 807 807 807 790 762 743 731 731 731 731 731 0 0 0 0 0 0 0 0 0 0 0 0 0 0 0 0 0 0 0 0 0 0 0 0 0 0 648 611 581 0 0 0 0 0 0 0 0 0 0 0 382 419 0 0 0 0 0 0 0 0 0 0 0 0 0 0 0 0 0 0 0 0 0 0 0 0 0 0 0 0 0 0 0 0 0 0 0 0 0 0 0 0 0 0 0 0 0 0 0 0 0 0 0 0 0 0 0 0 0 0 0 0 0 0 0 0
810 810 838 858 875 888 890 905 913 915 925 937 961 984 1007 1029 1049 1072 1089 1094 1112 1133 1156 1177 1189 1198 1203 1206 1207 1207 1208 1210 1219 1234 1238 1265 1282 1296 1306 1313 1325 1341 1353 1366 1381 1394 1404 1411 1416 1422 1427 1430 1434 1440 1445 1449 1452 1455 1458 1461 1464 1467 1469 1471 1475 1479 1482 1485 1487 1490 1492 1495 1496 1498 1499 1501 1502 1503 1505 1506 1508 1509 1511 1513 1514 1516 1518 1519 1520 1523 1525 1527 1529 1530 1532 1533 1535 1536 1537 1538 1540 1541 1542 1544 1546 1547 1548 1549 1550 1551 1553 1554 1555 1557 1558 1558 1559 1560 1561 1562 1562 1564 1564 1564 1565 1565 1566 1567 1568 1569 1570 1570 1572 1573 1574 1575 1576 1577 1579 1580 1581 1581 1583 1583 1584 1586 1587 1588 1589 1590 1590 1592 1592 1592 1593 1594 1595 1595 1596 1596 1596 1596 1596 1597 1597 1598 1599 1601 1603 1604 1605 1606 1607 1609 1610 1611 1613 1614 1615 1616 1617 1618 1618 1620 1620 1620 1620 1620 1619 1618 1613 1587 0 0 0 0 1244 1240 1234 1224 1224 1223 1222 1220 1220 1218 1217 1217 1217 1216 1216 1216 1216 1215 1215 1215 1215 1214 1214 1214 1214 1214 1213 1209 1206 1205 1204 1191 1140 1122 1113 1092 1090 1086 1085 1076 1076 1076 1076 1076 1078 1078 1087 1087 1089 1096 1096 1100 1101 1101 1112 1119 1124 1132 1140 1154 1165 1171 1183 1201 1213 1220 1224 1229 1232 1234 1236 1236 1236 1236 1237 1238 1238 1238 1238 1238 1238 1238 1238 1238 1238 1238 1238 1238 1238 1238 1238 1237 1234 1233 1233 1232 1231 1231 1229 1225 1225 1225 1225 1234 1236 1236 1236 1235 1235 1235 1235 1235 1235 1235 1235 1235 1235 1237 1237 1237 1237 1237 1237 1237 1238 1238 1238 1239 1239 1239 1239 1239 1239 1239 1239 1239 1239 1239 1239 1238 1238 1238 1238 1238 1239 1239 1238 1238 1238 1238 1238 1237 1237 1237 1237 1237 1237 1236 1235 1235 1234 1234 1234 1235 1235 1235 1235 1235 1235 1235 1235 1235 1235 1235 1235 1235 1235 1235 1235 1235 1235 1234 1234 1234 1234 1235 1236 1236 1236 1236 1235 1235 1234 1233 1233 1233 1232 1231 1231 1231 1231 1228 1228 1228 1229 1230 1232 1232 1232 1233 1236 1242 1242 1243 1254 1261 0 0 0 0 0 0 0 0 0 0 0 0 0 1391 1391 1391 1381 1378 1375 1374 1374 1374 1382 1382 1382 1375 1374 1372 1369 1365 1359 1353 1350 1348 1347 1336 1336 1336 1340 1340 1340 1342 1342 1345 1345 1345 1345 1338 1333 1325 1325 1325 1332 1338 1339 1339 1339 1335 1331 1331 1331 1333 1333 1333 1329 1327 1320 1317 1316 1314 1314 1310 1310 1310 1322 0 0 0 0 0 0 0 0 0 0 0 0 0 0 668 653 653 0 0 0 0 732 714 714 714 0 0 0 0 0 0 0 0 0 0 0 0 807 807 787 762 743 743 743 746 746 0 0 0 0 0 0 0 0 0 0 0 0 0 0 0 0 0 0 0 0 0 0 0 0 0 0 0 0 611 0 0 0 0 0 0 0 0 0 0 0 0 0 408 0 0 0 0 0 0 0 0 0 0 0 0 0 0 0 0 0 0 0 0 0 0 0 0 0 0 0 0 0 0 0 0 0 0 0 0 0 0 0 0 0 0 0 0 0 0 0 0 0 0 0 0 0 0 0 0 0 0 0 0 0 0 0 0
808 808 835 858 882 900 902 917 925 930 932 939 962 989 1009 1032 1055 1073 1089 1094 1112 1131 1147 1165 1183 1195 1202 1205 1206 1206 1208 1209 1221 1234 1238 1263 1282 1295 1306 1313 1325 1341 1353 1368 1381 1392 1405 1411 1414 1420 1423 1428 1433 1438 1444 1449 1452 1454 1457 1460 1463 1466 1469 1471 1475 1479 1482 1485 1488 1490 1492 1495 1496 1498 1499 1501 1502 1504 1505 1506 1508 1509 1511 1513 1514 1516 1518 1519 1520 1523 1525 1527 1529 1530 1532 1533 1535 1536 1537 1538 1540 1541 1542 1544 1545 1547 1548 1549 1550 1552 1553 1554 1555 1557 1558 1559 1559 1560 1561 1562 1562 1564 1565 1565 1565 1566 1566 1567 1568 1569 1570 1571 1572 1573 1574 1576 1576 1577 1579 1579 1580 1581 1582 1583 1584 1586 1587 1588 1589 1589 1590 1591 1592 1592 1594 1594 1595 1597 1597 1597 1597 1598 1599 1600 1600 1600 1601 1603 1605 1606 1607 1608 1608 1609 1611 1612 1613 1614 1615 1616 1617 1619 1619 1620 1620 1621 1622 1623 1624 1624 1624 1614 0 0 0 0 0 1242 1240 1229 1228 1226 1225 1222 1220 1220 1220 1219 1219 1219 1219 1218 1218 1218 1218 1217 1217 1217 1217 1217 1217 1215 1215 1213 1210 1209 1208 1191 1162 1142 1122 1096 1092 1091 1091 1091 1091 1091 1091 1091 1091 1091 1096 1096 1098 1103 1103 1103 1104 1104 1112 1121 1126 1132 1142 1156 1165 1171 1187 1202 1218 1224 1227 1232 1234 1236 1236 1238 1239 1239 1239 1240 1240 1240 1240 1240 1240 1240 1240 1240 1240 1240 1240 1240 1240 1240 1240 1239 1237 1237 1237 1238 1238 1238 1238 1238 1236 1236 1236 1236 1238 1238 1238 1238 1237 1237 1237 1237 1238 1238 1238 1238 1238 1239 1240 1240 1240 1239 1239 1239 1239 1240 1240 1240 1240 1240 1239 1239 1239 1239 1239 1239 1239 1239 1239 1239 1239 1239 1238 1238 1239 1239 1239 1239 1239 1238 1238 1238 1238 1238 1238 1238 1237 1237 1235 1235 1235 1235 1235 1235 1235 1235 1235 1235 1235 1234 1234 1234 1234 1234 1234 1234 1234 1234 1234 1234 1234 1234 1234 1234 1234 1235 1236 1236 1236 1236 1234 1231 1231 1231 1230 1230 1230 1230 1230 1230 1230 1225 1225 1225 1228 1228 1228 1225 1225 1225 1236 1259 0 0 0 0 0 0 0 0 0 0 0 1342 1374 1378 1390 1390 1391 1396 1396 1396 1388 1383 1380 1377 1377 1377 1382 1382 1382 1372 1371 1365 1361 1354 1351 1350 1347 1347 1347 1349 1349 1349 1349 1349 1343 1343 1343 1346 1346 1346 1345 1338 1333 1325 1325 1325 1332 1338 1339 1339 1339 1335 1331 1331 1331 1331 1331 1329 1329 1327 1326 1323 1319 1317 1314 1306 1304 1303 0 0 0 0 0 0 0 0 0 0 0 0 0 0 668 668 653 653 0 0 0 0 0 0 0 0 0 0 0 0 0 0 0 0 0 0 0 0 0 785 769 754 743 743 743 746 0 0 0 0 0 0 0 0 0 0 0 0 0 0 0 0 0 0 0 0 0 0 0 0 0 0 0 0 0 0 0 0 0 0 0 0 0 0 0 0 0 0 0 0 0 0 0 0 0 0 0 0 0 0 0 0 0 0 0 0 0 0 0 0 0 0 0 0 0 0 0 0 0 0 0 0 0 0 0 0 0 0 0 0 0 0 0 0 0 0 0 0 0 0 0 0 0 0 0 0 0 0 0 0 0 0 0 0
800 800 828 855 882 911 933 934 949 952 953 963 968 994 1016 1042 1065 1080 1094 1108 1112 1131 1147 1160 1173 1186 1197 1202 1203 1204 1205 1209 1221 1238 1242 1262 1281 1295 1306 1315 1325 1341 1357 1369 1381 1392 1406 1411 1414 1418 1422 1426 1431 1437 1441 1446 1451 1454 1456 1460 1463 1466 1469 1471 1475 1480 1483 1485 1488 1490 1492 1495 1496 1498 1499 1501 1502 1504 1505 1507 1508 1509 1511 1513 1515 1516 1518 1519 1520 1523 1525 1527 1529 1530 1532 1533 1534 1535 1536 1538 1539 1540 1542 1543 1545 1547 1548 1549 1550 1552 1553 1554 1556 1557 1558 1559 1559 1561 1561 1562 1563 1564 1565 1566 1566 1566 1567 1567 1568 1569 1570 1571 1572 1573 1575 1576 1576 1577 1579 1579 1579 1581 1582 1583 1584 1586 1587 1587 1589 1589 1589 1590 1591 1592 1593 1594 1596 1597 1598 1598 1599 1600 1601 1601 1601 1602 1602 1604 1605 1607 1608 1608 1609 1610 1611 1612 1614 1616 1616 1617 1618 1619 1621 1621 1622 1624 1624 1624 1626 1626 1626 1623 0 0 0 0 0 1245 1242 1238 1231 1228 1227 1225 1223 1222 1222 1222 1221 1221 1221 1221 1220 1220 1220 1220 1220 1220 1219 1219 1219 1219 1219 1219 1218 1218 1213 1203 1191 1168 1134 1113 1113 1111 1102 1102 1102 1102 1102 1105 1105 1105 1109 1115 1117 1117 1117 1112 1112 1112 1116 1132 1144 1162 1177 1184 1185 1187 1195 1212 1223 1230 1232 1234 1235 1237 1239 1239 1240 1241 1241 1241 1241 1241 1241 1242 1242 1242 1242 1242 1242 1242 1241 1241 1241 1241 1240 1240 1240 1240 1240 1242 1242 1242 1242 1242 1241 1241 1241 1241 1241 1242 1242 1242 1240 1240 1240 1239 1240 1239 1239 1239 1240 1240 1241 1241 1241 1240 1240 1240 1240 1240 1240 1240 1240 1240 1239 1239 1239 1239 1239 1239 1239 1239 1239 1239 1239 1239 1239 1239 1239 1239 1239 1239 1239 1239 1239 1239 1239 1238 1238 1238 1238 1237 1236 1236 1235 1235 1235 1234 1234 1234 1234 1234 1233 1233 1233 1231 1231 1231 1233 1233 1233 1233 1233 1233 1234 1234 1233 1234 1234 1234 1236 1236 1236 1236 1233 1231 1231 1230 1229 1220 1220 1220 1220 1220 1215 1204 1193 1189 0 0 0 0 0 0 0 0 0 0 0 0 0 0 0 0 0 1398 1398 1393 1393 1393 1393 1393 1394 1397 1397 1397 1394 1390 1389 1383 1377 1376 1368 1363 1363 1362 1362 1361 1358 1354 1351 1350 1347 1347 1350 1352 1357 1357 1357 1350 1344 1344 1344 1347 1347 1347 1345 1338 1333 1333 1333 1338 1346 1346 1346 1340 1340 1339 1337 1337 1333 1331 1331 1329 1329 1329 1333 1333 1333 1315 0 0 0 0 0 0 0 0 0 0 0 0 0 0 0 0 0 677 668 668 674 674 674 0 0 0 0 0 0 0 771 0 0 0 0 0 0 0 0 0 0 0 0 0 0 0 0 0 0 0 0 0 0 0 0 0 0 0 0 0 0 0 0 0 0 0 0 0 0 0 0 0 0 0 0 0 0 0 0 0 0 0 0 0 0 0 0 0 0 0 0 0 0 0 0 0 0 0 0 0 0 0 0 0 0 0 0 0 0 0 0 0 0 0 0 0 0 0 0 0 0 0 0 0 0 0 0 0 0 0 0 0 0 0 0 0 0 0 0 0 0 0 0 0 0 0 0 0 0 0 0 0 0 0 0 0 0 0
792 792 822 848 882 914 947 948 970 972 983 984 988 1004 1026 1049 1068 1083 1095 1110 1116 1131 1147 1160 1170 1179 1188 1195 1198 1202 1204 1209 1221 1238 1242 1263 1275 1295 1306 1315 1325 1341 1357 1369 1381 1392 1406 1411 1414 1417 1422 1425 1429 1434 1438 1444 1450 1453 1456 1460 1463 1466 1469 1471 1475 1480 1483 1485 1488 1490 1492 1494 1496 1498 1499 1501 1502 1504 1506 1507 1508 1509 1511 1513 1515 1516 1518 1519 1521 1523 1525 1527 1529 1530 1532 1533 1534 1535 1536 1537 1539 1540 1542 1542 1544 1546 1548 1549 1550 1552 1553 1554 1556 1557 1558 1560 1560 1561 1562 1562 1563 1564 1565 1566 1566 1567 1567 1568 1569 1569 1570 1571 1572 1573 1574 1576 1576 1577 1578 1579 1579 1581 1582 1583 1584 1585 1586 1587 1588 1588 1589 1590 1591 1592 1593 1594 1596 1597 1598 1599 1600 1601 1602 1603 1604 1604 1604 1605 1607 1608 1609 1610 1611 1611 1612 1613 1615 1617 1617 1618 1619 1621 1622 1623 1624 1624 1625 1625 1628 1628 1628 1626 0 0 0 0 0 0 1248 1241 1234 1232 1232 1228 1225 1224 1224 1224 1224 1223 1223 1222 1222 1222 1222 1222 1222 1222 1222 1222 1222 1222 1222 1223 1223 1223 1221 1214 1205 1178 1163 1150 1132 1114 1112 1111 1108 1108 1108 1108 1116 1137 1144 1148 1155 1155 1156 1156 0 0 0 1179 1189 1203 1208 1210 1214 1214 1217 1221 1226 1230 1235 1238 1239 1240 1241 1241 1242 1242 1242 1243 1243 1243 1243 1243 1243 1243 1243 1243 1243 1243 1243 1243 1242 1242 1242 1242 1242 1243 1243 1244 1244 1244 1244 1243 1243 1243 1243 1243 1245 1245 1245 1245 1243 1243 1243 1243 1243 1243 1241 1241 1241 1243 1243 1243 1242 1241 1241 1241 1241 1241 1241 1240 1240 1240 1239 1239 1239 1239 1239 1239 1239 1239 1239 1239 1239 1239 1238 1238 1238 1238 1238 1239 1239 1239 1239 1240 1240 1240 1240 1240 1240 1240 1239 1238 1237 1235 1235 1235 1234 1233 1232 1232 1231 1230 1229 1229 1230 1230 1230 1232 1232 1232 1232 1232 1232 1233 1232 1232 1233 1233 1232 1232 1231 1223 1216 1216 1215 1212 1206 0 0 0 0 1186 1185 1169 1145 0 0 0 0 0 0 0 0 0 0 0 0 0 0 0 0 0 1411 1411 1411 1411 1405 1400 1397 1397 1397 1397 1398 1400 1400 1400 1398 1394 1382 1376 1368 1363 1363 1362 1362 1361 1358 1354 1350 1345 1345 1345 1347 1352 1359 1359 1359 1354 1345 1345 1345 1348 1350 1350 1350 1342 1342 1342 1342 1352 1352 1352 1346 1340 1340 1337 1337 1337 1334 1333 1333 1333 1333 1341 1341 1341 1333 0 0 0 0 0 0 0 0 0 0 0 0 0 0 0 0 0 0 669 668 668 677 677 703 0 0 0 0 0 0 0 777 777 0 0 0 0 0 0 0 0 0 0 0 0 0 0 0 0 0 0 0 0 0 0 0 0 0 0 0 0 0 0 0 0 0 0 0 0 0 0 0 0 0 0 0 0 0 0 0 0 0 0 0 0 0 0 0 0 0 0 0 0 0 0 0 0 0 0 0 0 0 0 0 0 0 0 0 0 0 0 0 0 0 0 0 0 0 0 0 0 0 0 0 0 0 0 0 0 0 0 0 0 0 0 0 0 0 0 0 0 0 0 0 0 0 0 0 0 0 0 0 0 0 0 0 0 0 0
782 782 816 842 877 914 947 948 976 994 998 998 1007 1015 1041 1058 1074 1087 1100 1115 1120 1135 1148 1160 1170 1178 1186 1192 1198 1201 1203 1207 1221 1240 1245 1263 1275 1286 1301 1315 1325 1341 1357 1368 1381 1397 1406 1412 1414 1417 1422 1425 1429 1434 1438 1444 1449 1452 1456 1460 1463 1466 1469 1472 1476 1480 1483 1485 1487 1490 1492 1494 1496 1498 1499 1501 1502 1504 1506 1507 1508 1509 1512 1514 1516 1517 1518 1519 1521 1523 1525 1527 1528 1530 1532 1533 1534 1535 1536 1537 1539 1540 1542 1542 1544 1546 1547 1549 1550 1552 1553 1554 1556 1558 1558 1560 1561 1561 1562 1563 1564 1565 1565 1566 1567 1567 1568 1568 1569 1570 1571 1572 1573 1574 1575 1576 1576 1577 1578 1579 1579 1581 1582 1583 1584 1585 1586 1586 1587 1588 1588 1590 1591 1591 1593 1594 1596 1597 1598 1599 1600 1601 1603 1604 1605 1605 1606 1607 1608 1609 1610 1610 1612 1612 1614 1615 1616 1617 1618 1620 1621 1622 1624 1625 1626 1626 1626 1626 1629 1631 1631 1631 1618 0 0 0 0 0 1250 1248 1240 1240 1237 1233 1227 1226 1226 1226 1225 1225 1225 1225 1225 1225 1224 1224 1224 1224 1224 1224 1224 1224 1225 1225 1226 1226 1226 1218 1205 1193 1181 1165 1145 1145 1145 1143 1143 1139 1139 1139 0 1168 1175 1183 1183 1183 1197 1197 1197 1206 1208 1208 1212 1220 1223 1227 1232 1232 1232 1232 1233 1235 1241 1241 1242 1243 1243 1243 1243 1244 1244 1244 1244 1244 1244 1244 1244 1244 1244 1244 1244 1244 1244 1244 1244 1244 1244 1244 1244 1244 1245 1246 1246 1246 1246 1246 1246 1246 1246 1247 1247 1247 1247 1247 1247 1246 1246 1246 1245 1244 1244 1244 1244 1244 1244 1244 1242 1241 1241 1241 1241 1241 1240 1239 1239 1239 1238 1238 1238 1238 1238 1238 1239 1239 1239 1239 1239 1239 1238 1238 1238 1238 1238 1239 1239 1240 1240 1240 1240 1240 1240 1240 1240 1240 1239 1238 1237 1235 1235 1234 1234 1232 1231 1230 1230 1229 1228 1228 1227 1227 1227 1227 1227 1226 1221 1221 1221 1221 1220 1213 1213 1213 1207 1207 0 0 0 0 0 0 0 0 0 0 0 0 0 0 0 0 0 0 0 0 0 0 0 0 0 0 0 0 0 0 0 0 1416 1421 1421 1421 1408 1400 1397 1397 1397 1397 1397 1398 1400 1400 1399 1399 1389 1376 1368 1363 1362 1361 1361 1361 1358 1356 1350 1343 1342 1342 1342 1349 1359 1359 1359 1359 1351 1350 1350 1350 1352 1352 1352 1350 1349 1349 1349 1356 1356 1356 1346 1338 1337 1337 1337 1337 1339 1340 1340 1341 1341 1342 1342 1341 0 0 0 0 0 0 0 0 0 0 0 0 0 0 0 0 0 0 0 677 677 677 677 677 703 0 0 0 0 0 0 0 806 806 0 0 0 0 0 0 0 0 0 0 0 0 0 0 0 0 0 0 0 0 0 0 0 0 0 0 0 0 0 0 0 0 0 0 0 0 0 0 0 0 0 0 0 0 0 0 0 0 0 0 0 0 0 0 0 0 0 0 0 0 0 0 0 0 0 0 0 0 0 0 0 0 0 0 0 0 0 0 0 0 0 0 0 0 0 0 0 0 0 0 0 0 0 0 0 0 0 0 0 0 0 0 0 0 0 0 0 0 0 0 0 0 0 0 0 0 0 0 0 0 0 0 0 0 0 0
771 771 0 0 0 0 947 948 980 1004 1020 1024 1027 1036 1054 1067 1080 1091 1103 1119 1124 1139 1151 1161 1170 1178 1186 1192 1198 1200 1202 1206 1222 1240 1248 1263 1275 1286 1297 1311 1324 1334 1350 1363 1381 1398 1407 1412 1414 1418 1422 1425 1429 1434 1438 1444 1449 1452 1456 1460 1463 1466 1469 1473 1476 1480 1483 1485 1487 1490 1492 1494 1496 1498 1499 1501 1502 1504 1506 1507 1508 1509 1512 1514 1517 1517 1518 1520 1521 1523 1525 1526 1528 1530 1532 1533 1534 1535 1536 1537 1539 1540 1542 1542 1544 1546 1547 1548 1550 1551 1553 1554 1556 1558 1559 1560 1561 1562 1562 1564 1564 1566 1566 1567 1568 1568 1569 1570 1570 1571 1572 1573 1573 1574 1575 1576 1576 1578 1578 1579 1580 1581 1582 1583 1584 1585 1585 1586 1587 1588 1588 1589 1590 1591 1592 1593 1595 1597 1598 1599 1601 1603 1603 1605 1606 1606 1606 1607 1608 1609 1611 1611 1612 1613 1614 1616 1617 1618 1619 1621 1622 1623 1625 1626 1627 1627 1628 1628 1630 1633 1633 1633 1622 1602 0 0 0 0 0 1254 1249 1244 1241 1241 1234 1229 1229 1229 1228 1228 1228 1227 1227 1227 1227 1227 1227 1227 1227 1226 1226 1226 1226 1226 1226 1226 1226 1222 1220 1220 1212 1205 1204 1184 1181 1171 1171 1171 1173 1184 1201 1211 1212 1217 1212 1211 1217 1217 1221 1226 1226 1226 1227 1228 1229 1234 1237 1237 1237 1237 1237 1239 1242 1244 1244 1244 1244 1245 1245 1245 1246 1246 1246 1246 1246 1246 1246 1246 1246 1246 1246 1246 1246 1246 1246 1246 1246 1246 1246 1246 1247 1247 1247 1247 1247 1248 1248 1248 1249 1249 1249 1249 1249 1248 1248 1248 1248 1247 1246 1245 1245 1245 1246 1246 1246 1244 1242 1241 1241 1241 1241 1241 1240 1239 1239 1238 1238 1238 1237 1237 1237 1237 1237 1237 1237 1237 1237 1237 1238 1238 1238 1238 1238 1239 1239 1241 1241 1241 1241 1241 1241 1241 1241 1240 1239 1238 1237 1235 1235 1234 1233 1231 1230 1229 1228 1227 1227 1227 1223 1218 1218 1216 1216 1216 1216 1216 1213 1213 1213 1210 1200 0 0 0 0 0 0 0 0 0 0 0 0 0 0 0 0 0 0 0 0 0 0 1064 1064 1064 0 0 0 0 0 0 0 0 0 0 1416 1424 1424 1424 1414 1402 1400 1398 1397 1397 1397 1397 1398 1400 1400 1400 1392 1383 1374 1372 1362 1361 1361 1361 1358 1356 1350 1342 1342 1342 1342 1349 1356 1361 1361 1361 1360 1359 1358 1358 1358 1356 1356 1356 1354 1354 1354 1354 1354 1348 1339 1336 1336 1336 1347 1349 1349 1349 1346 1342 1342 1341 1341 0 0 0 0 0 0 0 0 0 0 0 0 0 0 0 0 0 0 0 0 713 713 677 677 677 703 0 0 0 0 0 0 0 806 0 0 0 0 0 0 0 0 0 0 0 0 0 0 0 0 0 0 0 0 0 0 0 0 0 0 0 0 0 0 0 0 0 0 0 0 0 0 0 0 0 0 0 0 0 0 0 0 0 0 0 0 0 0 0 0 0 0 0 0 0 0 0 0 0 0 0 0 0 0 0 0 0 0 0 0 0 0 0 0 0 0 0 0 0 0 0 0 0 0 0 0 0 0 0 0 0 0 0 0 0 0 0 0 0 0 0 0 0 0 0 0 0 0 0 0 0 0 0 0 0 0 0 0 0 0 0
0 0 0 0 0 0 942 948 980 1004 1031 1053 1056 1058 1064 1075 1084 1092 1104 1120 1124 1141 1153 1162 1170 1178 1182 1188 1195 1199 1201 1206 1223 1240 1263 1268 1280 1286 1297 1307 1324 1334 1349 1363 1381 1398 1407 1412 1414 1418 1422 1427 1430 1434 1439 1444 1449 1452 1456 1460 1463 1466 1469 1473 1476 1480 1483 1485 1487 1490 1491 1494 1496 1498 1499 1501 1502 1504 1506 1507 1508 1510 1512 1514 1517 1517 1519 1520 1521 1523 1525 1526 1528 1530 1532 1533 1534 1535 1536 1537 1539 1540 1541 1542 1544 1546 1547 1548 1550 1551 1553 1554 1557 1558 1559 1560 1561 1562 1563 1564 1565 1566 1567 1568 1569 1569 1570 1570 1571 1572 1572 1573 1573 1574 1575 1576 1577 1578 1578 1579 1580 1581 1582 1583 1584 1585 1585 1586 1586 1587 1588 1589 1590 1591 1592 1593 1595 1597 1598 1600 1601 1604 1606 1607 1608 1608 1609 1609 1609 1611 1611 1612 1613 1614 1615 1617 1618 1620 1621 1622 1623 1624 1625 1627 1628 1629 1629 1630 1632 1633 1633 1633 1631 1617 0 0 0 0 0 1262 1254 1250 1244 1244 1240 1235 1233 1232 1232 1231 1231 1230 1229 1229 1229 1229 1229 1229 1229 1229 1228 1228 1228 1228 1228 1227 1227 1225 1221 1221 1219 1219 1219 1213 1210 1208 1208 1208 1210 1217 1226 1229 1230 1230 1233 1233 1233 1232 1232 1232 1232 1233 1234 1235 1235 1237 1239 1239 1240 1241 1241 1241 1243 1245 1245 1246 1246 1246 1246 1246 1247 1247 1246 1246 1246 1246 1246 1247 1247 1247 1247 1247 1247 1247 1247 1247 1247 1247 1247 1248 1248 1248 1248 1249 1249 1249 1250 1250 1250 1250 1250 1249 1249 1249 1249 1249 1248 1247 1247 1246 1246 1246 1246 1246 1246 1244 1242 1241 1241 1241 1241 1241 1240 1239 1238 1238 1237 1237 1237 1237 1236 1236 1236 1236 1236 1236 1236 1236 1238 1238 1238 1238 1238 1239 1240 1240 1241 1243 1243 1243 1242 1242 1241 1240 1239 1238 1237 1234 1233 1230 1228 1222 1218 1218 1218 1218 1218 1218 1214 1203 1202 1202 1203 1208 1209 1211 1211 1208 1206 1201 1188 0 0 0 0 0 0 0 0 0 0 0 0 0 0 0 0 0 0 0 0 0 1080 1066 1066 1066 1071 0 0 0 0 0 0 0 0 0 0 1424 1424 1424 1414 1402 1401 1397 1397 1397 1396 1396 1396 1399 1399 1399 1399 1391 1374 1372 1362 1361 1361 1358 1358 1356 1345 1342 1342 1342 1342 1349 1356 1361 1369 1369 1370 1369 1368 1366 1363 1362 1360 1358 1358 1358 1358 1358 1350 1341 1332 1332 1332 1336 1347 1349 1349 1349 1346 1342 0 0 0 0 0 0 0 0 0 0 0 0 0 0 0 0 0 0 0 0 0 0 0 715 715 677 677 660 660 0 0 0 0 0 0 0 0 0 0 0 0 0 0 0 0 0 0 0 0 0 0 0 0 0 0 0 0 0 0 0 0 0 0 0 0 0 0 0 0 0 0 0 0 0 0 0 0 0 0 0 0 0 0 0 0 0 0 0 0 0 0 0 0 0 0 0 0 0 0 0 0 0 0 0 0 0 0 0 0 0 0 0 0 0 0 0 0 0 0 0 0 0 0 0 0 0 0 0 0 0 0 0 0 0 0 0 0 0 0 0 0 0 0 0 0 0 0 0 0 0 0 0 0 0 0 0 0 0 0 0 0 0 0 0
694 0 0 0 0 0 0 945 980 1004 1031 1055 1081 1081 1085 1089 1090 1093 1105 1121 1125 1144 1158 1167 1172 1178 1182 1184 1187 1190 1194 1206 1226 1243 1270 1276 1280 1287 1297 1307 1324 1334 1349 1363 1382 1398 1407 1411 1414 1420 1423 1427 1430 1436 1440 1444 1449 1452 1456 1460 1463 1465 1469 1472 1476 1479 1481 1484 1486 1489 1491 1493 1496 1497 1499 1501 1502 1504 1506 1507 1508 1510 1512 1514 1517 1517 1519 1520 1521 1523 1524 1526 1528 1530 1531 1533 1534 1535 1536 1537 1539 1540 1541 1542 1544 1546 1547 1548 1550 1551 1553 1555 1557 1559 1560 1560 1561 1562 1563 1564 1565 1567 1567 1569 1569 1570 1570 1571 1571 1572 1573 1573 1574 1575 1576 1576 1577 1578 1579 1579 1580 1581 1582 1583 1584 1585 1586 1586 1586 1587 1588 1589 1590 1591 1592 1593 1595 1597 1598 1600 1603 1604 1606 1608 1609 1610 1610 1610 1610 1612 1612 1613 1614 1616 1616 1617 1618 1621 1621 1622 1624 1625 1626 1627 1629 1631 1633 1634 1634 1635 1635 1635 1634 1628 1611 0 0 0 0 1263 1254 1250 1246 1246 1241 1238 1235 1233 1233 1233 1232 1232 1232 1231 1231 1231 1231 1231 1231 1231 1231 1230 1230 1230 1229 1229 1228 1228 1228 1228 1228 1225 1225 1227 1227 1228 1229 1230 1231 1231 1232 1232 1234 1237 1237 1237 1237 1236 1236 1236 1236 1237 1238 1239 1239 1239 1242 1243 1243 1243 1244 1244 1245 1247 1247 1247 1247 1247 1247 1247 1248 1248 1248 1248 1248 1248 1248 1248 1248 1248 1248 1248 1248 1248 1248 1249 1249 1249 1249 1249 1249 1249 1249 1249 1250 1250 1250 1250 1250 1250 1250 1250 1249 1249 1249 1249 1249 1248 1247 1246 1246 1246 1246 1246 1246 1244 1241 1240 1240 1240 1240 1240 1239 1238 1238 1237 1237 1237 1236 1236 1236 1235 1235 1235 1235 1235 1236 1236 1237 1238 1238 1239 1240 1243 1243 1243 1243 1243 1243 1245 1243 1242 1242 1240 1239 1238 1237 1232 1230 1229 1216 1205 1195 1195 0 0 0 0 0 0 0 1167 1198 1208 1209 1209 1208 1205 1201 1193 0 0 0 0 977 977 977 995 1008 0 0 1017 992 0 0 0 0 0 0 0 0 0 1080 1080 1077 1072 1077 0 0 0 0 0 0 0 0 0 0 0 1424 1424 1411 1402 1401 1397 1397 1397 1395 1395 1395 1399 1399 1399 1399 1396 1375 1372 1362 1360 1358 1358 1358 1350 1345 1345 1345 1346 1350 1355 1356 1361 1372 1375 1381 1381 1381 1377 1369 1363 1360 1358 1358 1358 1358 1358 1350 1341 1332 1328 1328 1328 1347 1349 1349 1349 0 0 0 0 0 0 0 0 0 0 0 0 0 0 0 0 0 0 0 0 0 0 0 0 0 715 715 677 660 658 651 651 0 0 0 0 0 0 0 0 0 0 0 0 0 0 0 0 0 0 0 0 0 0 0 0 0 0 0 0 0 0 0 0 0 0 0 0 0 0 0 0 0 0 0 0 0 0 0 0 0 0 0 0 0 0 0 0 0 0 0 0 0 0 0 0 0 0 0 0 0 0 0 0 0 0 0 0 0 0 0 0 0 0 0 0 0 0 0 0 0 0 0 0 0 0 0 0 0 0 0 0 0 0 0 0 0 0 0 0 0 0 0 0 0 0 0 0 0 0 0 0 0 0 0 0 0 0 0 0 0 0 0 0 0 0
