787 787 790 813 833 847 853 857 865 874 885 894 901 907 919 920 923 932 949 977 1005 0 0 1110 1125 1142 1162 1183 1196 1202 1219 1231 1245 1259 1269 1282 1295 1301 1310 1316 1322 1327 1330 1334 1336 1339 1341 1343 1345 1347 1349 1351 1353 1357 1359 1362 1365 1369 1373 1377 1379 1382 1386 1388 1391 1393 1395 1398 1400 1403 1406 1408 1410 1411 1412 1413 1417 1417 1417 1412 1400 1374 0 0 0 0 1126 1123 1101 1089 1086 1084 1083 1082 1081 1081 1079 1077 1077 1076 1076 1074 1074 1072 1072 1071 1069 1068 1068 1067 1066 1064 1057 1047 0 0 0 0 0 0 0 0 0 0 0 0 0 0 1037 1044 1047 1049 1050 1050 1051 1051 1051 1051 1050 1046 1045 1040 1030 1029 0 0 0 871 865 863 861 858 858 858 862 872 873 874 876 877 879 883 891 898 898 898 897 896 896 896 916 947 980 995 1010 1022 1028 1031 1032 1033 1033 1034 1035 1035 1035 1035 1035 1035 1034 1033 1033 1033 1032 1032 1031 1030 1029 1028 1027 1027 1026 1024 1022 1021 1016 1006 995 985 962 937 929 923 920 920 920 920 920 919 917 917 917 917 920 924 924 924 924 924 924 924 924 924 932 941 947 953 962 970 981 988 994 999 999 1000 1002 1003 1004 1004 1004 1004 1004 1003 1002 1002 1001 1001 1001 1000 999 998 998 997 997 996 994 994 993 991 989 988 987 986 985 983 982 980 979 978 976 976 976 975 978 979 978 975 978 976 975 975 976 976 978 978 978 978 978 977 0 0 0 0 0 0 0 0 0 973 973 970 969 964 958 944 944 944 944 948 950 950 950 950 950 950 950 949 949 948 945 945 945 945 945 942 940 939 939 938 938 938 938 938 938 935 935 935 940 941 941 0 0 0 0 0 0 0 0 0 0 0 0 0 0 0 0 0 0 0 0 0 0 0 0 0 0 0 0 0 0 0 0 0 0 0 0 0 0 0 0 916 916 913 912 911 908 907 907 906 905 904 902 901 899 898 897 895 893 892 891 891 890 889 889 887 887 887 888 888 888 888 887 885 884 884 882 877 877 877 878 878 0 0 0 0 0 0 0 0 0 0 0 0 0 0 0 0 0 0 0 0 0 0 0 0 0 0 0 0 0 0 0 0 0 0 0 0 0 0 0 0 0 0 0 0 0 0 0 0 0 0 0 0 0 0 0 0 0 0 0 0 0 0 0 0 0 0 0 0 0 0 0 0 0 0 0 0 0 0 883 883 883 884 884 884 884 884 883 883 883 883 883 883 885 886 888 889 890 891 895 896 899 904 905 908 909 909 911 918 924 924 924 914 908 0 0 805 805 805 805 818 840 840 840 814 814 814 793 793 780 736 736 736 742 743 757 757 757 751 751 751 751 751 769 769 772 777 777 787 794 798 798 798 785 783 781 781 777 773 776 776 0 0 0 0 0 0 0 0 0 0 0 0 0 0 0 0 0 0 0 799 787 785 761 757 744 737 737 732 732 732 728 722 0 0 0 0 0 0 0 0 0 0 0 0 0 0 0 0 0 0
790 790 793 813 831 842 848 854 863 873 882 892 899 907 919 920 923 932 949 977 1005 0 0 1115 1136 1155 1170 1184 1196 1202 1217 1231 1246 1261 1271 1285 1295 1301 1308 1315 1320 1324 1328 1331 1334 1337 1340 1342 1344 1347 1349 1351 1353 1355 1358 1361 1365 1369 1373 1376 1379 1382 1385 1388 1390 1393 1395 1397 1400 1402 1405 1406 1408 1409 1410 1412 1415 1415 1415 1409 1394 1364 0 0 0 0 1110 1108 1100 1089 1085 1084 1082 1081 1080 1079 1077 1075 1075 1075 1074 1073 1072 1072 1070 1069 1068 1067 1066 1065 1062 1059 1056 0 0 0 0 0 0 0 0 0 0 0 0 0 0 0 1007 1019 1028 1035 1036 1037 1037 1039 1044 1044 1044 1044 1035 1024 1022 1009 0 0 0 871 865 865 862 862 862 868 874 878 879 880 880 885 888 892 898 905 905 905 901 896 896 896 919 957 980 999 1012 1023 1028 1031 1031 1031 1032 1033 1034 1034 1034 1034 1034 1034 1033 1033 1033 1032 1032 1031 1031 1030 1028 1028 1027 1026 1024 1022 1019 1018 1013 1005 988 964 938 930 924 920 919 918 918 918 916 916 916 916 916 916 917 920 922 924 924 924 924 924 924 924 932 940 948 958 967 975 981 988 996 999 999 1001 1002 1003 1004 1004 1004 1004 1004 1003 1003 1003 1003 1002 1002 1001 999 998 998 998 997 997 996 996 993 991 989 988 987 987 986 984 982 981 978 974 971 970 968 968 967 967 967 967 967 969 969 973 973 973 975 975 975 975 975 973 973 971 971 969 971 971 973 973 973 973 973 969 964 959 958 944 944 944 944 948 952 952 952 952 952 951 950 949 949 948 948 948 951 951 951 943 939 938 937 936 936 936 936 936 936 936 936 936 940 940 940 0 0 0 0 0 0 0 0 0 0 0 0 0 0 0 0 0 0 0 0 0 0 0 0 0 0 0 0 0 0 0 0 0 0 0 0 0 0 0 0 916 916 916 916 913 908 906 905 905 904 902 900 899 898 897 895 894 892 891 890 890 889 889 888 886 886 886 887 887 887 887 886 884 884 884 882 878 878 878 875 875 0 0 0 0 0 0 0 0 0 0 0 0 0 0 0 0 0 0 0 0 0 0 0 0 0 0 0 0 0 0 0 0 0 0 0 0 0 0 0 0 0 0 0 0 0 0 0 0 0 0 0 0 0 0 0 0 0 0 0 0 0 0 0 0 0 0 0 0 0 0 0 0 0 0 0 0 0 877 883 883 883 885 885 884 884 884 883 883 883 883 884 885 887 888 891 891 892 894 896 898 901 904 904 905 907 908 910 913 922 922 922 914 906 0 0 804 804 804 804 819 836 836 836 819 785 769 767 756 743 717 711 711 711 726 753 766 766 766 764 761 761 761 769 769 769 769 769 773 790 797 797 797 784 777 777 777 774 773 781 781 0 0 0 0 0 0 0 0 0 0 0 0 0 0 0 0 0 0 0 800 800 799 798 795 768 737 737 725 723 722 721 719 0 0 0 0 0 0 0 0 0 0 0 0 0 0 0 0 0 0
795 795 797 813 829 838 845 852 863 872 878 886 898 907 919 920 923 932 949 977 1005 0 0 1117 1141 1159 1173 1184 1196 1202 1215 1231 1248 1263 1275 1285 1295 1301 1308 1314 1319 1323 1326 1329 1331 1334 1337 1341 1343 1347 1348 1351 1352 1355 1358 1361 1365 1368 1372 1376 1379 1382 1385 1387 1390 1392 1395 1397 1400 1401 1402 1403 1405 1407 1407 1410 1410 1410 1410 1402 1387 0 0 0 0 0 1102 1100 1091 1083 1083 1081 1080 1080 1078 1077 1076 1075 1074 1073 1072 1071 1070 1070 1069 1068 1067 1066 1065 1062 1059 1055 1051 0 0 0 0 859 859 859 864 870 872 0 0 0 0 0 986 987 988 998 1007 1008 1010 1023 1033 1035 1035 1033 1029 1022 1019 1007 0 0 0 0 873 873 863 863 863 873 881 883 884 886 888 890 893 897 901 905 905 905 901 900 900 900 927 957 981 1002 1014 1023 1028 1029 1029 1030 1032 1032 1033 1033 1033 1033 1033 1033 1033 1033 1032 1031 1031 1030 1030 1028 1027 1026 1025 1024 1022 1019 1017 1016 1013 1003 988 958 938 921 920 918 917 917 916 915 914 914 914 915 916 916 916 918 921 923 924 924 924 924 924 924 932 939 948 959 969 975 983 993 996 998 999 1001 1002 1003 1004 1004 1004 1004 1004 1003 1003 1003 1003 1002 1002 1001 999 998 998 998 998 998 996 996 995 992 991 990 988 988 987 985 982 981 978 973 970 968 968 967 967 967 967 967 967 967 965 964 964 964 974 974 974 973 972 971 971 971 973 978 978 978 974 973 971 970 969 969 964 960 959 954 944 944 944 949 953 954 954 954 953 951 950 949 947 947 947 947 951 951 951 943 939 937 937 935 935 935 932 932 929 929 929 935 940 941 941 0 0 0 0 0 0 0 0 0 0 0 0 0 0 0 0 0 0 0 0 0 0 0 0 0 0 0 0 0 0 0 0 0 0 0 0 0 0 0 0 918 918 919 919 915 913 906 904 904 903 901 899 898 896 895 894 893 892 891 889 889 888 888 886 886 886 886 886 886 886 886 886 884 884 883 882 878 878 878 873 0 0 0 0 0 0 0 0 0 0 0 0 0 0 0 0 0 0 0 0 0 0 0 0 0 0 0 0 0 0 0 0 0 0 0 0 0 0 0 0 0 0 0 0 0 0 0 0 0 0 0 0 0 0 0 0 0 0 0 0 0 0 0 0 0 0 0 0 0 0 0 0 0 0 0 0 0 0 877 883 883 883 886 886 884 884 884 883 883 883 885 886 887 888 889 891 893 895 898 899 901 903 903 904 905 907 908 910 913 922 922 922 915 906 0 0 804 804 804 804 819 834 834 834 819 785 762 743 739 736 717 711 711 711 716 718 757 766 795 799 801 804 806 806 804 775 773 773 773 790 797 797 797 784 777 777 777 775 775 781 781 0 0 0 0 0 0 0 0 0 0 0 0 0 0 0 0 0 0 800 798 798 798 798 795 768 716 716 715 688 698 698 680 0 0 0 0 0 0 0 0 0 0 0 0 0 0 0 0 0 0
798 798 800 813 825 833 844 852 863 871 876 884 898 913 929 933 946 967 988 1008 1033 1067 1105 1126 1146 1159 1175 1184 1196 1202 1215 1240 1252 1263 1275 1285 1295 1300 1308 1313 1318 1320 1323 1326 1329 1332 1334 1338 1342 1346 1348 1350 1352 1355 1358 1361 1365 1368 1371 1375 1379 1382 1385 1387 1389 1392 1395 1397 1399 1401 1402 1403 1404 1404 1404 1408 1408 1408 1408 1395 1376 0 0 0 0 0 1092 1092 1082 1079 1079 1078 1078 1078 1076 1075 1075 1074 1073 1072 1071 1070 1069 1069 1068 1068 1067 1066 1064 1061 1058 1052 0 0 0 0 860 859 859 859 859 859 857 857 857 858 886 933 0 0 0 0 0 0 0 0 1011 1013 1016 1016 1016 1016 1013 1007 0 0 0 0 0 881 872 872 872 875 881 884 887 888 891 894 896 898 902 905 905 905 901 901 901 909 935 957 982 1002 1016 1023 1027 1028 1029 1029 1030 1031 1032 1032 1032 1032 1032 1032 1032 1032 1031 1031 1030 1030 1028 1027 1026 1025 1024 1023 1021 1016 1016 1015 1008 1001 988 955 937 921 917 916 916 915 915 914 914 914 914 915 915 915 915 917 920 922 924 924 925 926 928 931 934 940 948 961 971 976 985 994 996 1000 1000 1001 1002 1003 1004 1004 1004 1004 1004 1003 1003 1003 1003 1002 1002 1001 1000 998 998 998 998 998 996 996 995 993 993 990 989 988 988 985 982 978 976 973 970 968 968 967 967 967 967 967 967 966 965 964 964 964 973 973 973 972 970 970 966 966 966 969 970 970 969 969 970 968 968 967 964 960 959 954 944 944 944 952 953 960 960 960 954 951 950 950 947 947 947 947 951 951 951 943 939 937 937 934 934 934 931 931 926 926 926 931 942 942 0 0 0 0 0 0 0 0 0 0 0 0 0 0 0 0 0 0 0 0 0 0 0 0 0 0 0 0 0 0 0 0 0 0 0 0 0 0 0 0 921 921 920 919 919 919 913 906 903 903 902 900 897 895 895 894 892 891 891 890 888 888 887 886 885 885 885 885 885 885 885 885 885 884 883 882 882 880 880 880 880 0 0 0 0 0 0 0 0 0 0 0 0 0 0 0 0 0 0 0 0 0 0 0 0 0 0 0 0 0 0 0 0 0 0 0 0 0 0 0 0 0 0 0 0 0 0 0 0 0 0 0 0 0 0 0 0 0 0 0 0 0 0 0 0 0 0 0 0 0 0 0 0 0 0 0 0 0 0 879 883 885 885 886 886 885 884 884 884 884 885 886 887 888 890 892 895 896 898 900 900 902 903 904 904 905 906 907 910 913 922 922 922 920 906 0 0 804 804 804 804 819 831 831 831 819 785 760 741 739 736 717 711 711 711 716 718 757 777 795 800 805 805 806 806 805 770 770 770 773 790 797 797 797 785 777 775 772 772 772 775 778 0 0 0 0 0 0 0 0 0 0 0 0 0 0 0 0 0 0 760 760 798 798 798 795 0 716 705 686 680 680 680 0 0 0 0 0 0 0 0 0 0 0 0 0 0 0 0 0 0 0
799 799 800 808 815 827 841 846 857 867 875 884 898 917 934 938 957 978 995 1018 1048 1084 1115 1132 1146 1160 1175 1186 1196 1202 1215 1242 1255 1263 1275 1284 1294 1298 1304 1310 1314 1317 1319 1324 1327 1330 1333 1336 1340 1344 1347 1350 1352 1355 1358 1362 1365 1368 1371 1375 1378 1381 1384 1386 1389 1392 1394 1397 1399 1400 1402 1402 1402 1402 1404 1406 1406 1406 1403 1386 1367 0 0 0 0 0 1085 1085 1077 1076 1076 1076 1076 1075 1075 1074 1074 1073 1072 1071 1070 1070 1069 1068 1067 1066 1066 1066 1064 1060 1054 1043 0 0 0 857 856 856 856 859 859 859 854 854 854 854 867 883 0 0 0 0 0 0 0 0 0 0 978 993 1007 1007 1007 1007 996 0 0 0 0 0 0 0 0 883 887 889 891 894 895 898 901 903 904 905 905 905 901 901 901 932 953 971 988 1014 1022 1023 1025 1028 1028 1028 1029 1030 1031 1031 1031 1031 1031 1031 1031 1031 1030 1030 1029 1029 1028 1027 1025 1025 1023 1021 1019 1016 1015 1014 1007 1000 972 932 915 914 914 914 914 914 914 914 914 914 914 914 914 915 915 915 918 919 921 924 926 928 931 935 937 941 949 962 971 976 986 996 998 1000 1001 1001 1002 1003 1003 1003 1004 1004 1003 1003 1003 1003 1002 1002 1002 1001 1000 998 998 998 998 998 996 996 995 995 993 991 989 988 988 985 982 977 975 973 970 968 968 967 967 967 966 966 967 966 965 964 964 964 967 967 967 967 966 963 963 963 963 962 966 966 965 965 965 965 965 965 963 960 959 958 955 952 952 955 955 966 966 966 961 951 950 950 947 947 947 947 947 947 946 943 940 939 937 934 934 934 931 931 926 926 926 936 939 939 0 0 0 0 0 0 0 0 0 0 0 0 0 0 0 0 0 0 0 0 0 0 0 0 0 0 0 0 0 0 0 0 0 0 0 0 0 0 0 0 921 921 920 919 919 919 913 905 903 901 901 898 896 895 893 893 892 891 890 888 887 887 886 885 885 885 885 885 885 884 884 884 884 884 883 881 878 878 878 883 883 0 0 0 0 0 0 0 0 0 0 0 0 0 0 0 0 0 0 0 0 0 0 0 0 0 0 0 0 0 0 0 0 0 0 0 0 0 0 0 0 0 0 0 0 0 0 0 0 0 0 0 0 0 0 0 0 0 0 0 0 0 0 0 0 0 0 0 0 0 0 0 0 0 0 0 0 0 0 880 883 885 885 885 885 885 885 885 885 885 886 887 888 889 891 893 896 899 900 900 901 903 903 904 904 905 908 909 915 920 925 940 940 940 919 0 0 804 804 804 804 818 819 819 819 808 785 762 741 739 736 724 716 716 716 716 718 0 790 795 800 805 805 806 806 805 769 762 762 762 790 797 797 797 780 779 775 772 772 772 775 798 0 0 0 0 0 0 0 0 0 0 0 0 0 0 0 0 0 0 737 740 748 775 775 775 0 0 705 686 680 680 0 0 0 0 0 0 0 0 0 0 0 0 0 0 0 0 0 0 0 0
800 800 803 808 813 824 836 839 848 859 871 883 898 919 938 943 966 986 1003 1021 1049 1084 1115 1133 1147 1160 1175 1193 1207 1212 1227 1243 1255 1263 1274 1283 1289 1294 1301 1307 1311 1313 1317 1321 1326 1329 1333 1336 1340 1343 1347 1350 1352 1355 1358 1362 1365 1368 1371 1374 1377 1380 1384 1386 1388 1390 1392 1395 1397 1398 1399 1400 1400 1402 1404 1404 1404 1403 1392 1379 0 0 0 0 0 1107 1083 1083 1076 1075 1075 1075 1074 1074 1073 1073 1072 1072 1071 1071 1069 1068 1068 1067 1067 1066 1066 1065 1064 1058 1044 1036 0 0 0 849 849 849 857 859 859 859 850 850 850 850 854 865 865 866 868 870 882 890 0 0 0 0 954 983 1000 1012 1019 1022 1022 1022 1018 0 0 0 0 0 0 0 0 0 907 907 907 910 910 910 908 908 907 905 905 905 908 945 959 971 988 1014 1022 1023 1025 1027 1027 1028 1028 1029 1030 1030 1030 1031 1031 1030 1030 1030 1029 1029 1029 1028 1027 1026 1024 1024 1022 1021 1017 1014 1014 1014 1007 992 958 924 915 914 914 914 914 914 913 912 912 912 911 911 911 912 913 914 916 918 920 923 927 930 934 937 939 941 950 964 971 976 989 996 998 1000 1001 1001 1002 1003 1003 1003 1003 1003 1003 1003 1003 1003 1002 1002 1001 1001 1000 998 998 997 997 997 996 996 995 994 994 991 989 988 987 983 979 977 975 973 969 968 967 967 967 967 966 966 967 966 966 964 964 964 964 964 965 965 963 963 963 962 962 960 960 960 960 960 960 965 965 965 965 963 960 958 958 958 953 958 958 966 966 966 961 953 951 951 950 950 949 948 947 944 941 941 941 941 937 934 934 934 931 931 926 926 926 938 939 939 0 0 0 0 0 0 0 0 0 0 0 0 0 0 0 0 0 0 0 0 0 0 0 0 0 0 0 0 0 0 0 0 0 0 0 0 0 0 0 0 924 924 919 919 916 914 908 904 901 901 900 897 895 894 893 892 891 889 889 888 887 887 886 885 885 884 884 884 884 884 884 884 884 884 883 881 878 878 878 890 890 0 0 0 0 0 0 0 0 0 0 0 0 0 0 0 0 0 0 0 0 0 0 0 0 0 0 0 0 0 0 0 0 0 0 0 0 0 0 0 0 0 0 0 0 0 0 0 0 0 0 0 0 0 0 0 0 0 0 0 0 0 0 0 0 0 0 0 0 0 0 0 0 0 0 0 0 0 0 880 883 885 885 885 885 885 886 886 887 887 888 888 889 892 894 895 898 900 900 900 901 903 905 905 907 908 909 909 926 940 950 950 950 946 929 0 0 830 829 818 818 818 818 818 809 793 786 764 750 750 741 741 735 735 735 738 763 790 800 800 800 805 805 805 805 802 747 747 747 762 790 797 797 797 787 784 780 777 777 777 788 796 796 0 0 0 0 0 0 0 0 0 0 0 0 0 0 0 0 0 737 740 748 761 761 761 0 0 0 0 0 0 0 0 0 0 0 0 0 0 0 0 0 0 0 0 0 0 0 0 0 0
801 801 803 807 812 823 829 834 845 859 870 883 901 921 943 947 971 992 1008 1022 1054 1084 1115 1133 1146 1160 1175 1196 1210 1215 1230 1245 1255 1263 1273 1282 1288 1292 1296 1302 1307 1311 1315 1321 1325 1329 1333 1336 1339 1343 1346 1349 1352 1355 1358 1362 1365 1368 1371 1374 1377 1380 1383 1385 1387 1388 1391 1394 1396 1397 1398 1398 1400 1402 1403 1403 1403 1398 1391 1361 0 0 0 0 0 1093 1079 1079 1075 1075 1074 1074 1073 1073 1072 1072 1071 1071 1070 1069 1069 1067 1067 1065 1065 1065 1065 1064 1064 1057 1043 0 0 0 0 849 849 849 857 859 859 859 850 850 842 842 842 846 851 854 861 868 876 876 876 880 0 0 954 983 997 1010 1024 1025 1027 1028 1028 1028 1028 1015 1001 0 0 0 0 0 0 943 942 933 928 924 917 911 909 906 906 906 929 948 965 981 1003 1014 1022 1023 1025 1026 1027 1027 1027 1028 1029 1029 1029 1029 1029 1029 1029 1029 1029 1028 1028 1027 1026 1025 1024 1023 1020 1019 1016 1014 1014 1012 1007 987 944 921 915 914 914 914 914 914 913 912 911 911 909 909 909 911 913 914 916 918 920 923 927 930 934 937 940 943 960 970 971 977 989 996 998 1000 1001 1002 1003 1003 1003 1003 1003 1003 1003 1003 1002 1002 1002 1000 1000 998 998 998 998 997 997 997 995 995 995 994 994 991 989 988 986 982 979 974 973 971 969 968 966 966 966 966 966 966 966 965 965 965 965 965 965 965 965 965 964 964 963 962 962 960 960 960 960 960 960 961 963 965 963 0 0 0 0 0 953 958 958 964 964 964 962 953 953 952 952 952 952 949 947 944 941 941 941 941 941 934 934 934 931 931 934 934 935 938 939 939 0 0 0 0 0 0 0 0 0 0 0 0 0 0 0 0 0 0 0 0 0 0 0 0 0 0 0 0 0 0 0 0 0 0 0 0 0 0 0 0 922 922 914 913 912 907 903 902 901 901 899 897 894 894 892 892 891 889 888 887 887 887 886 885 884 884 884 884 884 884 884 884 884 884 883 881 879 879 879 890 890 0 0 0 0 0 0 0 0 0 0 0 0 0 0 0 0 0 0 0 0 0 0 0 0 0 0 0 0 0 0 0 0 0 0 0 0 0 0 0 0 0 0 0 0 0 0 0 0 0 0 0 0 0 0 0 0 0 0 0 0 0 0 0 0 0 0 0 0 0 0 0 0 0 0 0 0 0 875 880 883 883 883 883 883 883 886 886 888 888 888 889 891 894 895 896 899 902 904 905 905 906 908 910 911 911 911 911 935 951 951 951 950 949 947 0 0 830 830 818 818 818 818 818 807 793 786 764 764 764 764 764 764 758 758 758 769 794 799 799 799 795 794 794 787 772 761 761 761 762 775 775 780 786 789 781 781 781 781 781 793 793 793 0 0 0 0 0 0 0 0 0 0 0 735 727 733 0 0 0 737 740 759 737 736 0 0 0 0 0 0 0 0 0 0 0 0 0 0 0 0 0 0 0 0 0 0 0 0 0 0 0
802 802 803 806 811 817 825 834 845 859 870 883 903 924 947 951 974 997 1015 1031 1054 1084 1109 1133 1146 1161 1180 1197 1214 1219 1232 1245 1255 1263 1273 1280 1287 1290 1293 1299 1303 1307 1314 1320 1325 1329 1332 1335 1339 1343 1346 1349 1352 1355 1358 1362 1364 1367 1370 1373 1377 1380 1382 1384 1387 1388 1391 1394 1395 1396 1397 1397 1400 1402 1403 1403 1403 1394 1378 1352 0 0 0 0 1108 1088 1078 1078 1075 1074 1073 1073 1072 1072 1071 1071 1070 1070 1069 1069 1068 1067 1066 1065 1064 1064 1064 1064 1063 1056 1041 0 0 0 860 849 849 849 857 860 860 860 850 850 842 842 842 846 849 854 857 867 875 875 875 877 877 912 954 983 997 1010 1025 1031 1034 1034 1034 1034 1033 1027 1024 1022 1022 1015 1007 992 978 972 970 961 953 944 932 925 921 914 914 914 935 953 967 985 1003 1014 1022 1023 1024 1026 1026 1026 1027 1027 1027 1027 1027 1028 1028 1028 1028 1028 1027 1027 1026 1026 1025 1024 1022 1021 1018 1016 1015 1012 1010 1008 1003 981 935 920 916 916 916 916 916 914 911 910 910 909 909 909 909 911 913 914 916 918 920 923 927 930 934 938 942 945 960 971 975 985 992 996 998 1000 1001 1002 1002 1003 1003 1003 1003 1003 1003 1002 1001 1001 1001 999 999 997 997 997 997 997 996 996 994 990 990 990 989 989 989 986 985 982 976 972 972 970 969 967 966 963 963 963 966 966 966 965 965 965 965 965 965 964 964 964 963 963 961 959 959 959 959 959 959 959 959 959 961 963 961 0 0 0 0 0 0 0 0 0 961 961 961 955 955 954 955 955 955 954 947 944 944 944 942 944 944 942 935 934 934 931 934 934 937 937 939 939 0 0 0 0 0 0 0 0 0 0 0 0 0 0 0 0 0 0 0 0 0 0 0 0 0 0 0 0 0 0 0 0 0 0 0 0 0 0 0 0 912 912 908 905 905 901 901 901 900 900 899 896 894 892 892 891 890 889 888 887 886 885 885 885 884 884 884 884 884 884 884 884 885 885 885 884 880 880 880 890 890 0 0 0 0 0 0 0 0 0 0 0 0 0 0 0 0 0 0 0 0 0 0 0 0 0 0 0 0 0 0 0 0 0 0 0 0 0 0 0 0 0 0 0 0 0 0 0 0 0 0 0 0 0 0 0 0 0 0 0 0 0 0 0 0 0 0 0 0 0 0 0 0 0 0 0 0 0 874 878 881 881 883 883 883 883 886 888 889 891 891 892 894 897 898 899 900 904 907 908 909 909 911 912 914 915 915 926 949 955 958 964 964 964 964 0 0 845 830 826 826 824 818 817 807 793 786 775 770 770 770 768 768 762 762 762 772 794 798 798 798 795 789 788 787 772 761 755 752 746 736 736 736 765 780 785 785 785 785 785 795 795 795 0 0 0 0 0 0 0 0 0 0 734 734 727 740 740 740 788 788 788 786 775 749 0 0 0 0 0 0 760 760 760 0 0 0 0 0 0 0 0 0 0 0 0 0 0 0 0 0 0
802 802 803 806 808 815 825 834 845 860 870 883 908 930 948 952 974 1002 1026 1046 1065 1084 1109 1133 1147 1162 1181 1198 1215 1220 1235 1246 1255 1262 1270 1279 1285 1287 1291 1295 1300 1306 1312 1318 1324 1327 1332 1335 1339 1343 1346 1349 1352 1355 1358 1362 1364 1367 1370 1373 1377 1380 1382 1384 1386 1388 1391 1393 1395 1395 1395 1397 1400 1405 1405 1405 1402 1390 1369 1344 0 0 0 0 1096 1085 1077 1077 1075 1073 1073 1072 1072 1072 1071 1070 1070 1070 1068 1068 1067 1066 1065 1065 1064 1064 1064 1063 1062 1052 1031 0 0 0 860 849 849 849 857 860 860 860 851 850 842 842 842 846 849 852 857 864 873 873 873 873 873 912 958 984 997 1012 1026 1033 1037 1037 1037 1036 1034 1034 1034 1032 1032 1028 1021 1013 1013 1009 1006 997 979 978 978 969 963 950 945 945 945 958 968 986 1003 1014 1021 1023 1024 1024 1025 1025 1025 1026 1026 1026 1026 1026 1026 1026 1026 1026 1026 1025 1025 1025 1024 1023 1021 1019 1016 1013 1013 1011 1007 1003 997 976 935 919 916 916 915 915 915 912 908 908 908 908 909 909 909 912 914 915 917 919 921 923 927 929 933 939 944 946 963 973 981 988 993 996 998 1000 1001 1002 1002 1003 1003 1003 1003 1003 1002 1001 1001 1000 1000 999 998 996 995 995 995 996 996 0 0 0 989 989 989 989 987 986 984 982 973 969 968 968 968 966 965 963 963 963 965 965 965 965 965 965 965 965 965 964 964 963 963 963 960 959 959 959 959 959 959 959 959 962 962 962 962 0 0 0 0 0 0 0 0 0 958 958 958 955 955 954 955 955 955 954 947 944 944 944 948 948 948 944 937 936 935 934 934 934 937 937 937 934 0 0 0 0 0 0 0 0 0 0 0 0 0 0 0 0 0 0 0 0 0 0 0 0 0 0 0 0 0 0 0 0 0 0 0 0 0 0 0 910 910 906 905 900 899 899 899 900 900 900 899 896 894 892 892 891 890 889 887 886 886 885 885 884 884 884 884 884 884 884 884 884 885 885 885 884 882 882 882 882 882 0 0 0 0 0 0 0 0 0 0 0 0 0 0 0 0 0 0 0 0 0 0 0 0 0 0 0 0 0 0 0 0 0 0 0 0 0 0 0 0 0 0 0 0 0 0 0 0 0 0 0 0 0 0 0 0 0 0 0 0 0 0 0 0 0 0 0 0 0 0 0 0 0 0 0 0 0 872 875 877 880 881 881 883 886 887 889 891 894 894 895 897 899 901 902 905 909 911 912 913 913 914 915 915 915 920 940 959 960 965 980 981 981 981 0 0 845 836 833 827 824 818 817 807 794 793 792 790 789 779 778 773 764 764 764 772 794 795 795 795 794 789 788 787 772 761 755 752 746 719 719 719 765 780 796 796 796 796 796 799 799 799 0 0 0 0 0 0 0 0 0 734 734 734 748 753 758 767 807 807 807 806 775 744 0 0 0 0 0 739 760 760 760 742 0 0 0 0 0 0 0 0 0 0 0 0 0 0 0 0 0
802 802 802 803 803 815 825 837 852 867 882 897 915 932 948 952 974 1002 1032 1056 1072 1088 1109 1133 1149 1164 1183 1200 1218 1222 1236 1248 1255 1261 1267 1274 1280 1286 1289 1294 1299 1304 1311 1317 1323 1327 1330 1334 1338 1343 1346 1349 1352 1355 1358 1362 1364 1367 1370 1373 1377 1380 1382 1384 1386 1388 1390 1393 1394 1395 1395 1397 1400 1405 1405 1405 1399 1386 1361 0 0 0 0 1104 1085 1080 1076 1075 1074 1073 1072 1071 1071 1071 1070 1070 1069 1068 1068 1067 1067 1066 1065 1065 1064 1064 1064 1062 1059 1052 0 0 0 868 860 849 849 849 854 857 857 857 855 854 846 846 846 848 849 852 856 856 858 859 860 863 0 0 967 993 1011 1026 1029 1034 1037 1038 1039 1039 1039 1039 1038 1037 1036 1034 1033 1029 1027 1025 1023 1023 1010 1004 1002 998 994 988 975 975 975 977 988 999 1006 1013 1019 1021 1021 1022 1022 1022 1023 1023 1024 1025 1025 1025 1025 1025 1025 1025 1025 1024 1023 1022 1021 1021 1019 1017 1014 1011 1011 1008 1003 997 985 948 924 919 916 916 915 914 914 909 905 905 905 908 909 911 912 913 915 916 918 921 922 924 927 929 933 939 944 949 964 973 984 990 994 996 999 1000 1001 1002 1002 1002 1003 1003 1003 1002 1001 1001 1000 1000 1000 999 998 996 995 995 995 996 996 0 0 0 989 988 987 987 986 986 984 979 971 967 967 966 966 966 965 962 962 962 964 964 964 964 964 964 964 964 964 964 964 963 963 961 958 958 958 959 959 959 957 948 948 948 948 0 0 0 0 0 0 0 0 0 0 0 0 0 0 0 0 0 0 0 0 0 0 0 0 0 0 947 947 944 941 937 935 934 934 934 938 938 938 934 0 0 0 0 0 0 0 0 0 0 0 0 0 0 0 0 0 0 0 0 0 0 0 0 0 0 0 0 0 0 0 0 0 0 0 0 0 0 0 907 907 906 905 900 899 899 899 900 900 900 899 896 894 892 892 891 890 889 887 886 885 885 885 884 884 884 884 884 884 884 885 885 885 885 885 884 884 884 884 884 0 0 0 0 0 0 0 0 0 0 0 0 0 0 0 0 0 0 0 0 0 0 0 0 0 0 0 0 0 0 0 0 0 0 0 0 0 0 0 0 0 0 0 0 0 0 0 0 0 0 0 0 0 0 0 0 0 0 0 0 0 0 0 0 0 0 0 0 0 0 0 0 0 0 0 0 0 0 868 875 876 879 879 881 886 890 895 896 897 897 897 897 897 899 901 905 909 912 913 915 915 916 916 916 917 920 929 945 961 972 984 998 998 998 998 0 0 0 0 0 0 0 783 783 793 794 798 815 815 815 810 783 780 780 780 781 798 798 798 795 793 789 789 791 789 788 785 771 761 746 0 0 0 0 806 806 806 806 804 804 804 804 804 792 0 0 765 781 797 802 802 0 0 735 735 748 753 758 767 0 0 0 0 0 0 0 656 656 656 706 736 752 752 752 749 749 749 762 762 0 0 0 0 0 0 0 0 0 0 0 0 0
799 799 799 800 803 815 828 844 862 875 890 902 917 932 948 952 973 1002 1034 1063 1081 1096 1113 1133 1150 1174 1193 1207 1220 1225 1237 1248 1254 1261 1265 1271 1279 1285 1289 1293 1298 1303 1310 1317 1322 1326 1329 1333 1338 1343 1346 1349 1352 1355 1358 1362 1364 1368 1370 1373 1377 1380 1382 1384 1386 1388 1390 1393 1394 1394 1395 1397 1400 1400 1400 1400 1393 1369 0 0 0 0 0 1095 1084 1078 1076 1074 1074 1073 1072 1071 1070 1070 1069 1068 1068 1067 1067 1067 1066 1066 1065 1065 1064 1064 1062 1061 1059 1050 0 0 0 868 860 848 848 848 851 854 857 858 858 857 854 853 853 853 853 854 856 856 858 859 860 864 0 0 977 1006 1025 1032 1036 1039 1039 1040 1041 1041 1041 1040 1040 1038 1037 1034 1033 1033 1030 1030 1030 1029 1029 1023 1018 1014 1011 1008 1002 995 993 993 993 999 1006 1013 1016 1017 1018 1021 1022 1022 1022 1022 1023 1024 1024 1025 1025 1025 1024 1024 1023 1022 1021 1021 1020 1019 1018 1016 1014 1011 1010 1007 1002 994 971 934 920 914 914 914 913 913 913 909 904 904 904 909 912 914 915 915 917 918 920 922 924 925 927 929 933 943 945 949 964 978 988 994 996 998 999 1000 1001 1002 1002 1002 1002 1002 1001 1001 1001 1000 1000 999 999 999 997 994 994 994 995 995 995 993 990 987 987 987 987 987 986 983 981 979 967 967 967 966 966 965 964 962 962 962 963 964 964 964 963 963 963 963 963 963 963 962 961 959 957 955 954 954 951 950 948 948 948 948 0 0 0 0 0 0 0 0 0 0 0 0 0 0 0 0 0 0 0 0 0 0 0 0 0 0 0 0 944 944 941 937 937 935 935 935 938 938 938 932 0 0 0 0 0 0 0 0 0 0 0 0 0 0 0 0 0 0 0 0 0 0 0 0 0 0 0 0 0 0 0 0 0 0 0 0 0 0 0 906 906 906 903 900 898 898 898 900 900 900 899 896 895 893 892 890 890 889 887 886 885 885 885 885 885 884 884 884 885 885 885 885 885 885 885 884 884 884 885 885 0 0 0 0 0 0 0 0 0 0 0 0 0 0 0 0 0 0 0 0 0 0 0 0 0 0 0 0 0 0 0 0 0 0 0 0 0 0 0 0 0 0 0 0 0 0 0 0 0 0 0 0 0 0 0 0 0 0 0 0 0 0 0 0 0 0 0 0 0 0 0 0 0 0 0 0 0 0 0 873 874 874 878 882 890 897 897 901 901 901 900 900 900 900 902 905 910 914 917 920 921 923 924 926 933 939 941 948 961 992 994 1000 1001 1001 1000 0 0 0 0 0 0 0 760 760 777 788 794 815 821 825 828 825 822 822 814 814 806 806 806 795 795 794 795 795 803 803 803 788 776 774 0 0 0 0 831 831 831 820 820 820 836 836 836 796 796 796 799 814 815 815 815 0 0 0 747 753 764 766 0 0 0 0 0 0 0 0 707 707 707 723 732 743 748 750 754 771 796 796 796 0 0 0 0 0 0 0 0 0 0 0 0 0
794 794 795 797 803 815 828 845 863 881 894 904 918 933 947 950 971 1002 1035 1069 1090 1106 1121 1136 1158 1181 1201 1215 1225 1229 1237 1248 1254 1261 1264 1270 1278 1284 1289 1293 1298 1303 1310 1315 1321 1324 1329 1333 1337 1343 1346 1349 1352 1355 1358 1362 1365 1368 1371 1374 1378 1380 1382 1384 1386 1388 1390 1392 1392 1393 1395 1396 1399 1399 1399 1391 1381 1361 0 0 0 0 0 1093 1083 1077 1075 1074 1074 1073 1072 1070 1070 1069 1068 1068 1067 1066 1066 1065 1065 1065 1065 1064 1063 1062 1060 1055 1053 1044 0 0 0 863 855 847 847 847 847 852 857 858 858 858 858 858 858 858 857 858 858 858 858 859 860 876 0 0 987 1009 1026 1035 1038 1041 1042 1042 1042 1042 1042 1041 1041 1040 1037 1034 1034 1033 1033 1031 1031 1031 1030 1029 1026 1024 1021 1020 1018 1016 1010 1001 1001 1001 1006 1009 1009 1010 1012 1016 1018 1021 1021 1022 1022 1024 1024 1024 1024 1024 1024 1024 1021 1021 1020 1019 1019 1017 1017 1016 1014 1011 1009 1004 997 988 957 929 920 914 912 912 912 912 912 909 904 904 904 911 914 917 918 919 919 921 923 925 926 927 928 932 936 943 945 949 968 984 990 994 996 998 999 1000 1001 1001 1002 1002 1002 1002 1001 1001 1000 1000 999 999 997 997 996 994 994 994 994 994 994 993 990 987 987 987 987 987 986 982 978 973 967 967 967 966 966 965 963 961 961 961 963 964 964 964 963 962 962 962 962 962 960 959 958 955 954 950 944 944 944 945 945 947 947 947 0 0 0 0 0 0 0 0 0 0 0 0 0 0 0 0 0 0 0 0 0 0 0 0 0 0 0 0 0 0 0 0 0 937 937 939 939 939 938 933 0 0 0 0 0 0 0 0 0 0 0 0 0 0 0 0 0 0 0 0 0 0 0 0 0 0 0 0 0 0 0 0 0 0 0 0 0 0 0 906 906 906 900 900 897 897 897 897 898 898 898 896 895 893 892 890 890 889 887 886 885 885 885 885 885 885 885 885 885 885 886 886 886 885 884 883 883 883 886 886 0 0 0 0 0 0 0 0 0 0 0 0 0 0 0 0 0 0 0 0 0 0 0 0 0 0 0 0 0 0 0 0 0 0 0 0 0 0 0 0 0 0 0 0 0 0 0 0 0 0 0 0 0 0 0 0 0 0 0 0 0 0 0 0 0 0 0 0 0 0 0 0 0 0 0 0 0 0 0 0 0 0 876 882 890 897 898 904 904 905 904 905 905 905 909 911 914 916 918 924 929 934 941 942 942 946 953 956 998 1002 1002 1002 1002 1017 1017 0 0 0 0 0 0 0 760 760 777 788 803 815 821 825 828 825 822 822 821 821 817 817 817 795 795 795 810 811 816 816 816 816 812 811 0 0 0 0 831 831 831 820 820 820 839 839 839 800 800 800 816 825 825 825 815 806 0 0 0 0 0 0 0 813 838 838 838 0 0 0 707 707 707 724 731 736 737 744 754 771 796 796 796 0 0 0 0 0 0 0 0 0 0 0 0 0
783 783 785 792 798 815 828 845 863 881 896 909 921 933 946 950 969 997 1037 1074 1097 1113 1124 1142 1160 1186 1202 1215 1225 1229 1238 1247 1254 1260 1264 1269 1274 1281 1287 1292 1298 1303 1310 1315 1321 1324 1328 1332 1337 1341 1346 1349 1352 1355 1358 1362 1365 1368 1371 1375 1378 1380 1382 1385 1386 1389 1390 1391 1392 1393 1395 1396 1396 1396 1396 1390 1374 1345 0 0 0 0 1105 1086 1078 1075 1074 1073 1073 1072 1071 1070 1069 1069 1067 1067 1066 1065 1064 1063 1063 1063 1063 1062 1061 1058 1058 1055 1045 0 0 0 0 860 843 832 832 832 838 843 854 857 858 858 858 858 858 858 859 860 861 861 861 861 862 882 0 0 994 1012 1026 1037 1039 1041 1042 1042 1042 1042 1042 1042 1042 1040 1037 1035 1035 1035 1035 1034 1031 1031 1031 1030 1028 1025 1025 1023 1022 1022 1014 1006 998 998 992 992 992 993 1001 1004 1005 1012 1015 1015 1017 1021 1023 1023 1023 1023 1022 1021 1019 1018 1018 1018 1018 1017 1016 1016 1014 1011 1008 999 990 978 944 929 920 914 912 912 912 912 912 910 905 905 905 912 917 921 922 922 923 923 925 927 928 930 931 933 937 943 950 952 969 986 990 994 996 998 999 999 1000 1001 1001 1001 1001 1001 1001 1000 1000 999 998 998 997 996 995 994 994 994 994 994 994 993 990 987 987 987 987 987 986 980 975 973 968 968 967 967 967 964 962 961 961 961 963 964 964 964 963 960 959 959 959 959 959 958 955 953 948 946 943 943 943 946 946 948 948 946 0 0 0 0 0 0 0 0 0 0 0 0 0 0 0 0 0 0 0 0 0 0 0 0 0 0 0 0 0 0 0 0 0 0 0 0 939 939 935 933 932 932 932 931 0 0 0 0 0 0 0 0 0 0 0 0 0 0 0 0 0 0 0 0 0 0 0 0 0 0 0 0 0 0 0 0 0 0 0 914 906 903 902 900 897 895 895 895 896 897 897 897 895 893 891 890 889 889 887 886 886 886 885 885 885 885 885 885 885 886 886 886 886 884 884 883 883 885 888 0 0 0 0 0 0 0 0 0 0 0 0 0 0 0 0 0 0 0 0 0 0 0 0 0 0 0 0 0 0 0 0 0 0 0 0 0 0 0 0 0 0 0 0 0 0 0 0 0 0 0 0 0 0 0 0 0 0 0 0 0 0 0 0 0 0 0 0 0 0 0 0 0 0 0 0 0 0 0 0 0 0 0 0 882 890 897 899 904 905 905 905 905 908 916 918 919 919 920 921 924 932 941 952 956 956 961 962 980 1003 1022 1029 1036 1036 1036 1036 1027 0 0 0 0 0 0 760 760 774 788 803 814 821 825 828 825 822 822 822 822 823 823 823 813 813 813 813 821 822 822 825 825 825 825 0 0 0 0 831 831 831 820 820 820 839 839 839 800 800 800 816 825 825 825 811 811 0 0 0 0 0 0 784 811 838 838 838 822 0 0 722 722 722 720 720 724 726 726 754 771 796 796 0 0 0 0 0 0 0 0 0 0 0 0 0 0
770 770 772 785 793 809 827 845 863 881 896 911 925 934 946 950 969 997 0 1074 1097 1117 1130 1147 1168 1186 1202 1215 1225 1229 1238 1247 1254 1260 1264 1268 1274 1280 1287 1292 1297 1303 1310 1315 1320 1324 1328 1332 1336 1341 1344 1349 1352 1355 1358 1362 1366 1368 1372 1375 1378 1380 1382 1385 1386 1388 1390 1391 1391 1393 1396 1396 1396 1396 1396 1389 1369 0 0 0 0 0 1091 1078 1074 1073 1071 1071 1070 1070 1070 1069 1068 1067 1067 1066 1065 1065 1064 1063 1062 1061 1060 1059 1058 1056 1056 1052 1036 0 0 0 865 843 838 823 823 823 828 834 841 853 856 857 858 858 858 858 860 861 864 864 864 864 864 0 0 0 1003 1022 1030 1038 1042 1042 1043 1043 1043 1043 1043 1043 1042 1041 1039 1037 1036 1036 1036 1035 1034 1032 1032 1030 1030 1029 1027 1027 1026 1022 1014 1006 998 977 969 969 969 973 985 988 988 997 1008 1009 1009 1016 1020 1020 1020 1018 1018 1017 1017 1017 1017 1017 1017 1016 1016 1015 1014 1011 1008 998 988 971 944 929 922 916 912 912 912 912 912 912 909 909 909 914 920 923 924 924 924 924 927 928 929 930 931 933 938 943 954 966 976 986 990 992 996 997 998 999 1000 1000 1000 1001 1001 1001 1000 999 999 999 998 997 996 996 995 994 994 993 993 993 993 990 988 987 987 987 987 987 986 980 975 972 969 969 969 968 966 963 962 962 961 961 961 962 961 961 961 958 957 957 955 955 955 955 953 950 948 946 942 942 942 948 948 948 950 948 0 0 0 0 0 0 0 0 0 0 0 0 0 0 0 0 0 0 0 0 0 0 0 0 0 0 0 0 0 0 0 0 0 0 0 0 936 936 933 932 931 931 932 931 931 931 930 929 929 0 0 0 0 0 0 0 0 0 0 0 0 0 0 0 0 0 0 0 0 0 0 0 0 0 0 0 0 0 914 914 912 904 897 897 896 895 894 894 895 897 897 897 895 893 891 890 889 889 888 888 887 887 887 886 885 885 885 885 885 886 886 886 886 883 883 883 887 892 892 0 0 0 0 0 0 0 0 0 0 0 0 0 0 0 0 0 0 0 0 0 0 0 0 0 0 0 0 0 0 0 0 0 0 0 0 0 0 0 0 0 0 0 0 0 0 0 0 0 0 0 0 0 0 0 0 0 0 0 0 0 0 0 0 0 0 0 0 0 0 0 0 0 0 0 0 0 0 0 0 0 0 0 0 0 891 897 899 908 913 913 913 913 913 921 926 927 932 935 938 946 952 954 959 964 967 973 973 983 1008 1025 1045 1050 1051 1051 1050 1041 1018 0 0 0 0 0 754 754 754 790 803 803 803 802 802 802 819 821 822 829 831 832 832 831 829 825 821 821 822 822 825 836 836 836 798 0 0 0 815 815 808 808 808 817 839 839 839 800 800 800 816 825 825 825 808 808 0 0 0 0 0 811 811 811 836 836 836 822 795 766 739 724 719 717 717 689 689 0 0 0 0 0 0 0 0 0 0 0 0 0 0 0 0 0 0 0
760 760 762 776 786 805 822 841 859 878 896 911 925 935 946 950 969 0 0 1075 1099 1117 1135 1157 1173 1186 1202 1214 1225 1229 1238 1247 1254 1259 1264 1268 1274 1280 1286 1292 1297 1303 1309 1315 1320 1324 1328 1332 1336 1341 1344 1349 1353 1355 1358 1362 1366 1368 1372 1375 1378 1380 1382 1385 1386 1388 1390 1391 1391 1393 1396 1397 1397 1397 1394 1389 1367 0 0 0 0 1097 1081 1075 1074 1072 1071 1070 1070 1068 1068 1068 1068 1066 1066 1065 1065 1064 1063 1062 1061 1061 1060 1059 1058 1055 1055 1052 1036 0 0 0 851 841 838 823 823 823 828 832 834 838 851 857 858 858 859 859 860 862 864 864 864 864 875 0 0 981 1004 1027 1037 1041 1043 1043 1043 1043 1043 1043 1043 1043 1042 1041 1040 1038 1037 1037 1036 1035 1034 1034 1032 1031 1031 1031 1031 1030 1026 1022 1014 1006 994 955 955 955 955 956 957 961 961 965 979 988 994 1001 1004 1004 1006 1007 1010 1011 1011 1011 1012 1012 1012 1012 1012 1012 1011 1006 1000 994 984 965 944 932 927 919 914 914 914 914 914 912 912 912 912 914 921 924 924 925 925 926 927 928 929 930 932 935 939 943 955 967 978 986 990 992 994 996 998 998 1000 1000 1000 1000 1000 1000 1000 999 999 998 997 996 996 996 995 994 994 993 993 993 993 990 988 987 986 986 986 986 986 980 975 973 969 969 969 968 964 962 962 962 961 961 960 960 960 960 959 957 956 956 955 954 952 952 950 950 948 946 943 943 943 950 952 953 954 0 0 0 0 0 0 0 0 0 0 0 0 0 0 0 0 0 0 0 0 0 0 0 0 0 0 0 0 0 0 0 0 0 0 0 0 0 935 935 932 929 928 928 928 931 931 931 930 929 929 924 924 923 922 922 0 0 0 0 0 0 0 0 0 0 0 0 0 0 0 0 0 0 0 0 0 0 0 0 912 912 908 906 897 896 895 895 894 894 895 896 896 896 895 892 890 890 890 890 890 890 890 889 888 888 887 885 885 885 885 886 886 886 886 882 882 882 887 892 892 0 0 0 0 0 0 0 0 0 0 0 0 0 0 0 0 0 0 0 0 0 0 0 0 0 0 0 0 0 0 0 0 0 0 0 0 0 0 0 0 0 0 0 0 0 0 0 0 0 0 0 0 0 0 0 0 0 0 0 0 0 0 0 0 0 0 0 0 0 0 0 0 0 0 0 0 0 0 0 0 0 0 0 0 0 891 898 899 909 918 918 920 924 926 933 938 940 943 950 959 964 964 965 967 971 976 979 984 994 1014 1040 1046 1054 1054 1054 1054 1049 1026 1010 0 0 0 0 774 774 774 797 797 797 797 774 774 774 802 819 819 829 831 832 832 831 829 825 813 809 809 809 825 838 838 838 801 0 0 0 0 794 783 783 0 0 0 0 0 0 0 768 797 825 825 825 811 811 0 0 0 0 0 810 810 810 825 825 825 822 795 766 752 730 719 712 659 659 659 0 0 0 0 0 0 0 0 0 0 0 0 0 0 0 0 0 0 0
752 752 754 769 781 801 821 841 859 877 895 912 925 935 946 950 975 0 0 1075 1099 1119 1142 1164 1174 1185 1195 1211 1225 1229 1239 1248 1253 1258 1263 1268 1273 1280 1286 1292 1297 1303 1307 1312 1317 1322 1327 1331 1336 1341 1344 1349 1353 1356 1359 1363 1366 1369 1372 1376 1378 1380 1382 1385 1386 1388 1389 1390 1391 1394 1396 1396 1396 1395 1391 1381 0 0 0 0 0 1090 1077 1075 1074 1072 1071 1069 1069 1068 1067 1067 1067 1066 1065 1065 1064 1063 1063 1062 1061 1061 1060 1059 1058 1054 1052 1048 0 0 0 863 850 841 838 837 828 828 828 832 834 838 851 857 859 859 859 859 861 863 865 865 866 868 888 0 0 993 1014 1029 1038 1042 1043 1043 1043 1043 1043 1043 1043 1043 1043 1041 1040 1039 1038 1038 1037 1036 1035 1034 1034 1032 1032 1031 1031 1030 1026 1017 1012 1006 990 954 928 918 915 913 913 913 927 950 954 957 964 978 980 981 981 990 999 1000 1000 1000 1000 1001 1004 1005 1006 1006 1005 1004 999 993 983 962 948 939 933 925 919 918 918 917 914 913 913 913 913 916 921 927 927 927 927 927 928 929 931 933 935 938 940 943 957 972 978 988 990 992 994 996 997 998 999 999 999 999 1000 999 999 999 998 998 997 996 996 995 995 994 993 993 993 992 992 990 988 987 986 986 984 984 983 980 977 974 971 970 969 968 961 961 961 962 962 962 960 960 960 960 958 957 956 956 955 954 952 952 950 950 950 947 944 944 944 953 955 955 955 0 0 0 0 0 0 0 0 0 0 0 0 0 0 0 0 0 0 0 0 0 0 0 0 0 0 0 0 0 0 0 0 0 0 0 0 0 931 931 928 927 918 918 917 917 918 919 924 924 924 923 923 922 922 922 918 918 917 0 0 0 0 0 0 0 0 0 0 0 0 0 0 0 0 0 0 0 911 911 912 911 907 906 897 896 895 895 895 895 895 896 896 896 895 892 890 890 890 891 891 891 891 890 890 889 889 886 886 886 886 886 886 886 884 881 881 881 887 893 0 0 0 0 0 0 0 0 0 0 0 0 0 0 0 0 0 0 0 0 0 0 0 0 0 0 0 0 0 0 0 0 0 0 0 0 0 0 0 0 0 0 0 0 0 0 0 0 0 0 0 0 0 0 0 0 0 0 0 0 0 0 0 0 0 0 0 0 0 0 0 0 0 0 0 0 0 0 0 0 0 0 0 0 0 0 892 908 910 923 932 938 940 941 942 946 949 954 961 967 973 977 977 978 978 980 983 989 995 1006 1027 1042 1048 1054 1054 1054 1054 1050 1032 1019 0 0 0 0 794 794 794 800 800 800 797 757 757 757 783 804 819 829 830 832 832 830 829 809 808 796 796 796 811 836 836 836 805 0 0 0 0 0 0 0 0 0 0 0 0 0 0 0 0 821 821 821 821 821 0 0 0 0 0 809 809 809 819 819 819 810 795 766 752 750 729 712 659 659 0 0 0 0 0 0 0 0 0 0 0 0 0 0 0 0 0 0 0 0
745 745 747 760 776 798 821 841 859 877 895 912 926 937 949 953 977 1012 1048 1075 1100 1125 1150 1167 1175 1182 1192 1205 1222 1226 1239 1248 1253 1256 1261 1267 1273 1280 1286 1292 1297 1302 1306 1311 1316 1320 1326 1331 1336 1341 1345 1349 1353 1357 1360 1363 1366 1369 1372 1376 1378 1381 1382 1385 1386 1387 1389 1390 1391 1394 1396 1396 1396 1394 1387 1362 0 0 0 0 1106 1082 1075 1074 1073 1072 1070 1069 1069 1067 1066 1066 1066 1065 1065 1065 1064 1063 1063 1062 1061 1061 1061 1060 1058 1054 1047 1034 0 0 0 863 850 843 842 841 840 833 833 833 834 838 851 859 860 860 861 863 864 866 867 869 870 871 915 944 973 994 1016 1031 1039 1042 1043 1044 1044 1044 1044 1044 1043 1043 1043 1042 1041 1040 1039 1038 1037 1036 1035 1035 1034 1033 1032 1031 1031 1030 1025 1014 1001 990 961 942 922 911 900 900 900 901 914 929 936 938 946 946 952 955 972 979 989 993 993 993 993 993 994 996 999 999 999 999 999 991 983 962 951 942 938 931 928 928 927 918 916 913 913 913 915 916 924 931 931 931 931 931 931 931 933 936 940 943 944 944 966 976 982 986 990 992 994 996 997 998 999 999 999 999 999 999 999 998 998 997 997 996 995 995 994 993 993 993 993 992 991 989 988 987 986 985 983 982 982 980 977 975 972 970 970 968 962 962 962 964 964 964 961 960 960 960 958 957 956 956 955 953 952 952 952 951 950 948 944 944 944 955 955 956 955 0 0 0 0 0 0 0 0 0 0 0 0 0 0 0 0 0 0 0 0 0 0 0 0 0 0 0 0 0 0 0 0 0 0 0 0 0 929 929 926 926 918 917 916 916 916 916 916 916 917 917 914 916 917 917 917 917 917 918 920 920 920 920 0 0 0 0 0 0 0 0 0 0 0 0 0 0 918 918 911 911 906 903 900 897 897 897 897 898 898 898 897 895 893 892 891 891 891 892 892 892 892 892 893 893 893 891 888 885 885 885 885 884 884 882 882 882 890 890 0 0 0 0 0 0 0 0 0 0 0 0 0 0 0 0 0 0 0 0 0 0 0 0 0 0 0 0 0 0 0 0 0 0 0 0 0 0 0 0 0 0 0 0 0 0 0 0 0 0 0 0 0 0 0 0 0 0 0 0 0 0 0 0 0 0 0 0 0 0 0 0 0 0 0 0 0 0 0 0 0 0 0 0 0 0 903 919 937 946 949 949 950 951 956 964 969 972 977 982 985 988 988 988 990 991 991 997 1004 1016 1031 1043 1046 1050 1053 1053 1053 1053 1049 1039 0 0 0 0 808 808 808 813 813 813 797 757 757 757 763 783 798 802 0 0 0 0 814 806 806 793 779 779 779 810 810 810 0 0 0 0 0 0 0 0 0 0 0 0 0 0 0 0 0 0 814 814 814 0 0 0 0 0 0 799 799 799 814 814 814 810 795 766 752 750 729 0 0 0 0 0 0 0 0 0 0 0 0 0 0 0 0 0 0 0 0 0 0 0
733 733 745 748 774 798 821 841 860 877 895 912 926 938 950 954 986 1024 1055 1079 1102 1133 1155 1167 1175 1182 1188 1199 1213 1217 1239 1248 1250 1253 1259 1266 1273 1279 1285 1291 1297 1302 1306 1311 1316 1320 1326 1331 1336 1341 1345 1350 1355 1357 1360 1363 1366 1369 1373 1376 1378 1381 1382 1385 1386 1387 1388 1389 1391 1393 1394 1394 1394 1390 1382 1354 0 0 0 0 1093 1075 1074 1073 1073 1072 1070 1069 1068 1067 1066 1066 1065 1065 1064 1064 1063 1063 1062 1062 1061 1061 1061 1060 1058 1050 1042 1022 0 0 0 861 850 848 845 845 845 840 837 837 837 841 853 860 862 864 865 866 866 869 870 871 871 906 930 955 981 1003 1017 1035 1039 1042 1043 1043 1044 1044 1044 1044 1044 1043 1043 1042 1041 1040 1039 1038 1037 1036 1035 1035 1035 1034 1032 1031 1030 1030 1025 1012 994 968 936 931 917 910 899 899 899 901 909 915 924 932 932 932 932 932 942 950 961 963 970 976 976 977 977 977 978 985 993 993 993 988 983 962 952 944 939 933 932 929 927 922 916 914 914 914 918 926 930 932 933 934 934 935 935 936 937 940 943 947 952 961 969 976 982 986 990 992 994 995 996 997 998 999 999 999 999 999 998 997 997 997 996 995 995 995 993 992 992 992 991 991 991 989 988 986 986 984 982 982 981 980 979 975 973 972 970 968 962 962 962 966 966 966 963 960 960 960 958 957 956 955 954 953 953 953 952 952 952 948 944 944 944 956 956 957 957 0 0 0 0 0 0 0 0 0 0 0 0 0 0 0 0 0 0 0 0 0 0 0 0 0 0 0 0 0 0 0 0 0 0 0 0 0 929 929 924 921 916 915 914 915 914 914 914 909 902 902 901 901 903 908 909 910 911 913 916 920 920 920 920 916 915 0 0 0 0 0 0 0 0 0 0 0 920 913 911 911 910 903 901 901 901 901 901 901 901 899 897 893 892 892 892 892 893 893 893 892 892 892 894 895 895 895 890 885 884 884 884 883 883 882 882 882 891 891 0 0 0 0 0 0 0 0 0 0 0 0 0 0 0 0 0 0 0 0 0 0 0 0 0 0 0 0 0 0 0 0 0 0 0 0 0 0 0 0 0 0 0 0 0 0 0 0 0 0 0 0 0 0 0 0 0 0 0 0 0 0 0 0 0 0 0 0 0 0 0 0 0 0 0 0 0 0 0 0 0 0 0 0 0 0 904 930 948 949 950 955 964 965 969 973 977 981 986 987 988 993 998 998 1000 1000 1000 1006 1015 1022 1032 1044 1046 1050 1051 1053 1053 1053 1049 1039 0 0 0 0 0 794 794 813 813 813 797 757 752 752 752 757 757 757 0 0 0 0 0 797 797 789 778 778 778 793 0 0 0 0 0 0 0 0 0 0 0 0 0 0 0 0 0 0 0 0 0 0 0 0 0 0 0 0 0 0 757 757 814 814 814 810 795 760 750 740 0 0 0 0 0 0 0 0 0 0 0 0 0 0 0 0 0 0 0 0 0 0 0 0
718 718 744 745 774 798 824 844 861 877 895 913 928 940 969 974 1012 1038 1058 1082 1110 1140 1160 1169 1175 1182 1188 1199 1209 1215 1221 1236 1242 1248 1257 1266 1273 1279 1285 1291 1297 1302 1306 1311 1316 1320 1326 1331 1336 1341 1345 1350 1355 1357 1360 1363 1366 1369 1374 1377 1380 1382 1383 1385 1386 1386 1387 1389 1389 1392 1392 1392 1390 1385 1372 1344 0 0 0 0 1080 1075 1074 1073 1073 1072 1070 1068 1068 1066 1066 1065 1064 1064 1064 1064 1063 1062 1062 1062 1061 1061 1061 1060 1053 1048 1039 0 0 0 879 861 854 854 853 853 853 849 843 843 843 847 857 865 866 868 868 869 869 870 870 871 876 907 934 958 994 1015 1028 1035 1039 1042 1043 1043 1044 1044 1044 1044 1044 1043 1043 1042 1041 1040 1039 1038 1038 1036 1036 1036 1035 1035 1033 1030 1029 1029 1024 1012 989 956 924 922 917 909 899 897 897 897 901 907 915 922 922 922 925 925 926 931 937 940 954 971 971 971 967 967 967 969 979 982 984 984 984 976 971 968 965 958 956 946 933 926 922 915 915 915 922 927 931 933 934 935 938 939 940 940 941 942 945 947 954 962 972 978 982 987 990 992 993 995 996 997 998 998 998 998 998 998 998 997 997 996 996 995 994 993 993 992 992 992 991 990 989 989 987 986 985 984 982 982 981 981 979 976 974 972 970 970 964 964 964 967 967 967 963 961 960 960 959 957 956 955 954 953 953 953 952 952 952 948 942 942 942 956 956 958 958 0 0 0 0 0 0 0 0 0 0 0 0 0 0 0 0 0 0 0 0 0 0 0 0 0 0 0 0 0 0 0 0 0 0 0 0 0 928 928 924 921 916 915 914 914 913 912 912 906 901 901 901 901 901 901 901 902 902 902 911 911 911 915 916 916 915 911 911 911 915 919 923 923 923 923 923 921 920 913 911 911 908 905 905 904 903 903 903 902 902 899 896 892 892 892 892 893 894 894 894 892 892 892 894 895 895 895 890 885 883 883 883 883 883 885 886 888 891 891 0 0 0 0 0 0 0 0 0 0 0 0 0 0 0 0 0 0 0 0 0 0 0 0 0 0 0 0 0 0 0 0 0 0 0 0 0 0 0 0 0 0 0 0 0 0 0 0 0 0 0 0 0 0 0 0 0 0 0 0 0 0 0 0 0 0 0 0 0 0 0 0 0 0 0 0 0 0 0 0 0 0 0 0 0 0 906 936 953 959 959 968 974 974 976 976 980 987 992 993 994 1003 1006 1006 1008 1008 1012 1018 1026 1032 1040 1048 1049 1050 1051 1053 1053 1053 1049 1040 0 0 0 0 0 793 793 813 813 813 797 757 752 750 749 749 749 726 694 694 0 0 0 767 767 767 767 760 752 751 0 0 0 0 0 0 0 0 0 0 0 0 0 0 0 0 0 0 0 0 0 0 0 0 0 0 0 0 0 0 0 0 814 845 845 845 796 760 0 0 0 0 0 0 0 0 0 0 0 0 0 0 0 0 0 0 0 0 0 0 0 0 0 0
717 717 743 745 772 798 827 851 871 885 897 915 934 950 970 979 1013 1040 1059 1083 1127 1149 1164 1171 1178 1183 1188 1199 1207 1214 1220 1229 1238 1248 1257 1266 1273 1279 1284 1291 1297 1302 1308 1312 1317 1321 1326 1331 1336 1341 1345 1350 1355 1357 1360 1363 1366 1370 1374 1377 1380 1383 1384 1385 1386 1386 1386 1386 1388 1389 1389 1389 1386 1380 1364 0 0 0 0 0 1080 1075 1074 1073 1073 1072 1068 1067 1067 1066 1065 1065 1064 1064 1064 1063 1063 1062 1062 1061 1061 1061 1060 1058 1053 1046 1034 0 0 0 872 863 859 859 859 859 859 856 852 852 852 854 863 867 868 870 870 872 872 872 872 873 878 909 941 969 997 1015 1029 1036 1039 1042 1043 1043 1044 1044 1044 1044 1044 1043 1043 1042 1041 1040 1039 1038 1038 1037 1036 1036 1035 1035 1033 1030 1029 1027 1024 1012 988 952 922 919 913 909 899 897 895 895 896 897 902 913 916 916 916 920 924 930 931 931 934 943 949 949 950 955 957 969 979 982 984 988 988 988 988 984 981 977 971 961 952 949 947 947 932 930 930 932 933 935 936 936 942 942 943 943 944 944 946 949 955 967 974 978 983 988 990 991 992 994 995 997 997 997 998 998 998 997 997 997 996 996 995 994 994 993 993 992 991 990 990 989 989 989 987 986 985 984 983 982 982 981 981 977 975 972 970 970 968 968 968 968 968 967 963 961 961 961 959 957 956 955 953 952 952 952 952 952 951 946 942 942 942 951 956 956 0 0 0 0 0 0 0 0 0 0 0 0 0 0 0 0 0 0 0 0 0 0 0 0 0 0 0 0 0 0 0 0 0 0 0 0 0 0 928 928 914 913 912 912 912 912 912 911 909 904 901 901 901 901 901 901 901 902 902 902 902 899 899 899 905 905 905 903 903 903 915 919 923 923 923 920 920 919 918 913 913 912 911 908 905 904 903 903 903 903 903 898 893 892 892 892 892 893 894 894 894 892 892 892 897 897 897 896 892 886 883 883 883 885 885 886 888 888 891 891 0 0 0 0 0 0 0 0 0 0 0 0 0 0 0 0 0 0 0 0 0 0 0 0 0 0 0 0 0 0 0 0 0 0 0 0 0 0 0 0 0 0 0 0 0 0 0 0 0 0 0 0 0 0 0 0 0 0 0 0 0 0 0 0 0 0 0 0 0 0 0 0 0 0 0 0 0 0 0 0 0 0 0 0 0 898 909 947 967 972 976 976 978 980 982 983 987 992 999 1004 1009 1009 1010 1010 1010 1014 1022 1027 1033 1041 1050 1050 1051 1051 1051 1053 1053 1053 1049 1039 0 0 0 0 0 0 793 802 802 802 760 759 754 752 750 747 738 726 694 694 694 0 0 767 767 767 767 755 0 0 0 0 0 0 0 0 0 0 0 0 0 0 0 0 0 0 0 0 0 0 0 0 0 0 0 0 0 0 0 0 0 0 0 0 0 0 0 0 0 0 0 0 0 0 0 0 0 0 0 0 0 0 0 0 0 0 0 0 0 0 0 0 0 0
717 717 743 745 772 798 827 857 882 903 916 926 939 951 975 985 1020 1041 1065 1091 1138 1157 1166 1171 1179 1183 1191 1199 1207 1214 1220 1229 1238 1248 1257 1266 1274 1279 1283 1289 1295 1302 1308 1313 1318 1321 1326 1331 1336 1341 1345 1351 1355 1358 1360 1364 1367 1371 1375 1378 1381 1383 1385 1385 1386 1386 1386 1386 1387 1389 1389 1389 1385 1373 1351 0 0 0 0 1095 1079 1073 1073 1073 1072 1071 1067 1066 1065 1065 1065 1064 1064 1063 1063 1062 1062 1062 1062 1061 1061 1060 1057 1054 1048 1042 0 0 0 885 872 864 863 863 863 863 863 860 857 857 857 860 866 867 869 870 871 874 875 877 878 880 881 916 947 972 1010 1025 1033 1036 1039 1040 1042 1043 1043 1044 1044 1044 1043 1043 1042 1042 1041 1040 1039 1038 1038 1037 1036 1035 1035 1035 1033 1030 1029 1026 1021 1009 987 951 921 912 911 909 900 898 897 896 897 897 902 904 906 908 912 919 923 923 923 923 923 926 931 936 946 953 957 969 979 982 984 992 995 995 995 994 993 989 983 981 979 974 973 971 964 959 956 951 951 951 951 951 948 947 946 946 946 946 948 949 959 966 972 976 984 989 989 990 992 993 995 995 996 997 997 997 997 997 996 996 996 996 995 994 993 993 992 991 991 990 989 989 988 988 987 986 985 984 983 983 982 982 981 979 975 972 970 970 968 968 968 968 968 967 963 961 961 961 959 956 954 953 951 951 951 951 951 951 949 944 941 941 941 951 956 956 0 0 0 0 0 0 0 0 0 0 0 0 0 0 0 0 0 0 0 0 0 0 0 0 0 0 0 0 0 0 0 0 0 0 0 0 0 0 926 926 907 905 905 905 907 908 908 908 906 904 901 901 901 902 902 902 902 902 900 900 899 898 897 896 896 896 896 898 899 901 904 919 919 919 919 919 919 919 918 913 912 912 911 908 905 904 904 904 903 903 902 898 895 895 895 895 895 895 895 895 895 892 892 892 897 897 897 896 892 886 886 886 886 887 887 888 888 888 891 0 0 0 0 0 0 0 0 0 0 0 0 0 0 0 0 0 0 0 0 0 0 0 0 0 0 0 0 0 0 0 0 0 0 0 0 0 0 0 0 0 0 0 0 0 0 0 0 0 0 0 0 0 0 0 0 0 0 0 0 0 0 0 0 0 0 0 0 0 0 0 0 0 0 0 0 0 0 0 0 0 0 0 0 0 891 908 931 953 979 986 989 989 991 992 994 995 998 1006 1009 1013 1013 1013 1012 1012 1012 1015 1025 1034 1041 1043 1052 1056 1058 1058 1058 1056 1055 1051 1048 1037 0 0 0 0 0 0 0 0 0 762 760 755 755 755 755 740 730 722 694 687 687 0 0 767 767 767 767 752 0 0 0 0 0 0 0 0 0 0 0 0 0 0 0 0 0 0 0 0 0 0 0 0 0 0 0 0 0 0 0 0 0 0 0 0 0 0 0 0 0 0 0 0 0 0 0 0 0 0 0 0 0 0 0 0 0 0 0 0 0 0 0 0 0 0
711 711 733 736 767 798 827 858 887 904 916 927 941 952 979 1008 1020 1054 1086 1112 1149 1162 1168 1173 1179 1183 1191 1199 1207 1215 1220 1229 1238 1248 1261 1270 1274 1279 1283 1288 1294 1302 1308 1313 1318 1323 1327 1332 1338 1343 1348 1353 1357 1359 1363 1366 1370 1373 1375 1378 1381 1384 1385 1386 1386 1386 1386 1386 1386 1387 1387 1387 1380 1362 1335 0 0 0 1115 1090 1078 1073 1070 1070 1069 1068 1066 1066 1065 1064 1064 1064 1063 1063 1062 1062 1062 1062 1061 1060 1059 1056 1053 1049 1045 1032 0 0 911 884 872 871 870 869 868 866 865 864 861 861 861 865 869 870 870 871 872 877 881 886 886 889 890 919 958 983 1015 1028 1034 1037 1039 1040 1041 1042 1043 1043 1043 1043 1043 1042 1042 1041 1041 1040 1039 1038 1038 1036 1036 1035 1035 1034 1032 1030 1029 1023 1015 997 971 939 912 911 911 908 902 901 901 898 898 898 902 904 906 908 910 915 917 917 917 917 917 918 923 935 945 951 956 969 986 989 991 998 1001 1001 1001 999 998 996 996 996 992 984 978 978 978 974 974 974 970 970 967 964 964 955 955 951 951 951 951 951 959 968 975 978 984 989 989 990 991 992 993 994 995 995 996 996 996 996 996 995 995 995 994 993 992 992 992 990 990 990 989 988 988 987 986 985 985 984 983 983 982 982 981 980 976 972 970 969 968 968 968 967 965 964 962 961 961 959 954 951 950 950 949 949 948 948 946 944 942 942 941 941 941 951 956 956 0 0 0 0 0 0 0 0 0 0 0 0 0 0 0 0 0 0 0 0 0 0 0 0 0 0 0 0 0 0 0 0 0 0 0 0 0 0 937 922 901 901 901 904 906 907 907 907 906 904 902 902 902 904 904 904 903 902 902 900 897 896 896 895 893 893 893 896 897 900 901 910 910 910 914 914 916 916 0 0 0 0 0 0 0 0 0 900 902 902 900 898 898 898 898 898 898 898 896 896 896 896 896 897 898 898 898 896 894 891 891 891 891 891 891 891 891 893 893 0 0 0 0 0 0 0 0 0 0 0 0 0 0 0 0 0 0 0 0 0 0 0 0 0 0 0 0 0 0 0 0 0 0 0 0 0 0 0 0 0 0 0 0 0 0 0 0 0 0 0 0 0 0 0 0 0 0 0 0 0 0 0 0 0 0 0 0 0 0 0 0 0 0 0 0 0 0 0 0 0 0 0 0 0 890 915 936 963 983 987 989 990 993 996 997 1000 1004 1006 1015 1019 1020 1020 1021 1023 1023 1024 1031 1036 1041 1045 1052 1059 1061 1061 1061 1056 1052 1050 1048 1024 0 0 0 0 0 0 0 0 0 725 730 752 755 755 755 739 728 717 700 687 687 687 0 771 771 771 771 752 0 0 0 0 0 0 0 0 0 0 0 0 0 0 0 0 0 0 0 0 0 0 0 0 0 0 0 0 0 0 0 0 0 0 0 0 0 0 0 0 0 0 0 0 0 0 0 0 0 0 0 0 0 0 0 0 0 0 0 0 0 0 0 0 0 0
702 702 729 731 765 798 828 858 887 904 916 927 942 953 979 1021 1026 1060 1103 1136 1157 1168 1173 1177 1180 1187 1193 1200 1209 1216 1221 1229 1240 1251 1263 1273 1276 1279 1283 1288 1294 1300 1308 1314 1318 1323 1327 1332 1339 1346 1351 1355 1359 1360 1363 1367 1371 1373 1376 1378 1381 1384 1385 1387 1387 1387 1387 1387 1387 1386 1385 1384 1371 1346 0 0 0 0 1098 1084 1077 1071 1068 1068 1067 1067 1066 1065 1064 1064 1063 1063 1063 1063 1062 1062 1061 1061 1061 1060 1058 1054 1051 1046 1035 1010 0 0 906 882 876 875 874 873 868 866 865 865 865 867 868 872 873 873 873 873 875 882 889 892 893 901 909 942 962 991 1016 1028 1034 1037 1039 1040 1041 1042 1043 1043 1043 1043 1043 1042 1042 1041 1040 1040 1039 1038 1038 1036 1036 1035 1034 1033 1032 1030 1029 1022 1008 988 960 928 912 911 910 908 906 905 904 901 901 901 902 904 906 908 910 915 917 917 917 917 917 918 922 934 944 948 957 970 986 996 1001 1002 1002 1002 1001 1000 999 998 998 996 994 991 990 987 986 986 986 984 983 983 981 980 979 972 971 970 970 964 959 959 959 970 977 979 984 989 989 990 991 991 992 993 994 994 994 994 994 994 994 994 994 994 994 992 991 991 991 990 989 988 988 987 986 986 985 985 983 983 983 983 982 982 981 980 978 972 970 969 969 969 967 966 964 961 959 958 957 952 951 950 950 950 949 948 946 946 943 941 940 940 939 940 940 951 955 0 0 0 0 0 0 0 0 0 0 0 0 0 0 0 0 0 0 0 0 0 0 0 0 0 0 0 0 0 0 0 0 0 0 0 0 0 0 928 928 913 901 901 901 904 906 906 906 906 906 904 902 902 902 904 904 904 903 902 900 899 896 895 895 895 893 893 893 894 896 899 901 902 902 907 908 909 915 915 0 0 0 0 0 0 0 0 0 0 0 0 0 0 898 898 898 898 898 898 898 898 898 897 897 898 898 898 898 898 896 894 891 891 891 891 891 890 889 889 888 0 0 0 0 0 0 0 0 0 0 0 0 0 0 0 0 0 0 0 0 0 0 0 0 0 0 0 0 0 0 0 0 0 0 0 0 0 0 0 0 0 0 0 0 0 0 0 0 0 0 0 0 0 0 0 0 0 0 0 0 0 0 0 0 0 0 0 0 0 0 0 0 0 0 0 0 0 0 0 0 0 0 0 0 0 892 916 943 971 988 989 992 994 994 1001 1005 1008 1008 1009 1016 1020 1020 1024 1025 1027 1028 1028 1032 1042 1044 1046 1052 1059 1061 1061 1061 1056 1051 1045 1026 0 0 0 0 0 0 0 0 0 0 709 730 754 755 755 755 736 727 718 717 700 700 700 734 771 771 771 771 752 0 0 0 0 0 0 0 0 0 0 0 0 0 0 0 0 0 0 0 0 0 0 0 0 0 0 0 0 0 0 0 0 0 0 0 0 0 0 0 0 0 0 0 0 0 0 0 0 0 0 0 0 0 0 0 0 0 0 0 0 0 0 0 0 0 0
700 700 728 730 0 0 0 859 887 904 916 931 942 963 1001 1036 1041 1070 1118 1144 1160 1169 1177 1180 1181 1188 1193 1200 1208 1217 1222 1235 1245 1252 1263 1274 1278 1281 1284 1288 1294 1300 1308 1314 1318 1323 1327 1333 1340 1347 1352 1356 1359 1362 1364 1367 1371 1374 1377 1378 1381 1384 1385 1388 1389 1389 1389 1388 1385 1382 1379 1376 1365 0 0 0 0 0 1086 1077 1072 1069 1068 1068 1067 1067 1066 1064 1064 1064 1063 1063 1062 1062 1062 1061 1061 1060 1059 1059 1057 1054 1050 1042 1030 997 0 925 898 882 878 877 875 875 869 867 867 867 873 878 879 879 879 875 874 874 875 882 889 892 899 908 935 974 983 1011 1035 1037 1038 1039 1039 1041 1041 1042 1043 1043 1043 1043 1043 1042 1041 1041 1040 1040 1039 1038 1037 1036 1035 1035 1034 1033 1030 1029 1027 1021 1002 977 948 928 912 911 910 908 907 907 905 903 902 902 902 904 905 908 910 915 917 917 917 917 917 917 922 930 938 944 958 973 986 996 1001 1002 1002 1002 1002 1002 1000 1000 999 998 996 996 996 992 990 990 989 989 989 986 986 985 983 980 975 973 973 971 965 965 965 974 977 979 984 988 989 990 990 991 991 992 992 992 993 993 993 993 993 993 993 993 993 992 991 990 990 989 988 987 987 987 986 986 985 985 983 983 983 980 980 980 980 980 978 973 970 969 969 969 967 966 963 960 956 953 952 951 950 950 950 950 949 948 946 944 941 939 939 938 939 940 945 953 953 0 0 0 0 0 0 0 0 0 0 0 0 0 0 0 0 0 0 0 0 0 0 0 0 0 0 0 0 0 0 0 0 0 0 0 0 0 0 927 927 908 901 901 901 905 905 905 905 904 904 903 902 902 902 904 904 904 903 900 898 896 896 895 895 895 894 894 894 894 895 897 899 900 900 901 901 909 909 909 0 0 0 0 0 0 0 0 0 0 0 0 0 0 0 0 0 0 0 898 898 898 898 898 899 899 899 899 899 898 896 894 891 891 891 891 891 890 890 890 885 0 0 0 0 0 0 0 0 0 0 0 0 0 0 0 0 0 0 0 0 0 0 0 0 0 0 0 0 0 0 0 0 0 0 0 0 0 0 0 0 0 0 0 0 0 0 0 0 0 0 0 0 0 0 0 0 0 0 0 0 0 0 0 0 0 0 0 0 0 0 0 0 0 0 0 0 0 0 0 0 0 0 0 0 0 892 916 946 974 990 995 996 997 1001 1009 1014 1017 1019 1020 1020 1022 1023 1027 1028 1029 1029 1033 1044 1044 1046 1047 1052 1059 1059 1059 1058 1050 1045 1038 0 0 0 0 0 0 0 0 0 0 688 709 746 751 751 751 731 715 715 714 711 707 707 707 734 771 771 771 771 728 723 719 0 0 0 0 0 0 0 0 0 0 0 0 0 0 0 0 0 0 0 0 0 0 0 0 0 0 0 0 0 0 0 0 0 0 0 0 0 0 0 698 698 695 0 0 0 0 0 0 0 0 0 0 0 0 0 0 0 0 0 0 0 0 0 0
700 700 728 729 0 0 0 869 887 901 916 931 945 973 1017 1041 1046 1072 1118 1144 1160 1169 1177 1180 1186 1188 1192 1199 1208 1217 1222 1235 1245 1252 1263 1274 1279 1282 1285 1289 1294 1300 1308 1315 1320 1325 1329 1335 1341 1347 1352 1356 1359 1362 1365 1368 1371 1375 1378 1380 1382 1384 1386 1388 1389 1389 1389 1388 1385 1380 1375 1370 1360 0 0 0 0 1101 1079 1070 1068 1068 1068 1068 1066 1065 1064 1064 1064 1063 1063 1063 1062 1061 1061 1060 1060 1059 1059 1058 1056 1054 1049 1042 1030 0 0 909 881 880 879 877 877 876 869 869 869 870 878 885 885 885 885 877 877 877 877 882 889 897 900 913 958 974 995 1015 1036 1038 1039 1039 1039 1041 1041 1042 1043 1043 1043 1043 1042 1042 1041 1041 1040 1039 1039 1038 1037 1036 1034 1034 1033 1031 1027 1025 1023 1016 997 973 939 928 916 912 910 908 908 907 907 904 900 900 900 904 905 908 912 914 916 916 916 916 916 917 920 928 936 944 961 977 986 996 1002 1002 1002 1002 1002 1002 1002 1001 1000 1000 999 999 997 997 994 994 993 992 992 989 989 988 988 988 985 981 980 980 977 976 976 976 979 980 983 985 987 989 990 990 990 991 991 992 992 992 992 992 992 992 992 992 992 991 990 989 988 988 987 986 986 986 985 985 985 985 983 983 982 980 980 979 979 979 978 974 970 969 968 968 967 965 963 960 956 953 952 951 951 951 951 951 951 949 946 944 941 938 935 935 935 944 955 956 956 0 0 0 0 0 0 0 0 0 0 0 0 0 0 0 0 0 0 0 0 0 0 0 0 0 0 0 0 0 0 0 0 0 0 0 0 0 0 925 925 906 902 902 902 903 903 903 902 902 902 902 900 900 900 900 900 900 900 899 896 895 894 894 894 894 894 894 894 894 894 896 897 898 898 898 902 909 909 909 0 0 0 0 0 0 0 0 0 0 0 0 0 0 0 0 0 0 0 0 0 0 0 0 0 0 899 899 899 898 896 894 893 892 892 891 891 891 891 891 887 0 0 0 0 0 0 0 0 0 0 0 0 0 0 0 0 0 0 0 0 0 0 0 0 0 0 0 0 0 0 0 0 0 0 0 0 0 0 0 0 0 0 0 0 0 0 0 0 0 0 0 0 0 0 0 0 0 0 0 0 0 0 0 0 0 0 0 0 0 0 0 0 0 0 0 0 0 0 0 0 0 0 0 0 0 896 917 955 977 990 995 997 999 1006 1018 1025 1030 1034 1035 1035 1035 1035 1035 1035 1038 1039 1043 1050 1053 1053 1053 1054 1059 1059 1059 1057 1046 1041 1033 0 0 0 0 0 0 0 0 664 664 664 707 730 739 739 739 706 693 693 693 716 716 722 722 726 750 750 750 750 728 724 723 0 0 0 0 0 0 0 0 0 0 0 0 0 0 0 0 0 0 0 0 0 0 0 0 0 0 0 0 0 0 0 0 0 0 0 0 0 666 666 689 695 695 698 0 0 0 0 0 0 0 0 0 0 0 0 0 0 0 0 0 0 0 0 0
700 700 728 729 0 0 0 869 886 901 916 932 952 986 1018 1041 1046 1074 1118 1144 1160 1169 1177 1180 1186 1188 1192 1199 1208 1217 1222 1235 1245 1252 1263 1274 1279 1284 1287 1290 1294 1300 1308 1315 1322 1327 1332 1336 1341 1348 1352 1356 1359 1362 1365 1369 1372 1376 1380 1382 1382 1384 1386 1388 1390 1390 1390 1388 1385 1380 1373 1364 1349 0 0 0 0 1085 1072 1070 1068 1068 1068 1067 1066 1065 1063 1063 1063 1062 1062 1062 1061 1061 1060 1059 1059 1058 1058 1057 1055 1052 1046 1039 1024 0 0 903 881 880 879 879 878 876 869 869 869 873 878 885 887 887 887 887 879 879 879 880 885 894 903 925 960 991 996 1019 1036 1039 1039 1040 1040 1041 1042 1042 1043 1043 1043 1042 1041 1041 1041 1040 1039 1039 1038 1037 1036 1035 1034 1033 1031 1028 1026 1025 1021 1008 995 973 939 928 921 915 910 908 908 908 908 905 900 900 900 904 906 909 912 914 916 916 916 916 916 918 920 925 936 944 966 983 986 996 1002 1002 1002 1003 1003 1003 1002 1002 1002 1002 1001 1000 1000 999 999 999 998 995 993 992 990 989 989 988 988 986 984 984 983 981 980 980 980 980 981 982 982 985 987 987 988 990 990 990 990 990 991 991 991 990 990 990 990 990 988 988 987 987 987 986 985 985 985 985 984 984 983 982 981 980 977 977 977 976 976 974 971 969 968 967 967 965 963 958 956 953 952 952 952 952 951 951 951 950 949 944 941 938 935 935 935 944 955 955 0 0 0 0 0 0 0 0 0 0 0 0 0 0 0 0 0 0 0 0 0 0 0 0 0 0 0 0 0 0 0 0 0 0 0 0 0 0 0 925 925 906 904 904 904 904 904 903 902 902 901 901 900 899 899 899 900 900 900 898 896 895 894 894 894 894 894 895 895 895 895 896 896 896 897 898 901 910 910 910 0 0 0 0 0 0 0 0 0 0 0 0 0 0 0 0 0 0 0 0 0 0 0 0 0 0 0 0 0 0 0 889 889 890 891 891 892 892 891 892 887 0 0 0 0 0 0 0 0 0 0 0 0 0 0 0 0 0 0 0 0 0 0 0 0 0 0 0 0 0 0 0 0 0 0 0 0 0 0 0 0 0 0 0 0 0 0 0 0 0 0 0 0 0 0 0 0 0 0 0 0 0 0 0 0 0 0 0 0 0 0 0 0 0 0 0 0 0 0 0 0 0 0 0 0 888 906 926 962 977 990 992 997 999 1006 1018 1025 1034 1034 1036 1041 1041 1041 1040 1040 1040 1042 1047 1053 1053 1054 1054 1058 1059 1059 1059 1057 1043 1028 0 0 0 0 0 0 0 0 685 664 664 664 706 730 730 730 726 693 693 693 693 722 722 725 726 727 737 741 741 737 728 725 723 0 0 0 0 0 0 0 0 0 0 0 0 0 0 0 0 0 0 0 0 0 0 0 0 0 0 0 0 0 0 0 0 0 0 0 0 666 666 666 689 693 693 693 0 0 0 0 0 0 0 0 0 0 0 0 0 0 0 0 0 0 0 0 0
700 700 728 729 0 0 0 869 885 900 919 938 961 988 1018 1042 1047 1077 1115 1142 1157 1165 1172 1180 1186 1188 1192 1198 1203 1211 1215 1230 1240 1250 1261 1272 1279 1284 1288 1292 1297 1304 1310 1318 1324 1329 1333 1337 1342 1348 1352 1356 1359 1362 1366 1370 1373 1377 1381 1382 1383 1384 1386 1388 1390 1390 1390 1389 1385 1380 1373 1361 0 0 0 0 0 1079 1071 1070 1068 1068 1067 1067 1066 1064 1063 1063 1063 1062 1061 1061 1061 1060 1060 1059 1058 1058 1057 1057 1053 1050 1046 1037 1018 0 0 903 885 885 883 883 883 877 872 872 872 874 878 885 887 890 890 890 886 885 885 885 885 894 903 927 965 993 1015 1026 1037 1039 1039 1040 1041 1041 1042 1042 1042 1042 1042 1042 1041 1041 1040 1039 1039 1038 1037 1037 1035 1034 1033 1032 1031 1028 1024 1020 1011 1001 993 962 939 928 921 916 912 909 909 908 908 908 904 904 904 904 906 909 912 915 915 915 916 916 916 918 920 925 936 946 970 989 992 996 1001 1002 1002 1003 1003 1003 1003 1003 1003 1002 1002 1000 1000 999 999 999 998 997 996 992 991 990 989 989 988 986 985 984 984 983 980 980 979 980 980 980 980 981 983 983 986 988 988 989 988 988 988 989 989 989 989 989 989 988 988 987 986 986 985 985 985 984 984 984 984 984 982 980 980 979 976 975 975 975 974 974 971 969 968 967 966 964 961 958 956 956 956 955 955 953 951 951 951 950 949 944 942 939 934 934 934 944 959 959 0 0 0 0 0 0 0 0 0 0 0 0 0 0 0 0 0 0 0 0 0 0 0 0 0 0 0 0 0 0 0 0 0 0 0 0 0 0 0 923 923 908 905 905 905 905 905 903 902 902 901 900 899 898 898 898 899 899 899 897 896 894 894 894 894 894 894 895 895 895 895 896 896 896 897 898 900 900 0 0 0 0 0 0 0 0 0 0 0 0 0 0 0 0 0 0 0 0 0 0 0 0 0 0 0 0 0 0 0 0 0 0 0 0 0 0 890 890 890 887 0 0 0 0 0 0 0 0 0 0 0 0 0 0 0 0 0 0 0 0 0 0 0 0 0 0 0 0 0 0 0 0 0 0 0 0 0 0 0 0 0 0 0 0 0 0 0 0 0 0 0 0 0 0 0 0 0 0 0 0 0 0 0 0 0 0 0 0 0 0 0 0 0 0 0 0 0 0 0 0 0 0 0 0 0 891 906 938 964 977 989 992 994 999 1006 1018 1025 1034 1036 1038 1042 1042 1042 1044 1044 1046 1049 1050 1053 1053 1054 1054 1058 1058 1058 1052 0 0 0 0 0 0 0 0 0 0 0 650 656 664 664 697 706 706 700 700 692 692 692 693 708 722 726 734 734 726 722 708 708 708 710 710 0 0 0 0 0 0 0 0 0 0 0 0 0 706 711 721 738 754 759 759 0 0 0 0 0 0 0 0 0 0 0 0 0 0 0 666 666 666 666 701 701 701 701 0 0 0 0 0 0 0 0 0 0 0 0 0 0 0 0 0 0 0 0 0
696 696 723 725 0 0 0 868 885 900 920 944 965 989 1017 1047 1054 1082 1114 1133 1146 1157 1165 1172 1175 1180 1186 1192 1199 1210 1215 1230 1239 1249 1261 1270 1278 1284 1289 1294 1299 1305 1312 1318 1324 1329 1333 1338 1343 1348 1352 1356 1359 1363 1366 1370 1374 1378 1381 1382 1384 1384 1386 1388 1390 1390 1390 1389 1385 1380 1373 1361 0 0 0 0 1099 1077 1071 1070 1068 1068 1067 1067 1066 1063 1063 1063 1062 1062 1061 1061 1061 1060 1059 1058 1057 1057 1056 1055 1052 1049 1045 1036 1006 0 0 903 894 894 894 892 892 891 882 877 876 876 876 880 885 890 890 890 887 886 885 885 885 896 904 928 973 1002 1020 1034 1037 1038 1039 1040 1041 1041 1042 1042 1042 1042 1042 1041 1041 1040 1040 1039 1039 1038 1036 1036 1034 1033 1033 1031 1029 1027 1023 1015 1008 1001 992 962 939 929 922 916 912 910 910 910 909 908 906 906 906 906 906 909 912 915 915 915 915 915 916 920 922 925 944 962 978 992 996 999 1001 1002 1002 1003 1003 1003 1003 1003 1003 1003 1003 1001 1000 1000 999 999 999 997 997 995 993 991 991 991 990 989 987 986 985 984 980 979 979 976 976 976 977 979 980 980 981 984 985 985 985 985 986 986 987 987 987 987 987 987 987 986 986 985 985 984 984 984 984 984 984 983 980 979 979 978 976 973 973 973 973 973 971 968 967 966 964 963 960 958 957 957 957 956 956 953 951 950 950 950 949 944 942 939 933 933 933 944 959 959 0 0 0 0 0 0 0 0 0 0 0 0 0 0 0 0 0 0 0 0 0 0 0 0 0 0 0 0 0 0 0 0 0 0 0 0 0 0 927 927 921 909 905 905 905 905 905 904 902 902 901 900 899 898 898 898 898 897 897 895 894 894 893 892 892 892 892 894 894 894 894 894 894 895 896 897 901 901 0 0 0 0 0 0 0 0 0 0 0 0 0 0 0 0 0 0 0 0 0 0 0 0 0 0 0 0 0 0 0 0 0 0 0 0 0 0 0 0 0 0 0 0 0 0 0 0 0 0 0 0 0 0 0 0 0 0 0 0 0 0 0 0 0 0 0 0 0 0 0 0 0 0 0 0 0 0 0 0 0 0 0 0 0 0 0 0 0 0 0 0 0 0 0 0 0 0 0 0 0 0 0 0 0 0 0 0 0 0 0 0 0 0 0 0 0 0 0 0 0 0 0 0 0 0 0 891 909 945 964 974 988 991 991 994 1001 1013 1025 1034 1036 1036 1042 1042 1042 1044 1044 1046 1050 1050 1050 1050 1052 1050 1050 1041 0 0 0 0 0 0 0 0 0 0 0 0 0 703 713 713 713 687 686 684 684 674 674 674 678 690 702 714 725 725 725 723 716 697 697 697 710 710 0 0 0 0 0 0 0 0 0 0 0 0 708 712 722 728 745 754 773 773 773 0 0 0 0 0 0 0 0 0 0 0 0 0 0 652 655 656 682 698 698 731 731 0 0 0 0 0 0 0 0 0 0 0 0 0 0 0 0 0 0 0 0 0
682 682 715 716 0 0 0 858 878 900 920 944 966 989 1018 1053 1058 1083 1108 1125 1139 1148 1156 1162 1167 1173 1179 1186 1194 1210 1214 1229 1239 1248 1257 1269 1278 1285 1289 1294 1300 1306 1312 1318 1324 1329 1333 1338 1343 1348 1352 1356 1359 1363 1366 1370 1375 1378 1381 1383 1385 1385 1386 1388 1390 1390 1390 1389 1385 1380 1371 1356 0 0 0 0 1089 1074 1071 1070 1070 1068 1067 1065 1064 1063 1063 1062 1062 1061 1061 1060 1060 1059 1058 1058 1056 1055 1055 1053 1051 1049 1045 1033 1006 0 0 910 900 896 896 896 896 896 890 882 880 880 877 877 880 885 888 889 889 888 885 885 885 899 923 950 981 1007 1026 1038 1038 1039 1039 1040 1041 1041 1042 1042 1042 1042 1041 1041 1040 1040 1039 1039 1038 1037 1036 1035 1034 1033 1032 1031 1029 1027 1023 1014 1008 997 983 957 939 929 923 917 912 911 910 910 909 909 907 907 907 907 909 912 914 915 915 915 915 915 916 923 926 926 945 967 984 994 997 999 1001 1001 1002 1003 1003 1003 1003 1004 1004 1003 1003 1002 1001 1001 1000 1000 999 998 997 997 995 993 991 991 990 989 989 988 986 984 980 979 978 974 971 966 966 966 969 974 976 977 978 978 980 980 980 982 984 985 985 985 985 985 985 985 984 984 984 984 984 984 983 983 983 982 979 979 978 978 975 971 971 971 971 971 969 968 967 966 964 962 960 958 957 957 957 957 956 953 951 950 948 947 946 944 942 939 931 931 931 948 959 0 0 0 0 0 0 0 0 0 0 0 0 0 0 0 0 0 0 0 0 0 0 0 0 0 0 0 0 0 0 0 0 0 0 0 0 0 0 0 924 924 916 909 906 906 905 905 905 904 902 902 901 900 899 898 897 897 896 896 896 895 894 894 892 891 891 891 891 892 893 894 894 894 894 895 897 898 902 0 0 0 0 0 0 0 0 0 0 0 0 0 0 0 0 0 0 0 0 0 0 0 0 0 0 0 0 0 0 0 0 0 0 0 0 0 0 0 0 0 0 0 0 0 0 0 0 0 0 0 0 0 0 0 0 0 0 0 0 0 0 0 0 0 0 0 0 0 0 0 0 0 0 0 0 0 0 0 0 0 0 0 0 0 0 0 0 0 0 0 0 0 0 0 0 0 0 0 0 0 0 0 0 0 0 0 0 0 0 0 0 0 0 0 0 0 0 0 0 0 0 0 0 0 0 0 883 891 915 945 964 974 987 989 991 993 1000 1005 1020 1032 1035 1036 1041 1041 1041 1044 1044 1046 1046 1046 1046 1044 1044 1042 0 0 0 0 0 0 0 0 0 0 0 0 0 0 0 703 713 713 713 684 684 681 679 676 676 676 678 690 693 714 744 744 744 744 708 692 692 667 692 692 678 678 704 0 0 0 0 0 0 0 0 717 717 724 728 728 745 761 763 769 769 769 0 0 0 0 0 0 0 0 0 0 0 0 0 631 648 656 682 682 682 731 0 0 0 0 0 0 0 0 0 0 0 0 0 0 0 0 0 0 0 0 0 0
676 676 703 706 0 0 0 843 869 896 920 944 968 989 1018 1056 1059 1084 1104 1119 1131 1141 1150 1156 1163 1169 1177 1186 1194 1207 1212 1229 1239 1248 1257 1269 1278 1285 1289 1295 1300 1306 1312 1318 1323 1329 1332 1338 1343 1348 1352 1356 1360 1363 1367 1371 1376 1379 1381 1383 1385 1387 1388 1388 1389 1389 1389 1386 1383 1376 1362 0 0 0 0 0 1080 1071 1070 1070 1070 1068 1067 1065 1064 1063 1063 1062 1061 1061 1060 1060 1059 1059 1058 1057 1056 1055 1054 1053 1051 1049 1045 1033 1006 0 0 0 917 902 902 898 897 897 892 887 884 881 880 880 880 885 888 889 889 889 889 889 891 900 932 968 990 1009 1028 1038 1038 1039 1039 1040 1041 1042 1042 1042 1042 1041 1041 1041 1040 1040 1039 1039 1038 1037 1036 1035 1034 1032 1031 1030 1029 1027 1022 1011 1000 990 976 957 943 934 923 917 912 911 910 910 909 909 907 907 907 907 912 915 916 916 916 915 915 915 917 925 927 928 948 976 988 994 997 999 1001 1001 1002 1003 1004 1004 1004 1004 1004 1004 1004 1003 1002 1002 1001 1000 999 998 998 997 995 994 992 991 990 989 989 988 986 983 979 979 978 973 965 961 961 961 967 970 972 973 973 975 975 977 977 981 982 983 983 983 983 983 983 983 983 984 984 984 983 983 983 983 983 982 979 976 975 974 972 970 969 969 968 968 968 968 967 966 963 961 959 958 957 957 957 957 956 953 951 949 947 945 942 941 939 934 931 931 931 948 948 0 0 0 0 0 0 0 0 0 0 0 0 0 0 0 0 0 0 0 0 0 0 0 0 0 0 0 0 0 0 0 0 0 0 0 0 0 0 0 915 915 909 909 907 904 904 904 904 904 904 902 899 899 898 897 897 896 895 895 895 894 893 893 892 889 889 889 890 891 892 893 893 893 894 895 895 902 902 0 0 0 0 0 0 0 0 0 0 0 0 0 0 0 0 0 0 0 0 0 0 0 0 0 0 0 0 0 0 0 0 0 0 0 0 0 0 0 0 0 0 0 0 0 0 0 0 0 0 0 0 0 0 0 0 0 0 0 0 0 0 0 0 0 0 0 0 0 0 0 0 0 0 0 0 0 0 0 0 0 0 0 0 0 0 0 0 0 0 0 0 0 0 0 0 0 0 0 0 0 0 0 0 0 0 0 0 0 0 0 0 0 0 0 0 0 0 0 0 0 0 0 0 0 0 872 887 898 925 950 964 974 985 986 990 993 999 1005 1012 1027 1034 1035 1036 1036 1038 1039 1040 1046 1046 1046 1039 1024 0 0 0 0 0 0 0 0 0 0 0 0 0 0 0 0 0 0 713 713 713 706 686 684 679 676 674 670 674 676 693 714 748 748 748 747 694 692 692 667 667 675 675 675 678 697 697 697 668 641 641 0 0 717 719 728 728 728 746 758 761 767 761 758 767 0 0 0 0 0 0 0 0 0 0 0 0 0 648 656 676 676 0 0 0 0 0 0 0 0 0 0 0 0 0 0 0 0 0 0 0 0 0 0 0 0
674 674 697 698 0 0 0 0 857 890 917 943 968 994 1028 1057 1063 1084 1100 1113 1123 1130 1141 1152 1161 1169 1177 1186 1194 1207 1212 1228 1239 1248 1257 1269 1278 1285 1292 1297 1302 1306 1312 1317 1322 1328 1332 1337 1343 1348 1352 1356 1360 1364 1367 1371 1376 1379 1381 1383 1386 1387 1388 1388 1388 1388 1387 1381 1376 1369 1347 0 0 0 0 1096 1072 1071 1070 1070 1070 1068 1067 1064 1063 1063 1062 1062 1061 1061 1060 1059 1059 1058 1058 1057 1056 1055 1054 1053 1051 1049 1045 1033 1017 999 0 0 0 0 0 909 904 901 901 892 892 891 890 888 888 888 889 890 890 891 893 893 896 912 947 972 991 1014 1033 1038 1038 1039 1039 1040 1041 1041 1041 1041 1041 1041 1041 1040 1040 1039 1039 1039 1037 1037 1036 1035 1033 1032 1031 1030 1028 1027 1020 1011 998 989 976 956 943 934 928 917 913 911 911 910 910 909 907 907 907 909 913 916 916 916 916 913 913 913 920 926 928 933 955 977 988 995 997 999 1001 1002 1002 1004 1004 1004 1005 1005 1004 1004 1004 1003 1002 1002 1001 1001 1000 998 998 997 996 994 992 991 990 989 989 988 986 983 979 978 974 965 963 959 959 959 959 964 965 965 971 971 971 974 974 974 975 977 977 979 980 980 981 981 981 982 982 982 983 983 983 982 982 982 979 972 971 971 967 967 967 968 968 968 968 968 967 965 963 961 959 958 958 957 957 957 956 953 951 948 947 945 942 939 935 934 931 931 931 949 949 0 0 0 0 0 0 0 0 0 0 0 0 0 0 0 0 0 0 0 0 0 0 0 0 0 0 0 0 0 0 0 0 0 0 0 0 0 0 0 909 909 909 908 907 904 904 904 904 904 904 901 899 897 897 897 896 895 895 895 894 893 892 892 890 889 889 889 890 891 892 893 894 894 894 895 895 902 902 0 0 0 0 0 0 0 0 0 0 0 0 0 0 0 0 0 0 0 0 0 0 0 0 0 0 0 0 0 0 0 0 0 0 0 0 0 0 0 0 0 0 0 0 893 889 887 881 881 881 883 0 0 0 0 0 0 0 0 0 0 0 0 0 0 0 0 0 0 0 0 0 0 0 0 0 0 0 0 0 0 0 0 0 0 0 0 0 0 0 0 0 0 0 0 0 0 0 0 0 0 0 0 0 0 0 0 0 0 0 0 0 0 0 0 0 0 0 0 0 0 0 0 0 855 861 872 890 918 942 953 966 974 982 982 983 991 999 1002 1008 1020 1029 1030 1035 1035 1036 1038 1038 1038 1037 0 0 0 0 0 0 0 0 0 0 0 0 727 727 722 0 0 0 0 0 0 713 713 713 706 706 706 705 705 699 676 676 676 693 728 747 747 747 747 694 694 694 667 667 675 675 0 710 710 710 697 668 641 641 641 0 717 719 728 729 729 761 761 761 761 759 758 759 0 0 0 0 0 0 0 0 0 0 0 0 0 0 0 0 0 0 0 0 0 0 0 0 0 0 0 0 0 0 0 0 0 0 0 0 0 0 0 0 0
666 666 694 698 0 0 0 0 848 883 911 940 968 995 1032 1058 1063 1084 1099 1110 1116 1124 1135 1149 1159 1169 1177 1186 1194 1207 1212 1225 1239 1248 1259 1271 1282 1291 1296 1300 1302 1306 1312 1317 1322 1326 1330 1335 1341 1347 1351 1356 1360 1364 1367 1371 1376 1379 1382 1383 1386 1387 1388 1388 1388 1388 1385 1380 1374 1365 1339 0 0 0 0 1087 1072 1069 1069 1068 1067 1067 1065 1064 1063 1062 1062 1061 1060 1060 1060 1059 1058 1058 1057 1056 1056 1055 1054 1053 1051 1049 1045 1038 1033 1026 1023 0 0 0 0 0 0 0 0 0 0 911 910 910 904 894 894 894 894 895 895 895 900 924 960 987 1003 1023 1036 1038 1038 1038 1039 1040 1041 1041 1041 1041 1041 1041 1041 1040 1040 1039 1039 1038 1037 1036 1035 1034 1033 1032 1031 1029 1026 1021 1018 1011 996 985 968 955 943 934 928 921 914 911 911 911 911 910 909 909 909 909 913 917 917 917 911 911 911 915 922 927 933 948 962 978 989 995 997 999 1001 1002 1003 1004 1004 1005 1005 1005 1005 1004 1004 1004 1003 1002 1001 1001 1000 999 998 997 996 994 993 992 990 989 989 986 985 982 978 971 969 963 959 957 955 954 954 955 957 960 963 963 963 963 964 966 971 972 973 977 979 979 979 979 979 979 980 980 981 981 981 981 981 981 979 971 971 971 967 967 967 968 968 968 968 967 966 965 962 959 959 959 959 959 959 958 956 953 951 948 946 945 942 938 936 936 936 940 943 945 0 0 0 0 0 0 0 0 0 0 0 0 0 0 0 0 0 0 0 0 0 0 0 0 0 0 0 0 0 0 0 0 0 0 0 0 0 0 0 0 920 909 909 908 907 904 904 904 903 903 903 900 899 897 897 896 896 894 894 893 892 892 891 891 889 889 889 889 890 891 892 893 896 896 896 896 896 902 902 0 0 0 0 0 0 0 0 0 0 0 0 0 0 0 0 0 0 0 0 0 0 0 0 0 0 0 0 0 0 0 0 0 0 0 0 0 0 0 0 0 0 0 886 886 886 883 881 881 881 883 884 885 885 885 887 886 883 0 0 0 0 0 0 0 0 0 0 0 0 0 0 0 0 0 0 0 0 0 0 0 0 0 0 0 0 0 0 0 0 0 0 0 0 0 0 0 0 0 0 0 0 0 0 0 0 0 0 0 0 0 0 0 0 0 0 0 0 0 0 0 0 0 855 857 862 873 891 922 946 959 968 974 976 978 981 986 996 1000 1004 1011 1021 1027 1027 1027 1027 1027 1013 1006 0 0 0 0 0 0 0 0 0 0 0 0 725 725 725 712 693 0 0 0 0 0 713 713 713 712 712 712 725 725 725 684 0 0 0 0 773 773 744 744 694 694 694 696 696 696 0 0 674 675 674 674 668 649 649 649 0 0 717 729 730 730 777 777 777 769 759 758 0 0 0 0 0 0 0 0 0 0 0 0 0 0 0 0 0 0 0 0 0 0 0 0 0 0 0 0 0 0 0 0 0 0 0 0 0 0 0 0 0 0
666 666 694 698 726 0 0 0 838 876 907 937 964 995 1035 1062 1065 1084 1096 1106 1112 1122 1135 1147 1159 1169 1180 1189 1196 1207 1212 1223 1235 1248 1259 1271 1282 1291 1296 1301 1303 1307 1312 1317 1322 1326 1330 1335 1340 1344 1351 1356 1361 1364 1367 1371 1375 1379 1382 1383 1386 1386 1386 1387 1387 1386 1384 1380 1374 1352 0 0 0 0 0 1082 1071 1069 1068 1066 1066 1065 1064 1063 1062 1062 1062 1061 1060 1060 1060 1058 1058 1058 1057 1056 1056 1055 1055 1053 1053 1050 1046 1045 1045 1044 1044 1042 1033 1022 0 0 0 0 0 0 0 0 0 927 918 911 907 903 901 900 900 901 908 935 967 997 1014 1027 1036 1038 1038 1038 1040 1040 1041 1041 1041 1041 1041 1041 1040 1039 1038 1038 1038 1037 1036 1035 1034 1034 1032 1031 1030 1028 1022 1016 1009 1002 993 962 947 943 939 934 928 923 920 916 916 914 913 912 911 911 911 911 914 914 914 914 911 911 911 916 925 928 938 953 966 981 993 997 999 1000 1001 1003 1004 1004 1005 1005 1005 1005 1005 1004 1004 1004 1003 1002 1002 1001 1000 999 998 997 996 994 994 992 991 989 988 985 983 980 975 969 968 960 956 954 954 954 954 954 956 960 961 961 961 961 961 965 966 968 971 974 976 978 978 979 978 978 979 979 979 979 980 980 980 980 980 971 971 971 967 967 967 968 968 968 968 966 965 965 962 962 962 962 962 962 961 961 959 955 951 948 946 945 942 938 938 938 942 943 945 945 0 0 0 0 0 0 0 0 0 0 0 0 0 0 0 0 0 0 0 0 0 0 0 0 0 0 0 0 0 0 0 0 0 0 0 0 0 0 0 920 920 910 909 909 909 905 904 903 903 903 903 900 899 897 897 896 895 894 893 891 890 890 890 890 889 889 889 889 891 891 892 894 896 896 896 896 896 899 899 0 0 0 0 0 0 0 0 0 0 0 0 0 0 0 0 0 0 0 0 0 0 0 0 0 0 0 0 0 0 0 0 0 0 0 0 0 0 0 0 0 0 0 884 884 883 878 872 870 870 870 883 885 885 885 887 886 883 883 881 881 0 0 0 0 0 0 0 0 0 0 0 0 0 0 0 0 0 0 0 0 0 0 0 0 0 0 0 0 0 0 0 0 0 0 0 0 0 0 0 0 0 0 0 0 0 0 0 0 0 0 0 0 0 0 0 0 0 0 0 0 0 0 856 857 862 873 893 922 948 959 969 975 976 978 978 986 994 997 998 1002 1009 1014 1024 1024 1024 1010 997 0 0 0 0 0 0 0 0 0 0 0 0 678 712 712 712 689 676 656 0 0 0 0 719 721 721 719 721 721 748 748 0 0 0 0 0 0 773 773 744 744 694 694 694 696 696 696 680 668 668 672 668 668 668 649 649 649 0 0 0 0 0 0 0 0 0 794 0 0 0 0 0 0 0 0 0 0 0 0 0 0 0 0 0 0 0 0 0 0 0 0 0 0 0 0 0 0 0 0 0 0 0 0 0 0 0 0 0 0 0 0
666 666 694 716 724 747 0 0 0 868 902 932 961 999 1035 1062 1069 1084 1095 1104 1112 1122 1135 1147 1158 1169 1181 1191 1198 1207 1217 1223 1232 1244 1259 1271 1282 1291 1296 1301 1305 1310 1313 1318 1322 1326 1330 1334 1339 1344 1348 1355 1362 1364 1367 1370 1373 1378 1382 1383 1384 1385 1386 1386 1386 1385 1384 1379 1373 1350 0 0 0 0 1091 1079 1071 1069 1068 1066 1065 1064 1064 1062 1062 1061 1061 1061 1060 1060 1059 1058 1058 1058 1057 1056 1056 1055 1055 1054 1053 1053 1050 1049 1048 1048 1047 1043 1038 1034 1033 1032 1025 1013 1006 1003 1002 998 0 0 0 925 915 915 915 917 918 918 937 946 975 1000 1015 1028 1036 1037 1038 1039 1040 1040 1041 1041 1041 1041 1040 1040 1040 1039 1038 1038 1037 1037 1036 1035 1033 1033 1032 1030 1030 1027 1021 1015 1004 995 982 951 934 930 929 929 927 923 920 919 918 917 916 915 915 915 915 915 917 917 917 914 914 914 918 925 928 930 939 958 974 984 994 1001 1002 1002 1003 1003 1004 1005 1005 1005 1005 1005 1005 1004 1004 1004 1003 1002 1002 1001 1000 999 998 997 996 994 994 992 991 989 986 984 981 976 970 965 962 957 953 952 952 952 952 952 955 957 957 957 955 954 953 953 953 957 961 966 969 970 972 975 975 975 972 972 972 972 973 976 976 977 978 978 978 972 972 972 971 971 970 967 967 962 961 959 959 960 961 965 965 965 961 961 960 956 952 949 947 945 942 938 938 938 944 945 945 945 0 0 0 0 0 0 0 0 0 0 0 0 0 0 0 0 0 0 0 0 0 0 0 0 0 0 0 0 0 0 0 0 0 0 0 0 0 0 0 917 917 910 909 909 909 906 904 904 904 903 903 900 899 897 896 896 895 893 892 890 889 889 889 888 889 889 889 889 891 892 894 895 896 896 896 896 896 898 0 0 0 0 0 0 0 0 0 0 0 0 0 0 0 0 0 0 0 0 0 0 0 0 0 0 0 0 0 0 0 0 0 0 0 0 0 0 0 0 0 0 0 0 883 883 883 878 872 870 870 870 873 875 876 876 877 877 879 879 880 881 881 881 881 881 878 878 0 0 0 0 0 0 0 0 0 0 0 0 0 0 0 0 0 0 0 0 0 0 0 0 0 0 0 0 0 0 0 0 0 0 0 0 0 0 0 0 0 0 0 0 0 0 0 0 0 0 0 0 0 0 0 856 857 861 869 876 893 922 949 961 969 975 976 978 978 986 991 992 994 995 996 1001 1010 1010 1010 994 0 0 0 0 0 0 0 0 0 0 0 642 646 661 695 695 695 670 656 652 0 0 0 0 729 746 746 746 746 746 748 748 0 0 0 0 0 0 0 773 738 738 699 698 697 696 696 685 682 682 669 669 668 668 668 649 629 628 0 0 0 0 0 0 0 0 0 0 0 0 0 0 0 0 0 0 0 0 0 0 0 0 0 0 0 0 0 0 0 0 0 0 0 0 0 0 0 0 0 0 0 0 0 0 0 0 0 0 0 0 344 0
680 680 695 717 719 744 771 0 0 0 0 932 961 999 1035 1062 1069 1084 1095 1103 1112 1122 1135 1147 1158 1171 1182 1191 1198 1208 1217 1223 1232 1244 1255 1268 1280 1290 1296 1302 1308 1312 1316 1320 1322 1327 1330 1334 1339 1343 1348 1355 1362 1365 1367 1370 1373 1376 1379 1382 1382 1383 1386 1386 1386 1383 1383 1379 1370 1337 0 0 0 0 1085 1075 1071 1069 1067 1066 1064 1064 1063 1062 1062 1061 1061 1060 1059 1059 1058 1058 1058 1057 1057 1056 1056 1055 1055 1054 1054 1053 1052 1051 1051 1051 1050 1047 1044 1042 1041 1039 1036 1033 1026 1025 1021 1010 1006 1005 0 0 0 958 956 955 954 954 956 958 983 1000 1018 1031 1037 1037 1038 1039 1040 1040 1040 1040 1040 1040 1040 1040 1039 1039 1038 1037 1037 1036 1035 1034 1033 1032 1031 1030 1030 1027 1021 1012 999 986 962 932 926 926 926 926 926 923 921 919 918 918 918 918 918 920 921 921 921 921 919 917 917 917 924 930 932 936 955 969 979 990 998 1002 1002 1003 1003 1003 1004 1005 1005 1005 1005 1005 1005 1004 1004 1003 1002 1002 1002 1001 1000 998 998 996 996 994 994 992 991 989 986 984 981 976 968 962 960 955 951 951 950 950 950 952 955 955 955 953 949 949 949 949 949 950 957 963 968 969 970 975 975 975 970 970 970 971 972 973 973 977 978 978 978 974 972 972 972 971 971 966 966 962 961 959 959 961 961 965 965 965 962 961 960 956 952 949 948 947 945 942 942 942 945 945 947 947 0 0 0 0 0 0 0 0 0 0 0 0 0 0 0 0 0 0 0 0 0 0 0 0 0 0 0 0 0 0 0 0 0 0 0 0 0 0 0 920 915 910 909 909 909 908 906 905 904 903 902 899 898 897 896 895 894 892 891 889 889 888 887 887 887 887 889 889 891 893 894 895 895 895 895 895 896 894 0 0 0 0 0 0 0 0 0 0 0 0 0 0 0 0 0 0 0 0 0 0 0 0 0 0 0 0 0 0 0 0 0 0 0 0 0 0 0 0 0 0 0 0 883 883 882 878 872 870 870 870 873 875 875 875 876 876 877 878 878 878 880 880 880 881 880 880 878 878 876 876 875 0 0 0 0 0 0 0 0 0 0 0 0 0 0 0 0 0 0 0 0 0 0 0 0 0 0 0 0 0 0 0 0 0 0 0 0 0 0 0 0 0 0 0 0 0 0 0 0 0 0 856 857 864 869 876 894 922 949 962 973 977 978 978 981 988 990 990 991 991 992 1000 1000 1000 991 972 0 0 0 0 0 0 0 0 0 0 624 627 646 661 695 695 695 670 658 658 0 0 0 0 732 761 761 761 760 760 748 748 748 685 685 685 0 0 0 0 717 716 699 698 697 685 685 682 675 675 669 669 669 677 677 677 643 629 0 0 0 0 0 0 0 0 0 0 0 0 0 0 0 0 0 0 0 0 0 0 0 0 0 0 0 0 0 0 0 0 0 0 0 0 0 0 0 0 0 0 0 0 0 0 0 0 0 0 0 330 344 0
694 694 706 718 719 744 768 0 0 0 0 932 961 999 1031 1055 1069 1079 1090 1101 1112 1124 1137 1148 1158 1172 1182 1191 1200 1208 1218 1223 1232 1244 1255 1267 1277 1288 1296 1303 1310 1315 1318 1320 1323 1327 1331 1334 1339 1343 1348 1355 1362 1365 1368 1370 1373 1376 1378 1380 1381 1382 1386 1386 1386 1383 1383 1371 1354 0 0 0 0 1105 1081 1072 1069 1068 1066 1065 1064 1064 1063 1062 1061 1061 1060 1060 1059 1058 1058 1058 1057 1057 1056 1056 1056 1055 1054 1054 1054 1054 1052 1051 1051 1051 1050 1047 1045 1044 1043 1043 1043 1042 1041 1039 1036 1025 1022 1019 1019 1011 1008 999 988 987 987 987 987 987 1005 1018 1027 1035 1037 1037 1038 1039 1040 1040 1040 1040 1040 1040 1040 1039 1039 1038 1037 1036 1036 1035 1035 1034 1033 1032 1031 1030 1028 1023 1020 1012 999 976 943 932 926 926 926 926 926 924 922 919 918 918 918 918 922 924 926 926 926 925 924 923 923 923 929 936 941 956 970 978 983 991 999 1004 1004 1004 1004 1004 1004 1005 1005 1005 1005 1005 1005 1004 1003 1002 1002 1002 1001 1000 999 998 997 996 995 993 992 992 990 987 985 981 978 971 962 959 957 953 951 948 948 948 948 949 952 952 952 950 947 947 947 944 944 944 952 961 965 966 967 969 969 969 969 969 969 971 971 972 972 976 977 977 977 976 972 972 972 972 972 966 966 962 961 959 959 961 966 966 966 964 962 961 958 957 952 951 950 949 949 948 946 946 946 947 947 947 0 0 0 0 0 0 0 0 0 0 0 0 0 0 0 0 0 0 0 0 0 0 0 0 0 0 0 0 0 0 0 0 0 0 0 0 0 0 927 912 905 905 905 907 907 907 906 905 903 902 900 898 898 897 896 894 894 892 891 889 888 887 887 887 887 887 888 888 891 893 895 895 895 895 896 896 897 897 0 0 0 0 0 0 0 0 0 0 0 0 0 0 0 0 0 0 0 0 0 0 0 0 0 0 0 0 0 0 0 0 0 0 0 0 0 0 0 0 0 0 0 0 878 878 878 878 877 874 873 873 873 875 875 875 876 876 877 877 877 877 878 879 879 879 878 878 878 878 878 878 879 879 879 878 0 0 0 0 0 0 0 0 0 0 0 0 0 0 0 0 0 0 0 0 0 0 0 0 0 0 0 0 0 0 0 0 0 0 0 0 0 0 0 0 0 0 0 0 0 0 0 856 857 864 869 876 896 927 950 967 974 977 978 981 985 991 991 991 991 990 989 989 988 983 983 961 0 0 0 0 0 0 0 0 0 623 623 627 646 661 695 695 695 670 670 0 0 0 729 734 737 761 761 761 760 756 744 728 699 699 699 708 719 719 719 713 712 697 697 693 693 685 685 680 0 0 0 0 674 695 695 695 674 655 0 0 0 0 0 0 0 0 0 0 0 0 0 0 0 0 0 0 0 0 0 0 0 0 0 0 0 0 0 0 0 0 0 0 0 0 0 0 0 0 0 0 0 0 0 0 0 0 0 0 0 321 341 0
703 703 710 718 719 744 768 797 0 0 0 0 976 1004 1031 1052 1068 1072 1086 1099 1112 1128 1146 1157 1166 1175 1182 1191 1200 1208 1222 1227 1237 1246 1255 1266 1276 1287 1294 1303 1310 1315 1318 1322 1325 1328 1331 1335 1339 1343 1349 1357 1363 1366 1368 1370 1373 1376 1378 1379 1380 1382 1386 1386 1386 1382 1381 1368 1339 0 0 0 0 1097 1079 1072 1069 1068 1066 1065 1064 1064 1063 1062 1061 1061 1060 1060 1059 1058 1058 1058 1057 1057 1056 1056 1055 1054 1054 1054 1054 1054 1053 1051 1051 1051 1050 1048 1046 1045 1044 1043 1043 1043 1043 1043 1043 1037 1032 1032 1031 1028 1028 1026 1017 1017 1017 1020 1021 1022 1026 1033 1035 1037 1038 1038 1038 1039 1040 1040 1040 1040 1040 1040 1039 1039 1038 1038 1037 1036 1036 1035 1034 1034 1033 1032 1031 1029 1026 1022 1016 1009 988 962 943 932 926 926 926 926 926 924 922 918 916 916 916 919 924 927 928 929 929 929 929 929 929 929 932 939 951 968 981 981 984 992 1000 1004 1004 1005 1005 1005 1005 1005 1005 1005 1005 1005 1004 1004 1002 1002 1002 1001 1000 1000 999 998 997 995 994 992 991 991 988 986 984 980 974 965 954 953 953 950 948 946 945 945 946 946 947 947 947 947 947 947 946 943 943 943 950 959 961 961 963 963 963 965 966 967 968 972 972 972 971 971 971 975 975 0 0 0 0 0 970 966 966 962 962 962 962 964 966 966 966 964 961 961 958 957 952 952 951 951 949 948 948 948 948 951 951 948 0 0 0 0 0 0 0 0 0 0 0 0 0 0 0 0 0 0 0 0 0 0 0 0 0 0 0 0 0 0 0 0 0 0 0 0 0 922 922 904 904 904 904 905 906 906 906 905 903 900 899 898 898 897 896 894 893 892 890 889 888 887 886 886 885 885 885 886 891 893 894 894 895 894 895 896 897 897 0 0 0 0 0 0 0 0 0 0 0 0 0 0 0 0 0 0 0 0 0 0 0 0 0 0 0 0 0 0 0 0 0 0 0 0 0 0 0 0 0 0 0 878 878 878 878 878 877 877 877 877 877 877 876 876 876 876 877 877 877 877 877 878 878 878 877 877 876 875 875 876 881 881 881 880 878 874 870 868 868 0 0 0 0 0 0 0 0 0 0 0 0 0 0 0 0 0 0 0 0 0 0 0 0 0 0 0 0 0 0 0 0 0 0 0 0 0 0 0 0 0 0 855 857 864 867 876 896 927 960 967 974 978 978 984 989 991 991 991 990 989 989 988 983 982 981 0 0 0 0 0 0 0 0 0 0 618 618 627 646 676 700 700 700 693 693 0 0 745 746 746 746 752 752 752 752 747 744 722 700 700 700 709 719 719 719 712 711 680 680 680 664 664 701 664 0 0 0 0 0 697 697 697 697 0 0 0 0 0 0 0 0 0 745 697 734 0 0 0 0 0 0 0 0 0 0 0 0 0 0 0 0 0 0 0 0 0 0 0 0 0 0 0 0 0 0 0 0 0 0 0 0 0 0 0 0 321 341 0
705 705 719 723 724 746 768 797 827 0 0 0 976 1004 1030 1048 1066 1069 1084 1096 1112 1134 1153 1166 1177 1185 1191 1194 1203 1212 1222 1227 1237 1246 1255 1264 1276 1285 1294 1303 1310 1315 1320 1325 1328 1330 1333 1336 1340 1346 1353 1358 1363 1366 1368 1371 1374 1376 1378 1379 1380 1382 1386 1386 1386 1382 1381 1365 1325 0 0 0 0 1088 1078 1072 1069 1068 1066 1065 1064 1064 1063 1062 1061 1061 1060 1059 1058 1058 1057 1057 1057 1056 1055 1055 1055 1054 1054 1054 1054 1054 1053 1052 1051 1051 1050 1048 1047 1046 1045 1044 1043 1043 1043 1043 1043 1043 1043 1041 1037 1033 1033 1032 1030 1028 1028 1028 1030 1032 1033 1033 1035 1037 1038 1038 1038 1039 1039 1040 1040 1040 1040 1039 1039 1038 1037 1037 1037 1036 1036 1035 1034 1034 1033 1032 1030 1029 1025 1021 1014 1002 978 960 942 934 931 930 929 929 927 926 922 917 917 917 917 920 924 927 929 931 931 932 932 932 933 933 933 940 952 969 983 990 991 996 1001 1004 1004 1005 1005 1005 1005 1005 1005 1005 1005 1004 1003 1003 1002 1001 1001 1000 1000 999 998 997 997 995 994 992 991 989 987 984 983 978 972 961 949 948 947 945 944 944 944 943 942 942 942 943 944 944 944 944 944 943 943 943 949 957 958 958 958 958 958 961 963 964 964 965 966 970 970 970 971 974 0 0 0 0 0 0 0 0 0 0 0 960 962 964 966 966 966 961 961 958 958 958 957 954 953 953 949 948 948 948 948 951 951 948 0 0 0 0 0 0 0 0 0 0 0 0 0 0 0 0 0 0 0 0 0 0 0 0 0 0 0 0 0 0 0 0 0 0 0 0 0 918 918 903 902 902 902 902 904 904 904 904 902 900 899 898 898 897 896 894 893 891 890 888 888 887 886 886 885 885 885 885 889 892 894 894 894 894 894 894 900 894 0 0 0 0 0 0 0 0 0 0 0 0 0 0 0 0 0 0 0 0 0 0 0 0 0 0 0 0 0 0 0 0 0 0 0 0 0 0 0 0 0 0 0 881 881 878 878 878 877 877 877 880 880 880 877 877 877 877 876 876 876 875 875 875 875 877 877 877 873 873 873 875 879 880 881 880 879 878 872 868 868 868 868 0 0 0 0 0 0 0 0 0 0 0 0 0 0 0 0 0 0 0 0 0 0 0 0 0 0 0 0 0 0 0 0 0 0 0 0 0 0 0 0 0 861 864 866 876 896 928 960 969 974 976 979 988 991 991 991 991 991 990 989 988 983 980 0 0 0 0 0 0 0 0 0 0 618 618 618 627 646 676 700 722 722 729 733 739 758 758 758 757 755 752 746 746 747 744 744 713 695 695 695 718 724 724 724 712 711 680 680 0 690 0 0 0 0 0 0 0 0 0 0 0 0 0 0 0 0 0 0 0 0 723 723 697 705 705 0 0 0 0 0 0 0 0 0 0 0 0 0 0 0 0 0 0 0 0 0 0 0 0 0 0 0 0 0 0 0 0 0 0 0 0 0 0 0 321 344 0
