400 400 401 412 0 0 0 0 0 0 0 0 0 0 0 0 0 0 0 0 0 0 1193 1212 1232 1251 1266 1275 1281 1283 1292 1303 1317 1339 1366 1375 0 0 0 0 0 0 0 0 0 0 0 1079 1101 1134 1148 1155 1166 1179 1191 1191 1191 0 0 0 0 942 920 912 912 912 912 912 912 912 912 913 914 915 916 917 917 919 919 920 921 921 922 923 925 925 926 927 928 929 930 931 932 933 933 934 934 935 938 938 0 0 0 0 0 0 0 0 0 0 0 0 0 0 0 0 0 0 0 0 0 0 0 0 0 0 0 0 0 0 0 0 0 0 0 0 0 0 0 0 0 0 931 937 937 931 931 931 925 913 913 913 916 916 916 916 916 923 929 929 929 908 908 908 927 929 940 940 940 931 931 931 952 952 952 952 951 951 951 952 954 959 959 959 959 949 931 920 914 914 914 919 922 922 922 917 911 907 907 907 908 912 916 917 917 918 918 921 923 923 923 923 924 924 924 924 924 925 929 935 942 955 964 973 981 988 990 995 1000 1004 1004 1005 1006 1009 1009 1011 1012 1013 1013 1013 1013 1013 1013 1013 1014 1014 1017 1017 1017 1017 1017 1017 1017 1017 1016 1015 1014 1012 1010 1008 1004 1001 997 993 987 986 986 986 986 986 985 985 984 983 983 983 983 984 984 984 984 984 985 986 987 989 990 990 992 996 1002 1006 1015 1023 1027 1034 1038 1041 1044 1047 1049 1051 1053 1054 1055 1056 1057 1058 1059 1059 1059 1060 1061 1061 1062 1063 1063 1064 1065 1066 1066 1066 1066 1065 1064 1064 1061 1058 1053 1047 1038 1029 1024 1022 1021 1019 1017 1016 1014 1014 1013 1012 1012 1012 1012 1012 1012 1012 1012 1013 1013 1014 1017 1019 1021 1023 1027 1037 1051 1061 1066 1075 1080 1085 1088 1092 1093 1095 1097 1098 1099 1100 1101 1101 1102 1102 1103 1104 1104 1104 1105 1105 1105 1105 1105 1104 1104 1103 1102 1100 1099 1096 1086 1065 1043 1036 1034 1032 1026 1021 1018 1016 1015 1015 1015 1014 1013 1013 1013 1013 1013 1013 1013 1013 1013 1013 1014 1019 1034 1061 1084 1107 1117 1122 1126 1131 1133 1136 1139 1141 1143 1144 1145 1146 1147 1148 1148 1150 1151 1152 1153 1153 1153 1154 1154 1155 1156 1157 1158 1159 1159 1160 1162 1163 1164 1165 1166 1166 1167 1169 1170 1170 1171 1171 1172 1172 1172 1173 1173 1173 1173 1173 1173 1173 1174 1174 1174 1174 1174 1174 1174 1174 1174 1169 1167 0 0 0 981 956 938 938 938 957 0 0 0 1131 1192 1230 1230 1230 1218 1209 1209 1209 1213 1213 1213 1206 1196 1196 1196 1199 1204 1204 1204 1199 1181 1158 1153 1152 1151 1147 1134 1130 1123 1115 1104 1088 1059 1059 1055 1037 1024 1015 1014 0 0 0 0 0 0 0 0 617 617 617 630 630 630 620 600 589 589 589 600 600 601 612 624 629 639 0 0 732 732 732 702 672 640 640 639 625 612 612 612 615 627 643 653 708 710 710 710 701 687 687 676 676 676 639 619 619 619 621 626 626 626 626 590 575 575 575 595 612 0 0 712 712 712 701 681 0 0 585 585 585 585 585 0 0 0 0 445 445 445 445 444 388 388 388 408 409 0 0 0 0 0 0
410 410 412 415 433 0 0 0 0 0 0 0 0 0 0 0 0 0 0 0 0 0 1193 1212 1226 1242 1257 1271 1280 1283 1292 1303 1319 1339 1366 1376 1378 1378 1378 1374 1361 0 0 0 1121 1121 1117 1117 1117 1141 1153 1159 1166 1185 1197 1197 1197 0 0 0 0 943 921 912 912 912 912 912 912 912 912 913 914 915 916 916 917 918 919 919 921 921 922 923 924 925 926 927 928 929 930 931 932 933 933 935 935 936 937 937 0 0 0 0 0 0 0 0 0 0 0 0 0 0 897 897 923 926 926 926 926 926 925 925 0 0 0 0 881 882 0 0 0 0 0 0 0 0 0 887 890 920 923 928 930 930 936 936 936 929 927 926 0 0 0 0 0 0 0 0 0 0 0 0 0 0 0 0 0 0 0 0 0 0 0 0 0 0 0 0 0 0 962 962 962 950 931 920 913 913 912 911 911 911 911 911 911 907 907 907 908 910 911 913 914 915 918 920 922 922 922 922 922 922 923 923 923 925 929 934 941 951 964 972 981 988 993 996 1000 1004 1006 1007 0 0 0 1012 1013 1013 1013 1013 1014 1014 1014 1014 1016 1016 1017 1018 1018 1018 1018 1018 1018 1018 1017 1016 1015 1012 1010 1007 1004 1001 998 991 986 985 985 984 984 984 983 983 982 981 980 980 980 981 982 982 983 983 983 984 986 988 989 990 991 994 1000 1006 1014 1021 1026 1033 1038 1041 1044 1046 1048 1051 1052 1053 1054 1055 1057 1057 1058 1059 1059 1060 1061 1061 1062 1063 1063 1064 1064 1065 1065 1065 1065 1065 1064 1063 1061 1057 1053 1047 1038 1029 1024 1021 1021 1019 1017 1015 1014 1013 1013 1012 1012 1012 1012 1012 1012 1012 1012 1013 1013 1014 1015 1016 1017 1018 1023 1034 1051 1057 1066 1073 1080 1084 1087 1091 1093 1094 1095 1096 1098 1099 1100 1100 1100 1102 1102 1103 1103 1103 1104 1104 1104 1104 1104 1104 1103 1102 1101 1100 1099 1095 1085 1065 1045 1036 1035 1032 1026 1022 1018 1016 1015 1015 1015 1014 1012 1012 1012 1012 1012 1013 1013 1013 1015 1016 1016 1019 1034 1061 1083 1106 1116 1121 1123 1129 1132 1135 1137 1140 1141 1142 1143 1145 1146 1147 1148 1149 1150 1151 1151 1153 1153 1153 1153 1154 1155 1156 1157 1157 1158 1159 1161 1162 1163 1164 1164 1166 1167 1167 1168 1169 1170 1171 1171 1171 1172 1172 1172 1172 1173 1173 1173 1173 1173 1173 1173 1173 1174 1174 1174 1174 1174 1171 1167 1158 0 0 0 0 0 0 0 0 0 0 0 0 0 1229 1229 1229 1208 1208 1208 1209 1211 1211 1211 1202 1199 1199 1199 1208 1208 1208 1208 1199 1181 1158 1153 1152 1151 1147 1141 1131 1124 1116 1106 1089 1079 1073 1070 1043 1024 0 0 0 0 0 0 0 0 0 0 0 0 0 0 0 0 0 0 0 600 600 601 601 617 619 625 634 0 0 0 0 0 0 686 646 640 640 639 632 626 626 0 0 0 0 0 0 0 0 0 0 0 0 0 0 0 0 0 0 635 634 634 627 626 625 0 575 575 575 595 612 0 0 0 0 0 0 0 0 0 0 0 0 0 0 0 0 0 0 0 0 0 0 0 0 0 0 0 0 0 0 0 0 0 0
427 427 427 427 433 0 0 0 0 0 0 0 0 0 0 0 0 0 0 0 0 0 1194 1212 1226 1242 1255 1269 1280 1283 1292 1303 1319 1334 1352 1372 1378 1378 1378 1375 1361 0 0 0 1122 1122 1118 1118 1118 1143 1155 1164 1174 1196 1201 1201 1201 0 0 0 0 943 921 913 912 912 912 912 912 912 912 913 914 914 915 916 917 918 918 919 920 921 921 922 923 924 926 927 928 929 930 931 932 933 933 934 934 935 935 935 0 0 0 0 0 0 914 905 905 900 900 900 899 897 897 897 915 917 924 925 926 926 925 925 0 0 0 0 881 882 887 899 899 899 881 881 881 882 882 887 890 900 901 903 914 926 936 942 946 951 951 0 0 0 0 0 0 0 0 0 0 0 0 0 0 0 0 0 0 0 0 0 0 0 0 0 0 0 0 0 0 0 966 966 966 954 931 920 913 912 912 911 911 911 911 911 911 907 907 907 908 909 911 912 914 915 918 919 920 920 920 920 920 920 922 923 923 925 927 933 941 950 962 972 981 991 993 996 1000 1005 1006 0 0 0 0 0 1013 1014 1014 1015 1015 1016 1016 1016 1018 1018 1018 1018 1018 1018 1018 1018 1018 1018 1017 1016 1015 1012 1010 1007 1003 1001 998 991 986 985 985 984 984 983 982 981 979 979 978 978 978 979 980 980 980 981 981 983 985 987 988 989 991 993 997 1004 1012 1018 1024 1031 1036 1040 1044 1046 1048 1050 1051 1053 1054 1055 1056 1056 1058 1059 1059 1060 1060 1061 1062 1062 1063 1063 1064 1065 1065 1065 1065 1064 1064 1063 1059 1056 1052 1046 1038 1029 1024 1021 1020 1017 1016 1014 1014 1013 1013 1012 1012 1012 1012 1012 1012 1012 1012 1013 1013 1014 1015 1016 1017 1018 1023 1030 1040 1053 1064 1072 1079 1084 1086 1089 1092 1093 1095 1096 1097 1098 1100 1100 1100 1101 1101 1102 1102 1102 1103 1103 1103 1103 1103 1103 1103 1102 1100 1100 1098 1093 1084 1065 1046 1036 1035 1032 1026 1022 1019 1017 1016 1015 1015 1013 1012 1012 1012 1012 1013 1013 1013 1015 1018 1019 1020 1024 1034 1061 1076 1100 1113 1119 1122 1129 1132 1134 1136 1138 1140 1141 1143 1143 1144 1146 1146 1148 1149 1150 1150 1151 1151 1151 1152 1153 1154 1155 1155 1156 1157 1158 1159 1160 1161 1163 1163 1165 1166 1166 1168 1169 1169 1170 1170 1171 1171 1171 1171 1172 1172 1172 1172 1172 1173 1173 1173 1173 1173 1173 1174 1174 1174 1171 1168 1161 0 0 0 0 0 0 0 0 0 0 0 0 0 1221 1221 1221 1210 1210 1210 1214 1214 1214 1204 1195 1195 1195 1204 1208 1208 1208 1208 1199 1181 1158 1152 1152 1152 1147 1141 1131 1127 1118 1109 1092 1082 1074 1070 1051 0 0 0 0 0 0 0 0 0 0 0 0 0 0 0 0 0 0 0 0 0 601 601 601 620 628 629 649 0 0 0 0 0 0 667 644 640 640 640 645 651 660 0 0 0 0 0 0 0 0 0 0 0 0 0 0 0 0 0 0 0 658 655 639 636 0 0 0 579 579 595 0 0 0 0 0 0 0 0 0 0 0 0 0 0 0 515 504 504 0 0 0 0 0 0 0 0 0 0 0 0 0 0 0 0 0
441 441 438 441 442 452 0 0 0 0 0 0 0 0 0 0 0 0 0 0 0 0 1199 1215 1226 1242 1255 1269 1278 1282 1293 1308 1319 1334 1352 1369 1376 1376 1376 1376 1361 0 0 0 1122 1122 1122 1122 1127 1144 1158 1171 1189 1206 1206 1206 1201 0 0 0 0 943 921 913 913 912 911 911 911 912 912 912 914 914 915 916 917 918 918 918 919 920 921 922 923 924 926 927 928 929 930 930 931 933 933 934 934 934 934 934 0 0 0 0 0 920 914 905 905 900 900 899 897 896 895 895 895 895 895 895 896 899 899 899 892 869 869 869 881 881 881 878 875 875 875 878 881 882 882 882 879 879 879 896 912 923 936 945 957 957 957 0 0 0 0 0 0 0 0 0 0 0 0 0 0 0 0 0 0 0 0 0 0 0 0 0 0 0 0 0 0 0 972 972 972 963 941 925 913 912 912 911 911 911 911 911 911 907 907 907 908 909 910 912 913 915 918 919 920 920 920 920 920 920 922 923 924 925 927 933 940 949 959 968 981 991 994 997 1000 1004 1004 0 0 0 0 0 0 1014 1014 1016 1016 1017 1017 1017 1018 1018 1018 1018 1018 1018 1018 1018 1018 1018 1017 1016 1014 1012 1010 1007 1003 1001 998 991 985 983 982 982 982 981 980 979 978 978 977 977 977 977 978 978 978 979 980 981 983 985 987 988 989 991 994 1003 1011 1014 1022 1030 1035 1039 1043 1045 1047 1049 1050 1052 1053 1055 1056 1056 1057 1058 1059 1059 1060 1060 1061 1062 1063 1063 1063 1064 1064 1064 1064 1064 1063 1062 1058 1056 1051 1042 1036 1029 1023 1020 1019 1016 1015 1014 1014 1013 1013 1012 1012 1012 1012 1012 1012 1012 1012 1013 1013 1014 1015 1016 1017 1018 1023 1028 1035 1050 1063 1072 1078 1080 1086 1089 1091 1093 1093 1095 1096 1097 1098 1098 1100 1100 1101 1101 1102 1102 1102 1103 1103 1103 1103 1103 1102 1102 1100 1100 1098 1093 1084 1070 1047 1036 1034 1031 1026 1022 1019 1017 1016 1015 1015 1015 1012 1012 1012 1012 1014 1015 1015 1016 1018 1020 1023 1027 1036 1062 1071 1091 1112 1116 1122 1128 1132 1134 1135 1137 1139 1140 1141 1141 1142 1144 1146 1146 1148 1148 1149 1149 1150 1150 1151 1152 1152 1153 1153 1155 1155 1156 1157 1159 1160 1160 1162 1163 1165 1166 1166 1168 1169 1169 1170 1170 1171 1171 1171 1172 1172 1172 1172 1172 1172 1172 1172 1173 1173 1173 1173 1173 1171 1170 1169 1163 1155 0 0 0 0 0 0 0 0 0 0 0 0 1209 1209 1209 1210 1210 1218 1218 1218 1209 1195 1194 1194 1194 1204 1206 1206 1206 1199 1187 1176 1158 1152 1152 1152 1147 1142 1138 1127 1119 1114 1114 1107 1095 1081 0 0 0 0 0 0 0 0 0 0 0 0 0 0 0 0 0 0 0 0 0 0 0 610 610 632 643 644 666 0 0 0 0 0 0 656 644 644 644 656 661 0 0 0 0 0 0 0 0 0 0 0 0 0 0 0 0 0 0 0 0 0 0 0 0 0 0 0 0 0 0 0 0 0 0 0 0 0 0 0 0 0 0 0 0 0 502 502 502 513 526 0 0 0 0 0 0 0 0 0 0 0 0 0 0 0 0
456 456 455 455 455 455 470 0 0 0 0 0 0 0 0 0 0 0 0 0 0 0 1203 1217 1229 1242 1255 1268 1277 1282 1296 1309 1324 1334 1352 1369 1376 1376 1376 1375 1360 0 0 0 1122 1122 1122 1122 1128 1145 1163 1181 1196 1212 1212 1212 1201 0 0 0 0 940 921 913 913 911 911 911 911 911 912 912 913 914 915 916 916 916 917 918 919 920 921 922 923 924 925 926 927 928 930 930 931 932 933 933 934 934 934 934 934 0 0 927 923 916 899 886 883 882 879 879 873 872 869 869 869 868 869 869 870 874 874 874 869 868 868 866 867 866 865 865 858 856 856 856 862 865 869 870 872 873 879 895 909 922 933 947 957 957 0 0 0 0 0 0 0 0 0 0 0 0 0 0 0 0 0 0 0 0 0 0 0 0 0 0 0 0 0 0 0 0 974 974 972 963 946 925 913 913 913 913 913 913 913 912 911 909 908 908 908 909 910 912 913 915 918 918 918 918 919 919 919 920 922 924 924 926 927 933 940 946 954 966 980 991 995 998 1000 1003 1003 0 0 0 0 0 0 0 1014 1017 1017 1017 1017 1017 1017 1018 1018 1018 1018 1018 1018 1018 1017 1017 1017 1014 1013 1012 1010 1007 1003 1001 996 990 985 981 980 980 980 980 978 977 976 976 976 976 976 976 976 976 976 976 977 980 981 983 985 987 988 990 993 1000 1004 1011 1021 1029 1034 1037 1042 1044 1046 1048 1050 1052 1053 1054 1055 1056 1057 1057 1058 1059 1059 1060 1060 1061 1062 1062 1063 1064 1064 1064 1064 1064 1063 1062 1058 1056 1051 1042 1036 1030 1021 1020 1019 1016 1015 1014 1013 1013 1013 1013 1013 1013 1013 1012 1012 1012 1012 1013 1014 1016 1017 1017 1018 1019 1024 1028 1033 1049 1061 1070 1076 1080 1084 1088 1091 1091 1093 1095 1095 1097 1097 1098 1098 1099 1100 1101 1101 1101 1101 1101 1102 1102 1101 1101 1101 1100 1100 1100 1097 1093 1084 1072 1051 1036 1033 1028 1025 1023 1020 1018 1017 1016 1016 1015 1013 1013 1013 1016 1018 1018 1018 1019 1020 1023 1028 1035 1050 1062 1071 1086 1108 1115 1122 1126 1130 1132 1134 1135 1137 1138 1139 1139 1140 1142 1143 1144 1145 1146 1146 1147 1148 1148 1149 1150 1150 1151 1152 1153 1154 1155 1156 1157 1158 1159 1160 1162 1163 1164 1165 1166 1167 1168 1169 1169 1170 1170 1171 1171 1172 1172 1172 1172 1172 1172 1172 1172 1172 1172 1172 1172 1170 1170 1170 1170 1157 1130 1089 0 0 0 0 0 0 0 0 0 0 0 1193 1193 1195 1207 1218 1218 1218 1202 1187 1187 1187 1194 1194 1194 1194 1191 1188 1187 1176 1158 1152 1152 1152 1147 1143 1138 1127 1122 1116 1114 1111 1096 1081 0 0 0 0 0 0 0 0 0 0 0 0 0 0 0 0 0 0 0 0 0 0 0 0 633 633 643 667 672 0 0 0 0 0 0 642 642 642 647 662 0 0 0 0 0 0 0 0 0 0 0 0 0 0 0 0 0 0 0 0 0 0 0 0 0 0 0 0 0 0 0 0 0 0 0 750 750 750 0 0 0 0 0 0 0 0 493 493 493 513 526 0 0 0 0 0 0 0 0 0 0 0 0 0 0 0 0
467 467 467 467 466 466 466 0 0 0 0 0 0 0 0 0 0 0 0 0 0 1183 1204 1222 1235 1245 1257 1269 1280 1284 1296 1309 1325 1341 1355 1369 1376 1376 1376 1374 1359 0 0 0 1122 1120 1120 1122 1132 1152 1173 1185 1197 1214 1214 1214 1200 0 0 0 0 939 917 913 913 911 910 910 910 911 912 912 912 914 915 915 916 916 916 918 919 920 920 921 922 922 922 923 924 927 927 929 929 932 932 932 933 935 935 935 935 0 930 925 920 911 895 877 866 861 860 860 857 854 846 844 844 844 847 848 851 853 855 857 857 858 858 858 858 858 857 856 855 855 855 856 862 865 865 867 870 872 879 891 908 922 933 947 0 0 0 0 0 0 0 0 0 0 0 0 0 0 0 0 0 0 0 0 0 0 0 0 0 0 0 0 0 0 0 0 0 0 0 974 972 963 946 925 913 913 913 913 913 913 913 911 910 909 909 909 909 909 910 912 913 915 916 917 917 917 918 919 919 920 922 925 926 926 926 931 940 944 953 964 980 991 995 997 999 1002 0 0 0 0 0 0 0 0 0 0 0 0 0 0 0 0 0 1015 1016 1017 1017 1017 1016 1015 1015 1013 1012 1011 1009 1007 1003 999 995 990 984 980 979 978 977 977 977 976 976 976 975 975 975 975 975 975 975 975 976 978 980 982 984 986 988 989 993 999 1003 1010 1019 1027 1033 1037 1041 1044 1045 1048 1049 1051 1053 1053 1054 1055 1056 1057 1057 1058 1059 1060 1060 1060 1061 1062 1062 1063 1063 1063 1063 1063 1062 1061 1058 1056 1051 1042 1036 1030 1021 1020 1019 1016 1014 1013 1013 1013 1013 1013 1013 1013 1013 1013 1014 1014 1014 1014 1015 1016 1018 1018 1018 1022 1026 1028 1033 1047 1058 1067 1075 1080 1083 1087 1089 1091 1092 1093 1094 1096 1096 1097 1097 1098 1099 1099 1100 1100 1100 1101 1101 1101 1100 1100 1100 1100 1099 1098 1097 1093 1088 1079 1061 1039 1033 1028 1025 1023 1020 1018 1017 1016 1016 1015 1015 1015 1017 1022 1022 1024 1025 1026 1026 1029 1033 1041 1050 1062 1063 1082 1100 1110 1119 1125 1129 1131 1132 1133 1135 1136 1137 1138 1138 1139 1140 1141 1142 1143 1145 1145 1145 1147 1147 1147 1147 1150 1150 1150 1151 1152 1154 1155 1157 1158 1160 1161 1162 1163 1164 1165 1166 1168 1168 1169 1169 1169 1170 1170 1171 1171 1171 1171 1172 1172 1172 1172 1172 1172 1172 1172 1170 1170 1170 1169 1162 1141 1123 1101 0 0 0 0 0 0 0 0 0 0 0 0 1195 1210 1218 1218 1218 1202 1185 1185 1185 1190 1190 1190 1187 1187 1186 1181 1176 1161 1157 1155 1155 1150 1143 1139 1139 1133 1123 1118 1111 1096 0 0 0 0 0 0 0 821 820 808 0 0 0 0 0 0 0 0 0 0 0 0 0 0 0 0 647 647 667 0 0 0 0 0 0 0 0 638 638 649 0 0 0 0 0 0 0 0 0 0 0 0 0 0 0 0 0 0 0 0 0 0 0 0 0 0 0 0 0 0 0 0 0 0 0 727 752 752 752 737 0 0 0 0 0 0 0 0 488 488 513 0 0 0 0 0 0 0 0 0 0 0 0 0 0 0 0 0
467 467 467 467 467 481 481 0 0 0 0 0 0 0 0 0 0 0 0 0 0 1183 1204 1222 1235 1245 1258 1270 1281 1285 1297 1313 1330 1347 1361 1372 1381 1381 1381 1374 0 0 0 0 1122 1121 1121 1122 1143 1161 1176 1186 1198 1218 1218 1218 1199 0 0 0 0 935 913 910 910 910 910 910 910 911 911 912 912 913 915 915 916 916 916 918 919 919 920 921 922 922 922 922 924 926 927 928 929 930 931 932 933 935 935 935 935 0 930 925 920 911 894 875 860 855 852 848 847 845 842 842 842 844 844 845 846 848 854 857 857 858 858 858 857 857 856 856 854 854 854 856 861 863 863 866 870 872 879 891 901 915 929 929 0 0 0 0 0 0 0 0 0 0 0 0 0 0 0 0 0 0 0 0 0 0 0 0 0 0 0 0 0 0 0 0 0 0 0 0 970 960 946 926 913 913 913 913 913 913 913 911 910 909 909 909 909 909 910 912 913 914 915 915 915 916 918 918 919 920 922 925 926 926 926 931 939 944 953 964 975 988 995 995 997 997 0 0 0 0 0 0 0 0 0 0 0 0 0 0 0 0 0 0 1015 1017 1017 1017 1015 1015 1014 1013 1012 1011 1009 1007 1003 999 994 990 984 980 979 978 977 976 976 976 975 975 975 975 974 974 974 974 974 975 976 977 979 980 982 984 986 988 993 999 1003 1010 1018 1024 1029 1036 1041 1043 1045 1047 1048 1050 1052 1053 1054 1055 1056 1057 1057 1057 1058 1059 1060 1060 1060 1062 1062 1062 1062 1062 1062 1062 1062 1060 1058 1056 1053 1044 1038 1030 1021 1021 1020 1017 1014 1013 1013 1013 1013 1013 1013 1013 1014 1014 1015 1015 1015 1015 1016 1017 1018 1018 1021 1024 1027 1028 1033 1044 1055 1062 1074 1079 1082 1086 1089 1089 1091 1092 1093 1094 1095 1095 1096 1097 1098 1098 1099 1099 1099 1099 1100 1100 1100 1100 1099 1099 1098 1097 1096 1093 1088 1079 1067 1046 1033 1028 1025 1025 1023 1020 1017 1017 1017 1018 1019 1019 1021 1025 1028 1029 1029 1030 1030 1033 1037 1044 1052 1061 1063 1076 1095 1109 1116 1122 1126 1128 1128 1131 1132 1133 1134 1136 1136 1137 1138 1139 1140 1140 1143 1143 1144 1145 1145 1145 1145 1149 1149 1149 1149 1150 1152 1154 1156 1157 1158 1160 1161 1162 1163 1164 1165 1166 1166 1168 1168 1168 1169 1169 1170 1170 1170 1171 1171 1171 1171 1171 1172 1172 1172 1172 1171 1170 1170 1169 1166 1151 1140 1130 0 0 0 0 0 0 0 0 0 0 0 0 0 1230 1230 1230 1218 1200 1182 1182 1182 1183 1183 1183 1183 1183 1182 1180 1176 1162 1160 1159 1157 1157 1157 1156 1154 1153 1140 1125 1111 1097 0 0 0 0 0 850 834 827 823 823 827 0 0 0 0 0 0 0 0 0 0 0 0 0 0 0 0 0 0 0 0 0 0 0 0 0 0 0 0 0 0 0 0 0 0 0 0 1164 1164 1185 1185 1185 0 0 0 0 0 0 0 0 0 0 0 0 0 0 0 0 0 0 0 0 0 0 727 742 742 742 740 722 0 0 0 0 0 0 0 0 0 0 0 0 0 0 0 0 0 0 0 0 0 0 0 0 0 0 0 0
467 467 467 470 470 473 473 473 0 0 0 0 0 0 0 0 0 0 0 0 1149 1183 1204 1222 1235 1245 1258 1270 1284 1288 1305 1324 1338 1350 1362 1372 1381 1381 1381 1362 0 0 0 1139 1122 1122 1122 1132 1156 1170 1182 1195 1213 1223 1223 1223 1199 1158 0 0 0 935 913 909 909 909 909 910 910 911 911 912 912 913 914 915 916 916 916 918 918 919 920 921 921 922 922 922 923 925 927 928 929 929 930 931 933 935 935 935 0 0 930 925 920 911 891 875 860 855 852 848 847 845 842 842 842 844 844 845 846 848 854 857 857 858 858 858 857 857 856 856 855 855 855 857 861 863 863 866 869 872 879 886 897 915 928 928 0 0 0 0 0 0 0 0 0 0 0 0 0 0 0 0 0 0 0 0 0 0 0 0 0 0 0 0 0 0 0 0 0 0 0 0 958 958 945 926 913 913 913 912 912 912 912 910 909 909 909 909 909 909 910 911 912 914 915 915 915 916 917 918 919 920 922 925 926 926 926 931 937 943 953 964 975 988 0 0 0 996 0 0 0 0 0 0 0 0 0 0 0 0 0 0 0 0 0 0 1015 1017 1017 1017 1015 1015 1014 1013 1012 1011 1009 1007 1003 999 994 989 984 980 978 978 976 976 976 975 975 975 974 974 973 973 973 973 973 975 976 977 977 978 981 983 985 988 992 997 1002 1006 1017 1023 1028 1035 1040 1042 1044 1046 1048 1050 1051 1053 1053 1054 1054 1055 1057 1057 1058 1058 1059 1060 1060 1061 1061 1062 1062 1062 1062 1062 1062 1060 1058 1056 1053 1049 1041 1030 1023 1023 1021 1017 1014 1013 1013 1013 1013 1013 1014 1014 1015 1016 1016 1016 1016 1017 1017 1018 1018 1019 1023 1026 1029 1031 1033 1044 1053 1062 1072 1078 1082 1085 1088 1088 1089 1091 1092 1093 1093 1094 1094 1095 1096 1097 1097 1098 1098 1098 1098 1098 1098 1098 1098 1097 1097 1096 1094 1091 1088 1081 1069 1046 1036 1030 1028 1028 1028 1027 1023 1022 1022 1022 1022 1022 1025 1031 1035 1036 1037 1037 1037 1039 1041 1046 1052 1061 1063 1076 1095 1107 1114 1118 1122 1124 1126 1129 1130 1131 1131 1132 1133 1134 1135 1137 1138 1138 1139 1140 1141 1143 1143 1144 1145 1145 1147 1147 1147 1147 1150 1153 1154 1155 1158 1159 1160 1161 1162 1163 1164 1166 1166 1167 1167 1168 1168 1169 1169 1169 1170 1170 1170 1170 1171 1171 1171 1172 1172 1172 1171 1171 1171 1170 1170 1162 1148 1140 1119 0 0 0 0 0 0 0 0 0 0 0 0 1230 1230 1230 1218 1197 1182 1178 1178 1178 1181 1181 1181 1181 1181 1180 1176 1162 1160 1159 1159 1159 1158 1158 1158 1153 1151 1144 1126 1097 0 0 0 0 831 829 829 829 835 841 0 0 0 0 0 0 0 0 0 0 0 0 0 0 0 0 0 0 0 0 0 0 0 0 0 0 0 0 0 0 0 0 0 0 1177 1177 1190 1190 1190 1190 1190 1188 1164 1129 0 0 0 0 0 0 0 0 0 0 0 0 820 820 846 0 0 0 0 746 746 739 739 739 737 717 0 0 0 0 0 0 0 0 0 0 0 0 0 0 0 0 0 0 0 0 0 0 0 0 0 0 0 0
462 462 462 470 470 470 470 470 0 0 0 0 0 0 0 0 0 0 0 0 1150 1176 1199 1217 1231 1244 1257 1268 1284 1288 1305 1324 1341 1352 1362 1373 1377 1377 1377 1352 0 0 0 1139 1125 1125 1125 1145 1165 1176 1188 1205 1220 1222 1222 1222 1199 1158 0 0 0 935 913 908 908 908 909 909 910 911 911 911 912 913 914 915 916 917 917 918 918 919 919 919 920 922 922 922 923 925 927 929 930 930 0 0 0 0 0 0 0 0 0 926 921 911 890 871 858 855 852 848 847 845 844 844 844 844 845 845 846 848 854 858 859 859 859 858 857 857 856 855 855 855 856 860 861 863 863 865 867 870 877 880 891 913 927 0 0 0 0 0 0 0 0 0 0 0 0 0 0 0 0 0 0 0 0 0 0 0 0 0 0 0 0 0 0 0 0 0 0 0 0 0 958 958 945 926 917 914 913 913 912 910 910 908 907 907 907 909 909 909 910 911 912 913 914 915 915 916 917 918 919 920 922 924 924 924 925 927 937 943 952 964 975 988 0 0 0 0 0 0 0 0 0 0 0 0 0 0 0 0 0 0 0 0 0 0 1015 1017 1017 1017 1015 1015 1014 1013 1013 1012 1009 1007 1005 1001 993 985 981 979 978 977 976 976 975 975 975 974 974 973 973 973 973 973 973 975 976 977 977 978 980 982 985 988 991 994 1001 1006 1015 1023 1028 1035 1038 1041 1043 1044 1047 1049 1051 1051 1053 1053 1054 1055 1055 1056 1057 1058 1058 1058 1059 1060 1060 1061 1061 1061 1061 1061 1061 1060 1058 1056 1054 1049 1042 1032 1028 1026 1021 1017 1014 1014 1014 1014 1015 1015 1016 1016 1016 1016 1017 1018 1018 1019 1020 1020 1021 1022 1025 1028 1030 1032 1035 1044 1053 1062 1069 1077 1081 1083 1085 1086 1088 1089 1090 1091 1092 1093 1093 1094 1095 1095 1095 1096 1096 1096 1097 1097 1097 1097 1096 1095 1095 1095 1092 1088 1085 1081 1069 1050 1044 1036 1033 1031 1030 1030 1029 1029 1029 1029 1030 1030 1034 1038 1046 1046 1046 1046 1044 1044 1044 1046 1054 1061 1067 1076 1094 1106 1110 1116 1121 1123 1124 1125 1127 1128 1129 1130 1133 1134 1135 1137 1137 1138 1138 1140 1141 1141 1141 1141 1141 1141 1142 1142 1143 1144 1147 1150 1152 1154 1156 1158 1158 1160 1161 1163 1163 1165 1165 1166 1166 1167 1168 1168 1169 1169 1169 1170 1170 1170 1171 1171 1171 1172 1172 1172 1171 1171 1171 1170 1170 1170 1160 1141 1130 0 0 0 0 0 0 0 0 0 0 0 0 1229 1229 1229 1212 1188 1181 1178 1176 1176 1176 1177 1178 1178 1178 1178 1170 1162 1160 1159 1159 1159 1158 1158 1158 1153 1151 1144 1130 1097 0 0 0 0 819 819 826 827 843 0 0 0 0 0 0 0 0 0 0 0 0 0 0 0 0 0 0 0 0 0 0 0 0 0 0 0 0 0 0 0 0 0 0 0 1203 1203 1215 1215 1203 1195 1193 1188 1164 1129 1113 0 0 0 0 0 0 0 0 0 0 814 820 820 846 846 0 0 0 746 746 739 739 739 737 717 0 0 0 0 0 0 0 0 0 0 438 427 427 427 449 457 0 0 0 0 0 0 0 0 0 0 0 0
442 442 456 457 457 456 469 469 0 0 0 0 0 0 0 0 0 0 0 1114 1150 1176 1198 1214 1225 1238 1250 1263 1284 1288 1305 1324 1341 1352 1363 1373 1376 1376 1376 0 0 0 0 1144 1131 1131 1131 1145 1167 1182 1197 1211 1224 1224 1224 1220 1195 1158 0 0 0 940 918 908 908 908 909 909 910 911 911 911 912 913 914 915 916 917 917 918 918 918 919 919 919 0 0 0 0 0 928 932 933 0 0 0 0 0 0 0 0 0 0 0 921 911 889 870 858 855 855 852 850 849 848 847 847 847 847 848 848 850 855 858 859 859 859 858 857 857 856 856 856 856 858 861 863 863 863 865 866 869 875 877 891 913 913 0 0 0 0 0 0 0 0 0 0 0 0 0 0 0 0 0 0 0 0 0 0 0 0 0 0 0 0 0 0 0 0 0 0 0 0 0 0 957 945 926 918 915 914 913 912 910 910 908 907 907 907 907 908 909 910 911 912 913 914 915 915 916 917 918 919 920 922 923 924 924 925 926 936 942 952 962 975 988 992 995 996 0 0 0 0 0 0 0 0 0 0 0 0 0 0 0 0 0 0 0 1018 1018 1018 1018 1016 1016 1014 1013 1013 1012 1010 1008 1005 1001 993 985 980 979 977 977 975 975 975 975 975 974 973 973 973 973 973 973 974 975 976 977 977 978 980 982 985 988 991 994 1000 1006 1013 1023 1028 1035 1038 1040 1042 1044 1046 1048 1050 1051 1052 1053 1054 1054 1055 1055 1056 1056 1057 1058 1059 1059 1060 1060 1060 1060 1060 1060 1060 1059 1057 1056 1054 1049 1043 1036 1028 1026 1021 1017 1014 1014 1014 1015 1017 1017 1018 1018 1019 1019 1019 1020 1021 1022 1023 1023 1023 1025 1028 1030 1031 1032 1035 1045 1055 1062 1069 1076 1080 1081 1083 1085 1087 1088 1089 1089 1090 1091 1091 1092 1092 1092 1093 1094 1094 1094 1094 1094 1094 1094 1093 1093 1092 1092 1091 1087 1084 1080 1068 1055 1053 1044 1041 1038 1036 1034 1034 1034 1034 1034 1034 1035 1038 1045 1053 1055 1055 1055 1053 1047 1047 1047 1054 1062 1072 1076 1094 1106 1109 1114 1117 1119 1120 1124 1124 1125 1129 1130 1133 1134 1135 1136 1137 1137 1137 1140 1140 1140 1140 1140 1138 1138 1138 1140 1141 1142 1144 1146 1150 1153 1154 1157 1158 1159 1161 1161 1163 1164 1165 1166 1166 1166 1167 1167 1168 1168 1169 1170 1170 1170 1170 1170 1170 1171 1171 1170 1170 1170 1170 1170 1170 1170 1160 1151 1145 0 0 0 0 0 0 0 0 0 0 0 0 1215 1215 1215 1186 1182 1181 1178 1175 1173 1173 1173 1173 1173 1169 1168 1165 1159 1157 1153 1153 1153 1155 1155 1155 1151 1148 1144 1130 0 0 0 0 0 0 809 826 827 0 0 0 0 0 0 0 0 0 0 0 0 0 0 0 0 0 0 0 0 0 0 0 0 0 0 0 0 0 0 0 0 0 0 0 0 1217 1217 1217 1215 1215 1212 1164 1152 1141 1134 1116 0 0 0 0 0 0 0 0 0 0 815 815 815 846 846 0 0 0 746 746 739 739 739 737 0 0 0 0 0 0 0 0 0 0 444 438 427 427 427 449 456 467 0 0 0 0 0 0 0 0 0 0 0
0 0 427 427 438 439 443 450 0 0 0 0 0 0 0 0 0 0 0 1120 1151 1176 1198 1214 1225 1238 1250 1263 1284 1289 1304 1324 1341 1352 1363 1373 1373 1373 1371 0 0 0 0 1152 1141 1141 1141 1151 1176 1193 1205 1217 1219 1219 1219 1213 1190 1155 0 0 0 942 918 907 907 907 908 909 910 911 911 911 911 913 913 915 916 917 917 917 917 917 919 919 919 0 0 0 0 0 0 0 0 0 0 0 0 0 0 0 0 0 0 0 910 910 889 869 858 856 855 853 852 852 851 850 850 850 850 850 851 852 855 858 859 859 859 858 857 857 856 856 856 857 859 861 863 863 864 865 865 869 875 876 887 912 912 0 0 0 0 0 0 0 0 0 0 0 0 0 0 0 0 0 0 0 0 0 0 0 0 0 0 0 0 0 0 0 0 0 0 0 0 0 0 945 945 932 920 917 916 915 912 910 910 908 907 907 907 907 908 908 910 911 912 913 914 915 915 916 917 918 918 920 922 923 924 924 925 926 936 942 952 962 975 988 992 995 996 996 0 0 0 0 0 0 0 0 0 0 0 0 0 0 0 0 0 0 1018 1018 1018 1018 1018 1016 1015 1013 1013 1012 1010 1008 1005 1001 993 985 980 977 975 974 974 974 974 974 974 974 973 973 973 973 973 973 974 975 976 977 978 979 980 982 986 988 991 994 1000 1006 1012 1022 1028 1035 1037 1039 1041 1044 1045 1047 1049 1049 1051 1051 1052 1053 1053 1054 1055 1055 1056 1056 1057 1058 1058 1059 1059 1059 1059 1059 1059 1058 1057 1056 1053 1049 1042 1036 1029 1026 1020 1017 1016 1016 1016 1017 1018 1019 1020 1021 1021 1021 1021 1021 1021 1023 1024 1025 1026 1027 1030 1031 1031 1032 1036 1051 1057 1062 1067 1075 1079 1080 1082 1084 1085 1087 1088 1088 1088 1088 1089 1089 1090 1090 1091 1091 1091 1092 1092 1092 1092 1092 1091 1090 1090 1090 1089 1087 1084 1079 1068 1056 1055 1049 1048 1044 1040 1040 1040 1042 1043 1043 1043 1043 1043 1048 1055 1060 1060 1060 1058 1058 1058 1058 1064 1073 1079 1083 1094 1106 1109 1111 1114 1115 1117 1118 1120 1124 1128 1130 1131 1132 1133 1136 1136 1136 1136 1136 1136 1136 1136 1137 1136 1135 1135 1135 1135 1137 1140 1143 1147 1151 1154 1156 1157 1159 1160 1161 1162 1163 1163 1165 1166 1166 1167 1167 1167 1168 1168 1169 1169 1169 1169 1170 1170 1170 1170 1170 1170 1170 1170 1170 1170 1170 1160 1154 1148 0 0 0 0 0 0 0 0 0 0 0 0 1180 1185 1185 1185 1181 1181 1178 1172 1172 1172 1173 1173 1173 1169 1168 1165 1159 1149 1149 1149 1153 1155 1155 1155 1140 1139 1135 1130 0 0 0 0 0 0 0 0 0 0 0 0 0 0 0 0 0 0 0 0 0 0 0 0 0 0 0 0 0 0 0 746 746 746 0 0 0 0 0 0 0 0 0 0 1237 1237 1237 1222 1215 1213 1199 1133 1133 1132 1128 1116 0 0 0 0 0 0 0 0 0 0 815 815 815 832 832 832 0 0 746 746 746 759 759 759 0 0 0 0 0 0 0 0 0 433 433 433 427 427 427 444 444 444 0 0 0 0 0 0 0 0 0 0 0
388 388 409 409 422 422 422 0 0 0 0 0 0 0 0 0 0 0 0 1120 1151 1176 1197 1213 1225 1238 1250 1263 1284 1289 1304 1324 1339 1352 1363 1374 1374 1374 1364 0 0 0 1186 1161 1151 1151 1151 1157 1181 1198 1208 1219 1219 1219 1219 1209 1183 1146 0 0 0 942 918 907 907 907 908 909 909 910 910 911 911 912 913 913 915 916 917 917 917 917 918 921 0 0 0 0 0 0 0 0 0 0 0 0 0 0 0 0 0 0 0 0 909 909 889 869 858 856 855 854 854 854 852 852 851 851 852 852 852 853 855 856 857 858 858 858 857 857 857 857 858 858 859 861 863 863 864 864 865 869 873 875 886 910 910 0 0 0 0 0 0 0 0 0 0 0 0 0 0 0 0 0 0 0 0 0 0 0 0 0 0 0 0 0 0 0 0 0 0 0 0 0 0 945 945 932 921 919 917 915 912 910 910 908 907 907 907 907 908 908 910 911 912 913 914 915 915 916 917 918 918 920 922 923 924 924 925 926 936 942 953 964 977 982 992 995 996 996 0 0 0 0 0 0 0 0 0 0 0 0 0 0 0 0 0 0 1018 1018 1018 1018 1018 1016 1015 1013 1013 1012 1010 1007 1005 1001 993 985 980 977 974 974 974 974 974 974 974 974 973 973 973 973 973 974 974 976 976 977 978 979 982 984 986 988 991 994 1000 1006 1012 1020 1028 1035 1037 1039 1041 1043 1045 1046 1048 1049 1050 1050 1051 1052 1052 1053 1053 1053 1054 1055 1055 1056 1057 1057 1058 1058 1058 1058 1058 1057 1055 1054 1053 1049 1042 1036 1030 1026 1020 1017 1017 1017 1017 1018 1019 1021 1024 1024 1024 1021 1021 1021 1023 1024 1024 1025 1028 1030 1032 1032 1033 1033 1036 1051 1058 1063 1067 1075 1079 1080 1081 1082 1083 1085 1086 1086 1086 1086 1086 1086 1087 1087 1088 1088 1089 1089 1089 1089 1089 1089 1089 1088 1088 1087 1087 1086 1084 1076 1069 1061 1057 1050 1048 1046 1045 1045 1045 1048 1052 1053 1054 1054 1054 1054 1059 1065 1065 1065 1060 1060 1060 1067 1071 1074 1081 1085 1094 1105 1108 1111 1111 1115 1116 1117 1119 1121 1124 1129 1131 1132 1132 1132 1132 1130 1130 1130 1133 1134 1135 1135 1135 1131 1131 1131 1132 1133 1136 1139 1144 1151 1152 1153 1156 1158 1158 1160 1161 1162 1163 1164 1165 1165 1166 1166 1167 1167 1168 1168 1169 1169 1169 1169 1170 1170 1170 1170 1170 1170 1170 1170 1170 1166 1162 1157 1149 0 0 0 0 0 0 0 0 0 0 0 0 1165 1180 1180 1180 1180 1178 1174 1172 1172 1172 1172 1172 1171 1166 1164 1160 1158 1148 1148 1148 1151 1155 1155 1155 1139 1126 1107 0 0 0 0 0 0 0 0 0 0 0 0 0 0 0 0 0 0 0 0 0 0 0 0 0 0 0 0 0 0 0 746 746 746 746 738 0 0 0 0 0 0 0 0 1237 1240 1237 1237 1226 1217 1195 1171 1133 1133 1132 1128 1122 0 0 0 0 0 0 0 0 0 0 0 815 815 806 806 799 762 739 739 739 746 768 768 0 0 0 0 0 0 0 0 0 0 396 419 422 422 422 422 432 432 432 0 0 0 0 0 0 0 0 0 0 0
383 383 394 395 406 409 414 0 0 0 0 0 0 0 0 0 0 0 0 1120 1151 1176 1197 1213 1225 1238 1260 1271 1284 1301 1304 1324 1339 1352 1363 1374 1374 1374 1355 0 0 1222 1186 1166 1163 1163 1163 1177 1193 1206 1214 1222 1222 1222 1219 1209 1182 1146 0 0 0 942 918 907 907 907 907 908 908 909 910 910 911 911 912 913 914 916 917 917 917 918 918 918 0 0 0 0 0 0 0 0 0 0 0 0 0 0 0 0 0 0 0 0 908 908 890 869 858 856 856 856 855 854 852 852 852 852 852 852 852 853 855 855 856 857 857 857 857 858 858 858 858 858 859 861 862 863 864 864 864 864 867 875 886 909 909 0 0 0 0 0 0 0 0 0 0 0 0 0 0 0 0 0 0 0 0 0 0 0 0 0 0 0 0 0 0 0 0 0 0 0 0 0 0 948 948 932 921 919 917 915 913 911 911 910 908 908 908 908 908 908 910 911 912 913 914 915 915 916 917 918 919 920 922 924 924 924 925 929 936 946 952 963 977 982 992 995 995 996 0 0 0 0 0 0 0 0 0 0 0 0 0 0 0 0 0 0 1016 1018 1018 1018 1018 1018 1015 1013 1013 1011 1009 1006 1004 999 993 987 981 977 974 974 974 974 974 974 974 974 973 973 973 973 973 974 974 976 976 977 979 980 982 984 986 988 991 994 1000 1004 1011 1020 1028 1035 1036 1038 1041 1043 1044 1045 1047 1048 1049 1049 1049 1050 1050 1051 1052 1052 1053 1053 1054 1054 1055 1056 1057 1057 1057 1057 1057 1055 1054 1054 1053 1049 1045 1036 1029 1026 1020 1019 1019 1019 1019 1019 1020 1024 1028 1028 1028 1025 1023 1023 1023 1024 1025 1027 1029 1031 1032 1033 1033 1034 1040 1051 1059 1063 1067 1075 1076 1079 1079 1080 1081 1082 1083 1083 1083 1084 1083 1083 1084 1084 1085 1085 1085 1085 1085 1086 1086 1085 1085 1085 1084 1083 1083 1080 1077 1074 1068 1063 1059 1052 1052 1052 1054 1056 1058 1058 1061 1061 1061 1062 1062 1063 1066 1070 1070 1070 1066 1066 1066 1072 1075 1078 1081 1086 1094 1106 1107 1110 1111 1112 1112 1114 1118 1120 1121 1121 1121 1121 1121 1125 1125 1125 1125 1124 1124 1124 1122 1125 1125 1125 1125 1125 1125 1126 1128 1132 1142 1150 1151 1153 1154 1155 1157 1159 1160 1161 1162 1163 1164 1164 1165 1165 1166 1167 1167 1168 1168 1169 1169 1169 1170 1170 1170 1169 1169 1169 1170 1170 1170 1165 1162 1158 1155 0 0 0 0 0 0 0 0 0 0 0 0 1165 1170 1171 1173 1173 1173 1169 1169 1169 1171 1171 1171 1168 1166 1164 1160 1158 1148 1148 1148 1150 1152 1152 1152 1138 1122 1099 0 0 0 0 0 0 0 0 0 0 0 0 0 0 0 0 0 0 0 0 0 0 0 0 0 0 0 0 0 0 0 767 767 767 767 786 0 0 0 0 0 0 0 1239 1244 1240 1240 1240 1240 1217 1180 1148 1133 1133 1133 1132 1132 1122 0 0 0 0 0 0 0 0 0 0 814 805 800 800 779 758 739 739 739 755 768 768 0 0 0 0 0 0 0 0 0 396 396 419 422 422 422 422 426 426 0 0 0 0 0 0 0 0 0 0 0 0
382 382 387 388 395 398 408 0 0 0 0 0 0 0 0 0 0 0 0 0 1151 1175 1196 1213 1225 1238 1260 1274 1293 1307 1310 1324 1339 1353 1364 1376 1376 1376 1348 0 0 1218 1186 1181 1181 1181 1183 1192 1200 1212 1222 1224 1225 1225 1224 1209 1182 1146 0 0 0 934 917 909 909 907 907 907 908 909 909 910 910 911 911 912 914 916 916 917 917 917 918 0 0 0 0 0 0 0 0 0 0 0 0 0 0 0 0 0 0 0 0 0 908 908 892 873 859 859 856 856 855 854 853 852 852 852 852 852 852 853 854 855 856 857 857 857 857 857 858 858 858 858 859 861 862 863 864 864 864 864 867 875 886 907 907 0 0 0 0 0 0 0 0 0 0 0 0 0 0 0 0 0 0 0 0 0 0 0 0 0 0 0 0 0 0 0 0 0 0 0 0 0 0 948 948 932 921 919 916 914 913 912 912 911 909 909 909 909 909 909 910 911 912 913 914 915 915 916 917 918 919 920 922 924 926 927 928 929 936 946 950 963 976 982 992 992 995 0 0 0 0 0 0 0 0 0 0 0 0 0 0 0 0 0 0 0 1014 1014 1017 1017 1017 1017 1016 1013 1012 1010 1007 1006 1004 999 992 987 983 978 974 974 974 974 975 975 975 975 973 973 973 973 974 974 975 976 976 978 979 980 982 984 986 988 991 994 999 1003 1010 1018 1025 1031 1035 1038 1040 1042 1044 1045 1046 1047 1048 1048 1048 1049 1049 1050 1050 1051 1051 1052 1053 1053 1054 1054 1055 1055 1056 1056 1056 1055 1054 1053 1052 1048 1045 1036 1030 1026 1022 1021 1021 1021 1021 1022 1023 1027 1032 1034 1034 1034 1030 1027 1027 1027 1027 1030 1030 1032 1033 1035 1037 1039 1043 1051 1060 1065 1068 1074 1076 1078 1078 1078 1079 1079 1079 1079 1080 1080 1080 1080 1080 1081 1081 1081 1081 1081 1083 1083 1083 1083 1082 1081 1081 1081 1080 1078 1077 1071 1067 1064 1060 1056 1056 1056 1060 1063 1065 1065 1065 1066 1066 1067 1067 1071 1074 1076 1076 1076 1075 1074 1074 1074 1076 1081 1084 1089 1100 1106 1107 1108 1108 1109 1108 1107 1107 1108 1107 1107 1101 1101 1101 1108 1109 1109 1109 1109 1110 1110 1110 1110 1104 1104 1104 1107 1108 1113 1122 1132 1141 1148 1151 1153 1153 1154 1156 1158 1159 1160 1161 1162 1163 1163 1165 1165 1165 1166 1167 1167 1168 1168 1168 1169 1169 1169 1169 1169 1169 1169 1169 1169 1169 1165 1160 1160 1156 0 0 0 0 0 0 0 0 0 0 0 0 1147 1155 1158 1166 1168 1168 1169 1169 1169 1171 1171 1171 1168 1166 1164 1160 1154 1147 1145 1145 1145 1152 1152 1152 1135 1122 1099 0 0 0 0 0 0 0 0 0 0 0 0 0 0 0 0 0 0 0 0 0 0 0 0 0 0 0 0 0 0 0 0 775 790 791 0 0 0 0 0 0 0 1244 1244 1268 1268 1252 1252 1252 1213 1168 1147 1147 1147 1147 1147 1145 1145 1140 1135 0 0 0 0 0 0 0 0 805 800 797 779 766 758 738 738 738 731 730 727 0 0 0 0 0 0 0 0 421 421 429 410 410 410 402 0 0 0 0 0 0 0 0 0 0 0 0 0 0 0
382 382 387 388 389 398 408 429 0 0 0 0 0 0 0 0 0 0 0 0 0 0 1184 1201 1210 1228 1260 1274 1293 1307 1310 1326 1340 1353 1364 1368 1368 1368 0 0 0 1213 1190 1190 1190 1196 1198 1201 1208 1218 1228 1231 1231 1231 1228 1209 1182 1148 0 0 0 934 917 911 911 908 908 908 908 909 909 910 910 911 911 912 913 915 916 917 917 917 917 0 0 0 0 0 0 0 0 0 0 0 0 0 0 0 0 0 0 0 0 0 912 907 892 874 859 859 856 856 855 854 853 852 852 852 852 852 852 853 854 855 856 856 857 857 857 857 858 858 858 859 859 861 862 863 864 864 864 864 867 877 891 907 907 0 0 0 0 0 0 0 0 0 0 0 0 0 0 0 0 0 0 0 0 0 0 0 0 0 0 0 0 0 0 0 0 0 0 0 0 0 0 948 948 932 921 918 914 914 913 913 912 911 910 909 909 909 909 910 910 911 912 913 914 915 915 916 917 918 919 920 922 924 926 927 928 929 936 946 950 963 976 982 992 992 0 0 0 0 0 0 0 0 0 0 0 0 0 0 0 0 0 0 0 0 1013 1014 1017 1017 1017 1017 1015 1013 1012 1009 1007 1006 1004 999 992 987 984 981 977 976 975 975 975 975 975 975 974 974 974 974 974 975 975 976 977 978 979 981 982 984 986 988 991 994 999 1003 1010 1018 1024 1031 1035 1037 1040 1041 1042 1044 1045 1045 1046 1046 1046 1048 1048 1048 1049 1049 1050 1050 1050 1051 1052 1053 1053 1054 1054 1054 1054 1053 1052 1052 1051 1048 1043 1038 1030 1029 1026 1026 1026 1026 1026 1027 1028 1032 1036 1036 1036 1035 1032 1031 1030 1030 1030 1032 1033 1033 1034 1038 1042 1043 1046 1052 1060 1065 1068 1073 1074 1075 1076 1076 1076 1076 1076 1076 1076 1076 1076 1076 1076 1076 1076 1077 1077 1080 1081 1081 1081 1081 1079 1079 1079 1079 1079 1077 1075 1070 1067 1067 1060 1060 1060 1061 1063 1067 1069 1069 1069 1069 1069 1069 1074 1078 1080 1083 1085 1090 1091 1091 1091 1091 1092 1096 1096 1097 1100 1105 1106 1106 1106 1101 1090 1087 1087 1087 1093 1093 1093 1086 1086 1084 1081 1072 1069 1069 1069 1074 1074 1075 1076 1076 1079 1082 1082 1094 1117 1131 1140 1147 1150 1152 1152 1152 1155 1155 1157 1158 1160 1161 1162 1163 1163 1164 1165 1166 1166 1167 1167 1167 1168 1169 1169 1169 1169 1169 1169 1169 1168 1168 1168 1165 1162 1160 1156 0 0 0 0 0 0 0 0 0 0 0 0 1131 1140 1147 1156 1161 1164 1167 1168 1169 1169 1169 1169 1167 1159 1154 1151 1148 1143 1135 1135 1135 1141 1141 1141 1135 1122 1099 0 0 0 0 0 0 0 0 0 0 0 0 0 0 0 0 0 0 0 0 0 0 0 0 948 948 939 0 0 0 0 0 0 0 0 0 0 0 0 0 0 0 1267 1270 1274 1274 1270 1270 0 0 1163 1163 1163 1165 1165 1165 1150 1150 1144 1142 1133 1091 0 0 0 0 0 0 0 785 774 752 742 741 741 742 743 743 743 719 0 0 0 0 0 0 0 0 441 440 429 426 417 0 0 0 0 0 0 0 0 0 0 0 0 0 0 0 0 0
382 382 387 388 389 398 408 429 435 0 0 0 0 0 0 0 0 0 0 0 0 0 0 0 0 0 1234 1274 1293 1307 1310 1326 1340 1353 1364 1364 1364 1356 0 0 1231 1198 1198 1198 1204 1207 1209 1210 1215 1225 1235 1237 1237 1237 1231 1212 1184 0 0 0 0 934 917 911 911 909 908 908 908 908 909 910 910 910 911 912 913 915 916 916 917 916 0 0 0 0 0 0 0 0 0 0 0 0 0 0 0 0 0 0 0 0 0 0 912 907 896 874 859 859 856 856 855 854 853 852 852 852 852 852 853 853 854 855 856 856 857 857 857 858 858 858 859 859 860 861 863 864 864 864 864 864 867 877 891 906 906 0 0 0 0 0 0 0 0 0 0 0 0 0 0 0 0 0 0 0 0 0 0 0 0 0 0 0 0 0 0 0 0 0 0 0 0 0 0 951 951 934 921 915 913 912 912 912 912 911 910 910 910 910 910 910 910 911 912 913 914 915 915 917 918 918 919 921 923 924 926 927 928 929 930 934 945 963 976 982 0 0 0 0 0 0 0 0 0 0 0 0 0 0 0 0 0 0 0 0 0 0 1013 1014 1016 1017 1017 1017 1015 1013 1012 1009 1006 1002 1002 998 992 989 987 986 981 978 977 976 976 975 975 975 975 975 975 975 976 976 977 977 978 979 979 981 983 984 986 988 991 994 999 1005 1011 1017 1023 1029 1033 1036 1038 1040 1040 1042 1044 1044 1044 1044 1044 1045 1046 1046 1046 1047 1047 1048 1049 1049 1049 1050 1051 1052 1052 1052 1051 1051 1051 1050 1049 1048 1043 1038 1031 1029 1028 1028 1028 1028 1028 1029 1033 1036 1036 1036 1036 1035 1035 1034 1033 1033 1033 1034 1035 1036 1037 1040 1044 1045 1047 1053 1060 1065 1068 1072 1072 1072 1072 1072 1072 1073 1073 1073 1073 1072 1072 1072 1072 1076 1076 1076 1076 1077 1077 1077 1077 1077 1075 1075 1075 1074 1074 1073 1071 1069 1066 1066 1066 1066 1066 1067 1070 1073 1076 1076 1076 1076 1076 1076 1082 1086 1092 1097 1097 1097 1098 1100 1101 1101 1101 1101 1101 1102 1102 1105 1105 1105 1102 1088 1075 1070 1070 1069 1066 1066 1065 1065 1061 1055 1055 1055 1044 1044 1044 1047 1047 1047 1047 1047 1047 1047 1049 1077 1102 1119 1134 1147 1148 1151 1151 1152 1153 1155 1157 1158 1159 1160 1161 1162 1162 1163 1164 1165 1165 1165 1166 1166 1167 1167 1168 1168 1168 1169 1169 1169 1169 1168 1168 1166 1162 1160 1156 0 0 0 0 0 0 0 0 0 0 0 0 1117 1129 1135 1143 1151 1159 1165 1165 1166 1166 1166 1165 1165 1157 1151 1150 1146 1142 1133 1133 1133 1135 1135 1135 1133 1122 0 0 0 0 0 0 0 0 0 0 0 0 1294 1321 1342 1342 1342 0 0 0 0 0 0 0 940 940 958 958 958 0 0 0 0 0 0 0 0 0 0 0 0 0 0 1245 1266 1270 1270 1270 1270 0 0 1143 1143 1193 1193 1193 1181 1162 1162 1148 1145 1144 1096 1092 0 0 0 0 0 0 778 753 750 742 742 742 747 754 754 754 719 0 0 0 0 0 0 0 0 450 449 426 426 402 0 0 0 0 0 0 0 0 0 0 0 0 0 0 0 0 0
388 388 388 389 389 404 419 429 430 439 0 0 0 0 0 0 0 0 0 0 0 0 0 0 0 0 0 0 0 1307 1309 1326 1340 1351 1363 1363 1363 1342 0 0 1200 1200 1200 1202 1214 1217 1218 1219 1222 1229 1235 1241 1241 1241 1231 1212 1184 0 0 0 0 933 917 911 911 909 908 908 908 908 909 909 909 910 911 912 913 913 914 915 915 915 0 0 0 0 0 0 0 0 0 0 0 0 0 0 0 0 0 0 0 0 0 0 912 907 896 874 857 857 856 855 855 854 853 852 852 852 852 852 853 853 854 855 855 856 856 857 857 857 858 858 859 859 860 861 863 864 864 864 864 865 867 877 891 906 906 0 0 0 0 0 0 0 0 0 0 0 0 0 0 0 0 0 0 0 0 0 0 0 0 0 0 0 0 0 0 0 0 0 0 0 0 0 0 958 958 944 922 915 913 912 912 912 912 912 910 910 910 910 910 910 911 911 912 913 914 915 916 917 918 918 919 921 923 925 925 925 925 925 926 928 938 957 972 0 0 0 0 0 0 0 0 0 0 0 0 0 0 0 0 0 0 0 0 0 0 0 0 1013 1016 1017 1017 1017 1014 1011 1011 1009 1006 1002 1001 998 992 991 991 987 985 978 977 977 976 976 975 975 975 976 976 976 977 978 978 979 979 979 980 981 983 986 989 991 993 996 1000 1005 1011 1018 1023 1028 1032 1034 1036 1037 1039 1040 1042 1042 1043 1043 1043 1043 1043 1044 1044 1044 1046 1046 1046 1047 1047 1047 1049 1049 1049 1049 1049 1049 1049 1048 1046 1046 1043 1038 1035 1030 1029 1028 1028 1028 1029 1032 1036 1036 1037 1037 1037 1037 1037 1035 1036 1035 1035 1035 1036 1036 1039 1042 1044 1047 1051 1053 1061 1065 1067 1070 1071 1071 1071 1071 1071 1071 1071 1071 1071 1071 1071 1071 1071 1071 1072 1072 1072 1073 1073 1073 1073 1073 1074 1074 1072 1072 1072 1068 1068 1068 1068 1068 1068 1069 1072 1075 1077 1078 1079 1079 1081 1086 1090 1091 1093 1096 1099 1099 1101 1102 1102 1102 1103 1104 1104 1104 1104 1104 1105 1105 1105 1104 1098 1081 1069 1066 1052 1045 1034 1034 1034 1038 1038 1038 1038 1037 1032 1029 1027 1027 1027 1027 1031 1032 1032 1032 1046 1058 1084 1109 1127 1140 1143 1150 1151 1151 1152 1154 1156 1157 1158 1160 1160 1161 1162 1163 1164 1164 1164 1165 1165 1165 1166 1166 1167 1167 1167 1168 1168 1168 1168 1168 1168 1165 1162 1157 1152 0 0 0 0 0 0 0 0 0 0 0 0 1101 1128 1135 1143 1146 1156 1156 1156 1156 1156 1156 1156 1156 1156 1151 1149 1146 1140 1130 1130 1130 1132 1133 1133 1133 1122 0 0 0 0 0 0 0 0 0 0 0 1273 1304 1332 1348 1348 1348 1318 0 0 0 0 0 0 926 926 955 955 955 0 0 0 0 0 0 0 0 0 0 0 0 0 0 0 1258 1267 1270 1270 0 0 0 1147 1147 1201 1201 1201 1196 1177 1169 1164 1155 1154 1109 1106 0 0 0 0 0 0 0 753 750 749 749 749 756 756 756 739 719 0 0 0 0 0 0 0 0 450 449 426 418 397 0 0 0 0 0 0 0 0 0 0 0 0 0 0 0 0 0
406 406 406 406 406 411 429 429 430 430 0 0 0 0 0 0 0 0 0 0 0 0 0 0 0 0 0 0 0 0 0 0 1330 1340 1347 1347 1347 0 0 0 1181 1181 1181 1205 1222 1227 1228 1228 1230 1234 1237 1241 1241 1241 1232 1212 1184 0 0 0 0 933 916 911 910 909 908 908 908 908 908 909 909 909 910 912 913 913 914 914 915 915 916 923 0 0 0 0 0 0 0 0 0 0 0 0 0 0 0 0 0 0 0 0 913 907 896 875 857 857 855 855 855 854 853 852 851 851 851 852 853 853 854 855 855 856 856 857 857 857 858 858 859 859 860 861 863 864 864 864 864 865 866 874 889 906 921 0 0 0 0 0 0 0 0 0 0 0 0 0 0 0 0 0 0 0 0 0 0 0 0 0 0 0 0 0 0 0 0 0 0 0 0 0 0 958 958 944 922 914 913 912 912 912 912 912 910 910 910 910 910 910 911 912 912 913 914 915 916 918 918 919 920 922 923 925 925 925 924 924 924 926 934 948 948 0 0 0 0 0 0 0 0 0 0 0 0 0 0 0 0 0 0 0 0 0 0 0 0 0 0 1017 1017 1017 1015 1011 1010 1009 1006 1002 1001 998 992 991 991 987 985 978 977 977 976 976 975 975 976 976 976 977 979 980 981 981 981 981 981 981 986 989 992 994 995 998 1004 1009 1013 1018 1023 1028 1031 1033 1035 1037 1038 1039 1040 1040 1040 1041 1041 1041 1041 1041 1041 1042 1043 1043 1043 1044 1044 1045 1046 1046 1046 1046 1046 1046 1046 1045 1045 1044 1042 1038 1035 1032 1030 1030 1030 1030 1032 1036 1038 1038 1038 1038 1038 1038 1038 1039 1039 1039 1039 1038 1038 1038 1042 1044 1045 1048 1051 1055 1061 1065 1067 1068 1068 1068 1068 1068 1068 1068 1069 1069 1069 1068 1069 1069 1068 1068 1061 1061 1061 1061 1064 1071 1071 1071 1070 1070 1068 1068 1068 1061 1061 1061 1063 1069 1070 1073 1074 1076 1080 1082 1084 1086 1089 1093 1097 1098 1099 1100 1104 1104 1104 1106 1106 1106 1107 1107 1107 1107 1107 1107 1107 1105 1105 1103 1094 1074 1055 1037 1026 1023 1022 1021 1021 1021 1022 1025 1025 1025 1018 1018 1018 1018 1018 1022 1028 1029 1029 1030 1038 1053 1071 1100 1121 1134 1137 1146 1149 1149 1150 1152 1155 1156 1157 1158 1159 1160 1162 1163 1163 1163 1164 1164 1164 1165 1165 1166 1166 1167 1167 1167 1167 1167 1168 1168 1167 1165 1163 1155 1145 1125 0 0 0 0 0 0 0 0 0 0 0 1101 1128 1135 1143 1146 1156 1156 1156 1144 1144 1144 1149 1149 1149 1144 1139 1135 1128 1123 1123 1123 1132 1132 1132 1123 0 0 0 0 0 0 0 0 0 0 0 1286 1294 1319 1347 1362 1362 1362 1318 0 0 0 0 0 0 898 898 952 952 952 951 0 0 0 0 0 0 0 0 0 0 0 0 0 0 0 1244 1244 0 0 0 1147 1147 1147 1202 1202 1202 1196 1188 1178 1177 1173 1160 1129 1126 0 0 0 0 0 0 0 0 0 0 0 0 764 757 749 724 0 0 0 0 0 0 0 0 0 0 435 418 412 394 382 0 0 0 0 0 0 0 0 0 0 0 0 0 0 0 0
416 417 416 417 417 418 427 427 429 430 437 0 0 0 0 0 0 0 0 0 0 0 0 0 0 0 0 0 0 0 0 0 0 0 0 0 0 0 0 0 1160 1160 1179 1205 1222 1233 1234 1236 1237 1239 1241 1244 1244 1244 1234 1201 0 0 0 0 0 927 916 910 909 909 908 908 908 908 908 909 909 909 910 912 912 913 913 914 915 915 917 923 923 0 0 0 0 0 0 0 0 0 0 0 0 0 0 0 0 0 0 0 907 907 895 875 857 856 855 855 855 853 852 852 851 851 851 852 853 853 853 854 855 855 856 856 857 857 858 858 859 859 860 861 862 863 864 864 864 865 865 873 888 902 915 915 0 0 0 0 0 0 0 0 0 0 0 0 0 0 0 0 0 0 0 0 0 0 0 0 0 0 0 0 0 0 0 0 0 0 0 0 0 958 958 944 923 914 914 914 913 913 913 912 912 911 911 911 911 911 912 912 912 913 915 916 917 918 919 920 921 922 924 924 924 924 924 924 924 924 932 946 946 0 0 0 0 0 0 0 0 0 0 0 0 0 0 0 0 0 0 0 0 0 0 0 0 0 0 0 1019 1016 1014 1010 1009 1009 1008 1003 1001 998 994 991 991 988 985 978 977 977 977 976 976 976 977 977 978 978 980 981 982 984 985 986 987 988 991 994 996 998 998 1001 1005 1010 1014 1018 1023 1027 1030 1031 1033 1035 1037 1038 1039 1039 1039 1039 1039 1039 1039 1039 1039 1039 1040 1040 1040 1041 1041 1041 1042 1042 1043 1043 1044 1044 1044 1043 1043 1043 1041 1038 1035 1032 1031 1031 1031 1033 1035 1038 1041 1042 1042 1042 1042 1041 1041 1041 1042 1043 1043 1044 1045 1046 1047 1047 1048 1050 1052 1057 1063 1065 1065 1066 1066 1066 1066 1066 1066 1067 1067 1067 1066 1065 1061 1059 1056 1052 1050 1050 1050 1050 1055 1055 1055 1050 1049 1049 1048 1049 1049 1049 1056 1058 1063 1069 1074 1081 1083 1084 1088 1090 1092 1094 1094 1096 1099 1103 1104 1105 1106 1106 1107 1107 1108 1109 1109 1110 1111 1112 1112 1112 1109 1107 1105 1103 1094 1074 1054 1037 1026 1023 1022 1019 1019 1019 1018 1016 1013 1013 1013 1013 1013 1014 1015 1017 1024 1027 1028 1029 1033 1047 1065 1095 1118 1124 1134 1141 1146 1147 1149 1151 1153 1154 1157 1158 1159 1160 1161 1162 1163 1163 1164 1164 1164 1165 1165 1166 1166 1166 1166 1167 1167 1167 1167 1167 1167 1165 1164 1155 1144 1121 0 0 0 0 0 0 0 0 0 0 0 1101 1128 1142 1145 1146 1146 1146 1143 1139 1139 1137 1137 1137 1130 1121 1113 1107 1101 1101 1101 1104 1115 1115 1115 1099 0 0 0 0 0 0 0 0 0 0 1315 1316 1316 1340 1368 1368 1368 1362 1336 0 0 0 0 0 0 882 882 915 933 933 933 891 863 0 0 0 0 0 0 0 0 0 0 0 0 0 1210 1210 1210 1173 1170 1170 1171 1171 1208 1208 1208 1196 1191 1189 1188 1188 1173 1143 1140 0 0 0 0 0 0 0 0 0 0 0 0 0 0 0 0 0 0 0 0 0 0 0 0 0 0 413 412 412 394 382 0 0 0 0 0 0 0 0 0 0 0 0 0 0 0 0
422 422 422 423 424 425 425 425 429 430 430 0 0 0 0 0 0 0 0 0 0 0 0 0 0 0 0 0 0 0 0 0 0 0 0 0 0 0 0 0 1142 1142 1177 1203 1222 1234 1236 1242 1246 1247 1247 1247 1247 1247 1234 1201 0 0 0 0 0 920 911 909 908 908 908 908 908 908 908 908 909 909 910 910 911 912 913 914 915 917 918 923 923 0 0 0 0 0 0 0 0 0 0 0 0 0 0 0 0 0 0 0 908 908 895 876 857 855 855 854 854 853 852 851 850 850 850 851 851 853 853 854 854 855 856 856 856 857 857 858 858 859 859 860 861 862 863 863 864 864 864 870 885 900 913 913 0 0 0 0 0 0 0 0 0 0 0 0 0 0 0 0 0 0 0 0 0 0 0 0 0 0 0 0 0 0 0 0 0 0 0 0 0 952 952 946 928 915 915 914 914 914 914 914 912 912 912 912 912 912 912 913 913 914 915 916 917 919 920 920 921 922 924 924 924 924 924 924 924 924 931 943 943 0 0 0 0 0 0 0 0 0 0 0 0 0 0 0 0 0 0 0 0 0 0 0 0 0 0 0 1015 1015 1013 1010 1010 1008 1008 1007 1001 998 995 989 987 985 982 979 979 978 978 978 978 978 979 979 980 981 982 983 984 985 987 989 990 992 994 998 999 999 1000 1003 1006 1011 1014 1018 1023 1027 1030 1030 1031 1032 1035 1035 1036 1036 1036 1036 1035 1035 1035 1035 1035 1036 1036 1037 1037 1037 1037 1038 1038 1039 1039 1040 1040 1041 1041 1041 1041 1041 1039 1036 1035 1032 1032 1032 1032 1036 1039 1041 1041 1043 1045 1045 1045 1044 1044 1044 1046 1047 1048 1048 1050 1052 1054 1054 1054 1055 1055 1060 1065 1065 1066 1065 1065 1064 1062 1059 1058 1058 1056 1056 1056 1048 1045 1042 1039 1039 1039 1039 1038 1037 1036 1034 1034 1034 1034 1036 1038 1038 1039 1042 1046 1050 1059 1067 1075 1081 1085 1088 1090 1092 1094 1095 1097 1100 1102 1104 1106 1106 1107 1107 1108 1109 1110 1110 1111 1111 1111 1112 1112 1112 1112 1109 1107 1103 1094 1074 1054 1037 1026 1023 1021 1018 1018 1017 1015 1013 1013 1013 1013 1013 1013 1014 1015 1015 1019 1025 1026 1028 1033 1043 1063 1093 1117 1121 1133 1139 1143 1147 1149 1151 1152 1154 1156 1157 1158 1159 1160 1161 1161 1162 1163 1164 1164 1165 1165 1165 1165 1165 1165 1166 1166 1166 1166 1165 1165 1164 1163 1155 1143 1120 0 0 0 0 0 0 0 0 0 0 0 1098 1138 1160 1160 1160 1156 1153 1139 1139 1136 1135 1135 1125 1114 1107 1102 1096 1089 1089 1089 1094 1099 1099 1099 1076 0 0 0 0 0 0 0 0 0 1350 1350 1350 1350 1360 1386 1386 1386 1365 1340 0 0 0 0 0 0 889 889 889 904 904 904 883 879 879 0 0 0 0 0 0 0 0 0 0 0 0 1167 1167 1170 1170 1170 1170 1179 1192 1196 1196 1196 1196 1196 1197 1197 1197 1180 1177 1144 0 0 0 0 0 0 0 0 0 0 0 0 0 0 0 0 0 0 0 0 0 0 0 0 0 0 413 412 412 394 385 0 0 0 0 0 0 0 0 0 0 0 0 0 0 0 0
424 424 429 429 429 424 424 424 424 424 430 439 454 0 0 0 0 0 0 0 0 0 0 666 677 0 0 0 0 0 0 0 0 0 0 0 0 0 0 1110 1110 1135 1176 1202 1219 1234 1236 1248 1252 1254 1254 1254 1254 1253 1244 1201 0 0 0 0 0 920 911 907 907 907 907 907 907 907 908 908 909 909 909 910 911 912 913 914 914 917 917 921 921 0 0 0 0 0 0 0 0 0 0 0 0 0 0 0 0 0 0 0 905 905 895 876 857 854 854 854 854 853 852 850 850 850 850 851 851 852 853 853 854 855 855 856 856 857 857 857 858 859 859 860 860 861 862 862 862 863 864 868 882 895 909 909 0 0 0 0 0 0 0 0 0 0 0 0 0 0 0 0 0 0 0 0 0 0 0 0 0 0 0 0 0 0 0 0 0 0 0 0 0 0 952 946 927 915 915 915 915 915 915 914 913 913 912 912 912 912 912 913 913 915 915 916 918 919 921 921 922 923 925 925 925 925 925 924 924 925 929 940 940 0 0 0 0 0 0 0 0 0 0 0 0 0 0 0 0 0 0 0 0 0 0 0 0 0 0 0 1015 1015 1013 1010 1010 1008 1008 1007 1002 997 994 989 986 984 982 982 981 980 980 980 980 980 981 983 983 985 986 987 988 989 990 991 994 994 997 1000 1001 1002 1003 1006 1008 1012 1015 1018 1023 1027 1029 1029 1029 1030 1032 1032 1033 1033 1032 1032 1032 1032 1033 1033 1033 1033 1033 1033 1034 1034 1034 1034 1035 1036 1036 1037 1037 1037 1039 1039 1039 1039 1037 1035 1034 1034 1034 1034 1035 1040 1043 1044 1045 1046 1047 1049 1050 1050 1050 1050 1051 1053 1055 1056 1057 1058 1060 1060 1060 1061 1061 1064 1065 1066 1066 1066 1065 1063 1060 1055 1049 1049 1046 1045 1044 1037 1033 1032 1032 1031 1031 1031 1031 1029 1027 1027 1027 1027 1027 1027 1025 1025 1025 1025 1027 1036 1056 1067 1075 1082 1087 1090 1092 1093 1096 1097 1100 1101 1103 1105 1106 1107 1108 1109 1110 1111 1111 1112 1112 1112 1113 1113 1114 1114 1114 1111 1107 1103 1097 1081 1054 1041 1030 1026 1021 1018 1016 1016 1013 1013 1013 1013 1013 1013 1013 1014 1015 1015 1018 1021 1024 1028 1033 1042 1061 1082 1091 1113 1128 1137 1141 1146 1148 1150 1152 1153 1155 1155 1157 1158 1159 1160 1161 1162 1162 1163 1163 1164 1164 1164 1165 1165 1165 1165 1165 1165 1165 1165 1164 1163 1162 1155 1140 1118 0 0 0 0 0 0 0 0 0 0 0 0 1138 1160 1160 1160 1160 1152 1138 1134 1134 1133 1132 1124 1107 1100 1097 1093 1084 1084 1084 1092 1093 1093 1093 1062 1028 0 0 0 0 0 0 0 1382 1382 1382 1374 1374 1374 1386 1386 1386 1366 1342 0 0 0 0 0 0 0 875 875 904 904 904 883 883 883 0 0 0 0 0 0 0 0 0 0 0 0 1150 1150 1156 1156 1170 1189 1207 1211 1211 1211 1196 1196 1196 1204 1204 1204 1180 1177 1144 0 0 0 0 0 0 0 0 824 817 817 0 0 0 0 0 0 0 0 0 0 0 0 0 0 0 0 418 418 418 0 0 0 0 0 0 0 0 0 476 481 481 481 0 0 0 0
426 426 433 433 433 425 424 424 424 426 430 439 443 454 473 495 0 0 0 0 0 0 636 655 675 689 701 707 726 745 0 0 0 0 0 0 0 0 1082 1094 1107 1131 1168 1192 1216 1234 1236 1248 1254 1259 1261 1261 1261 1261 1253 1225 0 0 0 0 0 920 911 907 907 907 907 907 907 907 908 908 908 909 909 910 911 912 914 914 915 917 917 919 919 0 0 0 0 0 0 0 0 0 0 0 0 0 0 0 0 0 0 0 905 905 893 876 855 853 852 852 852 852 851 850 849 849 849 849 851 851 853 853 854 854 855 855 856 857 857 857 858 859 859 860 860 861 861 862 862 862 863 868 881 895 909 909 0 0 0 0 0 0 0 0 0 0 0 0 0 0 0 0 0 0 0 0 0 0 0 0 0 0 0 0 0 0 0 0 0 0 0 0 0 0 939 939 923 915 915 915 915 915 915 914 914 913 912 912 912 912 913 914 915 916 916 917 919 920 922 922 922 923 925 926 926 926 926 926 925 925 925 940 955 0 0 0 0 0 0 0 0 0 0 0 0 0 0 0 0 0 0 0 0 0 0 0 0 0 0 0 0 1012 1012 1010 1010 1008 1008 1007 1002 997 994 989 986 984 984 984 983 983 982 981 981 981 981 983 985 987 989 991 992 993 994 994 995 995 998 1002 1004 1004 1006 1008 1010 1013 1015 1018 1022 1026 1026 1027 1027 1027 1027 1028 1028 1028 1029 1029 1029 1029 1029 1029 1029 1029 1029 1029 1029 1030 1030 1030 1030 1030 1033 1033 1033 1033 1035 1035 1035 1035 1035 1035 1035 1036 1037 1037 1040 1042 1045 1047 1049 1049 1049 1050 1051 1052 1053 1055 1055 1058 1059 1060 1060 1061 1062 1063 1064 1065 1065 1067 1067 1067 1067 1066 1065 1062 1059 1053 1045 1045 1042 1042 1036 1028 1021 1021 1021 1021 1023 1023 1023 1020 1013 1013 1013 1013 1014 1014 1015 1016 1016 1019 1022 1036 1053 1064 1075 1083 1090 1091 1093 1095 1097 1099 1102 1103 1105 1106 1108 1108 1109 1110 1112 1112 1112 1113 1113 1113 1113 1114 1114 1114 1114 1113 1109 1104 1099 1090 1072 1049 1035 1026 1022 1019 1016 1016 1013 1013 1013 1014 1015 1015 1016 1015 1015 1016 1018 1021 1024 1028 1033 1042 1057 1075 1081 1099 1121 1135 1140 1144 1147 1150 1152 1152 1153 1155 1157 1158 1158 1159 1160 1161 1162 1162 1163 1163 1163 1164 1164 1164 1164 1164 1164 1164 1164 1164 1162 1162 1162 1156 1143 1120 0 0 0 0 0 0 0 0 0 0 0 0 0 1160 1160 1160 1160 1152 1138 1133 1131 1128 1128 1123 1106 1100 1096 1091 1084 1084 1084 1092 1092 1092 1092 1054 1051 0 0 0 0 0 0 1397 1401 1401 1401 1388 1388 1388 1386 1386 1386 1365 1346 0 0 0 0 0 0 0 877 877 904 904 904 893 893 0 0 0 0 0 0 0 0 0 0 0 0 0 1150 1150 1150 1150 1173 1194 1209 1211 1211 1211 1196 1196 1196 1205 1205 1205 1180 1177 0 0 0 0 0 0 0 0 800 800 796 794 794 0 0 0 0 0 0 0 0 0 510 505 489 459 0 0 0 0 0 0 0 0 0 0 0 0 0 482 493 493 482 482 482 0 0 0
430 430 433 433 433 425 424 424 424 429 433 439 443 450 465 484 487 0 0 0 0 0 630 653 673 689 701 707 724 735 737 755 0 0 0 0 0 0 1082 1094 1107 1131 1158 1191 1213 1232 1234 1248 1254 1261 1264 1268 1268 1268 1265 1244 0 0 0 0 0 927 911 907 906 906 907 907 907 907 908 908 908 908 909 910 911 912 914 915 915 916 917 917 917 0 0 0 0 0 0 0 0 0 0 0 0 0 0 0 0 0 0 0 906 906 895 876 854 851 851 851 851 851 851 850 848 848 848 849 850 851 851 852 853 853 854 855 855 856 857 857 858 858 859 860 860 861 861 862 862 862 863 868 880 892 908 908 0 0 0 0 0 0 0 0 0 0 0 0 0 0 0 0 0 0 0 0 0 0 0 0 0 0 0 0 0 0 0 0 0 0 0 0 0 0 939 939 923 915 915 915 915 915 915 915 914 913 913 913 913 913 913 914 915 916 917 918 920 921 922 923 924 925 926 927 927 928 928 927 925 925 925 940 955 955 0 0 0 0 0 0 0 0 0 0 0 0 0 0 0 0 0 0 0 0 0 0 0 0 0 0 0 0 1011 1010 1008 1007 1007 1006 1002 998 994 989 985 985 985 985 985 984 983 982 982 982 982 984 987 990 992 995 995 996 996 997 998 1000 1001 1004 1006 1007 1009 1011 1013 1015 1016 1018 1020 1025 1026 1026 1026 1026 1026 1025 1025 1025 1025 1025 1025 1025 1026 1026 1026 1026 1026 1026 1026 1026 1026 1026 1027 1027 1029 1029 1029 1029 1029 1031 1033 1033 1034 1035 1037 1044 1045 1047 1048 1049 1049 1049 1050 1050 1051 1052 1053 1055 1057 1059 1060 1061 1061 1062 1063 1064 1065 1066 1068 1068 1068 1068 1068 1068 1068 1066 1065 1061 1052 1043 1036 1032 1030 1027 1022 1020 1020 1020 1019 1017 1017 1015 1014 1012 1006 1001 1001 1001 1007 1010 1011 1012 1012 1013 1019 1031 1043 1059 1074 1083 1090 1091 1093 1096 1098 1101 1103 1105 1105 1108 1108 1109 1110 1111 1112 1113 1114 1114 1114 1114 1115 1115 1115 1115 1114 1113 1109 1104 1100 1091 1072 1049 1035 1028 1022 1019 1016 1016 1013 1013 1013 1016 1017 1018 1018 1018 1018 1018 1019 1021 1024 1028 1035 1042 1057 1068 1079 1098 1116 1132 1140 1141 1145 1147 1150 1152 1152 1154 1155 1156 1158 1159 1160 1160 1160 1161 1162 1162 1163 1163 1163 1163 1163 1163 1163 1163 1163 1163 1161 1161 1159 1156 1143 1121 0 0 0 0 0 0 0 0 0 0 0 0 0 1100 1135 1152 1152 1152 1137 1126 1124 1122 1121 1115 1096 1092 1092 1090 1082 1082 1082 1089 1089 1089 1085 1039 1039 0 0 0 0 0 0 1398 1402 1402 1402 1397 1394 1394 1391 1387 1386 1363 1346 0 0 0 0 0 0 0 883 883 904 904 907 908 0 0 0 0 0 0 0 0 0 0 0 0 0 1150 1150 1150 1150 1150 1177 1197 1210 1213 1213 1213 1200 1200 1200 1205 1205 1205 1171 1168 0 0 0 0 0 0 0 0 800 800 800 794 794 0 0 0 0 0 0 0 0 494 484 475 473 455 455 0 0 0 0 0 0 0 0 0 0 0 493 493 493 493 490 490 482 0 0 0
430 430 433 433 433 425 424 424 424 430 439 440 443 450 461 477 479 500 0 0 0 0 0 651 671 689 701 707 724 735 737 755 774 0 0 0 0 0 1082 1094 1115 1131 1158 1191 1213 1227 1230 1245 1255 1262 1269 1275 1277 1277 1277 1265 0 0 0 0 0 934 917 906 906 906 906 907 907 908 908 908 908 908 909 910 911 913 915 915 916 916 917 917 917 0 0 0 0 0 0 0 0 0 0 0 0 0 0 0 0 0 0 0 909 909 896 875 850 849 848 848 848 849 849 849 848 848 848 848 849 850 851 852 852 853 854 855 855 855 857 857 858 859 859 860 861 862 862 862 863 863 866 869 880 891 908 908 0 0 0 0 0 0 0 0 0 0 0 0 0 0 0 0 0 0 0 0 0 0 0 0 0 0 0 0 0 0 0 0 0 0 0 0 0 0 940 940 920 915 915 915 915 915 915 915 915 914 914 914 914 914 914 915 916 918 919 920 922 923 923 925 925 927 927 929 930 931 931 931 927 927 927 940 955 955 0 0 0 0 0 0 0 0 0 0 0 0 0 0 0 0 0 0 0 0 0 0 0 0 0 0 0 0 0 1004 0 0 0 1000 997 997 991 986 986 985 985 985 985 984 983 983 983 983 983 988 991 994 996 998 998 998 998 998 1002 1004 1005 1006 1007 1008 1011 1012 1015 1016 1017 1018 1020 1023 1025 1025 1025 1024 1024 1024 1023 1023 1022 1022 1022 1023 1023 1023 1023 1023 1022 1021 1021 1021 1021 1022 1024 1024 1025 1025 1025 1026 1028 1030 1030 1031 1033 1033 1038 1044 1045 1048 1050 1050 1051 1052 1052 1052 1054 1055 1057 1059 1060 1060 1063 1064 1064 1065 1065 1067 1067 1069 1069 1069 1069 1069 1069 1069 1068 1065 1064 1060 1049 1036 1033 1032 1027 1024 1020 1019 1019 1019 1018 1017 1016 1014 1012 1010 1006 1001 1001 1001 1001 1002 1005 1009 1010 1013 1018 1031 1041 1057 1072 1083 1090 1091 1093 1097 1099 1102 1103 1105 1106 1108 1109 1110 1111 1112 1113 1113 1114 1115 1115 1115 1115 1115 1115 1114 1113 1113 1109 1106 1101 1094 1072 1049 1035 1028 1024 1023 1019 1017 1016 1016 1016 1016 1017 1018 1020 1021 1022 1022 1023 1024 1026 1030 1037 1042 1055 1063 1074 1096 1114 1132 1134 1138 1144 1147 1150 1151 1152 1153 1155 1156 1156 1158 1158 1159 1160 1161 1161 1161 1162 1162 1162 1163 1163 1163 1163 1163 1163 1163 1160 1160 1159 1156 1143 1124 0 0 0 0 0 0 0 0 0 0 0 0 0 1078 1112 1134 1137 1137 1137 1122 1114 1111 1110 1102 1096 1092 1092 1090 1078 1078 1078 1088 1088 1088 1070 1039 0 0 0 0 0 0 1396 1408 1413 1414 1414 1414 1404 1404 1395 1395 1381 1363 0 0 0 0 0 0 0 0 0 904 905 919 0 0 0 0 0 0 0 0 0 0 0 0 0 0 0 1205 1205 1205 1179 1179 1179 1197 1214 1214 1214 1213 1202 1202 1202 1196 1196 1193 1165 1161 0 0 0 0 0 0 856 830 803 803 800 794 794 0 0 0 0 0 0 0 0 490 474 460 460 455 455 455 0 0 0 0 0 0 0 0 0 493 493 493 493 490 489 489 482 0 0 0
431 431 431 431 426 423 423 423 426 436 450 450 452 454 461 477 479 493 513 0 0 0 0 0 671 692 707 715 724 735 737 755 774 0 0 0 0 0 1097 1116 1126 1143 1158 1191 1212 1226 1230 1244 1255 1264 1273 1285 1289 1289 1289 1273 1246 0 0 0 0 937 920 907 906 906 906 907 907 908 908 908 908 909 909 911 911 913 915 915 915 916 916 916 916 0 0 0 0 0 0 0 0 0 0 0 0 0 0 0 0 0 0 0 0 910 896 869 850 847 847 847 847 847 847 847 847 847 847 848 849 850 851 851 852 853 854 854 855 855 856 857 857 859 859 860 861 862 863 863 863 863 869 872 880 891 908 908 0 0 0 0 0 0 0 0 0 0 0 0 0 0 0 0 0 0 0 0 0 0 0 0 0 0 0 0 0 0 0 0 0 0 0 0 0 0 940 940 920 914 914 914 915 915 916 916 915 915 914 914 914 915 916 917 918 920 921 923 924 926 927 928 928 929 931 931 933 933 933 933 933 934 936 951 966 966 0 0 0 0 0 0 0 0 0 0 0 0 0 0 0 0 0 0 0 0 0 0 0 0 0 0 0 0 0 0 0 0 0 998 995 995 990 986 986 986 987 987 987 985 984 984 984 986 989 991 992 994 997 998 999 1000 1001 1002 1005 1007 1008 1010 1010 1011 1013 1015 1016 1017 1019 1019 1020 1022 1023 1023 1023 1023 1022 1022 1021 1020 1019 1018 1018 1018 1019 1019 1019 1018 1016 1016 1016 1017 1018 1019 1019 1020 1020 1020 1020 1020 1022 1023 1024 1025 1029 1033 1038 1045 1046 1049 1051 1052 1053 1053 1055 1056 1057 1058 1060 1061 1061 1062 1063 1064 1065 1067 1068 1068 1068 1070 1070 1070 1070 1069 1069 1069 1068 1065 1063 1059 1048 1036 1031 1030 1027 1023 1020 1019 1018 1018 1016 1015 1012 1012 1010 1008 1005 1001 1001 1001 1001 1002 1005 1009 1010 1013 1018 1028 1041 1056 1071 1082 1087 1091 1093 1097 1099 1102 1103 1105 1106 1108 1110 1110 1111 1112 1113 1113 1115 1115 1115 1115 1115 1115 1115 1114 1113 1112 1110 1106 1103 1095 1072 1045 1034 1028 1025 1025 1025 1021 1018 1017 1017 1017 1017 1018 1020 1022 1022 1024 1026 1027 1030 1033 1039 1045 1055 1062 1074 1092 1114 1123 1131 1137 1143 1146 1148 1150 1151 1153 1154 1156 1156 1157 1158 1159 1159 1161 1161 1161 1161 1161 1162 1162 1162 1162 1163 1163 1162 1162 1159 1158 1157 1155 1152 1143 1132 0 0 0 0 0 0 0 0 0 0 0 0 1077 1098 1123 1136 1136 1136 1118 1114 1111 1110 1102 1096 1092 1092 1089 1077 1073 1073 1073 1073 1073 1070 0 0 0 0 0 0 1420 1421 1425 1438 1449 1449 1449 1439 1421 1409 1398 1381 0 0 0 0 0 0 0 0 0 0 0 0 0 0 0 0 0 0 0 0 0 0 0 0 0 1166 1167 1198 1205 1205 1205 1198 1198 1198 1210 1227 1227 1227 1216 1202 1197 1196 1194 1189 1177 1157 1153 0 0 0 0 0 877 854 830 818 818 806 805 805 0 0 0 0 0 0 0 0 479 472 456 456 447 447 447 0 0 0 0 0 0 0 0 479 491 491 491 490 488 481 476 463 0 0 0
431 431 423 423 423 423 423 427 434 448 455 455 461 461 461 477 479 492 501 517 0 0 0 0 0 693 713 730 740 749 760 762 774 0 0 0 0 0 1117 1136 1145 1157 1169 1191 1212 1226 1230 1244 1255 1266 1279 1285 1295 1295 1295 1283 1265 0 0 0 0 0 921 911 906 906 906 907 908 908 908 908 909 909 909 911 911 913 915 915 915 915 916 916 916 0 0 0 0 0 0 0 0 0 0 0 0 0 0 0 0 0 0 0 0 897 897 871 847 845 845 845 845 845 846 846 847 847 847 848 849 850 851 851 851 853 853 854 855 855 856 857 858 859 859 860 861 862 863 863 863 863 869 872 880 889 905 905 0 0 0 0 0 0 0 0 0 0 0 0 0 0 0 0 0 0 0 0 0 0 0 0 0 0 0 0 0 0 0 0 0 0 0 0 0 0 940 940 920 914 914 914 915 916 916 916 916 916 916 916 916 916 917 918 919 921 922 923 926 927 929 930 931 931 933 933 933 934 934 934 934 935 944 958 967 967 0 0 0 0 0 0 0 0 0 0 0 0 0 0 0 0 0 0 0 0 0 0 0 0 0 0 0 0 0 0 994 994 994 994 994 990 990 986 986 986 989 989 989 988 988 987 987 988 989 992 994 995 997 999 1000 1000 1003 1006 1010 1011 1012 1013 1014 1014 1014 1016 1017 1020 1020 1020 1020 1021 1021 1021 1021 1020 1019 1018 1017 1017 1015 1012 1012 1012 1013 1014 1014 1014 1013 1013 1013 1013 1013 1013 1013 1013 1013 1013 1011 1010 1010 1010 1012 1021 1027 1033 1038 1045 1046 1049 1052 1052 1054 1056 1056 1058 1059 1060 1061 1061 1063 1063 1064 1064 1066 1067 1068 1068 1070 1070 1070 1070 1070 1070 1069 1069 1068 1065 1063 1058 1048 1036 1030 1029 1027 1022 1019 1017 1015 1014 1013 1011 1010 1009 1007 1006 1005 1003 1002 1002 1002 1002 1005 1009 1010 1013 1018 1028 1037 1055 1071 1081 1085 1089 1093 1097 1099 1102 1103 1105 1107 1108 1110 1110 1111 1112 1113 1114 1115 1115 1115 1115 1115 1115 1115 1114 1113 1112 1110 1106 1104 1097 1074 1045 1034 1028 1026 1025 1025 1022 1019 1019 1019 1019 1019 1020 1022 1022 1023 1025 1026 1029 1031 1035 1040 1046 1053 1059 1074 1092 1110 1122 1130 1135 1140 1144 1147 1149 1151 1152 1153 1155 1156 1157 1157 1158 1159 1159 1160 1161 1161 1161 1161 1162 1162 1161 1161 1161 1161 1161 1159 1158 1155 1155 1152 1150 1134 0 0 0 0 0 0 0 0 0 0 0 0 1065 1092 1113 1127 1127 1127 1118 1114 1111 1110 1102 1102 1101 1099 1089 1073 1058 1058 1058 1069 1070 1078 0 0 0 0 0 1432 1445 1461 1466 1466 1466 1464 1453 1440 1430 1424 1409 0 0 0 0 0 0 0 0 0 0 0 0 0 0 0 0 0 0 0 0 0 0 0 0 1201 1201 1201 1201 1214 1214 1214 1209 1209 1209 1213 1227 1240 1240 1240 1223 1202 1201 1197 1196 1189 1168 1152 1148 0 0 0 0 0 874 854 847 845 844 835 822 805 0 0 0 0 0 0 0 469 460 456 455 448 448 448 0 0 0 0 0 0 0 0 0 480 486 486 486 475 472 462 462 461 457 451 0
431 431 423 423 423 423 424 434 449 469 472 472 472 472 472 477 479 492 501 508 518 0 0 0 0 693 721 740 755 768 781 784 791 0 0 0 0 0 1140 1151 1162 1168 1176 1191 1212 1226 1242 1244 1257 1267 1279 1285 1299 1299 1299 1294 1275 0 0 0 0 0 923 914 909 907 907 907 908 908 908 908 909 909 909 911 911 913 913 913 913 913 914 916 916 0 0 0 0 0 0 0 0 0 0 0 0 0 0 0 0 0 0 0 0 902 902 873 846 844 844 844 845 845 846 846 846 846 846 848 848 850 850 851 851 853 853 854 855 855 856 857 858 859 859 860 862 862 863 863 864 864 869 872 880 887 905 905 0 0 0 0 0 0 0 0 0 0 0 0 0 0 0 0 0 0 0 0 0 0 0 0 0 0 0 0 0 0 0 0 0 0 0 0 0 0 942 942 936 917 915 915 915 916 916 917 917 917 916 916 916 917 919 919 921 924 926 926 927 929 930 931 931 933 934 935 935 935 935 935 935 935 944 958 967 967 0 0 0 0 0 0 0 0 0 0 0 0 0 0 0 0 0 0 0 0 0 0 0 0 0 0 0 0 0 0 994 994 993 993 990 990 989 989 990 991 991 993 995 995 995 994 994 994 994 995 996 997 997 999 1000 1001 1010 1011 1013 1014 1015 1016 1017 1018 1019 1019 1020 1022 1022 1022 1022 1021 1021 1020 1019 1017 1013 1013 1012 1011 1008 1007 1007 1007 1007 1008 1008 1008 1007 1006 1005 1004 1004 1004 1004 1005 1007 1007 1007 1003 1003 1003 1004 1017 1024 1030 1037 1045 1046 1049 1052 1053 1054 1056 1056 1058 1059 1061 1061 1063 1064 1064 1064 1066 1066 1068 1068 1070 1070 1071 1071 1071 1070 1070 1069 1069 1068 1065 1063 1057 1048 1035 1029 1027 1026 1022 1019 1016 1015 1013 1012 1009 1009 1008 1007 1006 1005 1003 1003 1003 1004 1005 1006 1009 1010 1014 1019 1028 1037 1052 1071 1079 1084 1088 1093 1096 1099 1100 1103 1105 1107 1108 1109 1110 1111 1112 1113 1114 1114 1115 1115 1115 1115 1115 1115 1115 1114 1112 1111 1107 1104 1097 1080 1045 1034 1028 1027 1026 1025 1023 1021 1021 1021 1021 1022 1022 1023 1023 1025 1026 1029 1031 1034 1037 1043 1048 1053 1059 1074 1091 1107 1121 1129 1133 1139 1143 1146 1148 1150 1152 1153 1154 1155 1156 1157 1158 1158 1159 1160 1160 1160 1160 1161 1161 1161 1161 1161 1161 1161 1160 1159 1158 1155 1155 1152 1150 1140 0 0 0 0 0 0 0 0 0 0 0 0 1056 1082 1101 1114 1117 1117 1117 1110 1110 1110 1110 1110 1110 1103 1086 1062 1058 1058 1058 1066 1083 0 0 0 0 0 1414 1439 1466 1474 1486 1486 1486 1481 1461 1442 1433 1430 1426 0 0 0 0 0 0 0 0 0 0 0 0 0 0 0 0 0 0 0 0 0 0 1296 1263 1240 1237 1230 1229 1226 1224 1214 1214 1214 1222 1238 1261 1261 1261 1255 1230 1212 1201 1197 1196 1189 1168 1142 1137 0 0 0 0 0 860 854 854 852 847 845 822 0 0 0 0 0 0 0 0 469 459 453 449 449 450 0 0 0 0 0 0 0 0 0 0 480 477 476 475 472 472 462 462 462 462 462 0
429 429 423 423 423 423 427 441 0 0 0 0 0 0 0 490 490 492 501 508 518 539 0 0 0 0 726 747 764 781 803 805 0 0 0 0 0 0 1149 1163 1171 1177 1183 1193 1213 1230 1247 1250 1262 1270 1279 1291 1305 1305 1305 1302 1285 0 0 0 0 0 926 915 910 908 908 908 908 908 908 908 909 909 909 909 910 910 913 913 913 914 914 916 916 0 0 0 0 0 0 0 0 0 0 0 0 0 0 0 0 0 0 0 0 902 902 873 846 842 842 842 844 845 846 846 846 846 846 848 848 849 849 851 851 853 853 854 855 856 856 857 858 859 860 861 862 863 863 864 864 864 869 876 879 887 903 903 0 0 0 0 0 0 0 0 0 0 0 0 0 0 0 0 0 0 0 0 0 0 0 0 0 0 0 0 0 0 0 0 0 0 0 0 0 0 942 942 936 927 919 919 918 919 919 920 921 921 920 919 919 919 919 921 922 926 930 930 930 932 932 933 935 935 936 936 936 936 936 935 935 935 944 958 966 966 0 0 0 0 0 0 0 0 0 0 0 0 0 0 0 0 0 0 0 0 0 0 0 0 0 0 0 0 0 0 994 993 993 991 991 991 989 989 991 992 996 1000 1000 1000 998 998 994 994 998 999 998 999 999 999 1000 1009 1012 1013 1014 1015 1016 1018 1020 1021 1021 1021 1022 1023 1023 1023 1022 1021 1021 1019 1016 1013 1007 1007 1006 1005 1002 1002 1002 1002 1002 1002 1001 1001 1000 999 999 998 998 999 1000 1001 1002 1002 1002 1001 1001 1001 1001 1008 1019 1028 1034 1040 1045 1048 1052 1053 1054 1056 1057 1059 1059 1061 1062 1063 1064 1064 1065 1066 1067 1068 1068 1070 1070 1070 1070 1070 1070 1070 1069 1068 1068 1065 1063 1056 1048 1036 1028 1025 1023 1021 1018 1016 1014 1013 1010 1009 1008 1007 1006 1006 1005 1004 1004 1004 1004 1006 1006 1009 1010 1014 1019 1028 1036 1049 1067 1079 1083 1087 1091 1094 1098 1100 1102 1105 1106 1108 1109 1110 1111 1112 1113 1113 1114 1115 1115 1115 1115 1115 1115 1115 1114 1113 1111 1107 1106 1098 1083 1061 1039 1029 1027 1026 1025 1025 1024 1023 1023 1023 1024 1025 1025 1026 1028 1030 1031 1033 1035 1037 1045 1049 1053 1059 1074 1091 1107 1119 1127 1133 1139 1142 1144 1147 1149 1152 1152 1154 1155 1156 1157 1157 1158 1158 1159 1159 1160 1160 1161 1161 1161 1161 1160 1160 1160 1160 1159 1158 1155 1155 1152 1150 1141 1121 0 0 0 0 0 0 0 0 0 0 0 0 1063 1086 1100 1104 1108 1108 1109 1110 1110 1111 1111 1111 1103 1078 1062 1058 1058 1058 1066 0 0 0 0 0 1416 1429 1439 1466 1479 1499 1507 1507 1507 1489 1465 1445 1439 1438 0 0 0 0 0 0 0 0 0 0 0 0 0 0 0 0 0 0 0 0 0 1296 1296 1278 1277 1261 1250 1241 1231 1226 1226 1226 1230 1244 1262 1280 1280 1280 1274 1245 1230 1229 1226 1216 1193 1168 1142 0 0 0 0 0 0 847 847 847 847 847 845 822 0 0 0 0 0 0 0 0 469 451 447 447 447 0 0 0 0 0 0 0 0 0 0 0 479 468 468 468 468 468 462 462 462 462 464 0
429 429 423 423 423 423 429 446 0 0 0 0 0 0 0 0 0 504 504 508 518 0 0 0 0 0 733 754 771 792 819 822 0 0 0 0 0 1120 1150 1170 1179 1185 1188 1197 1222 1236 1248 1252 1267 1275 1282 1303 1315 1315 1315 1310 1291 0 0 0 0 0 927 916 910 908 908 908 907 907 907 908 908 909 909 909 909 909 913 913 913 914 916 916 916 0 0 0 0 0 0 0 0 0 0 0 0 0 0 0 0 0 0 0 0 902 902 873 846 842 842 842 844 845 846 846 846 846 847 848 848 849 849 851 851 853 854 854 855 856 857 858 860 860 861 862 863 865 865 865 865 865 870 876 879 887 902 902 0 0 0 0 0 0 0 0 0 0 0 0 0 0 0 0 0 0 0 0 0 0 0 0 0 0 0 0 0 0 0 0 0 0 0 0 0 0 942 942 936 927 922 921 921 922 923 925 927 927 927 925 923 923 923 924 927 928 931 932 933 933 934 934 935 935 936 937 937 937 937 936 936 936 944 958 966 973 0 0 0 0 0 0 0 0 0 0 0 0 0 0 0 0 0 0 0 0 0 0 0 0 0 0 0 0 0 986 986 986 986 986 986 986 990 991 991 994 998 1003 1007 1007 1007 1001 1001 1001 1001 1001 1001 1003 1005 1011 1015 1016 1017 1017 1017 1018 1019 1021 1021 1022 1022 1022 1022 1023 1023 1023 1022 1021 1019 1015 1012 1009 1006 1003 1002 1002 1000 999 999 998 997 997 996 996 996 996 996 996 996 996 997 998 999 999 999 999 999 999 1001 1005 1013 1027 1033 1037 1044 1048 1051 1053 1054 1056 1057 1059 1059 1061 1062 1063 1064 1064 1065 1066 1067 1068 1068 1070 1070 1070 1070 1070 1070 1070 1069 1068 1067 1065 1063 1056 1046 1036 1028 1023 1019 1018 1017 1015 1013 1011 1010 1008 1007 1006 1006 1005 1005 1004 1004 1004 1004 1006 1006 1008 1011 1015 1019 1027 1035 1046 1062 1071 1077 1085 1089 1093 1098 1100 1102 1104 1106 1107 1109 1109 1110 1112 1112 1113 1113 1114 1115 1115 1115 1115 1115 1115 1114 1114 1111 1108 1107 1100 1090 1068 1043 1037 1031 1028 1027 1027 1027 1027 1027 1026 1026 1027 1027 1029 1030 1032 1033 1034 1036 1039 1046 1050 1057 1064 1076 1091 1107 1116 1126 1132 1137 1142 1144 1146 1148 1150 1152 1153 1154 1155 1155 1157 1157 1158 1158 1159 1159 1159 1160 1160 1160 1160 1160 1159 1159 1158 1158 1158 1156 1153 1152 1150 1145 1131 0 0 0 0 0 0 0 0 0 0 0 0 0 1061 1084 1087 1090 1099 1107 1108 1110 1114 1114 1114 1105 1078 1072 1072 1066 0 0 0 0 0 0 1416 1429 1439 1439 1466 1481 1503 1512 1513 1513 1512 1496 1472 1454 1439 0 0 0 0 0 0 0 0 0 0 0 0 0 0 0 0 0 0 0 1305 1305 1305 1301 1285 1282 1277 1258 1243 1235 1235 1235 1241 1258 1271 1279 1291 1291 1291 1287 1262 1262 1261 1254 1245 1206 1173 0 0 0 0 0 0 0 845 845 847 847 847 838 0 0 0 0 0 0 0 0 0 0 453 447 447 0 0 0 0 0 595 621 621 0 0 0 0 479 468 468 468 468 468 463 463 463 463 473 0
429 429 423 425 425 425 436 0 0 0 0 559 576 576 0 0 0 0 0 0 0 0 0 0 0 0 0 767 784 804 835 0 0 0 0 0 0 1134 1161 1179 1188 1195 1202 1221 1233 1245 1253 1258 1270 1280 1293 1307 1319 1319 1319 1314 1297 0 0 0 0 0 931 916 910 908 908 908 907 907 907 908 908 908 908 908 909 909 912 913 913 914 915 916 0 0 0 0 0 0 0 0 0 0 0 0 0 0 0 0 0 0 0 0 0 902 902 876 852 842 842 842 844 845 846 846 846 846 847 848 848 849 849 851 852 853 854 855 855 857 857 860 860 861 862 862 863 865 866 866 866 866 870 876 879 889 903 903 0 0 0 0 0 0 0 0 0 0 0 0 0 0 0 0 0 0 0 0 0 0 0 0 0 0 0 0 0 0 0 0 0 0 0 0 0 0 942 942 938 931 924 924 924 925 926 927 927 927 927 926 924 924 924 925 928 929 931 933 934 934 934 934 935 935 937 937 938 937 937 937 937 937 944 960 969 972 972 0 0 0 0 0 0 0 0 0 0 0 0 0 0 0 0 0 0 0 0 0 0 0 0 0 0 0 977 977 977 975 975 975 976 979 991 991 991 994 999 1004 1011 1013 1013 1013 1001 1001 1001 1013 1014 1015 1015 1016 1018 1019 1019 1019 1020 1020 1022 1022 1023 1024 1024 1024 1024 1024 1023 1023 1022 1021 1019 1015 1011 1008 1004 1003 1001 999 998 997 996 996 994 994 993 992 992 992 992 992 993 993 993 994 996 996 996 996 996 997 999 1002 1008 1015 1025 1031 1040 1048 1050 1053 1054 1055 1057 1059 1059 1061 1062 1063 1063 1064 1065 1066 1067 1068 1068 1070 1070 1070 1070 1070 1070 1069 1069 1067 1066 1064 1060 1054 1045 1036 1027 1023 1018 1018 1015 1013 1012 1009 1008 1006 1006 1005 1005 1005 1005 1005 1004 1004 1005 1005 1006 1008 1011 1015 1019 1026 1033 1042 1056 1066 1077 1085 1089 1093 1097 1100 1102 1104 1106 1107 1108 1109 1110 1111 1112 1113 1113 1113 1114 1115 1115 1115 1115 1115 1114 1114 1111 1108 1107 1102 1093 1073 1050 1043 1037 1032 1030 1030 1030 1030 1030 1029 1029 1029 1029 1031 1032 1034 1034 1035 1037 1042 1046 1054 1063 1068 1076 1087 1105 1116 1126 1131 1137 1141 1144 1146 1147 1150 1151 1153 1153 1154 1155 1155 1156 1157 1157 1157 1159 1159 1159 1160 1160 1160 1159 1159 1159 1158 1158 1158 1156 1153 1152 1151 1146 1136 0 0 0 0 0 0 0 0 0 0 0 0 0 1061 1073 1086 1090 1092 1094 1096 1099 1114 1114 1114 1105 1082 1082 1082 1092 0 0 0 0 0 0 1427 1429 1435 1435 1460 1483 1503 1512 1513 1513 1512 1496 1472 1454 1439 0 0 0 0 0 0 0 0 1028 1028 1041 1089 0 0 0 0 0 0 1298 1305 1305 1305 1302 1301 1299 1284 1260 1254 1254 1254 1263 1277 1291 1291 1292 1295 1293 1293 1293 1275 1275 1274 1264 1264 1216 1179 0 0 0 0 0 0 841 822 822 822 822 822 0 0 0 0 0 0 0 0 0 0 0 0 0 0 0 0 0 573 583 597 627 627 627 0 0 0 480 468 468 468 468 468 463 463 463 463 473 0
426 426 423 426 426 429 443 0 0 0 536 559 580 588 588 588 577 575 551 551 551 558 0 0 0 0 0 0 0 0 0 0 0 0 0 0 0 1144 1173 1187 1198 1208 1221 1231 1240 1249 1257 1261 1271 1283 1293 1307 1319 1319 1319 1318 1300 0 0 0 0 0 933 916 910 908 908 908 907 907 907 907 908 908 908 908 909 909 911 0 0 0 0 0 0 0 0 0 0 0 0 0 0 0 0 0 0 0 0 0 0 0 0 0 0 898 898 877 857 844 844 844 844 845 846 846 846 847 848 848 849 849 849 851 852 853 854 855 856 857 859 860 861 862 862 862 863 865 868 869 869 871 876 879 883 892 905 905 0 0 0 0 0 0 0 0 0 0 0 0 0 0 0 0 0 0 0 0 0 0 0 0 0 0 0 0 0 0 0 0 0 0 0 0 0 0 940 940 938 932 926 926 926 926 927 928 928 928 928 926 926 926 928 928 931 931 932 933 934 935 935 935 935 937 937 938 938 940 944 946 948 949 953 960 970 971 971 971 0 0 0 0 0 0 0 960 961 965 965 965 960 957 954 954 954 959 959 959 958 955 955 955 955 961 963 963 963 963 968 971 975 979 990 991 991 993 1000 1007 1011 1013 1013 1013 1001 1001 1001 1013 1014 1015 1015 1018 1019 1019 1019 1020 1021 1021 1022 1022 1024 1024 1024 1024 1024 1024 1023 1022 1022 1021 1019 1015 1011 1007 1004 1001 999 996 996 994 993 992 992 991 990 989 989 989 989 989 989 989 990 990 991 992 992 993 993 994 996 998 1004 1012 1024 1029 1036 1046 1050 1052 1054 1055 1056 1058 1059 1060 1061 1062 1063 1064 1065 1065 1066 1067 1068 1068 1069 1069 1069 1069 1069 1069 1068 1067 1066 1064 1060 1053 1044 1036 1027 1022 1018 1016 1014 1012 1010 1009 1007 1006 1005 1005 1005 1005 1005 1005 1004 1005 1005 1005 1006 1008 1011 1015 1019 1025 1033 1042 1056 1066 1077 1084 1088 1093 1096 1099 1101 1103 1105 1106 1108 1109 1110 1110 1111 1112 1113 1113 1114 1115 1115 1115 1115 1114 1114 1114 1111 1108 1107 1102 1094 1079 1059 1049 1041 1037 1035 1034 1034 1034 1033 1031 1031 1031 1032 1032 1034 1036 1036 1037 1038 1044 1046 1054 1063 1069 1076 1086 1105 1116 1127 1131 1136 1140 1143 1145 1147 1149 1150 1152 1153 1154 1155 1155 1156 1157 1157 1157 1158 1158 1159 1159 1159 1159 1159 1158 1157 1157 1157 1156 1156 1153 1152 1151 1147 1143 1135 0 0 0 0 0 0 0 0 0 0 0 0 1059 1070 1086 1090 1092 1092 1096 1099 1115 1115 1115 1105 1092 1092 1092 1101 0 0 0 0 0 1416 1416 1427 1432 1432 1460 1484 1503 1512 1513 1513 1512 1496 1472 1454 1425 1393 0 0 0 0 0 0 1056 1056 1056 1065 1101 1130 0 0 0 0 1269 1298 1305 1306 1309 1310 1310 1309 1294 1260 1260 1260 1268 1299 1302 1302 1302 1302 1302 1299 1299 1299 1275 1275 1274 1264 1264 1217 1187 0 0 0 0 0 0 841 822 822 819 816 804 0 0 0 0 0 0 0 0 0 0 0 0 0 0 0 0 583 584 590 608 630 630 630 0 0 0 483 470 464 464 464 463 463 463 475 475 488 0
420 420 420 423 423 437 0 0 0 0 541 562 581 589 589 589 586 585 564 564 564 567 584 0 0 0 0 0 0 0 0 0 0 0 0 0 0 1153 1180 1193 1206 1217 1227 1236 1244 1252 1259 1264 1273 1284 1293 1307 1319 1321 1321 1321 1309 0 0 0 0 0 933 915 908 908 908 908 907 907 907 907 907 908 908 908 909 910 910 0 0 0 0 0 0 0 0 0 0 0 0 0 0 0 0 0 0 0 0 0 0 0 0 0 0 894 894 877 857 844 844 844 844 845 846 846 847 848 848 848 849 849 849 851 852 853 854 855 856 857 859 860 862 862 862 863 865 867 869 871 872 875 877 881 886 897 908 908 0 0 0 0 0 0 0 0 0 0 0 0 0 0 0 0 0 0 0 0 0 0 0 0 0 0 0 0 0 0 0 0 0 0 0 0 0 0 940 940 938 932 929 929 929 929 931 931 930 929 930 929 929 930 931 932 934 938 938 938 938 938 938 939 939 939 940 941 941 943 951 952 953 956 957 967 971 971 971 971 965 958 957 956 956 958 959 960 961 965 965 965 960 957 954 954 954 959 959 959 956 955 955 953 949 949 949 950 954 955 955 956 965 978 986 991 997 1001 1004 1008 1012 1013 1015 1015 0 0 0 1014 1014 1015 1015 1019 1019 1019 1019 1020 1021 1021 1023 1024 1024 1025 1025 1025 1025 1024 1023 1022 1022 1021 1018 1014 1010 1007 1003 999 996 993 993 992 990 989 988 987 987 986 985 985 985 986 986 986 986 986 986 987 987 987 987 989 989 992 998 1012 1023 1028 1036 1043 1048 1050 1053 1054 1056 1057 1059 1060 1061 1062 1063 1064 1064 1065 1065 1066 1067 1068 1069 1069 1069 1069 1068 1068 1067 1067 1065 1063 1059 1053 1044 1036 1027 1021 1017 1013 1012 1011 1009 1008 1007 1006 1005 1005 1005 1005 1004 1004 1005 1005 1005 1006 1007 1011 1013 1016 1019 1025 1033 1042 1055 1066 1074 1084 1088 1093 1096 1098 1101 1103 1105 1106 1107 1109 1109 1110 1111 1111 1112 1113 1113 1114 1114 1114 1114 1114 1113 1113 1111 1108 1107 1102 1096 1086 1071 1054 1045 1042 1042 1040 1038 1035 1033 1033 1033 1034 1034 1035 1035 1036 1037 1038 1040 1044 1046 1054 1063 1069 1076 1082 1105 1116 1124 1131 1136 1141 1143 1145 1146 1149 1150 1152 1153 1153 1154 1155 1156 1156 1156 1157 1157 1158 1158 1158 1158 1158 1158 1157 1157 1156 1155 1154 1154 1153 1152 1151 1147 1143 1137 0 0 0 0 0 0 0 0 0 0 0 0 1044 1070 1074 1091 1091 1092 1096 1098 1115 1115 1115 1105 1099 1099 1099 1106 0 0 0 0 1413 1413 1414 1414 1414 1432 1460 1486 1504 1504 1504 1496 1482 1470 1455 1435 1418 1393 0 0 0 0 0 1094 1085 1085 1085 1093 1112 1134 1145 0 0 1252 1274 1297 1298 1304 1310 1314 1314 1314 1294 1260 1260 1260 1268 1299 1302 1302 1302 1302 1302 1299 1299 1299 1275 1275 1274 1264 1264 1231 1197 0 0 0 0 0 0 841 834 819 818 815 803 0 0 0 0 660 654 652 0 0 0 0 0 0 0 0 0 602 605 608 609 630 630 630 0 0 0 495 487 486 481 464 463 463 463 478 478 498 0
414 420 420 422 424 0 0 0 0 0 552 567 581 592 592 592 592 592 579 579 579 583 587 601 0 0 0 0 0 0 0 0 0 0 0 0 0 1165 1185 1200 1216 1226 1232 1239 1246 1254 1262 1267 1275 1284 1296 1307 1316 1321 1321 1321 1309 0 0 0 0 0 0 915 907 907 907 907 907 907 907 907 907 908 908 909 909 911 911 0 0 0 0 0 0 0 0 0 0 0 0 0 0 0 0 0 0 0 0 0 0 0 0 0 0 894 894 877 858 844 844 844 844 845 846 847 847 848 848 849 849 849 850 852 853 853 854 855 856 859 861 862 863 863 864 864 865 868 869 874 877 880 881 881 886 897 908 908 0 0 0 0 0 0 0 0 0 0 0 0 0 0 0 0 0 0 0 0 0 0 0 0 0 0 0 0 0 0 0 0 0 0 0 0 0 0 941 941 941 935 935 935 935 935 935 935 935 930 930 930 930 931 934 938 939 940 943 945 945 945 945 946 951 957 961 961 963 965 965 965 965 965 965 968 971 971 971 968 960 958 957 956 955 954 954 954 954 954 954 951 951 951 950 950 950 950 954 954 954 951 950 948 945 945 945 945 949 950 950 951 959 976 985 989 997 1001 1004 1008 1012 1012 1015 0 0 0 0 0 1014 1016 1016 1018 1019 1019 1019 1020 1021 1021 1023 1024 1025 1026 1026 1026 1025 1024 1023 1023 1022 1022 1018 1014 1010 1006 1001 996 993 991 990 989 987 986 985 984 984 983 981 981 981 982 983 983 983 983 983 983 983 984 985 988 988 989 996 1012 1021 1028 1035 1042 1045 1048 1051 1053 1055 1057 1057 1059 1060 1062 1062 1063 1064 1065 1065 1065 1066 1067 1068 1068 1068 1068 1068 1067 1067 1066 1065 1062 1059 1053 1044 1036 1027 1022 1017 1013 1011 1010 1008 1007 1007 1006 1005 1005 1004 1004 1004 1004 1005 1005 1005 1006 1009 1012 1015 1017 1019 1025 1034 1042 1055 1066 1074 1084 1086 1091 1095 1097 1099 1102 1104 1106 1106 1107 1108 1109 1110 1111 1111 1112 1112 1113 1113 1113 1113 1113 1112 1112 1111 1108 1105 1102 1098 1093 1075 1057 1048 1046 1046 1045 1041 1038 1038 1038 1038 1038 1038 1038 1038 1038 1038 1041 1043 1044 1046 1058 1063 1069 1073 1079 1101 1115 1123 1129 1135 1140 1143 1145 1146 1149 1150 1151 1152 1153 1154 1154 1154 1155 1156 1156 1157 1157 1158 1158 1158 1158 1157 1157 1157 1156 1155 1154 1154 1153 1152 1151 1147 1143 1138 1118 0 0 0 0 0 0 0 0 0 0 0 1044 1068 1074 1091 1091 1092 1096 1097 1115 1115 1115 1107 1107 1107 1107 0 0 0 0 1413 1413 1413 1413 1413 1414 1435 1465 1494 1499 1499 1499 1479 1462 1444 1439 1430 1413 1388 1362 0 0 0 0 1081 1081 1105 1125 1128 1130 1137 1160 0 0 1258 1274 1283 1290 1304 1316 1316 1316 1314 1294 1258 1258 1258 1268 1299 1302 1302 1302 1302 1302 1299 1299 1299 1277 1263 1263 1260 1255 1236 1212 1207 0 0 0 0 0 887 866 830 814 810 0 0 0 0 662 656 654 652 621 0 0 0 0 0 0 0 0 617 621 627 640 640 640 638 0 0 0 516 502 501 491 464 455 455 455 478 478 498 0
413 420 420 422 424 0 0 0 0 0 565 584 590 594 599 600 600 599 594 594 594 601 601 604 0 0 0 0 0 0 0 0 0 0 0 0 0 1167 1188 1203 1219 1229 1236 1244 1251 1257 1265 1269 1277 1287 1297 1307 1316 1321 1321 1321 1310 0 0 0 0 0 0 0 906 906 906 906 907 907 907 907 907 907 908 909 909 911 911 0 0 0 0 0 0 0 0 0 0 0 0 0 0 0 0 0 0 0 0 0 0 0 0 0 0 894 894 877 858 847 845 845 845 845 846 847 847 849 849 849 849 849 850 852 853 854 854 855 860 863 863 863 863 864 864 864 865 870 873 875 881 882 884 884 886 897 908 908 0 0 0 0 0 0 0 0 0 0 0 0 0 0 0 0 0 0 0 0 0 0 0 0 0 0 0 0 0 0 0 0 0 0 0 0 0 0 942 942 942 936 936 936 935 937 937 937 937 937 937 938 938 941 946 947 947 946 945 945 943 945 945 946 951 957 961 961 963 965 965 965 965 965 965 970 971 971 971 964 959 956 953 948 945 945 945 945 944 938 938 938 939 940 944 945 946 947 947 947 947 947 947 946 944 944 944 945 946 949 950 951 956 976 985 987 997 1001 1004 1008 1011 1012 0 0 0 0 0 0 0 1016 1016 1018 1019 1019 1019 1020 1021 1021 1022 1024 1025 1026 1026 1026 1025 1024 1023 1023 1022 1021 1018 1013 1008 1003 998 995 991 989 986 984 983 981 981 980 980 978 978 978 978 979 980 980 980 979 979 979 980 983 985 986 988 988 994 1009 1020 1028 1035 1041 1044 1046 1049 1052 1054 1055 1056 1058 1059 1061 1062 1062 1063 1064 1064 1065 1066 1066 1067 1067 1067 1067 1067 1067 1066 1065 1065 1061 1059 1053 1044 1036 1027 1021 1017 1013 1010 1008 1007 1006 1006 1006 1005 1004 1004 1004 1004 1005 1005 1006 1006 1007 1010 1012 1015 1017 1021 1027 1034 1042 1055 1066 1074 1081 1086 1091 1094 1096 1099 1102 1103 1105 1106 1107 1108 1109 1110 1110 1110 1110 1112 1112 1112 1112 1112 1111 1111 1111 1110 1108 1105 1101 1098 1093 1080 1060 1049 1048 1047 1047 1044 1041 1041 1041 1043 1043 1043 1041 1041 1041 1042 1045 1048 1049 1049 1058 1063 1069 1073 1079 1097 1115 1123 1129 1135 1140 1143 1145 1146 1148 1150 1150 1152 1152 1153 1154 1154 1155 1155 1156 1156 1157 1157 1157 1157 1157 1157 1157 1156 1156 1154 1154 1154 1152 1152 1146 1142 1141 1138 1118 0 0 0 0 0 0 0 0 0 0 0 1019 1041 1069 1091 1091 1092 1096 1097 1099 1101 1104 1104 1112 1121 1129 0 0 0 1400 1400 1400 1401 1401 1401 1418 1441 1478 1498 1498 1498 1498 1478 1462 1444 1432 1429 1413 1388 1362 0 0 0 0 1074 1074 1125 1133 1139 1139 1140 1165 0 1260 1274 1276 1283 1290 1304 1316 1316 1316 1307 1268 1226 1226 1226 1249 1291 1302 1302 1302 1302 1302 1299 1299 1294 1276 1263 1262 1260 1255 1251 1233 1228 0 0 0 0 0 0 866 830 810 0 0 0 0 0 644 642 637 627 621 0 0 0 0 0 0 0 0 0 628 640 651 651 651 0 0 0 522 516 511 503 491 459 455 455 455 478 478 498 0
413 420 420 423 425 0 0 0 0 0 579 596 608 610 612 612 612 612 608 608 608 618 618 619 0 0 0 0 0 0 0 0 0 0 0 0 0 1167 1188 1203 1219 1234 1243 1248 1255 1262 1269 1273 1282 1294 1303 1310 1316 1320 1320 1320 1310 0 0 0 0 0 0 0 905 905 905 905 906 906 907 907 907 907 908 908 909 909 909 0 0 0 0 0 0 0 0 0 0 0 0 0 0 0 0 0 0 0 0 0 0 0 0 0 0 894 894 877 858 847 847 847 848 848 848 849 850 851 851 851 852 853 854 857 857 858 858 859 860 865 865 865 865 865 865 868 871 874 878 882 885 886 886 886 888 899 908 908 0 0 0 0 0 0 0 0 0 0 0 0 0 0 0 0 0 0 0 0 0 0 0 0 0 0 0 0 0 0 0 0 0 0 0 0 0 0 943 943 944 944 944 943 943 943 940 940 938 937 937 938 938 941 941 941 938 0 0 0 0 0 0 0 0 0 0 0 0 0 0 0 0 0 0 0 969 969 969 964 958 949 944 944 943 943 943 943 939 938 938 938 939 940 940 940 943 944 945 945 947 947 947 946 943 943 943 945 946 949 950 951 954 975 982 987 996 0 0 0 0 0 0 0 0 0 0 0 0 0 0 0 0 0 1019 1020 1020 1021 1022 1023 1025 1026 1026 1026 1025 1024 1023 1023 1022 1021 1017 1011 1006 1000 995 993 989 987 984 981 979 978 976 975 975 975 975 975 976 976 977 977 977 976 976 976 979 981 983 985 987 988 993 1007 1019 1028 1034 1041 1043 1045 1048 1050 1052 1055 1056 1058 1059 1060 1061 1062 1062 1063 1063 1064 1065 1065 1066 1066 1066 1066 1066 1066 1065 1064 1063 1061 1057 1053 1048 1039 1027 1021 1017 1012 1009 1006 1005 1005 1005 1005 1005 1004 1004 1004 1004 1005 1006 1007 1007 1008 1010 1013 1016 1017 1021 1027 1034 1039 1051 1064 1073 1081 1085 1091 1094 1096 1098 1101 1102 1104 1105 1106 1107 1108 1108 1108 1109 1110 1110 1111 1111 1111 1111 1111 1110 1110 1109 1107 1105 1101 1098 1093 1080 1067 1051 1048 1047 1047 1046 1044 1044 1044 1047 1047 1047 1044 1044 1044 1048 1051 1052 1053 1054 1058 1063 1069 1073 1079 1094 1108 1122 1129 1135 1140 1143 1144 1146 1147 1149 1150 1151 1152 1152 1153 1154 1154 1155 1156 1156 1156 1157 1157 1157 1157 1157 1157 1156 1155 1154 1154 1154 1152 1150 1143 1139 1138 1137 1118 0 0 0 0 0 0 0 0 0 0 0 1007 1026 1046 1070 1074 1074 1077 1077 1077 1079 1079 1104 1117 1133 0 0 0 0 1397 1397 1397 1397 1397 1401 1437 1472 1491 1495 1495 1495 1489 1478 1461 1443 1431 1426 1413 1388 1362 0 0 0 0 0 1080 1128 1136 1141 1148 1148 0 0 1275 1283 1290 1290 1290 1308 1322 1322 1322 1301 0 1201 1201 1201 1209 1251 1269 1283 1291 1294 1297 1297 1297 1292 1276 1263 1259 1255 1254 1251 1233 0 0 0 0 0 0 0 0 0 0 0 0 0 0 0 612 610 610 610 610 0 0 0 0 0 0 0 0 0 0 0 0 0 0 0 0 0 522 516 511 503 491 460 455 455 455 476 476 478 0
414 420 420 427 0 0 0 0 0 0 596 614 625 626 626 626 625 623 622 622 622 632 643 0 0 0 0 0 0 0 0 0 0 0 0 0 1138 1168 1188 1203 1219 1234 1245 1253 1261 1267 1274 1285 1288 1298 1306 1313 1318 1320 1320 1320 1310 0 0 0 0 0 0 0 905 902 902 902 906 908 908 908 908 908 908 908 908 909 909 0 0 0 0 0 0 0 0 0 0 0 0 0 0 0 0 0 0 0 0 0 0 0 0 0 0 0 894 877 860 854 854 854 854 854 854 854 854 855 855 858 858 859 860 860 860 859 859 859 863 867 869 869 869 869 869 869 873 878 878 883 888 888 888 891 891 901 910 910 0 0 0 0 0 0 0 0 0 0 0 0 0 0 0 0 0 0 0 0 0 0 0 0 0 0 0 0 0 0 0 0 0 0 0 0 0 0 0 944 948 948 948 946 943 943 0 0 0 0 0 0 0 0 0 0 0 0 0 0 0 0 0 0 0 0 0 0 0 0 0 0 0 0 0 0 0 968 967 955 952 949 943 943 943 942 942 941 938 938 938 938 938 938 938 938 939 940 943 944 945 945 945 945 943 943 943 946 946 949 950 951 953 964 975 982 982 0 0 0 0 0 0 0 0 0 0 0 0 0 0 0 0 0 1020 1020 1021 1021 1022 1023 1024 1026 1026 1026 1025 1024 1023 1022 1021 1019 1016 1011 1006 998 994 991 989 987 983 979 976 976 975 974 974 973 973 973 974 974 974 974 973 973 973 974 976 979 981 983 985 987 988 1000 1015 1026 1031 1036 1042 1045 1047 1049 1052 1054 1055 1056 1058 1059 1060 1060 1062 1062 1063 1064 1064 1064 1065 1066 1066 1066 1066 1065 1064 1064 1062 1060 1057 1054 1049 1043 1030 1022 1017 1011 1007 1004 1004 1004 1004 1004 1004 1004 1004 1004 1004 1005 1007 1007 1008 1009 1010 1013 1016 1018 1022 1027 1031 1037 1049 1062 1073 1080 1085 1091 1093 1096 1097 1099 1101 1103 1104 1105 1106 1106 1108 1108 1108 1108 1109 1110 1110 1110 1110 1110 1109 1108 1108 1106 1105 1101 1098 1095 1082 1068 1056 1051 1049 1049 1047 1046 1046 1046 1050 1050 1050 1050 1050 1050 1053 1055 1056 1057 1059 1060 1065 1069 1073 1079 1094 1103 1114 1129 1135 1140 1143 1144 1146 1147 1149 1149 1151 1151 1152 1153 1153 1154 1154 1155 1155 1156 1156 1156 1156 1156 1156 1156 1155 1155 1154 1154 1153 1150 1144 1139 1138 1132 1122 1114 0 0 0 0 0 0 0 0 0 0 0 1007 1026 1033 1046 1053 1057 1057 1059 1059 1060 1079 1104 1131 0 0 0 0 0 1382 1382 1386 1386 1386 1415 1449 1479 1491 1492 1492 1492 1488 1476 1461 1438 1430 1417 1399 1373 0 0 0 0 0 0 0 0 0 0 0 0 0 0 1287 1293 1298 1300 1300 1313 1313 1313 1310 1290 1234 1201 1201 1201 1209 1226 1252 1279 1291 1294 1297 1297 1297 1292 1276 1264 1260 1258 1251 1251 1233 0 0 0 0 0 0 0 852 827 797 0 0 0 0 0 612 593 593 593 610 0 0 0 0 0 0 0 0 0 0 0 0 0 0 0 0 0 522 511 511 503 487 460 456 456 456 471 471 471 0
