988 988 1004 1017 0 0 0 0 0 0 0 0 0 0 0 0 0 821 807 807 807 807 821 825 839 845 847 854 862 867 871 872 874 878 883 897 911 915 922 929 936 940 944 946 948 951 954 956 958 960 962 963 964 966 968 969 970 970 972 973 974 975 976 976 977 977 977 977 977 977 976 975 974 971 962 947 0 0 0 768 765 765 765 771 777 778 780 783 788 790 791 792 796 797 797 799 799 800 803 805 809 814 821 826 830 832 834 837 846 861 888 923 954 978 987 992 993 993 994 994 995 995 996 997 997 997 997 997 998 999 1001 1001 1001 1001 1001 1001 1001 1001 1000 1000 999 999 998 998 996 995 993 991 990 984 968 0 0 893 893 899 901 902 902 905 910 925 926 927 927 927 931 933 933 934 935 937 941 942 946 961 967 972 972 972 974 974 974 980 981 986 988 990 996 1004 1007 1007 1008 1008 1008 1008 1008 1008 1008 1002 1002 1002 1002 1004 1005 1005 1005 1005 1006 1006 1006 1006 1006 1006 1006 1005 1005 1005 1005 1009 1009 1009 1009 1009 1009 1012 1015 1017 1018 1018 1020 1020 1021 1021 1023 1024 1024 1024 1024 1024 1024 1024 1025 1026 1026 1028 1028 1028 1028 1029 1029 1029 1029 1028 1028 1027 1026 1026 1026 1024 1023 1019 1014 1007 1006 1006 1006 1006 1005 1005 1004 1004 1002 1001 999 999 999 999 999 999 999 1000 1002 1003 1006 1007 1007 1007 1006 1006 1006 1008 1010 1014 1020 1027 1034 1039 1039 1041 1042 1043 1044 1045 1046 1046 1046 1046 1046 1046 1046 1047 1047 1047 1048 1048 1049 1050 1050 1050 1050 1050 1049 1049 1049 1049 1049 1048 1048 1046 1043 1041 1037 1027 1019 1017 1015 1014 1013 1013 1013 1013 1013 1014 1016 1018 1019 1021 1022 1022 1022 1022 1021 1020 1019 1019 1019 1019 1019 1020 1021 1023 1023 1023 1023 1028 1041 1045 1049 1051 1053 1056 1058 1058 1060 1061 1061 1062 1062 1062 1063 1063 1063 1063 1063 1063 1063 1063 1064 1064 1064 1064 1064 1064 1064 1063 1063 1061 1060 1059 1058 1054 1052 1050 1043 1034 1027 1023 1022 1020 1020 1019 1018 1017 1016 1016 1016 1016 1016 1017 1019 1020 1020 1022 1024 1026 1027 1028 1029 1031 1032 1034 1037 1040 1043 1046 1054 1060 1062 1065 1066 1068 1069 1071 1071 1072 1072 1072 1072 1072 1072 1072 1072 1072 1071 1071 1071 1070 1070 1068 1068 1068 1067 1066 1064 1059 1052 1040 0 0 933 933 933 0 0 0 0 0 0 1615 1627 1627 1627 1614 1601 1601 1601 1619 1633 1659 1680 1698 1726 1753 1783 1812 1852 1891 1914 1914 1914 0 0 1717 1690 1686 1676 1668 1668 1664 1664 1669 1678 1697 1709 1709 1709 1686 1663 1656 1646 1634 1618 1616 1616 1616 1570 1540 1530 1528 1522 1499 1488 1482 1453 1442 1426 1425 1422 1418 1410 1407 1396 1393 1391 1390 1387 1380 1371 1366 1350 1317 1298 1273 1267 1261 1259 1257 1245 0 0 1096 1096 1093 1072 1039 1036 994 962 946 921 912 899 880 844 844 844 806 0 0 0 0 666 646 646 646 646 646 666 666 666 0 0 0 0 0 0 0 0 0 0 0 0 0 0 0 0 0 0 0 0 0 0 0 0 0 0 0 0 0 0 388 388 388 0 0 0 0 0 0 0 0 0 0 374 374 367 343 322 322
997 997 1018 1044 1069 1070 1071 0 0 0 0 0 0 0 0 0 0 0 842 822 822 822 822 825 839 847 852 860 866 872 874 875 878 882 889 897 903 910 921 929 936 940 944 946 948 951 954 957 960 962 963 965 967 968 969 970 971 972 973 974 975 976 976 977 978 978 978 978 978 978 978 977 976 975 969 959 0 0 0 775 775 775 775 779 780 781 781 784 792 794 795 799 804 804 804 801 801 801 805 807 810 816 826 831 835 836 838 839 851 866 888 923 947 969 986 991 993 993 993 993 993 993 994 994 994 994 994 994 995 997 1000 1001 1001 1001 1000 1000 1000 1000 999 999 998 997 997 995 993 992 991 991 990 984 973 952 0 0 929 929 932 932 940 940 0 961 965 966 966 966 966 966 966 966 966 966 966 966 971 979 987 989 989 992 992 992 993 993 993 993 993 994 996 1002 1004 1004 1004 1003 1002 1000 1000 999 994 994 994 995 995 995 995 995 995 995 995 998 999 999 999 997 995 994 994 994 996 998 998 1001 1004 1008 1009 1016 1020 1022 1023 1023 1023 1023 1024 1024 1025 1025 1025 1025 1025 1026 1027 1028 1028 1029 1029 1030 1030 1031 1031 1031 1031 1032 1032 1032 1032 1032 1030 1028 1027 1026 1026 1022 1014 1007 1006 1004 1004 1003 1003 1001 1000 999 999 999 999 998 999 999 998 998 999 1000 1001 1003 1004 1004 1004 1004 1004 1004 1005 1005 1007 1011 1018 1027 1035 1039 1042 1042 1043 1044 1046 1047 1047 1048 1048 1048 1048 1048 1048 1049 1049 1050 1050 1051 1051 1051 1052 1052 1052 1052 1051 1051 1051 1050 1050 1049 1048 1047 1043 1041 1037 1028 1021 1017 1015 1014 1013 1013 1013 1013 1013 1014 1016 1018 1019 1020 1021 1021 1021 1021 1021 1020 1019 1019 1019 1019 1019 1020 1021 1022 1022 1023 1023 1028 1041 1045 1051 1054 1056 1058 1059 1060 1061 1062 1062 1063 1063 1064 1064 1064 1064 1064 1065 1065 1065 1065 1065 1065 1065 1065 1065 1065 1065 1065 1064 1063 1062 1061 1060 1058 1054 1051 1043 1033 1026 1023 1022 1020 1019 1018 1018 1017 1016 1016 1016 1016 1016 1018 1019 1020 1022 1023 1024 1026 1027 1028 1029 1031 1032 1035 1037 1040 1044 1051 1059 1062 1064 1066 1068 1068 1070 1071 1072 1073 1073 1073 1073 1073 1073 1073 1073 1073 1072 1072 1072 1071 1071 1070 1069 1068 1067 1066 1064 1060 1052 1031 0 0 0 0 0 0 0 0 0 0 0 1651 1651 1651 1642 1630 1615 1615 1615 1619 1633 1638 1661 1684 1724 1757 1783 1816 1854 1891 1891 1891 1885 0 0 1717 1690 1686 1676 1668 1668 1664 1664 1669 1678 1697 1708 1708 1708 1686 1663 1657 1656 1646 1639 1637 1631 1616 1578 1547 1540 1538 1536 1530 1510 1482 1453 1442 1434 1432 1430 1418 1410 1407 1396 1393 1391 1390 1387 1380 1371 1366 1350 1317 1298 1280 1280 1275 1268 1262 1245 0 0 1096 1093 1081 1057 1024 1004 997 962 946 921 899 896 880 852 852 852 806 0 0 0 0 666 677 677 677 676 676 671 668 667 0 0 0 0 0 0 0 0 0 0 0 0 0 0 0 0 0 0 0 0 0 0 378 378 371 0 0 384 384 384 384 384 388 388 0 0 0 0 0 0 0 0 374 374 374 367 343 322 0
997 997 1032 1060 1079 1092 1092 1092 0 0 0 0 0 0 0 0 0 0 864 859 851 825 825 825 839 848 855 863 870 874 878 880 883 888 892 897 903 910 921 929 936 940 944 946 950 953 958 960 961 964 964 966 968 969 970 971 972 973 974 976 976 977 977 978 979 979 979 980 980 980 979 979 978 976 973 968 0 0 0 791 790 790 788 788 788 788 788 789 795 796 801 808 816 819 819 819 819 819 823 833 843 850 854 854 854 854 855 855 863 881 899 926 947 960 982 987 987 987 987 987 988 988 989 990 993 993 993 993 993 996 998 999 999 999 999 999 997 996 995 994 992 991 990 990 990 988 988 987 986 984 973 969 969 0 970 970 972 972 974 974 0 982 986 988 988 988 987 987 987 988 988 988 988 988 990 996 996 997 997 999 1001 1001 1002 1002 1002 1002 1002 1001 996 991 991 991 991 991 990 989 989 986 979 976 976 976 977 978 978 978 977 977 977 977 983 985 985 985 982 982 982 983 984 985 989 998 1001 1003 1009 1019 1023 1024 1025 1025 1026 1026 1027 1029 1029 1029 1030 1030 1030 1031 1032 1032 1032 1032 1032 1032 1032 1032 1033 1033 1033 1035 1035 1035 1034 1034 1033 1031 1028 1028 1027 1022 1014 1007 1005 1004 1004 1003 1002 1001 1000 999 998 998 998 998 998 998 998 998 999 1000 1001 1002 1003 1003 1003 1002 1002 1002 1002 1002 1004 1011 1018 1029 1036 1039 1042 1044 1046 1046 1046 1048 1049 1049 1050 1050 1050 1051 1051 1051 1051 1051 1052 1052 1053 1053 1053 1053 1053 1053 1053 1053 1053 1052 1051 1050 1049 1047 1045 1043 1039 1029 1023 1017 1015 1014 1013 1013 1013 1013 1013 1015 1016 1018 1019 1019 1021 1021 1021 1021 1021 1020 1019 1019 1019 1019 1019 1020 1021 1021 1021 1023 1023 1028 1041 1045 1051 1055 1057 1059 1060 1062 1062 1063 1063 1064 1065 1065 1065 1066 1066 1066 1066 1066 1066 1066 1066 1066 1066 1066 1066 1066 1066 1066 1064 1064 1063 1061 1060 1058 1057 1053 1043 1031 1026 1024 1022 1020 1019 1018 1017 1017 1016 1016 1016 1016 1017 1018 1020 1021 1022 1023 1024 1026 1028 1029 1030 1032 1034 1036 1038 1041 1044 1052 1060 1062 1064 1067 1068 1069 1072 1072 1073 1074 1074 1074 1074 1074 1074 1074 1074 1074 1074 1073 1073 1072 1071 1070 1069 1068 1067 1066 1064 1060 1049 1030 0 0 0 0 0 0 0 0 0 0 0 1662 1662 1662 1659 1645 1634 1628 1628 1628 1633 1637 1643 1676 1722 1759 1796 1823 1855 1891 1891 1891 1857 0 1759 1727 1710 1694 1683 1683 1682 1680 1678 1680 1680 1697 1706 1706 1706 1687 1676 1667 1664 1663 1661 1650 1634 1616 1580 1560 1550 1547 1544 1537 1522 1505 1462 1442 1438 1436 1432 1423 1414 1398 1396 1393 1392 1387 1385 1380 1371 1349 1333 1317 1298 1280 1280 1278 1277 1262 1236 0 0 1096 1083 1065 1046 1024 1001 993 962 959 921 899 894 880 856 853 845 842 0 0 0 694 694 694 694 689 677 671 669 652 623 0 0 0 0 0 0 0 0 0 0 0 0 0 0 0 0 0 0 0 0 0 397 392 385 363 0 0 384 385 385 387 387 391 391 391 0 0 0 0 0 0 0 374 374 374 367 343 322 322
999 999 0 1072 1084 1092 1100 1103 1106 1107 1111 1117 1117 1117 1116 0 0 0 0 0 0 0 831 831 839 848 858 864 871 877 882 884 887 889 894 898 903 910 921 930 936 941 947 951 956 958 960 961 963 965 966 967 969 970 971 972 974 974 975 977 978 978 979 980 980 981 981 981 981 981 981 981 980 979 975 969 956 0 0 0 0 0 0 0 0 0 0 0 0 0 0 0 0 0 0 0 0 0 0 0 0 0 0 0 0 0 0 0 0 908 921 933 947 960 974 977 978 979 983 984 984 984 984 984 984 988 989 990 991 991 993 994 994 994 994 992 992 988 987 986 985 982 980 980 980 980 980 980 978 974 973 973 973 987 992 992 992 991 991 991 992 993 994 997 999 999 999 999 999 1004 1004 1004 1004 1004 1005 1006 1006 1009 1009 1009 1008 1007 1007 1007 1007 1007 1007 1006 999 986 968 968 968 968 968 964 963 959 956 956 956 956 956 956 956 958 958 961 964 967 968 970 973 975 976 977 977 977 978 981 985 992 993 1001 1011 1019 1023 1025 1027 1027 1028 1028 1030 1031 1032 1032 1033 1033 1033 1034 1034 1034 1034 1034 1034 1034 1035 1035 1035 1035 1037 1037 1037 1036 1036 1036 1035 1033 1032 1031 1028 1023 1014 1007 1005 1004 1004 1003 1002 1001 1000 999 998 998 998 998 998 998 998 998 999 1000 1000 1002 1002 1002 1002 1001 1001 1001 1001 1001 1004 1011 1018 1027 1036 1040 1043 1046 1047 1047 1048 1049 1051 1051 1052 1052 1052 1052 1052 1053 1053 1053 1053 1053 1054 1054 1054 1054 1054 1055 1055 1055 1055 1053 1053 1052 1051 1048 1046 1045 1041 1033 1025 1019 1016 1015 1014 1013 1013 1013 1014 1015 1016 1018 1018 1019 1020 1020 1021 1021 1021 1020 1019 1019 1019 1019 1019 1020 1021 1021 1023 1023 1024 1028 1041 1045 1052 1056 1059 1061 1062 1064 1064 1065 1065 1065 1066 1066 1066 1066 1067 1067 1067 1067 1067 1068 1067 1068 1068 1068 1068 1068 1067 1067 1066 1066 1065 1062 1060 1058 1057 1053 1042 1031 1026 1024 1022 1020 1019 1018 1017 1017 1017 1017 1017 1017 1018 1020 1020 1022 1023 1024 1025 1027 1029 1029 1031 1033 1035 1037 1039 1041 1046 1053 1061 1064 1066 1068 1070 1071 1073 1074 1075 1076 1076 1076 1076 1076 1076 1076 1076 1075 1075 1075 1074 1073 1072 1070 1070 1068 1066 1066 1064 1059 1043 0 0 0 0 0 0 0 0 0 0 0 0 1662 1678 1678 1678 1670 1658 1653 1648 1638 1638 1638 1643 1671 1716 1759 1796 1823 1855 1872 1872 1872 1843 1809 1759 1743 1724 1705 1690 1689 1686 1686 1685 1677 1677 1677 1679 1687 1687 1687 1676 1667 1664 1663 1661 1650 1634 1616 1580 1563 1560 1551 1545 1538 1528 1509 1499 1482 1464 1459 1447 1426 1414 1398 1388 1385 1383 1380 1379 1377 1371 1349 1329 1314 1294 1280 1280 1278 1277 1262 0 0 0 1078 1058 1046 1035 1021 993 991 962 959 949 917 892 879 856 849 847 846 0 0 740 735 734 720 713 689 678 677 0 0 0 0 0 0 0 0 0 0 0 0 0 0 0 0 0 0 0 0 0 423 423 423 399 398 392 0 0 0 0 385 397 399 397 397 397 0 0 0 0 0 0 331 355 374 374 374 362 362 342 342
997 997 0 1072 1084 1092 1100 1108 1109 1116 1124 1129 1134 1139 1139 1139 1132 0 0 0 0 0 0 849 849 849 858 864 871 878 882 887 889 892 895 899 906 912 922 933 942 947 951 955 957 960 961 962 964 966 968 969 970 972 973 973 975 975 976 978 978 980 980 980 982 982 982 982 983 983 983 983 983 981 976 972 957 0 0 0 0 0 0 0 0 0 0 0 0 0 0 0 0 0 0 0 0 0 0 0 0 0 0 0 0 0 0 0 0 961 962 962 964 962 962 963 964 963 964 965 966 966 966 965 965 965 980 981 981 981 981 981 981 980 980 976 972 972 971 970 969 966 966 965 963 962 958 955 955 955 965 976 986 994 1001 1002 1002 1003 1003 1002 1002 1003 1003 1008 1009 1009 1009 1009 1010 1014 1015 1015 1015 1014 1014 1014 1016 1017 1017 1017 1013 1011 1011 1011 1011 1010 1009 1007 1000 986 967 959 959 959 959 956 954 953 953 953 953 953 952 952 952 955 958 961 963 965 967 969 971 972 973 974 975 975 976 980 983 987 991 1001 1011 1019 1023 1026 1028 1028 1029 1031 1032 1033 1033 1034 1035 1035 1035 1036 1036 1036 1036 1036 1036 1037 1037 1037 1038 1039 1039 1039 1039 1038 1038 1037 1037 1036 1034 1032 1029 1024 1014 1007 1005 1004 1004 1003 1003 1002 1002 1001 998 998 998 998 998 999 999 999 999 1000 1000 1001 1001 1001 1001 1000 1000 1000 1000 1001 1004 1011 1019 1027 1037 1042 1044 1048 1048 1050 1050 1052 1053 1053 1054 1054 1054 1054 1054 1054 1054 1054 1055 1055 1055 1056 1056 1056 1056 1056 1056 1056 1056 1055 1054 1054 1051 1049 1047 1047 1044 1035 1026 1020 1018 1016 1014 1014 1014 1014 1014 1015 1016 1017 1018 1019 1020 1020 1021 1021 1021 1021 1020 1020 1020 1020 1020 1020 1021 1021 1024 1025 1027 1029 1041 1045 1054 1057 1059 1062 1065 1065 1065 1066 1066 1067 1067 1067 1068 1068 1068 1068 1069 1069 1069 1069 1069 1069 1069 1069 1069 1069 1069 1068 1068 1067 1065 1063 1061 1059 1058 1053 1042 1031 1028 1025 1023 1021 1018 1017 1017 1017 1017 1018 1018 1018 1020 1020 1022 1023 1025 1026 1027 1029 1029 1030 1031 1034 1036 1038 1041 1043 1047 1054 1061 1068 1069 1071 1071 1073 1074 1076 1076 1076 1076 1077 1076 1077 1077 1076 1076 1076 1076 1076 1075 1075 1074 1072 1071 1068 1066 1065 1059 1052 1039 0 0 0 0 0 0 0 0 0 0 0 0 1664 1684 1687 1687 1687 1682 1677 1674 1663 1649 1649 1649 1671 1724 1759 1796 1823 1855 1855 1855 1847 1825 1807 1759 1743 1733 1715 1699 1695 1693 1688 1685 1681 1677 1676 1676 1676 1676 1676 1676 1667 1664 1663 1661 1650 1634 1614 1593 1574 1562 1554 1548 1539 1531 1523 1515 1511 1497 1486 1469 1442 1410 1391 1388 1385 1382 1377 1377 1374 1363 1344 1329 1314 1291 1278 1277 1270 1258 1238 0 0 0 0 1035 1028 1020 1017 988 959 955 949 947 933 894 875 863 856 852 0 0 0 740 735 734 731 714 692 689 688 0 0 0 0 0 0 0 0 0 0 0 0 0 0 0 0 0 0 0 0 0 435 435 435 417 399 0 0 0 0 0 0 412 412 411 415 0 0 0 0 0 0 0 0 355 355 357 357 355 360 342 342
988 988 0 1072 1084 1092 1100 1108 1109 1119 1129 1138 1143 1149 1149 1149 1135 1125 0 0 0 0 0 851 851 851 858 864 871 878 882 887 891 893 898 902 908 914 923 936 944 950 954 957 960 961 962 964 966 968 969 970 971 972 973 975 976 977 978 979 980 981 981 982 983 983 984 984 984 985 985 984 984 982 979 976 971 956 0 0 0 0 0 0 0 0 0 0 0 0 0 0 0 0 0 0 0 0 967 967 967 967 967 970 970 971 974 979 982 983 983 983 980 974 968 958 937 928 0 0 0 0 0 0 0 0 0 0 0 0 0 0 0 0 0 939 933 930 928 926 925 924 924 924 925 925 925 929 929 942 963 979 995 999 1006 1008 1011 1011 1011 1010 1009 1009 1009 1013 1013 1014 1015 1015 1016 1016 1017 1018 1018 1018 1018 1018 1019 1019 1019 1019 1017 1017 1017 1016 1016 1013 1011 1007 1000 988 967 958 958 957 957 955 953 953 953 953 953 953 952 952 952 955 958 960 963 965 967 968 969 971 972 973 973 973 974 978 982 986 990 1001 1011 1020 1024 1027 1029 1031 1032 1033 1035 1035 1036 1037 1037 1038 1038 1038 1038 1038 1038 1038 1038 1039 1039 1040 1040 1040 1041 1041 1040 1040 1039 1039 1039 1037 1035 1033 1030 1026 1016 1008 1006 1006 1004 1003 1003 1003 1003 1002 999 997 997 997 998 999 999 1000 1000 1000 1000 1000 1000 1001 1000 1000 1000 1000 1000 1002 1007 1012 1019 1028 1038 1042 1045 1048 1050 1052 1052 1053 1054 1054 1055 1055 1055 1055 1056 1056 1056 1056 1056 1057 1057 1057 1057 1057 1057 1057 1057 1057 1057 1056 1056 1055 1053 1051 1049 1049 1046 1037 1027 1022 1019 1016 1015 1014 1014 1014 1014 1015 1016 1017 1018 1019 1020 1020 1021 1022 1022 1022 1022 1022 1022 1021 1021 1022 1022 1023 1025 1028 1030 1034 1042 1049 1055 1060 1062 1064 1066 1066 1067 1067 1067 1068 1068 1069 1069 1069 1069 1069 1069 1070 1070 1070 1070 1070 1070 1070 1070 1070 1070 1069 1068 1067 1066 1064 1062 1061 1059 1053 1042 1032 1029 1025 1024 1021 1018 1018 1018 1018 1018 1019 1019 1021 1022 1023 1024 1025 1026 1027 1029 1029 1030 1031 1033 1035 1037 1040 1042 1044 1047 1055 1064 1068 1071 1071 1073 1075 1076 1077 1077 1077 1077 1078 1078 1078 1077 1077 1077 1077 1077 1077 1076 1076 1074 1073 1072 1068 1066 1065 1056 1049 1035 0 0 0 0 0 0 0 0 0 0 0 0 1664 1685 1690 1690 1692 1692 1692 1692 1687 1660 1660 1660 1671 1724 1752 1790 1822 1838 1838 1838 1818 1780 1744 1743 1739 1737 1724 1715 1707 1706 1696 1685 1681 1677 1676 1675 1671 1668 1665 1660 1657 1654 1653 1645 1635 1624 1613 1597 1584 1563 1554 1546 1545 1544 1538 1531 1528 1516 1502 1469 1442 1410 1391 1384 1378 1375 1375 1374 1374 1363 1339 1322 1308 1289 1277 1270 1254 1245 1238 0 0 0 0 0 0 0 0 932 931 931 932 932 931 896 872 869 856 0 0 0 0 740 735 734 731 724 696 690 683 677 0 0 0 0 0 0 565 598 0 0 0 0 0 0 0 0 0 0 0 0 445 442 438 420 406 0 0 0 0 0 0 0 0 0 420 420 410 0 0 0 0 0 0 353 355 355 355 355 355 342 342
967 967 0 1061 1080 1092 1098 1108 1109 1119 1129 1138 1143 1149 1149 1150 1150 1150 1130 0 0 0 0 0 854 854 854 859 870 878 882 887 893 898 901 905 909 915 924 936 944 950 954 957 960 961 964 965 966 968 969 972 973 974 975 975 977 978 979 980 980 982 982 984 984 984 986 986 986 986 986 986 986 985 984 981 980 973 959 0 0 0 0 0 0 0 971 973 973 974 974 979 980 981 981 981 981 981 981 981 982 983 987 987 988 988 988 988 988 989 991 991 991 981 980 958 937 903 0 0 879 876 876 876 896 0 0 0 903 903 903 903 903 900 897 897 896 897 897 899 899 899 897 897 897 904 905 907 918 936 961 979 997 1000 1007 1008 1011 1011 1012 1012 1014 1015 1015 1017 1017 1017 1017 1017 1017 1018 1020 1020 1020 1020 1020 1020 1021 1021 1021 1021 1021 1020 1019 1019 1018 1018 1012 1010 1004 989 967 958 957 957 957 955 952 952 952 953 953 953 952 952 952 955 958 960 962 965 966 967 968 970 971 972 972 973 974 976 980 985 988 1001 1012 1020 1025 1030 1032 1033 1035 1035 1037 1037 1038 1038 1040 1040 1040 1040 1040 1040 1040 1040 1040 1040 1041 1042 1042 1042 1042 1042 1042 1042 1041 1041 1040 1039 1036 1033 1032 1030 1020 1010 1009 1008 1005 1003 1003 1003 1003 1002 1000 997 997 997 998 1000 1000 1000 1000 1000 1000 1001 1000 1001 1000 1000 1000 1000 1000 1003 1009 1013 1019 1028 1038 1043 1046 1049 1052 1052 1054 1054 1055 1056 1057 1057 1057 1057 1057 1057 1057 1058 1058 1058 1058 1058 1058 1058 1059 1059 1059 1058 1058 1057 1057 1056 1055 1053 1052 1050 1046 1038 1029 1024 1021 1017 1015 1015 1014 1014 1014 1015 1016 1017 1018 1019 1020 1021 1022 1023 1023 1023 1023 1023 1023 1023 1023 1023 1024 1024 1027 1029 1032 1036 1044 1052 1058 1063 1064 1066 1067 1068 1068 1069 1069 1070 1070 1070 1070 1071 1071 1071 1071 1071 1071 1071 1071 1071 1071 1071 1071 1071 1071 1070 1070 1069 1067 1065 1062 1061 1060 1054 1043 1037 1034 1027 1024 1021 1018 1018 1018 1020 1020 1021 1022 1022 1023 1024 1026 1027 1028 1030 1030 1031 1033 1033 1035 1037 1040 1043 1043 1044 1048 1057 1064 1069 1071 1073 1075 1077 1077 1078 1078 1079 1079 1079 1079 1079 1078 1078 1078 1078 1078 1078 1077 1077 1075 1074 1074 1072 1069 1065 1056 1049 1035 0 0 0 0 0 0 0 0 0 0 0 0 1662 1685 1690 1693 1693 1694 1699 1699 1699 1679 1679 1679 1701 1727 1747 1773 1791 1795 1795 1795 1774 1747 1738 1737 1737 1736 1736 1730 1719 1711 1709 1704 1699 1692 1685 1675 1664 1659 1657 1656 1654 1652 1646 1629 1611 1607 1605 1597 1584 1563 1554 1554 1554 1548 1547 1546 1539 1528 1503 1469 1442 1410 1392 1388 1385 1370 1366 1363 1357 1349 1349 1329 1314 1289 1277 1270 1254 1245 1238 0 0 0 0 0 0 0 0 927 927 931 932 932 931 901 874 863 862 0 0 0 0 717 717 720 720 720 696 690 683 677 667 0 0 0 570 570 570 602 606 0 0 0 0 0 0 0 0 0 0 0 445 442 438 420 414 0 0 0 0 0 0 0 0 440 439 435 413 412 0 0 0 0 0 0 355 355 355 355 0 0 0
956 956 993 1037 1068 1083 1092 1095 1105 1119 1129 1138 1143 1149 1150 1155 1155 1155 1143 0 0 0 0 0 0 857 857 857 868 877 883 888 893 900 902 908 912 918 924 936 944 952 956 958 960 962 965 966 968 969 971 973 973 975 976 977 977 979 980 980 982 983 983 985 986 986 987 987 987 988 988 988 988 988 987 985 984 982 982 982 981 981 981 981 981 984 988 989 989 990 990 991 991 991 991 991 991 990 991 991 991 995 998 1000 1000 1000 1000 998 996 995 995 995 994 986 986 965 937 0 0 862 862 863 871 871 871 869 866 866 866 874 880 880 880 878 878 878 878 879 882 890 892 892 893 894 896 899 900 901 909 928 950 979 999 1004 1009 1010 1011 1012 1012 1014 1016 1017 1018 1018 1018 1018 1018 1018 1019 1020 1021 1022 1022 1023 1023 1023 1023 1023 1023 1023 1023 1022 1021 1020 1020 1020 1018 1015 1009 993 968 958 957 957 956 954 952 952 952 953 953 953 953 953 954 954 957 959 961 964 965 966 968 969 971 971 971 972 974 975 978 983 987 1001 1012 1020 1028 1032 1034 1035 1037 1037 1039 1040 1040 1041 1041 1041 1042 1042 1042 1042 1042 1042 1042 1042 1043 1043 1044 1044 1044 1044 1044 1043 1043 1042 1040 1040 1038 1035 1033 1030 1021 1012 1011 1009 1007 1004 1004 1003 1003 1002 1001 998 998 998 998 1000 1002 1002 1002 1002 1001 1001 1001 1001 1002 1002 1002 1002 1002 1003 1011 1015 1021 1028 1038 1044 1047 1050 1052 1053 1055 1056 1057 1057 1058 1058 1058 1058 1059 1059 1059 1059 1059 1059 1059 1059 1059 1059 1059 1059 1059 1059 1059 1059 1059 1058 1058 1056 1055 1052 1048 1040 1031 1025 1023 1019 1017 1016 1015 1015 1015 1015 1016 1017 1018 1020 1021 1023 1023 1024 1024 1024 1024 1024 1024 1024 1026 1026 1026 1027 1028 1031 1034 1039 1046 1054 1061 1065 1066 1067 1068 1070 1070 1070 1071 1072 1072 1072 1072 1072 1072 1072 1072 1072 1072 1072 1072 1072 1073 1073 1072 1072 1072 1072 1070 1070 1067 1066 1065 1063 1060 1055 1046 1040 1036 1030 1025 1022 1020 1020 1020 1022 1022 1023 1024 1025 1026 1026 1027 1029 1030 1031 1032 1034 1034 1035 1037 1040 1043 1043 1044 1046 1049 1057 1064 1069 1072 1074 1076 1077 1078 1079 1080 1080 1080 1080 1080 1080 1080 1080 1080 1079 1079 1078 1078 1078 1076 1076 1076 1075 1073 1068 1056 1049 1035 0 0 0 0 0 0 0 0 0 0 0 0 1660 1683 1689 1693 1693 1694 1701 1702 1702 1702 1701 1701 1701 1727 1743 1748 1748 1751 1751 1748 1748 1740 1732 1732 1732 1732 1732 1731 1727 1727 1725 1725 1725 1719 1693 1675 1664 1657 1656 1655 1652 1651 1645 1627 1611 1603 1599 1597 1584 1563 1554 1554 1554 1559 1559 1559 1550 1538 1507 1481 1442 1410 1398 1388 1385 1370 1366 1363 1357 1350 1350 1329 1314 1289 1277 1270 1254 1250 1245 0 0 0 0 0 0 0 0 927 927 931 932 932 931 901 874 863 862 0 0 0 0 696 696 696 714 714 714 690 685 679 678 656 0 592 592 592 598 602 606 606 0 0 0 0 0 0 0 0 0 0 438 435 433 423 414 0 0 0 0 0 0 0 464 440 439 435 425 425 0 0 0 0 0 0 0 0 0 0 0 0 0
952 952 971 1009 1044 1066 1077 1079 1093 1111 1120 1133 1143 1150 1151 1156 1156 1156 1149 1122 0 0 0 0 0 857 857 857 867 877 883 890 895 901 905 909 913 918 924 936 944 952 957 960 962 964 965 968 969 971 972 974 975 976 977 978 979 980 981 982 983 984 985 986 986 987 988 988 990 990 990 990 990 989 989 989 987 987 987 989 989 989 989 989 990 993 993 994 994 994 995 995 995 997 997 998 998 998 999 999 1001 1001 1002 1003 1003 1003 1002 1001 1000 1000 998 997 996 994 988 980 953 0 0 862 862 861 861 861 860 859 859 859 862 867 872 872 872 872 872 872 874 877 881 885 887 888 889 892 895 896 896 896 901 920 945 973 999 1004 1009 1010 1011 1012 1014 1015 1017 1018 1018 1019 1020 1021 1021 1022 1022 1023 1023 1024 1024 1024 1024 1024 1025 1025 1025 1025 1025 1024 1022 1022 1022 1022 1021 1018 1013 998 972 960 958 957 954 953 951 951 951 953 953 953 953 953 954 954 955 958 960 961 963 965 966 968 970 971 971 972 973 975 978 981 987 998 1011 1021 1028 1034 1036 1036 1038 1039 1040 1041 1041 1042 1042 1043 1043 1043 1044 1044 1044 1044 1044 1045 1045 1045 1045 1045 1046 1046 1045 1045 1044 1044 1042 1042 1040 1036 1033 1031 1021 1014 1012 1011 1008 1006 1004 1004 1004 1003 1002 1000 1000 1000 1000 1002 1003 1003 1003 1003 1003 1002 1002 1002 1003 1003 1003 1003 1003 1003 1011 1015 1021 1031 1041 1045 1048 1051 1054 1054 1056 1057 1058 1059 1059 1059 1059 1059 1059 1059 1060 1060 1060 1060 1061 1061 1061 1061 1061 1061 1061 1061 1061 1060 1060 1059 1059 1058 1057 1054 1050 1042 1031 1026 1024 1023 1020 1018 1017 1016 1016 1016 1017 1018 1019 1020 1022 1023 1024 1024 1025 1025 1025 1025 1025 1026 1027 1027 1027 1027 1029 1032 1035 1041 1049 1057 1062 1065 1067 1069 1070 1071 1072 1072 1072 1072 1072 1073 1073 1073 1073 1073 1073 1073 1073 1073 1073 1073 1073 1073 1073 1073 1073 1072 1072 1071 1070 1068 1068 1065 1061 1055 1047 1042 1037 1034 1029 1026 1023 1023 1023 1024 1024 1025 1026 1027 1028 1029 1029 1031 1032 1033 1035 1035 1036 1036 1039 1042 1045 1046 1046 1049 1051 1057 1066 1070 1073 1075 1078 1079 1080 1081 1081 1081 1081 1081 1081 1081 1081 1081 1081 1081 1080 1080 1079 1078 1078 1077 1076 1075 1075 1073 1069 1059 1050 0 0 0 0 0 0 0 0 0 0 0 1626 1655 1677 1689 1693 1693 1694 1702 1713 1713 1713 1711 1711 1711 1708 1708 1708 1708 1708 1717 1720 1720 1720 1720 1720 1725 1731 1731 1731 1731 1731 1731 1731 1731 1726 1696 1675 1657 1656 1653 1652 1651 1650 1644 1623 1609 1600 1596 1589 1576 1563 1561 1561 1561 1562 1562 1562 1556 1545 1509 1482 1442 1410 1404 1395 1386 1370 1366 1363 1363 1362 1362 1362 1325 1314 1300 1266 1250 1250 1245 0 0 0 0 0 0 0 0 949 949 955 955 955 945 0 872 861 855 0 0 0 0 696 696 696 714 714 714 709 694 683 678 656 0 592 592 592 617 617 617 607 0 0 0 0 0 0 0 0 0 0 429 423 414 414 414 0 0 0 0 0 0 0 464 440 439 434 425 425 0 0 0 0 0 0 0 0 0 0 0 0 0
952 952 971 1006 1029 1057 1074 1077 1093 1110 1119 1131 1142 1149 1151 1157 1157 1157 1157 1139 1138 0 0 0 0 853 853 853 867 876 883 891 898 901 905 909 913 918 923 932 944 952 957 961 964 966 968 968 970 972 973 975 976 977 978 979 980 981 981 983 983 985 985 987 987 989 989 990 991 992 992 992 992 991 991 991 991 992 992 992 992 993 993 995 997 997 997 997 997 997 997 997 998 998 998 999 1000 1001 1002 1003 1004 1004 1005 1005 1005 1005 1005 1004 1003 1002 1001 999 997 997 991 982 964 0 0 859 859 858 858 858 856 854 854 854 859 864 868 868 868 869 869 871 873 874 877 881 883 885 888 892 894 895 895 895 899 919 944 973 997 1002 1010 1012 1013 1014 1016 1017 1018 1019 1020 1021 1021 1022 1023 1023 1024 1024 1025 1025 1025 1025 1026 1026 1027 1027 1027 1027 1027 1026 1025 1025 1025 1023 1022 1018 1016 1004 987 972 961 958 954 950 950 950 950 952 953 953 953 953 953 953 955 957 959 960 961 963 965 967 969 970 970 972 973 975 977 979 985 996 1009 1022 1030 1034 1037 1038 1039 1040 1041 1042 1043 1043 1044 1044 1045 1045 1045 1045 1046 1046 1046 1046 1046 1046 1046 1047 1047 1047 1047 1047 1046 1046 1044 1044 1041 1037 1034 1031 1026 1015 1013 1012 1010 1007 1007 1006 1005 1004 1003 1002 1002 1002 1003 1004 1004 1005 1005 1005 1005 1005 1005 1005 1005 1005 1004 1004 1004 1006 1012 1017 1021 1033 1044 1048 1051 1053 1054 1055 1057 1058 1059 1059 1060 1061 1061 1061 1061 1061 1061 1061 1061 1061 1062 1062 1062 1062 1062 1062 1062 1062 1062 1061 1061 1061 1060 1059 1059 1055 1051 1042 1032 1026 1026 1024 1023 1021 1018 1017 1017 1017 1018 1019 1021 1022 1023 1025 1025 1025 1025 1025 1025 1026 1026 1026 1027 1027 1028 1029 1032 1033 1036 1044 1053 1059 1063 1067 1069 1070 1071 1071 1072 1073 1073 1074 1074 1074 1074 1074 1074 1074 1075 1075 1075 1075 1075 1075 1075 1075 1075 1074 1074 1074 1073 1072 1072 1070 1069 1066 1062 1056 1048 1042 1039 1035 1031 1027 1025 1025 1025 1026 1027 1027 1028 1029 1030 1031 1031 1033 1034 1035 1037 1038 1038 1039 1042 1044 1047 1048 1050 1052 1056 1060 1067 1070 1073 1076 1079 1080 1081 1083 1083 1083 1083 1083 1083 1083 1083 1082 1082 1082 1082 1081 1081 1080 1079 1078 1076 1076 1076 1076 1072 1068 1056 0 0 0 0 0 0 0 0 0 0 0 1626 1645 1659 1670 1677 1681 1691 1702 1713 1713 1713 1711 1701 1699 1693 1681 1674 1674 1674 1677 1690 1693 1693 1694 1699 1715 1731 1731 1731 1731 1731 1731 1731 1731 1726 1696 1668 1663 1656 1653 1652 1651 1646 1639 1623 1609 1598 1596 1586 1576 1568 1568 1568 1568 1568 1566 1562 1556 1545 1522 1493 1455 1428 1409 1403 1395 1377 1375 1375 1375 1399 1399 1399 1371 1341 1300 1273 1255 1251 1250 0 0 0 0 0 0 0 951 951 951 954 954 954 944 0 862 858 853 0 0 0 0 0 696 696 714 716 716 716 701 679 667 656 0 587 587 587 627 627 627 0 0 0 0 0 0 0 0 0 0 0 412 412 406 406 406 0 0 0 0 0 0 0 446 430 430 430 425 0 0 0 0 0 0 0 0 0 0 0 0 0 0
952 952 971 1002 1029 1052 1070 1077 1093 1110 1118 1125 1140 1148 1155 1160 1165 1165 1165 1159 1158 0 0 0 0 0 860 860 863 872 884 893 898 901 905 909 913 917 923 931 943 952 957 962 966 968 970 971 972 973 974 976 977 978 979 979 981 982 983 984 985 986 987 988 989 991 991 992 992 993 994 994 994 994 994 994 995 995 995 995 995 995 995 997 998 998 998 998 998 998 999 1001 1001 1001 1001 1001 1001 1003 1004 1004 1005 1006 1006 1007 1007 1007 1007 1007 1007 1005 1003 1001 1001 998 993 983 967 0 0 854 854 854 854 854 853 853 853 853 855 859 863 863 864 865 867 869 870 871 872 875 880 884 887 891 893 894 894 895 899 917 943 968 972 1000 1010 1012 1014 1016 1018 1019 1020 1021 1021 1021 1023 1023 1025 1025 1025 1025 1025 1025 1026 1027 1027 1027 1027 1028 1028 1029 1029 1028 1028 1028 1027 1027 1023 1020 1016 1012 992 972 962 958 954 950 948 948 948 950 951 952 953 953 953 953 955 957 958 959 960 962 963 966 968 970 970 972 973 975 976 979 983 994 1009 1023 1032 1036 1038 1039 1040 1042 1043 1044 1044 1045 1045 1046 1046 1046 1047 1047 1047 1047 1047 1047 1047 1047 1048 1048 1048 1048 1048 1048 1047 1047 1046 1044 1042 1040 1035 1032 1026 1016 1014 1013 1011 1010 1009 1008 1007 1007 1005 1005 1005 1005 1005 1006 1006 1007 1007 1007 1007 1007 1008 1008 1008 1008 1007 1007 1007 1010 1015 1019 1026 1033 1044 1051 1054 1055 1055 1057 1058 1059 1061 1061 1061 1062 1062 1062 1062 1062 1063 1063 1063 1063 1063 1063 1063 1063 1063 1063 1063 1063 1063 1062 1062 1061 1060 1060 1059 1057 1052 1044 1032 1027 1026 1026 1024 1022 1020 1019 1019 1019 1019 1021 1022 1023 1024 1026 1026 1026 1026 1027 1027 1027 1027 1028 1028 1029 1029 1030 1032 1034 1037 1045 1053 1059 1063 1068 1070 1070 1072 1073 1074 1075 1075 1075 1075 1075 1075 1075 1076 1076 1076 1076 1076 1076 1076 1076 1076 1076 1076 1076 1075 1075 1074 1072 1072 1071 1070 1066 1062 1056 1048 1042 1039 1035 1032 1028 1028 1028 1028 1029 1029 1030 1031 1032 1032 1032 1033 1035 1036 1037 1039 1039 1041 1041 1043 1046 1047 1049 1050 1054 1057 1063 1069 1072 1076 1078 1080 1081 1083 1084 1084 1084 1084 1084 1084 1084 1084 1083 1083 1083 1083 1082 1081 1081 1080 1079 1077 1077 1077 1077 1077 1074 1056 0 0 0 0 0 0 0 0 0 0 0 1624 1639 1657 1668 1676 1681 1691 1702 1713 1715 1715 1715 1708 1699 1689 1676 1653 1637 1637 1637 1647 1659 1664 1675 1686 1706 1722 1722 1722 1722 1722 1731 1731 1731 1726 1693 1668 1663 1656 1655 1655 1645 1635 1629 1621 1609 1600 1594 1586 1576 1576 1576 1582 1582 1582 1568 1562 1556 1545 1522 1496 1482 1449 1425 1410 1400 1393 1393 1393 1406 1406 1406 1404 1375 1341 1302 1274 1257 1252 1248 1228 0 0 0 0 0 0 964 960 957 954 954 954 943 0 862 851 838 0 0 0 0 0 0 0 715 716 716 715 701 677 655 0 0 590 590 590 628 628 628 0 0 0 0 0 0 0 0 0 0 0 0 386 386 386 386 0 0 0 0 0 0 0 421 420 402 402 392 0 0 0 0 0 0 0 0 0 0 0 0 0 0
957 957 974 995 1027 1045 1049 1076 1093 1107 1117 1125 1137 1148 1157 1161 1167 1170 1170 1170 1170 1153 0 0 0 0 862 862 862 872 884 893 898 899 904 908 912 916 923 931 940 948 957 963 966 969 970 972 974 974 976 977 978 979 979 981 981 983 984 985 986 988 989 989 991 992 992 993 994 995 995 995 995 995 996 996 996 996 996 997 997 997 997 999 999 1000 1000 1000 1001 1001 1002 1003 1003 1003 1003 1003 1003 1004 1004 1006 1007 1008 1008 1009 1009 1009 1009 1009 1009 1008 1006 1004 1004 1003 999 990 975 0 0 854 854 854 854 854 853 853 853 853 855 857 858 860 862 863 866 867 867 868 870 874 878 882 887 890 893 893 894 895 899 913 935 966 971 999 1010 1012 1014 1017 1019 1020 1021 1021 1022 1024 1024 1025 1026 1026 1026 1027 1027 1028 1028 1028 1029 1029 1029 1030 1030 1030 1030 1030 1030 1029 1029 1028 1027 1020 1016 1012 995 973 962 958 954 950 948 948 948 950 950 951 952 952 953 953 955 957 958 959 960 961 962 964 966 968 970 972 973 974 976 979 983 994 1009 1023 1032 1037 1040 1041 1042 1042 1043 1044 1045 1046 1046 1047 1047 1047 1048 1048 1048 1048 1048 1048 1049 1049 1050 1050 1050 1050 1049 1049 1049 1048 1048 1046 1043 1041 1039 1034 1026 1017 1015 1014 1013 1012 1010 1009 1009 1008 1007 1007 1007 1007 1007 1007 1007 1008 1008 1008 1009 1009 1009 1010 1010 1010 1010 1010 1013 1015 1019 1022 1027 1033 1045 1051 1055 1057 1057 1058 1059 1060 1062 1062 1063 1063 1063 1063 1064 1064 1064 1064 1064 1064 1064 1064 1064 1064 1064 1064 1064 1064 1064 1063 1063 1062 1062 1061 1061 1057 1052 1044 1033 1028 1028 1027 1026 1024 1021 1019 1019 1019 1020 1022 1024 1025 1026 1027 1027 1027 1027 1027 1027 1027 1028 1029 1029 1030 1030 1032 1034 1036 1038 1045 1054 1060 1066 1068 1070 1071 1073 1074 1075 1076 1076 1076 1076 1077 1077 1077 1077 1077 1077 1077 1077 1077 1077 1077 1077 1077 1077 1077 1076 1076 1074 1074 1072 1072 1071 1067 1062 1056 1048 1042 1039 1035 1032 1030 1030 1030 1030 1030 1030 1032 1032 1033 1034 1034 1035 1037 1038 1039 1040 1042 1043 1044 1045 1046 1048 1050 1052 1057 1059 1065 1071 1075 1077 1080 1081 1083 1084 1085 1085 1085 1085 1085 1085 1085 1085 1084 1084 1084 1084 1083 1083 1082 1082 1081 1078 1078 1078 1077 1077 1074 0 0 0 0 0 0 0 0 0 0 0 0 1622 1639 1657 1668 1676 1681 1690 1701 1709 1716 1716 1716 1708 1699 1689 1676 1653 1636 1626 1624 1624 1624 1638 1651 1670 1700 1716 1716 1716 1716 1716 1723 1723 1723 1714 1693 1669 1668 1663 1662 1651 1630 1618 1618 1614 1606 1602 1594 1586 1580 1580 1580 1582 1582 1582 1569 1562 1550 1542 1522 1497 1484 1463 1435 1428 1428 1428 1431 1431 1431 1426 1409 1404 1380 1342 1306 1275 1268 1253 1240 1222 1202 0 0 0 0 0 980 960 960 960 959 954 943 0 0 851 838 0 0 0 0 0 0 0 0 716 701 680 677 0 0 0 0 593 593 593 636 636 636 0 0 0 0 0 0 0 0 0 0 0 0 375 372 373 375 0 0 0 0 0 0 0 0 420 392 385 0 0 0 0 0 0 0 0 0 0 0 0 0 0 351
962 962 980 995 1020 1034 1048 1076 1093 1107 1115 1122 1131 1144 1157 1162 1168 1175 1176 1176 1176 1170 0 0 0 0 0 862 862 871 884 893 897 899 902 907 912 916 923 931 939 947 957 963 967 969 971 973 974 975 976 978 979 979 980 981 983 984 985 986 987 988 990 991 992 993 994 995 995 995 996 996 996 996 997 997 997 998 998 998 999 999 999 1000 1001 1001 1002 1002 1003 1004 1004 1004 1004 1004 1004 1004 1005 1006 1008 1008 1009 1009 1010 1010 1010 1010 1010 1010 1010 1008 1008 1007 1006 1005 1003 997 976 0 0 855 855 854 854 854 853 853 853 853 855 857 858 860 862 863 864 865 867 868 870 874 878 882 886 890 892 893 894 896 900 907 925 930 960 992 1008 1012 1015 1018 1021 1022 1023 1023 1024 1025 1026 1027 1027 1028 1028 1028 1028 1028 1029 1030 1030 1031 1031 1031 1031 1031 1031 1031 1031 1030 1030 1028 1027 1024 1019 1012 996 974 963 958 955 951 948 948 948 950 950 951 952 952 953 953 956 957 959 959 960 961 962 964 966 967 969 971 973 974 976 979 983 994 1009 1022 1032 1037 1040 1042 1043 1044 1044 1045 1047 1048 1048 1048 1049 1049 1049 1049 1049 1049 1049 1050 1050 1050 1051 1051 1051 1051 1051 1051 1050 1050 1049 1048 1045 1042 1040 1037 1029 1020 1018 1015 1014 1012 1011 1010 1009 1009 1009 1009 1009 1009 1009 1009 1009 1009 1010 1010 1011 1011 1011 1012 1012 1013 1013 1014 1016 1017 1020 1023 1028 1037 1046 1052 1055 1058 1059 1059 1060 1062 1062 1063 1064 1064 1065 1065 1065 1065 1065 1066 1066 1066 1065 1066 1065 1065 1066 1066 1065 1065 1065 1064 1063 1063 1062 1062 1061 1058 1053 1045 1034 1030 1030 1029 1028 1026 1023 1021 1021 1021 1022 1024 1025 1026 1027 1028 1028 1028 1028 1028 1028 1029 1030 1030 1031 1031 1032 1033 1035 1036 1038 1046 1055 1062 1067 1070 1072 1072 1074 1075 1076 1077 1077 1077 1077 1078 1078 1078 1078 1078 1078 1078 1078 1078 1078 1078 1078 1078 1078 1078 1078 1077 1076 1075 1074 1073 1071 1068 1062 1055 1047 1040 1036 1034 1032 1031 1031 1031 1031 1031 1032 1033 1033 1035 1035 1036 1037 1039 1039 1040 1042 1043 1045 1045 1046 1048 1050 1052 1055 1061 1062 1068 1074 1076 1078 1081 1083 1084 1085 1086 1087 1087 1087 1087 1087 1086 1086 1085 1085 1085 1085 1084 1083 1083 1082 1081 1079 1079 1079 1078 1078 1074 0 0 0 0 0 0 0 0 0 0 0 0 1618 1639 1657 1668 1676 1681 1690 1699 1707 1715 1715 1715 1708 1701 1689 1676 1653 1636 1626 1607 1607 1607 1616 1632 1653 1679 1701 1701 1701 1703 1703 1714 1714 1714 1714 1696 1678 1675 1669 1660 1636 1617 1607 1606 1606 1606 1602 1594 1586 1581 1581 1581 1582 1582 1582 1571 1561 1549 1533 1512 1497 1487 1472 1447 1447 1447 1471 1471 1471 1468 1426 1398 1380 1370 1349 1307 1289 1280 1253 1230 1218 1207 0 0 0 0 0 980 969 966 966 960 954 943 0 0 0 0 0 0 0 0 0 0 0 0 0 0 0 0 0 0 0 0 602 613 625 636 636 0 0 0 0 0 0 0 0 0 0 0 0 372 372 372 0 375 0 0 0 0 0 0 0 0 0 0 0 0 0 0 0 0 0 0 0 0 0 0 0 0 355 355
974 974 981 994 1019 1034 1037 1056 1087 1100 1108 1117 1126 1144 1155 1164 1172 1179 1183 1185 1185 1185 0 0 0 0 0 0 871 871 884 891 896 899 902 907 912 917 924 931 939 946 957 963 967 969 972 973 974 976 978 979 980 981 982 983 984 985 986 987 989 990 992 993 994 995 996 996 997 997 998 998 998 998 998 998 999 1000 1000 1000 1000 1000 1000 1001 1002 1003 1003 1003 1005 1005 1005 1005 1005 1006 1006 1007 1007 1008 1009 1010 1010 1010 1011 1012 1012 1012 1012 1011 1011 1010 1010 1010 1009 1008 1005 999 985 0 0 862 859 857 854 854 854 854 854 855 855 857 858 860 861 862 863 865 866 868 870 874 877 881 883 886 889 892 893 896 900 906 921 925 956 985 1004 1012 1018 1020 1022 1023 1024 1025 1025 1027 1027 1028 1028 1029 1029 1030 1030 1030 1031 1031 1031 1032 1032 1032 1032 1033 1033 1033 1033 1032 1031 1030 1028 1026 1022 1015 1000 975 963 958 955 953 949 949 949 950 950 951 952 952 953 954 956 958 959 959 961 961 962 964 966 967 969 971 973 974 976 979 991 994 1009 1022 1033 1037 1040 1042 1044 1045 1046 1047 1048 1048 1049 1049 1050 1050 1050 1050 1051 1051 1051 1051 1051 1051 1051 1052 1052 1052 1052 1052 1052 1051 1051 1049 1046 1044 1041 1037 1031 1023 1019 1018 1015 1014 1012 1011 1010 1009 1009 1009 1011 1011 1011 1011 1011 1011 1012 1012 1013 1014 1014 1014 1014 1014 1015 1016 1017 1018 1020 1023 1029 1037 1046 1052 1056 1058 1059 1061 1062 1063 1064 1064 1065 1065 1066 1066 1066 1066 1066 1066 1067 1067 1067 1067 1067 1067 1067 1067 1066 1066 1066 1066 1065 1065 1064 1063 1061 1058 1053 1045 1036 1031 1030 1030 1029 1027 1024 1023 1023 1023 1023 1025 1027 1028 1029 1029 1029 1029 1029 1029 1030 1030 1031 1031 1032 1033 1033 1034 1036 1037 1039 1047 1055 1062 1068 1072 1073 1074 1076 1077 1077 1078 1078 1079 1079 1079 1079 1079 1079 1079 1079 1079 1080 1080 1080 1080 1080 1080 1079 1079 1078 1078 1077 1076 1075 1075 1072 1068 1062 1055 1047 1040 1036 1034 1033 1031 1031 1031 1032 1032 1033 1034 1035 1036 1037 1039 1040 1040 1041 1041 1043 1044 1046 1046 1047 1049 1052 1052 1055 1061 1067 1072 1075 1076 1080 1083 1084 1085 1087 1088 1088 1088 1088 1088 1088 1088 1087 1087 1086 1086 1086 1085 1085 1084 1083 1083 1081 1081 1080 1080 1080 1067 0 0 0 0 0 0 0 0 0 0 0 0 1594 1629 1657 1675 1679 1681 1687 1695 1703 1715 1720 1720 1720 1715 1706 1696 1682 1662 1635 1607 1605 1599 1599 1599 1616 1642 1668 1681 1681 1687 1696 1710 1712 1712 1712 1710 1698 1680 1669 1654 1636 1617 1604 1604 1603 1602 1602 1594 1587 1581 1581 1581 1583 1583 1583 1571 1559 1545 1529 1509 1497 1490 1482 1466 1466 1466 1471 1471 1471 1468 1420 1379 1375 1362 1353 1329 1307 1280 1253 1222 1214 1207 0 0 0 0 0 985 985 982 982 982 971 970 0 0 0 0 0 0 0 0 0 0 0 0 0 0 0 0 0 0 0 0 0 642 646 646 0 0 0 0 0 0 0 0 0 0 0 0 0 0 383 375 375 0 0 0 0 0 0 0 0 0 0 0 0 0 0 0 0 0 0 0 0 0 0 0 0 329 351 351
974 974 983 993 1011 1025 1027 1043 1068 1098 1108 1117 1126 1144 1155 1168 1181 1188 1194 1194 1194 1194 1183 0 0 0 0 0 879 879 879 889 891 899 902 907 912 917 925 931 938 944 953 962 967 970 972 974 975 976 978 979 980 982 983 984 985 986 987 989 990 992 993 994 995 997 998 998 998 998 999 1000 1000 1000 1000 1001 1001 1002 1002 1002 1002 1002 1003 1003 1004 1004 1004 1005 1006 1007 1007 1007 1008 1008 1008 1009 1009 1010 1011 1011 1011 1011 1012 1013 1013 1013 1013 1013 1012 1012 1012 1012 1012 1011 1006 1002 991 0 0 870 860 857 854 854 854 854 855 855 856 857 857 859 860 861 861 864 866 868 871 874 877 880 881 884 887 890 893 896 900 903 907 920 952 984 1002 1013 1018 1020 1022 1023 1025 1025 1027 1027 1028 1029 1030 1030 1030 1031 1031 1031 1031 1032 1032 1033 1033 1033 1033 1034 1034 1034 1034 1033 1032 1031 1029 1028 1025 1017 1004 983 968 958 957 954 951 950 950 950 951 951 951 952 953 954 956 958 959 960 961 961 963 964 966 967 969 971 974 977 978 983 991 994 1006 1022 1033 1037 1040 1042 1044 1046 1047 1048 1049 1049 1050 1051 1051 1052 1052 1052 1052 1052 1052 1053 1053 1053 1053 1054 1054 1054 1054 1053 1053 1053 1051 1051 1047 1045 1043 1040 1034 1024 1020 1019 1017 1015 1014 1012 1011 1011 1011 1011 1012 1012 1012 1012 1012 1012 1013 1014 1014 1016 1016 1016 1016 1016 1016 1017 1017 1019 1021 1024 1028 1036 1046 1053 1056 1059 1060 1061 1063 1064 1066 1066 1066 1067 1067 1067 1067 1067 1068 1068 1068 1068 1068 1068 1069 1069 1069 1068 1068 1068 1067 1067 1067 1066 1065 1063 1061 1058 1054 1046 1037 1033 1033 1031 1030 1028 1026 1026 1025 1025 1025 1027 1028 1030 1031 1031 1031 1031 1032 1032 1032 1032 1032 1033 1033 1033 1033 1035 1036 1039 1042 1051 1059 1063 1068 1073 1073 1075 1077 1078 1079 1079 1079 1080 1080 1080 1080 1080 1080 1081 1081 1081 1081 1081 1081 1081 1081 1080 1080 1080 1079 1079 1078 1076 1076 1076 1073 1068 1062 1055 1046 1040 1036 1034 1034 1032 1032 1032 1033 1034 1035 1036 1036 1038 1040 1041 1042 1043 1043 1044 1044 1045 1046 1047 1050 1051 1052 1052 1055 1061 1067 1075 1076 1079 1083 1083 1085 1086 1087 1088 1089 1089 1089 1089 1089 1089 1088 1088 1087 1087 1087 1086 1085 1085 1084 1083 1083 1083 1082 1082 1080 1067 0 0 0 0 0 0 0 0 0 0 0 0 1582 1619 1657 1675 1679 1679 1680 1688 1700 1713 1720 1723 1730 1730 1730 1713 1696 1682 1662 1636 1605 1581 1573 1573 1573 1598 1629 1652 1661 1673 1689 1703 1712 1712 1712 1710 1698 1680 1669 1654 1636 1617 1604 1597 1597 1595 1595 1594 1587 1581 1581 1581 1583 1583 1583 1571 1559 1542 1520 1505 1497 1492 1483 1468 1468 1468 1471 1471 1471 1468 1407 1378 1361 1361 1353 1329 1307 1280 1253 1222 1214 1207 0 0 0 0 973 973 973 982 982 982 971 970 970 970 964 961 0 0 0 0 0 0 0 0 0 0 0 0 0 0 0 0 0 0 0 0 0 0 0 0 0 0 0 0 0 0 0 0 0 0 0 0 0 0 0 0 0 0 0 0 0 0 0 0 0 0 0 0 0 0 0 0 0 0 0 0 0 327 340 340
974 974 983 993 1001 1003 1018 1042 1066 1092 1108 1117 1126 1144 1157 1177 1191 1195 1197 1200 1200 1200 1191 0 0 0 0 0 0 884 884 889 891 899 903 910 915 919 925 931 938 944 953 961 967 970 973 975 976 977 978 980 981 983 984 984 986 987 988 990 991 993 994 995 997 998 998 1000 1000 1000 1000 1001 1002 1002 1002 1002 1003 1003 1003 1004 1004 1004 1005 1005 1005 1006 1006 1007 1007 1008 1008 1009 1009 1009 1010 1010 1011 1011 1012 1012 1013 1013 1013 1014 1014 1014 1014 1014 1014 1013 1013 1013 1013 1011 1008 1004 994 0 0 871 861 858 855 855 855 855 855 855 856 857 857 858 858 859 860 863 866 868 871 874 876 879 880 882 885 888 892 894 897 901 904 917 945 982 1001 1013 1018 1020 1022 1024 1026 1027 1027 1029 1030 1030 1030 1031 1032 1032 1032 1032 1033 1033 1033 1033 1034 1034 1034 1034 1035 1035 1035 1034 1034 1033 1030 1030 1026 1020 1013 995 972 960 959 956 951 950 950 950 951 951 952 952 953 954 956 958 959 961 962 962 964 965 966 968 969 971 974 977 980 983 991 995 1006 1022 1033 1036 1040 1043 1045 1047 1048 1049 1051 1051 1052 1052 1052 1053 1053 1053 1053 1054 1054 1054 1054 1054 1054 1055 1055 1055 1055 1054 1054 1053 1053 1051 1050 1047 1045 1041 1034 1025 1021 1021 1019 1018 1015 1013 1012 1012 1012 1012 1013 1013 1014 1014 1014 1014 1014 1015 1016 1017 1017 1017 1017 1017 1018 1019 1019 1020 1021 1025 1028 1037 1047 1053 1056 1059 1061 1063 1064 1066 1067 1068 1068 1068 1068 1069 1069 1069 1069 1069 1069 1070 1070 1070 1070 1070 1070 1070 1070 1069 1069 1069 1069 1068 1067 1064 1062 1060 1057 1049 1040 1038 1035 1035 1033 1030 1028 1028 1028 1028 1028 1028 1030 1032 1033 1033 1033 1034 1034 1034 1034 1034 1034 1034 1034 1034 1034 1036 1038 1042 1046 1053 1060 1065 1069 1074 1076 1076 1077 1079 1080 1080 1081 1081 1081 1081 1082 1082 1082 1082 1082 1082 1082 1082 1082 1082 1082 1082 1082 1081 1081 1079 1078 1078 1077 1077 1073 1069 1062 1054 1047 1044 1039 1035 1035 1035 1035 1035 1035 1035 1036 1037 1038 1040 1042 1044 1045 1045 1045 1046 1046 1046 1048 1049 1051 1052 1052 1053 1055 1061 1068 1075 1078 1083 1085 1085 1086 1088 1089 1089 1090 1091 1091 1090 1090 1090 1090 1089 1089 1089 1088 1088 1087 1086 1086 1086 1086 1085 1084 1082 1080 1066 0 0 0 0 0 0 0 0 0 0 0 1539 1582 1609 1651 1672 1672 1675 1679 1681 1693 1704 1714 1723 1730 1730 1730 1713 1696 1682 1677 1657 1620 1581 1560 1557 1557 1557 1587 1617 1641 1659 1679 1697 1712 1712 1712 1710 1698 1682 1669 1654 1638 1623 1604 1595 1588 1588 1587 1584 1584 1576 1576 1576 1583 1583 1583 1567 1547 1526 1506 1492 1491 1490 1483 1474 1467 1467 1465 1456 1448 1407 1405 1376 1361 1358 1353 1329 1307 1284 1254 1222 1214 1205 0 0 0 0 973 973 973 982 982 982 971 970 970 970 978 978 978 961 934 934 0 0 0 0 0 0 0 0 0 0 0 0 0 0 0 0 0 0 0 0 0 0 0 0 0 0 0 0 0 0 0 0 0 0 0 0 0 0 0 0 0 0 0 0 0 0 0 0 0 0 0 0 0 0 0 0 329 329 331 331
974 974 983 988 993 996 1006 1038 1062 1086 1106 1117 1133 1150 1169 1183 1192 1195 1202 1206 1206 1206 1206 0 0 0 0 0 0 0 889 889 891 899 903 910 916 919 925 931 937 944 952 961 967 970 973 975 977 978 980 982 983 983 984 986 987 988 990 991 992 993 995 996 997 999 1000 1001 1002 1002 1002 1003 1004 1004 1004 1004 1004 1005 1005 1005 1006 1006 1006 1006 1007 1008 1008 1009 1009 1010 1010 1010 1011 1011 1011 1012 1012 1013 1013 1013 1014 1015 1015 1015 1015 1015 1016 1016 1015 1015 1014 1014 1013 1013 1009 1007 1000 0 0 883 863 858 855 855 855 855 855 856 856 856 856 857 857 859 860 862 866 868 871 874 876 877 879 881 883 887 892 894 897 899 902 914 943 976 1001 1013 1018 1020 1023 1024 1026 1027 1028 1029 1030 1031 1032 1032 1033 1033 1033 1033 1033 1034 1034 1034 1035 1035 1036 1036 1036 1036 1036 1036 1035 1035 1033 1030 1028 1024 1018 1002 981 964 960 957 954 950 950 950 951 952 952 952 953 954 956 958 959 961 962 964 964 966 968 969 971 973 974 977 980 983 991 995 1004 1022 1033 1036 1041 1044 1045 1047 1050 1051 1051 1052 1053 1053 1053 1054 1054 1054 1054 1055 1055 1055 1055 1056 1056 1056 1056 1056 1056 1056 1055 1055 1054 1053 1051 1048 1046 1041 1035 1027 1022 1022 1021 1018 1016 1013 1013 1012 1012 1012 1013 1014 1015 1016 1016 1016 1016 1017 1017 1017 1019 1019 1019 1019 1019 1021 1021 1022 1023 1025 1029 1037 1047 1053 1056 1059 1062 1064 1065 1066 1068 1069 1069 1069 1070 1070 1070 1070 1070 1071 1071 1071 1071 1071 1071 1071 1071 1071 1071 1071 1071 1070 1070 1069 1068 1066 1062 1060 1057 1050 1044 1041 1039 1037 1034 1033 1032 1031 1031 1031 1032 1033 1035 1035 1035 1035 1036 1036 1036 1036 1036 1036 1036 1036 1036 1036 1036 1038 1040 1044 1047 1055 1065 1068 1070 1074 1077 1077 1079 1080 1081 1081 1081 1082 1082 1082 1083 1083 1083 1083 1084 1083 1083 1083 1083 1083 1083 1083 1082 1082 1082 1081 1080 1079 1079 1078 1076 1072 1063 1054 1047 1045 1040 1036 1036 1036 1036 1036 1036 1037 1037 1037 1038 1041 1045 1046 1047 1048 1048 1048 1048 1049 1049 1049 1051 1052 1053 1053 1055 1062 1068 1075 1081 1084 1085 1087 1088 1089 1090 1091 1092 1092 1092 1092 1091 1091 1091 1091 1091 1090 1090 1089 1088 1088 1087 1087 1087 1086 1086 1082 1080 1063 0 0 0 0 0 0 0 0 0 0 0 1565 1582 1602 1634 1661 1662 1664 1666 1669 1679 1693 1706 1718 1730 1730 1730 1713 1696 1682 1677 1669 1634 1581 1560 1539 1539 1539 1552 1586 1615 1641 1662 1686 1703 1703 1703 1700 1698 1686 1674 1664 1654 1635 1611 1595 1585 1579 1577 1577 1577 1574 1574 1574 1578 1578 1578 1555 1530 1508 1491 1491 1487 1484 1483 1474 1465 1454 1434 1430 1418 1402 1399 1371 1358 1353 1334 1321 1309 1284 1263 1243 1220 0 0 0 0 0 973 968 968 945 942 965 964 960 964 965 978 978 978 961 935 934 934 930 0 0 0 0 0 0 0 0 0 0 0 0 0 0 0 0 0 0 0 0 0 0 0 0 0 0 0 0 0 0 0 0 0 0 0 0 0 0 0 0 0 0 0 0 0 0 0 0 0 0 0 0 0 0 329 316 316 316
975 975 980 984 988 992 1002 1018 1054 1085 1106 1117 1133 1150 1170 1183 1192 1195 1202 1210 1216 1216 1216 1215 0 0 0 0 0 0 894 894 894 897 903 911 916 919 923 929 936 943 951 958 965 970 973 976 977 979 980 982 983 985 986 987 988 989 991 992 994 995 995 997 998 999 1001 1001 1002 1003 1004 1004 1005 1005 1005 1005 1006 1006 1007 1007 1007 1008 1008 1008 1009 1009 1010 1010 1010 1011 1011 1011 1012 1013 1013 1013 1013 1013 1014 1015 1015 1015 1016 1016 1017 1017 1017 1017 1017 1016 1016 1015 1014 1013 1010 1009 1006 988 0 0 868 860 855 855 855 855 855 855 856 856 856 857 857 859 860 862 865 868 870 873 875 877 878 880 883 887 892 894 896 899 902 910 938 965 991 1009 1016 1020 1023 1025 1027 1028 1030 1031 1031 1032 1032 1033 1034 1034 1034 1035 1035 1035 1035 1036 1036 1037 1037 1037 1037 1037 1037 1037 1036 1036 1035 1033 1033 1027 1018 1005 984 965 962 959 956 953 951 951 951 952 952 953 953 954 956 958 959 961 962 964 965 966 968 969 971 973 974 977 980 982 988 994 1004 1023 1033 1037 1041 1044 1045 1049 1050 1051 1052 1054 1054 1054 1054 1055 1055 1056 1056 1056 1056 1056 1057 1057 1057 1057 1058 1058 1057 1057 1057 1056 1055 1055 1052 1050 1046 1043 1039 1032 1024 1023 1021 1019 1017 1014 1013 1013 1013 1013 1014 1015 1016 1017 1017 1018 1018 1018 1018 1019 1020 1020 1020 1021 1021 1022 1023 1024 1024 1026 1029 1037 1047 1054 1057 1060 1063 1065 1066 1068 1069 1070 1071 1071 1071 1071 1071 1071 1072 1072 1072 1072 1073 1073 1073 1073 1073 1073 1073 1072 1072 1071 1071 1070 1069 1067 1063 1060 1058 1053 1046 1043 1041 1038 1037 1035 1035 1035 1035 1035 1035 1036 1037 1038 1038 1038 1038 1038 1038 1038 1039 1039 1039 1039 1039 1039 1039 1041 1044 1048 1052 1063 1067 1071 1074 1076 1078 1079 1080 1081 1082 1083 1083 1083 1083 1083 1084 1084 1084 1084 1084 1084 1084 1084 1084 1084 1084 1083 1083 1083 1082 1081 1081 1079 1079 1079 1077 1072 1064 1054 1048 1046 1041 1038 1038 1038 1039 1039 1039 1039 1039 1039 1039 1044 1048 1049 1050 1050 1051 1051 1051 1051 1051 1051 1051 1053 1054 1055 1055 1062 1068 1075 1081 1086 1087 1088 1089 1090 1091 1092 1093 1093 1093 1093 1093 1092 1092 1092 1092 1091 1091 1090 1089 1089 1088 1088 1087 1086 1086 1082 1080 0 0 0 0 0 0 0 0 0 0 0 1581 1598 1600 1601 1612 1629 1642 1647 1650 1655 1667 1684 1696 1709 1722 1722 1722 1706 1690 1680 1677 1676 1641 1605 1575 1539 1531 1528 1528 1528 1570 1604 1638 1662 1679 1688 1694 1694 1694 1686 1681 1678 1667 1649 1623 1595 1585 1574 1573 1572 1564 1564 1564 1570 1570 1570 1570 1549 1526 1507 1491 1487 1485 1484 1483 1474 1451 1438 1433 1415 1403 1385 1374 1371 1356 1339 1325 1312 1307 1294 1276 1258 1231 0 0 0 0 0 972 968 968 949 942 940 940 939 940 940 966 966 966 961 941 938 935 930 927 923 904 903 890 0 0 0 0 0 0 0 0 0 0 0 0 0 0 0 0 0 0 0 0 0 0 0 0 0 0 0 0 0 0 0 0 0 0 0 0 0 0 0 0 0 0 0 0 0 0 0 0 0 331 315 315 0
977 977 980 983 988 991 1002 1018 1036 1054 1082 1110 1133 1150 1170 1183 1192 1194 1202 1210 1220 1231 1231 1231 1219 0 0 0 0 0 0 901 901 902 903 911 916 921 923 928 933 942 947 955 963 970 973 976 978 980 981 984 985 986 987 988 989 991 992 993 994 995 996 998 1000 1000 1002 1003 1003 1004 1005 1006 1006 1006 1007 1007 1007 1008 1008 1008 1008 1008 1009 1009 1009 1011 1011 1012 1012 1012 1013 1013 1013 1013 1014 1014 1014 1014 1016 1016 1016 1017 1017 1018 1019 1019 1019 1019 1018 1018 1017 1017 1014 1013 1011 1010 1006 989 0 0 870 861 857 857 856 856 856 856 856 856 856 857 857 859 860 862 864 866 869 872 873 876 877 880 882 886 891 894 896 898 902 908 922 951 983 1007 1016 1020 1025 1027 1027 1029 1031 1032 1033 1034 1034 1035 1035 1035 1035 1036 1036 1036 1036 1037 1037 1038 1038 1038 1038 1038 1038 1038 1037 1037 1037 1036 1036 1032 1021 1006 984 966 964 962 960 958 956 953 952 952 952 953 953 954 956 958 959 961 962 964 965 967 969 970 971 973 975 977 980 982 987 993 1004 1023 1032 1037 1042 1046 1047 1049 1051 1052 1054 1055 1055 1056 1056 1056 1057 1057 1057 1057 1057 1058 1058 1058 1059 1059 1059 1059 1059 1058 1058 1057 1056 1055 1053 1052 1049 1047 1043 1034 1027 1025 1022 1020 1019 1016 1013 1013 1013 1013 1014 1015 1016 1018 1018 1018 1019 1019 1020 1020 1021 1021 1021 1021 1021 1023 1024 1025 1026 1027 1030 1038 1047 1054 1059 1063 1065 1067 1068 1070 1071 1071 1071 1073 1073 1073 1073 1073 1073 1073 1074 1074 1074 1074 1074 1074 1074 1074 1074 1073 1073 1072 1072 1070 1069 1067 1065 1063 1060 1054 1049 1045 1041 1041 1039 1038 1037 1037 1037 1037 1038 1038 1039 1039 1039 1039 1039 1040 1040 1040 1041 1041 1041 1041 1041 1041 1042 1044 1047 1051 1057 1063 1069 1075 1076 1077 1080 1080 1081 1082 1082 1084 1084 1084 1084 1085 1085 1085 1085 1085 1085 1085 1085 1085 1085 1085 1085 1084 1084 1083 1083 1082 1081 1080 1080 1079 1077 1073 1065 1055 1051 1049 1044 1039 1039 1039 1041 1042 1042 1042 1042 1042 1044 1047 1051 1051 1051 1052 1054 1054 1054 1053 1052 1052 1052 1053 1056 1058 1060 1070 1072 1076 1084 1087 1088 1090 1091 1092 1093 1094 1094 1094 1094 1094 1094 1094 1093 1093 1093 1092 1092 1092 1090 1090 1089 1089 1088 1087 1085 1082 1080 0 0 0 0 0 0 0 0 0 0 0 1609 1609 1609 1603 1603 1603 1620 1628 1635 1645 1667 1684 1694 1704 1712 1712 1712 1695 1678 1676 1676 1669 1665 1648 1622 0 0 0 0 1488 1527 1572 1610 1640 1659 1674 1689 1696 1696 1696 1685 1678 1667 1658 1640 1606 1585 1574 1572 1568 1559 1559 1559 1565 1565 1565 1565 1545 1521 1502 1491 1487 1485 1484 1480 1462 1451 1438 1429 1414 1397 1375 1355 1351 1337 1324 1316 1308 1302 1299 1283 1267 1236 0 0 0 0 0 978 968 968 953 942 940 925 924 924 924 924 928 938 941 941 938 935 930 927 926 926 914 914 907 0 0 0 0 0 0 0 0 850 869 869 0 0 0 0 0 0 0 0 0 0 0 0 0 0 0 0 0 0 0 0 0 0 0 0 0 0 0 0 0 0 0 0 0 0 0 0 0 0 311 311 0
980 980 980 983 987 991 1002 1017 1035 1051 1072 1087 1117 1143 1169 1183 1189 1193 1201 1210 1220 1231 1231 1231 1229 1213 0 0 0 0 0 0 0 903 903 911 917 922 923 928 931 937 943 952 962 970 973 976 979 982 983 985 986 987 989 989 991 991 993 995 996 997 998 1000 1000 1002 1003 1004 1004 1005 1006 1007 1007 1007 1007 1008 1008 1008 1009 1009 1010 1010 1011 1011 1011 1012 1012 1013 1013 1013 1014 1014 1015 1015 1015 1016 1016 1016 1017 1018 1018 1018 1019 1019 1019 1019 1020 1020 1020 1019 1018 1018 1016 1014 1013 1012 1007 990 0 0 0 862 859 858 858 857 856 856 856 856 857 857 858 859 860 861 863 865 867 869 871 873 875 879 882 885 889 893 896 898 902 908 922 951 983 1004 1016 1023 1026 1028 1028 1030 1031 1033 1034 1034 1035 1035 1036 1036 1037 1037 1037 1037 1037 1038 1039 1039 1039 1039 1039 1039 1039 1038 1038 1038 1038 1038 1038 1034 1025 1009 988 969 967 966 965 962 959 956 954 954 954 954 955 955 957 958 960 961 963 964 965 967 969 970 972 974 975 977 980 982 987 993 1004 1023 1032 1037 1042 1046 1048 1051 1053 1054 1055 1056 1056 1057 1057 1057 1058 1058 1058 1058 1059 1059 1059 1060 1060 1060 1060 1060 1060 1060 1059 1059 1058 1056 1055 1053 1052 1050 1046 1036 1029 1027 1024 1021 1019 1016 1015 1014 1014 1014 1014 1015 1016 1018 1019 1019 1020 1020 1021 1021 1022 1022 1022 1022 1022 1023 1025 1025 1027 1029 1033 1038 1047 1055 1060 1064 1066 1068 1069 1071 1072 1072 1073 1073 1074 1074 1074 1074 1075 1075 1075 1075 1075 1075 1075 1075 1075 1075 1075 1075 1074 1074 1073 1072 1071 1068 1066 1065 1062 1055 1050 1045 1043 1041 1041 1040 1039 1039 1039 1039 1040 1040 1041 1041 1041 1042 1042 1042 1042 1042 1043 1043 1043 1043 1043 1043 1044 1047 1050 1053 1057 1063 1069 1076 1079 1080 1080 1082 1082 1083 1083 1084 1084 1085 1085 1085 1085 1085 1086 1086 1086 1086 1086 1085 1085 1085 1085 1085 1085 1084 1083 1083 1082 1082 1082 1079 1077 1073 1069 1058 1053 1051 1045 1045 1045 1045 1046 1046 1047 1047 1047 1048 1050 1052 1052 1052 1054 1054 1054 1055 1055 1055 1052 1052 1052 1054 1058 1060 1065 1070 1076 1080 1086 1089 1089 1091 1092 1093 1095 1095 1096 1096 1096 1095 1095 1095 1095 1094 1094 1093 1093 1092 1092 1092 1090 1090 1089 1088 1085 1082 1077 0 0 0 0 0 0 0 0 0 0 0 1626 1626 1626 1603 1603 1603 1603 1610 1620 1639 1663 1681 1693 1700 1701 1701 1701 1687 1669 1669 1669 1665 1665 1665 1646 0 0 0 0 0 0 1572 1610 1623 1646 1666 1687 1696 1696 1696 1685 1678 1667 1658 1647 1621 1592 1578 1572 1561 1554 1554 1554 1554 1556 1556 1556 1538 1520 1501 1489 1489 1487 1485 1480 1462 1451 1438 1429 1411 1396 1374 1343 1338 1314 1309 1308 1303 1303 1292 1292 1271 1239 0 0 0 0 0 0 983 983 979 0 0 0 925 915 913 913 913 938 941 941 938 935 931 927 926 926 918 914 908 0 0 0 0 0 0 0 854 875 890 890 890 0 0 0 0 0 0 0 0 0 0 0 0 0 0 0 0 0 0 0 0 0 0 0 0 0 0 0 0 0 0 0 0 0 0 0 0 0 0 0 0
981 981 981 984 987 992 1003 1017 1032 1047 1065 1079 1099 1133 1169 1183 1189 1193 1200 1208 1220 1236 1236 1236 1233 1222 1201 0 0 0 0 0 0 908 908 911 917 922 927 928 931 935 942 951 961 969 973 977 980 983 985 986 987 989 990 991 993 994 995 996 997 999 999 1001 1002 1003 1004 1005 1006 1007 1007 1007 1009 1009 1009 1010 1010 1010 1010 1011 1011 1011 1012 1012 1012 1013 1014 1014 1015 1015 1015 1016 1016 1016 1016 1017 1017 1018 1018 1018 1019 1019 1020 1020 1021 1021 1021 1021 1020 1020 1019 1019 1018 1017 1017 1015 1007 996 983 0 0 866 863 862 861 860 858 857 857 857 857 858 859 860 860 861 863 864 867 868 870 872 874 877 880 883 887 889 893 898 902 908 922 951 982 1004 1016 1023 1027 1028 1030 1032 1033 1034 1035 1036 1036 1037 1037 1038 1038 1039 1039 1039 1039 1039 1040 1040 1040 1040 1040 1040 1040 1039 1039 1039 1038 1038 1038 1034 1028 1015 996 971 967 966 965 965 961 958 956 955 955 955 956 956 957 959 961 962 963 965 966 968 969 971 972 974 976 978 980 984 987 993 1004 1020 1031 1037 1043 1046 1050 1052 1054 1056 1057 1057 1058 1058 1058 1059 1059 1059 1059 1060 1060 1060 1060 1061 1061 1061 1061 1062 1062 1062 1061 1060 1059 1058 1056 1055 1053 1050 1046 1037 1029 1027 1025 1023 1019 1017 1017 1016 1016 1016 1016 1016 1018 1019 1020 1021 1021 1021 1022 1023 1023 1023 1023 1023 1023 1023 1025 1026 1027 1029 1033 1038 1047 1056 1060 1064 1067 1069 1070 1072 1073 1073 1075 1075 1075 1075 1075 1075 1076 1076 1076 1076 1076 1076 1076 1076 1076 1076 1076 1075 1075 1074 1074 1073 1071 1070 1069 1067 1063 1057 1051 1046 1044 1043 1042 1041 1041 1041 1041 1041 1041 1043 1043 1043 1044 1044 1044 1044 1044 1044 1044 1044 1044 1045 1045 1045 1046 1048 1051 1055 1059 1063 1070 1077 1080 1081 1081 1082 1083 1083 1084 1085 1085 1085 1085 1085 1085 1086 1086 1086 1086 1086 1086 1085 1085 1085 1085 1085 1085 1084 1083 1083 1082 1082 1082 1080 1078 1076 1069 1059 1056 1054 1050 1047 1047 1047 1051 1052 1052 1053 1053 1054 1055 1057 1057 1057 1055 1055 1055 1059 1059 1059 1057 1057 1057 1057 1062 1065 1072 1074 1077 1084 1089 1091 1091 1092 1093 1095 1096 1097 1097 1097 1097 1097 1096 1096 1096 1096 1095 1095 1095 1094 1093 1093 1092 1092 1089 1088 1085 1082 1076 0 0 0 0 0 0 0 0 0 0 0 1642 1642 1642 1614 1603 1603 1603 1603 1617 1639 1663 1678 1691 1699 1699 1699 1698 1687 1669 1669 1669 1673 1673 1673 1661 1636 0 0 0 0 0 1572 1610 1623 1634 1655 1677 1696 1696 1696 1685 1675 1665 1658 1647 1631 1606 1583 1572 1561 1554 1547 1547 1547 1546 1546 1541 1532 1516 1501 1494 1494 1489 1489 1480 1462 1451 1444 1429 1410 1392 1365 1342 1300 1296 1280 1280 1280 1292 1292 1292 1271 1236 0 0 0 0 0 0 0 0 0 0 0 0 0 915 913 913 913 941 955 955 955 950 931 926 926 926 918 914 907 0 0 0 0 0 0 0 870 886 890 890 890 0 0 0 0 0 0 0 0 0 0 0 0 0 0 0 0 0 0 0 0 0 0 0 0 0 0 0 0 0 0 0 0 0 0 0 0 0 0 0 0
983 984 984 984 987 993 1005 1017 1031 1045 1060 1075 1097 1133 1170 1184 1189 1193 1200 1207 1220 1237 1237 1237 1237 1230 1217 0 0 0 0 0 0 910 910 910 917 922 927 931 931 935 942 951 961 965 973 977 981 984 985 987 988 990 991 992 994 995 996 997 998 1000 1001 1002 1003 1003 1005 1006 1007 1007 1009 1009 1010 1010 1010 1011 1011 1011 1011 1011 1012 1012 1013 1013 1014 1014 1015 1015 1016 1016 1016 1017 1017 1017 1017 1018 1018 1019 1019 1020 1020 1021 1022 1022 1022 1022 1022 1022 1022 1022 1022 1021 1020 1019 1018 1018 1011 1006 996 0 0 879 869 866 864 863 861 859 859 859 859 859 859 860 860 861 863 864 866 868 869 871 873 874 878 881 884 886 891 896 901 908 925 950 982 1004 1016 1023 1027 1030 1031 1034 1035 1036 1036 1037 1038 1038 1039 1039 1039 1039 1040 1040 1040 1040 1041 1041 1041 1041 1041 1041 1041 1041 1040 1040 1040 1039 1038 1035 1028 1017 997 971 967 966 965 965 961 959 956 955 955 955 956 957 959 960 961 963 964 965 967 968 970 972 973 975 976 979 981 984 988 993 1003 1016 1029 1038 1044 1047 1051 1053 1055 1056 1057 1058 1058 1059 1059 1059 1060 1060 1061 1061 1061 1061 1061 1062 1062 1062 1062 1062 1062 1062 1062 1061 1060 1059 1058 1057 1055 1051 1046 1038 1031 1030 1028 1024 1021 1019 1019 1018 1018 1018 1018 1018 1019 1021 1022 1022 1023 1023 1023 1024 1024 1024 1024 1023 1023 1023 1025 1026 1027 1030 1033 1037 1047 1056 1060 1064 1067 1069 1070 1072 1073 1074 1075 1075 1075 1076 1076 1076 1076 1076 1076 1076 1077 1077 1077 1076 1076 1076 1076 1076 1076 1075 1074 1073 1072 1071 1070 1067 1063 1057 1051 1049 1047 1045 1044 1043 1042 1042 1042 1043 1044 1045 1047 1047 1047 1047 1047 1047 1047 1047 1047 1047 1047 1047 1047 1047 1048 1050 1052 1055 1059 1063 1071 1077 1080 1081 1081 1082 1083 1084 1085 1085 1085 1085 1085 1085 1085 1086 1086 1086 1086 1086 1086 1085 1085 1085 1085 1085 1084 1084 1083 1083 1083 1083 1083 1081 1078 1076 1070 1061 1060 1060 1058 1055 1055 1055 1058 1060 1060 1061 1061 1062 1062 1063 1065 1065 1065 1065 1066 1066 1066 1064 1064 1064 1065 1068 1070 1071 1075 1075 1080 1086 1090 1092 1093 1093 1095 1096 1098 1098 1098 1098 1098 1097 1097 1097 1097 1097 1096 1096 1096 1095 1095 1094 1093 1092 1091 1091 1088 1081 1066 0 0 0 0 0 0 0 0 0 0 1624 1654 1654 1654 1646 1630 1619 1616 1616 1616 1638 1662 1676 1685 1692 1696 1696 1696 1687 1669 1669 1669 1676 1676 1676 1671 1654 0 0 0 0 0 1619 1621 1622 1623 1631 1647 1662 1662 1662 1660 1648 1647 1644 1641 1636 1629 1614 1583 1561 1554 1547 1542 1542 1531 1524 1518 1518 1502 1491 1491 1491 1501 1501 1501 1483 1466 1452 1432 1410 1390 1362 1332 1299 1290 1272 1272 1272 1290 1290 1290 1271 1231 0 0 0 0 0 0 0 0 0 0 0 0 0 0 913 913 913 968 985 985 985 964 926 925 923 922 918 911 903 0 0 0 0 0 0 0 915 890 886 886 876 850 848 0 0 0 0 0 0 0 0 0 0 0 0 0 0 0 0 0 0 0 0 0 0 0 0 0 0 0 0 0 0 0 0 0 0 0 0 0 0
988 989 989 990 992 995 1005 1017 1029 1042 1057 1075 1096 1133 1166 1184 1189 1193 1200 1207 1219 1239 1241 1241 1241 1239 1230 1215 0 0 0 0 0 0 909 909 915 920 927 932 933 935 941 950 961 964 973 978 982 984 987 988 989 991 992 993 995 996 997 998 1000 1001 1002 1003 1004 1005 1006 1007 1007 1009 1009 1010 1011 1011 1012 1012 1013 1013 1013 1013 1013 1014 1014 1014 1015 1016 1016 1016 1016 1017 1018 1018 1018 1019 1019 1019 1019 1020 1021 1021 1022 1022 1022 1023 1023 1023 1023 1023 1023 1023 1023 1023 1023 1022 1020 1019 1017 1013 1000 0 0 890 879 872 869 866 863 861 860 859 859 859 859 860 860 861 863 864 865 867 868 870 871 872 873 878 883 884 888 893 900 908 925 950 974 997 1011 1022 1027 1031 1033 1035 1036 1037 1037 1039 1039 1039 1040 1040 1040 1041 1041 1041 1041 1042 1042 1042 1042 1042 1042 1042 1042 1041 1041 1041 1040 1039 1038 1035 1029 1018 998 973 967 966 965 964 961 959 957 956 956 956 956 959 959 961 962 963 964 965 968 970 972 973 975 977 979 980 983 985 988 993 997 1011 1025 1037 1044 1047 1051 1053 1055 1057 1057 1059 1059 1060 1060 1061 1061 1061 1061 1062 1062 1063 1063 1063 1063 1063 1063 1063 1063 1063 1063 1063 1062 1060 1059 1058 1056 1053 1047 1041 1035 1030 1029 1027 1023 1023 1022 1022 1022 1022 1021 1021 1021 1022 1023 1024 1024 1025 1025 1026 1026 1025 1025 1025 1025 1026 1026 1026 1028 1030 1033 1033 1047 1056 1061 1065 1068 1069 1070 1072 1073 1074 1075 1075 1075 1076 1076 1076 1076 1076 1076 1076 1077 1077 1077 1077 1076 1076 1076 1076 1076 1075 1074 1074 1073 1072 1071 1068 1064 1057 1052 1051 1050 1048 1046 1045 1044 1044 1044 1045 1047 1049 1049 1049 1050 1051 1051 1051 1050 1049 1048 1048 1048 1048 1049 1049 1049 1051 1053 1056 1059 1067 1074 1079 1080 1081 1081 1082 1083 1084 1085 1085 1085 1085 1085 1085 1085 1085 1085 1085 1085 1084 1084 1084 1085 1085 1085 1084 1084 1084 1083 1083 1083 1083 1083 1081 1080 1077 1070 1066 1066 1066 1066 1066 1066 1066 1066 1067 1069 1070 1073 1073 1073 1073 1073 1072 1071 1070 1070 1070 1070 1070 1070 1071 1072 1073 1076 1076 1077 1079 1084 1089 1092 1094 1095 1096 1096 1098 1099 1099 1099 1099 1099 1099 1099 1098 1098 1098 1097 1097 1097 1096 1096 1096 1094 1093 1093 1092 1090 1081 1065 0 0 0 0 0 0 0 0 0 0 1630 1654 1658 1658 1658 1657 1646 1626 1626 1626 1631 1648 1659 1672 1684 1692 1692 1692 1689 1680 1677 1677 1677 1682 1682 1682 1674 0 0 0 0 0 1674 1674 1637 1616 1616 1616 1630 1632 1632 1632 1632 1632 1632 1632 1632 1629 1624 1618 1604 1589 1562 1542 1533 1517 1508 1502 1501 1497 1491 1491 1491 1501 1501 1501 1483 1480 1458 1433 1410 1390 1357 1327 1294 1290 1267 1267 1267 1281 1281 1281 1269 0 0 0 0 0 0 0 0 0 0 0 0 0 0 0 0 934 961 988 1002 1002 1002 986 943 926 925 922 918 900 897 0 0 0 0 0 0 0 0 896 858 857 855 851 850 848 0 0 0 0 0 0 0 0 0 0 0 0 0 0 0 0 0 0 0 0 0 0 0 0 0 0 0 0 0 0 0 0 0 0 0 0 0
998 1001 1001 1003 1004 1006 1011 1017 1028 1038 1055 1072 1096 1133 1166 1184 1187 1193 1200 1207 1219 1240 1243 1243 1243 1243 1240 1229 0 0 0 0 0 0 911 911 911 916 926 933 934 936 940 948 960 964 973 978 982 985 987 989 991 991 993 995 996 998 999 1000 1001 1003 1004 1004 1006 1006 1008 1008 1009 1009 1010 1011 1012 1012 1013 1013 1013 1013 1014 1014 1015 1015 1016 1016 1016 1017 1017 1018 1018 1018 1019 1019 1019 1020 1020 1020 1021 1021 1021 1022 1023 1023 1023 1024 1024 1024 1024 1024 1025 1025 1025 1025 1025 1024 1023 1020 1019 1014 1004 0 0 891 879 877 873 870 865 863 861 860 859 859 859 860 860 861 863 864 864 866 868 869 871 871 871 874 876 882 886 890 900 908 925 945 965 990 1009 1022 1029 1031 1034 1035 1036 1038 1039 1039 1040 1040 1040 1041 1041 1042 1042 1042 1043 1043 1043 1043 1043 1044 1044 1044 1043 1043 1042 1042 1042 1039 1038 1036 1031 1020 1001 982 967 964 963 962 961 959 957 956 956 956 957 959 960 962 963 964 965 967 968 971 973 975 977 978 980 981 983 986 989 993 997 1011 1025 1037 1045 1050 1052 1055 1056 1057 1058 1059 1060 1061 1061 1061 1062 1062 1062 1062 1063 1063 1064 1064 1064 1064 1065 1065 1065 1065 1064 1064 1063 1062 1061 1060 1059 1055 1052 1045 1035 1032 1030 1028 1027 1025 1024 1024 1024 1024 1024 1024 1024 1024 1024 1024 1025 1027 1028 1028 1028 1028 1026 1026 1026 1026 1026 1027 1028 1030 1033 1034 1047 1057 1061 1065 1068 1070 1071 1072 1073 1074 1075 1075 1075 1076 1076 1076 1076 1076 1076 1076 1077 1077 1077 1077 1076 1076 1076 1076 1076 1075 1075 1074 1073 1073 1071 1070 1065 1059 1054 1053 1052 1051 1049 1048 1047 1047 1047 1048 1051 1051 1051 1052 1053 1053 1053 1053 1053 1051 1050 1050 1050 1050 1050 1050 1050 1052 1055 1058 1061 1068 1074 1079 1081 1081 1081 1082 1083 1084 1085 1085 1085 1085 1085 1085 1085 1085 1085 1084 1084 1084 1083 1083 1083 1083 1083 1083 1083 1083 1083 1083 1083 1083 1082 1081 1081 1078 1074 1073 1072 1072 1072 1072 1071 1071 1071 1074 1074 1075 1075 1075 1078 1081 1081 1081 1081 1080 1080 1079 1079 1079 1079 1079 1079 1079 1081 1081 1082 1085 1089 1094 1094 1095 1096 1097 1098 1100 1100 1100 1100 1100 1100 1100 1100 1099 1099 1099 1099 1099 1098 1098 1096 1096 1095 1093 1093 1092 1091 1084 1049 0 0 0 0 0 0 0 0 0 0 1631 1654 1658 1658 1659 1658 1657 1643 1631 1628 1628 1631 1633 1652 1672 1692 1693 1693 1693 1691 1691 1691 1689 1691 1691 1689 1685 1681 1681 1681 1717 1717 1717 1700 1654 1611 1605 1605 1605 1611 1611 1612 1612 1612 1620 1628 1628 1628 1624 1618 1604 1589 1565 1542 1526 1507 1507 1502 1497 1497 1491 1491 1491 1501 1501 1501 1483 1480 1469 1446 1418 1390 1355 1321 1294 1282 1267 1267 1267 1281 1281 1281 1250 0 0 0 0 0 0 0 0 0 0 0 0 0 0 0 0 988 988 988 1002 1002 1002 986 944 931 925 924 918 896 884 0 0 0 0 0 0 0 931 905 858 857 855 851 850 848 0 0 0 0 0 0 0 0 0 0 0 0 0 0 0 0 0 0 0 0 0 0 0 0 0 0 0 0 0 0 0 0 0 0 0 0 0
1013 1015 1015 1017 1016 1017 1018 1018 1028 1038 1054 1071 1093 1133 1158 1177 1182 1193 1201 1208 1222 1240 1243 1245 1246 1246 1246 1246 0 0 0 0 0 0 0 909 909 910 917 933 936 937 938 943 947 962 973 979 984 987 989 991 991 992 994 997 998 999 1000 1001 1003 1004 1004 1006 1007 1007 1008 1009 1010 1011 1011 1012 1013 1013 1014 1014 1014 1015 1015 1016 1016 1016 1016 1018 1018 1018 1018 1019 1019 1020 1020 1020 1020 1021 1021 1021 1022 1022 1023 1023 1024 1024 1024 1025 1025 1025 1025 1025 1025 1025 1025 1025 1025 1025 1024 1022 1020 1016 1009 991 0 0 879 877 873 871 866 863 861 860 859 859 859 859 859 861 862 862 864 865 868 869 871 871 871 874 876 879 883 888 897 908 925 942 962 990 1009 1022 1029 1031 1034 1035 1037 1039 1040 1040 1041 1042 1042 1042 1042 1043 1043 1043 1043 1044 1044 1044 1044 1045 1045 1045 1045 1043 1043 1043 1042 1042 1039 1037 1033 1029 1011 986 972 964 961 961 960 959 958 958 958 958 958 960 961 963 964 966 966 967 970 972 974 976 978 979 982 983 985 987 990 993 997 1011 1023 1038 1046 1050 1054 1056 1057 1058 1058 1060 1061 1061 1062 1062 1062 1062 1062 1063 1063 1063 1064 1064 1065 1065 1065 1065 1065 1065 1065 1065 1064 1063 1062 1060 1059 1057 1053 1049 1037 1032 1030 1029 1028 1027 1026 1025 1024 1024 1024 1024 1025 1025 1025 1025 1027 1030 1030 1030 1030 1030 1027 1027 1027 1029 1029 1029 1029 1031 1032 1033 1047 1057 1063 1066 1068 1071 1072 1072 1073 1074 1075 1075 1076 1076 1076 1076 1076 1076 1076 1076 1076 1077 1077 1076 1076 1076 1076 1076 1076 1075 1074 1074 1073 1073 1072 1070 1067 1060 1054 1053 1053 1053 1051 1050 1050 1050 1050 1052 1054 1054 1054 1055 1055 1056 1056 1056 1056 1054 1052 1051 1051 1050 1050 1051 1052 1053 1056 1061 1064 1068 1075 1079 1081 1081 1081 1082 1083 1084 1084 1084 1084 1084 1083 1083 1083 1084 1084 1084 1083 1083 1083 1083 1083 1083 1083 1082 1082 1082 1081 1081 1081 1081 1081 1081 1081 1079 1077 1076 1076 1077 1077 1078 1078 1078 1078 1080 1080 1081 1081 1082 1083 1083 1084 1084 1085 1085 1086 1086 1086 1086 1087 1087 1088 1088 1088 1088 1090 1090 1093 1096 1096 1097 1098 1099 1099 1100 1101 1102 1102 1101 1101 1101 1101 1101 1101 1101 1100 1100 1099 1098 1097 1097 1097 1095 1093 1092 1091 1084 0 0 0 0 0 0 0 0 0 0 0 1631 1654 1658 1658 1658 1659 1658 1657 1639 1633 1631 1631 1631 1652 1672 1692 1696 1697 1701 1703 1703 1703 1695 1693 1693 1692 1693 1693 1702 1721 1742 1742 1742 1700 1664 1611 1596 1594 1594 1594 1594 1594 1595 1596 1596 1605 1613 1618 1618 1618 1604 1589 1565 1542 1526 1503 1500 1498 1497 1497 1491 1487 1487 1487 1487 1487 1482 1480 1469 1454 1428 1390 1355 1321 1294 1282 1267 1261 1261 1259 1259 1259 1228 0 0 0 0 0 0 0 0 0 0 0 0 0 0 0 0 988 988 988 1002 1002 1002 986 946 943 935 926 921 895 880 0 0 0 0 0 0 931 931 902 858 857 855 851 848 836 0 0 0 0 0 0 0 0 0 0 0 0 0 0 0 359 351 348 327 0 0 0 0 0 0 0 0 0 0 0 0 0 0 0 0 0 0
1027 1027 1027 1027 1023 1023 1023 1023 1028 1038 1052 1067 1085 1111 1139 1167 1172 1194 1205 1211 1226 1240 1245 1245 1246 1250 1262 1268 1268 0 0 0 0 0 0 910 910 910 916 933 936 937 937 941 944 959 972 979 986 988 990 991 992 994 996 997 999 1000 1001 1002 1003 1005 1005 1007 1008 1008 1009 1010 1011 1012 1012 1012 1014 1014 1015 1015 1015 1016 1016 1016 1017 1018 1018 1018 1018 1019 1020 1020 1020 1021 1021 1021 1022 1022 1023 1023 1023 1023 1024 1024 1024 1025 1026 1026 1027 1027 1027 1027 1027 1026 1026 1026 1026 1026 1025 1023 1020 1017 1013 1001 0 0 879 878 873 871 866 863 861 860 859 859 859 859 859 860 861 861 863 865 868 869 871 871 871 874 876 879 883 887 893 902 912 927 957 988 1008 1023 1030 1034 1035 1037 1038 1039 1040 1041 1042 1043 1043 1043 1043 1044 1044 1044 1044 1044 1044 1045 1045 1045 1045 1045 1045 1045 1044 1044 1044 1043 1042 1038 1035 1031 1017 995 973 964 961 960 960 960 960 959 959 959 959 960 961 964 967 968 968 970 971 975 976 977 978 979 982 985 987 988 991 994 999 1011 1023 1038 1046 1051 1054 1056 1057 1059 1060 1061 1061 1061 1062 1062 1062 1062 1062 1063 1063 1063 1064 1065 1065 1065 1066 1066 1066 1066 1065 1065 1064 1064 1063 1061 1059 1057 1056 1051 1039 1032 1032 1030 1029 1028 1027 1026 1026 1025 1025 1025 1025 1025 1026 1027 1030 1031 1032 1032 1032 1030 1028 1028 1028 1029 1030 1031 1031 1031 1034 1037 1047 1057 1063 1067 1069 1071 1072 1072 1073 1074 1075 1075 1075 1075 1075 1074 1074 1074 1076 1076 1076 1076 1076 1076 1076 1075 1075 1075 1075 1075 1074 1074 1073 1073 1073 1070 1067 1062 1057 1056 1055 1055 1055 1055 1056 1057 1057 1057 1058 1059 1059 1059 1059 1058 1058 1058 1058 1059 1059 1059 1058 1057 1057 1057 1056 1056 1056 1061 1065 1068 1075 1079 1081 1081 1081 1082 1083 1083 1083 1083 1083 1083 1082 1082 1082 1082 1082 1083 1083 1083 1081 1081 1081 1082 1082 1082 1082 1081 1081 1080 1080 1080 1081 1081 1081 1080 1079 1079 1079 1082 1083 1084 1086 1086 1086 1087 1087 1087 1088 1089 1089 1089 1089 1089 1089 1089 1090 1090 1092 1092 1092 1092 1092 1093 1094 1094 1094 1095 1096 1097 1099 1099 1100 1101 1101 1102 1103 1103 1103 1103 1103 1102 1102 1102 1102 1102 1101 1100 1099 1099 1098 1098 1097 1095 1093 1092 1091 1080 0 0 0 0 0 0 0 0 0 0 0 1638 1654 1654 1655 1658 1663 1666 1666 1666 1651 1632 1632 1632 1652 1672 1697 1703 1705 1705 1707 1705 1705 1702 1694 1694 1694 1707 1722 1737 1752 1752 1752 1742 1700 1664 1625 1596 1580 1578 1578 1578 1580 1580 1580 1580 1580 1580 1592 1592 1592 1582 1574 1565 1541 1526 1503 1500 1498 1497 1497 1491 1485 1475 1461 1456 1456 1456 1456 1456 1454 1433 1394 1355 1321 1301 1282 1267 1261 1260 1255 1246 1227 1211 1190 0 0 0 0 0 0 0 0 0 0 0 0 0 0 0 973 973 973 994 994 994 979 955 952 947 935 931 896 880 0 0 0 0 0 0 930 930 896 880 874 874 865 848 0 0 0 0 0 0 0 0 0 0 0 0 0 0 0 359 359 354 351 335 335 0 0 0 0 0 0 0 0 0 0 0 0 0 0 0 0 0
1030 1030 1030 1030 1030 1029 1029 1029 1029 1037 1049 1062 1078 1103 1138 1144 1172 1194 1205 1211 1226 1240 1245 1245 1246 1254 1273 1284 1284 1284 0 0 0 0 0 909 909 909 912 928 935 936 937 939 942 955 967 979 986 991 992 993 994 995 998 999 1000 1001 1003 1003 1005 1006 1006 1007 1008 1010 1010 1011 1011 1013 1013 1013 1014 1015 1016 1016 1016 1016 1017 1018 1018 1019 1019 1020 1020 1020 1020 1021 1021 1022 1022 1022 1023 1023 1024 1024 1024 1025 1025 1026 1026 1026 1026 1027 1027 1027 1028 1028 1028 1028 1027 1027 1027 1027 1026 1024 1023 1019 1016 1009 0 0 0 878 874 871 866 863 861 860 859 859 859 859 859 860 861 861 862 865 867 869 872 872 873 874 877 879 883 887 893 901 908 918 946 981 1008 1023 1031 1034 1036 1037 1038 1040 1040 1042 1043 1043 1043 1043 1044 1044 1044 1044 1045 1045 1045 1045 1046 1046 1046 1046 1045 1045 1045 1045 1044 1043 1042 1039 1037 1031 1018 995 973 965 961 961 961 961 961 961 961 961 961 961 962 965 968 970 970 971 974 976 977 978 978 980 984 986 989 991 992 996 1002 1013 1023 1038 1045 1051 1054 1056 1057 1059 1060 1061 1061 1061 1062 1062 1062 1062 1062 1063 1063 1063 1064 1065 1065 1065 1066 1066 1066 1066 1066 1065 1064 1064 1063 1061 1060 1058 1057 1052 1042 1035 1033 1032 1030 1029 1029 1029 1028 1028 1028 1027 1027 1027 1027 1030 1032 1032 1033 1033 1032 1031 1029 1029 1029 1030 1032 1032 1033 1033 1034 1040 1053 1061 1064 1067 1069 1071 1072 1072 1073 1074 1075 1075 1075 1075 1074 1073 1073 1073 1075 1075 1075 1075 1074 1074 1074 1074 1074 1074 1074 1073 1073 1073 1073 1073 1073 1071 1068 1064 1061 1061 1060 1059 1058 1058 1058 1058 1059 1059 1059 1062 1062 1062 1062 1063 1063 1064 1065 1065 1065 1064 1064 1064 1064 1064 1064 1065 1066 1069 1074 1074 1075 1079 1080 1081 1082 1082 1082 1082 1081 1081 1080 1080 1080 1080 1079 1078 1078 1078 1078 1078 1078 1078 1078 1078 1078 1078 1078 1078 1079 1079 1079 1080 1080 1081 1081 1082 1083 1083 1084 1085 1086 1088 1089 1090 1091 1091 1092 1092 1093 1093 1094 1094 1094 1095 1096 1096 1097 1097 1097 1097 1097 1097 1097 1098 1098 1098 1098 1098 1098 1099 1100 1101 1101 1102 1103 1103 1104 1104 1104 1104 1104 1104 1104 1104 1103 1103 1102 1102 1101 1100 1100 1099 1098 1095 1093 1091 1090 1080 0 0 0 0 0 0 0 0 0 0 0 1638 1654 1654 1655 1658 1663 1672 1687 1687 1687 1672 1656 1656 1656 1702 1708 1708 1708 1708 1708 1706 1705 1704 1696 1696 1696 1717 1747 1769 1769 1769 1764 1742 1697 1667 1643 1611 1579 1563 1563 1563 1569 1569 1569 1563 1561 1561 1561 1561 1561 1561 1557 1548 1541 1526 1503 1503 1498 1498 1498 1486 1474 1469 1458 1448 1448 1448 1454 1454 1454 1435 1400 1365 1340 1312 1291 1271 1266 1260 1255 1246 1227 1208 1190 0 0 0 0 0 0 0 0 0 0 0 0 0 0 0 973 973 973 982 982 982 974 957 956 956 948 932 901 0 0 0 0 0 0 919 919 919 900 881 880 878 875 853 0 0 0 0 0 0 0 0 0 0 0 0 0 0 0 359 359 354 351 351 353 0 0 0 0 0 0 0 0 0 0 0 0 0 0 0 0 0
1030 1030 1030 1032 1032 1032 1031 1031 1031 1037 1046 1057 1074 1094 1133 1139 1169 1194 1205 1211 1226 1240 1243 1245 1247 1254 1273 1284 1284 1284 1275 0 0 0 0 0 909 909 911 920 926 930 932 934 937 946 962 978 986 992 995 996 997 999 1000 1000 1002 1003 1003 1004 1005 1007 1008 1008 1009 1010 1011 1011 1013 1013 1014 1014 1015 1016 1016 1017 1017 1017 1018 1018 1019 1020 1020 1021 1021 1021 1021 1022 1023 1023 1023 1023 1024 1024 1025 1025 1026 1026 1026 1027 1027 1027 1027 1028 1028 1028 1029 1029 1029 1029 1029 1028 1028 1027 1027 1026 1025 1022 1021 1015 995 0 0 877 874 870 866 863 861 860 859 859 859 860 860 860 861 861 862 865 866 871 873 875 877 878 882 884 885 887 893 898 903 910 934 966 998 1023 1031 1034 1036 1037 1039 1040 1041 1042 1043 1044 1044 1044 1044 1044 1044 1044 1045 1045 1045 1045 1046 1046 1046 1046 1045 1045 1045 1045 1044 1043 1042 1041 1038 1034 1026 1002 974 966 962 961 961 961 962 962 962 961 961 961 962 966 970 970 971 972 974 978 980 980 981 984 988 990 992 992 992 996 1002 1015 1025 1038 1047 1052 1054 1056 1057 1059 1060 1061 1061 1061 1062 1062 1062 1062 1062 1062 1062 1063 1064 1065 1065 1065 1066 1066 1066 1066 1066 1065 1065 1064 1063 1061 1060 1059 1057 1052 1044 1039 1036 1036 1035 1034 1033 1033 1033 1032 1031 1030 1030 1030 1030 1033 1037 1039 1039 1039 1037 1037 1037 1037 1036 1036 1036 1035 1035 1036 1036 1045 1055 1062 1065 1067 1069 1070 1071 1071 1072 1073 1074 1075 1075 1075 1073 1073 1073 1073 1074 1074 1074 1074 1074 1074 1074 1073 1073 1073 1073 1072 1072 1072 1072 1073 1073 1073 1069 1067 1067 1066 1065 1064 1064 1064 1063 1062 1062 1062 1064 1067 1068 1068 1068 1069 1069 1069 1069 1068 1068 1068 1068 1068 1068 1070 1074 1074 1075 1076 1076 1077 1078 1079 1080 1080 1080 1080 1080 1078 1077 1076 1075 1075 1075 1075 1075 1075 1073 1073 1073 1073 1073 1073 1073 1071 1072 1073 1074 1074 1075 1075 1076 1077 1079 1079 1081 1082 1084 1088 1089 1089 1089 1090 1092 1093 1094 1095 1095 1096 1096 1097 1098 1098 1099 1099 1099 1100 1100 1100 1100 1100 1100 1100 1100 1100 1100 1100 1100 1100 1100 1101 1102 1103 1103 1104 1104 1104 1105 1105 1105 1105 1105 1105 1105 1104 1104 1104 1103 1103 1102 1102 1101 1100 1099 1096 1093 1091 1090 1080 0 0 0 0 0 0 0 0 0 0 0 1638 1654 1654 1655 1657 1666 1678 1689 1700 1700 1700 1700 0 0 1743 1743 1743 1711 1711 1711 1709 1709 1706 1700 1700 1700 1728 1759 1780 1780 1780 1764 1721 1690 1669 1647 1617 1575 1546 1546 1546 1549 1549 1549 1547 1547 1547 1550 1550 1550 1548 1539 1533 1532 1529 1508 1504 1499 1499 1494 1479 1472 1469 1458 1448 1448 1448 1454 1454 1454 1436 1408 1387 1361 1328 1302 1283 1280 1272 1261 1246 1227 1208 1194 0 0 0 0 0 0 1202 1202 1202 1165 1122 0 0 0 0 0 956 956 956 962 968 968 968 962 961 960 948 0 0 0 0 0 0 0 908 908 908 902 884 880 880 877 868 0 0 0 0 0 0 0 0 0 0 0 0 0 0 0 0 359 354 346 346 365 368 0 0 0 0 0 0 0 0 0 0 0 0 0 0 0 0
1030 1030 1030 1032 1035 1035 1035 1035 1036 1037 1046 1054 1068 1085 1115 1119 1151 1179 1195 1206 1217 1230 1242 1244 1247 1254 1273 1284 1284 1284 1275 0 0 0 0 0 911 911 911 917 917 918 924 926 932 945 960 977 986 992 995 998 999 1000 1002 1002 1003 1004 1005 1005 1006 1008 1008 1009 1010 1011 1011 1012 1013 1013 1014 1016 1016 1017 1017 1017 1018 1019 1019 1020 1020 1020 1021 1021 1021 1022 1022 1023 1023 1023 1024 1024 1026 1026 1026 1026 1027 1027 1027 1027 1028 1028 1028 1028 1028 1029 1029 1029 1029 1029 1029 1029 1028 1027 1027 1027 1027 1024 1022 1016 997 0 0 877 873 870 866 863 861 860 860 860 860 862 862 862 862 862 862 864 868 871 875 877 879 881 883 884 886 889 893 898 903 910 928 956 996 1022 1030 1035 1036 1037 1039 1040 1041 1043 1043 1044 1044 1044 1044 1044 1044 1044 1045 1045 1045 1045 1045 1045 1046 1046 1045 1045 1045 1045 1044 1043 1041 1041 1038 1036 1027 1004 976 967 963 961 961 961 963 963 963 961 961 961 962 967 970 971 971 972 975 979 983 984 987 988 991 992 993 993 993 997 1002 1015 1025 1038 1047 1052 1054 1056 1058 1058 1059 1060 1060 1061 1062 1062 1062 1062 1062 1062 1062 1063 1063 1064 1064 1065 1065 1065 1065 1065 1065 1065 1064 1064 1063 1062 1062 1061 1059 1052 1044 1042 1040 1040 1039 1038 1038 1037 1037 1037 1037 1037 1037 1037 1042 1044 1046 1046 1046 1046 1046 1046 1046 1045 1042 1042 1042 1043 1044 1047 1050 1051 1056 1062 1067 1067 1068 1068 1068 1068 1069 1069 1071 1072 1072 1072 1072 1072 1072 1073 1073 1073 1073 1073 1073 1073 1073 1073 1073 1073 1073 1072 1072 1072 1072 1072 1072 1072 1072 1070 1070 1069 1069 1069 1070 1070 1070 1070 1072 1072 1074 1075 1075 1075 1075 1072 1072 1072 1072 1073 1073 1075 1076 1076 1077 1077 1079 1079 1079 1079 1079 1079 1079 1079 1080 1080 1080 1079 1076 1073 1070 1070 1069 1069 1069 1069 1069 1068 1069 1068 1068 1066 1066 1065 1065 1065 1066 1066 1068 1070 1070 1071 1071 1073 1077 1079 1081 1083 1089 1091 1091 1092 1094 1094 1095 1096 1098 1099 1099 1100 1101 1101 1101 1101 1101 1102 1102 1102 1102 1103 1102 1102 1102 1102 1102 1102 1102 1102 1102 1102 1103 1103 1104 1104 1105 1105 1106 1106 1107 1107 1107 1107 1107 1106 1106 1106 1106 1105 1104 1104 1103 1102 1102 1101 1099 1096 1092 1091 1090 1078 0 0 0 0 0 0 0 0 0 0 0 1631 1647 1653 1655 1659 1672 1682 1691 1700 1700 1700 1706 0 0 1792 1792 1768 1738 1712 1712 1710 1710 1710 1704 1704 1704 1737 1772 1780 1780 1780 1752 1715 1689 1670 1649 1617 1570 1541 1541 1538 1538 1538 1532 1532 1532 1539 1545 1545 1545 1541 1530 1530 1530 1525 1520 1517 1513 1504 1492 1477 1471 1466 1457 1447 1447 1447 1454 1454 1454 1444 1428 1406 1384 1349 1323 1310 1292 1290 1277 1254 1228 1211 0 0 0 0 0 0 1189 1189 1184 1184 1159 1132 1123 0 0 0 0 0 955 955 956 968 974 978 978 980 980 978 0 0 0 0 0 0 0 908 908 908 902 892 889 882 881 880 0 0 0 0 0 0 0 0 0 0 0 0 0 0 0 0 0 360 366 373 379 390 0 0 0 0 0 0 0 0 0 0 348 348 321 313 313 0
1023 1023 1024 1031 1035 1035 1037 1038 1040 1040 1046 1054 1066 1078 1100 1105 1132 1157 1178 1192 1208 1224 1238 1243 1247 1252 1257 1263 1264 1265 1265 1265 0 0 0 0 0 912 912 917 917 917 917 917 923 935 960 977 986 993 996 998 1000 1002 1003 1003 1005 1006 1006 1007 1007 1008 1009 1010 1011 1011 1012 1013 1013 1014 1016 1016 1017 1017 1017 1018 1019 1019 1020 1020 1021 1021 1022 1022 1023 1023 1023 1024 1025 1025 1025 1025 1026 1026 1027 1027 1028 1028 1028 1028 1029 1029 1029 1029 1029 1030 1030 1030 1030 1030 1029 1029 1028 1028 1028 1027 1027 1026 1022 1017 1001 0 0 878 874 870 866 865 863 861 861 861 862 863 863 863 862 862 862 864 868 872 878 880 882 883 884 885 887 891 894 898 903 910 928 956 991 1017 1028 1035 1036 1038 1039 1041 1042 1043 1043 1044 1044 1044 1044 1044 1044 1044 1044 1045 1045 1045 1045 1045 1045 1045 1045 1045 1045 1045 1044 1042 1042 1041 1041 1038 1028 1006 979 969 965 962 962 962 964 964 964 963 963 963 965 968 971 973 974 974 977 980 985 988 990 991 991 993 993 994 994 998 1006 1020 1026 1038 1045 1051 1054 1055 1058 1058 1058 1059 1059 1059 1061 1061 1062 1062 1062 1062 1062 1063 1063 1063 1063 1064 1064 1064 1064 1065 1065 1065 1065 1065 1064 1063 1062 1061 1059 1056 1051 1045 1045 1045 1047 1048 1049 1049 1049 1048 1048 1048 1051 1051 1052 1052 1053 1054 1054 1054 1053 1052 1052 1052 1054 1054 1054 1055 1055 1058 1059 1061 1063 1064 1066 1066 1066 1066 1067 1067 1068 1068 1068 1068 1068 1068 1068 1069 1069 1070 1072 1072 1072 1072 1070 1070 1070 1070 1071 1071 1071 1070 1070 1070 1070 1072 1072 1072 1073 1073 1074 1075 1076 1076 1076 1076 1076 1078 1079 1079 1079 1079 1079 1078 1079 1079 1079 1081 1081 1081 1081 1081 1083 1083 1083 1083 1084 1084 1084 1084 1084 1084 1079 1077 1076 1073 1070 1067 1067 1065 1063 1063 1063 1063 1063 1063 1063 1061 1060 1060 1058 1056 1056 1056 1055 1055 1055 1057 1058 1060 1060 1061 1062 1066 1076 1079 1082 1089 1093 1093 1094 1096 1098 1099 1099 1099 1100 1101 1102 1103 1103 1103 1104 1104 1104 1104 1105 1105 1105 1105 1105 1105 1105 1105 1105 1105 1105 1105 1105 1105 1105 1105 1106 1107 1107 1107 1107 1108 1108 1108 1108 1108 1108 1108 1107 1107 1107 1106 1106 1105 1104 1104 1103 1101 1099 1096 1094 1093 1093 1078 0 0 0 0 0 0 0 0 0 0 0 1615 1637 1651 1653 1659 1674 1682 1692 1700 1706 1707 1707 1740 1805 1805 1805 1768 1738 1718 1715 1711 1710 1710 1710 1710 1715 1749 1780 1780 1780 1775 1740 1707 1687 1670 1649 1618 1568 1541 1541 1538 1538 1538 1527 1527 1527 1533 1543 1543 1543 1537 1530 1530 1530 1531 1531 1531 1531 1516 1491 1477 1471 1467 1457 1457 1457 1461 1461 1461 1455 1444 1439 1421 1388 1360 1342 1332 1314 1311 1293 1279 1260 0 0 0 1197 1197 1197 1208 1208 1208 1206 1184 1159 1136 1124 1118 0 0 0 0 955 955 956 968 980 993 1003 1005 1008 1015 0 0 0 0 0 0 0 908 924 924 924 923 911 902 895 881 0 0 0 0 0 0 0 0 0 0 0 0 0 0 0 0 0 354 354 373 382 398 0 0 0 0 0 0 0 0 0 348 348 348 348 320 320 0
1017 1017 1019 1024 1030 1035 1040 1045 1046 1046 1049 1054 1066 1078 1089 1096 1117 1139 1163 1180 1203 1223 1236 1241 1246 1252 1257 1260 1264 1267 1267 1267 0 0 0 0 0 0 917 917 917 917 917 917 923 935 960 977 986 993 996 999 1001 1003 1004 1005 1006 1006 1007 1007 1008 1009 1010 1011 1011 1013 1014 1014 1015 1016 1016 1017 1017 1018 1019 1019 1019 1020 1021 1021 1021 1022 1023 1023 1023 1024 1024 1024 1025 1025 1026 1026 1026 1027 1027 1027 1028 1028 1029 1029 1029 1029 1030 1030 1030 1030 1030 1030 1030 1030 1029 1029 1028 1028 1028 1027 1027 1027 1022 1018 1008 0 0 879 874 871 869 868 865 863 863 863 863 864 864 863 863 863 863 864 869 875 880 882 885 885 887 888 889 892 896 900 903 911 928 952 990 1013 1028 1035 1036 1038 1039 1041 1042 1043 1043 1044 1044 1044 1044 1044 1044 1044 1044 1044 1044 1045 1045 1045 1045 1045 1045 1044 1044 1044 1043 1042 1042 1042 1041 1039 1030 1014 988 969 968 965 965 965 965 966 966 966 966 966 969 972 974 975 976 977 979 982 987 989 991 991 993 995 995 996 997 998 1006 1020 1026 1037 1046 1051 1053 1054 1057 1058 1058 1058 1058 1058 1059 1059 1061 1061 1061 1061 1060 1060 1060 1060 1062 1062 1062 1063 1063 1064 1064 1064 1065 1064 1064 1063 1062 1061 1059 1056 1054 1054 1054 1054 1055 1055 1056 1056 1058 1059 1059 1059 1058 1056 1056 1056 1059 1061 1062 1062 1061 1057 1057 1057 1059 1060 1061 1061 1061 1061 1062 1063 1064 1065 1065 1065 1065 1065 1065 1066 1066 1066 1066 1066 1066 1066 1067 1067 1067 1067 1067 1067 1067 1067 1067 1066 1066 1066 1066 1066 1066 1067 1068 1068 1068 1071 1071 1072 1074 1076 1077 1078 1078 1079 1079 1080 1081 1081 1081 1081 1081 1082 1082 1083 1083 1083 1084 1085 1085 1086 1086 1087 1087 1087 1087 1087 1087 1087 1087 1087 1087 1085 1080 1076 1071 1065 1060 1059 1059 1059 1059 1059 1059 1054 1054 1054 1054 1052 1050 1049 1049 1047 1046 1046 1046 1047 1048 1049 1052 1054 1057 1059 1059 1062 1071 1079 1087 1092 1095 1096 1098 1099 1100 1100 1101 1102 1103 1103 1104 1104 1105 1105 1105 1106 1106 1106 1107 1107 1107 1107 1107 1107 1107 1107 1106 1106 1106 1106 1106 1106 1107 1107 1107 1108 1108 1109 1109 1109 1109 1109 1109 1109 1109 1109 1109 1108 1108 1108 1107 1106 1106 1105 1104 1102 1100 1096 1096 1094 1094 1078 0 0 0 0 0 0 0 0 0 0 0 1605 1625 1640 1651 1662 1676 1685 1694 1699 1699 1710 1735 1788 1805 1805 1805 1768 1738 1718 1710 1710 1710 1710 1710 1710 1717 1754 1777 1777 1777 1746 1719 1693 1680 1670 1654 1618 1568 1553 1552 1545 1545 1538 1527 1527 1527 1532 1537 1537 1537 1531 1530 1530 1530 1542 1542 1542 1535 1519 1492 1477 1471 1467 1457 1457 1457 1461 1461 1461 1455 1444 1439 1425 1399 1372 1351 1332 1329 1329 1326 1325 1316 1316 1292 1235 1200 1200 1200 1213 1213 1213 1206 1184 1159 1136 1124 1118 0 0 0 985 975 974 974 0 1001 1007 1025 1027 1029 1030 1030 0 0 0 0 0 0 961 960 958 958 947 931 911 902 0 0 0 0 0 0 0 0 0 0 0 0 0 0 0 0 0 0 346 346 373 385 399 0 0 0 0 0 0 0 0 0 348 348 348 0 328 328 0
1012 1012 1016 1024 1030 1035 1040 1050 1054 1055 1055 1059 1066 1078 1089 1095 1104 1124 1151 1171 1195 1211 1225 1233 1244 1252 1257 1260 1264 1267 1267 1267 1251 0 0 0 0 0 0 0 925 921 921 923 923 0 0 0 996 996 1000 1001 1002 1004 1005 1005 1007 1007 1008 1008 1010 1010 1012 1012 1013 1014 1015 1015 1016 1016 1016 1017 1018 1018 1019 1020 1020 1020 1021 1022 1023 1023 1023 1024 1024 1024 1024 1025 1025 1025 1026 1026 1026 1027 1027 1028 1028 1029 1029 1029 1030 1030 1030 1030 1030 1030 1030 1030 1030 1030 1030 1029 1029 1028 1028 1028 1028 1027 1023 1018 1008 0 0 0 874 874 872 871 866 865 865 864 864 864 864 864 864 865 868 870 875 878 882 883 885 887 889 891 892 895 900 904 908 915 928 949 978 1009 1027 1035 1036 1038 1039 1041 1042 1042 1043 1044 1044 1044 1044 1044 1044 1044 1044 1044 1044 1044 1044 1045 1045 1045 1045 1044 1044 1044 1043 1042 1042 1042 1041 1039 1030 1015 994 975 975 973 973 973 971 971 971 972 973 974 975 977 982 983 985 986 986 989 994 994 995 996 1001 1003 1005 1013 1014 1015 1020 1021 1026 1037 1047 1051 1053 1053 1054 1054 1054 1054 1054 1055 1055 1055 1057 1057 1057 1057 1056 1056 1056 1056 1057 1057 1057 1058 1058 1059 1060 1063 1064 1064 1064 1062 1062 1061 1058 1058 1058 1059 1060 1060 1060 1060 1060 1060 1060 1063 1064 1065 1065 1065 1065 1065 1066 1068 1068 1068 1066 1066 1066 1066 1067 1067 1067 1065 1065 1065 1065 1065 1066 1066 1066 1066 1064 1063 1061 1060 1060 1060 1060 1060 1060 1060 1059 1057 1057 1057 1061 1062 1062 1062 1062 1061 1060 1060 1060 1059 1059 1059 1059 1059 1059 1062 1068 1071 1075 1077 1080 1081 1082 1083 1084 1085 1085 1085 1085 1086 1086 1086 1086 1086 1087 1087 1087 1088 1088 1088 1089 1089 1089 1089 1089 1088 1088 1088 1088 1088 1088 1087 1080 1075 1068 1054 1048 1048 1048 1048 1050 1050 1050 1048 1045 1045 1043 1043 1043 1044 1044 1044 1043 1043 1043 1044 1045 1046 1049 1052 1054 1057 1058 1061 1071 1081 1088 1093 1096 1098 1100 1101 1101 1102 1103 1104 1104 1104 1105 1106 1107 1107 1107 1108 1108 1108 1108 1108 1108 1108 1108 1108 1108 1108 1108 1108 1108 1108 1108 1108 1108 1108 1109 1109 1110 1110 1110 1110 1110 1110 1111 1110 1110 1110 1110 1109 1109 1108 1108 1107 1107 1106 1105 1103 1101 1096 1096 1094 1094 1078 0 0 0 0 0 0 0 0 0 0 0 1605 1624 1639 1651 1666 1676 1694 1698 1698 1701 1717 1754 1814 1814 1814 1790 1751 1733 1718 1710 1708 1701 1698 1698 1698 1718 1761 1761 1761 1748 1716 1694 1675 1667 1667 1659 1620 1568 1568 1568 1565 1565 1563 1527 1527 1527 1531 1531 1531 1530 1524 1524 1524 1530 1542 1542 1542 1535 1519 1494 1477 1472 1467 1455 1455 1455 1461 1461 1461 1451 1441 1439 1435 1420 1396 1365 1335 1334 1334 1333 1333 1326 1325 1292 1257 1223 1214 1214 1214 1223 1223 1223 1208 1176 1138 1122 1099 0 0 1011 1010 1009 1010 1011 1054 1054 1054 1044 1037 1036 1036 1037 1049 1049 0 0 0 0 979 978 974 974 974 955 924 0 0 0 0 0 0 0 0 0 0 0 0 0 0 0 0 0 0 0 0 0 373 385 399 0 0 0 0 0 0 0 0 0 356 351 0 0 321 328 0
1010 1010 1016 1024 1030 1035 1040 1051 1060 1065 1068 1070 1077 1085 1089 1095 1103 1118 1145 1170 1186 1200 1213 1221 1238 1252 1260 1261 1264 1269 1269 1269 1261 0 0 0 0 0 0 0 0 0 0 0 0 0 0 0 0 1015 1004 1004 1004 1006 1006 1007 1007 1009 1009 1010 1010 1012 1012 1013 1014 1015 1015 1016 1017 1017 1017 1018 1019 1020 1020 1021 1021 1022 1022 1023 1023 1024 1024 1025 1025 1025 1025 1025 1025 1026 1026 1026 1026 1027 1027 1028 1029 1029 1030 1030 1030 1030 1031 1031 1031 1031 1030 1030 1030 1030 1029 1029 1029 1028 1028 1028 1028 1028 1025 1022 1017 997 0 0 880 880 880 877 872 867 867 867 866 865 865 865 867 871 874 876 879 882 884 886 889 891 893 893 895 898 903 908 911 915 928 943 967 998 1023 1033 1036 1038 1038 1039 1040 1042 1043 1043 1043 1043 1043 1043 1043 1043 1044 1044 1044 1044 1044 1044 1044 1044 1044 1044 1044 1044 1043 1043 1043 1042 1041 1039 1031 1024 1000 984 984 984 987 987 987 987 987 987 989 992 996 997 998 998 1002 1010 1013 1014 1014 1014 1014 1014 1016 1019 1019 1022 1025 1027 1030 1034 1035 1037 1047 1051 1053 1053 1053 1052 1051 1050 1050 1050 1051 1052 1052 1052 1051 1051 1051 1051 1052 1052 1052 1052 1052 1052 1054 1054 1055 1055 1059 1060 1061 1061 1061 1060 1059 1059 1059 1062 1064 1066 1066 1066 1066 1066 1066 1068 1069 1069 1070 1070 1070 1070 1071 1072 1072 1072 1071 1071 1071 1072 1073 1073 1073 1072 1071 1071 1071 1071 1071 1071 1068 1061 1060 1056 1055 1053 1050 1050 1050 1048 1048 1047 1044 1043 1043 1043 1048 1051 1052 1052 1052 1051 1052 1052 1052 1052 1052 1051 1051 1051 1053 1058 1062 1070 1076 1080 1083 1085 1086 1087 1087 1088 1089 1089 1089 1090 1090 1091 1091 1091 1091 1091 1091 1091 1091 1091 1092 1092 1092 1092 1092 1092 1091 1091 1091 1090 1090 1087 1082 1074 1068 1050 1047 1047 1047 1047 1047 1047 1047 1044 1043 1041 1040 1040 1040 1041 1041 1041 1041 1041 1042 1043 1044 1046 1048 1050 1053 1055 1058 1061 1070 1081 1088 1095 1099 1099 1102 1102 1103 1104 1104 1105 1106 1106 1107 1108 1108 1108 1109 1110 1110 1110 1110 1110 1110 1110 1110 1110 1110 1110 1110 1110 1110 1110 1110 1110 1110 1110 1110 1111 1111 1111 1111 1111 1111 1111 1111 1111 1111 1111 1111 1111 1110 1110 1109 1108 1108 1107 1107 1105 1101 1099 1099 1096 1095 1078 0 0 0 0 0 0 0 0 0 0 0 1603 1623 1639 1651 1666 1684 1696 1696 1698 1701 1724 1778 1813 1813 1813 1753 1733 1722 1718 1710 1702 1693 1693 1693 1698 1725 1762 1762 1762 1741 1703 1675 1661 1659 1659 1658 1632 1623 1612 1603 1601 1600 1581 1549 1531 1531 1531 1531 1531 1521 1521 1521 1524 1530 1542 1542 1542 1535 1519 1499 1488 1482 1467 1455 1437 1437 1433 1433 1433 1433 1433 1433 1433 1433 1413 1365 1342 1341 1341 1334 1333 1326 1325 1292 1257 1234 1214 1214 1214 1223 1223 1223 1208 1177 1139 1124 0 0 1007 1007 1007 1011 1028 1029 1054 1054 1054 1044 1037 1036 1036 1037 1050 1055 1055 1055 0 0 979 978 974 978 978 974 950 0 0 0 0 0 0 0 0 0 0 0 0 0 0 0 0 0 0 0 0 0 386 387 0 0 0 0 0 0 0 0 0 0 0 351 321 321 313 313 0
