833 833 845 857 879 907 922 939 942 956 969 977 987 998 1008 1021 1034 1054 1071 1078 1080 1084 1087 1096 1110 1119 1126 1131 1136 1147 1155 1163 1170 1177 1184 1191 1204 1215 1222 1228 1231 1237 1241 1242 1248 1260 1279 1294 1308 1312 1321 1327 1334 1340 1347 1351 1354 1361 1374 1379 1381 1385 1391 1394 1396 1402 1404 1409 1413 1415 1416 1419 1420 1420 1420 1420 1421 1422 1422 1425 1430 1430 1430 1429 1427 1415 1399 1386 0 0 0 0 0 0 0 0 0 0 0 0 0 0 0 0 0 0 0 0 0 0 0 0 0 0 0 0 0 0 0 0 0 0 0 0 0 0 0 0 0 0 0 0 0 0 0 1628 1596 1574 1572 1570 1569 1569 1567 1567 1567 1568 1570 1570 1571 1572 1572 1572 1572 1572 1572 1573 1574 1575 1575 1575 1577 1578 1580 1582 1582 1584 1588 1591 1595 1599 1601 1603 1606 1609 1611 1613 1613 1614 1614 1614 1614 1614 1615 1615 1615 1616 1616 1617 1617 1618 1618 1618 1618 1618 1618 1618 1619 1619 1619 1619 1620 1620 1621 1621 1622 1623 1623 1624 1624 1625 1626 1626 1628 1628 1629 1630 1630 1631 1633 1634 1635 1637 1638 1639 1641 1642 1644 1645 1647 1649 1651 1653 1655 1657 1659 1660 1662 1663 1665 1667 1669 1670 1672 1673 1675 1676 1677 1679 1679 1681 1681 1683 1685 1686 1686 1687 1687 1687 1686 1684 1684 1684 1684 1686 1689 1690 1700 1700 0 0 0 0 0 0 0 0 0 1867 1874 1877 1883 1902 1907 1908 1910 1913 1915 1915 1915 1913 1912 1907 1907 1906 1901 1892 1884 1877 1875 1870 1868 1866 1866 1865 1861 1860 1856 1843 1818 0 0 0 0 0 0 0 0 0 0 0 0 0 0 0 0 0 0 0 0 0 0 0 0 0 0 0 0 0 0 0 0 0 0 0 0 0 0 0 0 0 930 927 922 918 917 914 910 908 907 906 904 903 903 900 898 897 896 0 0 0 0 0 0 0 0 0 0 0 0 0 0 0 0 0 0 0 0 0 0 0 0 0 0 0 0 0 0 0 0 0 0 0 0 0 0 0 0 0 0 0 0 0 0 0 0 0 0 0 0 0 0 0 0 0 0 0 0 0 0 0 0 0 0 0 0 0 0 0 0 0 0 0 0 0 0 0 0 0 0 0 0 0 0 0 0 0 0 0 0 0 0 0 0 0 0 0 0 0 0 0 0 0 0 0 0 0 0 0 0 0 0 0 0 0 0 0 0 0 0 0 0 0 0 0 0 0 0 0 0 0 0 0 0 0 0 0 0 0 0 0 0 0 0 0 0 0 0 0 0 0 0 0 760 760 760 760 759 759 758 758 756 754 754 753 753 752 751 750 749 749 749 748 747 746 746 745 744 744 743 742 741 740 740 739 738 738 737 736 736 735 734 733 732 731 729 725 724 720 716 711 711 709 709 707 702 698 698 698 706 714 0 0 0 848 848 848 848 848 871 882 883 886 886 886 883 0 0 0 0 0 0 0 0 0 0 0 0 0 621 599 598 596 596 596 598 603 603 603 600 594 592 592 592 591 590 588 581 580 579 573 559 544 528 512 512 512 518 518 520 520
832 832 842 853 867 882 901 924 928 946 955 964 977 990 1002 1013 1022 1039 1059 1065 1070 1073 1077 1085 1097 1108 1117 1125 1134 1146 1155 1158 1164 1173 1184 1189 1203 1214 1220 1221 1221 1223 1225 1232 1245 1256 1267 1280 1294 1301 1305 1306 1306 1310 1322 1335 1342 1352 1361 1366 1373 1382 1388 1390 1392 1397 1400 1405 1409 1410 1413 1413 1415 1416 1416 1416 1416 1416 1419 1422 1422 1422 1417 1410 1402 1402 1393 0 0 0 0 0 0 0 0 0 0 0 0 0 0 0 0 0 0 0 0 0 0 0 0 0 0 0 0 0 0 0 0 0 0 0 0 0 0 0 0 0 0 0 0 0 0 0 0 1577 1577 1568 1565 1565 1565 1566 1566 1567 1567 1567 1569 1569 1570 1570 1571 1572 1572 1572 1572 1573 1574 1574 1575 1575 1576 1578 1580 1582 1582 1584 1586 1588 1593 1596 1599 1601 1604 1607 1610 1612 1613 1613 1614 1614 1614 1614 1615 1615 1615 1616 1616 1617 1617 1618 1618 1618 1618 1618 1618 1618 1618 1619 1619 1619 1620 1620 1621 1621 1622 1623 1623 1624 1625 1625 1626 1627 1627 1628 1628 1629 1630 1631 1632 1634 1635 1636 1638 1639 1641 1642 1644 1645 1647 1649 1651 1652 1655 1657 1659 1660 1661 1663 1665 1667 1669 1670 1672 1673 1674 1676 1677 1678 1679 1681 1681 1682 1684 1686 1686 1686 1686 1686 1686 1684 1679 1679 1679 1684 1689 1692 1692 0 0 0 0 0 0 0 0 0 1875 1879 1881 1883 1897 1902 1907 1908 1915 1917 1920 1923 1927 1927 1927 1922 1921 1919 1914 1905 1898 1898 1897 1891 1886 1882 1882 1882 1884 1884 1884 1876 1862 1857 1856 1844 1844 1811 1810 0 0 0 0 0 0 0 0 0 0 0 0 0 0 0 0 0 0 0 0 0 0 0 0 0 0 0 0 0 0 0 0 0 0 0 0 0 0 0 0 930 924 922 919 915 905 905 905 905 905 903 896 887 887 887 886 886 885 0 0 0 0 0 0 0 0 0 0 0 0 0 0 0 0 0 0 0 0 0 0 0 0 0 0 0 0 0 0 0 0 0 0 0 0 0 0 0 0 0 0 0 0 0 0 0 0 0 0 0 0 0 0 0 0 0 0 0 0 0 0 0 0 0 0 0 0 0 0 0 0 0 0 0 0 0 0 0 0 0 0 0 0 0 0 0 0 0 0 0 0 0 0 0 0 0 0 0 0 0 0 0 0 0 0 0 0 0 0 0 0 0 0 0 0 0 0 0 0 0 0 0 0 0 0 0 0 0 0 0 0 0 0 0 0 0 0 0 0 0 0 0 0 0 0 0 0 761 761 761 760 760 759 759 758 758 756 755 754 754 753 752 751 750 750 750 749 748 747 746 746 745 744 744 743 742 741 740 740 739 738 738 737 736 735 735 734 733 732 730 728 725 722 719 716 710 708 707 705 705 703 703 703 705 708 718 0 0 0 848 848 848 843 842 842 843 860 873 873 873 857 0 0 0 0 0 0 0 0 0 0 0 0 0 612 595 592 590 590 592 595 601 601 601 596 594 592 592 592 591 590 583 572 567 562 550 539 526 511 509 509 509 513 513 516 516
832 832 842 852 861 872 888 908 928 932 943 953 965 981 993 1001 1007 1017 1026 1034 1043 1055 1059 1068 1081 1094 1102 1110 1120 1130 1144 1151 1157 1168 1181 1187 1197 1207 1213 1216 1216 1218 1221 1232 1243 1252 1260 1270 1280 1285 1289 1292 1299 1308 1316 1327 1338 1347 1354 1361 1370 1378 1385 1389 1390 1393 1395 1400 1403 1404 1404 1404 1404 1404 1404 1404 1407 1410 1412 1412 1412 1410 1406 1401 1395 1395 1382 0 0 0 0 0 0 0 0 0 0 0 0 0 0 0 0 0 0 0 0 0 0 0 0 0 0 0 0 0 0 0 0 0 0 0 0 0 0 0 0 0 0 0 0 0 0 0 0 1553 1552 1552 1552 1557 1557 1561 1564 1565 1566 1567 1568 1568 1568 1569 1570 1570 1571 1571 1571 1572 1572 1573 1574 1575 1576 1578 1580 1582 1583 1584 1585 1586 1590 1593 1598 1600 1602 1604 1608 1611 1612 1612 1613 1613 1614 1614 1615 1615 1615 1616 1616 1617 1617 1618 1618 1618 1618 1618 1618 1618 1618 1619 1619 1620 1620 1621 1621 1622 1622 1623 1624 1624 1625 1626 1626 1626 1627 1628 1628 1629 1630 1631 1632 1633 1635 1636 1638 1639 1641 1642 1644 1645 1647 1649 1650 1652 1654 1656 1659 1660 1661 1663 1665 1667 1669 1670 1672 1673 1674 1675 1676 1678 1679 1680 1681 1682 1684 1685 1686 1686 1686 1685 1684 1683 1678 1678 1678 1684 1689 1689 1689 0 0 0 0 0 0 0 0 1881 1882 1886 1886 1895 1900 1903 1904 1908 1915 1917 1920 1923 1927 1927 1927 1926 1925 1925 1921 1913 1909 1908 1908 1905 1898 1897 1897 1896 1896 1896 1895 1895 1895 1887 1885 1882 1876 1868 1863 1863 1860 1859 1857 1848 1825 1825 0 0 0 0 0 0 0 0 0 0 0 0 0 0 0 0 0 0 0 0 0 0 0 0 0 0 0 0 0 0 0 0 0 0 0 0 0 0 0 0 916 914 913 911 904 899 898 898 892 887 887 0 0 0 0 0 0 0 0 0 0 0 0 0 0 0 0 0 0 0 0 0 0 0 0 0 0 0 0 0 0 0 0 0 0 0 0 0 0 0 0 0 0 0 0 0 0 0 0 0 0 0 0 0 0 0 0 0 0 0 0 0 0 0 0 0 0 0 0 0 0 0 0 0 0 0 0 0 0 0 0 0 0 0 0 0 0 0 0 0 0 0 0 0 0 0 0 0 0 0 0 0 0 0 0 0 0 0 0 0 0 0 0 0 0 0 0 0 0 0 0 0 0 0 0 0 0 0 0 0 0 0 0 0 0 0 0 0 0 0 0 0 0 0 0 0 0 0 762 762 762 762 761 760 760 759 758 758 756 755 754 754 753 752 751 751 750 750 749 749 747 746 746 745 744 744 743 742 742 740 740 739 739 738 737 736 735 735 733 733 731 729 728 725 722 717 713 710 705 705 705 704 703 703 703 715 716 718 0 0 0 871 871 871 834 822 822 822 842 861 861 861 849 0 0 0 0 0 0 0 0 0 0 0 0 623 598 591 588 587 587 588 589 595 595 595 594 588 587 585 585 584 582 582 566 555 547 537 524 512 510 508 508 508 512 512 512 512
831 831 842 852 861 866 875 890 901 909 920 933 951 968 982 985 988 991 1004 1022 1034 1046 1050 1060 1071 1081 1088 1097 1105 1116 1128 1139 1152 1163 1176 1186 1192 1200 1205 1212 1214 1216 1221 1232 1242 1249 1254 1261 1271 1280 1287 1291 1299 1308 1316 1326 1335 1344 1350 1356 1365 1374 1380 1383 1385 1387 1391 1393 1397 1398 1398 1398 1396 1396 1396 1397 1399 1405 1405 1405 1404 1401 1399 1397 1391 1368 1367 0 0 0 0 0 0 0 0 0 0 1088 1097 1097 1108 1117 1127 1144 0 0 0 0 0 0 0 0 0 0 0 0 0 0 0 0 0 0 0 0 0 0 0 0 0 0 0 0 0 0 0 1526 1530 1541 1545 1549 1552 1557 1562 1564 1565 1565 1567 1567 1568 1568 1568 1569 1570 1570 1570 1570 1572 1573 1573 1575 1576 1577 1579 1582 1583 1584 1585 1586 1588 1591 1596 1600 1601 1604 1606 1609 1610 1611 1611 1611 1613 1614 1614 1615 1615 1616 1616 1617 1617 1618 1618 1618 1618 1618 1618 1618 1619 1619 1620 1620 1620 1621 1622 1623 1623 1623 1624 1624 1625 1626 1626 1626 1627 1627 1628 1628 1629 1631 1632 1633 1634 1636 1637 1639 1641 1642 1643 1645 1647 1649 1650 1651 1653 1655 1657 1659 1661 1662 1665 1667 1669 1670 1672 1673 1674 1675 1676 1678 1679 1680 1681 1681 1683 1685 1686 1686 1686 1685 1684 1683 1677 1677 1677 1684 1684 1684 0 0 0 0 0 0 0 0 0 1888 1889 1889 1893 1895 1902 1904 1904 1908 1915 1917 1920 1923 1927 1927 1927 1926 1925 1925 1922 1914 1914 1911 1910 1910 1910 1908 1908 1908 1906 1906 1905 1905 1906 1906 1905 1905 1902 1899 1899 1899 1900 1900 1900 1895 1887 1878 1875 1866 1866 1860 1829 1791 1765 0 0 0 0 0 0 0 0 0 0 0 0 0 0 0 0 0 0 0 0 0 0 0 0 0 0 0 0 0 0 0 0 0 0 0 0 0 0 912 909 906 901 889 0 0 0 0 0 0 0 0 0 0 0 0 0 0 0 0 0 0 0 0 0 0 0 0 0 0 0 0 0 0 0 0 0 0 0 0 0 0 0 0 0 0 0 0 0 0 0 0 0 0 0 0 0 0 0 0 0 0 0 0 0 0 0 0 0 0 0 0 0 0 0 0 0 0 0 0 0 0 0 0 0 0 0 0 0 0 0 0 0 0 0 0 0 0 0 0 0 0 0 0 0 0 0 0 0 0 0 0 0 0 0 0 0 0 0 0 0 0 0 0 0 0 0 0 0 0 0 0 0 0 0 0 0 0 0 0 0 0 0 0 0 0 0 0 0 0 0 764 765 765 765 764 764 762 760 759 758 757 756 755 754 754 753 752 751 751 751 750 749 749 747 746 746 745 744 744 743 742 742 741 740 740 739 738 737 736 735 734 733 732 731 729 727 725 722 716 707 701 701 701 705 706 706 709 711 715 716 721 741 0 0 878 878 878 850 822 822 822 823 841 847 847 847 0 0 0 0 0 0 0 0 0 0 0 0 609 582 582 582 579 582 585 585 585 589 589 589 583 582 576 576 573 569 568 556 544 536 527 519 511 510 505 505 505 505 505 505 505
830 830 842 852 861 865 873 888 900 909 919 923 934 952 969 983 985 991 1004 1019 1031 1040 1047 1053 1062 1071 1077 1085 1093 1104 1117 1127 1137 1149 1167 1182 1186 1194 1198 1204 1210 1214 1222 1232 1241 1247 1254 1261 1269 1278 1286 1291 1299 1308 1316 1322 1330 1336 1345 1350 1355 1362 1365 1372 1376 1380 1384 1388 1389 1389 1390 1391 1391 1392 1393 1393 1395 1398 1401 1401 1401 1396 1395 1395 1388 1362 0 0 0 0 0 0 0 0 0 0 1041 1048 1061 1077 1095 1114 1119 1120 1133 1134 1137 1140 1141 1160 1175 0 0 0 0 0 0 0 0 0 0 0 0 0 0 0 0 1317 0 0 0 0 0 0 0 1510 1526 1541 1545 1548 1551 1556 1560 1562 1563 1564 1565 1565 1566 1566 1566 1567 1568 1568 1569 1570 1570 1572 1573 1574 1576 1577 1579 1582 1583 1584 1585 1586 1588 1591 1594 1597 1599 1602 1604 1605 1608 1608 1609 1609 1611 1612 1613 1615 1615 1616 1616 1616 1617 1617 1618 1618 1618 1619 1619 1619 1619 1620 1620 1620 1621 1622 1622 1623 1623 1624 1624 1624 1625 1626 1626 1626 1626 1627 1627 1628 1629 1630 1630 1632 1633 1635 1637 1639 1641 1642 1643 1644 1646 1648 1649 1651 1652 1655 1657 1659 1660 1662 1664 1665 1668 1670 1671 1673 1674 1675 1676 1677 1678 1679 1680 1681 1683 1684 1685 1685 1685 1684 1681 1680 1680 1680 1685 1685 1685 0 0 0 0 0 0 0 0 0 1892 1892 1895 1895 1895 1901 1904 1905 1906 1906 1913 1917 1919 1920 1922 1923 1924 1925 1925 1925 1923 1918 1916 1916 1916 1916 1916 1916 1916 1916 1917 1917 1917 1918 1921 1923 1923 1923 1922 1919 1913 1913 1913 1917 1920 1920 1920 1917 1911 1903 1895 1886 1873 1855 1838 1828 1816 1796 1783 1783 1783 0 0 0 0 0 0 0 0 0 0 0 0 0 0 0 0 0 0 0 0 0 0 0 0 0 0 0 0 0 0 0 0 0 0 0 0 0 0 0 0 0 0 0 0 0 0 0 880 878 878 0 0 0 0 0 0 0 0 0 0 0 0 0 0 0 0 0 0 0 0 0 0 0 0 0 0 0 0 0 0 0 0 0 0 0 0 0 0 0 0 0 0 0 0 0 0 0 0 0 0 0 0 0 0 0 0 0 0 0 0 0 0 0 0 0 0 0 0 0 0 0 0 0 0 0 0 0 0 0 0 0 0 0 0 0 0 0 0 0 0 0 0 0 0 0 0 0 0 0 0 0 0 0 0 0 0 0 0 0 0 0 0 0 0 0 0 0 0 0 0 0 0 0 0 0 0 0 0 0 0 0 0 0 765 765 765 765 765 764 764 762 760 759 757 757 756 755 754 754 753 752 751 751 751 750 749 749 747 746 746 745 744 744 743 742 741 741 740 740 739 738 737 736 735 733 733 731 729 728 726 723 721 716 707 701 701 701 707 707 710 711 716 718 721 721 743 0 0 883 883 883 868 824 822 820 820 820 825 825 0 0 0 0 0 0 0 0 0 0 0 622 608 592 575 575 573 571 573 573 573 574 576 576 575 575 568 567 565 560 559 555 539 529 522 516 512 507 505 503 502 501 499 497 493 493
829 829 842 854 861 865 873 888 900 909 918 923 934 952 969 983 985 991 1004 1019 1031 1040 1047 1053 1062 1071 1077 1083 1087 1094 1102 1109 1117 1128 1146 1167 1178 1183 1189 1197 1205 1213 1222 1232 1241 1247 1254 1260 1268 1277 1286 1291 1299 1308 1316 1319 1325 1331 1338 1340 1343 1348 1355 1362 1366 1371 1377 1381 1384 1384 1384 1385 1387 1388 1389 1389 1390 1393 1393 1393 1393 1393 1393 1392 1384 0 0 0 0 0 0 0 0 0 0 1015 1036 1048 1061 1077 1095 1114 1114 1117 1118 1118 1123 1130 1137 1149 1154 1164 1177 1188 1208 1211 1211 1214 1214 1214 1231 1245 1254 1255 1260 1271 1286 1286 1286 1291 1291 0 0 0 0 1510 1526 1541 1544 1546 1549 1555 1559 1560 1560 1562 1563 1563 1564 1565 1565 1566 1566 1567 1568 1569 1570 1572 1572 1573 1574 1577 1579 1582 1583 1585 1587 1587 1588 1591 1594 1597 1599 1600 1602 1604 1605 1606 1607 1608 1609 1611 1612 1613 1614 1614 1614 1615 1616 1617 1618 1618 1619 1619 1619 1619 1619 1620 1620 1621 1622 1622 1623 1623 1624 1624 1624 1625 1625 1626 1626 1626 1626 1627 1627 1628 1629 1630 1630 1631 1633 1635 1636 1639 1641 1642 1642 1644 1645 1648 1649 1651 1652 1655 1657 1659 1660 1661 1663 1665 1667 1669 1671 1673 1674 1675 1676 1677 1677 1678 1678 1681 1681 1682 1682 1681 1680 1677 1677 1677 1677 1684 1684 1684 0 0 0 0 0 0 0 0 0 1889 1889 1891 1892 1892 1895 1901 1903 1905 1906 1906 1911 1914 1916 1916 1916 1917 1920 1923 1923 1923 1923 1922 1921 1919 1919 1919 1922 1923 1923 1925 1925 1925 1928 1934 1934 1939 1939 1939 1937 1933 1927 1926 1926 1926 1930 1932 1932 1932 1921 1912 1906 1898 1886 1867 1852 1848 1843 1842 1838 1837 1837 1826 1814 1812 1810 1782 0 0 0 0 0 0 0 0 0 0 0 0 0 0 0 0 0 0 0 0 0 0 0 0 0 0 0 0 0 0 0 0 0 0 0 0 0 0 0 0 0 884 884 882 881 879 878 872 872 870 0 0 0 0 0 0 0 0 0 0 0 0 0 0 0 0 0 0 0 0 0 0 0 0 0 0 0 0 0 0 0 0 0 0 0 0 0 0 0 0 0 0 0 0 0 0 0 0 0 0 0 0 0 0 0 0 0 0 0 0 0 0 0 0 0 0 0 0 0 0 0 0 0 0 0 0 0 0 0 0 0 0 0 0 0 0 0 0 0 0 0 0 0 0 0 0 0 0 0 0 0 0 0 0 0 0 0 0 0 0 0 0 0 0 0 0 0 0 0 0 0 0 0 0 0 0 0 765 765 765 765 765 765 764 764 762 760 758 757 756 756 755 754 753 753 752 751 751 750 750 749 749 747 747 746 745 744 744 743 742 741 741 740 739 738 738 737 736 734 733 731 729 728 727 723 721 717 716 707 701 701 701 707 710 711 714 714 718 721 721 743 0 0 874 879 879 879 877 829 815 809 804 796 0 0 0 0 0 0 0 0 0 0 0 613 602 594 581 572 572 572 565 565 561 554 549 549 545 545 545 549 551 554 554 554 541 526 513 511 508 507 501 494 491 491 488 486 485 485 484
827 827 844 858 861 865 873 888 901 909 918 923 934 952 969 983 994 1004 1009 1019 1031 1040 1047 1053 1062 1071 1077 1083 1087 1094 1102 1109 1117 1128 1144 1155 1168 1177 1182 1191 1202 1212 1221 1231 1241 1247 1253 1260 1268 1276 1284 1291 1299 1308 1316 1317 1321 1325 1330 1332 1335 1341 1346 1353 1361 1367 1373 1377 1379 1381 1381 1381 1380 1380 1380 1383 1384 1384 1384 1385 1385 1388 1388 1388 1367 0 0 0 0 0 0 0 0 0 987 1016 1036 1048 1061 1077 1095 1114 1114 1115 1117 1117 1123 1130 1137 1149 1154 1159 1163 1167 1178 1196 1197 1197 1200 1200 1200 1214 1226 1227 1228 1242 1264 1278 1278 1279 1280 1282 0 0 0 1510 1535 1541 1545 1546 1549 1554 1558 1558 1558 1559 1560 1562 1562 1562 1563 1563 1565 1566 1567 1568 1569 1570 1572 1573 1574 1576 1579 1582 1583 1585 1587 1588 1589 1591 1594 1597 1598 1600 1601 1602 1605 1605 1607 1608 1608 1609 1610 1610 1611 1612 1613 1615 1616 1616 1616 1617 1619 1619 1619 1619 1619 1620 1620 1621 1622 1623 1623 1623 1624 1624 1624 1625 1625 1626 1626 1626 1626 1626 1626 1627 1629 1629 1630 1631 1632 1633 1635 1638 1639 1641 1642 1643 1644 1646 1648 1650 1652 1654 1657 1658 1659 1661 1662 1664 1666 1668 1671 1673 1674 1675 1676 1676 1677 1677 1678 1679 1680 1680 1680 1680 1680 1676 1676 1676 1677 1687 1687 1687 0 0 0 0 0 0 0 0 1875 1878 1887 1888 1889 1891 1894 1901 1903 1905 1905 1906 1907 1910 1911 1912 1912 1913 1917 1922 1926 1927 1927 1927 1924 1922 1922 1922 1922 1926 1926 1926 1929 1930 1935 1939 1942 1948 1948 1948 1948 1945 1943 1940 1940 1940 1940 1940 1939 1932 1921 1916 1913 1912 1904 1889 1887 1881 1875 1861 1854 1851 1851 1850 1848 1846 1846 1843 1832 0 0 0 0 0 0 0 1810 1790 1779 1763 0 0 0 0 0 0 0 0 0 0 0 0 0 0 0 0 0 0 0 0 0 0 0 0 0 0 0 0 0 891 887 886 881 881 880 879 876 871 869 867 867 867 867 867 866 0 0 0 0 0 0 0 0 0 0 0 0 0 0 0 0 0 0 0 0 0 0 0 0 0 0 0 0 0 0 0 0 0 0 0 0 0 0 0 0 0 0 0 0 0 0 0 0 0 0 0 0 0 0 0 0 0 0 0 0 0 0 0 0 0 0 0 0 0 0 0 0 0 0 0 0 0 0 0 0 0 0 0 0 0 0 0 0 0 0 0 0 0 0 0 0 0 0 0 0 0 0 0 0 0 0 0 0 0 0 0 0 0 0 0 0 0 0 764 764 765 765 765 764 764 764 763 762 761 760 758 757 756 756 755 754 753 753 752 751 751 750 750 749 748 747 747 746 745 744 744 743 742 741 741 740 739 738 738 736 736 734 732 731 729 727 725 719 719 715 713 713 701 701 701 707 710 710 714 714 714 717 717 743 0 0 871 879 879 879 877 836 815 806 789 771 0 0 0 0 0 0 0 0 0 0 603 600 593 588 579 572 572 568 563 563 549 544 542 529 513 0 513 541 548 548 548 539 529 515 508 506 505 502 492 486 485 483 482 482 481 481 481
827 827 845 858 863 868 879 894 906 915 919 923 941 957 974 990 1004 1012 1020 1028 1039 1047 1055 1065 1069 1075 1079 1083 1087 1094 1102 1109 1117 1128 1144 1155 1168 1177 1182 1190 1199 1211 1221 1231 1240 1247 1253 1260 1267 1271 1277 1291 1297 1297 1303 1305 1309 1319 1324 1328 1334 1338 1343 1349 1357 1364 1371 1375 1376 1376 1376 1374 1374 1374 1378 1380 1380 1380 1380 1380 1381 1385 1385 1385 1366 0 0 0 0 0 0 0 0 0 987 1019 1036 1049 1065 1080 1095 1114 1114 1115 1117 1117 1123 1128 1138 1148 1154 1158 1162 1167 1172 1182 1191 1191 1191 1191 1191 1195 1201 1202 1204 1217 1245 1264 1264 1267 1268 1282 0 0 0 1510 1535 1545 1546 1548 1549 1552 1554 1555 1555 1556 1558 1558 1560 1561 1561 1562 1563 1564 1566 1566 1568 1570 1571 1572 1574 1576 1579 1582 1583 1585 1587 1589 1590 1592 1594 1596 1597 1600 1601 1602 1604 1605 1605 1606 1606 1608 1609 1609 1611 1611 1612 1614 1615 1616 1616 1617 1618 1619 1619 1619 1619 1620 1620 1621 1622 1623 1623 1623 1624 1624 1624 1625 1625 1625 1626 1626 1626 1626 1626 1626 1627 1628 1629 1631 1632 1633 1635 1637 1639 1639 1641 1642 1644 1645 1648 1650 1652 1654 1656 1658 1659 1660 1661 1664 1666 1667 1669 1670 1672 1673 1675 1676 1676 1676 1677 1677 1678 1678 1678 1678 1677 1673 1673 1673 1688 1688 1688 0 0 0 0 0 0 0 0 0 1872 1878 1880 1880 1889 1891 1894 1898 1902 1902 1903 1903 1903 1905 1906 1909 1911 1913 1916 1919 1925 1927 1929 1929 1929 1928 1924 1924 1924 1926 1929 1930 1931 1933 1938 1942 1945 1949 1956 1958 1960 1960 1960 1956 1955 1951 1943 1941 1939 1932 1925 1923 1923 1922 1923 1923 1922 1919 1903 1877 1871 1862 1862 1862 1865 1871 1871 1871 1862 1845 1845 1845 1850 1850 1850 1846 1841 1830 1818 1815 1812 0 0 0 0 0 0 0 0 0 0 0 0 0 0 0 0 0 0 0 0 0 0 0 0 0 0 0 0 906 892 891 886 882 881 880 879 874 869 868 868 868 868 868 867 865 861 860 860 859 0 0 0 0 0 0 0 0 0 0 0 0 0 0 0 0 0 0 0 0 0 0 0 0 0 0 0 0 0 0 0 0 0 0 0 0 0 0 0 0 0 0 0 0 0 0 0 0 0 0 0 0 0 0 0 0 0 0 0 0 0 0 0 0 0 0 0 0 0 0 0 0 0 0 0 0 0 0 0 0 0 0 0 0 0 0 0 0 0 0 0 0 0 0 0 0 0 0 0 0 0 0 0 0 0 0 0 0 0 0 0 764 764 764 764 764 764 764 764 764 763 762 761 759 759 758 757 756 756 755 754 753 753 752 751 750 750 750 749 748 747 747 746 745 744 744 743 742 741 741 740 739 738 737 736 735 734 732 730 729 727 723 718 717 715 715 715 707 702 701 701 702 702 707 707 707 717 717 0 0 0 871 879 879 879 877 836 815 796 774 751 725 700 686 654 0 0 0 0 586 586 586 584 584 584 571 570 570 562 562 562 549 541 530 507 487 487 487 533 533 533 529 518 515 511 506 506 503 499 491 484 483 482 481 480 480 478 478
827 827 845 858 864 872 884 900 913 921 929 931 942 960 978 997 1013 1023 1030 1037 1045 1054 1063 1071 1075 1084 1085 1089 1094 1099 1104 1112 1119 1132 1144 1155 1168 1177 1182 1190 1197 1211 1221 1228 1236 1244 1251 1258 1263 1264 1270 1280 1289 1292 1295 1295 1296 1310 1319 1326 1331 1337 1342 1347 1353 1361 1368 1372 1372 1372 1369 1366 1366 1366 1374 1376 1376 1376 1376 1376 1378 1378 1378 1366 1347 0 0 0 0 0 0 0 0 0 996 1023 1039 1053 1065 1080 1095 1112 1114 1114 1115 1120 1123 1128 1138 1148 1152 1158 1162 1167 1172 1175 1181 1185 1185 1186 1186 1190 1190 1193 1193 1195 1219 1242 1250 1255 1263 1282 0 0 0 1512 1536 1543 1546 1548 1548 1551 1552 1552 1553 1553 1555 1556 1558 1559 1559 1560 1561 1563 1564 1566 1568 1570 1571 1572 1574 1576 1579 1582 1583 1585 1587 1589 1590 1592 1594 1596 1597 1598 1600 1602 1602 1603 1603 1604 1605 1606 1608 1609 1609 1610 1611 1613 1614 1615 1615 1616 1617 1618 1618 1619 1619 1620 1620 1621 1623 1623 1623 1623 1624 1624 1624 1625 1625 1625 1625 1625 1626 1626 1626 1626 1627 1628 1629 1630 1632 1633 1634 1636 1637 1639 1640 1641 1643 1645 1647 1650 1652 1654 1656 1657 1658 1658 1660 1663 1663 1665 1666 1666 1668 1671 1672 1673 1675 1675 1675 1675 1675 1675 1674 1674 1672 1670 1670 1670 1693 1693 1693 0 0 0 0 0 0 0 0 1839 1875 1875 1879 1880 1889 1891 1894 1896 1899 1900 1900 1901 1901 1902 1906 1909 1911 1913 1916 1919 1925 1927 1929 1929 1929 1928 1924 1924 1924 1924 1930 1935 1937 1938 1941 1942 1945 1952 1958 1965 1968 1968 1968 1964 1956 1951 1943 1942 1941 1932 1925 1925 1925 1926 1927 1929 1929 1929 1922 1902 1883 1873 1873 1873 1873 1878 1878 1878 1878 1865 1858 1858 1858 1858 1858 1856 1854 1847 1834 1834 1831 1831 1829 1829 1828 1827 0 0 0 0 0 0 0 0 0 0 0 0 0 0 0 0 0 0 0 0 0 0 0 916 900 894 888 882 882 881 880 874 869 869 869 870 871 871 870 870 864 862 861 859 859 859 858 858 859 859 857 852 848 848 847 0 0 0 0 0 0 0 0 0 0 0 0 0 0 0 0 0 0 0 0 0 0 0 0 0 0 0 0 0 0 0 0 0 0 0 0 0 0 0 0 0 0 0 0 0 0 0 0 0 0 0 0 0 0 0 0 0 0 0 0 0 0 0 0 0 0 0 0 0 0 0 0 0 0 0 0 0 0 0 0 0 0 0 0 0 0 0 0 0 0 0 0 0 0 0 0 0 0 0 767 764 764 763 762 762 762 762 763 763 763 761 760 759 759 758 757 756 756 755 754 753 753 752 751 750 750 750 749 748 747 746 746 745 744 744 743 742 741 740 740 739 738 737 736 734 733 731 730 728 726 723 716 716 715 714 714 707 701 700 698 698 698 699 699 699 703 703 0 0 0 0 879 879 879 870 836 804 0 754 733 715 698 686 654 632 621 612 604 584 583 583 580 580 580 566 566 566 562 562 560 544 538 529 507 487 487 487 525 525 525 514 508 508 504 503 500 498 489 483 483 482 481 480 479 479 477 477
830 830 848 859 866 874 886 901 913 923 932 934 946 962 979 997 1014 1030 1038 1049 1057 1064 1069 1076 1080 1085 1091 1096 1100 1105 1110 1118 1127 1133 1144 1155 1167 1177 1183 1189 1196 1204 1215 1222 1229 1237 1247 1253 1257 1261 1264 1274 1282 1285 1290 1291 1294 1304 1314 1321 1328 1333 1340 1346 1350 1354 1358 1358 1358 1357 1356 1356 1357 1361 1368 1372 1372 1372 1371 1371 1370 1369 1368 1347 0 0 0 0 0 0 0 0 0 976 1009 1028 1040 1053 1065 1080 1093 1110 1111 1112 1114 1120 1123 1128 1138 1148 1152 1159 1162 1167 1172 1175 1181 1185 1185 1186 1186 1190 1190 1193 1193 1195 1197 1216 1230 1243 1261 1289 0 0 0 1520 1537 1543 1546 1548 1548 1550 1550 1551 1551 1551 1553 1554 1555 1556 1557 1559 1560 1561 1563 1565 1567 1569 1570 1572 1574 1576 1578 1581 1583 1585 1587 1589 1590 1592 1593 1595 1596 1598 1599 1601 1601 1602 1602 1603 1603 1604 1606 1606 1607 1608 1610 1610 1613 1613 1615 1616 1617 1617 1618 1618 1619 1620 1620 1621 1623 1623 1623 1623 1623 1623 1623 1624 1624 1624 1625 1625 1625 1625 1625 1626 1626 1628 1629 1630 1631 1632 1633 1636 1637 1638 1639 1640 1642 1644 1647 1650 1652 1654 1654 1654 1655 1657 1660 1661 1662 1662 1663 1663 1663 1664 1666 1670 1671 1672 1672 1672 1671 1670 1669 1669 1668 1669 1670 1698 1698 1698 0 0 0 0 0 0 0 0 0 1839 1875 1879 1880 1880 1889 1894 1894 1895 1896 1897 1898 1899 1899 1902 1906 1909 1911 1913 1916 1919 1925 1926 1928 1928 1928 1928 1924 1924 1924 1924 1929 1935 1937 1940 1942 1942 1945 1955 1966 1975 1975 1975 1968 1964 1956 1951 1942 1941 1939 1932 1925 1925 1925 1927 1929 1930 1930 1929 1928 1908 1892 1879 1879 1879 1882 1884 1884 1884 1884 1883 1878 1870 1869 1864 1862 1862 1861 1860 1851 1847 1847 1847 1849 1851 1854 1854 1854 1840 1835 1832 1830 1823 1812 1798 1779 1770 1766 1747 1729 1707 0 0 0 0 0 0 0 0 0 916 900 894 889 885 883 882 882 876 874 873 873 872 872 872 871 870 870 868 867 864 862 861 861 861 861 861 859 858 851 850 850 849 0 0 0 0 0 0 0 0 0 0 0 0 0 0 0 0 0 0 0 0 0 0 0 0 0 0 0 0 0 0 0 0 0 0 0 0 0 0 0 0 0 0 0 0 0 0 0 0 0 0 0 0 0 0 0 0 0 0 0 0 0 0 0 0 0 0 0 0 0 0 0 0 0 0 0 0 0 0 0 0 0 0 0 0 0 0 0 0 0 0 0 0 0 772 772 771 771 768 765 765 763 763 762 762 762 762 762 762 762 761 760 759 759 758 757 757 756 755 755 753 753 752 751 751 750 749 749 748 746 746 745 745 744 743 742 741 741 740 740 739 737 737 736 734 733 730 729 727 725 722 715 714 714 711 711 707 700 700 697 697 696 695 695 695 695 695 0 0 0 0 0 0 0 0 0 0 744 728 715 705 698 686 654 630 611 602 591 581 575 575 574 568 568 561 561 561 558 558 556 544 538 527 507 487 487 487 507 513 513 513 507 506 502 496 487 481 479 478 478 479 479 479 479 477 474 474
830 830 849 863 871 878 889 902 913 923 933 936 948 964 981 999 1015 1030 1038 1049 1057 1072 1076 1079 1081 1086 1091 1098 1103 1108 1113 1118 1127 1133 1144 1155 1167 1177 1183 1189 1196 1204 1211 1218 1224 1232 1241 1246 1249 1254 1261 1272 1278 1283 1285 1287 1289 1298 1307 1314 1321 1329 1337 1340 1341 1342 1344 1348 1349 1349 1349 1349 1350 1358 1365 1368 1368 1368 1367 1365 1363 1361 1356 0 0 0 0 0 0 0 0 0 0 997 1020 1036 1046 1053 1062 1076 1088 1096 1101 1108 1113 1120 1121 1123 1131 1140 1152 1159 1162 1169 1175 1175 1181 1185 1185 1186 1186 1190 1190 1193 1193 1195 1197 1212 1214 1226 1261 0 0 0 1497 1522 1537 1540 1543 1546 1547 1548 1548 1548 1549 1549 1551 1551 1552 1553 1555 1557 1559 1560 1562 1564 1565 1568 1569 1571 1574 1576 1578 1581 1583 1585 1587 1589 1590 1591 1592 1594 1595 1597 1598 1599 1599 1600 1600 1601 1602 1604 1604 1605 1605 1606 1608 1610 1611 1612 1613 1614 1615 1616 1616 1618 1618 1620 1620 1621 1623 1623 1623 1623 1623 1623 1623 1623 1623 1623 1624 1624 1624 1624 1624 1625 1625 1628 1629 1629 1630 1631 1632 1634 1636 1637 1638 1640 1642 1643 1646 1649 1652 1652 1652 1652 1653 1655 1658 1658 1658 1658 1657 1657 1657 1658 1659 1662 1665 1666 1666 1666 1666 1665 1665 1665 1666 1670 1694 1694 1694 1689 0 0 0 0 0 0 0 0 1844 1865 1878 1879 1881 1886 1889 1895 1895 1895 1895 1895 1895 1898 1899 1902 1907 1911 1913 1918 1922 1922 1925 1926 1926 1926 1926 1926 1924 1924 1924 1924 1929 1935 1937 1940 1942 1942 1945 1955 1966 1975 1975 1975 1968 1964 1956 1944 1943 1943 1938 1938 1938 1931 1931 1929 1929 1931 1931 1930 1930 1911 1893 1891 1891 1891 1891 1891 1890 1890 1890 1889 1889 1886 1885 1874 1865 1865 1862 1862 1859 1854 1854 1854 1855 1856 1862 1862 1862 1861 1854 1848 1841 1829 1813 1805 1803 1801 1798 1788 1776 1763 1738 0 0 0 0 0 0 0 0 916 904 894 889 886 883 883 882 881 879 878 876 876 876 874 872 871 871 871 870 870 870 866 866 866 865 865 862 858 856 852 852 852 850 848 847 842 840 840 840 838 838 833 832 0 0 0 0 0 0 0 0 0 0 0 0 0 0 0 0 0 0 0 0 0 0 0 0 0 0 0 0 0 0 0 0 0 0 0 0 0 0 0 0 0 0 0 0 0 0 0 0 0 0 0 0 0 0 0 0 0 0 0 0 0 0 0 0 0 0 0 0 0 0 0 0 0 0 0 0 0 0 0 0 0 772 772 772 771 771 768 766 764 763 763 762 762 762 762 762 762 761 761 760 759 759 758 757 757 756 755 755 754 753 752 751 751 750 749 748 747 746 746 745 744 744 743 742 741 741 740 739 738 737 736 735 733 732 730 728 725 725 721 715 709 707 705 705 705 700 700 695 694 691 690 686 684 684 684 0 0 0 0 0 0 0 0 755 740 731 715 698 692 690 686 654 625 609 594 583 579 569 561 558 558 557 552 552 552 548 548 546 532 526 525 514 513 506 506 506 506 506 502 501 499 493 484 483 481 479 478 478 479 478 478 477 473 469 469
830 830 849 863 871 881 891 902 913 923 934 945 950 966 982 999 1015 1030 1038 1049 1057 1072 1076 1079 1081 1087 1091 1098 1104 1108 1113 1118 1127 1133 1141 1144 1157 1173 1183 1189 1196 1202 1208 1215 1222 1229 1233 1237 1241 1250 1259 1267 1274 1279 1282 1284 1287 1292 1298 1306 1311 1314 1317 1320 1324 1326 1330 1336 1341 1343 1343 1344 1348 1357 1365 1365 1365 1364 1364 1363 1360 1352 1338 0 0 0 0 0 0 0 0 0 0 1014 1032 1043 1047 1053 1062 1076 1087 1090 1091 1095 1096 1110 1113 1115 1117 1124 1146 1158 1162 1169 1175 1179 1186 1186 1187 1188 1188 1193 1201 1201 1201 1202 1202 1212 1214 1226 0 0 0 0 1505 1522 1536 1537 1537 1539 1544 1545 1546 1546 1546 1546 1548 1548 1549 1550 1552 1554 1556 1557 1559 1562 1564 1566 1568 1571 1573 1576 1578 1580 1583 1585 1586 1588 1589 1590 1592 1593 1595 1596 1597 1598 1599 1599 1600 1600 1602 1603 1603 1604 1604 1604 1605 1607 1608 1610 1611 1612 1614 1615 1616 1616 1618 1619 1620 1621 1622 1623 1623 1623 1623 1623 1623 1622 1622 1622 1622 1623 1623 1623 1623 1623 1625 1627 1629 1629 1629 1629 1630 1630 1632 1635 1638 1640 1641 1643 1646 1647 1647 1647 1647 1647 1647 1649 1651 1653 1653 1653 1653 1653 1655 1656 1656 1656 1658 1658 1658 1658 1657 1657 1658 1658 1666 1687 1706 1706 1706 0 0 0 0 0 0 0 0 0 1848 1868 1878 1879 1886 1886 1889 1895 1895 1895 1895 1895 1895 1898 1900 1903 1907 1913 1918 1925 1925 1925 1925 1925 1925 1926 1926 1926 1923 1923 1923 1923 1929 1933 1937 1940 1940 1942 1945 1955 1966 1971 1971 1971 1966 1961 1956 1943 1943 1943 1943 1944 1944 1944 1938 1936 1930 1930 1930 1927 1927 1921 1906 1905 1905 1903 1903 1903 1903 1903 1905 1905 1905 1898 1897 1878 1871 1871 1868 1868 1868 1863 1862 1861 1861 1862 1862 1868 1868 1868 1864 1855 1845 1831 1814 1805 1803 1803 1799 1792 1780 1767 1759 1739 0 0 0 0 0 0 0 916 904 894 889 886 884 883 882 881 879 878 876 876 876 876 875 873 872 872 872 871 871 870 870 868 868 867 864 860 860 859 856 854 850 848 847 842 842 842 841 841 839 837 835 831 0 0 0 0 0 0 0 0 0 0 0 0 0 0 0 0 0 0 0 0 0 0 0 0 0 0 0 0 0 0 0 0 0 0 0 0 0 0 0 0 0 0 0 0 0 0 0 0 0 0 0 0 0 0 0 0 0 0 0 0 0 0 0 0 0 0 0 0 0 0 0 782 781 777 774 773 770 770 770 772 772 772 771 770 769 768 766 764 763 763 762 762 762 762 762 762 761 761 760 759 759 758 758 757 756 755 755 754 753 752 751 751 750 749 748 747 746 745 745 744 743 743 742 741 740 739 739 738 737 736 734 733 731 730 726 725 722 719 715 709 706 700 700 700 698 694 691 688 686 686 686 673 634 634 0 0 0 0 0 0 0 740 740 738 731 707 688 686 682 682 654 625 604 587 582 578 566 557 548 544 541 537 533 533 530 530 530 524 521 518 514 513 510 505 504 504 503 501 499 499 493 484 483 481 479 478 478 478 477 477 472 468 468 468
824 824 849 863 871 881 891 901 911 923 936 950 955 970 985 1002 1015 1025 1038 1040 1057 1072 1076 1079 1081 1087 1091 1098 1105 1108 1113 1117 1119 1123 1131 1139 1149 1163 1178 1182 1190 1197 1205 1211 1219 1225 1231 1233 1239 1247 1256 1265 1272 1276 1279 1284 1286 1288 1293 1298 1301 1304 1307 1310 1312 1316 1323 1330 1335 1338 1341 1342 1346 1353 1357 1358 1359 1359 1360 1360 1360 1350 1325 0 0 0 0 0 0 0 0 0 985 1028 1038 1045 1049 1053 1062 1076 1087 1090 1091 1093 1095 1099 1104 1107 1108 1121 1139 1158 1162 1170 1175 1181 1189 1192 1192 1193 1193 1199 1209 1217 1217 1217 1215 1215 1215 1226 0 0 0 0 1505 1520 1530 1530 1533 1536 1539 1541 1542 1542 1543 1544 1545 1545 1547 1548 1551 1552 1554 1555 1558 1561 1563 1566 1568 1571 1573 1576 1578 1580 1583 1585 1586 1588 1589 1590 1591 1593 1594 1596 1597 1597 1598 1599 1599 1600 1601 1601 1602 1602 1603 1603 1603 1604 1606 1607 1609 1611 1611 1613 1614 1615 1617 1617 1619 1621 1621 1622 1622 1622 1622 1622 1622 1622 1621 1621 1621 1620 1620 1620 1622 1622 1624 1625 1626 1626 1626 1626 1626 1627 1631 1635 1635 1636 1637 1639 1641 1642 1642 1642 1642 1643 1642 1643 1643 1646 1648 1649 1649 1652 1652 1652 1652 1648 1648 1648 1650 1654 1654 1655 1655 1658 1671 1694 1695 1695 1695 0 0 0 0 0 0 0 0 0 1854 1868 1878 1878 1886 1886 1886 1895 1895 1895 1895 1895 1895 1901 1907 1909 1909 1913 1918 1925 1925 1925 1925 1925 1925 1925 1925 1925 1922 1922 1922 1923 1928 1933 1933 1933 1933 1933 1935 1946 1957 1964 1964 1964 1961 1960 1954 1940 1940 1940 1943 1944 1944 1944 1938 1936 1927 1926 1926 1923 1921 1921 1906 1905 1905 1903 1903 1903 1903 1903 1905 1908 1908 1908 1901 1883 1873 1873 1873 1873 1873 1870 1863 1863 1862 1862 1862 1869 1871 1871 1871 1860 1848 1833 1818 1810 1807 1806 1803 1799 1788 1775 1768 1758 0 0 0 0 0 0 0 907 904 892 890 887 884 883 882 881 879 878 876 876 876 876 875 873 873 872 872 872 871 871 870 869 868 867 864 860 860 860 858 857 851 848 846 844 844 844 844 843 841 839 836 833 828 828 827 0 0 0 0 0 0 0 0 0 0 0 0 0 0 0 0 0 0 0 0 0 0 0 0 0 0 0 0 0 0 0 0 0 0 0 0 0 0 0 0 0 0 0 0 0 0 0 0 0 0 0 0 0 0 0 0 0 0 0 0 0 0 0 0 0 0 0 782 782 781 778 774 773 772 772 772 772 772 772 771 770 769 768 766 764 764 764 764 763 763 762 762 762 761 761 760 759 759 758 758 757 756 755 755 754 753 752 751 751 750 749 748 747 746 745 745 744 743 742 741 741 740 739 739 738 737 736 734 732 730 729 726 723 722 717 714 708 706 700 699 699 695 687 675 675 675 675 675 670 628 628 0 0 0 0 0 0 0 726 731 731 731 702 681 674 673 673 648 614 602 586 570 565 549 540 533 528 526 521 516 507 505 505 505 512 513 513 513 513 510 506 504 504 503 501 499 497 490 485 484 483 483 481 479 478 477 475 472 468 468 468
815 815 827 835 854 881 891 900 909 921 936 950 958 970 985 1002 1014 1022 1030 1038 1057 1059 1069 1073 1080 1087 1091 1098 1105 1108 1113 1115 1117 1121 1130 1139 1149 1159 1170 1181 1185 1192 1202 1208 1215 1223 1229 1231 1236 1246 1255 1263 1269 1274 1277 1279 1280 1283 1289 1292 1295 1296 1300 1303 1306 1311 1316 1322 1327 1332 1333 1335 1336 1339 1344 1346 1347 1351 1358 1358 1358 1350 0 0 0 0 0 0 0 0 0 0 1006 1028 1045 1049 1051 1056 1066 1079 1087 1090 1091 1093 1094 1095 1104 1107 1108 1120 1139 1157 1163 1170 1176 1184 1192 1193 1194 1194 1196 1204 1219 1220 1220 1220 1220 1220 1220 1234 0 0 0 0 1505 1511 1519 1524 1526 1530 1537 1538 1539 1540 1541 1542 1543 1544 1545 1545 1549 1549 1551 1553 1555 1559 1562 1565 1567 1570 1573 1574 1578 1580 1583 1584 1586 1588 1589 1590 1591 1593 1594 1595 1596 1597 1598 1598 1599 1599 1600 1601 1601 1601 1601 1601 1602 1602 1604 1604 1605 1607 1610 1611 1613 1615 1615 1616 1616 1618 1619 1619 1619 1620 1620 1620 1620 1620 1619 1619 1618 1618 1619 1620 1620 1620 1621 1622 1622 1622 1623 1623 1623 1627 1628 1628 1628 1628 1628 1628 1632 1634 1636 1636 1636 1636 1637 1637 1637 1642 1643 1644 1646 1646 1646 1643 1639 1639 1639 1642 1647 1653 1654 1654 1655 1658 1679 1691 1691 1691 0 0 0 0 0 0 0 0 0 1837 1859 1866 1867 1868 1869 1869 1879 1887 1887 1887 1889 1890 1895 1908 1909 1911 1913 1913 1918 1925 1925 1925 1923 1923 1923 1924 1924 1924 1916 1914 1914 1914 1915 1919 1924 1924 1925 1925 1926 1931 1934 1936 1938 1938 1946 1946 1946 1940 1928 1928 1928 1944 1944 1944 1938 1936 1923 1915 0 0 0 1915 1906 1905 1905 1903 1903 1903 1903 1903 1905 1908 1908 1908 1901 1890 1879 1877 1876 1876 1875 1872 1863 1863 1862 1862 1862 1869 1878 1878 1878 1866 1853 1837 1823 1823 1821 1821 1821 1821 1799 1788 1781 1772 0 0 0 0 0 0 0 903 899 891 890 887 884 883 882 880 879 878 876 876 876 876 875 873 873 872 872 872 871 871 870 869 868 867 865 865 865 865 865 864 859 848 848 848 847 847 847 843 842 841 838 833 830 828 828 828 0 0 0 0 0 0 0 0 0 0 0 0 0 0 0 0 0 0 0 0 0 0 0 0 0 0 0 0 0 0 0 0 0 0 0 0 0 0 0 0 0 0 0 0 0 0 0 0 0 0 0 0 0 0 0 0 0 0 0 782 783 783 783 783 783 783 782 781 781 778 775 775 774 774 774 774 773 772 771 770 769 769 766 765 765 765 765 764 764 763 762 762 761 761 760 759 759 758 758 757 756 755 755 754 753 752 751 750 750 748 748 747 746 745 744 744 743 742 741 740 740 739 738 737 737 736 733 731 730 728 725 723 721 717 713 708 703 698 696 695 691 681 675 675 675 675 675 665 625 603 603 603 624 654 0 0 0 704 725 725 725 698 677 664 656 645 611 596 593 574 569 552 543 523 514 511 510 509 507 498 498 498 499 502 502 502 502 506 506 506 504 504 503 499 498 496 490 490 488 488 485 481 479 478 476 474 472 468 468 468
810 810 817 823 843 875 888 896 901 913 936 950 958 970 985 1002 1013 1015 1016 1023 1039 1057 1068 1069 1078 1087 1092 1098 1105 1108 1111 1114 1116 1121 1129 1137 1147 1159 1168 1177 1183 1190 1197 1203 1204 1205 1206 1210 1232 1240 1250 1256 1263 1269 1270 1274 1276 1278 1279 1284 1284 1289 1292 1298 1303 1307 1313 1318 1321 1323 1324 1324 1326 1327 1330 1332 1335 1342 1354 1354 1354 0 0 0 0 0 0 0 0 0 0 0 1035 1041 1045 1049 1057 1063 1075 1086 1095 1096 1096 1096 1096 1096 1104 1107 1108 1120 1139 1157 1167 1177 1180 1189 1193 1194 1194 1195 1201 1208 1220 1220 1220 1220 1220 1220 1224 1235 0 0 0 0 1494 1504 1508 1519 1521 1524 1529 1535 1536 1537 1538 1540 1541 1541 1542 1544 1545 1547 1549 1550 1552 1556 1561 1564 1567 1569 1571 1574 1576 1579 1582 1584 1586 1587 1589 1590 1591 1592 1594 1595 1596 1597 1598 1598 1599 1599 1599 1600 1600 1600 1600 1601 1601 1601 1602 1602 1603 1605 1607 1609 1611 1613 1614 1615 1615 1616 1616 1617 1617 1618 1618 1618 1618 1617 1617 1616 1615 1615 1615 1617 1617 1618 1619 1619 1620 1620 1620 1620 1619 1619 1620 1619 1620 1620 1620 1622 1625 1627 1629 1629 1629 1628 1628 1628 1632 1634 1635 1637 1637 1637 1637 1634 1634 1634 1636 1641 1646 1650 1651 1654 1655 1678 1693 1693 1693 0 0 0 0 0 0 0 0 0 1802 1830 1859 1866 1867 1867 1867 1867 1873 1873 1875 1876 1876 1883 1895 1908 1909 1909 1911 1911 1911 1913 1913 1913 1912 1912 1912 1912 1912 1912 0 0 0 0 0 0 0 0 0 0 0 0 0 0 0 0 0 0 0 0 0 0 0 0 0 0 0 0 0 0 0 0 0 0 0 0 0 0 0 0 0 0 0 0 1901 1901 1901 1890 1879 1877 1876 1876 1875 1872 1863 1857 1857 1857 1862 1869 1878 1878 1878 1874 1862 1848 1842 1840 1838 1832 1825 1823 1823 1804 1797 1789 0 0 0 0 0 0 0 900 890 890 889 887 885 884 882 880 879 878 876 876 876 875 874 873 873 872 872 872 871 871 870 869 869 869 869 869 869 869 867 865 860 854 848 848 847 847 847 843 843 842 842 838 833 833 833 833 833 833 828 825 820 818 818 0 0 0 0 0 0 0 0 0 0 0 0 0 0 0 0 0 0 0 0 0 0 0 0 0 0 0 0 0 0 0 0 0 0 0 0 0 0 0 0 0 0 0 0 0 0 0 0 0 0 0 782 782 784 784 784 784 783 782 782 781 781 778 776 775 775 774 774 774 773 772 771 770 769 769 768 767 766 765 765 765 764 763 762 762 761 761 760 759 759 758 758 757 756 755 755 754 753 752 751 750 749 748 747 746 746 745 744 743 742 742 741 740 740 739 738 737 736 735 733 731 730 728 725 723 721 717 712 709 703 697 695 695 687 675 674 674 670 670 670 648 617 603 603 603 618 630 638 653 666 689 718 718 718 698 669 653 644 642 596 586 575 572 564 552 542 519 509 509 508 508 503 498 498 498 499 500 500 500 500 505 513 513 513 508 504 500 498 492 490 490 490 488 485 481 479 476 475 473 471 469 467 467
804 804 815 823 832 855 880 887 895 907 927 942 958 963 978 994 1004 1007 1009 1015 1029 1044 1059 1068 1076 1087 1092 1098 1102 1105 1109 1111 1115 1120 1129 1137 1147 1156 1166 1173 1181 1188 1194 1200 1201 1201 1203 1207 1221 1231 1237 1242 1246 1255 1260 1265 1268 1269 1270 1274 1274 1281 1287 1293 1299 1303 1309 1312 1312 1312 1312 1312 1313 1315 1315 1319 1326 1330 1330 1330 1299 0 0 0 0 0 0 0 0 0 0 1046 1048 1051 1055 1056 1057 1082 1092 1102 1107 1109 1109 1109 1111 1111 1112 1113 1120 1120 1140 1157 1175 1187 1190 1198 1198 1198 1199 1200 1207 1213 1220 1225 1225 1225 1225 1225 1226 1237 0 0 0 1477 1494 1497 1500 1511 1515 1518 1524 1528 1533 1535 1536 1537 1538 1539 1540 1541 1542 1545 1546 1549 1551 1555 1558 1562 1565 1568 1571 1573 1575 1578 1581 1583 1586 1587 1589 1590 1591 1592 1593 1595 1596 1597 1598 1598 1598 1598 1599 1600 1600 1600 1600 1600 1600 1601 1601 1601 1603 1603 1605 1607 1608 1611 1612 1612 1613 1614 1614 1616 1616 1616 1617 1617 1617 1617 1616 1614 1613 1613 1612 1612 1612 1612 1612 1613 1615 1615 1615 1615 1615 1614 1614 1611 1611 1611 1613 1617 1620 1620 1620 1620 1620 1619 1619 1619 1622 1625 1626 1629 1630 1630 1630 1630 1630 1630 1631 1634 1637 1650 1651 1659 1677 1683 1683 1683 0 0 0 0 0 0 0 0 0 0 1819 1829 1854 1863 1863 1865 1865 1865 1865 1865 1865 1865 1866 1877 1894 1908 1908 1908 1902 1895 1895 0 0 0 0 0 0 0 0 0 0 0 0 0 0 0 0 0 0 0 0 0 0 0 0 0 0 0 0 0 0 0 0 0 0 0 0 0 0 0 0 0 0 0 0 0 0 0 0 0 0 0 0 0 0 0 0 0 1879 1876 1876 1876 1873 1872 1861 1856 1856 1856 1862 1869 1878 1878 1878 1877 1872 1867 1861 1856 1852 1839 1832 1831 1830 1823 1811 1800 0 0 0 0 0 0 0 900 891 890 890 887 885 884 882 880 879 878 877 876 875 875 874 872 872 872 872 872 871 871 870 869 869 869 870 870 870 870 870 870 869 867 862 852 848 848 847 843 843 843 842 838 836 836 834 834 834 834 833 826 821 820 819 819 820 820 820 0 0 0 0 0 0 0 0 0 0 0 0 0 0 0 0 0 0 0 0 0 0 0 0 0 0 0 0 0 0 0 0 0 0 0 0 0 0 0 0 0 0 0 0 0 0 0 782 783 784 784 784 784 784 782 782 781 781 778 777 776 775 775 774 774 773 772 771 770 769 769 768 767 766 765 765 765 763 763 762 762 761 761 760 759 759 758 758 757 756 755 755 753 753 752 751 750 749 748 747 746 745 744 744 743 742 742 741 740 739 739 738 737 736 735 733 731 729 727 725 723 721 716 712 709 702 694 694 693 682 671 667 661 658 652 644 630 617 603 603 603 618 630 634 638 650 682 715 715 715 688 661 642 641 616 596 586 575 572 564 552 536 519 509 509 508 508 503 499 499 499 499 500 500 500 500 502 513 513 513 508 504 502 496 492 491 490 490 488 485 480 477 475 473 472 471 469 467 467
804 804 815 823 832 844 863 878 889 899 915 931 946 961 967 980 990 997 1005 1012 1025 1039 1052 1063 1075 1086 1092 1095 1099 1102 1104 1106 1113 1120 1129 1137 1143 1151 1160 1169 1179 1183 1191 1195 1199 1200 1203 1207 1217 1223 1229 1233 1236 1243 1251 1257 1259 1262 1263 1264 1265 1272 1280 1285 1289 1294 1298 1298 1299 1299 1299 1300 1300 1299 1299 1300 1303 1303 1303 1302 1274 0 0 0 0 0 0 0 0 0 1037 1047 1051 1059 1064 1070 1078 1084 1120 1127 1128 1129 1130 1134 1137 1137 1144 1151 1153 1159 1161 1181 1201 1215 1216 1216 1216 1213 1213 1213 1217 1221 1225 1225 1225 1225 1225 1225 1226 0 0 0 0 1462 1484 1487 1492 1497 1502 1511 1520 1524 1530 1531 1533 1534 1536 1536 1537 1538 1540 1542 1545 1547 1550 1553 1557 1561 1564 1567 1570 1572 1575 1577 1580 1582 1585 1587 1587 1589 1590 1592 1593 1595 1595 1597 1598 1598 1598 1598 1598 1599 1599 1599 1599 1600 1600 1600 1601 1601 1602 1602 1604 1605 1606 1607 1608 1610 1610 1611 1612 1613 1614 1614 1615 1615 1615 1615 1613 1611 1611 1611 1611 1611 1607 1606 1606 1605 1605 1606 1607 1607 1607 1607 1606 1606 1606 1608 1608 1610 1612 1612 1613 1614 1614 1614 1615 1615 1619 1620 1620 1620 1620 1622 1623 1623 1625 1629 1631 1634 1637 1650 1651 1669 1677 1677 1677 0 0 0 0 0 0 0 0 0 0 1807 1819 1830 1850 1862 1862 1862 1862 1860 1859 1850 1850 1850 1854 1869 1879 0 0 0 0 0 0 0 0 0 0 0 0 0 0 0 0 0 0 0 0 0 0 0 0 0 0 0 0 0 0 0 0 0 0 0 0 0 0 0 0 0 0 0 0 0 0 0 0 0 0 0 0 0 0 0 0 0 0 0 0 0 0 0 0 0 0 1853 1854 1854 1854 1855 1855 1855 1861 1869 1876 1877 1882 1882 1880 1877 1873 1867 1858 1849 1837 1834 1833 1831 1820 1808 0 0 0 0 0 0 0 900 891 891 890 887 884 884 882 880 879 878 877 876 875 874 873 872 872 872 872 872 871 870 870 870 870 870 870 870 870 869 869 869 869 869 862 852 848 841 839 839 839 843 843 843 836 836 836 834 834 834 833 830 829 825 825 823 822 822 822 821 0 0 0 0 0 0 0 0 0 0 0 0 0 0 0 0 0 0 0 0 0 0 0 0 0 0 0 0 0 0 0 0 0 0 0 0 0 0 0 0 0 0 0 0 0 0 782 783 783 784 784 784 784 784 783 782 781 780 778 777 776 775 774 774 773 772 771 771 769 769 768 767 766 765 765 765 763 763 762 762 761 761 760 759 759 758 757 757 756 755 755 753 753 752 751 750 749 748 747 746 745 744 743 743 742 742 741 740 739 738 738 737 736 734 733 731 729 727 725 723 720 716 712 708 701 694 693 689 677 668 660 651 643 638 629 619 610 610 610 617 618 630 634 638 650 674 706 706 706 674 659 639 627 613 602 586 575 572 564 556 536 520 510 510 508 508 503 503 503 505 505 505 501 501 501 501 513 513 513 510 505 502 495 492 491 490 490 486 484 478 474 471 471 469 469 469 467 467
804 804 815 823 831 843 858 873 885 895 907 921 937 952 957 965 971 984 999 1009 1020 1033 1046 1058 1071 1082 1091 1091 1096 1099 1103 1106 1112 1118 1126 1133 1139 1147 1156 1166 1173 1182 1186 1193 1198 1199 1203 1207 1214 1222 1226 1227 1231 1235 1243 1251 1252 1255 1255 1255 1259 1267 1270 1276 1280 1286 1286 1288 1289 1289 1289 1289 1287 1286 1282 1282 1282 1289 1289 1289 1262 0 0 0 0 0 0 0 0 1027 1037 1047 1061 1063 1078 1093 1102 1112 1123 1131 1146 1148 1152 1157 1159 1163 1172 1179 1182 1187 1193 1206 1230 1233 1235 1235 1234 1233 1233 1233 1233 1235 1235 1235 1238 1238 1238 1240 0 0 0 0 0 1448 1472 1479 1489 1490 1497 1507 1517 1523 1527 1529 1530 1532 1534 1534 1535 1535 1537 1538 1541 1545 1549 1552 1556 1559 1562 1566 1569 1571 1574 1577 1579 1581 1583 1585 1586 1587 1590 1592 1593 1594 1595 1597 1597 1598 1598 1598 1598 1599 1599 1599 1599 1599 1599 1600 1600 1600 1602 1602 1604 1604 1605 1606 1608 1608 1608 1609 1610 1611 1611 1612 1614 1614 1614 1613 1611 1608 1608 1606 1606 1605 1603 1601 1599 1599 1599 1599 1601 1602 1603 1603 1604 1604 1604 1606 1607 1607 1609 1609 1609 1610 1611 1612 1613 1615 1616 1616 1616 1617 1618 1620 1621 1623 1625 1629 1631 1634 1637 1651 1666 1669 1672 1672 0 0 0 0 0 0 0 0 0 0 0 1815 1823 1830 1840 1849 1857 1857 1857 1854 0 0 0 0 0 0 0 0 0 0 0 0 0 0 0 0 0 0 0 0 0 0 0 0 0 0 0 0 0 0 0 0 0 0 0 0 0 0 0 0 0 0 0 0 0 0 0 0 0 0 0 0 0 0 0 0 0 0 0 0 0 0 0 0 0 0 0 0 0 0 0 0 0 0 0 0 0 1850 1852 1854 1861 1869 1876 1878 1879 1882 1882 1879 1874 1867 1862 1854 1842 1834 1833 1831 1830 1824 0 0 0 0 0 0 0 900 892 891 890 886 885 884 882 881 879 878 877 876 875 874 873 872 872 872 871 871 870 870 870 870 870 870 871 871 871 869 869 869 869 869 862 852 842 833 833 833 837 843 843 843 837 836 836 835 833 833 833 831 830 829 829 827 826 824 823 822 820 817 817 817 815 812 812 812 811 0 0 0 0 0 0 0 0 0 0 0 0 0 0 0 0 0 0 0 0 0 0 0 0 0 0 0 0 0 0 0 0 0 0 0 0 0 783 784 784 784 784 784 784 784 783 782 781 780 779 778 777 775 774 774 773 773 771 771 769 769 768 767 766 766 765 765 763 763 762 761 761 760 760 759 759 758 757 756 756 755 755 753 753 752 751 750 749 748 747 746 745 744 743 743 742 742 741 740 739 738 737 737 735 734 733 731 729 727 725 723 720 716 712 708 701 689 687 681 672 663 653 645 630 617 610 605 605 605 609 618 625 634 640 649 650 665 687 687 687 671 649 630 618 613 602 592 589 584 576 561 540 523 520 518 515 515 515 515 517 517 517 512 511 501 501 501 513 513 513 510 506 500 494 491 490 490 489 485 481 474 470 468 468 467 467 466 465 465
802 802 815 823 831 843 856 869 879 890 903 917 933 945 949 954 960 971 986 1002 1013 1027 1041 1054 1067 1079 1085 1091 1094 1098 1102 1105 1112 1118 1125 1131 1137 1145 1153 1161 1168 1176 1180 1187 1195 1199 1203 1207 1211 1217 1222 1223 1223 1229 1235 1244 1245 1248 1248 1248 1249 1255 1260 1266 1266 1272 1273 1274 1274 1279 1282 1282 1282 1273 1272 1272 1270 1270 1270 1257 1240 0 0 0 0 0 0 0 0 1027 1037 1049 1066 1069 1093 1115 1124 1132 1139 1146 1149 1166 1170 1171 1176 1183 1193 1199 1202 1205 1216 1238 1249 1251 1252 1253 1255 1257 1258 1261 1262 1262 1262 1264 1266 1266 1268 1270 0 0 0 0 1426 1446 1463 1476 1484 1490 1496 1503 1513 1521 1524 1526 1528 1529 1531 1531 1532 1533 1533 1536 1539 1542 1545 1550 1553 1557 1561 1564 1567 1569 1573 1575 1578 1580 1582 1584 1585 1586 1588 1590 1592 1593 1594 1595 1597 1597 1598 1598 1598 1598 1598 1598 1599 1599 1599 1599 1600 1600 1601 1602 1603 1604 1605 1606 1607 1607 1607 1608 1609 1611 1611 1611 1611 1611 1610 1609 1607 1606 1605 1603 1601 1597 1596 1595 1594 1594 1594 1595 1597 1598 1599 1601 1602 1602 1603 1604 1605 1607 1607 1609 1609 1610 1610 1610 1611 1613 1616 1616 1616 1617 1618 1620 1621 1623 1625 1629 1634 1640 1654 1668 1669 1669 1669 1667 0 0 0 0 0 0 0 0 0 0 0 0 1823 1829 1837 1842 1842 0 0 0 0 0 0 0 0 0 0 0 0 0 0 0 0 0 0 0 0 0 0 0 0 0 0 0 0 0 0 0 0 0 0 0 0 0 0 0 0 0 0 0 0 0 0 0 1127 1127 1127 1143 1153 1153 0 0 0 0 0 0 0 0 0 0 0 0 0 0 0 0 0 0 0 0 0 0 0 0 0 0 0 0 0 1851 1860 1869 1871 1874 1882 1883 1883 1883 1874 1867 1862 1854 1842 1834 1833 1831 1830 1824 1814 0 0 0 0 0 0 904 895 889 889 886 885 884 882 881 879 878 877 876 875 874 873 872 872 872 871 870 870 869 869 869 869 869 870 870 870 869 869 869 858 848 826 810 810 810 823 833 836 841 841 841 838 836 836 835 833 833 833 831 831 831 830 830 827 827 826 824 822 820 819 819 816 815 815 814 813 812 812 810 809 809 0 0 0 0 0 0 0 0 0 0 0 0 0 0 0 0 0 0 0 0 0 0 0 0 0 0 0 0 0 0 0 0 784 784 784 784 784 784 784 784 783 782 781 780 779 778 777 777 774 774 773 773 771 771 769 769 768 767 766 766 765 765 763 763 762 761 761 760 760 759 759 758 757 756 756 755 755 753 753 752 751 750 749 748 747 746 745 744 743 743 742 741 741 740 739 738 737 736 735 734 732 730 729 725 724 723 719 716 711 702 688 678 677 674 663 658 651 638 617 614 610 605 605 605 618 625 638 664 664 664 664 664 670 670 670 662 640 626 618 613 602 592 589 584 577 564 540 523 520 518 515 517 517 517 521 521 521 513 513 510 510 510 512 512 512 508 506 500 493 491 490 489 485 483 477 472 469 468 467 465 464 464 463 463
802 802 815 823 831 841 851 860 872 884 896 911 926 937 941 945 949 959 975 990 1003 1016 1031 1047 1061 1071 1079 1086 1090 1097 1101 1105 1112 1118 1125 1130 1136 1141 1148 1155 1161 1169 1174 1181 1190 1196 1202 1207 1210 1212 1214 1218 1218 1219 1227 1233 1237 1238 1240 1240 1241 1242 1246 1255 1263 1264 1268 1270 1271 1275 1280 1280 1280 1269 1268 1264 1258 1256 1253 1238 0 0 0 0 0 0 0 0 1015 1027 1035 1051 1076 1105 1109 1126 1138 1147 1154 1161 1166 1167 1171 1179 1186 1197 1209 1211 1211 1212 1222 1239 1252 1260 1262 1267 1275 1276 1284 1284 1284 1287 1287 1289 1291 1292 1295 1298 0 0 0 1418 1426 1440 1457 1472 1483 1490 1496 1502 1509 1516 1520 1522 1524 1526 1526 1529 1529 1530 1532 1534 1537 1540 1544 1547 1550 1554 1559 1563 1565 1567 1570 1573 1575 1577 1580 1582 1583 1585 1587 1589 1591 1592 1592 1594 1595 1597 1597 1598 1598 1598 1598 1598 1598 1598 1598 1599 1599 1600 1601 1602 1603 1604 1605 1606 1606 1606 1607 1608 1609 1610 1610 1610 1609 1608 1607 1606 1606 1604 1601 1599 1596 1594 1594 1592 1591 1591 1591 1593 1594 1596 1599 1601 1602 1602 1603 1604 1605 1607 1607 1609 1609 1610 1610 1610 1611 1613 1615 1616 1616 1617 1618 1620 1621 1624 1627 1632 1640 1653 1669 1669 1669 1665 1641 1631 0 0 0 0 0 0 0 0 0 0 0 0 0 0 0 0 0 0 0 0 0 0 0 0 0 0 0 0 0 0 0 0 0 0 0 0 0 0 0 0 0 0 0 0 0 0 0 1115 1115 1122 1134 1139 1144 1144 1144 1137 1133 1132 1130 1120 1119 1114 1112 1112 1110 1110 1110 1118 1118 1118 1107 1092 1090 1090 1092 1093 1114 1121 0 0 0 0 0 0 0 0 0 0 0 0 0 0 0 0 0 0 0 0 0 0 0 0 1868 1869 1871 1877 1877 1877 1874 1867 1862 1854 1842 1834 1830 1830 1830 1824 1814 0 0 0 0 0 0 910 897 890 889 886 884 884 882 881 879 878 877 876 874 874 873 872 871 871 868 868 868 868 869 869 869 868 868 868 867 867 862 862 852 832 825 810 810 810 821 831 832 840 840 840 838 836 836 835 834 833 833 833 832 832 832 830 827 827 826 824 822 821 821 819 819 816 815 814 813 812 812 811 811 810 810 810 810 809 809 808 807 804 804 0 0 0 0 0 0 0 0 0 0 0 0 0 0 0 0 0 0 0 0 784 784 784 784 784 785 785 784 784 783 782 782 782 781 780 779 778 777 777 775 775 773 773 772 771 770 769 768 767 766 766 765 765 763 763 762 761 761 760 760 759 759 758 757 756 756 755 755 753 753 752 751 750 749 748 747 746 745 744 743 743 742 741 741 739 738 738 737 736 734 733 732 729 728 725 722 722 719 716 706 694 687 677 675 674 655 646 643 633 617 614 610 610 610 615 627 627 644 666 666 666 669 669 663 663 663 649 635 620 615 613 602 592 589 584 577 564 536 523 523 521 518 517 517 517 521 521 521 518 516 514 514 514 514 514 511 507 506 499 492 490 489 487 482 479 474 471 469 467 466 463 462 462 462 462
795 795 797 810 822 832 841 847 857 870 884 903 921 929 931 935 939 948 960 976 990 1000 1020 1036 1049 1060 1070 1079 1088 1092 1098 1105 1112 1120 1125 1130 1134 1138 1140 1148 1154 1163 1171 1175 1184 1193 1200 1205 1207 1207 1209 1212 1213 1214 1218 1223 1228 1229 1230 1231 1232 1233 1236 1244 1253 1260 1265 1265 1265 1265 1259 1259 1259 1260 1260 1260 1255 1250 1240 1225 0 0 0 0 0 0 0 0 1017 1025 1034 1056 1077 1105 1113 1126 1138 1147 1154 1161 1166 1169 1174 1179 1190 1205 1217 1217 1219 1222 1224 1239 1252 1260 1266 1270 1277 1285 1288 1293 1296 1298 1301 1303 1304 1309 1317 1322 0 0 1409 1418 1426 1440 1455 1468 1482 1488 1496 1501 1507 1512 1515 1519 1520 1522 1524 1525 1528 1529 1530 1533 1535 1539 1542 1545 1548 1551 1556 1560 1564 1565 1568 1570 1573 1575 1578 1580 1582 1584 1586 1588 1590 1591 1592 1593 1594 1595 1596 1597 1597 1597 1597 1597 1597 1597 1598 1598 1599 1599 1600 1602 1602 1603 1604 1605 1605 1606 1607 1608 1609 1609 1609 1609 1609 1607 1606 1605 1604 1602 1600 1596 1594 1592 1591 1590 1590 1590 1590 1591 1592 1596 1599 1601 1602 1602 1603 1604 1605 1607 1608 1609 1609 1610 1610 1610 1611 1613 1615 1616 1616 1618 1622 1625 1628 1629 1631 1640 1652 1667 1669 1669 1669 1634 1615 1601 0 0 0 0 0 0 0 0 0 0 0 0 0 0 0 0 0 0 0 0 0 0 0 0 0 0 0 0 0 0 0 0 0 0 0 0 0 0 0 0 0 0 1175 1172 1160 1135 1107 1107 1107 1121 1132 1132 1132 1131 1131 1131 1131 1131 1130 1120 1112 1110 1102 1098 1098 1098 1102 1102 1102 1101 1085 1080 1076 1076 1076 1081 1094 1094 1097 1101 1100 1100 1100 1074 1052 1052 1052 1069 1069 1069 0 0 0 0 0 0 0 0 0 0 0 0 0 0 0 1872 1873 1873 1873 1867 1860 1850 1842 1834 1830 1823 1820 1816 1814 0 0 0 0 0 0 924 900 889 889 886 884 884 882 881 879 878 876 876 874 873 872 872 871 869 867 867 867 867 867 867 865 865 865 865 865 865 858 851 844 828 823 801 801 801 819 831 832 838 838 838 837 835 835 834 834 834 834 834 834 832 831 831 830 828 826 825 825 825 825 823 821 821 820 820 820 820 817 814 813 813 814 814 814 814 813 813 813 811 804 804 0 0 0 0 0 0 0 0 0 0 0 0 0 0 0 0 0 0 789 785 785 785 784 784 784 784 784 783 782 782 782 782 781 780 779 778 777 777 775 775 774 773 772 771 770 770 768 768 767 766 765 765 764 763 762 762 761 760 760 759 759 758 757 756 756 755 755 753 753 752 751 750 749 748 747 746 745 744 743 743 742 740 740 739 738 738 737 735 734 733 732 729 727 725 722 721 718 713 704 694 687 674 671 661 646 646 643 633 617 615 615 615 623 627 627 635 647 667 667 667 657 652 650 648 644 638 627 615 607 602 593 589 579 577 577 564 532 524 524 520 520 519 519 519 521 521 521 519 518 518 518 518 518 516 511 507 504 498 492 489 487 484 482 477 473 471 468 465 463 462 461 461 460 460
786 786 795 796 812 824 830 837 845 855 872 891 910 919 922 929 933 944 955 973 990 1000 1020 1032 1043 1050 1058 1070 1082 1089 1097 1105 1113 1120 1125 1130 1134 1134 1137 1141 1148 1156 1165 1169 1176 1186 1195 1199 1201 1203 1204 1208 1209 1209 1212 1214 1217 1220 1221 1224 1226 1229 1231 1237 1247 1255 1261 1261 1261 1259 1253 1253 1253 1256 1256 1256 1250 1239 1226 1209 0 0 0 0 0 0 0 1006 1017 1022 1034 1056 1079 1105 1113 1127 1138 1147 1154 1161 1166 1169 1174 1179 1190 1205 1217 1222 1227 1227 1229 1241 1252 1260 1266 1270 1277 1285 1288 1293 1296 1298 1301 1303 1304 1309 1319 1328 1328 1358 1409 1418 1423 1439 1454 1468 1480 1488 1492 1499 1503 1507 1510 1513 1516 1519 1522 1524 1526 1528 1530 1532 1534 1537 1540 1542 1545 1548 1553 1558 1561 1564 1565 1568 1571 1572 1576 1578 1581 1583 1585 1587 1589 1590 1591 1592 1593 1594 1595 1596 1596 1596 1596 1596 1596 1597 1598 1598 1598 1599 1600 1600 1602 1603 1603 1605 1605 1606 1607 1607 1608 1608 1608 1608 1607 1606 1604 1602 1602 1602 1599 1596 1593 1590 1590 1590 1590 1590 1590 1590 1592 1596 1599 1602 1603 1603 1604 1604 1605 1607 1608 1610 1610 1610 1610 1610 1612 1615 1616 1616 1616 1620 1626 1632 1633 1635 1635 1649 1664 1669 1669 1669 1641 1612 1587 1581 0 0 0 0 0 0 0 0 0 0 0 0 0 0 0 0 0 0 0 0 0 0 0 0 0 0 0 0 0 0 0 0 0 1173 1150 1150 1150 1152 1172 1178 1178 1178 1169 1167 1160 1135 1107 1107 1107 1121 1130 1130 1130 1127 1127 1127 1129 1129 1129 1120 1112 1110 1102 1098 1098 1098 1098 1098 1098 1090 1085 1080 1076 1060 1060 1060 1060 1060 1066 1075 1077 1077 1077 1051 1045 1045 1045 1058 1058 1058 1058 1058 0 0 0 0 0 0 0 0 0 0 0 0 0 0 0 1869 1869 1867 1860 1850 1841 1835 1830 1820 1818 1816 1814 0 0 0 0 0 0 924 901 889 889 886 885 884 882 880 879 878 876 875 874 872 872 871 870 868 867 867 867 866 866 862 860 860 855 859 859 857 855 847 843 828 823 810 810 810 820 824 827 828 830 832 834 834 834 834 834 834 834 834 834 833 832 832 831 829 826 826 826 825 825 824 823 822 822 822 823 822 821 820 814 814 814 816 816 816 817 817 815 814 813 811 811 811 807 807 805 802 802 802 803 803 803 798 798 797 797 796 795 795 792 788 786 786 786 785 784 784 784 783 782 782 782 782 781 780 779 778 777 777 776 775 774 773 772 771 771 770 769 768 767 766 765 765 764 763 762 762 761 760 760 759 759 758 757 756 756 755 754 753 753 752 751 750 749 748 747 746 745 744 743 742 742 740 739 739 738 737 736 735 734 732 730 729 727 725 722 721 718 713 704 694 687 674 660 654 646 646 643 633 620 615 615 615 623 627 639 649 656 674 674 674 657 640 634 632 630 626 625 611 597 580 569 565 557 551 546 544 532 525 524 520 520 519 519 519 521 521 521 520 518 518 518 518 518 516 510 507 503 495 488 483 482 480 477 474 473 471 466 462 461 460 460 458 458 458
785 785 794 795 802 810 814 815 823 844 863 882 899 911 919 929 933 944 955 973 990 1000 1020 1032 1039 1045 1053 1067 1079 1086 1095 1105 1113 1120 1125 1130 1133 1133 1134 1135 1144 1153 1161 1168 1172 1179 1183 1189 1196 1199 1202 1203 1203 1205 1207 1208 1210 1215 1221 1224 1226 1227 1228 1234 1243 1251 1258 1258 1258 1252 1249 1246 1246 1245 1241 1238 1238 1223 1208 0 0 0 0 0 0 0 995 1015 1018 1021 1034 1057 1082 1095 1113 1127 1133 1144 1148 1157 1164 1169 1174 1179 1190 1205 1217 1227 1229 1230 1230 1240 1251 1259 1266 1270 1277 1285 1288 1293 1296 1298 1301 1303 1304 1309 1319 1328 1328 1360 1409 1417 1423 1439 1453 1465 1473 1482 1488 1493 1498 1504 1506 1509 1512 1516 1518 1522 1524 1527 1529 1531 1534 1536 1539 1542 1543 1544 1547 1552 1558 1561 1564 1567 1569 1571 1574 1577 1580 1581 1584 1586 1589 1590 1591 1592 1593 1593 1594 1594 1594 1594 1595 1595 1596 1596 1596 1597 1597 1598 1599 1600 1601 1602 1603 1604 1604 1605 1606 1606 1607 1607 1607 1607 1605 1604 1601 1601 1601 1601 1599 1595 1592 1590 1590 1590 1590 1590 1590 1590 1592 1596 1599 1602 1603 1603 1604 1604 1605 1607 1609 1611 1612 1612 1612 1612 1615 1617 1617 1618 1619 1621 1627 1633 1639 1640 1648 1663 1670 1670 1670 1649 1617 1595 1582 1539 0 0 0 0 0 0 0 0 0 0 0 0 0 0 0 0 0 0 0 0 0 0 0 0 0 0 0 1150 1150 1155 1164 1164 1164 1162 1150 1150 1150 1152 1161 1171 1171 1171 1168 1161 1160 1159 1138 1121 1121 1121 1128 1128 1128 1127 1127 1127 1129 1129 1129 1125 1117 1110 1102 1098 1098 1098 1097 1097 1097 1090 1085 1080 1076 1055 1055 1055 1055 1055 1056 1066 1062 1062 1062 1050 1042 1042 1042 1048 1048 1048 1035 1034 1034 1035 1044 1051 0 0 0 0 0 0 0 0 0 0 0 0 0 1853 1853 1848 1839 1833 1831 1820 1816 1810 1801 0 0 0 0 0 0 926 902 892 891 887 885 884 882 880 878 877 875 874 873 872 869 869 867 867 867 865 863 863 860 853 853 852 852 852 851 847 845 845 843 828 825 814 814 814 820 821 822 823 828 830 832 832 832 832 834 834 834 834 834 833 832 832 831 830 829 828 828 827 827 826 826 825 824 824 824 824 824 822 820 816 816 816 818 820 825 825 826 826 826 825 825 824 821 821 816 812 809 808 808 805 805 804 800 799 799 798 797 796 793 789 786 786 786 786 784 784 784 783 782 782 782 782 781 780 779 778 777 777 776 775 774 773 773 771 771 770 769 768 767 766 765 765 764 763 763 762 761 760 760 759 759 758 757 756 756 755 754 753 753 752 751 750 750 748 747 746 745 744 743 742 742 740 739 738 738 737 736 734 733 731 729 728 726 725 722 720 717 711 704 694 687 672 654 650 648 646 643 633 620 615 615 615 623 627 639 674 675 682 682 675 654 638 634 632 626 625 622 609 589 563 559 547 540 535 522 522 522 525 525 525 520 520 520 522 522 522 521 520 518 518 518 518 518 513 510 506 501 491 482 481 481 477 474 473 472 468 463 460 459 458 457 455 455 455
785 785 794 795 802 808 814 815 817 836 857 876 892 906 919 929 933 944 955 973 990 1006 1021 1030 1039 1044 1052 1067 1079 1085 1093 1102 1112 1119 1124 1129 1130 1130 1131 1133 1139 1151 1161 1167 1170 1175 1180 1184 1192 1196 1199 1200 1201 1202 1204 1207 1210 1215 1220 1223 1226 1227 1228 1231 1241 1248 1248 1249 1249 1248 1246 1241 1235 1228 1227 1223 1222 1201 0 0 0 0 0 0 0 0 1019 1021 1021 1024 1041 1063 1082 1095 1112 1125 1131 1140 1148 1150 1155 1160 1166 1176 1189 1204 1217 1227 1229 1230 1232 1239 1249 1256 1261 1265 1269 1272 1274 1277 1283 1289 1293 1293 1295 1304 1319 1328 1330 1365 1407 1415 1422 1433 1451 1461 1470 1474 1480 1487 1494 1501 1504 1507 1510 1512 1516 1520 1523 1526 1527 1530 1533 1534 1537 1539 1541 1543 1544 1549 1555 1559 1562 1564 1568 1571 1573 1574 1577 1578 1581 1585 1586 1589 1590 1591 1592 1592 1592 1592 1593 1593 1593 1594 1595 1595 1595 1595 1597 1598 1598 1599 1600 1602 1602 1602 1603 1604 1605 1606 1606 1606 1606 1606 1604 1602 1600 1600 1600 1599 1596 1594 1592 1589 1589 1588 1588 1589 1589 1590 1593 1596 1599 1602 1603 1603 1604 1604 1605 1607 1609 1611 1612 1613 1613 1614 1617 1620 1620 1621 1621 1624 1631 1639 1640 1641 1649 1678 1678 1678 1666 1633 1602 0 0 0 0 0 0 0 0 0 0 0 0 0 0 0 0 0 0 0 0 0 0 0 0 1163 1142 1142 1141 1141 1141 1135 1135 1135 1154 1157 1157 1157 1150 1149 1149 1149 1160 1160 1160 1161 1160 1159 1159 1159 1138 1133 1133 1132 1131 1131 1125 1123 1123 1123 1127 1127 1127 1125 1120 1111 1107 1102 1100 1100 1098 1097 1093 1093 1093 1093 1093 1069 1056 1056 1055 1055 1056 1065 1057 1057 1057 1050 1042 1041 1040 1030 1015 1015 1015 1019 1022 1029 1042 1051 1056 1059 0 0 0 0 0 0 0 0 0 0 0 0 0 1833 1833 1833 1831 1831 1819 1810 1787 0 0 0 0 0 0 926 901 892 892 891 887 885 882 880 876 875 874 873 873 872 866 861 860 860 860 860 859 852 843 841 841 841 842 842 844 845 842 840 835 834 828 818 818 818 820 820 820 820 820 827 830 831 831 831 833 833 833 833 833 832 832 832 831 830 829 829 828 828 828 827 827 826 825 824 824 824 825 825 825 822 820 820 820 826 828 829 829 829 829 831 831 831 829 827 826 821 821 819 814 811 809 805 801 801 800 799 799 796 794 789 786 786 786 786 784 784 784 783 782 782 782 782 781 780 780 779 778 777 777 776 775 774 773 772 772 771 770 769 767 767 766 765 765 763 763 762 761 761 760 759 759 758 757 756 756 755 754 753 753 752 751 750 750 748 747 746 745 744 743 742 742 740 739 738 737 736 735 733 732 731 729 727 726 724 722 719 716 709 703 694 687 669 656 654 648 648 643 633 620 609 609 609 611 611 639 683 692 692 692 683 654 638 634 628 626 618 0 0 576 553 550 534 526 523 513 513 513 521 528 529 529 529 528 525 523 522 521 520 517 516 516 516 516 513 508 505 499 491 482 481 481 476 474 473 468 463 460 458 457 455 455 454 453 453
785 785 794 795 802 805 808 809 814 828 851 873 889 905 919 934 945 949 961 974 996 1013 1021 1030 1037 1041 1052 1066 1079 1083 1089 1093 1102 1114 1121 1126 1128 1129 1130 1132 1138 1149 1158 1165 1169 1172 1176 1180 1188 1192 1196 1199 1200 1202 1204 1207 1210 1214 1219 1222 1225 1227 1227 1230 1237 1237 1237 1240 1240 1239 1239 1239 1232 1226 1218 1205 0 0 0 0 0 0 0 0 0 1026 1026 1026 1043 1043 1048 1065 1082 1094 1109 1118 1130 1137 1144 1148 1150 1156 1164 1171 1182 1195 1208 1220 1226 1230 1232 1238 1247 1254 1257 1257 1257 1257 1259 1265 1272 1276 1283 1284 1286 1291 1301 1317 1329 1367 1398 1413 1422 1431 1441 1458 1465 1470 1476 1484 1494 1497 1501 1505 1507 1510 1513 1517 1523 1526 1527 1529 1530 1532 1533 1536 1538 1541 1543 1547 1551 1556 1559 1562 1566 1569 1570 1573 1574 1576 1577 1581 1584 1585 1588 1589 1590 1591 1591 1592 1592 1592 1592 1592 1593 1593 1593 1595 1596 1597 1598 1599 1600 1601 1601 1601 1602 1603 1604 1604 1605 1605 1605 1604 1602 1600 1599 1599 1599 1597 1595 1594 1591 1589 1587 1587 1587 1587 1589 1590 1593 1596 1598 1599 1600 1600 1602 1604 1605 1607 1609 1612 1614 1615 1616 1617 1619 1622 1624 1624 1625 1629 1638 1645 1653 1654 1669 1678 1678 1678 1639 1607 1593 0 0 0 0 0 0 0 0 0 0 0 0 0 0 0 0 0 0 0 0 1200 1182 1176 1175 1163 1142 1142 1141 1141 1141 1134 1134 1134 1148 1154 1154 1154 1150 1149 1149 1149 1155 1155 1155 1144 1144 1144 1144 1144 1139 1138 1138 1137 1135 1132 1125 1119 1119 1119 1122 1125 1125 1125 1120 1113 1107 1105 1101 1097 1095 1093 1093 1093 1105 1105 1105 1085 1065 1065 1065 1067 1067 1067 1066 1065 1057 1050 1046 1045 1038 1027 1015 1015 1015 1018 1022 1029 1042 1050 1051 1051 1051 1051 0 0 0 0 0 0 0 0 0 0 0 0 1825 1826 1833 1833 1833 1810 1784 0 0 0 0 0 0 924 900 896 894 891 887 885 881 879 875 873 873 870 870 867 861 858 852 849 838 825 821 821 825 825 834 841 841 841 842 842 839 839 835 832 829 824 823 822 821 821 820 820 820 823 828 830 830 831 832 833 833 833 833 832 832 832 831 830 829 829 829 828 828 827 827 826 826 825 825 825 825 825 825 824 824 824 826 828 828 829 829 829 829 831 836 838 840 840 840 833 829 825 823 821 818 813 806 806 806 803 801 797 794 789 787 787 786 786 785 785 784 784 783 782 782 782 781 780 780 779 778 777 777 776 776 775 774 773 772 771 770 769 768 767 766 765 765 764 763 762 761 761 760 759 759 758 757 756 756 755 754 753 752 752 751 750 749 748 747 746 745 744 743 742 741 740 739 738 736 736 734 733 731 730 728 727 725 724 721 719 715 708 698 689 679 664 656 654 648 648 640 631 617 607 607 605 605 605 0 0 702 702 702 684 654 638 634 628 625 604 0 0 550 538 535 526 519 516 512 512 512 521 528 529 529 529 528 526 523 522 522 521 518 516 515 515 512 509 504 500 496 491 482 481 478 476 474 469 463 461 458 455 453 452 452 451 450 450
785 785 793 795 802 802 808 809 809 828 851 873 889 905 920 937 952 956 966 979 999 1013 1021 1029 1029 1038 1052 1066 1066 1069 1070 1070 1082 1103 1113 1120 1124 1126 1127 1132 1138 1147 1154 1160 1163 1165 1171 1174 1180 1183 1189 1195 1200 1202 1204 1207 1209 1213 1219 1222 1225 1225 1226 1228 1233 1233 1234 1238 1238 1238 1238 1238 1230 1223 1211 1185 0 0 0 0 0 0 0 0 0 1032 1049 1049 1052 1052 1052 1070 1084 1094 1105 1118 1128 1135 1142 1145 1147 1152 1160 1168 1177 1186 1197 1209 1218 1226 1232 1238 1244 1252 1252 1252 1253 1253 1256 1264 1272 1276 1282 1282 1283 1284 1295 1312 1329 1367 1392 1411 1422 1431 1441 1454 1463 1469 1474 1482 1492 1494 1497 1501 1507 1509 1511 1517 1523 1525 1527 1529 1530 1531 1531 1534 1537 1539 1542 1545 1549 1553 1556 1559 1563 1566 1568 1570 1571 1573 1575 1578 1581 1583 1585 1587 1589 1589 1590 1590 1590 1591 1591 1591 1591 1592 1592 1593 1595 1596 1597 1598 1599 1599 1600 1600 1601 1602 1603 1603 1603 1603 1603 1602 1601 1600 1599 1598 1597 1596 1595 1593 1591 1588 1587 1587 1587 1587 1589 1590 1593 1594 1595 1595 1597 1599 1602 1604 1606 1608 1609 1613 1615 1617 1619 1619 1621 1624 1626 1626 1629 1634 1642 1648 1654 1665 1685 1685 1685 1673 1638 1604 0 0 0 0 1177 1177 0 0 0 0 0 0 0 1205 1205 1205 1189 1189 1189 1185 1185 1185 1175 1172 1172 1163 1151 1145 1142 1141 1141 1134 1134 1134 1140 1154 1154 1154 1150 1149 1149 1149 1149 1149 1140 1130 1130 1130 1132 1134 1138 1139 1139 1139 1139 1132 1125 1118 1117 1117 1118 1121 1121 1121 1120 1114 1108 1106 1102 1098 1093 1093 1093 1098 1113 1113 1113 1095 1077 1073 1073 1073 1073 1073 1073 1065 1057 1053 1046 1045 1038 1027 1015 1015 1015 1015 1022 1029 1039 1046 1048 1048 1048 1037 1027 1025 0 0 0 0 0 0 0 0 0 0 0 0 1833 1833 1833 1810 0 0 0 0 0 0 0 922 897 896 896 891 888 885 881 879 875 873 873 870 867 860 860 848 828 813 792 792 792 795 805 820 832 837 837 837 820 820 820 830 830 830 829 824 823 823 821 821 816 816 816 819 824 826 827 830 831 832 832 832 832 832 832 832 832 831 829 829 829 828 828 827 827 827 826 826 826 826 826 826 826 825 825 825 826 828 829 829 831 831 831 832 837 841 841 841 841 837 833 832 831 831 829 822 817 813 807 805 802 798 795 792 791 787 787 786 786 785 785 784 784 782 782 782 781 781 780 779 779 777 777 777 776 775 774 773 773 772 771 770 768 767 767 766 765 764 763 762 761 761 760 759 759 758 757 756 756 755 754 753 752 751 751 750 749 748 747 746 745 744 743 742 742 740 739 737 736 734 734 732 731 729 727 726 724 722 721 718 715 707 689 661 658 654 654 652 647 642 628 617 612 607 607 605 605 605 0 0 703 703 703 684 655 639 634 628 617 590 559 547 544 537 533 524 515 513 512 512 512 521 528 530 530 530 529 527 527 527 527 523 518 515 515 512 510 506 502 498 496 491 484 481 478 473 470 465 463 460 458 453 450 449 449 448 448 448
779 779 784 792 795 795 808 809 809 828 851 873 889 905 922 944 959 964 974 986 1002 1013 1019 1020 1025 1033 1047 1051 1052 1055 1055 1055 1068 1090 1105 1110 1117 1124 1127 1132 1138 1147 1150 1152 1154 1156 1156 1161 1166 1171 1179 1189 1196 1202 1204 1207 1208 1210 1214 1217 1218 1220 1222 1226 1231 1231 1232 1234 1234 1237 1237 1237 1229 1218 1208 0 0 0 0 0 0 924 929 951 991 1032 1054 1054 1058 1058 1058 1071 1086 1095 1105 1116 1124 1128 1136 1139 1144 1151 1159 1165 1173 1182 1192 1199 1210 1219 1226 1233 1242 1249 1249 1249 1249 1249 1256 1264 1272 1276 1281 1282 1283 1284 1295 1306 1329 1367 1391 1410 1422 1430 1441 1451 1460 1466 1473 1481 1487 1491 1495 1499 1502 1506 1508 1515 1522 1525 1527 1529 1530 1531 1531 1533 1536 1538 1540 1543 1547 1550 1553 1555 1559 1561 1563 1565 1568 1570 1574 1576 1579 1582 1584 1586 1587 1587 1588 1589 1589 1590 1590 1591 1591 1591 1592 1593 1593 1595 1596 1598 1598 1598 1599 1599 1600 1601 1602 1602 1602 1602 1601 1600 1600 1599 1599 1597 1596 1595 1595 1592 1591 1588 1587 1586 1586 1586 1588 1589 1591 1592 1592 1594 1596 1599 1602 1604 1608 1610 1611 1614 1618 1621 1623 1624 1625 1627 1629 1633 1637 1641 1643 1648 1662 1684 1684 1684 1679 1640 1606 0 0 0 0 0 1174 1168 1168 1155 1155 1145 1145 1145 1172 1185 1185 1185 1178 1173 1173 1170 1170 1170 1170 1169 1166 1163 1159 1154 1148 1146 1144 1138 1135 1135 1135 1146 1146 1146 1142 1138 1138 1138 1136 1136 1133 1129 1129 1129 1130 1132 1136 1139 1143 1143 1143 1140 1133 1125 1119 1118 1118 1118 1118 1118 1117 1113 1109 1107 1103 1098 1093 1093 1093 1105 1113 1113 1113 1095 1082 1073 1073 1073 1076 1076 1076 1067 1061 1055 1054 1046 1038 1027 1024 1021 1021 1021 1028 1035 1039 1046 1046 1046 1044 1037 1026 1020 1020 1020 0 0 0 0 0 0 0 0 0 0 0 0 0 0 0 0 0 0 0 0 0 917 896 896 890 890 888 884 881 879 875 873 869 866 861 860 851 832 818 813 792 791 791 791 801 818 831 831 831 826 816 816 816 818 823 823 823 824 823 823 821 821 815 814 814 814 815 822 827 829 830 831 831 832 832 832 832 832 832 831 831 830 829 828 828 828 828 827 826 826 826 826 826 826 826 826 827 827 827 828 829 830 831 831 831 833 838 841 841 842 843 843 843 843 843 838 832 828 823 819 813 806 802 798 795 792 791 788 787 787 786 785 785 784 784 783 783 782 781 781 780 780 779 778 778 777 777 775 775 774 773 772 771 770 769 768 767 766 766 764 763 762 762 761 760 759 759 758 757 756 756 755 754 753 752 751 750 750 749 748 747 746 745 744 743 742 742 740 739 737 735 734 733 732 731 729 727 725 723 722 721 718 715 706 689 661 654 650 645 643 642 629 614 609 607 607 606 605 605 605 0 683 703 703 703 684 661 639 630 617 601 578 559 547 544 534 531 523 513 511 511 511 515 521 528 532 532 532 529 529 529 527 527 523 518 515 515 510 509 505 502 498 495 491 484 481 478 471 466 465 462 460 454 449 447 447 446 445 444 444
779 779 784 792 795 795 803 809 816 834 863 878 891 908 925 947 966 979 980 986 1002 1011 1012 1013 1014 1025 1038 1046 1046 1047 1048 1054 1058 1082 1098 1106 1117 1123 1127 1133 1138 1145 1145 1145 1145 1145 1149 1153 1160 1164 1171 1181 1192 1200 1201 1201 1201 1201 1201 1202 1207 1209 1216 1222 1229 1231 1232 1232 1233 1232 1232 1227 1215 1209 1196 0 0 0 0 0 924 924 934 975 1003 1032 1054 1054 1060 1062 1062 1074 1086 1097 1105 1116 1124 1128 1132 1138 1144 1151 1159 1165 1172 1182 1190 1198 1206 1214 1222 1231 1238 1242 1242 1246 1247 1247 1256 1265 1274 1276 1279 1279 1280 1280 1288 1298 1326 1355 1380 1396 1421 1429 1440 1448 1456 1462 1470 1477 1486 1490 1493 1496 1498 1500 1504 1512 1521 1525 1527 1528 1529 1531 1531 1533 1534 1536 1538 1541 1544 1548 1550 1553 1557 1559 1560 1563 1565 1569 1572 1575 1579 1581 1582 1584 1585 1586 1587 1588 1588 1588 1589 1589 1590 1590 1591 1591 1591 1593 1594 1595 1596 1596 1597 1597 1599 1600 1600 1600 1600 1600 1600 1600 1599 1599 1598 1597 1596 1595 1593 1592 1590 1587 1586 1586 1586 1586 1588 1588 1588 1589 1591 1593 1595 1598 1602 1605 1608 1611 1614 1617 1620 1624 1629 1630 1631 1633 1637 1640 1643 1646 1650 1661 1686 1686 1686 1683 1645 0 0 0 0 0 0 0 1127 1127 1154 1154 1154 1135 1135 1135 1156 1168 1168 1168 1167 1159 1158 1151 1151 1151 1153 1155 1159 1159 1159 1154 1152 1152 1146 1138 1135 1135 1135 1146 1146 1146 1142 1138 1136 1136 1134 1133 1130 1129 1129 1129 1130 1132 1136 1139 1147 1149 1149 1149 1144 1136 1125 1116 1115 1114 1114 1114 1114 1112 1111 1107 1103 1098 1095 1095 1095 1105 1113 1113 1113 1095 1082 1073 1073 1073 1076 1076 1076 1070 1062 1057 1056 1050 1039 1031 1028 1024 1024 1024 1031 1035 1039 1039 1039 1039 1035 1030 1020 1020 1020 1020 1036 0 0 0 0 0 0 0 0 0 0 0 0 0 0 0 0 0 0 0 0 911 894 887 886 886 886 882 880 880 878 873 860 858 852 844 837 830 809 801 789 788 788 788 801 810 828 828 828 823 815 806 806 806 812 823 823 823 819 819 819 816 814 811 811 811 812 822 825 827 828 830 830 831 832 832 832 832 832 831 831 831 831 830 830 829 828 827 827 827 827 827 827 827 827 827 827 827 827 828 831 831 833 834 834 835 838 842 842 843 843 844 844 844 843 838 833 829 824 819 813 807 802 799 795 792 791 788 788 787 786 786 785 784 784 784 784 783 783 782 781 781 780 780 779 778 777 777 776 775 774 774 772 771 770 769 768 767 766 766 764 763 762 761 761 760 759 758 757 756 755 755 753 753 751 750 750 750 749 748 747 746 745 744 743 742 741 739 738 737 735 734 733 732 730 728 727 725 723 722 720 718 715 706 689 661 654 649 640 635 630 619 608 605 605 604 604 605 607 621 0 681 697 697 697 684 661 639 619 599 589 578 559 547 544 532 531 522 513 513 513 515 518 521 523 529 529 530 530 530 530 530 528 524 518 515 512 509 509 503 497 497 494 491 484 481 472 467 464 463 460 454 448 445 445 444 444 443 442 442
779 779 784 792 795 795 803 809 817 834 864 878 891 908 925 947 966 979 980 986 1002 1006 1007 1007 1008 1017 1028 1038 1043 1043 1044 1054 1058 1080 1094 1106 1117 1123 1128 1134 1140 1142 1142 1142 1142 1142 1148 1152 1157 1161 1165 1172 1184 1194 1194 1194 1192 1192 1192 1198 1202 1208 1211 1218 1223 1226 1227 1227 1227 1226 1225 1208 1188 1174 1166 0 0 0 0 907 907 942 967 983 1003 1024 1043 1054 1054 1055 1062 1074 1086 1097 1105 1113 1124 1128 1132 1138 1144 1151 1159 1165 1171 1180 1189 1198 1205 1211 1220 1227 1234 1238 1238 1240 1241 1241 1256 1265 1275 1276 1277 1277 1280 1280 1288 1298 1314 1336 1361 1391 1420 1428 1436 1443 1450 1459 1468 1475 1484 1490 1493 1494 1496 1499 1503 1510 1517 1524 1527 1528 1529 1531 1531 1533 1534 1534 1536 1539 1543 1546 1548 1551 1554 1557 1558 1561 1564 1568 1571 1574 1577 1579 1581 1583 1583 1584 1585 1586 1587 1587 1587 1587 1588 1588 1588 1589 1590 1591 1592 1593 1594 1594 1595 1597 1598 1599 1599 1600 1600 1600 1599 1599 1599 1598 1598 1597 1596 1594 1593 1591 1590 1587 1586 1586 1586 1586 1587 1587 1588 1589 1590 1593 1595 1598 1601 1605 1608 1612 1615 1618 1623 1627 1629 1630 1633 1637 1640 1641 1644 1651 1656 1670 1686 1686 1686 1665 0 0 0 0 0 0 0 1122 1122 1122 1145 1145 1145 1134 1134 1134 1150 1150 1150 1145 1144 1142 1125 1125 1125 1128 1133 1140 1148 1154 1154 1154 1152 1152 1146 1138 1135 1135 1135 1146 1146 1146 1142 1137 1136 1136 1134 1133 1131 1131 1131 1131 1134 1135 1136 1147 1154 1157 1157 1157 1148 1136 1125 1116 1112 1110 1110 1110 1112 1112 1112 1110 1108 1105 1102 1102 1102 1105 1112 1112 1112 1095 1082 1071 1071 1071 1073 1073 1073 1070 1064 1062 1061 1056 1048 1041 1036 1030 1030 1030 1032 1034 1035 1035 1034 1034 1029 1018 1008 1008 1008 1020 1036 1038 1038 1038 0 0 0 0 0 0 0 0 0 0 0 0 0 0 0 0 0 905 897 887 884 879 879 878 879 878 877 873 860 851 850 841 835 829 809 798 789 783 783 783 794 809 827 827 827 822 809 806 806 806 812 818 818 818 815 810 805 805 803 803 803 803 808 815 821 824 826 828 828 830 831 832 832 832 832 832 832 832 831 831 831 829 829 829 829 829 829 828 828 828 828 828 828 828 829 829 831 832 833 836 837 838 841 842 843 843 843 844 844 844 843 840 835 830 825 821 813 807 803 799 795 792 791 789 788 787 786 786 785 785 785 784 784 783 783 782 782 781 781 780 780 779 778 777 777 776 776 774 773 771 771 770 769 767 767 766 764 764 762 762 761 760 759 758 757 756 755 754 753 752 751 750 750 749 749 747 746 745 745 744 743 742 740 739 737 736 735 734 733 732 729 728 726 725 723 722 720 717 712 704 688 663 654 648 636 630 624 616 602 602 602 603 604 605 608 621 645 672 692 692 692 682 661 618 607 599 589 578 567 553 549 534 523 514 514 514 516 516 516 516 516 523 529 529 530 531 531 530 528 524 521 516 512 509 504 499 497 496 494 487 480 476 470 466 463 460 454 449 444 444 443 443 443 440 440 440
786 786 793 800 801 803 809 815 827 844 864 878 891 908 925 947 966 979 980 983 987 993 1000 1003 1008 1014 1024 1034 1040 1042 1043 1054 1058 1080 1094 1106 1118 1123 1129 1137 1140 1142 1142 1142 1142 1142 1148 1151 1157 1159 1161 1164 1169 1171 1172 1175 1176 1184 1191 1196 1201 1205 1207 1213 1217 1217 1217 1215 1213 1212 1206 1191 1169 1158 0 0 0 0 893 893 907 942 967 983 1003 1015 1029 1039 1043 1049 1062 1074 1086 1097 1105 1113 1124 1128 1132 1138 1148 1154 1160 1164 1170 1178 1189 1197 1204 1211 1219 1224 1228 1230 1230 1231 1232 1239 1256 1265 1273 1275 1275 1275 1275 1275 1288 1296 1298 1316 1348 1389 1417 1428 1431 1436 1445 1453 1462 1471 1481 1487 1489 1491 1494 1498 1502 1507 1512 1519 1524 1527 1529 1531 1531 1531 1532 1534 1536 1539 1541 1543 1547 1549 1552 1555 1558 1560 1562 1565 1568 1571 1574 1578 1580 1581 1582 1583 1583 1584 1585 1585 1585 1586 1586 1586 1586 1587 1588 1589 1590 1591 1591 1592 1594 1595 1597 1599 1599 1599 1599 1599 1599 1599 1599 1598 1598 1597 1595 1594 1592 1590 1590 1587 1586 1585 1585 1585 1585 1585 1586 1588 1590 1592 1595 1597 1601 1605 1609 1612 1617 1620 1623 1628 1629 1630 1633 1637 1640 1641 1646 1655 1663 1678 1684 1684 1684 1653 0 0 0 0 0 0 1118 1118 1118 1127 1127 1127 1127 1127 1127 1128 1141 1142 1144 1144 1142 1109 1097 1097 1097 1113 1127 1135 1141 1144 1149 1149 1149 1149 1146 1134 1134 1134 1136 1149 1149 1149 1142 1137 1136 1133 1133 1133 1133 1138 1141 1141 1141 1141 1141 1150 1159 1159 1159 1158 1148 1136 1125 1114 1110 1110 1110 1110 1113 1113 1114 1115 1115 1115 1111 1102 1102 1102 1110 1110 1110 1094 1077 1063 1062 1062 1062 1068 1068 1068 1064 1062 1062 1061 1059 1053 1046 1042 1036 1034 1034 1033 1034 1034 1033 1032 1029 1018 1008 1008 1008 1028 1033 1033 1033 1017 1017 1017 0 0 0 0 0 0 0 0 0 0 0 0 0 0 0 905 899 892 887 855 855 855 873 873 873 873 860 848 844 839 834 821 806 798 781 781 781 781 786 787 787 787 799 806 806 806 806 806 807 813 813 813 806 800 796 796 796 796 797 797 797 804 810 814 820 826 828 829 830 831 832 833 835 835 835 835 834 832 832 832 831 830 830 830 829 829 830 830 829 830 830 830 830 830 832 832 833 836 837 839 841 843 843 844 845 845 845 845 842 840 836 832 825 821 813 807 804 799 795 792 792 790 789 789 787 787 786 786 786 786 785 784 783 783 782 782 781 780 780 779 778 778 778 778 776 776 775 773 772 771 770 769 768 766 764 764 763 762 761 760 759 758 757 755 754 753 753 751 750 749 749 749 748 747 746 745 745 744 743 742 740 739 737 736 735 734 732 731 729 728 726 725 723 722 720 717 712 701 688 676 658 644 627 621 616 614 599 599 599 601 601 604 609 622 641 664 685 685 685 680 0 617 602 597 589 580 569 565 550 535 523 515 515 515 519 519 519 512 512 512 524 528 530 531 531 530 527 523 521 516 512 504 500 497 496 495 491 485 479 475 470 464 461 456 450 444 443 443 442 442 441 438 437 437
795 795 804 810 812 814 816 824 834 845 863 876 890 897 918 939 953 964 964 968 973 980 990 1002 1007 1013 1021 1030 1039 1041 1047 1054 1075 1080 1094 1111 1121 1129 1133 1137 1140 1142 1142 1142 1142 1142 1148 1151 1156 1158 1158 1158 1161 1165 1166 1168 1176 1183 1190 1195 1201 1203 1206 1207 1208 1208 1208 1206 1204 1202 1198 1185 1158 0 0 0 0 0 904 904 908 943 967 983 998 1009 1019 1027 1036 1046 1057 1072 1085 1094 1102 1113 1125 1136 1143 1145 1148 1154 1160 1164 1170 1178 1183 1193 1200 1206 1214 1220 1224 1225 1225 1225 1226 1235 1254 1265 1265 1267 1267 1264 1264 1267 1270 1276 1279 1296 1324 1378 1416 1428 1431 1436 1444 1450 1457 1465 1473 1481 1485 1486 1490 1496 1501 1505 1509 1514 1520 1524 1527 1527 1529 1529 1531 1533 1535 1538 1540 1542 1545 1547 1550 1553 1556 1558 1561 1564 1566 1569 1572 1575 1578 1579 1581 1581 1581 1582 1582 1583 1583 1583 1583 1584 1584 1584 1585 1587 1587 1589 1590 1590 1592 1594 1595 1595 1597 1597 1597 1598 1598 1598 1598 1597 1597 1595 1594 1592 1591 1590 1589 1586 1586 1584 1582 1582 1582 1583 1585 1587 1589 1592 1594 1596 1600 1605 1609 1613 1617 1620 1624 1628 1629 1630 1633 1637 1640 1643 1649 1660 1677 1681 1681 1681 1672 0 0 0 0 0 0 1121 1121 1121 1125 1128 1128 1128 1124 1118 1118 1115 1115 1115 1114 1114 1108 1108 1097 1097 1097 1112 1127 1134 1139 1140 1141 1142 1142 1142 1136 1131 1131 1131 1142 1154 1154 1154 1145 1138 1136 1135 1134 1134 1135 1138 1144 1144 1144 1145 1149 1151 1165 1165 1165 1158 1148 1134 1118 1111 1109 1109 1109 1109 1110 1116 1118 1120 1120 1120 1118 1100 1100 1100 1098 1098 1098 1078 1063 1062 1062 1062 1062 1063 1064 1064 1063 1064 1064 1062 1061 1061 1055 1051 1045 1043 1037 1033 1033 1033 1031 1031 1029 1018 1018 1018 1021 1026 1026 1026 1022 1015 1004 1004 1004 0 0 0 0 0 0 0 0 0 0 0 0 0 0 904 899 893 870 853 853 853 859 861 861 859 854 843 834 827 813 811 801 794 777 771 771 771 777 777 778 779 779 791 800 801 805 806 807 807 807 806 799 791 791 791 794 794 794 796 796 796 798 803 812 821 825 828 829 831 832 833 835 835 835 835 835 835 834 833 833 832 832 832 831 831 831 831 831 831 831 831 831 831 832 833 835 836 838 839 842 843 843 844 845 845 845 844 842 838 836 832 825 821 813 807 804 799 796 793 793 791 791 790 789 788 788 787 786 786 786 785 784 783 783 782 781 781 781 779 779 779 778 778 777 777 776 775 772 772 771 771 768 766 764 764 763 762 762 760 759 757 756 755 753 753 751 750 749 749 748 748 747 746 746 745 744 744 743 741 739 738 737 736 735 733 732 731 729 728 726 724 723 721 720 717 712 701 692 676 658 634 606 606 604 604 597 596 596 596 600 603 609 622 641 656 673 673 673 669 634 616 598 588 587 580 572 565 551 535 527 527 527 536 536 536 519 512 512 512 520 527 530 530 530 529 525 522 521 516 508 502 497 496 495 494 489 483 479 473 469 463 458 453 448 443 442 440 440 439 438 436 436 436
795 795 806 812 816 820 821 827 834 845 862 872 886 896 917 931 943 949 954 959 965 972 982 994 1004 1013 1021 1028 1036 1042 1047 1061 1076 1082 1094 1111 1121 1129 1133 1138 1140 1142 1143 1143 1143 1143 1148 1151 1152 1152 1153 1153 1154 1159 1162 1166 1175 1183 1189 1192 1194 1194 1197 1199 1200 1200 1200 1199 1198 1196 1190 1169 0 0 0 0 0 882 882 905 908 947 967 980 996 1008 1014 1023 1030 1040 1051 1063 1078 1089 1101 1111 1125 1136 1143 1145 1148 1154 1160 1163 1168 1177 1183 1188 1191 1199 1207 1214 1218 1219 1220 1220 1224 1233 1248 1263 1263 1263 1263 1260 1260 1260 1262 1263 1263 1278 1303 0 1407 1425 1431 1436 1444 1450 1457 1465 1469 1472 1478 1483 1487 1493 1499 1504 1507 1509 1513 1518 1523 1524 1525 1527 1529 1531 1534 1536 1538 1541 1543 1545 1548 1550 1554 1558 1559 1563 1564 1567 1571 1573 1576 1579 1579 1580 1580 1580 1580 1580 1580 1580 1581 1581 1581 1582 1582 1584 1586 1587 1588 1589 1590 1591 1592 1593 1595 1596 1596 1597 1597 1597 1597 1597 1595 1595 1593 1590 1588 1587 1586 1585 1584 1581 1580 1580 1580 1582 1583 1585 1587 1590 1593 1595 1600 1605 1610 1613 1617 1620 1624 1625 1626 1628 1628 1635 1640 1645 1649 1666 1687 1687 1687 1670 1660 0 0 0 0 0 1130 1125 1125 1125 1129 1129 1129 1128 1124 1118 1115 1107 1094 1088 1088 1088 1087 1087 1097 1097 1097 1112 1126 1133 1137 1138 1139 1139 1139 1132 1124 1124 1124 1130 1142 1154 1154 1154 1148 1138 1135 1135 1134 1134 1135 1138 1144 1145 1146 1148 1149 1159 1174 1174 1174 1158 1141 1126 1115 1111 1107 1107 1107 1107 1109 1116 1118 1120 1120 1120 1118 1100 1082 1082 1080 1079 1079 1071 1063 1062 1062 1062 1062 1062 1061 1059 1058 1058 1058 1065 1065 1065 1063 1051 1045 1043 1038 1033 1030 1030 1029 1028 1028 1025 1025 1025 1025 1025 1024 1022 1018 1015 1004 985 985 985 990 0 0 0 0 0 0 0 0 0 0 0 0 904 899 897 869 838 838 838 841 845 846 845 841 835 827 816 807 794 791 785 777 761 759 758 758 758 758 765 771 781 791 800 807 807 807 807 805 802 792 787 787 787 793 793 793 790 790 790 795 799 804 815 821 825 828 830 832 833 835 835 836 836 836 836 836 835 835 835 834 834 833 833 832 832 832 832 832 832 833 833 833 834 835 836 838 839 842 843 843 845 845 845 845 844 842 840 837 832 825 821 813 806 804 800 797 795 793 792 791 790 790 790 789 788 787 787 787 786 786 784 783 783 783 782 782 781 781 781 779 779 779 778 778 776 775 774 772 771 770 766 764 764 763 763 762 760 760 757 756 755 752 751 750 749 749 748 747 747 745 744 744 743 743 743 742 740 739 738 736 736 735 732 731 730 729 727 725 724 723 721 719 715 710 701 688 676 658 634 605 605 603 601 595 584 584 584 594 603 609 622 635 649 666 666 666 652 622 603 588 587 587 580 572 565 551 546 546 542 542 542 542 537 532 520 520 520 520 525 525 525 523 519 519 518 514 509 504 500 496 494 493 489 484 478 474 468 465 460 456 452 447 443 440 438 438 437 436 436 436 436
795 795 806 812 816 820 822 827 834 845 857 866 880 896 917 928 939 942 946 952 957 966 979 991 1002 1013 1021 1028 1036 1042 1048 1062 1076 1082 1094 1111 1121 1129 1133 1139 1140 1141 1143 1143 1143 1143 1146 1148 1148 1148 1143 1143 1143 1147 1156 1164 1174 1180 1182 1183 1183 1184 1188 1191 1193 1193 1193 1193 1192 1187 1179 0 0 0 0 0 882 882 882 909 944 947 967 980 991 1000 1013 1023 1029 1034 1044 1062 1078 1087 1098 1109 1125 1136 1143 1145 1147 1150 1155 1162 1167 1175 1183 1188 1191 1194 1200 1208 1212 1214 1215 1216 1221 1231 1245 1257 1259 1259 1259 1259 1258 1258 1258 1258 1258 1265 1288 0 0 1418 1431 1436 1443 1450 1457 1465 1469 1472 1477 1479 1485 1491 1497 1502 1506 1508 1510 1512 1517 1521 1523 1525 1527 1529 1531 1534 1537 1540 1542 1544 1546 1550 1553 1555 1557 1560 1563 1566 1568 1572 1574 1577 1577 1577 1577 1577 1577 1578 1578 1578 1579 1579 1579 1579 1579 1582 1583 1585 1585 1587 1587 1589 1589 1589 1591 1592 1594 1594 1594 1594 1594 1594 1594 1594 1591 1588 1585 1585 1583 1583 1582 1581 1580 1579 1579 1579 1582 1583 1585 1588 1591 1595 1600 1605 1610 1613 1616 1620 1620 1621 1623 1623 1628 1635 1640 1647 1663 1682 1686 1686 1686 1664 0 0 0 0 0 1132 1130 1129 1129 1129 1132 1134 1134 1134 1124 1118 1115 1107 1094 1088 1088 1088 1099 1099 1103 1104 1104 1112 1122 1126 1128 1130 1134 1134 1134 1130 1118 1118 1118 1130 1142 1154 1154 1154 1149 1138 1133 1133 1133 1133 1133 1134 1134 1140 1146 1148 1149 1170 1179 1179 1179 1123 1119 1114 1107 1107 1107 1106 1106 1107 1108 1117 1120 1120 1120 1120 1118 1085 1069 1069 1069 1071 1071 1071 1071 1071 1071 1071 1071 1067 1063 1059 1055 1055 1055 1065 1065 1065 1063 1051 1045 1043 1038 1033 1029 1028 1028 1027 1028 1028 1028 1028 1028 1026 1022 1020 1018 1015 1006 984 981 965 965 965 969 987 0 0 0 0 0 0 0 0 0 904 901 899 869 834 828 828 828 834 835 835 835 835 827 816 807 794 774 759 756 755 755 739 735 735 735 737 746 761 771 800 807 807 807 805 801 780 779 779 779 782 786 788 788 788 788 788 788 788 803 807 813 821 827 830 832 834 835 836 836 837 837 837 837 837 836 836 836 836 835 834 833 833 833 834 834 834 834 834 834 834 836 837 839 841 842 843 843 845 845 845 845 843 842 842 838 833 825 821 813 806 804 801 797 795 795 793 791 791 791 790 790 789 789 788 787 787 786 785 784 784 784 784 783 783 783 782 781 781 780 780 778 777 777 775 773 772 771 768 765 764 764 764 762 760 760 757 753 752 751 750 748 748 748 747 747 745 743 742 741 741 741 741 741 740 739 738 736 734 733 731 730 729 728 726 724 723 722 721 718 715 710 701 688 673 651 634 603 603 601 595 589 581 581 581 588 600 607 615 623 635 653 653 653 639 609 594 588 587 585 578 569 564 551 546 546 545 545 544 544 541 537 520 520 520 520 520 520 517 516 515 515 513 512 507 503 499 495 492 489 484 479 475 471 466 462 457 453 449 446 442 439 438 437 436 435 435 435 435
787 787 806 812 816 820 825 827 830 835 845 860 879 896 917 928 932 936 937 946 956 963 978 991 1002 1011 1021 1028 1036 1042 1053 1062 1076 1082 1090 1097 1107 1121 1133 1139 1139 1140 1143 1143 1143 1143 1141 1140 1139 1137 1136 1136 1136 1142 1153 1163 1171 1173 1175 1176 1176 1177 1179 1183 1184 1184 1184 1182 1178 1164 1139 0 0 0 0 873 873 882 908 935 957 961 972 979 989 999 1011 1021 1026 1033 1042 1062 1078 1085 1091 1103 1122 1134 1141 1141 1142 1145 1146 1151 1164 1175 1181 1185 1191 1194 1198 1203 1207 1210 1211 1213 1218 1227 1238 1249 1252 1252 1253 1253 1253 1253 1253 1251 1251 1251 1264 0 0 1409 1431 1436 1443 1450 1457 1465 1469 1472 1476 1478 1483 1489 1495 1500 1503 1505 1506 1508 1513 1518 1521 1523 1524 1527 1529 1533 1536 1539 1539 1542 1544 1548 1551 1554 1556 1559 1560 1564 1568 1571 1573 1574 1575 1575 1576 1576 1576 1576 1576 1576 1576 1576 1576 1576 1577 1578 1580 1581 1582 1584 1585 1587 1588 1589 1590 1590 1591 1591 1592 1592 1592 1591 1591 1591 1587 1586 1584 1583 1582 1580 1579 1579 1577 1577 1577 1579 1580 1583 1585 1588 1591 1594 1600 1605 1610 1612 1615 1617 1617 1618 1618 1622 1628 1635 1655 1672 1684 1687 1687 1684 1667 1629 0 0 0 0 0 1134 1133 1132 1132 1132 1132 1147 1147 1147 1134 1117 1111 1107 1094 1088 1088 1088 1099 1099 1106 1106 1113 1113 1114 1114 1115 1119 1129 1129 1129 1122 1117 1117 1117 1128 1142 1153 1156 1156 1156 1144 1131 1128 1128 1126 1120 1120 1120 1128 1144 1146 1148 1170 1181 1181 1181 1113 1108 1107 1106 1106 1106 1096 1096 1096 1106 1118 1118 1118 1113 1107 1091 1070 1064 1064 1064 1071 1071 1076 1076 1076 1077 1077 1077 1076 1071 1059 1055 1055 1055 1066 1066 1066 1063 1045 1044 1043 1043 1043 1036 1027 1027 1027 1027 1028 1028 1028 1028 1022 1022 1022 1019 1019 1019 1003 984 965 965 965 969 986 1012 0 0 0 0 0 0 0 0 934 912 904 869 834 828 826 824 824 824 833 833 833 827 816 807 794 762 746 745 744 744 731 731 731 731 735 739 761 771 787 807 807 807 803 789 780 779 779 779 782 786 786 787 787 786 787 787 788 794 807 812 819 825 829 833 834 835 836 837 838 839 839 839 839 837 837 837 836 835 834 834 834 835 835 835 835 835 835 835 835 836 837 839 841 842 843 844 845 845 845 844 843 841 840 837 830 824 817 811 806 804 801 799 797 796 794 792 791 791 791 791 791 790 790 789 788 787 786 786 786 785 785 785 784 783 783 782 782 781 780 780 779 777 776 775 774 774 772 771 768 766 765 763 760 760 757 751 747 745 745 745 745 745 744 744 743 742 742 741 741 741 740 740 740 739 738 736 734 732 730 729 728 727 726 724 722 721 720 718 713 710 701 688 668 650 634 616 603 601 591 578 571 571 571 588 600 604 606 611 620 634 634 634 621 602 588 577 575 572 569 558 546 545 545 545 545 545 544 544 541 537 521 519 518 517 517 517 515 515 514 514 512 511 507 502 497 494 490 486 481 476 473 467 462 458 454 450 447 444 441 439 437 436 435 434 434 433 433
786 786 795 804 811 819 825 827 830 835 844 857 878 899 919 928 929 930 935 944 953 960 976 988 1000 1011 1021 1029 1038 1044 1053 1062 1068 1074 1079 1085 1098 1115 1130 1137 1138 1139 1138 1138 1138 1120 1113 1113 1113 1115 1121 1127 1132 1142 1153 1163 1166 1167 1169 1169 1169 1167 1167 1167 1174 1174 1174 1169 1155 1138 1118 0 0 0 0 873 873 899 921 943 963 975 977 979 985 992 1010 1017 1025 1032 1041 1056 1077 1083 1084 1094 1111 1126 1136 1140 1140 1144 1146 1151 1159 1171 1181 1184 1189 1193 1197 1201 1206 1208 1209 1209 1211 1219 1229 1237 1240 1241 1243 1246 1249 1249 1249 1247 1247 1247 1252 0 0 1400 1426 1435 1442 1450 1457 1465 1470 1472 1475 1478 1482 1488 1493 1498 1500 1501 1503 1505 1507 1513 1517 1520 1523 1525 1528 1533 1536 1538 1539 1541 1543 1545 1548 1551 1555 1557 1559 1562 1566 1568 1571 1572 1572 1573 1573 1573 1573 1573 1573 1573 1573 1573 1573 1574 1575 1577 1578 1579 1580 1582 1584 1585 1587 1587 1588 1588 1589 1589 1589 1589 1589 1588 1587 1586 1585 1584 1584 1582 1578 1577 1575 1573 1573 1573 1574 1576 1578 1581 1585 1587 1591 1594 1600 1605 1610 1612 1614 1615 1617 1617 1618 1622 1628 1645 1674 1684 1684 1684 1684 1661 1625 1593 0 0 0 0 1144 1142 1142 1137 1131 1131 1131 1147 1147 1147 1141 1119 1110 1110 1108 1107 1101 1101 1101 1104 1106 1109 1111 1111 1111 1108 1108 1108 1121 1121 1121 1119 1117 1117 1117 1126 1137 1147 1155 1155 1155 1144 1129 1125 1124 1123 1116 1116 1116 1127 1140 1141 1145 1170 1181 1181 1181 1112 1084 1084 1084 1087 1087 1087 1087 1087 1098 1112 1112 1112 1094 1088 1079 1059 1057 1057 1057 1072 1074 1074 1078 1081 1081 1081 1080 1079 1077 1067 1056 1056 1056 1066 1066 1066 1061 1042 1042 1042 1043 1043 1043 1032 1026 1026 1026 1027 1027 1027 1018 1017 1017 1017 1019 1019 1019 1004 985 965 965 965 969 980 982 986 0 0 0 0 0 0 0 959 925 904 869 834 828 826 824 824 824 828 828 828 822 816 807 790 760 744 734 730 723 723 729 729 729 734 737 761 771 787 787 790 790 786 785 780 780 780 782 785 786 786 787 787 786 787 787 788 790 802 812 818 825 829 835 835 835 836 837 839 840 840 840 840 840 839 838 836 836 836 836 836 836 837 837 837 837 836 836 836 836 837 839 841 843 843 843 843 844 843 843 841 840 838 836 830 824 816 808 805 804 801 799 797 796 796 793 793 793 793 792 791 791 791 790 790 788 788 787 787 787 786 785 784 784 784 783 783 781 781 780 780 779 778 777 776 775 775 775 772 768 766 763 760 759 756 750 745 744 742 741 741 741 741 741 741 741 741 740 740 740 740 740 740 740 739 736 734 732 730 729 728 727 725 723 722 720 719 716 710 704 697 687 668 644 634 618 608 603 587 578 571 571 571 588 599 599 599 600 606 613 613 613 605 596 582 571 565 564 561 543 543 543 542 544 544 544 544 544 541 537 521 516 514 514 514 514 512 512 512 511 510 509 504 500 496 491 487 483 478 472 468 462 458 455 451 448 446 444 441 438 436 434 432 432 432 432 432
786 786 794 798 809 819 825 828 830 835 844 857 877 899 919 925 927 927 929 938 950 958 971 983 995 1010 1021 1030 1038 1044 1053 1059 1064 1067 1073 1079 1093 1112 1127 1132 1132 1133 1132 1132 1119 1109 1103 1103 1103 1108 1112 1121 1132 1142 1153 1156 1158 1160 1160 1160 1160 1157 1157 1157 1158 1158 1158 1150 0 0 0 0 0 904 873 873 873 899 921 943 963 978 980 980 985 990 1001 1015 1023 1031 1039 1056 1077 1077 1080 1085 1102 1119 1131 1138 1139 1142 1145 1149 1159 1166 1176 1184 1188 1190 1194 1201 1205 1205 1205 1206 1206 1209 1219 1226 1228 1228 1233 1239 1242 1244 1244 1244 1244 1244 1252 0 0 1385 1406 1428 1441 1448 1456 1465 1470 1472 1475 1478 1482 1486 1491 1494 1497 1499 1500 1502 1504 1510 1513 1517 1519 1524 1528 1531 1534 1537 1538 1539 1542 1544 1547 1551 1553 1556 1559 1561 1564 1566 1568 1569 1570 1570 1571 1571 1571 1570 1570 1570 1570 1570 1571 1572 1573 1575 1575 1576 1578 1581 1583 1584 1585 1586 1586 1586 1586 1587 1587 1587 1586 1585 1584 1583 1582 1582 1580 1578 1574 1571 1570 1570 1570 1571 1571 1573 1577 1580 1583 1586 1589 1593 1598 1604 1608 1610 1613 1615 1616 1616 1616 1622 1630 1652 1680 1684 1684 1684 1664 0 0 0 0 0 1156 1153 1153 1153 1154 1154 1154 1147 1147 1147 1147 1147 1143 1123 1121 1121 1120 1120 1120 1114 1114 1114 1116 1116 1116 1114 1111 1108 1108 1108 1121 1121 1121 1117 1117 1117 1117 1124 1134 1140 1145 1145 1145 1144 1127 1111 1105 1104 1104 1105 1108 1125 1138 1139 1143 1169 1181 1181 1181 0 1077 1067 1067 1067 1067 1067 1074 1074 1096 1109 1109 1109 1092 1079 1073 1056 1049 1049 1049 1061 1070 1074 1078 1081 1081 1081 1080 1079 1077 1067 1056 1056 1056 1066 1066 1066 1061 1040 1040 1040 1043 1043 1043 1037 1026 1026 1026 1027 1027 1027 1018 1017 1017 1017 1019 1019 1019 1004 996 988 986 986 986 986 985 985 985 996 1020 1023 1023 1023 1004 982 944 905 873 853 841 829 824 810 810 810 822 822 822 0 807 790 760 722 719 719 719 719 719 718 718 718 739 767 778 787 787 787 786 785 785 785 788 791 792 792 792 789 788 788 786 788 786 785 786 788 797 817 824 829 835 837 838 839 840 841 842 842 842 842 841 841 840 840 839 839 839 839 839 839 838 837 837 837 836 836 836 837 839 841 843 843 843 843 842 841 841 841 840 834 828 825 817 809 804 802 801 801 799 798 797 796 796 795 794 793 793 793 793 792 792 792 791 791 791 791 790 787 786 785 784 784 784 784 783 783 783 782 781 779 778 777 777 776 776 772 768 766 764 758 758 755 747 742 742 740 739 739 739 739 739 739 739 739 739 739 739 739 740 743 743 743 738 734 732 730 729 728 727 725 723 721 719 717 716 710 704 697 686 668 644 636 622 613 607 587 578 571 571 571 592 593 593 593 593 593 598 598 598 595 585 570 561 560 559 553 543 543 543 542 543 544 544 543 543 538 532 521 517 515 513 511 510 510 510 510 510 510 509 503 494 490 487 482 479 473 470 465 459 457 453 449 447 444 442 439 436 432 430 430 429 429 429 430
