603 603 605 616 628 639 648 657 665 674 681 689 697 706 710 714 723 731 738 745 755 767 781 798 809 822 832 844 854 858 869 878 886 891 897 902 907 912 916 920 925 929 933 936 943 944 949 953 955 955 955 951 948 0 0 0 0 0 0 768 762 761 752 744 743 730 730 730 730 730 730 730 730 731 731 734 739 742 745 745 746 749 753 759 769 779 787 796 0 0 0 936 967 998 1001 1001 1001 1001 1001 997 994 994 994 994 994 994 986 982 982 0 0 0 0 0 830 830 830 830 830 826 820 818 815 814 812 812 812 812 815 818 818 820 831 864 0 0 0 1000 1004 1011 1012 1012 1012 1010 1010 1010 1011 1011 1011 1010 1009 1009 1009 1009 1009 1009 1009 1008 1005 1005 1003 1003 1002 1001 1001 1000 0 0 0 915 897 892 892 892 899 907 909 909 911 912 921 937 955 1005 1006 1012 1016 1016 1016 1015 1012 1012 1012 1011 1011 1012 1012 1015 1015 1015 1016 1018 1018 1019 1019 1020 1020 1020 1020 1020 1019 1019 1017 1016 1015 1015 1011 1010 1010 1009 1009 1008 1001 984 973 967 967 967 975 991 1004 1004 1006 1006 1006 1009 1009 1012 1013 1015 1017 1019 1020 1023 1025 1025 1026 1027 1028 1030 1030 1031 1031 1032 1032 1032 1032 1032 1031 1031 1031 1030 1029 1029 1027 1027 1026 1026 1023 1020 1017 1016 1016 1013 1009 1006 1000 1000 997 997 997 1000 1001 1004 1007 1010 1013 1017 1021 1023 1025 1027 1029 1031 1032 1033 1034 1035 1035 1036 1037 1037 1037 1038 1038 1039 1039 1038 1038 1038 1038 1037 1037 1036 1036 1034 1034 1032 1030 1028 1026 1025 1023 1020 1018 1016 1013 1011 1011 1009 1004 1002 1002 1002 1002 1004 1009 1012 1013 1016 1020 1021 1024 1025 1026 1028 1031 1031 1033 1033 1034 1035 1035 1036 1036 1036 1036 1036 1035 1034 1033 1032 1032 1031 1030 1028 1027 1025 1023 1019 1018 1016 1016 1014 1012 1009 1006 1004 1001 998 997 994 993 992 992 992 992 994 997 999 1003 1007 1012 1015 1019 1021 1022 1022 1025 1027 1028 1029 1030 1030 1030 1031 1031 1031 1030 1030 1030 1028 1027 1027 1026 1024 1021 1020 1018 1016 1015 1013 1011 1010 1007 1003 1002 1001 1000 998 995 992 991 989 987 985 984 984 984 984 984 984 984 985 988 990 995 998 999 1001 1005 1012 1019 1023 1024 1025 1025 1027 1028 1030 1031 1031 1032 1033 1033 1033 1033 1033 1033 1033 1032 1031 1031 1031 1031 1031 1030 1030 1030 1029 1029 1029 1029 1029 1028 1028 1028 1028 1027 1026 1026 1026 1026 1026 1025 1025 1025 1025 1023 1021 1020 1020 1010 1009 0 0 0 0 0 0 0 0 785 768 0 0 0 0 0 0 0 0 0 0 0 0 0 605 626 626 626 603 596 596 596 0 0 615 616 628 632 632 629 629 0 0 0 0 0 0 0 0 0 0 0 0 0 0 0 0 0 0 0 0 0 0 0 0 0 0 0 0 0 0 0 0 0 0 0 0 0 0 0 0 0 0 0 0 0 0 0 0 0 0 0 0 0 0 0 0 0 0 0 0 0 0 0 0 416 435 435 0 0 0 0 0 0 0 0 0 0 0 0 0 0 0 0 0 0 0 0 0 0 0 0 0 0 0 0 0
599 599 602 615 628 638 647 654 661 671 679 688 697 707 710 714 723 731 739 745 757 767 781 798 809 822 832 844 854 858 869 878 886 891 894 898 905 911 917 921 925 930 933 938 944 946 949 953 957 959 959 959 955 953 941 0 0 0 0 0 768 768 760 744 743 730 730 729 729 728 728 729 730 731 734 737 740 742 745 745 746 747 751 759 768 781 791 0 0 0 935 951 984 1003 1003 1003 1003 1002 1001 1002 1001 999 998 998 996 996 994 994 993 984 970 0 0 0 0 0 843 839 839 828 824 822 821 821 821 821 821 821 823 824 831 834 841 0 0 0 991 1002 1006 1012 1012 1012 1012 1011 1011 1011 1012 1012 1012 1011 1011 1011 1011 1012 1012 1012 1011 1010 1007 1006 1006 1006 1007 1007 1007 1002 988 964 0 0 0 896 896 896 905 912 916 916 917 918 928 956 1000 1008 1014 1016 1016 1016 1016 1016 1014 1014 1013 1013 1013 1014 1014 1016 1017 1018 1019 1020 1020 1020 1021 1021 1021 1022 1022 1022 1022 1022 1022 1022 1021 1018 1015 1013 1011 1010 1010 1010 1004 1001 992 985 983 983 983 991 1004 1004 1006 1006 1006 1009 1011 1012 1014 1016 1018 1020 1023 1024 1026 1027 1028 1030 1031 1032 1032 1033 1033 1033 1033 1033 1033 1033 1033 1032 1031 1031 1031 1031 1029 1029 1028 1027 1025 1022 1021 1019 1018 1015 1011 1006 1002 1001 999 999 999 1000 1002 1004 1007 1013 1015 1018 1021 1025 1028 1030 1030 1032 1033 1035 1035 1036 1037 1037 1038 1038 1039 1039 1039 1039 1039 1039 1039 1039 1039 1039 1038 1037 1036 1035 1034 1032 1030 1028 1026 1024 1023 1021 1018 1016 1014 1011 1011 1009 1006 1002 1002 1002 1002 1004 1008 1012 1012 1014 1020 1021 1024 1025 1026 1028 1031 1032 1033 1034 1034 1035 1037 1037 1037 1037 1037 1036 1036 1035 1034 1033 1032 1031 1030 1028 1026 1024 1021 1018 1017 1016 1014 1012 1009 1007 1004 1002 999 997 995 993 992 990 990 990 991 993 996 999 1002 1006 1010 1012 1015 1016 1019 1020 1024 1026 1028 1029 1030 1030 1030 1031 1031 1031 1031 1031 1030 1028 1028 1026 1025 1024 1021 1019 1017 1016 1014 1011 1010 1009 1006 1002 1001 1000 998 996 995 992 988 984 983 982 982 982 982 982 981 981 981 982 984 987 991 993 995 997 1002 1009 1015 1023 1025 1026 1027 1028 1030 1032 1033 1033 1033 1033 1033 1034 1034 1034 1034 1034 1034 1033 1033 1032 1032 1031 1031 1031 1031 1031 1031 1031 1030 1030 1029 1029 1029 1029 1030 1030 1030 1029 1028 1027 1027 1027 1025 1025 1023 1022 1022 1021 1020 1014 1007 1000 0 0 0 0 0 0 785 768 743 734 719 704 0 0 0 0 0 0 0 0 0 0 0 648 648 603 596 596 0 0 0 637 638 638 637 632 629 0 0 0 0 0 0 0 0 0 0 0 0 0 0 0 0 0 0 0 0 0 0 0 0 0 0 0 0 0 0 0 0 0 0 0 0 0 0 0 0 0 0 0 0 0 0 0 0 0 0 0 0 0 0 0 0 0 0 0 0 0 0 0 0 0 0 0 0 0 0 0 0 0 0 0 0 0 0 0 0 0 0 0 0 0 0 0 0 0 0 0 0 0 0 0 0 0
599 599 602 615 627 638 646 654 659 668 678 688 699 707 714 718 726 737 745 748 764 774 783 799 809 822 836 846 854 858 870 878 886 891 894 898 905 911 917 921 926 930 934 940 945 947 951 954 957 959 960 963 963 963 959 948 0 0 0 0 0 768 762 744 743 730 730 729 729 728 728 729 730 733 737 739 740 742 744 745 746 747 751 759 768 781 0 0 0 0 970 998 1005 1006 1006 1006 1004 1003 1002 1003 1002 1000 1000 1001 1000 999 999 997 996 995 995 993 986 0 0 0 0 855 843 829 828 828 828 828 826 826 826 826 826 826 835 838 0 0 0 0 997 1008 1010 1014 1014 1014 1013 1013 1013 1013 1013 1013 1013 1014 1014 1014 1014 1014 1014 1014 1014 1014 1013 1009 1007 1007 1007 1007 1007 1002 1001 999 992 0 0 0 908 908 908 915 918 926 927 933 943 988 1002 1010 1016 1016 1017 1017 1017 1017 1017 1015 1014 1014 1014 1014 1016 1018 1020 1020 1021 1022 1022 1023 1024 1024 1024 1024 1024 1024 1024 1024 1025 1025 1025 1024 1021 1017 1016 1015 1014 1013 1007 1002 994 993 986 986 986 991 1005 1005 1005 1005 1005 1011 1012 1013 1015 1017 1020 1022 1025 1027 1029 1030 1031 1033 1033 1034 1034 1034 1034 1034 1034 1034 1034 1034 1034 1033 1033 1033 1032 1032 1032 1030 1029 1029 1027 1027 1025 1023 1021 1017 1012 1006 1004 1003 1003 1001 1001 1001 1002 1005 1010 1014 1018 1019 1023 1028 1030 1031 1032 1033 1035 1036 1036 1038 1039 1039 1039 1040 1040 1041 1041 1041 1041 1041 1041 1040 1040 1040 1038 1038 1037 1036 1034 1033 1030 1028 1025 1024 1022 1021 1019 1016 1014 1011 1011 1009 1006 1003 1002 1002 1002 1004 1006 1009 1010 1013 1018 1021 1024 1025 1027 1029 1031 1032 1034 1035 1036 1036 1037 1038 1038 1038 1038 1037 1036 1036 1035 1033 1032 1031 1029 1027 1025 1022 1021 1018 1017 1016 1014 1011 1008 1004 1002 1000 998 996 993 992 990 989 989 989 989 991 995 999 1002 1006 1008 1012 1014 1015 1016 1017 1020 1025 1027 1029 1030 1030 1030 1031 1031 1031 1031 1031 1030 1028 1028 1026 1025 1023 1021 1019 1017 1016 1014 1011 1009 1007 1004 1002 999 997 996 995 993 990 986 982 980 979 979 979 978 978 978 978 978 978 981 986 989 991 993 996 1001 1007 1014 1023 1025 1027 1029 1030 1032 1033 1034 1034 1034 1035 1035 1035 1035 1035 1035 1035 1035 1035 1034 1034 1034 1033 1033 1032 1032 1032 1032 1032 1032 1032 1031 1031 1031 1031 1031 1031 1031 1031 1029 1027 1027 1027 1027 1026 1025 1026 1026 1022 1021 1020 1019 1010 991 0 0 0 0 0 785 768 743 734 719 712 682 682 674 674 0 0 0 0 0 0 0 0 0 0 0 0 0 0 0 679 669 639 638 614 600 0 0 0 0 0 0 0 0 0 0 0 0 0 0 0 0 0 0 0 0 0 0 0 0 0 0 0 0 0 0 0 0 0 0 0 0 0 0 0 0 0 0 0 0 0 0 0 0 0 0 0 0 0 0 0 0 0 0 0 0 0 0 0 0 0 0 0 0 0 0 0 0 0 0 0 0 0 0 0 0 0 0 0 0 0 0 0 0 0 0 0 0 0 0 0 0 0
599 599 602 614 627 637 646 653 659 667 677 688 699 708 716 720 733 745 757 765 777 786 795 804 814 822 836 849 859 862 874 884 889 893 894 898 905 912 919 924 929 932 936 940 946 948 952 954 956 959 961 964 967 967 967 964 950 0 0 0 0 0 0 748 746 730 730 730 729 728 728 729 731 735 739 742 742 742 742 742 744 747 751 759 768 0 0 0 0 959 972 998 1006 1006 1006 1006 1005 1005 1004 1004 1005 1004 1004 1004 1004 1003 1000 1000 1000 1000 999 999 998 982 0 0 0 0 0 836 834 833 830 829 828 828 827 827 827 827 837 857 0 0 0 0 1004 1011 1015 1018 1018 1018 1014 1014 1014 1014 1015 1015 1015 1015 1015 1015 1016 1016 1016 1016 1016 1016 1016 1014 1011 1011 1011 1009 1008 1006 1004 1002 1001 995 993 0 0 923 921 921 923 928 944 956 994 1001 1004 1010 1015 1017 1017 1017 1017 1016 1016 1015 1015 1015 1015 1016 1019 1019 1022 1022 1023 1024 1024 1025 1026 1026 1026 1026 1026 1027 1027 1027 1027 1027 1026 1026 1024 1020 1017 1016 1016 1016 1008 1002 1001 994 989 989 989 990 1002 1002 1004 1004 1006 1013 1014 1014 1016 1018 1021 1023 1026 1029 1031 1033 1033 1034 1035 1035 1036 1036 1036 1036 1036 1036 1036 1035 1035 1035 1035 1034 1034 1034 1033 1032 1032 1030 1029 1027 1027 1024 1021 1017 1013 1007 1007 1007 1006 1005 1005 1005 1005 1006 1010 1014 1019 1022 1026 1030 1031 1033 1033 1034 1036 1038 1038 1038 1040 1040 1040 1041 1041 1041 1042 1042 1042 1042 1042 1041 1041 1040 1040 1039 1038 1036 1035 1033 1030 1028 1025 1023 1022 1021 1019 1016 1014 1011 1011 1009 1006 1004 1003 1003 1003 1004 1006 1009 1009 1011 1013 1020 1024 1025 1027 1029 1031 1032 1034 1035 1036 1036 1038 1039 1039 1039 1038 1038 1037 1037 1035 1034 1032 1031 1028 1026 1024 1021 1021 1018 1017 1016 1014 1011 1007 1004 1001 999 997 994 992 991 988 987 987 987 987 987 988 994 1002 1005 1007 1011 1013 1013 1014 1016 1019 1024 1027 1028 1029 1030 1030 1032 1032 1032 1032 1031 1030 1028 1028 1026 1024 1022 1021 1019 1017 1015 1013 1010 1008 1005 1003 1000 997 996 995 993 991 988 985 982 979 978 978 976 976 976 976 976 976 977 981 986 989 991 992 995 1000 1006 1014 1023 1025 1027 1029 1031 1032 1033 1034 1035 1035 1035 1035 1035 1036 1036 1036 1036 1036 1035 1035 1035 1034 1034 1034 1034 1034 1034 1034 1033 1033 1033 1033 1032 1032 1032 1032 1032 1032 1032 1031 1030 1030 1030 1029 1029 1029 1028 1028 1027 1027 1024 1020 1015 999 0 0 0 0 0 0 749 737 729 726 723 709 706 701 701 694 679 0 0 0 0 0 0 0 0 0 0 0 0 687 687 687 653 652 614 0 0 0 0 0 0 0 0 0 0 0 0 0 0 0 0 0 0 0 0 0 0 0 0 0 0 0 0 0 0 0 0 0 0 0 0 0 0 0 0 0 0 0 0 0 0 0 0 0 0 0 0 0 0 0 0 0 0 0 0 0 0 0 0 0 0 0 0 0 0 0 0 0 0 0 0 0 0 0 0 0 0 0 0 0 0 0 0 0 0 0 0 0 0 0 0 0 0
599 599 602 614 625 636 644 653 659 667 677 688 699 708 719 722 740 752 758 766 784 793 0 0 0 0 836 849 864 879 891 896 897 897 897 901 905 913 919 926 932 935 939 942 947 949 952 955 956 959 962 965 967 968 968 968 963 960 0 0 0 0 0 0 0 0 736 733 733 731 732 733 733 737 742 742 742 742 742 742 744 748 756 766 0 0 0 0 0 962 986 999 1008 1008 1008 1007 1007 1007 1007 1007 1006 1006 1006 1006 1006 1006 1006 1004 1004 1004 1004 1004 1004 1004 1002 0 0 0 0 0 850 839 831 830 830 828 828 828 831 837 849 0 0 0 0 1013 1018 1018 1019 1019 1019 1018 1015 1015 1015 1015 1016 1016 1016 1017 1017 1017 1017 1018 1018 1018 1018 1018 1018 1018 1015 1015 1013 1013 1013 1010 1007 1007 1006 1005 1003 998 987 949 936 936 936 942 944 958 1002 1004 1006 1012 1015 1017 1017 1017 1017 1016 1016 1016 1017 1017 1017 1019 1020 1022 1023 1024 1024 1025 1026 1027 1028 1028 1028 1028 1029 1029 1029 1029 1029 1029 1029 1028 1027 1023 1021 1021 1020 1016 1010 1005 1002 995 991 989 989 989 996 1001 1002 1004 1007 1014 1014 1015 1019 1021 1023 1025 1028 1031 1033 1034 1035 1036 1037 1037 1037 1037 1038 1038 1037 1037 1037 1037 1036 1036 1036 1036 1036 1035 1035 1034 1033 1032 1031 1029 1027 1024 1022 1020 1014 1012 1010 1010 1009 1008 1006 1006 1006 1007 1010 1014 1019 1024 1027 1030 1032 1033 1035 1035 1037 1038 1040 1041 1041 1042 1042 1042 1042 1043 1043 1043 1042 1042 1042 1042 1042 1041 1040 1039 1038 1037 1035 1033 1030 1028 1025 1024 1022 1021 1019 1016 1013 1011 1009 1007 1006 1005 1004 1002 1002 1002 1004 1007 1008 1010 1013 1017 1022 1024 1026 1029 1031 1033 1034 1036 1036 1038 1038 1039 1039 1039 1039 1038 1037 1037 1036 1034 1032 1031 1028 1025 1023 1021 1021 1019 1018 1016 1014 1010 1007 1004 1001 999 995 993 992 989 986 985 985 985 985 986 987 991 998 1003 1007 1011 1011 1012 1013 1014 1016 1022 1025 1027 1029 1030 1031 1032 1032 1032 1032 1031 1030 1028 1028 1026 1024 1022 1020 1018 1016 1014 1011 1008 1008 1004 1001 998 996 995 995 992 989 988 983 980 979 977 976 974 974 974 975 975 976 976 978 982 986 988 990 991 998 1006 1014 1021 1025 1027 1029 1031 1032 1034 1034 1035 1036 1037 1037 1037 1037 1037 1037 1037 1037 1037 1037 1036 1036 1035 1035 1035 1035 1035 1035 1035 1035 1035 1034 1034 1034 1034 1034 1034 1034 1034 1033 1032 1032 1032 1031 1030 1029 1029 1029 1029 1028 1025 1024 1022 1005 999 995 0 0 0 0 0 737 735 735 735 735 724 714 703 701 700 667 667 667 701 701 0 0 0 0 0 0 679 687 687 687 653 653 0 0 0 0 0 0 0 0 0 0 0 0 0 0 0 0 0 0 0 0 0 0 0 0 0 0 0 0 0 0 0 0 0 0 0 0 0 0 0 0 0 0 0 0 0 0 0 0 0 0 0 0 0 0 0 0 0 0 0 0 0 0 0 0 0 0 0 0 0 0 0 0 0 0 0 0 0 0 0 0 0 0 0 0 0 0 0 0 0 0 0 0 0 0 0 0 0 0 0
601 601 604 614 622 632 642 652 659 667 677 688 700 712 727 731 746 753 758 766 0 0 0 0 0 0 0 875 875 881 891 896 901 901 901 905 909 913 920 926 932 935 941 945 948 950 953 955 956 959 962 965 967 969 969 969 969 969 966 0 0 0 0 0 0 0 0 0 741 741 738 741 741 741 742 742 742 742 742 742 744 752 762 772 0 0 0 934 950 980 1003 1009 1009 1009 1009 1009 1009 1009 1009 1009 1008 1008 1008 1008 1008 1010 1010 1010 1008 1006 1006 1007 1008 1007 1007 1004 996 0 0 0 0 0 843 842 837 835 834 835 837 840 866 0 0 0 1000 1015 1019 1019 1019 1019 1018 1018 1017 1017 1017 1017 1017 1017 1018 1018 1018 1019 1020 1020 1020 1020 1020 1020 1020 1020 1020 1017 1017 1016 1015 1014 1012 1011 1011 1010 1009 1002 1000 999 979 947 947 947 951 963 1005 1008 1012 1015 1015 1017 1017 1017 1016 1016 1016 1016 1017 1019 1019 1021 1022 1023 1025 1026 1026 1027 1028 1028 1030 1030 1031 1031 1031 1031 1031 1031 1031 1031 1031 1030 1028 1026 1025 1025 1024 1024 1020 1013 1002 996 994 990 990 990 991 993 997 1002 1007 1013 1015 1016 1020 1023 1026 1029 1031 1033 1034 1036 1037 1038 1038 1039 1039 1039 1039 1039 1039 1039 1038 1038 1038 1038 1038 1038 1036 1036 1036 1035 1035 1033 1031 1030 1027 1024 1023 1021 1018 1015 1013 1012 1011 1009 1008 1008 1008 1009 1010 1014 1019 1024 1027 1031 1032 1034 1035 1037 1038 1039 1040 1041 1042 1042 1043 1043 1043 1043 1044 1044 1044 1044 1043 1043 1042 1042 1040 1039 1038 1037 1035 1033 1030 1028 1025 1024 1022 1021 1019 1016 1012 1010 1008 1007 1006 1005 1004 1001 1001 1001 1001 1004 1006 1010 1013 1015 1020 1024 1026 1028 1030 1032 1034 1036 1037 1038 1039 1040 1040 1040 1039 1039 1038 1037 1036 1034 1032 1030 1028 1025 1023 1021 1021 1019 1018 1016 1014 1010 1007 1004 1001 998 994 993 989 987 985 984 984 984 985 986 987 991 995 1000 1003 1008 1009 1010 1010 1012 1015 1019 1024 1027 1028 1030 1031 1032 1032 1032 1032 1032 1030 1028 1028 1026 1024 1022 1020 1018 1014 1012 1009 1007 1006 1003 998 995 995 995 992 989 987 984 980 978 976 976 974 974 974 974 974 974 975 975 975 978 983 986 990 991 998 1006 1014 1020 1024 1026 1029 1031 1033 1035 1036 1037 1037 1038 1038 1038 1038 1038 1038 1038 1038 1038 1038 1038 1038 1038 1036 1036 1036 1036 1036 1036 1036 1036 1036 1035 1035 1035 1036 1036 1036 1036 1036 1035 1034 1033 1033 1032 1032 1032 1031 1029 1028 1028 1027 1027 1021 1010 1001 999 998 998 0 0 0 736 736 736 736 735 722 711 709 708 674 673 673 673 691 691 0 0 0 0 0 638 675 675 675 657 655 0 0 0 0 0 0 0 0 0 0 0 0 0 0 0 0 0 0 0 0 0 0 0 0 0 0 0 0 0 0 0 0 0 0 0 0 0 0 0 0 0 0 0 0 0 0 0 0 0 0 0 0 0 0 0 0 0 0 0 0 0 0 0 0 0 0 0 0 0 0 0 0 0 0 0 0 0 0 0 0 0 0 0 0 0 0 0 0 0 0 0 0 0 0 0 0 0 0 0
603 603 605 613 622 632 639 652 659 672 681 688 704 717 731 733 747 754 760 773 0 0 872 895 913 913 0 0 909 909 909 909 902 902 902 910 911 916 920 926 932 935 941 947 950 953 953 955 957 959 962 966 969 972 972 972 973 973 972 970 969 0 0 0 0 0 0 0 0 0 755 750 748 748 744 744 744 742 742 742 747 761 769 0 0 0 942 947 971 1002 1008 1009 1009 1009 1008 1009 1009 1010 1010 1010 1009 1009 1009 1010 1011 1013 1013 1013 1013 1010 1009 1009 1009 1009 1009 1006 1001 1000 998 0 0 0 0 845 840 837 836 837 840 842 0 0 0 990 1011 1015 1019 1019 1019 1018 1018 1018 1017 1017 1017 1017 1018 1018 1019 1020 1020 1021 1021 1022 1022 1022 1022 1022 1022 1022 1022 1021 1021 1020 1018 1017 1013 1013 1013 1013 1012 1012 1006 1003 999 989 955 955 955 977 1002 1008 1012 1012 1013 1013 1016 1016 1016 1016 1016 1016 1019 1022 1022 1024 1024 1026 1027 1027 1028 1029 1029 1030 1031 1032 1032 1032 1032 1032 1032 1032 1032 1032 1032 1031 1030 1030 1027 1026 1025 1025 1022 1016 1007 1001 995 990 990 990 990 991 997 1002 1007 1013 1015 1018 1021 1023 1027 1031 1033 1034 1035 1037 1038 1039 1039 1039 1040 1040 1040 1040 1040 1040 1040 1040 1040 1039 1039 1038 1038 1037 1037 1036 1035 1034 1032 1030 1027 1025 1024 1022 1019 1016 1015 1013 1011 1009 1008 1008 1008 1009 1010 1014 1019 1024 1027 1031 1032 1034 1036 1037 1039 1040 1041 1041 1043 1043 1043 1044 1044 1044 1044 1044 1044 1044 1044 1043 1043 1042 1040 1039 1038 1037 1035 1033 1030 1028 1025 1023 1022 1020 1018 1015 1012 1010 1007 1005 1005 1005 1004 1001 998 998 998 998 1001 1006 1010 1014 1016 1021 1023 1026 1030 1032 1034 1036 1037 1038 1039 1040 1040 1040 1040 1039 1039 1038 1036 1034 1032 1029 1027 1025 1022 1021 1021 1019 1018 1016 1014 1010 1006 1004 1001 998 993 991 988 986 985 984 984 984 985 986 987 990 995 997 999 1002 1005 1007 1009 1011 1014 1019 1023 1026 1028 1030 1031 1032 1033 1033 1033 1033 1030 1029 1028 1027 1024 1022 1020 1018 1014 1012 1009 1007 1004 1002 996 994 993 992 988 985 981 977 975 975 975 973 973 973 973 973 973 973 974 975 975 976 981 986 990 991 998 1009 1014 1020 1024 1028 1029 1032 1034 1035 1036 1037 1038 1038 1040 1040 1040 1040 1040 1040 1040 1039 1039 1039 1039 1039 1038 1038 1038 1038 1038 1038 1037 1037 1037 1037 1037 1037 1037 1037 1037 1037 1037 1037 1037 1037 1036 1035 1033 1033 1032 1031 1031 1029 1028 1028 1025 1019 1009 1004 1000 1000 0 0 0 0 745 742 739 736 722 711 709 708 685 673 673 673 673 673 0 0 0 0 0 651 675 675 675 657 655 0 0 0 0 0 0 0 0 0 0 0 0 0 0 0 0 0 0 0 0 0 0 0 0 0 0 0 0 0 0 0 0 0 0 0 0 0 0 0 0 0 0 0 0 0 0 0 0 0 0 0 0 0 0 0 0 0 0 0 0 0 0 0 0 0 0 0 0 0 0 0 0 0 0 0 0 0 0 0 0 0 0 0 0 0 0 0 0 0 0 0 0 0 0 0 0 0 0 0
603 603 605 613 621 631 639 652 661 674 687 697 710 721 731 735 750 760 770 0 0 869 887 906 926 942 942 0 0 0 0 0 910 910 910 910 914 920 923 927 932 934 941 948 951 953 956 956 958 959 963 966 970 972 974 976 977 977 977 976 975 975 972 971 967 0 0 0 0 0 0 763 756 755 754 751 747 745 745 745 749 761 778 0 0 0 958 962 993 1011 1011 1011 1011 1009 1008 1009 1009 1010 1010 1010 1010 1010 1011 1013 1015 1015 1015 1015 1016 1015 1015 1015 1011 1010 1009 1008 1005 1003 1002 1000 0 0 0 0 0 856 856 856 0 0 0 0 0 1002 1012 1016 1019 1019 1019 1018 1018 1018 1018 1019 1019 1019 1019 1020 1020 1021 1022 1023 1023 1023 1023 1024 1024 1024 1024 1024 1024 1024 1024 1024 1022 1020 1020 1017 1016 1015 1014 1014 1010 1008 1000 999 989 977 977 977 994 1008 1013 1013 1013 1013 1015 1016 1016 1016 1016 1017 1019 1022 1023 1024 1027 1027 1028 1030 1030 1030 1031 1032 1033 1033 1034 1034 1035 1035 1035 1034 1034 1034 1034 1033 1032 1031 1030 1027 1026 1026 1022 1017 1008 1002 997 992 991 991 991 991 996 1002 1007 1013 1016 1020 1022 1025 1029 1032 1034 1036 1037 1038 1039 1039 1040 1041 1041 1042 1042 1042 1042 1041 1041 1041 1041 1041 1040 1040 1039 1039 1037 1036 1035 1034 1032 1030 1026 1025 1024 1023 1020 1018 1015 1013 1011 1009 1008 1008 1008 1009 1012 1014 1017 1021 1027 1031 1033 1035 1036 1037 1040 1041 1042 1042 1043 1043 1044 1044 1044 1045 1045 1045 1045 1045 1045 1044 1043 1042 1040 1039 1038 1037 1034 1031 1030 1028 1025 1023 1022 1020 1018 1015 1012 1010 1007 1004 1004 1004 1001 998 996 996 996 996 998 1001 1005 1008 1012 1016 1019 1022 1027 1032 1034 1036 1037 1038 1039 1040 1041 1041 1041 1040 1039 1039 1038 1035 1032 1029 1027 1024 1022 1019 1018 1017 1016 1015 1012 1008 1005 1004 1000 995 992 989 986 985 984 984 984 984 985 986 988 990 994 995 997 1001 1005 1006 1009 1011 1014 1019 1023 1026 1029 1031 1032 1033 1033 1034 1034 1033 1033 1030 1029 1027 1024 1022 1020 1017 1014 1012 1009 1006 1004 999 994 991 989 987 984 981 978 975 974 973 972 971 971 971 971 972 972 973 973 975 975 976 981 986 991 996 1007 1010 1016 1021 1024 1028 1029 1032 1034 1035 1037 1039 1039 1040 1040 1041 1041 1041 1041 1041 1041 1041 1041 1041 1040 1040 1040 1040 1039 1039 1039 1039 1039 1039 1039 1039 1038 1038 1038 1038 1038 1039 1039 1039 1038 1038 1037 1035 1035 1035 1034 1034 1033 1033 1033 1030 1028 1028 1022 1020 1019 1015 0 0 0 0 0 0 746 744 722 711 709 708 695 658 658 658 656 656 0 0 0 0 0 651 673 673 673 657 655 0 0 0 0 0 0 0 0 0 0 0 0 0 0 0 0 0 0 0 0 0 0 0 0 0 0 0 0 0 0 0 0 0 0 0 0 0 0 0 0 0 0 0 0 0 0 0 0 0 0 0 0 0 0 0 0 0 0 0 0 0 0 0 0 0 0 0 0 0 0 0 0 0 0 0 0 0 0 0 0 0 0 0 0 0 0 0 0 0 0 0 0 0 0 0 0 0 0 0
603 603 605 613 620 631 639 652 661 674 689 701 719 729 737 740 752 765 781 0 0 880 899 919 939 960 975 980 0 0 0 0 0 0 0 921 921 921 924 927 932 934 941 948 952 953 956 961 961 962 964 967 970 972 974 978 978 979 979 978 978 978 978 975 974 967 0 0 0 0 0 0 763 759 756 756 748 746 746 746 749 762 0 0 0 949 971 975 999 1011 1011 1011 1011 1009 1009 1010 1010 1012 1012 1012 1012 1012 1013 1014 1016 1017 1017 1017 1017 1017 1016 1016 1015 1015 1011 1009 1008 1004 1003 1000 996 0 0 0 0 0 0 866 0 0 0 0 991 1005 1013 1017 1017 1017 1018 1018 1018 1019 1019 1019 1019 1020 1020 1021 1022 1023 1023 1024 1025 1025 1025 1025 1025 1026 1026 1026 1026 1026 1026 1025 1024 1023 1023 1022 1020 1017 1015 1014 1011 1010 1001 1000 989 977 977 977 978 989 1013 1013 1013 1013 1015 1015 1016 1016 1016 1018 1020 1022 1025 1027 1028 1029 1030 1031 1032 1032 1032 1033 1034 1034 1035 1036 1036 1036 1036 1036 1036 1036 1035 1035 1033 1032 1030 1029 1026 1026 1022 1017 1011 1006 1000 995 992 992 992 992 994 1002 1007 1011 1016 1020 1023 1028 1031 1033 1035 1037 1038 1039 1040 1041 1041 1042 1042 1042 1043 1043 1043 1043 1043 1043 1042 1042 1041 1040 1039 1039 1038 1036 1035 1034 1032 1029 1026 1025 1023 1023 1020 1018 1015 1013 1011 1009 1008 1008 1008 1009 1012 1014 1017 1019 1025 1030 1033 1035 1036 1037 1040 1041 1042 1043 1043 1044 1044 1045 1045 1046 1046 1046 1046 1046 1045 1044 1044 1042 1040 1039 1038 1036 1033 1031 1028 1027 1024 1022 1021 1019 1016 1013 1011 1010 1007 1004 1002 1001 1000 997 995 994 994 994 994 997 998 1001 1006 1014 1017 1020 1024 1029 1032 1034 1036 1038 1039 1040 1041 1041 1041 1041 1040 1039 1038 1035 1032 1029 1027 1024 1020 1016 1016 1014 1013 1012 1009 1006 1004 1001 996 992 988 985 985 984 984 984 984 984 986 988 988 990 993 994 995 998 1003 1006 1008 1011 1014 1019 1023 1026 1029 1031 1033 1034 1034 1035 1035 1034 1034 1032 1029 1027 1024 1023 1020 1017 1015 1012 1009 1006 1002 996 991 986 984 983 982 980 977 975 974 973 971 970 970 970 970 971 971 972 973 975 975 976 981 987 994 1006 1008 1010 1019 1024 1026 1028 1031 1033 1034 1037 1038 1039 1040 1040 1042 1042 1042 1042 1042 1042 1042 1042 1042 1042 1042 1041 1041 1041 1041 1041 1041 1040 1040 1040 1040 1040 1041 1041 1041 1041 1041 1040 1040 1040 1039 1039 1039 1037 1037 1037 1036 1036 1035 1033 1033 1033 1033 1033 1035 1035 1033 1025 1023 1023 0 0 0 0 0 0 0 692 692 677 677 677 677 677 656 653 636 607 0 0 0 0 691 691 663 645 0 0 0 0 0 0 0 0 0 0 0 0 0 0 0 0 0 0 0 0 0 0 0 0 0 0 0 0 0 0 0 0 0 0 0 0 0 0 0 0 0 0 0 0 0 0 0 0 0 0 0 0 0 0 0 0 0 0 0 0 0 0 0 0 0 0 0 0 0 0 0 0 0 0 0 0 0 0 0 0 0 0 0 0 0 0 0 0 0 0 0 0 0 0 0 0 0 0 0 0
600 600 601 612 621 631 642 652 661 674 690 706 723 737 742 744 756 773 0 0 0 883 902 928 946 963 980 995 1014 1016 1016 1016 0 0 0 0 932 932 932 933 934 934 941 948 953 955 960 962 962 963 965 968 971 973 975 978 979 979 979 979 979 979 979 978 978 971 971 968 961 0 0 0 0 783 780 763 751 746 746 746 750 764 0 0 0 953 973 977 1000 1012 1012 1012 1011 1010 1010 1011 1011 1012 1012 1012 1013 1014 1015 1017 1018 1018 1018 1018 1018 1018 1018 1018 1018 1017 1012 1012 1011 1009 1009 1008 1006 1006 1005 0 0 0 0 0 0 0 0 990 997 1009 1016 1018 1018 1018 1018 1020 1020 1020 1020 1020 1020 1020 1021 1022 1023 1024 1025 1025 1026 1026 1028 1028 1028 1027 1027 1027 1028 1028 1028 1027 1027 1027 1026 1025 1025 1022 1016 1016 1015 1011 1009 1003 996 977 977 975 975 978 1001 1008 1009 1012 1012 1014 1015 1016 1018 1019 1021 1025 1027 1029 1030 1031 1032 1032 1034 1034 1035 1035 1036 1036 1036 1037 1037 1037 1037 1037 1037 1036 1036 1035 1034 1032 1030 1029 1026 1026 1022 1017 1014 1007 1001 998 997 996 995 995 995 998 1003 1010 1015 1018 1024 1029 1031 1035 1037 1038 1039 1040 1041 1042 1042 1043 1043 1044 1044 1044 1044 1044 1044 1044 1043 1042 1042 1041 1040 1039 1038 1037 1035 1034 1031 1029 1026 1024 1023 1023 1020 1018 1015 1012 1010 1009 1008 1008 1008 1010 1012 1014 1016 1017 1022 1028 1033 1034 1036 1037 1040 1041 1042 1043 1043 1045 1045 1045 1046 1046 1046 1046 1046 1046 1045 1045 1044 1043 1041 1039 1037 1035 1032 1030 1028 1025 1021 1020 1019 1017 1015 1013 1011 1009 1007 1004 1001 998 997 996 995 993 992 991 991 991 992 995 1001 1008 1013 1018 1023 1028 1031 1031 1033 1036 1039 1040 1041 1041 1041 1041 1040 1039 1038 1035 1032 1029 1027 1024 1020 1016 1012 1011 1010 1009 1006 1002 1001 997 993 986 984 983 983 984 984 984 984 985 987 988 988 990 991 993 995 997 1001 1004 1008 1011 1014 1022 1026 1026 1030 1032 1034 1035 1035 1035 1035 1035 1034 1032 1031 1029 1029 1024 1020 1017 1016 1012 1009 1006 1000 992 984 984 983 981 980 978 976 974 973 971 971 970 970 970 970 971 971 972 975 977 977 978 981 989 997 1007 1009 1013 1019 1025 1026 1030 1032 1035 1036 1038 1039 1039 1040 1042 1042 1043 1043 1043 1043 1044 1044 1044 1043 1043 1043 1043 1043 1042 1042 1042 1042 1042 1042 1042 1042 1042 1042 1042 1041 1041 1041 1041 1041 1041 1041 1041 1041 1041 1040 1039 1039 1039 1039 1036 1036 1036 1035 1035 1036 1035 1033 1032 1028 1026 1008 0 0 0 0 0 0 681 681 677 677 677 656 653 649 630 622 622 622 0 0 0 0 0 0 0 0 0 0 0 0 0 0 0 0 0 0 0 0 0 0 0 0 0 0 0 0 0 0 0 0 0 0 0 0 0 0 0 0 0 0 0 0 0 0 0 0 0 0 0 0 0 0 0 0 0 0 0 0 0 0 0 0 0 0 0 0 0 0 0 0 0 0 0 0 0 0 0 0 0 0 0 0 0 0 0 0 0 0 0 0 0 0 0 0 0 0 0 0 0 0 0 0 0 0 0
598 598 600 612 622 632 643 652 661 672 694 710 728 738 743 745 756 773 0 0 869 885 903 933 948 963 981 999 1015 1017 1027 1035 1035 0 0 0 0 940 936 936 936 940 942 948 953 955 960 962 963 963 965 968 971 973 975 978 980 980 980 980 980 980 979 979 978 977 973 971 967 949 0 0 0 0 0 764 753 746 746 746 752 0 0 0 0 967 987 990 1006 1012 1012 1012 1012 1012 1012 1012 1012 1013 1014 1014 1014 1016 1018 1019 1020 1020 1020 1020 1020 1020 1020 1020 1019 1018 1017 1016 1015 1015 1015 1013 1013 1012 1012 1008 1002 0 0 0 976 976 993 996 1000 1012 1017 1017 1017 1018 1018 1018 1020 1021 1022 1021 1022 1022 1022 1024 1024 1026 1027 1027 1028 1028 1029 1029 1030 1030 1030 1029 1029 1029 1029 1028 1028 1028 1028 1028 1028 1025 1021 1021 1019 1015 1010 1003 996 977 974 973 973 974 980 987 1005 1009 1011 1014 1015 1016 1019 1021 1024 1028 1029 1029 1031 1033 1033 1034 1035 1035 1036 1037 1037 1037 1038 1038 1038 1038 1038 1038 1037 1036 1036 1036 1035 1033 1031 1029 1026 1023 1019 1017 1015 1009 1002 1000 1000 1000 998 996 996 996 1000 1008 1012 1017 1024 1029 1031 1035 1037 1039 1041 1042 1042 1042 1043 1044 1044 1044 1045 1045 1045 1045 1045 1045 1045 1043 1043 1042 1041 1040 1038 1037 1035 1034 1030 1028 1026 1024 1023 1022 1020 1018 1014 1012 1010 1009 1008 1008 1008 1009 1012 1014 1016 1017 1020 1026 1030 1034 1035 1036 1038 1041 1041 1043 1044 1045 1045 1046 1046 1046 1047 1047 1047 1047 1046 1046 1044 1043 1040 1038 1037 1034 1031 1030 1028 1025 1021 1018 1017 1016 1015 1013 1010 1007 1006 1003 1000 998 997 996 995 992 991 990 990 990 992 993 999 1007 1011 1015 1019 1023 1027 1030 1032 1034 1038 1040 1042 1042 1042 1041 1040 1040 1038 1035 1032 1029 1027 1024 1020 1016 1012 1011 1009 1007 1003 1000 996 991 986 983 983 983 983 984 984 984 984 985 987 988 988 990 991 993 995 997 1001 1004 1008 1011 1014 1022 1027 1028 1030 1033 1035 1035 1036 1036 1036 1036 1034 1033 1032 1031 1030 1027 1021 1017 1016 1013 1009 1007 997 986 982 982 981 980 979 977 976 974 973 971 971 970 968 968 968 968 969 972 976 978 980 982 988 995 1006 1013 1015 1020 1023 1026 1028 1030 1032 1035 1037 1039 1040 1041 1042 1043 1043 1044 1044 1045 1045 1045 1045 1045 1044 1044 1044 1044 1044 1044 1043 1043 1043 1043 1043 1043 1043 1043 1043 1043 1043 1043 1043 1043 1043 1043 1043 1043 1042 1042 1042 1041 1041 1040 1039 1038 1037 1037 1036 1036 1036 1036 1035 1034 1034 1033 1025 1019 0 0 0 0 0 0 664 664 664 658 656 630 630 627 628 630 646 661 712 0 0 0 0 0 0 0 0 0 0 0 0 0 0 0 0 0 0 0 0 0 0 0 0 0 0 0 0 0 0 0 0 0 0 0 0 0 0 0 0 0 0 0 0 0 0 0 0 0 0 0 0 0 0 0 0 0 0 0 0 0 0 0 0 0 0 0 0 0 0 0 0 0 0 0 0 0 0 0 0 0 0 0 0 0 0 0 0 0 0 0 0 0 0 0 0 0 0 0 0 0 0 0 0 0
598 598 600 612 622 632 643 650 659 671 695 710 734 738 743 746 757 774 0 0 871 885 908 934 954 968 981 1000 1015 1018 1030 1038 1038 1038 0 0 0 0 937 937 937 941 942 948 953 955 960 962 963 963 965 970 972 973 975 979 982 984 984 984 984 984 983 981 981 980 974 973 970 967 0 0 0 0 0 0 0 746 746 746 0 0 0 0 964 972 990 993 1009 1012 1012 1012 1012 1012 1013 1014 1014 1014 1014 1014 1016 1018 1020 1021 1021 1021 1022 1022 1022 1022 1022 1022 1022 1022 1020 1019 1017 1016 1016 1015 1014 1014 1013 1011 1008 1002 998 979 979 979 993 996 1001 1012 1012 1012 1018 1018 1018 1019 1020 1021 1022 1022 1023 1023 1024 1025 1027 1027 1029 1029 1030 1030 1030 1031 1031 1031 1031 1031 1031 1031 1030 1030 1030 1029 1029 1029 1028 1026 1023 1021 1021 1015 1009 1000 989 978 974 973 973 973 974 980 996 997 1002 1012 1015 1017 1020 1023 1026 1029 1030 1031 1032 1033 1035 1036 1037 1037 1038 1039 1039 1039 1040 1040 1040 1039 1039 1039 1038 1037 1036 1036 1035 1033 1031 1029 1026 1021 1018 1016 1015 1010 1005 1004 1003 1001 999 996 996 996 999 1007 1012 1015 1023 1029 1031 1035 1037 1039 1041 1042 1043 1043 1044 1044 1045 1045 1046 1046 1046 1046 1046 1045 1045 1045 1043 1043 1041 1040 1038 1037 1035 1033 1030 1027 1025 1024 1022 1021 1019 1016 1014 1012 1011 1009 1008 1008 1008 1008 1012 1013 1016 1016 1019 1026 1030 1032 1032 1033 1037 1039 1041 1043 1043 1045 1045 1046 1046 1047 1047 1047 1047 1047 1047 1046 1044 1043 1040 1038 1036 1034 1031 1029 1028 1025 1021 1018 1015 1015 1014 1011 1007 1005 1003 1001 1000 998 997 996 995 992 990 990 989 989 989 993 998 1006 1010 1012 1014 1017 1024 1028 1032 1034 1037 1040 1043 1043 1043 1042 1041 1040 1039 1035 1033 1029 1027 1024 1020 1016 1012 1011 1009 1005 1001 997 993 990 986 983 983 983 983 983 984 984 984 985 987 988 988 990 991 993 996 997 1001 1004 1008 1010 1014 1022 1028 1028 1031 1033 1035 1035 1037 1037 1037 1037 1036 1035 1034 1034 1033 1030 1025 1021 1017 1013 1009 1006 996 984 981 980 979 979 978 977 976 974 973 971 971 970 970 968 968 968 969 973 978 983 986 990 996 1002 1013 1020 1020 1021 1024 1026 1028 1030 1033 1036 1038 1040 1041 1042 1044 1044 1045 1045 1045 1046 1046 1046 1046 1046 1046 1046 1045 1045 1045 1045 1045 1045 1045 1045 1045 1045 1045 1044 1044 1044 1044 1045 1045 1045 1045 1045 1045 1044 1044 1044 1044 1043 1043 1042 1041 1041 1040 1039 1038 1038 1035 1035 1035 1035 1035 1035 1030 1027 1024 0 0 0 0 0 0 0 0 658 656 630 630 630 634 639 646 673 712 712 712 689 655 0 0 0 0 0 0 0 0 0 0 0 0 0 0 0 0 0 0 0 0 0 0 0 0 0 0 0 0 0 0 0 0 0 0 0 0 0 0 0 0 0 0 0 0 0 0 0 0 0 0 0 0 0 0 0 0 0 0 0 0 0 0 0 0 0 0 0 0 0 0 0 0 0 0 0 0 0 0 0 0 0 0 0 0 0 0 0 0 0 0 0 0 0 0 0 0 0 0 0 0 0
598 598 600 612 623 632 643 650 659 671 697 710 735 739 745 748 757 774 0 0 872 886 912 935 956 968 983 1001 1018 1020 1035 1053 1068 1068 1068 0 0 0 0 0 944 944 944 948 953 954 956 961 963 963 966 970 973 976 978 980 982 985 986 987 987 987 987 985 985 984 980 980 983 981 981 0 0 0 0 0 0 0 0 0 0 0 0 0 984 986 994 998 1015 1015 1015 1013 1013 1013 1016 1016 1016 1017 1017 1018 1018 1019 1021 1022 1023 1023 1023 1024 1024 1024 1024 1024 1024 1024 1024 1023 1022 1021 1018 1017 1014 1014 1012 1012 1008 1007 999 992 992 992 993 996 1000 1009 1009 1012 1018 1018 1018 1019 1020 1021 1022 1022 1023 1024 1025 1027 1027 1029 1030 1030 1031 1032 1032 1032 1032 1032 1032 1032 1032 1032 1032 1031 1031 1031 1029 1029 1028 1026 1024 1021 1021 1015 1007 1000 989 984 980 978 978 978 978 980 986 987 1000 1008 1015 1017 1020 1024 1028 1030 1030 1031 1033 1034 1036 1037 1038 1039 1039 1040 1041 1041 1041 1041 1040 1040 1040 1039 1038 1037 1037 1036 1035 1033 1031 1028 1024 1018 1016 1015 1014 1011 1007 1004 1003 1001 999 996 996 996 996 1002 1010 1015 1020 1023 1024 1030 1036 1039 1041 1042 1043 1043 1044 1044 1045 1046 1047 1047 1047 1047 1046 1046 1045 1045 1044 1043 1042 1040 1039 1037 1034 1032 1030 1027 1025 1023 1021 1020 1018 1016 1014 1012 1010 1009 1008 1008 1008 1008 1009 1011 1014 1016 1019 1023 1027 1031 1032 1033 1036 1037 1038 1042 1043 1044 1045 1046 1046 1047 1047 1047 1047 1047 1047 1046 1044 1042 1040 1038 1036 1034 1031 1029 1027 1025 1021 1018 1015 1014 1012 1009 1005 1001 999 998 997 996 995 994 992 991 989 989 989 989 989 992 996 1001 1007 1010 1012 1016 1022 1028 1030 1032 1037 1041 1044 1044 1044 1043 1042 1042 1041 1038 1034 1030 1027 1025 1022 1017 1013 1013 1009 1004 1000 996 993 990 986 983 983 983 983 984 984 984 985 985 987 988 988 990 993 996 998 999 1002 1005 1008 1011 1018 1025 1028 1032 1033 1034 1036 1037 1037 1038 1038 1038 1038 1038 1037 1035 1033 1031 1027 1022 1017 1012 1009 1005 993 982 976 975 975 975 976 976 976 975 974 973 972 971 970 968 968 968 969 976 982 985 991 997 1004 1013 1018 1020 1021 1024 1026 1027 1028 1031 1033 1036 1039 1040 1043 1044 1045 1045 1046 1046 1046 1046 1047 1047 1047 1047 1047 1047 1047 1046 1046 1046 1046 1046 1046 1046 1046 1046 1045 1046 1046 1046 1046 1046 1046 1046 1046 1046 1046 1046 1046 1046 1046 1045 1044 1044 1044 1042 1041 1040 1039 1038 1037 1037 1037 1037 1037 1035 1032 1032 1032 1033 0 0 0 0 0 0 0 0 0 636 636 636 643 650 669 694 694 694 686 674 674 667 0 0 0 0 0 0 0 0 0 0 0 0 0 0 0 0 0 0 0 0 0 0 0 0 0 0 0 0 0 0 0 0 0 0 0 0 0 0 0 0 0 0 0 0 0 0 0 0 0 0 0 0 0 0 0 0 0 0 0 0 0 0 0 0 0 0 0 0 0 0 0 0 0 0 0 0 0 0 0 0 0 0 0 0 0 0 0 0 0 0 0 0 0 0 0 0 0 0 0 0
598 598 599 612 624 633 642 646 655 670 698 710 738 745 750 753 765 0 837 855 876 895 912 937 962 973 986 1002 1024 1026 1047 1063 1077 1089 1089 1089 1082 0 0 0 0 955 953 953 953 954 956 961 963 965 967 970 973 977 981 983 985 986 987 988 989 989 989 989 989 989 989 987 991 991 991 987 987 0 0 0 0 0 0 0 0 0 0 989 998 1004 1012 1012 1017 1017 1017 1015 1015 1015 1016 1017 1017 1018 1019 1019 1020 1022 1023 1024 1025 1025 1025 1025 1025 1026 1026 1026 1026 1026 1026 1025 1023 1021 1020 1019 1016 1016 1014 1014 1013 1008 1005 992 992 992 992 993 997 1009 1009 1014 1018 1018 1018 1018 1019 1019 1021 1022 1024 1026 1027 1028 1029 1030 1030 1032 1032 1033 1033 1033 1033 1034 1034 1034 1034 1033 1033 1033 1033 1031 1031 1029 1028 1026 1024 1022 1021 1015 1007 994 988 985 984 984 979 976 976 976 983 985 1000 1007 1015 1017 1021 1024 1028 1030 1031 1032 1033 1035 1037 1038 1040 1040 1040 1041 1041 1042 1042 1042 1042 1042 1041 1041 1039 1038 1037 1036 1034 1031 1029 1026 1021 1015 1013 1013 1013 1011 1007 1004 1003 1001 999 995 992 992 992 997 1005 1015 1019 1020 1022 1024 1030 1036 1039 1041 1043 1043 1044 1045 1045 1047 1047 1047 1047 1047 1047 1046 1046 1045 1045 1043 1042 1040 1039 1036 1034 1032 1029 1027 1024 1023 1020 1019 1017 1014 1014 1012 1010 1009 1008 1006 1006 1006 1007 1007 1010 1014 1017 1020 1024 1027 1029 1033 1034 1035 1038 1040 1041 1043 1044 1046 1046 1047 1047 1047 1047 1047 1047 1046 1045 1041 1039 1037 1035 1034 1031 1029 1027 1025 1021 1018 1015 1012 1009 1006 1003 999 997 996 996 993 991 990 990 989 989 988 988 988 989 992 995 1000 1005 1009 1010 1015 1022 1026 1029 1031 1037 1041 1044 1044 1044 1044 1044 1043 1043 1041 1038 1034 1029 1026 1023 1020 1017 1013 1009 1004 1000 996 993 990 988 984 984 984 984 984 984 984 985 987 987 988 989 992 995 999 999 1000 1003 1007 1009 1012 1018 1026 1030 1033 1034 1034 1037 1037 1037 1038 1038 1038 1038 1038 1038 1035 1034 1031 1027 1023 1018 1013 1010 1007 993 982 976 974 974 974 977 977 977 976 974 973 973 971 970 969 969 969 974 982 985 989 997 1002 1009 1015 1018 1025 1025 1026 1026 1028 1032 1034 1035 1037 1040 1042 1045 1045 1045 1046 1047 1048 1048 1048 1048 1048 1048 1048 1048 1048 1048 1048 1048 1048 1048 1048 1048 1048 1048 1047 1047 1047 1047 1047 1047 1047 1048 1048 1048 1048 1048 1048 1047 1048 1047 1047 1047 1046 1046 1044 1044 1043 1042 1040 1037 1037 1037 1037 1037 1035 1032 1032 1032 1036 1036 1036 0 0 0 0 0 0 0 648 643 643 643 650 676 680 680 680 653 653 653 653 0 0 0 0 0 0 0 0 0 0 0 0 0 0 0 0 0 0 0 0 0 0 0 0 0 0 0 0 0 0 0 0 0 0 0 0 0 0 0 0 0 0 0 0 0 0 0 0 0 0 0 0 0 0 0 0 0 0 0 0 0 0 0 0 0 0 0 0 0 0 0 0 0 0 0 0 0 0 0 0 0 0 0 0 0 0 0 0 0 0 0 0 0 0 0 0 0 0 0 0
598 598 599 612 624 633 642 646 655 670 702 721 738 785 796 800 814 827 842 860 879 903 920 948 964 976 989 1002 1027 1031 1052 1068 1083 1093 1101 1101 1101 1098 0 0 0 0 0 0 954 954 956 961 963 966 967 970 973 977 983 986 987 988 989 990 991 991 992 993 995 995 995 995 995 995 996 996 997 997 996 0 0 0 0 0 0 0 964 994 1008 1009 1016 1017 1017 1017 1017 1017 1017 1017 1018 1018 1019 1020 1021 1021 1022 1023 1024 1025 1026 1026 1026 1027 1027 1027 1027 1027 1027 1027 1027 1026 1026 1024 1022 1020 1020 1017 1017 1017 1014 1011 1005 993 992 975 967 967 967 1000 1002 1006 1008 1010 1014 1015 1016 1017 1021 1023 1025 1027 1028 1028 1029 1031 1032 1032 1034 1034 1034 1034 1034 1034 1035 1035 1035 1034 1034 1034 1033 1032 1031 1030 1028 1026 1024 1022 1017 1008 998 989 988 986 984 984 979 976 976 976 979 984 994 1005 1011 1015 1021 1024 1028 1030 1031 1033 1035 1036 1038 1039 1040 1041 1042 1043 1043 1043 1043 1043 1043 1043 1042 1042 1040 1038 1037 1034 1033 1031 1027 1022 1017 1014 1013 1013 1013 1010 1007 1004 1002 999 997 994 991 991 991 996 999 1006 1012 1019 1021 1023 1027 1032 1035 1037 1039 1041 1043 1045 1046 1047 1048 1048 1048 1048 1047 1047 1046 1046 1045 1044 1042 1040 1038 1035 1033 1031 1028 1026 1024 1022 1020 1018 1015 1014 1013 1012 1010 1008 1006 1004 1003 1003 1003 1006 1008 1011 1014 1018 1021 1023 1028 1032 1033 1033 1037 1038 1041 1041 1044 1046 1046 1047 1048 1048 1048 1048 1047 1046 1044 1041 1038 1037 1035 1034 1031 1029 1027 1025 1021 1018 1015 1012 1009 1006 1002 999 996 994 994 993 991 989 988 988 988 987 987 987 987 991 992 995 999 1003 1010 1015 1019 1025 1028 1030 1036 1041 1044 1045 1045 1045 1045 1044 1043 1041 1038 1035 1032 1030 1026 1022 1018 1014 1008 1003 998 996 993 991 988 985 984 984 984 984 984 985 986 987 989 990 990 992 997 999 1000 1002 1005 1008 1011 1015 1021 1030 1035 1035 1035 1035 1037 1038 1038 1039 1039 1040 1040 1040 1039 1038 1036 1032 1028 1025 1020 1013 1010 1007 993 982 976 974 974 974 977 977 977 976 974 973 973 972 971 971 971 974 980 985 989 994 1003 1012 1016 1017 1022 1025 1026 1027 1029 1032 1033 1037 1038 1038 1040 1042 1045 1046 1046 1047 1048 1049 1049 1049 1049 1049 1050 1050 1050 1050 1050 1050 1050 1050 1049 1049 1049 1049 1049 1048 1048 1048 1048 1048 1048 1049 1049 1049 1049 1049 1049 1050 1050 1050 1050 1049 1049 1048 1048 1047 1046 1045 1044 1042 1040 1038 1038 1037 1037 1037 1037 1036 1037 1037 1036 1039 1039 0 0 0 0 0 0 648 647 647 647 650 676 676 676 653 653 653 653 653 0 0 0 0 0 0 0 0 0 0 0 0 0 0 0 0 0 0 0 0 0 0 0 0 0 0 0 0 0 0 0 0 0 0 0 0 0 0 0 0 0 0 0 0 0 0 0 0 0 0 0 0 0 0 0 0 0 0 0 0 0 0 0 0 0 0 0 0 0 0 0 0 0 0 0 0 0 0 0 0 0 0 0 0 0 0 0 0 0 0 0 0 0 0 0 0 0 0 0 0
597 597 599 612 624 633 642 646 654 670 0 0 0 0 801 805 816 827 848 864 883 909 933 949 964 977 990 1005 1029 1031 1052 1069 1083 1093 1101 1106 1108 1108 1108 0 0 0 0 0 0 960 960 962 963 967 969 971 973 978 983 986 988 990 991 992 992 993 995 995 997 1000 1000 1000 1000 999 999 999 1001 1001 1001 991 981 979 972 962 962 962 973 997 1010 1013 1020 1020 1020 1020 1019 1017 1017 1017 1019 1020 1020 1020 1022 1024 1024 1025 1026 1026 1027 1027 1028 1028 1028 1028 1028 1029 1029 1028 1028 1028 1026 1026 1025 1023 1022 1022 1021 1019 1013 1008 1004 993 992 964 964 951 951 966 979 999 1008 1010 1013 1014 1015 1017 1021 1023 1027 1028 1028 1030 1031 1032 1033 1034 1034 1035 1035 1036 1036 1036 1036 1036 1036 1036 1035 1034 1034 1033 1031 1030 1028 1025 1024 1022 1016 1006 995 988 988 987 984 983 979 974 973 973 973 975 987 997 1005 1015 1021 1024 1027 1030 1031 1033 1035 1036 1038 1039 1041 1042 1043 1043 1043 1044 1044 1044 1043 1043 1042 1042 1040 1038 1036 1034 1032 1030 1025 1018 1015 1012 1012 1012 1011 1009 1005 1002 997 995 994 991 990 990 990 995 999 1003 1007 1010 1013 1018 1021 1028 1032 1035 1037 1041 1043 1045 1046 1048 1048 1048 1048 1048 1048 1048 1048 1046 1045 1044 1042 1040 1038 1034 1032 1029 1027 1025 1023 1021 1019 1017 1014 1013 1012 1009 1006 1003 1001 1001 1000 1000 1000 1002 1005 1007 1010 1012 1016 1020 1025 1029 1030 1031 1031 1036 1041 1041 1042 1045 1046 1047 1048 1048 1048 1048 1047 1045 1044 1041 1038 1037 1035 1033 1031 1029 1027 1024 1021 1018 1015 1011 1008 1005 1002 999 996 994 994 993 991 989 988 988 988 987 987 987 987 991 992 993 994 999 1008 1015 1019 1023 1028 1030 1036 1041 1042 1045 1045 1045 1045 1045 1044 1041 1039 1038 1036 1030 1026 1022 1019 1015 1008 1003 998 995 993 991 988 986 985 985 985 985 985 986 986 988 989 990 991 993 997 1000 1002 1002 1006 1008 1013 1022 1030 1036 1036 1036 1036 1036 1038 1040 1040 1040 1041 1041 1042 1042 1042 1041 1040 1036 1035 1031 1023 1015 1015 1012 1004 998 991 975 975 975 976 976 976 976 973 973 973 973 974 975 976 979 985 988 991 1003 1014 1020 1020 1024 1028 1029 1029 1031 1031 1033 1038 1040 1040 1040 1042 1044 1047 1047 1048 1049 1049 1049 1050 1050 1051 1051 1051 1051 1051 1051 1051 1051 1051 1051 1051 1051 1050 1050 1050 1050 1049 1049 1049 1049 1050 1050 1050 1050 1051 1051 1051 1051 1051 1051 1051 1051 1050 1050 1049 1048 1048 1048 1047 1047 1045 1044 1042 1040 1040 1039 1039 1038 1039 1039 1036 1039 1045 1039 0 0 0 0 0 648 643 643 643 649 664 664 664 631 624 624 624 0 0 0 0 0 0 0 0 0 0 0 0 0 0 0 0 0 0 0 0 0 0 0 0 0 0 0 0 0 0 0 0 0 0 0 0 0 0 0 0 0 0 0 0 0 0 0 0 0 0 0 0 0 0 0 0 0 0 0 0 0 0 0 0 0 0 0 0 0 0 0 0 0 0 0 0 0 0 0 0 0 0 0 0 0 0 0 0 0 0 0 0 0 0 0 0 0 0 0 0 0
597 597 599 610 622 633 641 646 654 673 0 0 0 787 807 811 816 827 848 864 883 909 933 953 968 977 993 1006 1032 1035 1056 1071 1087 1094 1102 1109 1119 1121 1121 1121 1112 1111 0 0 0 0 0 972 971 971 971 973 973 979 984 986 988 991 993 993 995 996 996 998 1000 1001 1002 1003 1003 1003 1002 1002 1002 1002 1002 1003 1002 1001 992 992 992 992 996 1007 1011 1015 1020 1020 1020 1020 1020 1020 1019 1019 1020 1020 1020 1021 1023 1024 1026 1027 1027 1027 1028 1029 1029 1029 1029 1030 1030 1030 1030 1030 1030 1029 1029 1027 1027 1026 1024 1023 1021 1021 1013 1008 1004 993 973 960 956 951 951 956 958 976 988 1006 1009 1012 1014 1016 1023 1025 1027 1028 1029 1030 1032 1033 1033 1034 1035 1036 1036 1036 1037 1037 1037 1037 1037 1037 1036 1035 1034 1033 1032 1030 1028 1025 1023 1021 1015 1000 988 988 987 987 984 982 978 974 970 969 969 969 977 982 995 1010 1015 1018 1023 1027 1031 1033 1035 1037 1038 1040 1041 1042 1043 1044 1044 1044 1044 1044 1044 1043 1042 1042 1040 1038 1036 1033 1030 1025 1020 1017 1014 1012 1011 1011 1011 1007 1001 997 993 990 986 983 983 983 983 985 992 999 1004 1005 1009 1011 1012 1018 1025 1029 1035 1041 1043 1044 1046 1048 1048 1048 1049 1048 1048 1048 1048 1047 1046 1044 1042 1040 1037 1034 1032 1029 1027 1024 1023 1021 1018 1017 1014 1012 1011 1009 1006 1001 1000 1000 999 999 999 1000 1001 1001 1004 1009 1011 1015 1020 1021 1024 1026 1031 1035 1039 1040 1041 1045 1046 1047 1048 1048 1048 1048 1047 1045 1044 1041 1038 1037 1035 1033 1031 1029 1027 1024 1021 1018 1015 1011 1008 1005 1002 999 996 994 994 993 991 989 988 988 987 987 987 987 987 991 991 992 994 998 1004 1010 1018 1023 1028 1030 1036 1038 1040 1044 1046 1046 1046 1045 1044 1042 1041 1040 1039 1034 1026 1022 1020 1016 1008 1003 998 995 993 991 988 986 986 986 986 986 986 987 987 988 989 990 991 993 998 1000 1002 1004 1006 1010 1016 1027 1039 1039 1039 1038 1038 1038 1038 1040 1041 1041 1041 1042 1042 1042 1042 1042 1041 1040 1040 1036 1030 1025 1020 1015 1004 1000 994 978 972 972 972 972 972 971 971 971 972 973 974 978 979 985 988 989 993 1012 1024 1026 1033 1033 1035 1035 1035 1035 1035 1041 1041 1041 1041 1042 1043 1046 1048 1048 1049 1050 1050 1050 1051 1052 1052 1052 1052 1052 1052 1052 1052 1052 1052 1052 1052 1052 1051 1051 1051 1051 1051 1051 1051 1051 1051 1051 1051 1052 1052 1052 1053 1053 1054 1054 1053 1053 1053 1052 1051 1050 1050 1050 1050 1048 1047 1047 1045 1043 1043 1043 1040 1039 1038 1038 1038 1039 1041 1041 1039 0 0 0 0 0 638 638 638 638 0 0 0 0 0 0 0 0 0 0 0 0 0 488 488 0 0 0 0 0 0 0 0 0 0 0 0 0 0 0 0 0 0 0 0 0 0 0 0 0 0 0 0 0 0 0 0 0 0 0 0 0 0 0 0 0 0 0 0 0 0 0 0 0 0 0 0 0 0 0 0 0 0 0 0 0 0 0 0 0 0 0 0 0 0 0 0 0 0 0 0 0 0 0 0 0 0 0 0 0 0 0 0 0 0 0 0 0
597 597 599 610 622 633 642 649 654 676 0 0 0 790 808 812 819 826 848 864 883 909 933 953 968 981 996 1016 1044 1047 1061 1073 1087 1094 1102 1110 1127 1135 1135 1135 1125 1117 1113 0 0 0 0 0 982 976 976 976 976 981 985 987 988 991 995 998 998 999 999 1000 1001 1002 1003 1004 1006 1006 1006 1006 1006 1006 1007 1007 1007 1007 1005 1005 1005 1005 1006 1012 1015 1019 1019 1020 1020 1020 1020 1020 1020 1020 1020 1021 1022 1022 1024 1025 1026 1027 1028 1029 1029 1030 1030 1030 1030 1031 1031 1031 1031 1031 1031 1031 1030 1029 1028 1027 1025 1024 1022 1021 1014 1006 998 986 973 960 951 949 946 949 951 955 976 1000 1005 1009 1012 1016 1023 1028 1029 1029 1029 1030 1032 1034 1035 1035 1037 1037 1038 1038 1038 1038 1038 1038 1038 1038 1037 1037 1036 1034 1033 1030 1028 1024 1020 1018 1010 987 987 987 986 986 983 975 966 964 963 963 964 966 972 976 988 1003 1008 1011 1017 1022 1027 1031 1034 1037 1038 1040 1041 1042 1043 1044 1044 1045 1045 1045 1044 1043 1042 1041 1040 1038 1034 1032 1027 1019 1017 1017 1013 1011 1010 1009 1008 1004 999 995 990 983 980 977 975 975 975 978 982 988 990 997 1002 1005 1006 1008 1017 1024 1031 1040 1043 1044 1046 1048 1048 1048 1049 1048 1048 1048 1048 1047 1046 1044 1042 1040 1037 1034 1032 1029 1027 1024 1022 1019 1018 1016 1013 1011 1009 1006 1003 1000 999 998 998 998 998 998 998 998 998 1002 1006 1011 1015 1021 1023 1026 1029 1034 1039 1040 1041 1045 1046 1047 1048 1048 1048 1048 1048 1046 1045 1043 1040 1037 1035 1033 1032 1029 1027 1024 1021 1018 1015 1011 1008 1004 1003 1000 997 996 995 995 994 991 988 988 987 987 987 987 987 990 991 992 994 998 1004 1010 1018 1023 1029 1033 1035 1037 1040 1044 1046 1046 1046 1045 1045 1044 1043 1042 1039 1034 1027 1022 1020 1018 1011 1003 998 996 993 991 988 986 986 986 987 987 987 987 988 988 989 990 992 995 998 1001 1003 1006 1011 1017 1025 1044 1044 1044 1040 1040 1039 1039 1039 1040 1041 1043 1043 1044 1044 1044 1044 1043 1041 1041 1040 1039 1036 1032 1027 1023 1019 1007 994 978 972 970 969 969 964 964 964 966 967 969 974 981 988 994 997 1000 1008 1033 1034 1035 1034 1034 1036 1036 1036 1037 1038 1041 1042 1042 1042 1044 1045 1047 1049 1050 1052 1052 1052 1053 1053 1053 1053 1053 1053 1053 1053 1053 1054 1054 1054 1053 1053 1053 1052 1052 1052 1052 1052 1052 1052 1052 1052 1053 1053 1054 1054 1054 1054 1054 1055 1055 1055 1054 1054 1054 1052 1052 1052 1051 1051 1050 1050 1049 1049 1047 1047 1045 1043 1041 1038 1038 1037 1037 1043 1043 1036 1036 0 0 0 0 0 0 0 0 0 0 0 0 0 0 0 0 0 0 0 474 474 457 455 433 0 0 0 0 0 0 0 0 0 0 0 0 0 0 0 0 0 0 0 0 0 0 0 0 0 0 0 0 432 0 0 0 0 0 0 0 0 0 0 0 0 0 0 0 0 0 0 0 0 0 0 0 0 0 0 0 0 0 0 0 0 0 0 0 0 0 0 0 0 0 0 0 0 0 0 0 0 0 0 0 0 0 0 0 0 0 0 0 0 0 0 0
595 595 596 609 620 631 642 650 658 680 709 0 0 792 809 812 819 826 848 867 886 906 931 953 970 985 1005 1025 1046 1051 1068 1079 1088 1094 1103 1116 1128 1142 1142 1142 1129 1129 1129 1122 1104 0 0 0 0 0 988 988 987 987 988 988 989 991 996 1000 1000 1001 1001 1003 1004 1005 1006 1007 1009 1009 1009 1009 1009 1009 1009 1009 1010 1009 1009 1010 1010 1010 1012 1012 1016 1019 1019 1020 1020 1020 1020 1020 1021 1021 1021 1022 1023 1024 1025 1026 1027 1028 1029 1030 1031 1031 1031 1032 1032 1032 1032 1032 1032 1032 1032 1032 1030 1029 1029 1027 1025 1024 1022 1021 1013 1004 994 986 973 960 949 949 946 945 945 945 948 967 985 998 1006 1016 1023 1028 1029 1029 1030 1031 1032 1035 1035 1036 1037 1038 1039 1039 1039 1039 1039 1039 1039 1039 1038 1038 1036 1034 1033 1030 1027 1020 1014 1006 994 982 982 982 981 981 978 968 958 957 957 957 957 964 971 974 978 986 1000 1011 1017 1021 1022 1026 1033 1036 1038 1040 1041 1042 1043 1044 1044 1045 1045 1045 1044 1043 1042 1041 1039 1037 1033 1029 1025 1017 1015 1014 1012 1010 1007 1005 1003 1000 999 995 988 983 979 977 974 974 974 977 981 984 987 991 998 1001 1001 1004 1012 1022 1030 1040 1042 1043 1045 1046 1048 1048 1049 1049 1049 1048 1048 1047 1046 1044 1042 1040 1037 1036 1033 1030 1027 1024 1022 1019 1018 1015 1012 1008 1006 1003 1001 999 997 996 996 996 996 996 996 996 996 996 1000 1008 1015 1019 1023 1025 1029 1034 1038 1040 1040 1043 1046 1047 1048 1049 1049 1049 1049 1049 1047 1046 1043 1038 1038 1034 1032 1030 1028 1025 1021 1019 1016 1011 1007 1004 1003 1000 999 999 998 998 998 994 990 987 987 987 987 987 988 990 991 991 995 998 1004 1010 1018 1024 1030 1033 1036 1037 1040 1043 1046 1047 1047 1047 1047 1045 1044 1042 1041 1035 1028 1022 1021 1019 1014 1006 1001 996 993 991 988 987 987 987 987 988 988 988 989 990 991 991 992 995 998 1005 1011 1016 1020 1027 1038 1047 1047 1047 1045 1044 1043 1042 1042 1042 1043 1044 1045 1046 1046 1046 1045 1045 1044 1042 1042 1041 1041 1040 1034 1028 1027 1015 1008 1005 989 985 972 969 962 962 962 964 966 968 975 983 997 1004 1005 1007 1016 1033 1034 1037 1036 1036 1037 1037 1037 1040 1041 1042 1043 1044 1044 1046 1047 1049 1051 1052 1052 1053 1054 1054 1054 1054 1054 1054 1054 1054 1054 1054 1054 1054 1054 1054 1054 1054 1054 1054 1054 1053 1054 1054 1054 1054 1054 1054 1055 1056 1056 1056 1056 1056 1056 1056 1056 1056 1055 1055 1054 1053 1053 1053 1053 1052 1051 1051 1049 1048 1048 1048 1046 1045 1041 1041 1039 1038 1038 1038 1036 1036 0 0 0 0 0 0 0 0 0 0 548 540 534 513 503 502 502 0 475 465 465 457 455 445 445 0 0 0 0 0 0 0 0 0 0 0 0 0 0 0 0 0 0 0 0 0 0 0 0 0 0 0 409 407 407 407 413 417 426 426 426 0 0 0 0 0 0 0 0 0 0 0 0 0 0 0 0 0 0 0 0 0 0 0 0 0 0 0 0 0 0 0 0 0 0 0 0 0 0 0 0 0 0 0 0 0 0 0 0 0 0 0 0 0 0 0
595 595 596 606 620 631 644 660 669 689 710 0 0 793 809 812 819 826 848 868 887 906 929 948 970 1009 1022 1036 1053 1057 1071 1082 1092 1100 1109 1119 1130 1142 1149 1149 1149 1138 1136 1132 1131 1131 0 0 0 0 0 999 993 992 992 992 992 994 999 1001 1002 1004 1004 1006 1006 1008 1009 1009 1011 1011 1011 1011 1011 1011 1011 1011 1013 1011 1013 1014 1013 1013 1015 1016 1017 1020 1020 1020 1020 1020 1021 1021 1022 1022 1023 1023 1024 1025 1027 1027 1029 1029 1030 1031 1031 1032 1032 1033 1033 1033 1033 1033 1033 1033 1032 1032 1031 1030 1029 1027 1025 1024 1022 1020 1012 1003 991 983 983 976 959 955 951 945 945 945 947 961 975 988 1002 1015 1023 1028 1029 1030 1030 1031 1033 1035 1035 1036 1037 1038 1040 1040 1040 1040 1040 1040 1040 1040 1039 1038 1036 1034 1033 1029 1021 1015 1006 991 982 977 977 977 976 976 970 961 957 956 952 952 952 957 962 972 977 981 992 1003 1012 1019 1020 1022 1030 1035 1037 1039 1040 1041 1043 1044 1044 1045 1045 1045 1043 1043 1042 1040 1037 1034 1031 1027 1021 1015 1014 1013 1012 1008 1006 1003 1000 997 996 993 988 982 978 974 973 973 973 976 981 983 987 991 997 1000 1001 1001 1007 1016 1026 1032 1034 1036 1037 1042 1044 1047 1049 1049 1049 1049 1048 1047 1046 1044 1042 1040 1040 1038 1035 1032 1028 1024 1022 1019 1018 1015 1012 1008 1004 1002 1000 998 995 995 995 995 995 995 995 995 995 995 995 1002 1012 1019 1022 1025 1029 1031 1035 1036 1040 1043 1046 1047 1049 1050 1051 1051 1051 1050 1048 1047 1045 1042 1039 1034 1032 1030 1028 1028 1024 1021 1017 1011 1007 1004 1003 1002 999 999 999 999 998 996 990 988 987 987 987 987 988 988 990 991 995 1004 1013 1016 1020 1027 1031 1034 1037 1038 1040 1043 1046 1047 1048 1048 1048 1047 1045 1043 1041 1037 1034 1029 1022 1019 1014 1009 1004 999 996 993 990 988 988 988 988 989 989 989 992 992 992 993 993 995 1005 1014 1023 1025 1031 1041 1047 1047 1047 1047 1046 1046 1045 1045 1045 1045 1045 1046 1046 1047 1048 1048 1048 1048 1048 1047 1044 1043 1043 1043 1040 1034 1034 1034 1028 1028 1020 1010 988 969 962 962 962 964 966 968 975 991 1005 1007 1009 1011 1021 1035 1037 1037 1037 1037 1038 1041 1041 1041 1042 1044 1044 1045 1047 1048 1050 1051 1052 1053 1054 1054 1055 1055 1056 1056 1056 1056 1056 1056 1056 1056 1056 1056 1056 1055 1055 1055 1055 1055 1055 1055 1055 1055 1055 1055 1055 1056 1056 1057 1057 1057 1057 1058 1058 1057 1057 1057 1057 1057 1056 1055 1055 1054 1054 1053 1053 1052 1051 1050 1050 1050 1049 1049 1047 1041 1041 1040 1040 1040 1038 1036 0 0 0 0 0 0 0 0 0 548 540 534 534 513 503 502 502 479 475 474 474 457 455 445 445 0 0 0 0 0 0 0 0 0 0 0 0 0 0 0 0 0 0 0 0 0 0 0 0 0 0 0 0 0 407 407 407 407 407 0 387 387 0 0 0 0 0 0 0 0 0 0 0 0 0 0 0 0 0 0 0 0 0 0 0 0 0 0 0 0 0 0 0 0 0 0 0 0 0 0 0 0 0 0 0 0 0 0 0 0 0 0 0 0 0 0
595 595 596 606 619 631 644 660 669 691 710 0 780 798 812 816 829 839 849 868 887 906 929 948 968 1009 1022 1037 1053 1057 1071 1082 1092 1103 1112 1124 1133 1142 1149 1149 1149 1138 1137 1136 1136 1136 1135 1129 0 0 0 0 1000 998 997 997 997 998 1000 1004 1005 1006 1007 1008 1008 1010 1011 1012 1012 1013 1014 1015 1015 1015 1015 1015 1015 1015 1015 1015 1015 1015 1016 1017 1019 1022 1022 1022 1021 1021 1021 1022 1024 1024 1024 1025 1026 1027 1028 1028 1029 1030 1031 1032 1032 1033 1034 1034 1034 1035 1035 1035 1034 1034 1033 1032 1031 1031 1029 1027 1025 1023 1020 1018 1011 996 983 981 979 976 959 949 947 941 936 936 936 953 968 983 995 1011 1021 1026 1030 1030 1030 1031 1033 1035 1035 1036 1038 1039 1040 1040 1041 1041 1041 1041 1040 1040 1039 1038 1036 1034 1031 1025 1017 1009 998 986 981 976 976 975 973 970 961 958 957 954 949 944 944 944 948 960 970 977 980 989 996 1002 1009 1013 1018 1026 1032 1037 1040 1041 1042 1044 1044 1044 1044 1044 1043 1042 1041 1039 1037 1033 1028 1023 1018 1015 1013 1012 1011 1007 1004 1001 998 996 991 987 985 980 978 974 972 972 972 975 978 981 982 984 986 986 991 997 1002 1009 1018 1021 1024 1029 1035 1041 1044 1047 1048 1049 1049 1049 1048 1047 1046 1045 1042 1041 1040 1038 1036 1033 1028 1025 1022 1019 1017 1014 1011 1007 1003 1000 997 995 994 994 994 994 994 994 994 994 993 993 993 999 1009 1017 1020 1020 1026 1029 1032 1035 1037 1043 1046 1048 1049 1051 1052 1052 1052 1052 1050 1048 1048 1047 1043 1038 1033 1030 1030 1029 1028 1023 1017 1013 1007 1006 1005 1003 1002 1000 999 999 998 996 992 989 987 987 987 987 988 988 990 991 999 1015 1018 1022 1026 1030 1032 1034 1038 1040 1042 1043 1047 1048 1049 1049 1049 1049 1047 1046 1043 1040 1038 1034 1027 1022 1016 1010 1007 1003 999 998 997 994 993 993 992 992 992 992 993 994 994 994 996 1003 1013 1022 1032 1036 1037 1045 1048 1048 1048 1048 1048 1046 1046 1046 1047 1047 1047 1048 1048 1049 1049 1050 1050 1050 1050 1049 1048 1046 1045 1043 1040 1040 1040 1041 1041 1041 1023 1018 1009 997 988 974 966 966 966 968 975 992 1010 1010 1014 1022 1037 1037 1037 1039 1039 1040 1041 1041 1042 1042 1044 1044 1046 1047 1049 1050 1051 1052 1053 1054 1054 1055 1055 1056 1057 1057 1057 1058 1058 1058 1057 1058 1057 1057 1057 1057 1057 1057 1057 1056 1056 1056 1056 1057 1057 1057 1057 1057 1057 1058 1059 1059 1059 1059 1059 1059 1059 1059 1058 1058 1058 1057 1056 1056 1055 1054 1054 1053 1052 1051 1050 1050 1050 1049 1047 1042 1040 1040 1040 1040 1039 1036 0 0 0 0 0 0 0 0 0 538 534 534 534 513 503 502 502 483 475 474 457 455 0 0 0 0 0 0 0 0 0 0 0 0 0 0 0 0 0 0 0 0 0 458 465 488 488 488 0 0 0 0 0 0 386 407 407 407 0 0 0 398 0 0 0 0 0 0 0 0 0 0 0 0 0 0 0 0 0 0 0 0 0 0 0 0 0 0 0 0 0 0 0 0 0 0 0 0 0 0 0 0 0 0 0 0 0 0 0 0 0 0 0 0 0 0
592 592 594 604 618 633 645 660 669 691 710 0 780 802 818 822 836 850 862 875 893 910 929 948 972 1009 1022 1037 1053 1057 1071 1082 1092 1103 1114 1124 1134 1142 1149 1149 1149 1142 1142 1142 1142 1142 1142 1142 1141 0 0 0 0 1006 1006 1006 1008 1008 1008 1008 1008 1008 1008 1009 1009 1010 1012 1012 1013 1013 1014 1017 1017 1018 1018 1018 1018 1017 1016 1016 1016 1016 1017 1017 1019 1021 1021 1022 1021 1022 1022 1024 1025 1025 1025 1026 1028 1029 1030 1030 1031 1032 1032 1033 1033 1034 1035 1035 1035 1035 1035 1035 1035 1034 1033 1032 1031 1031 1029 1027 1024 1022 1019 1017 1007 981 981 979 979 976 959 949 946 939 936 936 936 942 954 975 991 1003 1014 1018 1024 1029 1029 1031 1033 1035 1035 1036 1038 1039 1040 1041 1041 1041 1041 1041 1041 1040 1039 1038 1035 1032 1030 1024 1014 1006 998 984 978 976 973 973 970 964 959 950 948 946 939 939 935 935 935 943 956 965 972 977 982 989 1000 1002 1009 1018 1027 1033 1037 1039 1041 1043 1044 1044 1044 1044 1043 1042 1041 1039 1037 1032 1027 1021 1017 1014 1013 1012 1009 1005 1002 999 995 992 987 984 982 980 978 974 972 972 972 972 974 978 978 978 981 984 989 996 1000 1007 1014 1015 1018 1024 1035 1041 1044 1046 1048 1049 1049 1049 1048 1047 1046 1045 1043 1042 1041 1039 1036 1033 1030 1025 1022 1019 1016 1012 1008 1004 1001 999 997 994 993 992 992 992 992 993 993 993 993 993 993 999 1008 1014 1014 1015 1022 1029 1032 1035 1037 1043 1047 1048 1050 1052 1052 1053 1053 1053 1052 1050 1050 1048 1044 1039 1035 1033 1032 1031 1031 1025 1019 1013 1009 1008 1008 1006 1003 1001 999 996 996 996 993 991 989 987 987 987 988 988 990 991 1007 1016 1022 1028 1030 1031 1033 1036 1040 1042 1043 1045 1047 1049 1051 1051 1051 1051 1050 1048 1047 1044 1041 1036 1032 1029 1023 1017 1013 1010 1004 1003 1002 1000 998 997 997 996 994 994 994 995 995 996 1001 1009 1018 1026 1035 1041 1044 1050 1050 1050 1049 1049 1048 1047 1047 1047 1047 1048 1049 1050 1050 1051 1052 1052 1052 1052 1051 1051 1050 1049 1048 1045 1044 1044 1044 1044 1044 1044 1035 1028 1019 1011 1005 994 979 979 979 980 991 1003 1014 1021 1033 1035 1039 1039 1039 1039 1039 1040 1043 1043 1044 1045 1045 1046 1047 1049 1051 1052 1053 1054 1055 1055 1056 1056 1057 1057 1058 1058 1058 1059 1059 1059 1059 1059 1059 1059 1059 1058 1058 1058 1058 1058 1058 1058 1058 1058 1058 1058 1058 1059 1059 1060 1060 1060 1061 1061 1061 1061 1061 1061 1060 1060 1059 1058 1058 1057 1057 1057 1056 1055 1053 1052 1051 1050 1050 1050 1047 1043 1040 1039 1035 1035 1032 1015 0 0 0 0 0 0 0 0 0 530 530 530 553 553 553 507 502 500 487 474 455 445 0 0 0 0 0 501 501 501 480 0 0 0 0 0 0 0 0 0 0 0 451 465 471 475 488 489 489 0 0 0 373 0 399 407 407 407 0 0 418 418 0 0 0 0 0 0 0 0 0 0 0 0 0 0 0 0 0 0 0 0 0 0 0 0 0 0 0 0 0 0 0 0 0 0 0 0 0 0 0 0 0 0 0 0 0 0 0 0 0 0 0 0 0 0
592 592 594 604 618 637 650 659 670 691 710 0 781 802 820 825 844 857 868 879 894 913 931 951 972 1002 1019 1037 1050 1054 1066 1079 1093 1103 1115 1124 1135 1142 1148 1148 1148 1142 1142 1142 1145 1146 1149 1154 1154 1154 0 0 0 0 0 1015 1015 1014 1012 1011 1011 1011 1010 1010 1010 1010 1012 1014 1014 1014 1016 1018 1019 1019 1020 1021 1021 1021 1018 1018 1018 1018 1019 1020 1021 1022 1022 1022 1022 1023 1024 1025 1025 1026 1026 1028 1030 1031 1032 1032 1032 1033 1034 1034 1034 1036 1036 1036 1036 1036 1036 1036 1035 1034 1033 1033 1032 1031 1030 1027 1024 1022 1018 1015 1002 974 971 970 963 963 950 946 945 939 929 929 929 931 936 955 979 1000 1006 1008 1016 1027 1028 1031 1033 1035 1035 1036 1037 1039 1040 1041 1041 1041 1041 1041 1041 1040 1039 1037 1035 1032 1029 1021 1011 1005 984 977 976 976 972 971 968 964 954 948 935 934 934 931 927 927 927 936 945 954 969 975 978 982 989 994 998 1005 1019 1028 1033 1036 1039 1042 1044 1044 1044 1043 1043 1042 1040 1039 1036 1031 1024 1021 1017 1012 1010 1007 1004 1001 999 996 992 987 982 981 980 979 975 973 970 970 970 971 972 974 976 978 981 984 989 991 998 1006 1010 1011 1015 1024 1034 1040 1042 1045 1047 1050 1050 1050 1049 1048 1047 1045 1044 1044 1041 1039 1036 1034 1031 1025 1022 1017 1014 1009 1005 1001 999 998 996 993 991 990 990 990 991 992 993 993 993 993 993 999 1006 1008 1009 1015 1022 1029 1032 1035 1040 1045 1047 1048 1050 1052 1053 1053 1053 1053 1053 1053 1051 1050 1046 1044 1040 1036 1034 1033 1031 1025 1020 1014 1012 1011 1011 1009 1006 1004 999 996 996 996 996 996 992 987 987 987 990 990 994 995 1013 1022 1024 1031 1032 1033 1034 1041 1042 1045 1046 1047 1049 1050 1052 1052 1052 1052 1051 1051 1050 1049 1045 1040 1036 1032 1030 1027 1021 1016 1013 1011 1006 1003 1003 1003 1003 1003 999 998 998 998 998 1001 1007 1015 1019 1028 1038 1046 1050 1050 1050 1050 1049 1049 1049 1049 1049 1049 1049 1050 1051 1051 1052 1053 1054 1054 1054 1054 1054 1052 1052 1051 1050 1049 1047 1045 1045 1045 1045 1045 1041 1040 1031 1022 1016 1007 995 995 995 1002 1014 1040 1045 1045 1045 1041 1041 1040 1040 1040 1040 1042 1044 1045 1046 1046 1047 1048 1050 1051 1052 1053 1055 1056 1056 1057 1057 1058 1058 1059 1059 1059 1059 1060 1060 1060 1060 1060 1060 1060 1059 1059 1059 1059 1059 1059 1059 1059 1059 1059 1059 1059 1060 1060 1060 1061 1062 1062 1062 1062 1062 1062 1062 1062 1062 1061 1061 1060 1059 1059 1059 1057 1056 1055 1054 1052 1051 1050 1050 1050 1049 1046 1042 1034 1034 1033 1032 0 0 0 0 0 0 0 0 0 0 0 0 0 553 553 553 525 525 517 0 0 0 442 429 0 0 0 498 501 501 501 480 469 0 0 0 0 0 0 0 0 0 0 449 471 474 475 488 488 488 0 0 0 388 0 399 419 419 429 0 430 430 430 0 0 0 0 0 0 0 0 0 0 0 0 0 0 0 0 0 0 0 0 0 0 0 0 0 0 0 0 0 0 0 0 0 0 0 0 0 0 0 0 0 0 0 0 0 0 0 0 0 0 0 0 0 0
592 592 594 604 618 638 651 659 670 690 0 0 781 802 824 828 846 860 869 879 894 913 931 951 974 999 1017 1032 1047 1050 1065 1079 1093 1103 1115 1126 1136 1142 1148 1148 1148 1143 1143 1143 1148 1149 1151 1160 1160 1160 1155 1138 0 0 0 0 0 1022 1015 1012 1012 1012 1011 1011 1011 1011 1012 1014 1015 1016 1018 1019 1020 1021 1022 1022 1022 1022 1020 1019 1019 1019 1021 1021 1022 1022 1022 1023 1023 1023 1025 1025 1027 1027 1028 1030 1032 1032 1032 1034 1034 1034 1034 1035 1035 1037 1037 1037 1037 1037 1037 1036 1036 1036 1034 1033 1032 1032 1030 1029 1024 1022 1014 1011 981 952 952 950 949 949 943 934 931 931 926 901 901 901 918 930 952 975 982 985 998 1011 1018 1026 1033 1034 1035 1035 1037 1039 1040 1041 1041 1041 1041 1041 1041 1040 1039 1037 1034 1032 1025 1018 1009 989 977 973 970 968 968 968 965 958 954 947 934 930 929 927 922 922 922 933 942 946 958 972 972 975 977 977 988 993 1012 1022 1026 1031 1036 1040 1043 1043 1043 1043 1043 1042 1040 1036 1033 1028 1023 1020 1015 1010 1005 1005 1003 1000 997 994 989 983 980 978 978 977 973 969 969 969 969 970 970 972 974 978 980 982 989 989 991 1000 1005 1007 1015 1023 1034 1037 1041 1045 1047 1050 1051 1051 1051 1050 1048 1046 1045 1045 1042 1039 1036 1034 1031 1026 1021 1016 1011 1005 1000 997 997 996 995 993 991 988 988 988 991 992 993 993 994 997 998 1001 1006 1008 1009 1015 1022 1030 1032 1037 1042 1045 1047 1048 1050 1052 1054 1055 1055 1055 1055 1054 1053 1053 1050 1048 1045 1040 1037 1034 1032 1026 1020 1016 1014 1013 1013 1012 1010 1007 999 999 999 1001 1001 1001 999 992 992 992 994 999 1002 1008 1018 1027 1028 1032 1033 1036 1040 1043 1044 1048 1048 1049 1051 1052 1053 1053 1054 1054 1053 1053 1053 1052 1051 1046 1041 1038 1035 1034 1034 1033 1023 1019 1015 1008 1007 1006 1005 1005 1002 1000 1000 1000 1001 1007 1016 1019 1023 1035 1057 1057 1057 1055 1050 1050 1050 1050 1051 1051 1051 1051 1051 1052 1052 1053 1054 1055 1056 1056 1057 1057 1056 1056 1055 1054 1054 1053 1053 1051 1051 1049 1048 1048 1043 1042 1038 1033 1032 1025 1017 1017 1017 1018 1043 1046 1049 1049 1049 1041 1041 1041 1041 1042 1045 1046 1046 1046 1048 1048 1048 1049 1051 1053 1055 1056 1056 1057 1058 1058 1059 1059 1060 1060 1060 1060 1061 1061 1061 1061 1060 1060 1060 1060 1060 1061 1061 1061 1061 1061 1060 1060 1060 1060 1061 1061 1061 1062 1062 1062 1063 1063 1063 1063 1063 1063 1063 1063 1063 1062 1062 1061 1061 1060 1059 1059 1058 1056 1056 1053 1051 1051 1051 1051 1051 1051 1045 1034 1032 1021 0 0 0 0 0 0 0 0 0 0 0 0 0 565 565 565 565 555 555 526 0 0 0 0 0 0 0 0 498 501 501 501 480 474 469 0 0 0 0 0 0 0 0 0 461 475 480 483 483 483 475 439 434 401 399 399 399 419 429 430 451 451 451 435 0 0 0 0 0 0 0 0 0 0 0 0 0 0 0 0 0 0 0 0 0 0 0 0 0 0 0 0 0 0 0 0 0 0 0 0 0 0 0 0 0 0 0 0 0 0 0 0 0 0 0 0 0 0
593 593 595 607 621 638 651 659 670 690 0 0 781 804 825 829 852 863 870 880 894 913 931 951 974 995 1015 1029 1042 1048 1065 1079 1093 1106 1119 1129 1136 1143 1148 1148 1148 1145 1145 1145 1150 1151 1156 1163 1163 1163 1158 1149 1144 1131 0 0 0 1053 1027 1017 1017 1015 1014 1013 1013 1013 1013 1014 1017 1018 1019 1021 1022 1023 1024 1024 1024 1023 1023 1022 1022 1022 1023 1023 1023 1023 1024 1024 1024 1025 1027 1027 1028 1029 1030 1032 1033 1034 1034 1035 1035 1036 1036 1037 1037 1037 1038 1038 1038 1038 1038 1038 1038 1037 1036 1033 1033 1032 1030 1029 1023 1022 999 996 952 947 947 946 945 945 939 929 926 925 919 897 897 897 907 920 928 928 943 970 981 993 1004 1015 1024 1028 1032 1034 1036 1039 1041 1041 1041 1042 1042 1042 1041 1040 1039 1037 1034 1030 1023 1013 993 985 977 970 969 966 966 966 958 956 953 946 938 928 924 924 919 919 919 924 930 934 944 959 968 968 969 971 974 983 996 1010 1016 1024 1029 1038 1043 1043 1043 1043 1042 1040 1039 1033 1029 1027 1023 1019 1013 1008 1005 1005 1003 999 996 991 986 982 978 974 972 970 968 968 968 968 969 969 969 971 973 977 980 982 983 984 984 993 1002 1006 1013 1023 1033 1036 1041 1045 1047 1050 1052 1052 1052 1052 1051 1050 1049 1048 1044 1039 1037 1034 1031 1027 1021 1016 1011 1003 997 996 995 995 995 993 991 988 988 988 991 992 993 993 994 997 1000 1004 1006 1008 1009 1020 1031 1033 1035 1041 1042 1045 1047 1048 1050 1053 1054 1056 1056 1056 1056 1055 1055 1054 1051 1050 1047 1046 1039 1036 1033 1027 1024 1018 1017 1015 1014 1014 1013 1011 1007 1004 1004 1004 1004 1004 1004 1003 1000 1000 1000 1007 1010 1020 1027 1029 1029 1034 1036 1037 1041 1044 1047 1049 1051 1051 1052 1054 1055 1056 1056 1056 1055 1055 1055 1054 1054 1052 1048 1046 1040 1038 1035 1035 1031 1026 1017 1011 1008 1007 1007 1005 1004 1000 1000 1000 1004 1014 1017 1024 1030 1057 1058 1058 1057 1055 1051 1051 1051 1052 1053 1053 1053 1053 1053 1053 1054 1055 1056 1057 1058 1059 1059 1059 1059 1058 1058 1058 1056 1056 1056 1055 1052 1051 1051 1050 1044 1043 1042 1041 1041 1030 1025 1025 1025 1025 1048 1050 1050 1050 1049 1042 1042 1042 1046 1048 1049 1049 1049 1049 1049 1049 1051 1052 1054 1055 1056 1057 1058 1058 1059 1059 1060 1060 1061 1061 1061 1061 1062 1062 1062 1062 1062 1062 1062 1062 1062 1062 1062 1062 1062 1062 1062 1062 1062 1062 1062 1062 1063 1063 1063 1063 1064 1064 1064 1064 1065 1065 1065 1065 1064 1063 1063 1062 1061 1061 1060 1059 1058 1057 1056 1054 1051 1051 1051 1052 1052 1052 1047 1034 1028 1017 0 0 0 0 0 0 0 0 0 0 0 0 571 571 572 572 572 559 559 555 555 0 0 0 0 0 0 511 499 499 502 502 499 485 485 485 494 0 0 0 0 0 0 456 465 475 480 483 483 483 470 438 430 401 396 391 391 391 436 441 456 456 456 435 435 0 0 0 0 0 0 0 0 0 0 0 0 0 0 0 0 0 0 0 0 0 0 0 0 0 0 0 0 0 0 0 0 0 0 0 0 0 0 0 0 0 0 0 0 0 0 0 0 0 0 0 0 0
595 595 597 607 621 638 651 660 676 690 0 0 785 807 834 838 858 863 871 881 894 912 928 950 974 992 1015 1029 1042 1048 1065 1080 1098 1110 1120 1129 1136 1143 1148 1148 1148 1147 1147 1147 1153 1154 1161 1165 1165 1165 1163 1158 1150 1145 1143 0 0 1087 1040 1026 1022 1020 1020 1019 1019 1019 1019 1019 1019 1019 1020 1022 1024 1027 1027 1027 1026 1025 1024 1024 1024 1024 1025 1025 1025 1025 1025 1025 1026 1028 1028 1029 1030 1031 1033 1033 1034 1035 1036 1036 1037 1038 1038 1038 1039 1039 1039 1039 1039 1039 1039 1039 1039 1038 1037 1035 1033 1033 1030 1029 1019 995 960 959 948 946 942 941 941 941 937 927 924 921 911 893 893 893 906 911 912 915 918 945 975 983 988 1002 1013 1017 1022 1031 1034 1038 1040 1041 1041 1042 1042 1042 1041 1040 1038 1036 1031 1027 1020 1002 993 985 977 969 967 966 966 960 958 956 951 946 938 924 924 919 918 915 915 915 916 916 926 945 955 962 967 969 971 971 973 985 1001 1011 1021 1032 1042 1042 1042 1042 1041 1040 1039 1033 1029 1025 1020 1015 1010 1008 1005 1005 1003 999 995 989 986 982 976 972 968 966 966 966 966 966 967 968 969 971 973 975 975 975 975 975 975 985 995 1004 1010 1022 1024 1035 1042 1047 1049 1051 1053 1053 1053 1053 1053 1053 1053 1051 1046 1039 1037 1035 1032 1027 1021 1016 1011 1003 996 995 995 994 994 993 991 988 988 988 991 994 994 994 995 997 1002 1006 1009 1012 1016 1027 1035 1037 1039 1041 1042 1045 1047 1050 1052 1053 1055 1056 1057 1057 1057 1057 1057 1056 1055 1051 1047 1047 1044 1037 1035 1030 1025 1022 1019 1017 1015 1014 1014 1014 1010 1006 1006 1006 1007 1007 1007 1003 1003 1003 1010 1018 1024 1027 1031 1031 1032 1036 1037 1044 1046 1046 1050 1052 1053 1053 1055 1056 1057 1058 1058 1058 1058 1057 1057 1056 1056 1055 1051 1047 1043 1039 1037 1036 1036 1028 1017 1011 1009 1009 1008 1006 1005 1002 1002 1002 1010 1017 1022 1034 1053 1057 1057 1057 1055 1054 1054 1055 1055 1055 1055 1055 1055 1055 1055 1055 1057 1057 1058 1059 1060 1060 1060 1060 1060 1060 1060 1059 1059 1059 1059 1058 1058 1054 1054 1050 1048 1045 1044 1042 1041 1030 1028 1028 1028 1028 1048 1050 1050 1050 1050 1046 1046 1046 1050 1050 1050 1051 1051 1051 1051 1053 1054 1054 1056 1057 1058 1059 1059 1060 1061 1061 1062 1062 1062 1063 1063 1063 1063 1062 1062 1062 1063 1063 1063 1063 1063 1063 1063 1063 1063 1063 1063 1063 1063 1064 1064 1064 1064 1064 1064 1064 1065 1065 1065 1065 1065 1065 1065 1065 1065 1065 1064 1063 1062 1062 1060 1060 1059 1057 1057 1055 1053 1052 1052 1052 1052 1052 1047 1026 1019 1001 0 0 0 0 0 0 0 0 0 0 0 0 571 571 575 575 575 575 575 572 572 0 0 0 0 0 498 511 499 499 510 511 512 512 512 512 512 509 0 0 0 0 0 458 467 475 480 483 483 483 458 436 430 429 428 412 409 409 409 446 469 469 469 469 464 0 0 0 0 0 0 0 0 0 0 0 0 0 0 0 0 0 0 0 0 0 0 0 0 0 0 0 0 0 0 0 0 0 0 0 0 0 0 0 0 0 0 0 0 0 0 0 0 0 0 0 0 0
600 600 601 610 621 638 652 670 691 700 0 769 788 818 840 844 858 863 872 883 896 912 928 950 972 992 1015 1029 1042 1048 1066 1084 1098 1110 1120 1129 1137 1143 1147 1147 1147 1151 1151 1151 1157 1159 1161 1167 1170 1170 1170 1165 1165 1165 1161 1161 1161 1139 0 0 0 0 1026 1026 1026 1026 1026 1024 1023 1023 1023 1024 1025 1029 1029 1029 1027 1027 1027 1027 1027 1027 1027 1027 1027 1027 1027 1027 1028 1029 1030 1031 1031 1033 1033 1035 1035 1037 1037 1038 1038 1039 1039 1040 1040 1040 1040 1040 1040 1040 1040 1040 1039 1039 1037 1035 1034 1033 1030 1025 1013 978 957 955 942 940 940 939 939 939 933 927 923 910 894 892 892 892 903 909 910 911 917 934 950 958 963 981 1003 1010 1010 1021 1029 1036 1040 1041 1041 1042 1042 1042 1041 1040 1038 1035 1030 1024 1011 1002 993 985 977 972 967 966 960 959 957 955 949 944 938 924 921 919 917 915 915 915 916 916 923 930 941 952 958 963 964 967 967 970 980 1006 1012 1021 1032 1039 1041 1041 1041 1040 1039 1033 1029 1025 1020 1013 1010 1008 1008 1006 1003 999 993 989 983 978 972 968 966 964 964 964 964 964 965 968 969 971 973 974 974 974 974 974 974 981 993 1003 1010 1017 1023 1034 1044 1047 1049 1051 1053 1053 1053 1055 1055 1055 1055 1051 1048 1045 1045 1044 1040 1030 1022 1016 1011 1003 995 993 993 993 993 993 991 989 989 989 992 995 995 995 997 998 1003 1009 1013 1015 1020 1029 1037 1040 1041 1043 1046 1046 1048 1051 1053 1054 1056 1058 1058 1058 1059 1059 1059 1058 1056 1054 1049 1049 1045 1040 1040 1038 1030 1024 1020 1017 1015 1015 1015 1014 1010 1006 1006 1006 1007 1007 1007 1008 1009 1009 1017 1022 1024 1028 1032 1035 1041 1046 1046 1047 1048 1050 1052 1055 1055 1055 1056 1057 1059 1060 1060 1060 1060 1060 1060 1059 1059 1057 1053 1050 1046 1043 1042 1039 1036 1028 1021 1019 1017 1014 1008 1006 1005 1005 1005 1005 1014 1021 1036 1049 1053 1053 1054 1055 1055 1055 1056 1057 1057 1057 1057 1057 1057 1057 1057 1058 1059 1059 1061 1061 1061 1062 1062 1062 1062 1062 1062 1062 1062 1062 1062 1061 1060 1055 1054 1051 1048 1048 1045 1044 1042 1035 1028 1028 1028 1028 1048 1050 1050 1050 1050 1050 1050 1051 1051 1051 1051 1052 1053 1053 1055 1055 1056 1057 1058 1059 1060 1060 1061 1062 1062 1063 1064 1064 1064 1064 1064 1063 1063 1063 1063 1063 1063 1064 1064 1064 1064 1064 1064 1065 1065 1064 1065 1065 1065 1065 1065 1065 1065 1065 1066 1066 1066 1066 1067 1067 1066 1066 1066 1066 1066 1066 1065 1064 1063 1062 1062 1061 1059 1058 1057 1056 1055 1054 1054 1054 1054 1052 0 0 0 874 872 872 873 873 873 873 0 0 0 0 0 0 571 571 601 601 601 591 591 572 0 0 0 0 0 0 501 501 482 482 482 510 515 518 528 530 532 532 532 0 0 462 462 473 475 475 475 475 475 475 458 444 444 438 434 432 0 0 0 0 499 499 499 499 499 501 501 501 0 0 0 0 0 0 0 0 0 0 0 0 0 0 0 0 0 0 0 0 0 0 0 0 0 0 0 0 0 0 0 0 0 0 0 0 0 0 0 0 0 0 0 0 0 0 0 0 0 0
602 602 603 612 621 638 657 678 691 0 0 772 796 819 840 844 858 863 872 887 900 912 928 950 972 992 1015 1029 1043 1049 1066 1084 1098 1111 1121 1129 1136 1143 1143 1145 1147 1147 1147 1151 1157 1159 1161 1167 1170 1173 1173 1173 1170 1170 1170 1173 1173 1173 0 0 0 0 0 1037 1036 1033 1030 1028 1025 1025 1025 1026 1028 1031 1031 1031 1029 1028 1028 1028 1029 1029 1029 1029 1029 1029 1029 1029 1030 1031 1032 1033 1034 1035 1035 1036 1037 1038 1038 1039 1040 1040 1041 1041 1042 1042 1042 1042 1042 1042 1041 1040 1040 1039 1038 1038 1034 1032 1027 1020 1007 976 957 955 942 940 940 938 938 938 933 924 909 891 886 886 886 887 895 903 907 910 915 923 932 939 950 961 979 996 1004 1010 1020 1031 1037 1040 1041 1041 1041 1041 1041 1040 1038 1035 1029 1022 1005 1002 995 985 977 972 966 963 960 959 957 954 947 944 933 924 921 919 917 915 915 915 916 916 923 924 928 934 942 948 955 956 957 959 979 996 1006 1020 1031 1039 1041 1041 1041 1040 1039 1036 1029 1025 1020 1013 1011 1010 1009 1009 1006 1000 993 987 981 974 968 965 963 963 963 963 963 963 965 968 969 971 972 974 974 974 974 974 974 981 993 1000 1013 1017 1023 1034 1044 1049 1049 1051 1053 1054 1055 1055 1055 1055 1055 1054 1051 1049 1048 1048 1045 1037 1024 1017 1012 1003 995 993 993 993 993 993 991 990 990 990 992 998 998 998 998 998 1003 1011 1016 1020 1026 1033 1040 1044 1046 1046 1047 1047 1049 1051 1053 1055 1057 1059 1061 1061 1061 1061 1060 1059 1059 1056 1054 1051 1048 1044 1042 1041 1040 1034 1029 1019 1017 1016 1015 1014 1010 1006 1006 1006 1007 1007 1007 1008 1009 1014 1023 1028 1035 1038 1039 1044 1051 1051 1051 1051 1051 1052 1055 1056 1057 1057 1058 1060 1062 1062 1063 1063 1063 1063 1063 1062 1062 1060 1057 1052 1049 1048 1047 1044 1039 1034 1031 1030 1028 1025 1017 1015 1015 1015 1015 1016 1029 1031 1039 1049 1051 1053 1053 1054 1054 1058 1058 1059 1059 1059 1059 1059 1059 1060 1061 1061 1061 1062 1063 1063 1063 1063 1064 1064 1064 1064 1064 1064 1064 1063 1063 1062 1061 1058 1056 1053 1050 1048 1045 1044 1041 1035 1029 1028 1028 1028 1036 1039 1043 1045 1046 1049 1052 1053 1053 1053 1053 1054 1055 1056 1057 1057 1059 1059 1059 1060 1061 1062 1063 1064 1064 1065 1065 1065 1065 1065 1065 1065 1065 1065 1065 1065 1065 1065 1065 1065 1065 1065 1066 1066 1066 1066 1066 1066 1066 1066 1066 1067 1067 1067 1067 1067 1067 1067 1067 1067 1067 1067 1067 1067 1067 1066 1066 1065 1064 1063 1063 1061 1060 1058 1057 1056 1055 1055 1054 1054 1052 1048 0 0 0 874 872 861 861 861 861 861 0 0 0 0 0 0 0 561 607 607 607 607 607 0 0 0 0 0 0 0 0 499 466 466 466 477 515 518 528 530 532 532 532 0 0 480 480 480 480 475 475 475 475 475 458 444 444 444 444 444 0 0 0 0 0 499 499 499 499 501 506 0 0 0 0 0 0 0 0 0 0 0 0 0 0 0 0 0 0 0 0 0 0 0 0 0 0 0 0 0 0 0 0 0 0 0 0 0 0 0 0 0 0 0 0 0 0 0 0 0 0 0
602 602 603 613 621 640 659 678 693 0 0 781 801 819 840 844 854 859 873 888 905 919 934 952 972 996 1022 1037 1048 1052 1066 1084 1097 1111 1121 1129 1135 1142 1142 1145 1146 1146 1152 1152 1157 1159 1162 1166 1170 1173 1176 1178 1180 1180 1180 1180 1180 1181 1178 1178 0 0 0 0 0 0 1037 1028 1028 1028 1028 1029 1029 1031 1031 1031 1030 1030 1030 1030 1030 1031 1031 1031 1031 1032 1032 1033 1033 1034 1036 1036 1037 1037 1037 1038 1038 1038 1040 1040 1041 1041 1042 1042 1043 1043 1043 1043 1043 1043 1042 1042 1041 1040 1038 1038 1034 1030 1025 1012 993 960 955 953 942 937 937 937 937 937 929 918 905 891 882 882 882 883 888 891 894 901 908 914 922 934 939 947 962 979 988 998 1003 1016 1027 1034 1040 1041 1042 1042 1042 1040 1038 1033 1020 1006 1005 1002 999 985 977 972 966 960 957 956 953 949 943 936 929 924 921 920 918 918 918 920 920 922 922 923 925 929 932 939 948 948 951 951 969 988 1003 1016 1030 1034 1043 1044 1044 1044 1044 1044 1040 1035 1026 1014 1013 1012 1011 1011 1007 1000 993 987 979 972 966 963 961 961 961 961 961 963 965 969 970 971 972 973 973 973 973 973 973 978 990 999 1013 1017 1024 1036 1046 1047 1050 1050 1053 1055 1056 1056 1057 1057 1057 1057 1054 1050 1049 1048 1045 1037 1027 1018 1013 1004 995 993 993 993 993 993 991 990 990 990 993 998 999 999 1002 1002 1005 1013 1020 1026 1031 1038 1041 1047 1048 1049 1051 1054 1055 1055 1055 1058 1059 1060 1062 1063 1063 1063 1063 1062 1060 1058 1056 1054 1052 1049 1045 1045 1045 1044 1044 1036 1025 1020 1011 1010 1008 1005 1005 1005 1007 1007 1008 1009 1009 1019 1027 1030 1043 1052 1053 1054 1054 1054 1056 1056 1056 1056 1057 1059 1060 1060 1060 1062 1063 1065 1065 1065 1065 1065 1065 1064 1064 1062 1059 1056 1053 1052 1052 1049 1046 1042 1039 1035 1034 1033 1027 1023 1023 1023 1024 1031 1032 1033 1041 1049 1050 1051 1053 1054 1059 1059 1059 1059 1059 1060 1060 1060 1061 1062 1063 1063 1064 1064 1065 1065 1065 1065 1066 1066 1066 1066 1066 1066 1065 1065 1063 1063 1062 1060 1058 1055 1052 1048 1048 1044 1041 1036 1029 1029 1029 1029 1029 1032 1032 1043 1046 1049 1052 1053 1054 1054 1054 1056 1058 1058 1059 1060 1061 1061 1062 1062 1063 1064 1064 1065 1066 1066 1066 1066 1066 1066 1066 1066 1066 1066 1066 1066 1066 1066 1066 1066 1067 1067 1067 1067 1067 1067 1067 1067 1068 1068 1067 1068 1068 1068 1068 1068 1068 1068 1068 1068 1068 1068 1068 1068 1068 1067 1066 1066 1065 1064 1063 1062 1060 1058 1057 1056 1055 1055 1054 1050 1041 0 0 0 0 882 872 863 863 863 861 861 0 0 0 0 0 0 0 0 0 0 0 0 0 0 0 0 0 0 0 0 0 0 0 0 0 0 519 528 530 532 532 558 558 0 0 488 484 482 480 475 475 475 475 475 468 444 444 444 472 0 0 0 0 0 0 0 0 0 0 0 0 0 0 0 0 0 0 0 0 0 0 0 0 0 0 0 0 0 0 497 521 551 551 0 0 0 0 0 0 0 0 0 0 0 0 0 0 0 0 0 0 0 0 0 0 0 0 0 0 0 0 0
602 602 603 614 627 640 659 678 693 0 0 785 803 819 836 840 847 859 874 892 910 926 938 956 977 1004 1022 1037 1048 1052 1066 1081 1094 1110 1120 1129 1134 1137 1140 1140 1145 1145 1152 1153 1157 1159 1162 1166 1169 1173 1178 1182 1186 1186 1186 1186 1186 1186 1189 1189 1189 1187 1156 1132 0 0 0 1040 1033 1031 1031 1031 1031 1033 1033 1033 1033 1033 1032 1032 1032 1033 1033 1033 1034 1034 1034 1034 1035 1036 1038 1038 1039 1039 1039 1040 1040 1041 1041 1041 1042 1043 1043 1043 1044 1044 1044 1044 1044 1043 1043 1042 1041 1040 1038 1038 1031 1023 1012 984 960 955 953 953 943 939 939 936 935 934 927 917 902 890 876 876 876 876 882 883 886 891 905 914 917 921 928 935 947 963 977 981 981 985 996 1020 1037 1038 1041 1041 1041 1039 1036 1025 1019 1006 1005 1002 999 985 976 970 965 960 956 955 953 945 936 932 929 925 924 921 920 920 920 920 920 922 922 923 925 929 931 932 938 945 947 948 952 976 996 1016 1028 1036 1043 1044 1044 1046 1046 1046 1044 1040 1031 1016 1014 1013 1013 1013 1013 1000 993 986 979 972 966 960 958 958 958 959 960 962 965 969 970 971 971 972 972 972 972 972 972 978 993 999 1012 1022 1031 1041 1047 1049 1050 1050 1052 1055 1057 1058 1059 1059 1059 1059 1057 1053 1051 1049 1045 1039 1028 1018 1014 1007 997 997 997 995 995 993 990 990 990 990 994 998 1000 1000 1002 1002 1005 1015 1026 1028 1040 1045 1047 1048 1051 1052 1053 1055 1055 1057 1059 1060 1061 1063 1064 1065 1066 1066 1066 1065 1064 1063 1060 1059 1056 1053 1050 1049 1049 1047 1047 1043 1033 1023 1011 1010 1008 1005 1005 1005 1007 1008 1009 1010 1019 1030 1037 1039 1052 1056 1056 1056 1057 1058 1060 1060 1061 1061 1061 1061 1061 1062 1063 1065 1066 1066 1067 1067 1067 1067 1067 1067 1067 1066 1064 1061 1060 1059 1056 1052 1049 1048 1047 1042 1040 1037 1031 1023 1023 1023 1025 1032 1034 1037 1041 1046 1050 1051 1054 1059 1060 1060 1061 1061 1061 1061 1062 1062 1062 1064 1064 1065 1065 1067 1067 1067 1067 1068 1068 1067 1068 1068 1068 1068 1068 1066 1066 1065 1063 1062 1060 1057 1055 1051 1050 1046 1041 1036 1029 1029 1029 1029 1029 1030 1032 1039 1046 1049 1052 1053 1055 1055 1055 1056 1058 1060 1062 1062 1062 1063 1063 1064 1064 1065 1066 1066 1067 1067 1067 1067 1067 1067 1067 1067 1067 1067 1067 1067 1067 1067 1067 1068 1068 1068 1068 1068 1069 1069 1069 1069 1069 1069 1069 1069 1069 1069 1069 1069 1069 1069 1069 1069 1069 1069 1069 1069 1068 1067 1067 1066 1066 1065 1064 1064 1062 1061 1057 1055 1054 1054 1051 1036 0 0 0 0 905 898 896 896 875 875 864 861 0 0 0 0 0 0 0 0 0 0 0 0 0 0 0 0 0 0 0 0 0 0 0 0 0 0 0 515 515 515 515 558 0 0 0 492 482 482 482 485 485 485 484 477 468 441 441 441 0 0 0 0 0 0 0 0 0 0 0 0 0 0 0 0 0 0 0 0 0 0 0 0 0 0 0 0 0 0 469 486 515 525 525 525 0 0 0 0 0 0 0 415 434 434 0 0 0 0 0 0 0 0 0 0 0 0 0 0 0 0 0 0
597 597 597 614 627 640 659 675 691 0 0 788 804 818 831 835 843 859 878 897 914 931 949 968 988 1004 1022 1037 1048 1053 1066 1081 1094 1109 1120 1127 1131 1137 1140 1140 1140 1145 1152 1152 1157 1159 1162 1166 1169 1174 1179 1183 1188 1192 1192 1192 1192 1192 1192 1195 1196 1196 1196 1176 0 0 0 0 1048 1038 1036 1036 1035 1035 1035 1036 1036 1036 1035 1034 1034 1034 1035 1035 1036 1036 1036 1037 1037 1038 1039 1039 1040 1041 1041 1042 1042 1042 1042 1043 1043 1043 1044 1044 1045 1045 1045 1045 1045 1044 1043 1043 1042 1040 1039 1033 1026 1014 986 951 951 951 951 951 943 939 936 935 930 926 920 911 901 890 872 872 872 874 876 878 881 886 894 905 907 910 915 925 938 955 965 971 974 980 984 1013 1030 1034 1036 1039 1039 1039 1036 1025 1019 1006 1004 1002 995 985 975 970 964 959 955 952 950 944 934 932 929 927 924 921 920 920 920 920 920 921 921 922 924 928 928 928 929 936 940 942 952 972 996 1017 1030 1039 1044 1044 1044 1046 1046 1046 1044 1042 1037 1030 1025 1023 1021 1019 1014 1000 992 985 977 971 965 958 955 955 955 957 959 962 965 969 969 969 969 969 969 970 970 972 972 981 993 999 1013 1026 1046 1054 1054 1054 1052 1052 1052 1055 1057 1059 1060 1060 1059 1059 1058 1055 1052 1050 1046 1039 1033 1027 1021 1013 1007 1007 1005 1005 998 992 991 991 991 991 994 998 1002 1002 1003 1003 1005 1022 1027 1034 1050 1050 1052 1052 1053 1054 1057 1057 1058 1061 1062 1062 1063 1066 1067 1068 1068 1068 1068 1068 1068 1067 1065 1063 1062 1059 1055 1054 1052 1051 1051 1045 1035 1024 1011 1011 1008 1005 1005 1005 1007 1008 1016 1027 1037 1056 1056 1057 1057 1057 1058 1059 1059 1061 1061 1062 1062 1062 1063 1063 1064 1064 1065 1066 1068 1069 1069 1069 1069 1069 1069 1069 1069 1067 1066 1065 1063 1062 1061 1057 1053 1052 1051 1049 1044 1038 1034 1027 1027 1027 1029 1033 1037 1039 1041 1046 1049 1052 1056 1060 1060 1061 1061 1062 1062 1063 1064 1064 1065 1065 1066 1067 1068 1068 1069 1069 1069 1069 1069 1069 1069 1069 1069 1069 1069 1069 1068 1067 1065 1063 1061 1059 1056 1053 1050 1047 1041 1036 1033 1032 1031 1029 1029 1029 1031 1039 1045 1049 1053 1054 1054 1055 1056 1058 1060 1062 1064 1064 1064 1065 1066 1066 1067 1067 1068 1068 1068 1068 1068 1068 1068 1068 1068 1068 1068 1068 1069 1069 1069 1069 1069 1069 1069 1069 1069 1069 1069 1070 1070 1070 1070 1070 1070 1070 1070 1070 1070 1070 1070 1070 1070 1070 1070 1069 1069 1069 1069 1068 1067 1067 1067 1065 1064 1064 1062 1061 1057 1053 1052 1052 0 0 0 0 0 905 905 905 905 905 891 888 880 878 0 0 0 0 0 0 0 0 0 0 0 0 0 0 0 0 0 0 0 0 0 0 0 0 0 0 0 0 0 0 0 0 0 0 0 508 482 482 482 485 485 485 484 477 468 0 430 430 0 0 0 0 0 0 0 0 0 0 0 0 0 0 0 0 0 0 0 0 0 0 0 0 0 0 0 0 0 468 468 485 487 525 525 525 0 0 0 0 0 0 403 403 415 0 0 447 0 0 0 0 0 0 0 0 0 0 0 0 0 0 0 0
592 592 592 614 627 638 657 672 691 0 0 792 805 817 829 832 843 860 881 902 923 942 961 974 991 1004 1018 1032 1049 1054 1072 1081 1094 1109 1119 1126 1131 1137 1140 1140 1140 1144 1144 1151 1155 1159 1162 1166 1169 1174 1179 1185 1191 1195 1198 1199 1200 1203 1203 1203 1203 1204 1204 1204 1203 1194 0 0 0 0 1048 1041 1040 1040 1040 1039 1038 1038 1037 1037 1037 1037 1037 1038 1038 1038 1038 1038 1039 1039 1039 1041 1042 1042 1042 1043 1044 1044 1045 1045 1045 1045 1045 1046 1046 1046 1046 1046 1046 1046 1045 1044 1042 1040 1037 1030 1020 1003 967 938 938 938 942 942 942 939 931 923 922 921 911 904 896 883 870 870 870 873 875 876 879 882 886 892 897 899 904 910 921 936 956 962 964 967 981 998 1013 1023 1025 1037 1037 1037 1036 1025 1019 1008 1006 1002 991 985 975 970 964 958 955 952 949 942 933 931 931 927 925 922 920 918 918 918 918 918 918 918 920 922 922 923 924 927 936 942 952 972 996 1017 1031 1040 1043 1045 1045 1047 1048 1048 1048 1046 1044 1041 1037 1030 1022 1022 1014 1003 992 983 976 969 964 958 955 955 955 956 959 962 965 966 966 966 966 966 969 970 970 972 972 984 996 1003 1013 1039 1060 1060 1060 1058 1053 1053 1053 1055 1059 1061 1061 1061 1061 1060 1060 1058 1057 1053 1046 1045 1043 1038 1032 1028 1020 1012 1010 1010 999 992 992 992 993 995 996 998 1004 1004 1005 1007 1023 1030 1031 1053 1053 1053 1055 1056 1056 1057 1058 1058 1059 1061 1063 1064 1067 1069 1069 1069 1070 1071 1071 1071 1071 1070 1070 1068 1066 1063 1061 1058 1056 1054 1051 1045 1039 1032 1027 1023 1023 1020 1016 1016 1016 1024 1033 1049 1062 1062 1062 1057 1057 1057 1059 1060 1060 1062 1062 1063 1063 1063 1064 1065 1066 1067 1068 1068 1069 1070 1070 1071 1071 1071 1070 1070 1070 1069 1068 1067 1067 1065 1063 1060 1058 1055 1052 1049 1049 1043 1036 1028 1028 1028 1031 1033 1036 1039 1041 1045 1049 1052 1058 1060 1061 1061 1062 1062 1064 1065 1065 1066 1067 1068 1068 1069 1070 1070 1070 1071 1071 1071 1071 1071 1071 1071 1071 1070 1070 1069 1069 1068 1066 1064 1061 1059 1056 1053 1050 1047 1043 1038 1034 1034 1031 1028 1028 1028 1031 1037 1041 1044 1049 1053 1054 1055 1057 1059 1062 1063 1064 1065 1066 1067 1068 1068 1068 1069 1069 1069 1070 1070 1070 1070 1069 1069 1069 1070 1069 1069 1069 1069 1069 1069 1070 1070 1070 1070 1070 1070 1071 1071 1071 1071 1071 1071 1071 1071 1071 1071 1071 1071 1071 1071 1071 1071 1071 1071 1071 1070 1069 1069 1069 1069 1067 1065 1064 1064 1062 1061 1056 1049 0 0 0 0 941 940 916 909 909 909 909 914 919 918 918 918 0 0 0 0 0 0 0 0 0 0 0 0 0 0 0 0 0 0 0 0 0 0 0 0 0 0 0 0 0 0 0 0 0 0 0 0 480 480 480 485 0 0 0 0 0 0 410 410 0 0 0 0 0 0 0 0 0 0 0 0 0 0 0 0 0 0 0 0 0 0 0 0 0 0 0 0 0 463 463 468 469 480 481 481 0 0 0 0 0 0 403 428 449 449 449 449 424 0 0 0 0 0 0 0 0 0 0 0 0 0 0 0
588 588 592 603 623 637 657 672 693 0 773 792 805 817 829 832 843 862 884 910 932 950 966 978 991 1003 1013 1029 1048 1052 1080 1089 1098 1109 1118 1126 1131 1137 1140 1140 1142 1143 1143 1148 1155 1159 1162 1167 1171 1176 1181 1186 1191 1197 1201 1204 1207 1211 1211 1211 1209 1207 1207 1207 1207 1207 1207 0 0 0 0 0 1052 1045 1043 1042 1042 1040 1039 1039 1039 1039 1039 1039 1039 1040 1040 1040 1040 1041 1041 1042 1043 1044 1044 1045 1045 1045 1045 1046 1046 1047 1048 1048 1048 1048 1048 1048 1047 1047 1047 1046 1043 1040 1036 1029 1015 989 956 936 934 934 934 934 934 933 924 920 919 915 906 902 887 873 871 871 871 872 873 875 879 882 885 888 891 897 899 899 903 914 917 919 942 958 963 976 996 1012 1023 1037 1039 1039 1039 1039 1036 1023 1006 1004 991 985 976 970 964 957 945 940 931 931 931 928 928 928 925 922 920 918 918 918 918 918 918 918 918 917 914 914 914 920 929 942 952 972 999 1023 1035 1043 1043 1045 1045 1048 1051 1051 1051 1049 1049 1047 1040 1032 1025 1022 1016 1003 992 983 976 969 964 958 955 955 955 956 959 962 965 965 965 965 965 966 969 970 972 973 979 1004 1017 1020 1028 1056 1063 1063 1063 1060 1055 1055 1055 1057 1059 1061 1063 1063 1063 1063 1062 1061 1059 1056 1050 1050 1048 1048 1045 1045 1031 1013 1012 1010 1000 996 996 996 999 1000 1001 1002 1004 1008 1013 1021 1024 1033 1041 1057 1057 1059 1059 1059 1059 1059 1059 1060 1061 1063 1066 1067 1068 1070 1071 1071 1072 1073 1073 1073 1073 1072 1072 1072 1071 1069 1068 1064 1060 1058 1055 1052 1047 1043 1041 1039 1032 1032 1032 1032 1033 1040 1047 1049 1062 1062 1062 1061 1060 1060 1061 1061 1062 1062 1063 1064 1064 1065 1065 1067 1068 1069 1070 1070 1071 1072 1072 1072 1072 1072 1072 1072 1072 1071 1070 1068 1068 1066 1065 1065 1061 1057 1053 1051 1051 1049 1041 1032 1032 1032 1033 1034 1036 1039 1041 1044 1047 1054 1058 1060 1061 1062 1063 1065 1066 1067 1067 1069 1070 1070 1070 1071 1071 1072 1072 1073 1073 1073 1073 1073 1072 1072 1072 1072 1072 1070 1070 1068 1066 1065 1062 1059 1056 1053 1050 1047 1044 1041 1036 1035 1032 1028 1028 1028 1031 1035 1040 1043 1048 1054 1054 1055 1057 1060 1062 1063 1065 1066 1067 1069 1069 1070 1070 1071 1071 1071 1071 1071 1071 1071 1071 1071 1070 1070 1070 1070 1070 1070 1070 1070 1071 1071 1072 1072 1072 1072 1072 1072 1072 1072 1072 1072 1073 1073 1073 1073 1073 1073 1072 1072 1072 1072 1072 1071 1071 1071 1070 1069 1069 1069 1067 1065 1063 1061 1059 1058 1056 1042 0 0 0 931 926 913 898 898 898 909 914 919 922 922 922 918 0 0 0 0 0 0 0 0 0 0 0 0 0 0 0 0 0 0 0 0 0 0 0 0 0 0 0 0 0 0 457 457 476 500 0 0 0 0 0 0 0 0 0 0 0 0 406 410 0 0 0 0 0 0 0 0 0 0 0 0 0 0 0 0 0 0 0 0 0 0 0 0 0 0 0 0 0 0 459 459 460 478 479 479 0 0 0 0 0 0 0 445 445 445 428 426 423 0 0 0 0 0 0 0 0 0 0 0 0 0 0 0
584 584 592 599 623 637 657 672 0 0 773 792 805 817 829 832 846 864 888 916 939 957 969 978 991 1001 1010 1025 1047 1052 1080 1091 1098 1109 1118 1126 1132 1137 1142 1143 1143 1145 1146 1146 1152 1155 1162 1168 1172 1177 1181 1187 1192 1198 1202 1207 1210 1216 1220 1220 1220 1212 1212 1212 1212 1223 1223 1223 0 0 0 0 0 1057 1049 1044 1043 1041 1040 1040 1040 1041 1042 1042 1042 1042 1042 1042 1042 1042 1042 1043 1045 1045 1045 1046 1047 1047 1047 1047 1048 1048 1049 1050 1050 1049 1049 1048 1048 1048 1048 1046 1044 1041 1036 1027 1004 968 949 934 933 933 933 933 933 933 924 920 917 909 904 897 881 873 871 871 871 872 872 874 877 878 881 886 890 894 899 899 899 900 900 905 917 940 947 973 990 1008 1023 1037 1041 1043 1043 1043 1042 1034 1011 1004 991 985 976 970 964 949 934 928 924 924 924 930 931 931 931 926 920 918 918 918 918 918 918 918 918 917 914 914 914 914 929 947 968 979 1003 1056 1056 1056 1049 1049 1049 1052 1052 1052 1052 1050 1050 1050 1049 1042 1035 1029 1018 1004 993 983 976 969 964 961 959 958 958 958 962 965 965 965 965 965 965 966 974 977 977 986 999 1015 1025 1034 1059 1063 1063 1063 1063 1060 1058 1058 1058 1059 1062 1064 1064 1064 1064 1064 1063 1062 1061 1058 1054 1054 1054 1053 1052 1052 1048 1028 1021 1021 1000 1000 1000 1003 1005 1005 1006 1006 1013 1020 1022 1024 1033 1048 1056 1057 1057 1060 1059 1059 1060 1061 1061 1063 1066 1068 1069 1070 1070 1071 1073 1074 1074 1075 1075 1075 1075 1075 1074 1074 1073 1073 1070 1069 1064 1062 1061 1060 1053 1052 1051 1050 1045 1038 1038 1038 1038 1040 1047 1050 1057 1057 1058 1058 1058 1061 1062 1062 1063 1065 1065 1065 1066 1067 1068 1070 1070 1071 1072 1073 1073 1073 1074 1074 1074 1074 1074 1074 1073 1073 1073 1071 1069 1068 1066 1066 1065 1062 1058 1053 1053 1050 1043 1036 1036 1035 1035 1035 1035 1037 1041 1045 1047 1055 1059 1060 1062 1063 1065 1066 1067 1068 1069 1070 1071 1072 1072 1073 1073 1073 1074 1075 1075 1075 1075 1075 1074 1074 1074 1073 1072 1071 1070 1069 1066 1065 1062 1059 1056 1053 1050 1047 1044 1041 1040 1036 1032 1027 1027 1027 1030 1034 1037 1042 1047 1051 1054 1055 1057 1061 1063 1065 1066 1068 1069 1070 1071 1071 1071 1072 1072 1072 1072 1072 1072 1072 1072 1072 1071 1071 1071 1071 1071 1071 1072 1072 1072 1072 1073 1073 1073 1073 1073 1073 1074 1074 1074 1074 1074 1074 1074 1074 1074 1074 1074 1074 1073 1073 1072 1071 1071 1071 1071 1069 1069 1069 1067 1065 1062 1059 1057 1057 1055 1041 997 947 919 919 904 897 898 898 898 900 909 909 922 922 922 918 0 0 0 0 0 0 0 0 0 0 0 0 0 0 0 0 0 0 0 0 0 0 0 0 0 0 0 0 0 466 461 461 466 471 471 0 0 0 0 0 0 0 0 0 0 0 406 441 0 0 0 0 0 0 0 0 0 0 0 0 0 0 0 426 426 426 426 426 432 0 0 0 0 0 0 0 0 0 0 451 452 478 478 0 0 0 0 0 0 0 0 0 437 428 426 424 401 0 0 0 0 0 0 0 0 0 0 0 0 0 0 0
576 576 596 599 623 637 660 0 0 751 773 791 802 817 832 837 857 875 894 916 942 957 970 978 991 1001 1010 1025 1044 1049 1080 1091 1098 1109 1117 1125 1132 1137 1142 1144 1144 1145 1146 1146 1152 1155 1162 1168 1172 1177 1181 1188 1192 1198 1203 1208 1213 1218 1224 1224 1224 1220 1217 1217 1217 1231 1233 1233 1233 1230 0 0 0 0 0 1059 1049 1046 1044 1043 1043 1043 1043 1044 1044 1044 1044 1044 1044 1044 1044 1046 1046 1046 1047 1047 1048 1048 1049 1049 1049 1050 1050 1051 1051 1050 1050 1050 1050 1050 1049 1048 1044 1041 1037 1024 1004 968 949 934 933 933 933 933 933 932 924 920 916 907 899 888 876 872 872 872 872 872 873 874 877 878 881 884 890 894 896 896 897 898 898 903 904 922 936 964 989 1008 1025 1037 1041 1044 1045 1045 1045 1045 1034 1016 999 987 977 971 964 949 931 924 923 923 923 926 929 930 930 930 920 919 919 919 919 919 919 919 919 917 914 914 914 914 929 965 992 1005 1043 1060 1060 1060 1059 1054 1054 1054 1055 1055 1055 1054 1051 1050 1050 1048 1041 1034 1027 1017 1003 991 982 974 968 966 964 964 964 966 969 969 969 966 966 966 966 970 977 982 987 999 1010 1018 1031 1044 1059 1065 1065 1066 1066 1065 1061 1061 1061 1063 1065 1066 1066 1066 1066 1066 1065 1065 1064 1060 1059 1058 1058 1057 1056 1053 1051 1046 1035 1028 1013 1009 1009 1009 1009 1011 1012 1013 1024 1029 1030 1030 1048 1053 1059 1059 1061 1061 1061 1061 1063 1063 1065 1066 1068 1070 1071 1072 1073 1074 1075 1076 1077 1077 1077 1077 1077 1077 1077 1076 1076 1075 1073 1072 1068 1066 1064 1061 1059 1059 1059 1055 1048 1042 1041 1041 1041 1041 1047 1049 1055 1056 1057 1057 1060 1061 1063 1063 1065 1066 1067 1068 1069 1070 1071 1071 1073 1073 1074 1074 1074 1075 1075 1076 1076 1076 1076 1076 1075 1074 1074 1074 1072 1070 1068 1066 1065 1063 1060 1058 1054 1051 1045 1041 1039 1036 1036 1034 1034 1034 1039 1044 1047 1055 1059 1060 1063 1064 1067 1068 1068 1070 1070 1071 1073 1073 1074 1075 1075 1076 1076 1076 1076 1076 1076 1076 1075 1075 1074 1074 1073 1072 1070 1069 1067 1065 1062 1059 1055 1053 1050 1047 1044 1041 1040 1036 1032 1027 1027 1027 1027 1032 1035 1039 1046 1050 1053 1055 1057 1061 1063 1065 1067 1068 1069 1070 1072 1073 1073 1073 1073 1073 1073 1073 1073 1073 1073 1073 1073 1073 1072 1072 1073 1073 1073 1073 1073 1074 1074 1074 1074 1074 1075 1074 1075 1074 1075 1075 1075 1075 1075 1075 1075 1075 1075 1075 1074 1073 1072 1071 1071 1071 1071 1069 1068 1068 1066 1063 1062 1059 1056 1051 1033 992 970 947 919 919 913 904 903 897 896 896 902 902 902 902 899 873 0 0 0 0 0 0 0 0 0 0 0 0 0 0 0 0 0 0 0 0 0 0 0 0 0 0 0 0 0 468 466 466 466 455 451 0 0 0 0 0 0 0 0 0 0 0 441 443 0 0 0 0 0 0 0 0 0 0 0 0 0 0 424 424 424 424 424 424 428 439 0 0 0 0 0 0 0 0 0 0 0 0 0 0 0 0 0 0 0 0 0 0 0 426 426 0 0 0 0 0 0 0 0 0 0 0 0 0 0 0 0 0
