864 864 855 855 847 827 0 0 0 731 718 712 696 684 683 682 681 681 682 682 683 685 686 688 689 690 692 693 694 694 696 697 699 701 703 705 706 707 711 712 712 713 716 716 716 714 713 713 713 728 735 735 740 741 742 745 745 745 744 743 743 743 744 746 748 749 750 751 751 753 754 755 756 757 757 758 758 759 759 759 760 760 760 760 760 760 760 758 758 757 758 758 756 756 756 756 763 770 782 796 812 813 0 0 0 0 0 852 856 858 861 861 861 863 0 0 0 0 0 0 0 0 0 0 0 0 0 0 0 0 0 0 0 0 1550 1575 1589 1599 1602 1606 1612 1618 1620 1620 1621 1621 1621 1620 1619 1619 1619 1620 1621 1622 1623 1623 1627 1629 1634 1641 1647 1651 1654 1655 1658 1663 1665 1668 1669 1670 1673 1677 1679 1681 1682 1683 1685 1686 1687 1687 1688 1689 1690 1690 1690 1690 1690 1690 1690 1693 1696 1696 1696 1687 1666 1633 1586 0 0 0 0 0 0 0 0 0 0 0 0 0 0 0 0 0 0 0 0 0 0 0 908 908 915 922 941 952 952 0 0 0 868 868 868 868 868 854 854 854 877 892 901 908 919 939 0 0 0 0 0 0 0 0 0 0 0 0 1123 1070 0 0 0 0 937 937 937 941 951 970 0 0 0 0 0 0 0 0 1577 1577 1577 1565 1538 0 0 0 0 0 0 0 0 0 0 0 0 0 0 0 0 0 0 0 0 0 0 0 0 0 1638 1654 1654 1654 1654 1648 1646 1645 1643 1625 1622 1620 1612 1608 1603 1599 1595 1590 1586 1584 1582 1580 1577 1574 1571 1569 1567 1564 1563 1561 1558 1555 1552 1549 1547 1545 1543 1541 1539 1537 1536 1534 1533 1532 1530 1529 1528 1526 1524 1521 1519 1517 1516 1514 1513 1512 1510 1510 1507 1507 1506 1505 1504 1503 1502 1502 1500 1498 1498 1496 1495 1494 1493 1492 1492 1492 1491 1490 1489 1489 1489 1488 1488 1488 1488 1487 1486 1486 1486 1485 1484 1483 1483 1482 1480 1479 1477 1476 1474 1473 1472 1471 1471 1470 1469 1469 1468 1467 1467 1467 1467 1467 1466 1466 1465 1464 1463 1462 1460 1460 1458 1457 1457 1457 1457 1458 1459 1459 1460 1460 1460 1459 1459 1459 1459 1459 1459 1459 1459 1458 1457 1455 1455 1454 1454 1454 1455 1455 1455 1455 1455 1455 1455 1455 1455 1455 1455 1455 1454 1454 1454 1454 1454 1454 1453 1453 1453 1452 1452 1452 1452 1452 1452 1451 1451 1451 1449 1449 1448 1447 1445 1445 1443 1443 1442 1442 1442 1441 1441 1440 1440 1440 1439 1438 1438 1436 1436 1434 1432 1431 1430 1428 1427 1425 1424 1423 1421 1421 1419 1418 1417 1416 1415 1413 1413 1412 1411 1410 1410 1410 1410 1410 1411 1412 1413 1415 1416 1418 1418 1420 1422 1424 1425 1427 1427 1428 1428 1429 1429 1429 1429 1429 1428 1427 1426 1426 1424 1424 1423 1422 1422 1422 1421 1421 1420 1419 1419 1417 1417 1415 1414 1414 1414 1412 1411 1410 1409 1408 1406 1404 1402 1402 1400 1400 1399 1397 1396 1394 1392 1389 1385 1381 1379 1377 1374 1370 1365 1360 1356 1353 1349 1343 1340 1337 1335 1334 1334 1333 1333 1330 1325 1320 1313 1309 1304 1300 1294 1285 1275 1267 1264 1262 1262 1260 1255 1251 1248 1243 1229 1221 1212 1198 1189 1184 1181 1176 1168 1151 1137 1123 1118 1109 1095 1095
875 875 855 855 850 836 816 0 0 0 743 733 720 701 688 686 685 685 685 685 685 685 687 688 689 690 692 694 694 695 696 697 699 701 703 704 706 708 712 712 713 714 716 716 716 714 714 714 736 752 752 752 753 753 760 760 760 754 747 745 745 745 746 749 751 752 753 754 754 755 755 756 756 757 758 759 759 759 759 759 760 760 760 759 759 758 757 757 757 756 757 756 756 753 753 753 757 766 782 801 0 0 0 0 0 0 0 0 0 0 0 0 0 0 0 0 0 0 0 0 0 0 0 0 0 0 0 0 0 0 0 0 0 1555 1561 1575 1589 1599 1602 1606 1612 1617 1617 1617 1617 1617 1617 1618 1618 1619 1619 1620 1622 1623 1624 1624 1627 1630 1634 1642 1649 1652 1654 1655 1658 1662 1665 1669 1670 1673 1676 1678 1680 1683 1685 1685 1686 1687 1688 1689 1690 1691 1691 1691 1692 1692 1691 1691 1692 1695 1698 1698 1698 1685 1662 1614 1582 0 0 0 0 0 0 0 0 0 0 0 0 0 0 0 0 0 0 0 0 0 0 0 884 884 886 907 941 0 0 0 0 0 859 859 859 857 857 852 852 852 864 881 889 891 891 891 0 0 0 0 0 0 0 0 0 0 0 0 1068 1066 0 0 0 0 939 939 939 947 955 975 0 0 0 0 0 0 0 1569 1577 1577 1577 1565 1538 0 0 0 0 0 0 0 0 0 0 0 0 0 0 0 0 0 0 0 0 0 0 0 0 0 0 1654 1654 1654 1654 1648 1645 1642 1639 1625 1621 1617 1612 1607 1602 1599 1595 1590 1586 1583 1580 1578 1576 1574 1571 1567 1566 1564 1560 1558 1556 1553 1551 1549 1547 1545 1543 1541 1539 1537 1535 1534 1533 1531 1530 1528 1526 1525 1523 1521 1518 1517 1515 1513 1512 1511 1509 1509 1507 1506 1506 1504 1503 1501 1501 1500 1498 1497 1496 1495 1494 1493 1492 1491 1491 1490 1490 1489 1489 1488 1488 1488 1488 1487 1487 1487 1486 1486 1486 1485 1484 1483 1483 1482 1480 1478 1477 1477 1475 1474 1473 1473 1471 1471 1470 1469 1469 1469 1469 1468 1468 1467 1466 1466 1465 1464 1463 1462 1461 1460 1460 1459 1459 1459 1459 1459 1459 1459 1461 1461 1461 1460 1460 1460 1460 1460 1459 1459 1457 1457 1457 1455 1455 1454 1454 1454 1455 1455 1455 1454 1454 1454 1454 1454 1454 1454 1454 1454 1454 1454 1454 1453 1453 1453 1453 1452 1452 1452 1452 1451 1450 1450 1450 1450 1450 1449 1449 1447 1447 1445 1445 1444 1443 1443 1442 1441 1440 1440 1439 1439 1439 1439 1439 1437 1437 1435 1435 1433 1432 1430 1429 1427 1426 1425 1423 1422 1421 1420 1419 1418 1416 1415 1414 1413 1413 1411 1411 1410 1410 1409 1409 1409 1410 1411 1412 1414 1416 1417 1418 1420 1422 1423 1425 1425 1427 1428 1428 1429 1429 1429 1429 1428 1427 1426 1425 1424 1424 1423 1422 1421 1420 1420 1420 1419 1419 1418 1418 1417 1416 1414 1414 1413 1412 1411 1410 1409 1407 1405 1404 1402 1402 1400 1399 1397 1397 1396 1393 1392 1389 1386 1382 1379 1376 1374 1372 1368 1364 1359 1355 1350 1345 1341 1338 1335 1334 1332 1331 1331 1329 1327 1323 1317 1313 1309 1303 1300 1294 1284 1274 1267 1263 1261 1259 1257 1252 1247 1243 1238 1229 1221 1212 1196 1189 1182 1178 1171 1163 1149 1137 1123 1115 1108 1095 1095
893 893 871 871 855 851 838 0 0 0 768 755 744 726 706 693 693 692 690 688 687 687 687 689 690 691 692 694 694 695 696 697 698 700 703 704 706 709 713 713 714 715 716 716 716 716 716 723 759 768 768 768 768 768 782 782 782 774 763 752 750 750 750 752 753 756 756 756 756 757 757 757 758 758 758 759 759 759 759 759 760 760 760 759 759 758 756 756 756 756 754 753 752 748 748 748 757 766 782 0 0 0 0 0 0 0 0 0 0 0 0 0 0 0 0 0 0 0 0 0 0 0 0 0 0 0 0 0 0 0 0 0 0 1555 1561 1575 1589 1599 1602 1606 1610 1616 1616 1616 1616 1616 1616 1616 1617 1618 1620 1623 1624 1627 1627 1627 1628 1630 1635 1642 1649 1652 1654 1655 1658 1662 1665 1669 1671 1675 1677 1679 1681 1684 1686 1686 1687 1688 1689 1690 1690 1692 1692 1692 1692 1692 1692 1692 1693 1695 1698 1698 1698 1677 1638 1601 1601 0 0 0 0 0 0 0 0 0 0 0 0 0 0 0 0 0 0 0 0 0 0 873 873 873 886 907 0 0 0 0 0 0 859 859 859 857 857 852 852 852 852 866 866 866 865 865 865 0 0 0 0 0 0 0 0 0 0 0 1046 1038 1038 1025 994 965 940 940 940 947 960 979 0 0 0 0 0 0 1558 1569 1572 1572 1572 1557 1536 0 0 0 0 0 0 0 0 0 0 0 0 0 0 0 0 0 0 0 0 0 0 0 0 0 0 0 1654 1654 1654 1645 1644 1641 1639 1623 1618 1615 1612 1606 1602 1599 1595 1590 1586 1583 1579 1576 1574 1573 1570 1567 1565 1562 1560 1557 1555 1552 1550 1549 1546 1545 1543 1540 1539 1536 1535 1534 1532 1531 1529 1527 1526 1525 1523 1520 1518 1515 1514 1513 1511 1511 1509 1508 1507 1505 1504 1504 1502 1501 1500 1499 1498 1496 1495 1494 1493 1492 1491 1490 1490 1490 1489 1488 1488 1487 1487 1487 1487 1487 1487 1487 1486 1485 1485 1484 1484 1483 1481 1480 1479 1478 1477 1477 1475 1474 1474 1473 1472 1471 1471 1471 1470 1469 1469 1468 1468 1467 1466 1466 1465 1464 1463 1462 1462 1462 1461 1461 1460 1460 1460 1460 1460 1460 1461 1461 1461 1461 1460 1460 1460 1460 1459 1459 1457 1457 1457 1455 1455 1455 1455 1455 1454 1454 1454 1454 1454 1454 1453 1453 1453 1454 1454 1454 1453 1453 1453 1453 1453 1453 1452 1452 1452 1451 1451 1450 1450 1449 1449 1449 1449 1448 1447 1447 1445 1445 1444 1443 1442 1442 1441 1440 1440 1439 1439 1439 1438 1438 1437 1436 1436 1434 1432 1431 1430 1428 1427 1426 1425 1424 1423 1421 1421 1419 1418 1417 1416 1415 1414 1413 1412 1411 1411 1410 1409 1409 1409 1409 1410 1411 1411 1413 1415 1416 1417 1419 1421 1423 1424 1425 1426 1427 1427 1427 1427 1427 1427 1426 1426 1425 1424 1423 1423 1421 1420 1420 1420 1419 1419 1419 1418 1417 1417 1415 1414 1413 1412 1411 1411 1410 1409 1407 1405 1403 1402 1400 1400 1398 1396 1395 1394 1394 1391 1389 1387 1383 1380 1377 1375 1373 1372 1368 1363 1358 1353 1347 1342 1339 1336 1333 1329 1326 1326 1325 1324 1319 1317 1313 1311 1308 1303 1300 1294 1284 1274 1265 1261 1258 1254 1252 1247 1242 1238 1233 1228 1221 1209 1196 1189 1181 1175 1165 1158 1148 1136 1123 1113 1100 1088 1088
907 907 900 900 882 882 864 850 0 0 0 767 760 749 726 708 701 698 695 694 691 689 689 689 690 692 692 694 694 695 695 697 698 700 703 705 706 710 713 715 718 718 718 718 725 728 734 0 0 0 800 800 800 0 0 0 0 0 780 764 756 755 755 755 756 759 759 759 759 759 759 759 759 759 760 760 760 759 759 759 760 760 760 760 759 758 756 756 753 751 750 749 748 745 745 745 757 0 0 0 0 0 0 0 0 0 0 0 0 0 0 0 0 0 0 0 0 0 0 0 0 0 0 0 0 0 0 0 1424 0 0 0 1536 1555 1561 1562 1571 1583 1594 1601 1605 1609 1612 1612 1613 1613 1615 1616 1616 1618 1620 1623 1624 1627 1628 1629 1630 1632 1636 1642 1649 1652 1654 1655 1658 1662 1666 1669 1672 1675 1677 1679 1682 1684 1686 1687 1688 1688 1689 1691 1691 1692 1692 1693 1694 1694 1695 1695 1695 1696 1696 1696 1696 1674 1623 1607 0 0 0 0 1792 1798 1800 1804 1812 0 0 0 0 0 0 0 0 0 0 0 0 0 0 0 859 873 886 0 0 0 0 0 0 0 0 868 865 862 857 852 852 852 852 855 859 863 863 863 865 875 0 0 0 0 0 0 0 0 0 1015 1013 1013 999 990 974 963 948 947 947 947 960 0 0 0 0 0 0 1543 1560 1563 1563 1563 1558 1551 1534 0 0 0 0 0 0 0 0 0 0 0 0 0 0 0 0 0 0 0 0 0 0 0 0 0 0 0 0 1644 1644 1645 1644 1639 1635 1623 1617 1615 1612 1606 1602 1599 1594 1589 1586 1582 1578 1575 1573 1571 1568 1566 1564 1562 1559 1556 1554 1551 1550 1548 1546 1545 1542 1540 1537 1535 1534 1533 1531 1531 1528 1527 1525 1523 1521 1520 1518 1515 1514 1512 1510 1509 1509 1507 1505 1505 1503 1502 1501 1500 1499 1498 1497 1495 1494 1492 1492 1491 1490 1490 1489 1488 1487 1487 1487 1486 1486 1486 1485 1486 1485 1485 1485 1484 1484 1484 1483 1482 1481 1480 1478 1478 1477 1477 1475 1474 1474 1473 1472 1471 1471 1471 1470 1470 1469 1468 1468 1467 1466 1466 1465 1464 1463 1463 1462 1462 1462 1462 1462 1462 1461 1461 1461 1461 1462 1462 1462 1462 1461 1460 1460 1460 1460 1459 1457 1457 1457 1456 1455 1455 1454 1454 1454 1454 1454 1454 1453 1453 1453 1453 1453 1453 1453 1453 1453 1453 1453 1453 1452 1452 1452 1452 1452 1451 1450 1450 1449 1448 1448 1448 1448 1447 1447 1446 1445 1444 1444 1443 1442 1441 1441 1439 1439 1439 1438 1438 1437 1437 1436 1435 1434 1432 1431 1429 1428 1427 1427 1425 1424 1423 1422 1421 1420 1419 1418 1417 1415 1415 1413 1413 1412 1411 1411 1410 1409 1409 1409 1409 1409 1410 1411 1412 1413 1415 1416 1418 1420 1422 1423 1424 1425 1426 1426 1426 1426 1426 1425 1424 1424 1423 1423 1422 1422 1421 1419 1418 1418 1418 1418 1418 1418 1416 1415 1414 1413 1412 1411 1410 1410 1408 1407 1406 1404 1402 1400 1399 1398 1396 1394 1393 1392 1392 1391 1388 1385 1382 1379 1376 1373 1372 1369 1367 1361 1357 1351 1344 1340 1337 1334 1330 1327 1323 1321 1319 1314 1312 1311 1309 1309 1304 1303 1300 1292 1283 1272 1263 1258 1253 1250 1245 1243 1239 1235 1231 1224 1220 1209 1195 1186 1180 1172 1163 1154 1146 1136 1123 1111 1097 1088 1088
909 909 909 909 907 906 898 883 0 0 0 0 775 773 751 724 715 710 700 699 694 690 690 690 690 692 693 694 695 695 695 695 698 700 703 705 707 710 712 715 718 724 724 724 730 730 735 0 0 0 0 0 0 0 0 0 0 0 0 777 765 758 757 757 757 762 762 762 762 762 761 761 761 761 761 761 760 760 760 760 760 760 760 760 760 756 754 753 748 744 744 744 743 745 747 748 0 0 0 0 0 0 0 0 0 0 0 0 0 0 0 0 0 0 0 0 0 0 0 0 0 0 0 0 0 0 0 0 1424 1424 0 0 1536 1539 1546 1550 1555 1566 1578 1590 1599 1605 1607 1607 1607 1611 1613 1615 1615 1618 1620 1623 1624 1627 1628 1631 1633 1635 1638 1644 1649 1652 1655 1657 1659 1662 1666 1669 1672 1675 1677 1679 1682 1684 1686 1687 1688 1688 1689 1691 1692 1692 1693 1694 1694 1696 1696 1696 1696 1696 1696 1696 1685 1654 1591 1591 0 0 0 1776 1792 1798 1800 1804 1812 1814 1814 1814 1812 0 0 0 0 0 0 0 0 0 0 0 0 0 0 0 0 0 0 0 0 0 0 0 0 0 875 863 856 855 855 855 859 863 863 863 865 875 0 0 0 1030 1030 1030 1026 1000 986 986 985 977 970 969 967 962 948 945 945 945 961 0 0 0 0 0 0 1546 1552 1552 1552 1545 1543 1542 1531 0 0 0 0 0 0 0 0 0 0 0 0 0 0 0 0 0 0 0 0 0 0 0 0 0 0 0 0 1644 1644 1644 1641 1638 1633 1623 1614 1613 1609 1604 1601 1598 1594 1589 1585 1581 1578 1575 1572 1569 1567 1565 1563 1560 1558 1554 1552 1551 1548 1547 1545 1544 1541 1539 1537 1534 1532 1532 1530 1529 1528 1526 1524 1522 1520 1518 1517 1514 1513 1510 1509 1508 1507 1506 1504 1503 1503 1501 1500 1499 1498 1498 1496 1495 1494 1492 1490 1490 1489 1488 1488 1487 1486 1486 1486 1485 1484 1484 1484 1484 1484 1484 1484 1483 1483 1483 1482 1481 1480 1479 1478 1477 1476 1475 1475 1474 1474 1473 1472 1471 1471 1471 1470 1470 1469 1469 1468 1468 1466 1465 1465 1465 1464 1463 1463 1462 1462 1462 1462 1462 1462 1462 1462 1462 1462 1462 1462 1462 1462 1461 1461 1461 1460 1459 1458 1458 1457 1456 1455 1455 1454 1454 1454 1454 1454 1453 1453 1452 1452 1452 1452 1452 1452 1452 1452 1452 1452 1452 1452 1452 1452 1451 1451 1450 1450 1449 1449 1448 1448 1448 1447 1447 1446 1445 1444 1444 1442 1442 1442 1441 1439 1439 1438 1438 1437 1437 1436 1436 1435 1434 1432 1431 1429 1428 1427 1426 1426 1425 1424 1423 1421 1421 1420 1419 1418 1416 1415 1415 1413 1413 1412 1411 1410 1410 1409 1409 1409 1409 1409 1409 1409 1411 1413 1414 1415 1417 1419 1421 1422 1423 1424 1425 1426 1426 1426 1425 1424 1424 1423 1422 1422 1420 1420 1419 1418 1418 1417 1417 1417 1417 1416 1415 1414 1413 1412 1411 1410 1409 1409 1408 1405 1404 1402 1400 1399 1398 1396 1394 1392 1391 1391 1391 1390 1387 1385 1382 1378 1375 1371 1368 1366 1362 1359 1355 1348 1343 1339 1336 1332 1329 1326 1323 1318 1314 1310 1307 1307 1305 1303 1300 1297 1295 1289 1278 1268 1261 1255 1249 1243 1238 1236 1234 1230 1225 1221 1212 1205 1194 1186 1180 1172 1160 1151 1143 1136 1123 1106 1097 1088 1088
909 909 911 912 912 912 911 902 887 0 0 0 0 0 756 753 730 718 706 705 697 693 691 691 691 692 693 694 695 695 695 697 698 700 703 707 708 709 712 715 718 724 730 730 731 731 0 0 0 0 0 0 0 0 0 0 0 0 0 0 766 758 758 758 759 763 764 764 764 764 764 763 763 763 762 762 761 760 760 760 760 760 760 760 760 756 754 747 741 738 738 738 745 746 747 0 0 0 0 0 0 0 0 1368 1396 1410 1419 1431 1436 1436 0 0 0 0 0 0 0 0 0 0 0 1511 1521 1521 0 0 0 0 1424 1424 0 1524 1533 1534 1535 1540 1549 1558 1565 1574 1580 1587 1595 1599 1604 1608 1611 1613 1615 1617 1619 1622 1624 1626 1629 1631 1633 1637 1640 1645 1650 1652 1655 1657 1660 1663 1666 1669 1671 1675 1677 1679 1682 1684 1686 1687 1687 1688 1689 1691 1692 1692 1693 1695 1696 1696 1696 1697 1697 1696 1696 1689 1674 1623 1589 0 0 0 0 1776 1792 1798 1800 1804 1812 1814 1814 1814 1812 1801 0 0 0 0 0 0 0 0 0 0 0 0 0 0 0 0 0 0 0 0 0 0 0 0 0 0 874 863 860 860 860 863 868 875 879 883 0 0 1001 1003 1003 1003 994 978 966 960 960 959 959 960 959 959 951 945 945 945 962 0 0 0 0 0 0 1546 1551 1551 1551 1543 1541 1527 0 0 0 0 0 0 0 0 0 0 0 0 0 0 0 0 0 0 0 0 0 0 0 0 0 0 0 0 0 1644 1644 1644 1641 1638 1633 1623 1613 1609 1608 1604 1601 1597 1591 1587 1583 1580 1576 1574 1571 1568 1566 1564 1563 1559 1556 1554 1552 1549 1547 1545 1544 1542 1540 1538 1535 1533 1532 1530 1529 1528 1527 1524 1523 1521 1519 1517 1516 1513 1512 1510 1508 1507 1505 1504 1503 1502 1501 1499 1498 1498 1497 1497 1495 1494 1493 1492 1490 1489 1488 1487 1486 1486 1486 1485 1484 1484 1483 1483 1483 1483 1483 1483 1483 1482 1482 1482 1481 1479 1479 1478 1478 1477 1476 1475 1474 1474 1473 1472 1472 1471 1471 1471 1470 1470 1469 1469 1468 1468 1466 1465 1465 1465 1464 1463 1463 1463 1463 1463 1463 1463 1462 1462 1462 1462 1462 1462 1462 1462 1462 1461 1461 1461 1460 1459 1458 1458 1457 1456 1455 1455 1454 1453 1453 1453 1453 1453 1453 1452 1452 1452 1451 1451 1451 1451 1451 1451 1452 1452 1452 1452 1451 1451 1450 1450 1449 1449 1448 1448 1448 1447 1446 1446 1445 1444 1443 1443 1442 1442 1440 1440 1439 1439 1438 1438 1437 1436 1436 1436 1434 1433 1432 1431 1429 1428 1426 1426 1425 1424 1423 1422 1421 1420 1419 1418 1418 1416 1415 1414 1413 1412 1412 1411 1410 1409 1409 1408 1408 1408 1408 1408 1409 1410 1412 1414 1415 1417 1418 1420 1421 1422 1423 1424 1425 1425 1425 1425 1424 1423 1422 1422 1421 1420 1419 1418 1417 1417 1416 1416 1415 1415 1415 1414 1412 1412 1411 1410 1410 1409 1408 1406 1404 1402 1401 1399 1398 1397 1395 1393 1392 1391 1390 1389 1387 1386 1383 1381 1377 1373 1371 1367 1363 1361 1357 1353 1347 1341 1338 1335 1330 1328 1323 1321 1318 1311 1307 1304 1302 1300 1295 1293 1290 1286 1280 1271 1264 1257 1252 1246 1239 1235 1232 1231 1225 1218 1213 1206 1198 1192 1186 1177 1168 1158 1149 1140 1130 1117 1103 1097 1091 1091
901 901 911 913 913 913 913 913 907 896 0 0 0 0 0 758 737 735 724 711 709 700 696 693 693 693 693 693 695 695 696 697 700 707 707 708 708 709 709 711 712 718 732 743 745 0 0 0 0 0 0 0 0 0 0 0 0 0 0 0 767 762 762 762 762 763 766 766 766 765 765 765 765 764 764 762 761 761 761 760 760 761 761 761 761 756 744 737 728 728 728 734 748 758 0 0 0 0 0 0 0 1372 1383 1413 1423 1429 1435 1447 1458 1465 1473 1473 0 0 0 0 0 0 0 0 1534 1534 1534 1532 1521 0 0 0 1416 1416 0 1524 1533 1533 1534 1534 1541 1553 1564 1571 1576 1578 1582 1589 1596 1602 1609 1613 1615 1617 1619 1621 1623 1626 1629 1631 1634 1639 1642 1646 1650 1653 1655 1657 1660 1663 1666 1669 1671 1674 1677 1679 1681 1683 1685 1687 1687 1688 1689 1691 1691 1692 1693 1695 1696 1696 1696 1697 1696 1696 1692 1679 1642 1600 1600 0 0 0 1752 1769 1776 1780 1787 1797 1799 1807 1812 1812 1812 1801 1795 0 0 0 0 0 0 0 0 0 0 0 0 0 0 0 0 0 0 0 0 0 0 0 0 0 0 0 0 878 878 879 884 888 889 889 907 936 974 978 978 978 973 972 964 960 956 956 956 956 956 956 954 945 945 945 0 0 0 0 0 0 1522 1538 1538 1538 1526 1526 1524 1523 0 0 0 0 0 0 0 0 0 0 0 0 0 0 0 0 0 0 0 0 0 0 0 0 0 0 0 0 0 1644 1644 1644 1641 1634 1630 1623 1612 1606 1604 1602 1599 1595 1589 1585 1581 1579 1575 1573 1571 1568 1566 1564 1562 1559 1556 1553 1550 1548 1546 1544 1542 1541 1539 1537 1535 1532 1531 1530 1529 1527 1526 1524 1521 1520 1518 1516 1515 1513 1511 1509 1506 1506 1504 1504 1502 1501 1500 1499 1498 1498 1496 1495 1495 1494 1492 1491 1490 1488 1487 1486 1485 1484 1483 1483 1483 1483 1481 1481 1481 1481 1482 1482 1482 1481 1480 1480 1479 1478 1478 1477 1477 1476 1476 1474 1474 1473 1473 1472 1472 1471 1471 1470 1470 1470 1470 1469 1468 1468 1466 1466 1465 1465 1464 1464 1463 1463 1463 1463 1463 1463 1463 1463 1463 1463 1463 1463 1463 1462 1462 1461 1461 1461 1460 1459 1458 1458 1456 1456 1455 1455 1453 1453 1453 1452 1452 1452 1452 1452 1451 1451 1451 1451 1451 1451 1451 1451 1451 1452 1452 1452 1451 1450 1450 1450 1449 1448 1448 1447 1447 1446 1446 1445 1444 1444 1442 1442 1441 1440 1440 1439 1439 1438 1438 1438 1437 1436 1435 1435 1434 1432 1431 1430 1429 1427 1426 1425 1425 1423 1422 1422 1421 1420 1419 1418 1417 1416 1415 1414 1413 1412 1411 1411 1410 1409 1408 1408 1408 1408 1408 1408 1408 1409 1410 1412 1414 1416 1417 1419 1420 1422 1423 1423 1424 1424 1424 1423 1423 1422 1421 1421 1420 1419 1418 1418 1416 1415 1414 1414 1414 1414 1414 1413 1412 1412 1410 1409 1408 1408 1406 1404 1403 1401 1399 1398 1396 1394 1393 1392 1390 1389 1388 1387 1385 1383 1380 1378 1375 1372 1370 1366 1362 1357 1354 1349 1345 1340 1336 1331 1328 1325 1322 1320 1318 1310 1304 1301 1298 1294 1290 1285 1282 1280 1276 1267 1262 1255 1251 1244 1238 1232 1227 1224 1219 1215 1207 1200 1190 1185 1179 1172 1164 1155 1148 1139 1127 1113 1103 1097 1093 1093
893 893 902 913 913 913 913 913 910 907 897 877 0 0 0 0 761 743 743 727 725 711 701 697 695 694 694 694 696 696 697 699 703 708 708 708 708 703 703 703 705 713 732 746 757 0 0 0 0 0 0 0 0 0 0 0 0 0 0 0 772 767 767 767 767 768 768 769 769 769 766 766 766 765 765 765 764 763 763 763 762 762 761 761 760 756 731 720 714 714 714 734 750 0 0 0 0 0 0 0 1393 1396 1405 1431 1442 1443 1447 1454 1468 1478 1482 1482 1482 0 0 0 0 0 0 0 1534 1534 1534 1532 1521 1517 0 0 1416 1416 0 1524 1532 1533 1533 1533 1538 1546 1555 1567 1573 1576 1582 1589 1593 1598 1606 1612 1614 1617 1619 1620 1622 1625 1629 1632 1635 1639 1643 1647 1650 1653 1655 1657 1660 1663 1666 1669 1671 1674 1676 1679 1681 1683 1684 1686 1687 1688 1689 1690 1691 1692 1693 1695 1696 1696 1696 1696 1694 1691 1681 1663 1617 1595 1595 1595 0 0 1749 1759 1762 1763 1765 1774 1779 1781 1789 1796 1796 1796 1795 1784 0 0 0 0 0 0 0 0 0 0 0 0 0 0 0 0 0 0 0 0 0 0 0 0 0 0 0 0 0 901 899 899 902 902 911 936 969 978 978 978 973 972 964 951 951 951 954 954 954 954 950 950 950 961 0 0 0 0 0 1494 1522 1522 1522 1521 1511 1511 1510 1508 0 0 0 0 0 0 0 0 0 0 0 0 0 0 0 0 0 0 0 0 0 0 0 0 0 0 0 0 0 1634 1635 1635 1634 1634 1628 1619 1608 1605 1602 1599 1596 1592 1588 1584 1581 1577 1575 1572 1570 1567 1565 1564 1561 1558 1555 1551 1549 1547 1545 1543 1542 1540 1539 1536 1534 1532 1530 1529 1528 1527 1524 1523 1521 1519 1517 1515 1514 1513 1511 1509 1506 1505 1503 1502 1501 1500 1499 1498 1497 1496 1495 1495 1494 1492 1491 1490 1488 1487 1486 1485 1483 1482 1482 1482 1481 1480 1480 1480 1480 1480 1480 1480 1480 1480 1480 1479 1478 1477 1476 1476 1476 1474 1474 1474 1473 1472 1472 1472 1471 1471 1470 1470 1470 1470 1469 1469 1468 1467 1466 1466 1465 1465 1465 1464 1463 1463 1463 1463 1463 1463 1463 1463 1463 1463 1463 1463 1463 1463 1462 1462 1461 1460 1459 1459 1458 1457 1456 1456 1455 1454 1453 1453 1453 1452 1452 1452 1451 1451 1451 1451 1450 1450 1450 1450 1450 1450 1451 1451 1451 1450 1450 1450 1449 1448 1448 1448 1447 1447 1446 1445 1445 1444 1443 1443 1442 1442 1441 1440 1439 1438 1438 1438 1438 1437 1436 1435 1435 1434 1433 1432 1431 1429 1427 1427 1426 1425 1424 1423 1422 1421 1421 1419 1418 1418 1416 1415 1415 1414 1412 1412 1411 1410 1410 1409 1408 1408 1408 1408 1408 1408 1408 1408 1409 1411 1413 1414 1416 1418 1419 1421 1421 1421 1422 1422 1422 1422 1422 1421 1421 1421 1419 1419 1417 1417 1415 1415 1414 1413 1413 1413 1412 1412 1412 1411 1409 1408 1407 1406 1405 1403 1402 1400 1397 1395 1393 1392 1391 1390 1388 1387 1385 1384 1382 1380 1377 1374 1371 1369 1367 1363 1358 1355 1349 1345 1341 1337 1333 1329 1325 1323 1321 1318 1316 1308 1303 1298 1292 1286 1282 1278 1277 1276 1272 1266 1259 1254 1251 1244 1237 1229 1221 1216 1210 1206 1201 1191 1185 1177 1171 1166 1159 1151 1141 1133 1125 1111 1099 1097 1093 1093
883 883 893 902 912 913 913 913 910 909 907 898 892 0 0 0 790 764 748 732 731 731 717 709 703 699 698 698 698 698 703 708 708 710 710 710 710 700 690 690 690 701 724 750 764 0 0 0 0 0 0 0 0 0 0 0 0 0 0 0 784 768 768 768 773 773 773 773 773 773 772 769 768 768 768 769 769 769 768 763 763 762 761 760 754 745 729 707 707 707 709 734 792 0 0 0 0 0 0 0 1412 1433 1434 1444 1454 1457 1462 1465 1474 1483 1485 1485 1485 1464 0 0 0 0 0 1521 1534 1534 1534 1530 1520 1461 0 0 1357 1408 0 1522 1532 1532 1533 1533 1538 1546 1554 1562 1567 1574 1580 1587 1590 1595 1601 1605 1608 1611 1614 1617 1620 1624 1629 1632 1637 1640 1644 1647 1650 1652 1655 1656 1659 1663 1666 1669 1671 1673 1676 1678 1680 1682 1684 1686 1687 1687 1688 1689 1690 1691 1691 1694 1696 1696 1696 1693 1689 1681 1675 1642 1581 1581 1581 1634 0 1732 1745 1754 1759 1759 1759 1762 1768 1772 1773 1777 1780 1780 1780 1758 0 0 0 0 0 0 0 0 0 0 0 0 0 0 0 0 0 0 0 0 0 0 0 0 0 0 0 0 0 932 927 921 921 921 923 936 969 978 978 978 973 972 959 949 949 949 946 946 946 945 945 945 957 977 0 0 0 0 0 1494 1503 1503 1503 1503 1503 1503 1503 1503 0 0 0 0 0 0 0 0 0 0 0 0 0 0 0 0 0 0 0 0 0 0 0 0 0 0 0 0 0 1630 1632 1632 1632 1632 1627 1615 1603 1602 1600 1596 1594 1590 1587 1584 1580 1577 1575 1572 1569 1567 1564 1563 1561 1558 1553 1550 1548 1546 1545 1543 1541 1539 1537 1535 1533 1531 1529 1528 1528 1526 1524 1522 1520 1519 1517 1515 1514 1512 1510 1508 1506 1504 1503 1502 1501 1499 1498 1497 1496 1495 1494 1494 1493 1492 1490 1490 1488 1487 1486 1484 1483 1481 1481 1480 1480 1479 1479 1479 1479 1479 1479 1479 1479 1478 1478 1478 1477 1476 1476 1476 1475 1474 1474 1473 1472 1472 1471 1471 1470 1470 1470 1470 1470 1470 1469 1469 1468 1467 1467 1466 1465 1465 1465 1464 1464 1463 1463 1463 1463 1463 1463 1463 1463 1463 1463 1463 1463 1463 1462 1462 1461 1460 1459 1459 1458 1457 1456 1456 1455 1454 1453 1453 1452 1452 1451 1451 1451 1451 1450 1450 1450 1450 1450 1450 1450 1450 1450 1450 1450 1450 1449 1449 1449 1448 1447 1447 1447 1446 1446 1445 1444 1444 1443 1443 1442 1441 1441 1440 1438 1438 1437 1437 1437 1436 1436 1435 1434 1434 1432 1431 1430 1429 1427 1427 1425 1425 1424 1423 1422 1421 1420 1419 1418 1417 1416 1415 1414 1413 1412 1412 1411 1410 1410 1409 1408 1408 1407 1407 1407 1407 1407 1407 1408 1409 1411 1413 1414 1417 1418 1419 1420 1420 1421 1421 1421 1421 1421 1421 1420 1420 1419 1419 1417 1416 1415 1415 1414 1413 1412 1411 1411 1411 1410 1410 1409 1407 1405 1404 1403 1402 1400 1397 1393 1392 1390 1389 1388 1387 1386 1384 1383 1381 1379 1378 1375 1372 1370 1367 1364 1360 1353 1350 1344 1340 1338 1335 1330 1325 1323 1321 1318 1315 1312 1305 1299 1295 1289 1286 1278 1274 1273 1272 1270 1264 1258 1253 1248 1241 1233 1222 1213 1203 1201 1197 1192 1188 1180 1170 1164 1158 1151 1142 1132 1127 1119 1106 1095 1093 1093 1092
873 873 879 886 894 902 907 908 910 910 910 911 910 909 903 0 0 0 0 750 744 737 735 727 717 713 710 710 709 709 709 710 0 0 0 0 0 0 0 0 0 0 0 0 0 0 0 0 0 0 0 0 0 0 0 0 0 0 0 826 802 781 776 776 776 776 778 778 778 776 775 774 773 773 772 770 770 770 768 763 763 762 761 756 741 712 705 704 704 704 0 0 0 0 0 0 0 0 1359 1416 1436 1443 1444 1452 1462 1466 1471 1479 1484 1491 1493 1493 1493 0 0 0 0 0 0 0 0 0 0 0 0 0 0 0 0 0 0 0 1522 1532 1532 1532 1537 1546 1554 1560 1565 1569 1576 1582 1587 1591 1595 1598 1602 1606 1611 1615 1620 1624 1629 1633 1638 1640 1644 1647 1650 1652 1654 1656 1659 1663 1665 1668 1671 1673 1675 1676 1678 1680 1683 1684 1686 1687 1688 1688 1689 1689 1690 1693 1693 1693 1692 1688 1685 1681 1660 1609 1589 1589 0 1697 1717 1732 1740 1748 1753 1754 1755 1759 1762 1764 1766 1767 1767 1767 1763 0 0 0 0 0 0 0 0 0 0 0 0 0 1803 1810 1810 1810 1810 1798 1780 0 0 0 0 0 0 0 0 0 0 0 0 0 0 0 0 0 0 0 982 982 980 975 955 936 936 936 946 946 946 941 941 941 958 0 0 0 0 1429 1469 1480 1480 1480 1480 1480 1486 1495 1495 1495 0 0 0 0 0 0 0 0 0 0 0 0 0 0 0 0 0 0 0 0 0 0 0 0 0 0 0 0 1592 1625 1631 1631 1631 1631 1626 1615 1603 1601 1599 1595 1591 1589 1587 1583 1579 1577 1574 1571 1569 1566 1563 1561 1558 1556 1553 1550 1547 1544 1544 1542 1540 1538 1536 1534 1533 1530 1529 1528 1526 1526 1524 1522 1520 1518 1516 1515 1514 1512 1510 1508 1506 1504 1503 1501 1500 1499 1497 1497 1495 1495 1494 1493 1492 1491 1489 1489 1488 1486 1485 1484 1483 1481 1480 1480 1479 1479 1479 1478 1478 1478 1478 1478 1478 1478 1477 1476 1476 1475 1475 1474 1474 1474 1472 1471 1471 1471 1470 1470 1470 1470 1470 1470 1470 1470 1469 1469 1468 1467 1467 1466 1465 1465 1465 1464 1464 1464 1464 1463 1464 1464 1463 1463 1463 1463 1463 1463 1463 1463 1462 1462 1461 1460 1459 1459 1458 1457 1456 1455 1455 1454 1453 1453 1452 1451 1451 1451 1450 1450 1450 1449 1449 1449 1449 1449 1449 1450 1450 1450 1450 1449 1449 1449 1449 1448 1447 1447 1447 1446 1446 1445 1444 1443 1443 1442 1441 1440 1440 1439 1438 1438 1437 1437 1437 1436 1435 1435 1434 1433 1432 1431 1430 1429 1427 1426 1425 1424 1423 1422 1421 1420 1419 1418 1418 1417 1415 1415 1414 1413 1412 1411 1411 1410 1409 1408 1407 1407 1407 1406 1406 1406 1406 1406 1406 1408 1410 1412 1414 1415 1417 1418 1419 1419 1420 1421 1421 1421 1421 1419 1419 1418 1418 1417 1416 1416 1415 1414 1413 1412 1411 1411 1411 1411 1410 1409 1408 1405 1403 1402 1400 1400 1398 1395 1391 1389 1388 1386 1386 1384 1383 1381 1379 1377 1377 1375 1372 1370 1367 1364 1361 1356 1352 1346 1341 1338 1335 1330 1326 1323 1322 1319 1316 1312 1307 1302 1297 1290 1285 1281 1276 1273 1270 1268 1265 1264 1257 1251 1239 1234 1227 1216 1201 1192 1187 1184 1184 1181 1174 1164 1156 1150 1140 1125 1114 1112 1102 1092 1091 1083 1082 1082
863 863 867 874 884 892 901 907 908 910 911 912 912 911 911 0 0 0 0 0 762 760 756 748 748 739 732 726 725 725 725 0 0 0 0 0 0 0 0 0 0 0 0 0 0 0 0 0 1014 1014 1014 0 0 0 0 0 0 0 0 840 818 800 787 780 780 780 780 780 779 777 776 776 776 776 776 776 773 770 768 763 762 762 754 753 721 692 683 679 679 679 0 0 0 0 0 0 0 0 1404 1427 1436 1444 1453 1460 1463 1469 1481 1489 1495 1499 1499 1499 1499 0 0 0 0 0 0 0 0 0 0 0 0 0 0 0 0 0 0 0 1510 1522 1525 1532 1537 1544 1553 1560 1564 1566 1571 1575 1579 1585 1587 1592 1597 1602 1608 1613 1618 1624 1628 1633 1638 1640 1644 1647 1649 1652 1654 1656 1658 1662 1665 1667 1670 1672 1674 1675 1677 1680 1682 1684 1685 1685 1685 1685 1687 1687 1689 1690 1690 1690 1689 1686 1683 1673 1639 1589 1589 1589 0 1704 1722 1732 1736 1743 1747 1748 1749 1755 1755 1755 1757 1757 1754 1754 0 0 0 0 0 0 0 0 0 0 0 0 0 0 1810 1817 1818 1820 1820 1820 1815 1806 1802 0 0 0 0 0 0 0 0 0 0 0 0 0 0 0 0 0 0 1007 1007 1004 955 936 936 936 946 946 946 940 940 940 0 0 0 0 0 1456 1482 1482 1482 1473 1473 1473 1473 1485 1485 1485 0 0 0 0 0 0 0 0 0 0 0 0 0 0 0 0 0 0 0 0 0 0 0 0 0 0 0 0 1592 1623 1629 1630 1630 1629 1625 1613 1601 1600 1597 1593 1590 1588 1585 1583 1579 1575 1573 1570 1568 1564 1562 1559 1557 1555 1552 1548 1545 1543 1542 1541 1539 1537 1535 1533 1531 1530 1529 1527 1526 1525 1523 1521 1519 1518 1516 1514 1513 1511 1510 1508 1506 1504 1503 1501 1500 1499 1497 1496 1495 1494 1493 1493 1492 1491 1489 1488 1487 1486 1484 1484 1483 1481 1480 1479 1479 1478 1478 1478 1478 1478 1478 1478 1478 1477 1477 1475 1475 1475 1474 1473 1472 1472 1472 1471 1470 1470 1470 1469 1469 1469 1469 1469 1469 1469 1469 1469 1468 1467 1467 1466 1465 1465 1465 1464 1464 1464 1464 1463 1464 1464 1463 1463 1463 1463 1463 1463 1463 1463 1463 1462 1461 1460 1459 1459 1458 1457 1457 1456 1455 1454 1453 1453 1452 1451 1451 1450 1450 1450 1449 1449 1449 1449 1449 1449 1449 1449 1449 1449 1449 1449 1449 1449 1448 1448 1447 1447 1446 1446 1446 1445 1444 1443 1442 1441 1441 1440 1439 1439 1438 1438 1437 1437 1436 1436 1435 1435 1434 1433 1432 1431 1430 1428 1427 1426 1424 1423 1422 1421 1421 1420 1418 1418 1417 1416 1415 1414 1414 1412 1412 1411 1411 1410 1409 1408 1407 1407 1407 1406 1405 1404 1404 1404 1406 1407 1408 1411 1412 1414 1415 1416 1417 1418 1419 1419 1419 1419 1419 1419 1417 1417 1416 1416 1415 1414 1414 1414 1413 1412 1411 1411 1410 1410 1409 1408 1406 1405 1402 1399 1399 1398 1396 1392 1391 1388 1386 1384 1384 1382 1380 1378 1376 1375 1373 1373 1371 1368 1364 1361 1357 1354 1349 1345 1341 1338 1335 1330 1326 1322 1320 1317 1314 1308 1303 1298 1292 1288 1284 1280 1276 1272 1269 1265 1262 1260 1253 1236 1227 1225 1221 1207 1192 1183 1177 1175 1174 1168 1160 1153 1149 1139 1121 1109 1100 1098 1094 1089 1079 1063 1061 1061
862 862 863 869 880 889 896 904 905 910 911 912 912 912 912 901 879 0 0 0 0 781 780 780 0 0 0 0 0 0 0 0 0 0 0 0 0 0 0 0 0 0 0 0 0 0 0 1052 1052 1045 1045 1045 0 0 0 0 0 0 0 843 829 815 804 795 795 794 794 794 789 783 781 780 779 777 777 777 776 773 763 762 762 757 754 718 700 692 679 679 679 679 0 0 0 0 0 0 0 0 1408 1431 1436 1444 1453 1460 1463 1469 1481 1489 1495 1503 1506 1506 1506 0 0 0 0 0 0 0 0 0 0 0 0 0 0 0 0 0 0 0 1502 1507 1508 1513 1532 1544 1553 1559 1562 1566 1569 1573 1576 1577 1581 1584 1589 1594 1602 1612 1616 1622 1628 1633 1638 1640 1643 1646 1647 1650 1653 1655 1658 1662 1664 1667 1670 1671 1673 1675 1677 1678 1680 1681 1682 1682 1682 1682 1682 1684 1687 1689 1689 1689 1688 1686 1679 1659 1623 1606 1606 0 0 1711 1730 1732 1736 1743 1743 1743 1744 1744 1744 1744 1746 1744 1744 1737 0 0 0 0 0 0 0 0 0 0 0 0 0 0 1810 1817 1818 1820 1820 1821 1821 1821 1821 1821 1811 1809 0 0 0 0 0 0 0 0 0 0 0 0 0 0 0 0 0 0 0 936 936 936 947 947 947 940 940 940 0 0 0 0 0 1479 1486 1486 1486 1473 1473 1473 1473 1480 1480 1480 0 0 0 0 0 0 0 0 0 0 0 0 0 0 0 0 0 0 1624 1624 1605 0 0 0 0 0 0 0 1597 1622 1624 1627 1627 1627 1622 1611 1600 1599 1597 1592 1588 1587 1584 1581 1578 1575 1571 1569 1566 1563 1560 1557 1554 1551 1550 1547 1544 1542 1541 1539 1538 1537 1535 1532 1531 1529 1528 1527 1526 1524 1522 1521 1519 1518 1516 1514 1513 1511 1510 1507 1506 1504 1503 1501 1500 1499 1497 1496 1495 1494 1493 1491 1491 1490 1489 1487 1487 1485 1484 1483 1482 1480 1478 1478 1478 1478 1477 1477 1477 1477 1477 1476 1476 1476 1474 1474 1474 1474 1473 1472 1472 1471 1470 1469 1469 1469 1469 1468 1468 1468 1468 1468 1469 1469 1469 1468 1468 1467 1467 1466 1465 1465 1465 1465 1464 1464 1464 1464 1464 1464 1464 1464 1463 1463 1463 1463 1463 1463 1463 1462 1461 1461 1459 1459 1458 1457 1457 1456 1455 1454 1453 1452 1452 1451 1450 1450 1449 1449 1449 1448 1448 1448 1448 1449 1449 1449 1449 1449 1449 1448 1448 1448 1447 1447 1447 1447 1446 1446 1446 1445 1444 1443 1442 1441 1440 1440 1439 1438 1438 1438 1437 1437 1436 1435 1435 1435 1434 1433 1432 1431 1430 1428 1427 1425 1424 1423 1422 1420 1419 1419 1418 1416 1416 1415 1414 1414 1412 1412 1411 1410 1410 1410 1408 1408 1407 1407 1406 1406 1405 1404 1404 1404 1405 1406 1408 1410 1412 1413 1414 1415 1416 1417 1418 1418 1418 1418 1418 1417 1417 1416 1415 1414 1414 1413 1413 1412 1411 1411 1411 1410 1410 1409 1408 1407 1405 1403 1401 1399 1398 1396 1393 1390 1388 1387 1385 1383 1382 1380 1379 1377 1374 1373 1371 1371 1368 1365 1361 1360 1356 1353 1349 1345 1341 1337 1335 1329 1324 1321 1319 1317 1311 1305 1298 1294 1290 1286 1282 1278 1275 1271 1268 1263 1259 1252 1240 1227 1218 1214 1208 1198 1187 1182 1173 1166 1160 1153 1149 1144 1137 1127 1109 1096 1089 1086 1079 1074 1065 1062 1047 1047
852 852 852 859 873 886 894 900 900 904 910 911 912 911 911 902 885 869 858 0 0 0 0 0 0 0 0 0 0 0 0 0 0 0 0 0 0 0 0 0 0 0 0 0 0 0 0 1060 1068 1068 1068 1068 1112 0 0 0 0 0 0 845 843 830 820 807 803 796 796 796 802 803 803 803 796 787 779 777 776 773 763 763 762 757 754 0 698 692 678 678 678 0 0 0 0 0 0 0 1333 1383 1409 1431 1438 1444 1453 1460 1463 1469 1481 1489 1495 1503 1512 1512 1512 0 0 0 0 0 0 0 0 0 0 0 0 0 0 0 0 0 0 0 0 1491 1491 1491 0 0 0 1554 1560 1565 1569 1573 1575 1576 1578 1581 1586 1591 1597 1607 1615 1619 1625 1631 1634 1637 1641 1643 1646 1648 1651 1653 1656 1659 1663 1665 1668 1669 1672 1673 1675 1677 1678 1679 1679 1679 1679 1679 1679 1682 1684 1687 1687 1687 1687 1676 1663 1636 1596 1596 0 0 0 1731 1732 1733 1736 1742 1742 1742 1738 1732 1727 1726 1726 1725 1712 0 0 0 0 0 0 0 0 0 0 0 0 0 0 0 1810 1813 1818 1820 1820 1821 1821 1821 1824 1825 1825 1825 1825 1825 1825 1822 0 0 0 0 0 0 0 0 0 0 0 0 0 0 0 0 0 0 0 966 966 940 940 0 0 0 0 0 0 1484 1486 1486 1486 1473 1473 1473 1473 1476 1476 1476 0 0 0 0 0 0 0 0 0 0 0 0 0 0 0 0 0 1624 1624 1624 1605 1577 1546 1528 1528 0 0 0 1613 1622 1624 1624 1624 1623 1618 1605 1599 1598 1595 1589 1585 1585 1584 1580 1577 1574 1570 1567 1564 1561 1558 1555 1552 1550 1547 1544 1542 1541 1538 1538 1536 1536 1534 1532 1530 1529 1527 1526 1525 1523 1522 1520 1518 1517 1516 1514 1513 1511 1510 1508 1506 1504 1503 1501 1500 1498 1497 1496 1494 1493 1492 1491 1491 1489 1488 1487 1486 1485 1484 1483 1482 1480 1478 1478 1477 1477 1476 1476 1476 1476 1476 1475 1474 1474 1474 1473 1473 1472 1472 1471 1471 1470 1469 1469 1468 1467 1467 1467 1467 1467 1467 1468 1468 1468 1468 1468 1468 1467 1466 1466 1465 1465 1465 1465 1464 1464 1464 1464 1464 1464 1463 1463 1463 1463 1463 1463 1463 1463 1463 1462 1461 1461 1460 1460 1458 1457 1457 1456 1455 1454 1453 1452 1452 1451 1450 1450 1449 1449 1449 1448 1448 1448 1448 1448 1448 1449 1449 1448 1448 1448 1448 1447 1447 1446 1446 1446 1445 1445 1445 1445 1444 1442 1442 1441 1440 1439 1439 1438 1438 1437 1437 1436 1436 1435 1435 1435 1434 1433 1432 1430 1430 1428 1426 1425 1423 1422 1421 1420 1419 1417 1417 1416 1416 1414 1414 1413 1412 1411 1411 1410 1409 1409 1408 1407 1407 1406 1406 1405 1404 1404 1404 1404 1404 1406 1407 1408 1411 1412 1413 1415 1416 1416 1417 1417 1417 1417 1416 1416 1416 1415 1414 1413 1412 1412 1410 1410 1410 1410 1410 1409 1409 1409 1408 1406 1404 1403 1401 1398 1395 1393 1391 1388 1387 1385 1384 1382 1381 1379 1378 1375 1373 1371 1370 1369 1366 1363 1361 1358 1356 1353 1349 1345 1340 1337 1333 1327 1323 1320 1319 1315 1309 1302 1297 1293 1290 1286 1280 1275 1270 1267 1265 1260 1256 1248 1236 1223 1213 1201 1195 1189 1181 1176 1166 1157 1147 1141 1135 1132 1127 1116 1095 1092 1082 1074 1068 1065 1056 1055 1038 1038
838 838 841 848 861 876 887 891 894 894 897 905 907 907 907 902 885 878 872 871 867 0 0 0 0 0 0 0 0 0 0 0 0 0 0 0 0 0 0 0 0 0 0 0 0 0 0 1066 1068 1079 1079 1079 1123 0 0 0 0 0 858 858 855 847 845 841 831 822 820 820 820 829 829 829 827 821 0 0 0 789 763 763 763 762 0 0 694 682 682 682 684 0 0 0 0 0 0 1323 1356 1401 1423 1431 1437 1439 1441 1447 1458 1458 1468 1481 1493 1503 1512 1512 1512 0 0 0 0 0 0 0 0 0 0 0 0 0 0 0 0 0 0 0 0 0 0 0 0 0 0 0 1551 1563 1569 1573 1575 1576 1576 1580 1583 1586 1592 1601 1610 1617 1623 1628 1632 1636 1639 1641 1644 1645 1649 1651 1652 1656 1659 1662 1664 1666 1668 1671 1673 1675 1676 1676 1677 1677 1676 1676 1676 1676 1676 1679 1680 1680 1680 1675 1661 1610 1607 1607 0 0 1735 1739 1739 1742 1742 1742 1742 1742 1738 1732 1727 1724 1711 1705 0 0 0 0 0 0 0 0 0 0 0 0 0 0 0 1800 1808 1810 1815 1819 1819 1819 1821 1821 1824 1825 1825 1825 1825 1825 1825 1825 1825 1822 1822 0 0 0 0 0 0 0 0 0 0 0 0 0 0 0 0 0 0 0 0 0 0 0 0 0 0 1488 1491 1491 1491 1483 1477 1477 1477 1477 1477 1460 0 0 0 0 0 0 0 0 0 0 0 0 0 0 0 0 0 1624 1624 1624 1605 1578 1552 1552 1552 1564 1601 1611 1617 1621 1623 1623 1623 1621 1612 1602 1598 1596 1594 1588 1584 1583 1582 1579 1576 1572 1569 1565 1562 1559 1556 1554 1551 1549 1546 1543 1541 1539 1538 1537 1536 1534 1532 1531 1529 1528 1526 1526 1524 1522 1521 1520 1518 1517 1515 1514 1513 1511 1509 1507 1506 1504 1503 1501 1500 1498 1497 1495 1494 1493 1492 1491 1490 1489 1488 1487 1486 1485 1484 1483 1481 1480 1478 1478 1477 1477 1476 1476 1475 1475 1475 1475 1474 1474 1473 1472 1472 1472 1471 1470 1470 1469 1468 1467 1467 1467 1467 1467 1467 1467 1467 1468 1468 1468 1468 1468 1468 1467 1466 1466 1466 1465 1465 1465 1464 1464 1464 1464 1463 1463 1463 1463 1463 1463 1463 1463 1463 1463 1463 1462 1461 1461 1460 1460 1458 1457 1457 1455 1455 1454 1453 1452 1451 1450 1450 1449 1449 1449 1448 1448 1448 1448 1448 1448 1448 1448 1448 1448 1448 1448 1447 1446 1445 1445 1445 1444 1444 1444 1443 1443 1442 1441 1441 1440 1440 1439 1439 1438 1438 1437 1437 1436 1436 1435 1435 1435 1433 1432 1431 1430 1428 1428 1426 1425 1423 1422 1420 1419 1418 1417 1416 1415 1414 1414 1412 1411 1410 1410 1409 1409 1408 1407 1407 1406 1406 1404 1404 1403 1402 1402 1403 1403 1403 1405 1406 1408 1409 1412 1413 1414 1414 1416 1416 1416 1416 1416 1416 1415 1414 1413 1413 1411 1411 1409 1408 1408 1408 1408 1408 1408 1408 1407 1406 1405 1403 1403 1400 1396 1393 1390 1388 1386 1385 1384 1381 1379 1378 1377 1376 1374 1371 1370 1368 1366 1364 1362 1359 1356 1354 1351 1348 1343 1338 1336 1332 1326 1322 1320 1317 1314 1308 1301 1297 1293 1290 1286 1279 1271 1266 1264 1261 1257 1253 1246 1234 1223 1210 1196 1185 1179 1172 1166 1156 1146 1134 1125 1116 1114 1112 1109 1090 1078 1067 1063 1058 1054 1052 1044 1033 1033
824 824 829 834 843 855 864 874 880 880 885 886 892 900 900 900 885 879 879 879 882 882 883 885 885 886 0 0 0 0 0 0 0 0 0 0 0 0 0 0 0 0 0 0 0 0 0 0 1065 1075 1120 1138 0 0 0 0 0 873 865 863 860 863 863 858 857 855 853 849 849 847 847 847 848 849 849 849 840 820 785 783 782 781 0 0 682 682 682 684 698 0 0 0 0 0 1305 1324 1356 1403 1423 1431 1436 1436 1437 1441 1453 1456 1466 1477 1486 1496 1505 1505 1505 0 0 0 0 0 0 0 0 0 0 0 0 0 0 0 0 0 0 0 0 0 0 0 0 0 0 0 0 1549 1564 1572 1575 1575 1576 1580 1582 1585 1588 1593 1602 1608 1612 1619 1627 1634 1637 1639 1640 1642 1645 1649 1651 1654 1655 1658 1660 1662 1663 1667 1669 1671 1673 1674 1674 1674 1674 1673 1673 1673 1674 1677 1678 1678 1678 1670 1646 1608 1608 1608 0 1740 1754 1754 1754 1750 1748 1747 1747 1742 1738 1732 1727 1724 1708 0 0 0 0 0 0 0 0 0 0 0 0 0 0 0 1790 1800 1805 1806 1812 1816 1817 1818 1818 1820 1824 1825 1825 1825 1825 1825 1825 1825 1829 1835 1835 1835 1832 1830 1829 0 0 0 0 0 0 0 0 0 0 0 0 0 0 0 0 0 0 0 0 0 0 0 1500 1500 1500 1499 1490 1490 1489 1488 1483 0 0 0 0 0 0 0 0 0 0 0 0 0 0 0 0 0 0 1668 1668 1651 1623 1593 1564 1564 1564 1585 1602 1613 1620 1621 1622 1622 1622 1615 1608 1600 1598 1596 1592 1587 1583 1582 1580 1578 1574 1570 1566 1563 1560 1557 1555 1553 1550 1548 1546 1543 1541 1539 1537 1536 1535 1533 1532 1530 1529 1527 1525 1524 1523 1522 1521 1519 1518 1516 1515 1513 1512 1511 1509 1507 1505 1504 1503 1501 1500 1498 1496 1495 1494 1493 1491 1491 1489 1489 1487 1486 1485 1485 1483 1482 1481 1480 1479 1478 1477 1477 1476 1475 1475 1475 1475 1475 1474 1473 1473 1472 1472 1471 1471 1470 1469 1469 1467 1467 1467 1467 1467 1467 1467 1467 1467 1467 1468 1468 1468 1468 1468 1467 1466 1466 1466 1465 1465 1465 1464 1464 1463 1463 1463 1463 1463 1463 1463 1463 1463 1463 1463 1463 1462 1462 1461 1461 1460 1460 1458 1457 1456 1455 1454 1454 1453 1452 1451 1450 1449 1449 1449 1449 1448 1448 1448 1448 1448 1448 1448 1448 1448 1448 1447 1447 1446 1446 1445 1444 1444 1444 1443 1443 1442 1442 1441 1440 1439 1439 1439 1438 1438 1437 1437 1437 1437 1436 1435 1435 1434 1433 1433 1431 1430 1428 1427 1425 1424 1423 1422 1421 1419 1418 1418 1417 1415 1414 1414 1412 1412 1411 1410 1408 1408 1408 1407 1406 1404 1404 1403 1402 1402 1401 1401 1401 1401 1401 1402 1403 1405 1406 1409 1411 1412 1413 1414 1414 1415 1415 1415 1415 1414 1413 1413 1412 1411 1409 1409 1408 1406 1406 1406 1406 1406 1406 1406 1406 1403 1403 1402 1401 1399 1395 1391 1388 1386 1384 1383 1381 1378 1376 1374 1373 1372 1371 1370 1368 1366 1364 1362 1360 1357 1355 1353 1349 1346 1341 1337 1332 1328 1324 1322 1319 1317 1312 1307 1301 1296 1293 1289 1285 1279 1270 1264 1261 1258 1255 1249 1242 1231 1221 1210 1196 1185 1179 1165 1154 1147 1135 1123 1114 1110 1106 1103 1098 1082 1065 1055 1048 1046 1042 1040 1037 1033 1033
818 818 821 824 833 842 854 865 871 874 874 878 881 887 887 887 885 879 879 879 882 882 883 885 886 892 902 917 945 960 975 0 0 0 0 0 0 0 0 0 0 0 0 0 0 0 0 0 0 0 0 0 0 0 0 0 0 873 869 869 869 869 872 872 870 866 864 862 862 862 866 867 873 873 873 865 850 829 802 802 798 798 0 0 0 682 682 687 0 0 0 0 0 0 1306 1331 1371 1403 1423 1431 1434 1434 1437 1438 1442 1454 1458 1470 1483 1491 1495 1495 1495 0 0 0 0 0 0 0 0 0 0 0 0 0 0 0 0 0 0 0 0 0 0 0 0 0 0 0 0 1547 1564 1564 1567 1572 1576 1580 1582 1585 1586 1589 1593 1598 1602 1609 1618 1626 1630 1630 1632 1637 1640 1646 1649 1651 1651 1654 1655 1659 1660 1663 1666 1668 1670 1671 1671 1671 1671 1670 1670 1670 1673 1674 1676 1676 1676 1663 1640 1592 1592 1592 1670 1740 1754 1761 1761 1761 1761 1756 1752 1746 1745 1745 1741 1724 1705 0 0 0 0 0 0 0 0 0 0 0 0 0 0 0 1790 1800 1804 1806 1811 1811 1812 1815 1815 1820 1822 1822 1822 1821 1821 1821 1822 1825 1829 1835 1839 1840 1842 1842 1842 1840 1839 1837 0 0 0 0 0 0 0 0 0 0 0 0 0 0 0 0 0 0 0 0 0 0 0 1512 1508 1508 1506 1504 0 0 0 0 0 0 0 0 0 0 0 0 0 0 0 0 0 0 1688 1688 1688 1674 1650 1602 1579 1579 1579 1609 1619 1619 1620 1621 1621 1621 1619 1612 1603 1600 1598 1595 1589 1586 1583 1580 1578 1575 1572 1569 1564 1561 1558 1555 1553 1551 1548 1547 1544 1541 1538 1537 1535 1534 1534 1532 1531 1529 1527 1527 1525 1523 1522 1520 1520 1519 1517 1516 1514 1513 1512 1510 1508 1507 1505 1503 1502 1501 1500 1498 1496 1495 1493 1492 1491 1490 1489 1488 1487 1486 1485 1484 1483 1482 1481 1480 1479 1478 1477 1477 1476 1475 1475 1474 1474 1474 1474 1473 1473 1472 1471 1471 1470 1470 1469 1468 1467 1467 1467 1466 1466 1466 1466 1466 1466 1467 1468 1468 1468 1467 1467 1466 1466 1466 1466 1465 1465 1464 1464 1464 1463 1463 1463 1463 1463 1463 1463 1463 1463 1463 1463 1463 1462 1461 1461 1460 1459 1459 1457 1456 1456 1454 1454 1453 1452 1451 1450 1449 1448 1448 1448 1448 1448 1448 1448 1448 1447 1447 1447 1447 1447 1447 1446 1446 1445 1445 1445 1443 1443 1443 1443 1442 1442 1441 1441 1440 1439 1438 1438 1438 1438 1437 1437 1437 1436 1436 1435 1435 1434 1433 1432 1431 1429 1428 1426 1425 1423 1422 1421 1419 1419 1417 1416 1416 1415 1414 1413 1412 1412 1410 1409 1408 1406 1406 1406 1405 1403 1403 1402 1401 1401 1400 1400 1400 1400 1401 1401 1402 1404 1406 1407 1410 1412 1412 1413 1414 1414 1415 1415 1415 1413 1413 1412 1411 1410 1409 1408 1406 1405 1405 1405 1405 1405 1405 1405 1403 1402 1400 1399 1399 1396 1393 1389 1385 1383 1381 1380 1378 1375 1373 1371 1369 1368 1367 1367 1366 1364 1362 1360 1357 1355 1352 1350 1347 1344 1339 1334 1330 1325 1323 1321 1319 1314 1310 1305 1300 1296 1293 1289 1284 1276 1268 1264 1260 1257 1253 1246 1236 1229 1218 1209 1196 1185 1179 1165 1154 1144 1130 1118 1110 1100 1095 1091 1084 1073 1056 1046 1038 1036 1034 1034 1034 1032 1032
815 815 818 819 823 831 840 852 857 862 863 866 870 876 879 879 879 879 879 879 882 882 883 885 886 892 902 917 945 960 975 986 0 0 0 0 0 0 0 0 0 0 0 0 0 0 0 0 0 0 0 0 0 0 0 0 0 873 873 873 876 877 877 877 876 871 869 868 868 869 873 878 878 878 877 865 850 829 817 815 813 0 0 0 0 0 0 0 0 0 0 0 0 1288 1307 1336 1371 1403 1421 1429 1430 1431 1433 1436 1439 1445 1447 1458 1472 1485 1492 1492 1492 0 0 0 0 0 0 0 0 0 0 0 0 0 0 0 0 0 0 0 0 0 0 0 0 0 0 0 0 1547 1561 1563 1567 1572 1577 1580 1582 1584 1585 1586 1589 1591 1594 1600 1605 1614 1620 1624 1626 1631 1634 1639 1643 1645 1647 1652 1654 1657 1660 1661 1663 1665 1666 1666 1668 1668 1668 1668 1668 1669 1670 1671 1671 1671 1667 1658 1621 1599 1599 1599 1690 1740 1754 1761 1761 1761 1761 1758 1752 1749 1748 1748 1742 1724 0 0 0 0 0 0 0 0 0 0 0 0 0 0 0 0 1790 1796 1799 1802 1802 1804 1806 1806 1809 1818 1820 1820 1820 1816 1816 1816 1817 1822 1829 1835 1839 1840 1842 1845 1846 1848 1852 1853 1853 1853 1853 1841 1836 1825 0 0 0 0 0 0 0 0 0 0 0 0 0 0 0 0 0 0 0 0 0 0 0 0 0 0 0 0 0 0 0 0 0 0 0 0 0 0 0 0 1693 1693 1693 1674 1650 1616 1595 1595 1595 1611 1619 1621 1621 1621 1620 1619 1616 1608 1603 1600 1596 1592 1588 1585 1581 1579 1576 1574 1571 1567 1564 1561 1557 1555 1552 1549 1547 1544 1542 1539 1537 1535 1534 1533 1532 1530 1528 1528 1526 1525 1524 1523 1521 1520 1519 1518 1517 1515 1514 1513 1511 1509 1508 1506 1505 1503 1502 1501 1500 1498 1496 1495 1493 1492 1491 1490 1489 1488 1486 1486 1485 1483 1483 1482 1481 1480 1479 1478 1477 1477 1476 1475 1475 1474 1474 1474 1473 1473 1472 1472 1471 1470 1470 1469 1468 1467 1466 1466 1466 1466 1466 1466 1466 1466 1466 1467 1467 1467 1467 1467 1466 1466 1466 1466 1465 1465 1464 1464 1464 1463 1463 1463 1463 1463 1463 1462 1462 1462 1462 1462 1462 1462 1461 1460 1460 1459 1459 1457 1457 1456 1455 1454 1453 1452 1452 1451 1450 1449 1448 1448 1448 1448 1448 1448 1447 1447 1447 1447 1447 1447 1447 1447 1446 1445 1445 1444 1444 1443 1443 1443 1443 1442 1442 1441 1440 1439 1439 1438 1438 1437 1437 1437 1437 1437 1436 1436 1435 1435 1433 1433 1432 1430 1429 1427 1425 1423 1422 1421 1420 1419 1418 1417 1416 1415 1414 1413 1412 1412 1410 1410 1408 1407 1406 1405 1404 1403 1403 1402 1401 1401 1400 1399 1399 1399 1399 1400 1400 1402 1403 1404 1406 1408 1410 1411 1412 1412 1413 1413 1413 1412 1412 1412 1410 1410 1409 1408 1406 1404 1404 1403 1403 1403 1403 1403 1402 1400 1397 1395 1395 1394 1393 1389 1385 1383 1381 1380 1378 1375 1372 1369 1367 1366 1365 1365 1364 1363 1361 1359 1357 1355 1352 1350 1349 1346 1342 1338 1333 1328 1323 1321 1319 1316 1312 1308 1304 1299 1296 1292 1287 1281 1274 1268 1263 1260 1257 1252 1243 1232 1224 1217 1208 1197 1188 1182 1165 1154 1144 1130 1116 1106 1098 1090 1082 1075 1066 1056 1046 1038 1031 1031 1030 1028 1028 1028
815 815 815 815 816 816 823 831 841 847 848 851 857 864 868 868 868 864 862 862 862 866 872 880 882 892 902 917 945 960 963 967 0 0 0 0 0 0 0 0 0 0 0 0 0 0 0 0 0 0 0 0 0 0 0 0 0 873 873 873 876 879 879 879 876 872 872 872 873 874 878 880 880 880 877 865 850 829 817 815 813 0 0 0 0 0 0 0 0 0 0 0 0 1288 1308 1337 1372 1403 1412 1422 1427 1429 1431 1433 1435 1440 1445 1447 1457 1471 1482 1482 1482 0 0 0 0 0 0 0 0 0 0 0 0 0 0 0 0 0 0 0 0 0 0 0 0 0 0 0 0 1549 1561 1563 1567 1572 1577 1580 1581 1582 1582 1583 1584 1584 1586 1588 1590 1596 1607 1614 1622 1630 1634 1636 1637 1637 1641 1648 1651 1655 1659 1661 1661 1661 1661 1661 1662 1664 1665 1666 1667 1667 1667 1667 1667 1667 1662 1644 1588 1588 1588 1610 1711 1738 1752 1761 1761 1761 1761 1758 1752 1749 1749 1748 1742 0 0 0 0 0 0 0 0 0 0 0 0 0 0 0 0 0 1790 1796 1799 1802 1802 1804 1806 1806 1808 1813 1817 1817 1817 1816 1816 1816 1817 1821 1825 1832 1838 1840 1842 1845 1846 1848 1852 1853 1853 1853 1853 1853 1857 1857 1857 1854 1848 1830 0 0 0 0 0 0 0 0 0 0 0 0 0 0 0 0 0 0 0 0 0 0 0 0 0 0 0 0 0 0 0 0 0 0 0 0 1693 1693 1693 1674 1650 1619 1599 1599 1599 1611 1619 1620 1620 1620 1619 1618 1610 1608 1602 1598 1595 1590 1586 1582 1581 1577 1575 1572 1568 1566 1563 1560 1557 1554 1550 1548 1546 1543 1541 1538 1536 1535 1533 1532 1529 1528 1527 1526 1525 1524 1523 1521 1520 1519 1518 1517 1516 1514 1513 1511 1510 1509 1507 1506 1504 1503 1502 1500 1499 1498 1496 1495 1493 1492 1491 1489 1488 1487 1486 1484 1484 1483 1482 1481 1481 1480 1479 1478 1477 1476 1476 1475 1475 1474 1474 1474 1473 1472 1472 1471 1471 1470 1469 1469 1467 1467 1466 1466 1466 1466 1466 1466 1466 1466 1466 1466 1466 1466 1466 1466 1466 1466 1466 1465 1465 1464 1464 1464 1463 1463 1463 1463 1463 1463 1462 1462 1462 1462 1462 1462 1461 1461 1461 1460 1459 1459 1458 1457 1456 1455 1455 1453 1452 1452 1451 1449 1449 1449 1448 1448 1448 1447 1447 1447 1447 1447 1447 1447 1446 1446 1446 1446 1445 1445 1444 1444 1444 1443 1442 1442 1441 1440 1440 1440 1440 1439 1439 1438 1437 1437 1437 1437 1437 1436 1436 1435 1435 1434 1433 1432 1431 1429 1426 1425 1424 1423 1421 1420 1419 1418 1417 1416 1415 1415 1414 1413 1412 1411 1410 1409 1408 1406 1405 1404 1403 1402 1402 1401 1400 1400 1399 1398 1398 1398 1398 1398 1399 1400 1401 1403 1406 1407 1409 1411 1412 1412 1412 1412 1412 1411 1411 1411 1410 1408 1407 1406 1405 1403 1401 1401 1401 1400 1400 1400 1398 1396 1393 1391 1389 1389 1388 1385 1383 1381 1379 1378 1375 1371 1368 1365 1364 1363 1362 1361 1361 1360 1359 1356 1354 1352 1351 1347 1346 1344 1342 1338 1332 1328 1323 1320 1317 1314 1310 1307 1302 1297 1292 1289 1284 1277 1271 1265 1262 1260 1257 1252 1240 1228 1218 1215 1206 1197 1188 1182 1168 1157 1144 1130 1115 1105 1098 1087 1077 1069 1064 1056 1046 1038 1030 1029 1028 1026 1028 1028
813 813 811 811 807 807 807 816 828 834 837 839 842 849 855 855 855 853 845 845 845 849 859 869 877 880 885 894 909 923 927 929 0 0 0 0 0 0 0 0 0 0 0 0 0 0 0 0 0 0 0 0 0 0 0 0 884 868 868 868 876 879 879 879 876 872 872 872 874 881 881 881 881 880 877 865 845 826 817 815 813 0 0 0 0 0 0 0 0 0 0 0 0 1286 1308 1338 1378 1403 1411 1417 1422 1426 1428 1429 1432 1436 1440 1443 1444 1453 1453 1453 1449 0 0 0 0 0 0 0 0 0 0 0 0 0 0 0 0 0 0 0 0 0 0 0 0 0 0 0 0 1557 1564 1564 1567 1574 1577 1580 1580 1580 1580 1579 1579 1578 1578 1578 1578 1582 1591 1599 1607 1615 1623 1628 1630 1635 1635 1642 1646 1652 1656 1658 1658 1658 1658 1658 1659 1661 1664 1664 1664 1664 1664 1664 1662 1659 1654 1623 1573 1573 1573 1688 1711 1731 1743 1751 1755 1758 1758 1758 1750 1749 1749 1748 1742 0 0 0 0 0 0 0 0 0 0 0 0 0 0 0 0 1783 1792 1796 1799 1802 1802 1804 1806 1806 1808 1811 1813 1815 1815 1816 1816 1816 1817 1821 1825 1832 1835 1839 1842 1845 1846 1848 1852 1853 1853 1853 1853 1853 1857 1862 1862 1862 1857 1857 1857 1857 1859 1860 1869 1875 1875 1875 1873 0 0 0 0 0 0 0 0 0 0 0 0 0 0 0 0 0 0 0 0 0 0 0 0 0 0 1691 1693 1693 1693 1670 1643 1619 1600 1600 1600 1611 1619 1620 1620 1620 1617 1612 1608 1606 1601 1598 1594 1589 1586 1582 1578 1576 1573 1571 1567 1565 1562 1559 1555 1552 1548 1547 1544 1542 1539 1538 1535 1534 1532 1530 1528 1526 1524 1524 1523 1523 1521 1521 1519 1518 1516 1516 1514 1513 1513 1511 1510 1508 1507 1505 1504 1503 1501 1500 1499 1498 1496 1494 1492 1492 1490 1489 1488 1487 1486 1484 1484 1483 1482 1481 1481 1480 1479 1478 1477 1476 1476 1475 1475 1474 1474 1474 1472 1472 1472 1471 1471 1470 1468 1468 1467 1466 1465 1465 1465 1465 1465 1465 1465 1465 1465 1465 1465 1465 1465 1465 1465 1465 1465 1464 1464 1464 1464 1464 1463 1463 1463 1462 1462 1461 1461 1461 1461 1461 1461 1461 1461 1461 1461 1460 1459 1458 1457 1456 1455 1455 1454 1452 1452 1451 1450 1449 1449 1449 1448 1447 1447 1447 1447 1447 1447 1447 1447 1446 1446 1446 1446 1445 1445 1444 1444 1444 1444 1443 1442 1440 1440 1440 1439 1439 1439 1439 1439 1438 1437 1437 1437 1437 1437 1436 1435 1435 1434 1433 1432 1430 1429 1428 1425 1424 1423 1421 1420 1418 1417 1417 1416 1416 1414 1414 1413 1412 1411 1410 1409 1408 1407 1405 1405 1403 1402 1402 1401 1400 1398 1397 1397 1397 1397 1397 1397 1398 1398 1398 1400 1402 1404 1407 1408 1409 1411 1411 1411 1411 1410 1410 1409 1409 1407 1407 1405 1405 1404 1402 1399 1398 1398 1397 1397 1395 1393 1392 1390 1388 1387 1385 1384 1383 1381 1379 1377 1375 1371 1368 1365 1362 1361 1360 1359 1358 1358 1358 1356 1354 1352 1349 1347 1345 1344 1342 1340 1336 1331 1327 1323 1319 1314 1312 1309 1306 1301 1295 1291 1286 1280 1275 1268 1263 1261 1258 1253 1246 1237 1225 1216 1210 1204 1197 1188 1182 1169 1159 1144 1130 1112 1103 1095 1084 1070 1060 1058 1056 1046 1036 1028 1026 1020 1018 1016 1016
811 811 803 803 803 803 805 809 816 819 823 824 825 827 831 840 840 840 839 839 839 844 853 861 862 865 871 882 899 909 911 911 911 911 908 902 895 888 858 0 0 0 0 0 0 0 0 0 0 0 0 0 0 0 0 0 873 868 868 868 874 878 878 878 877 877 877 879 879 881 881 881 881 880 877 858 826 804 796 794 789 0 0 0 0 0 0 0 0 0 0 0 0 1286 1309 1354 1385 1402 1410 1416 1418 1420 1424 1427 1429 1433 1435 1436 1438 1442 1442 1442 1431 0 0 0 0 0 0 0 0 0 0 0 0 0 0 0 1462 0 0 0 0 0 0 0 0 0 0 0 0 1569 1569 1574 1574 1578 1580 1581 1581 1581 1580 1579 1579 1577 1574 1571 1571 1571 1574 1577 1583 1592 1602 1609 1617 1619 1626 1632 1640 1645 1647 1650 1653 1655 1655 1656 1657 1658 1659 1659 1659 1659 1659 1659 1655 1653 1642 1600 1600 1600 0 0 1711 1725 1732 1737 1738 1746 1748 1748 1749 1748 1747 1743 0 0 0 0 0 0 0 0 0 0 0 0 0 0 0 0 0 1802 1809 1811 1811 1811 1807 1806 1806 1806 1808 1811 1813 1816 1816 1816 1817 1818 1818 1821 1825 1832 1834 1835 1839 1842 1845 1846 1848 1850 1850 1850 1850 1851 1857 1862 1862 1862 1864 1864 1867 1867 1871 1873 1878 1881 1884 1889 1894 1894 1894 1889 1880 0 0 0 0 0 0 0 0 0 0 0 0 0 0 0 0 0 0 0 0 0 0 1691 1691 1691 1681 1658 1636 1619 1604 1604 1604 1611 1615 1620 1620 1620 1615 1609 1606 1603 1599 1596 1593 1589 1585 1582 1578 1573 1570 1568 1566 1562 1560 1557 1554 1550 1548 1545 1543 1540 1539 1537 1534 1533 1531 1529 1527 1525 1524 1522 1522 1521 1521 1519 1518 1516 1516 1514 1514 1512 1511 1509 1509 1507 1506 1504 1503 1502 1501 1500 1498 1497 1495 1494 1492 1492 1490 1489 1488 1487 1486 1484 1483 1482 1481 1481 1480 1480 1479 1478 1477 1476 1475 1475 1475 1474 1473 1473 1472 1471 1471 1470 1469 1469 1468 1467 1466 1466 1465 1465 1465 1465 1464 1464 1465 1464 1465 1465 1465 1465 1465 1465 1464 1464 1464 1463 1463 1463 1463 1463 1462 1462 1462 1461 1461 1461 1461 1460 1460 1460 1460 1461 1461 1461 1461 1459 1458 1456 1456 1456 1454 1454 1452 1452 1451 1450 1449 1449 1448 1448 1447 1447 1447 1447 1446 1446 1446 1446 1446 1446 1446 1446 1445 1445 1444 1444 1444 1444 1443 1443 1441 1440 1440 1438 1438 1438 1439 1439 1439 1438 1437 1437 1436 1436 1436 1435 1435 1433 1433 1432 1430 1430 1428 1426 1425 1423 1423 1421 1419 1418 1417 1417 1416 1415 1414 1414 1412 1412 1410 1409 1408 1407 1406 1405 1404 1403 1401 1400 1400 1399 1398 1396 1396 1395 1395 1395 1395 1396 1396 1397 1399 1401 1403 1405 1407 1409 1409 1409 1409 1409 1409 1409 1409 1407 1406 1405 1404 1402 1402 1400 1399 1398 1396 1396 1393 1392 1390 1388 1387 1386 1385 1384 1383 1381 1379 1377 1375 1373 1370 1366 1364 1361 1359 1357 1356 1356 1356 1355 1352 1351 1348 1346 1344 1342 1341 1340 1337 1332 1328 1324 1321 1315 1312 1310 1306 1304 1300 1294 1291 1285 1280 1272 1264 1258 1255 1252 1247 1242 1232 1222 1211 1204 1197 1190 1188 1180 1169 1159 1142 1130 1112 1095 1084 1073 1058 1056 1053 1052 1046 1036 1028 1024 1017 1017 1016 1016
803 803 800 801 801 801 804 804 805 806 806 806 807 809 815 824 831 834 835 835 836 840 844 846 846 846 854 872 886 895 895 895 894 893 887 883 879 873 857 827 0 0 0 0 0 0 0 0 0 0 0 0 0 0 0 0 872 868 868 868 874 876 876 876 877 877 877 879 882 882 882 882 879 876 864 831 807 785 781 777 772 0 0 0 0 0 0 0 0 0 0 0 1263 1286 1312 1354 1385 1402 1410 1416 1418 1418 1419 1422 1426 1431 1432 1433 1435 1435 1435 1435 0 0 0 0 0 0 0 0 0 0 0 0 0 0 0 0 1469 1469 0 0 0 0 0 0 0 0 0 0 0 1569 1578 1579 1580 1581 1580 1580 1580 1580 1580 1579 1579 1575 1572 1569 1567 1567 1567 1570 1574 1579 1585 1592 1597 1600 1608 1618 1628 1634 1638 1639 1642 1646 1650 1651 1652 1652 1652 1652 1652 1652 1653 1653 1653 1645 1625 1586 1586 1586 1653 1688 1708 1718 1728 1728 1729 1729 1729 1729 1731 1741 1741 1741 0 0 0 0 0 0 0 0 0 0 0 0 0 0 0 0 0 1812 1814 1814 1814 1814 1811 1811 1810 1810 1810 1811 1813 1816 1816 1818 1818 1819 1820 1822 1828 1832 1833 1833 1835 1839 1843 1845 1847 1848 1848 1848 1849 1850 1854 1860 1862 1864 1864 1865 1867 1867 1871 1873 1878 1881 1884 1889 1894 1895 1895 1898 1895 1895 1894 1880 1874 0 0 0 0 0 0 0 0 0 0 0 0 0 0 0 0 0 0 1691 1691 1691 1681 1644 1631 1611 1604 1604 1604 1611 1615 1616 1616 1616 1613 1606 1603 1601 1596 1593 1590 1588 1585 1580 1576 1573 1569 1566 1563 1560 1558 1556 1552 1549 1547 1545 1543 1540 1538 1536 1534 1533 1530 1529 1525 1524 1522 1521 1521 1521 1520 1519 1518 1515 1514 1513 1512 1511 1510 1508 1507 1506 1505 1504 1502 1502 1500 1499 1498 1496 1494 1493 1492 1491 1489 1488 1487 1486 1486 1484 1483 1482 1481 1480 1480 1479 1478 1478 1477 1477 1475 1475 1474 1474 1473 1473 1472 1471 1471 1470 1469 1469 1467 1467 1466 1465 1465 1464 1464 1464 1464 1464 1463 1463 1463 1464 1464 1464 1464 1464 1464 1463 1463 1463 1462 1462 1462 1462 1461 1461 1461 1461 1460 1460 1460 1460 1459 1460 1460 1460 1460 1460 1459 1457 1456 1455 1455 1455 1453 1452 1452 1450 1450 1450 1449 1448 1448 1447 1447 1446 1446 1446 1446 1446 1446 1446 1446 1446 1446 1445 1445 1445 1444 1444 1443 1443 1443 1442 1440 1439 1439 1438 1438 1438 1438 1438 1438 1437 1436 1436 1435 1435 1435 1434 1433 1433 1432 1431 1430 1428 1428 1425 1424 1423 1422 1420 1419 1417 1417 1415 1415 1415 1414 1413 1412 1411 1410 1408 1407 1406 1405 1405 1403 1402 1401 1400 1399 1398 1397 1396 1395 1394 1394 1394 1394 1395 1395 1396 1397 1399 1401 1404 1406 1406 1407 1407 1408 1408 1408 1408 1407 1405 1405 1403 1402 1401 1399 1399 1398 1396 1394 1392 1390 1389 1387 1385 1384 1384 1384 1383 1381 1379 1375 1374 1372 1370 1369 1366 1363 1360 1356 1355 1353 1353 1353 1353 1348 1345 1343 1341 1340 1339 1338 1336 1333 1329 1325 1323 1319 1314 1311 1307 1303 1301 1297 1294 1291 1285 1276 1268 1261 1254 1247 1243 1238 1232 1224 1215 1206 1198 1194 1188 1183 1178 1168 1157 1142 1125 1103 1082 1075 1068 1058 1050 1046 1046 1040 1028 1026 1018 1016 1015 1014 1014
785 785 787 789 794 798 798 798 796 796 796 796 798 802 807 814 821 824 824 824 821 821 821 825 833 838 841 855 868 874 875 875 874 873 868 865 863 855 845 827 815 0 0 0 0 0 0 0 0 0 0 0 0 0 877 877 870 866 866 866 870 876 876 876 876 876 877 879 882 882 882 882 879 876 841 818 795 776 768 760 0 0 0 0 0 0 0 0 0 0 0 0 1259 1280 1316 1354 1385 1401 1406 1408 1413 1418 1419 1421 1423 1425 1427 1428 1429 1429 1428 1422 0 0 0 0 0 0 0 0 0 0 0 0 0 0 0 1477 1477 1471 0 0 0 0 0 0 0 0 0 0 0 1569 1578 1585 1585 1585 1585 1583 1582 1581 1578 1578 1577 1575 1572 1569 1566 1566 1566 1566 1567 1572 1577 1580 1587 1594 1597 1605 1611 1619 1625 1629 1629 1633 1640 1645 1645 1645 1644 1644 1644 1647 1647 1647 1645 1629 1594 1594 1594 1594 1664 1686 1700 1713 1724 1724 1724 1721 1721 1721 1725 1725 1725 1718 0 0 0 0 0 0 0 0 0 0 0 0 0 0 0 0 1812 1812 1814 1814 1816 1817 1818 1818 1817 1815 1815 1815 1817 1818 1820 1820 1821 1822 1822 1825 1830 1833 1833 1834 1835 1837 1841 1845 1847 1847 1847 1848 1848 1850 1853 1858 1862 1863 1864 1865 1867 1867 1871 1873 1878 1881 1884 1889 1894 1895 1895 1898 1898 1901 1901 1901 1899 1876 0 0 0 0 0 0 0 0 0 0 0 0 0 0 0 0 0 0 1691 1691 1681 1644 1631 1611 1610 1610 1610 1611 1613 1613 1612 1611 1606 1602 1599 1597 1594 1591 1587 1586 1583 1579 1576 1573 1569 1565 1562 1559 1557 1554 1552 1549 1547 1544 1543 1539 1537 1535 1534 1532 1530 1527 1525 1522 1521 1520 1519 1518 1518 1517 1516 1515 1514 1512 1511 1510 1508 1506 1506 1504 1503 1502 1501 1500 1499 1499 1497 1496 1493 1492 1491 1489 1488 1487 1487 1485 1484 1483 1482 1482 1481 1480 1480 1478 1478 1478 1477 1477 1476 1475 1474 1474 1473 1473 1472 1471 1470 1470 1469 1468 1467 1466 1465 1465 1464 1464 1464 1463 1463 1463 1463 1463 1463 1463 1464 1464 1464 1463 1463 1462 1462 1462 1462 1462 1461 1461 1461 1461 1460 1460 1460 1459 1459 1459 1458 1457 1457 1457 1457 1457 1457 1457 1455 1453 1453 1453 1452 1452 1451 1450 1449 1448 1448 1448 1447 1447 1446 1446 1446 1446 1446 1446 1446 1446 1446 1445 1445 1445 1445 1444 1444 1443 1442 1442 1441 1440 1439 1439 1438 1438 1437 1437 1437 1437 1437 1436 1436 1435 1435 1434 1433 1433 1432 1432 1431 1430 1429 1427 1426 1424 1423 1421 1421 1420 1419 1417 1416 1415 1414 1413 1413 1412 1412 1411 1409 1408 1407 1405 1405 1404 1403 1401 1400 1400 1398 1397 1395 1395 1394 1393 1393 1393 1393 1393 1395 1395 1397 1398 1400 1402 1404 1405 1405 1405 1406 1406 1406 1406 1405 1404 1402 1401 1399 1398 1397 1396 1394 1393 1392 1390 1389 1386 1383 1382 1381 1380 1380 1380 1379 1377 1373 1372 1369 1369 1367 1365 1362 1360 1355 1353 1351 1351 1350 1349 1344 1341 1338 1337 1336 1335 1333 1332 1328 1326 1323 1320 1317 1312 1307 1304 1300 1296 1294 1291 1288 1282 1273 1264 1258 1250 1241 1236 1230 1224 1215 1209 1203 1194 1188 1184 1178 1171 1163 1149 1134 1119 1098 1082 1071 1063 1056 1047 1041 1036 1026 1023 1015 1013 1011 1011 1010 1010
770 770 774 779 788 795 795 795 792 792 792 792 793 797 803 809 813 815 815 815 813 813 813 821 824 827 829 840 856 856 856 855 852 852 852 852 852 848 845 827 820 799 751 747 740 740 0 0 0 0 0 0 915 885 874 868 867 866 866 866 870 871 871 872 872 873 876 880 883 883 883 875 874 866 840 812 785 762 752 0 0 0 0 0 0 0 0 0 0 0 0 0 1256 1279 1318 1359 1373 1389 1394 1405 1410 1414 1417 1420 1423 1424 1426 1426 1426 1425 1420 1401 0 0 0 0 0 0 0 0 0 0 0 0 0 0 1484 1484 1484 1471 0 0 0 0 0 0 0 0 0 0 0 1567 1578 1585 1586 1586 1586 1584 1582 1581 1578 1578 1577 1573 1572 1569 1566 1566 1563 1561 1561 1561 1563 1568 1574 1584 1591 1593 1598 1606 1608 1611 1613 1619 1629 1636 1637 1637 1637 1637 1637 1642 1642 1642 1631 1606 1587 1587 1587 1639 1665 1678 1698 1712 1718 1718 1718 1712 1712 1712 1714 1714 1714 0 0 0 0 0 0 0 0 0 0 0 0 0 0 0 0 1801 1812 1812 1814 1814 1816 1818 1821 1823 1823 1823 1822 1822 1822 1823 1823 1824 1824 1824 1825 1829 1831 1833 1833 1835 1835 1837 1841 1845 1847 1847 1847 1848 1848 1849 1852 1855 1859 1860 1862 1865 1866 1867 1870 1873 1874 1877 1882 1883 1885 1888 1889 1895 1898 1901 1901 1901 1899 1876 0 0 0 0 0 0 0 0 0 0 0 0 0 0 0 0 0 0 0 0 0 0 1631 1611 1611 1611 1613 1613 1613 1610 1608 1606 1602 1599 1596 1594 1592 1589 1587 1584 1581 1577 1574 1572 1567 1564 1560 1559 1556 1554 1550 1548 1546 1544 1541 1538 1536 1534 1534 1531 1529 1527 1523 1521 1520 1519 1518 1516 1515 1515 1515 1514 1512 1511 1510 1509 1507 1505 1504 1503 1502 1501 1501 1500 1499 1497 1496 1495 1493 1492 1490 1489 1488 1487 1486 1485 1484 1483 1482 1481 1481 1480 1479 1478 1478 1477 1477 1477 1476 1475 1474 1474 1473 1473 1472 1471 1470 1469 1468 1468 1467 1465 1465 1465 1463 1463 1463 1463 1463 1463 1462 1462 1462 1462 1462 1462 1462 1462 1461 1461 1461 1461 1461 1461 1461 1461 1460 1460 1459 1459 1459 1458 1458 1458 1457 1456 1456 1456 1456 1455 1455 1455 1453 1452 1452 1452 1451 1451 1450 1450 1448 1448 1447 1447 1447 1446 1445 1445 1445 1445 1445 1445 1445 1445 1445 1445 1445 1444 1444 1444 1443 1442 1441 1441 1441 1440 1439 1438 1438 1438 1436 1436 1436 1436 1436 1435 1434 1434 1434 1433 1432 1432 1431 1430 1430 1428 1427 1426 1425 1423 1422 1421 1420 1420 1418 1417 1416 1415 1413 1413 1412 1412 1411 1410 1409 1407 1406 1405 1405 1403 1403 1401 1400 1399 1397 1396 1395 1394 1393 1392 1392 1392 1393 1393 1393 1395 1396 1397 1399 1402 1403 1404 1404 1404 1405 1405 1405 1405 1403 1402 1400 1399 1397 1396 1395 1393 1392 1390 1389 1388 1386 1383 1382 1380 1379 1378 1378 1378 1376 1375 1373 1370 1369 1367 1366 1363 1361 1357 1353 1351 1348 1347 1347 1346 1343 1338 1337 1333 1329 1328 1328 1326 1325 1322 1320 1317 1313 1309 1304 1301 1297 1294 1290 1288 1282 1274 1264 1258 1253 1247 1239 1232 1226 1219 1210 1205 1199 1193 1186 1181 1172 1165 1152 1140 1128 1117 1096 1081 1069 1063 1055 1045 1033 1018 1013 1009 1004 1001 1001 1000 1001 1001
762 762 766 773 779 786 786 786 786 786 786 788 790 792 795 800 803 803 803 802 802 802 807 816 820 822 828 830 842 842 842 842 837 837 837 843 845 845 845 830 820 800 783 747 730 730 730 0 0 0 0 902 902 883 864 857 857 857 862 866 866 867 867 867 869 872 876 880 881 881 881 875 872 860 836 810 783 753 0 0 0 0 0 0 0 0 0 0 0 0 0 1236 1256 1279 1320 1359 1373 1381 1393 1398 1403 1410 1413 1416 1418 1419 1419 1419 1419 1418 1399 0 0 0 0 0 0 0 0 0 0 0 0 0 0 1488 1488 1488 1484 1471 0 0 0 0 0 0 0 0 0 0 0 1556 1569 1577 1586 1586 1586 1584 1581 1580 1578 1578 1577 1573 1573 1572 1570 1566 1563 1561 1561 1560 1560 1561 1562 1569 1576 1579 1586 1592 1595 1598 1602 1607 1619 1628 1630 1631 1631 1632 1633 1635 1635 1635 1623 1587 1587 1587 1623 1656 1667 1678 1688 1706 1710 1710 1710 1705 1697 1692 1691 1689 0 0 0 0 0 0 0 0 0 0 0 0 0 0 0 0 0 1801 1811 1812 1812 1814 1816 1818 1821 1823 1824 1824 1824 1824 1824 1824 1824 1824 1827 1828 1829 1831 1833 1835 1835 1835 1836 1837 1841 1845 1847 1848 1849 1849 1849 1850 1852 1853 1854 1856 1859 1863 1865 1866 1869 1872 1873 1876 1879 1880 1880 1881 1881 1884 1891 1897 1899 1899 1899 1876 0 0 0 0 0 0 0 0 0 0 0 0 0 0 0 0 0 0 0 0 0 0 0 1654 1632 1614 1614 1613 1608 1605 1605 1602 1597 1595 1593 1591 1589 1587 1585 1581 1579 1576 1573 1569 1566 1562 1559 1557 1555 1551 1548 1546 1544 1542 1540 1537 1535 1533 1531 1530 1527 1525 1522 1520 1519 1518 1517 1516 1515 1514 1513 1512 1510 1509 1508 1508 1507 1505 1504 1502 1501 1500 1499 1499 1497 1496 1495 1494 1493 1491 1490 1489 1488 1487 1486 1485 1484 1483 1482 1481 1481 1480 1479 1478 1478 1477 1477 1477 1476 1475 1474 1474 1473 1473 1472 1471 1470 1469 1468 1467 1467 1465 1464 1463 1463 1463 1463 1463 1462 1462 1462 1462 1461 1461 1461 1461 1461 1461 1460 1460 1460 1460 1460 1460 1460 1460 1460 1459 1459 1459 1458 1457 1457 1456 1456 1455 1454 1454 1454 1454 1454 1453 1453 1452 1451 1450 1450 1450 1449 1449 1448 1447 1446 1446 1445 1445 1445 1445 1445 1445 1445 1445 1445 1445 1445 1444 1444 1444 1443 1443 1442 1441 1441 1441 1440 1440 1439 1438 1438 1437 1436 1436 1436 1435 1434 1434 1433 1432 1432 1431 1431 1430 1430 1429 1428 1427 1426 1425 1424 1423 1421 1420 1419 1418 1418 1416 1415 1414 1413 1412 1412 1411 1411 1410 1409 1407 1406 1405 1405 1403 1402 1401 1400 1398 1397 1396 1394 1393 1392 1391 1391 1391 1391 1391 1392 1394 1395 1395 1397 1399 1402 1402 1402 1402 1402 1402 1402 1401 1400 1399 1399 1398 1396 1395 1392 1390 1389 1388 1386 1385 1383 1382 1379 1379 1377 1377 1377 1375 1375 1373 1370 1367 1365 1363 1362 1360 1357 1354 1351 1349 1346 1345 1344 1342 1339 1337 1335 1331 1328 1325 1324 1324 1323 1320 1317 1312 1308 1302 1299 1297 1294 1291 1288 1282 1275 1267 1258 1252 1247 1243 1238 1231 1224 1215 1207 1201 1196 1189 1184 1175 1164 1154 1144 1133 1122 1113 1094 1081 1069 1062 1054 1042 1030 1009 1006 999 999 999 1000 1000 1000 1000
754 754 756 763 769 775 779 781 782 784 784 784 784 784 787 787 792 792 792 792 792 795 804 810 813 817 825 829 836 836 836 833 829 829 829 836 842 842 842 837 820 811 797 762 733 733 733 740 0 0 0 875 875 875 854 852 852 852 857 861 862 864 865 866 868 871 876 879 881 881 881 874 862 860 831 806 772 0 0 0 0 625 625 651 0 0 0 0 0 0 1227 1237 1256 1280 1323 1359 1373 1381 1389 1393 1397 1399 1404 1409 1411 1414 1415 1415 1414 1409 0 0 0 0 0 0 0 0 0 0 0 0 0 0 0 1488 1488 1488 1484 0 0 0 0 0 0 0 0 0 0 0 0 1544 1559 1570 1577 1584 1584 1584 1580 1579 1578 1576 1574 1573 1573 1572 1571 1569 1564 1561 1561 1560 1558 1558 1558 1562 1568 1571 1573 1578 1581 1585 1590 1598 1606 1611 1614 1619 1624 1630 1632 1632 1632 1626 1602 1602 1602 1605 1649 1663 1669 1678 1688 1698 1706 1706 1706 1702 1692 1679 1672 0 0 0 0 0 0 0 0 0 0 0 0 0 0 0 0 0 1779 1795 1805 1809 1810 1811 1814 1817 1821 1823 1824 1824 1824 1824 1824 1824 1825 1825 1827 1830 1831 1833 1834 1836 1836 1838 1839 1841 1842 1845 1847 1849 1849 1849 1850 1850 1852 1853 1854 1856 1859 1861 1862 1865 1866 1868 1870 1872 1874 1875 1875 1876 1876 1881 1884 1886 1886 1886 1883 0 0 0 0 0 0 0 0 0 0 0 0 0 0 0 0 1873 1873 1873 1865 1842 0 0 0 0 1632 1614 1613 1611 1608 1604 1601 1597 1594 1592 1589 1587 1586 1585 1583 1580 1576 1573 1569 1566 1562 1559 1558 1555 1552 1549 1546 1544 1543 1541 1538 1536 1534 1531 1530 1528 1525 1523 1520 1519 1518 1517 1515 1514 1513 1512 1512 1510 1509 1507 1506 1506 1504 1503 1502 1501 1500 1499 1498 1498 1496 1495 1495 1493 1492 1491 1490 1489 1488 1486 1485 1485 1483 1482 1482 1481 1480 1480 1479 1478 1478 1477 1477 1476 1476 1475 1474 1474 1473 1473 1472 1471 1470 1469 1468 1467 1467 1465 1464 1463 1462 1462 1462 1461 1461 1461 1461 1461 1460 1460 1460 1460 1460 1460 1459 1459 1459 1459 1459 1459 1459 1458 1458 1458 1458 1458 1457 1457 1456 1455 1455 1454 1453 1453 1453 1452 1452 1452 1452 1450 1450 1449 1449 1449 1448 1447 1447 1446 1445 1445 1445 1445 1444 1444 1444 1444 1444 1444 1444 1444 1444 1444 1444 1443 1443 1442 1441 1441 1441 1440 1439 1438 1438 1437 1437 1437 1435 1435 1435 1434 1434 1433 1432 1431 1431 1430 1429 1429 1428 1427 1427 1426 1425 1424 1422 1421 1421 1420 1419 1418 1417 1416 1415 1413 1413 1412 1411 1411 1409 1408 1407 1406 1406 1404 1404 1402 1401 1400 1399 1397 1396 1394 1393 1392 1391 1390 1389 1389 1389 1390 1391 1392 1393 1394 1395 1397 1399 1399 1399 1399 1398 1398 1397 1397 1397 1397 1397 1396 1394 1391 1390 1389 1388 1386 1384 1382 1381 1380 1379 1377 1376 1375 1374 1373 1372 1371 1368 1364 1361 1358 1357 1357 1355 1351 1347 1344 1342 1340 1339 1337 1336 1334 1332 1329 1325 1322 1321 1321 1321 1317 1313 1306 1300 1297 1295 1294 1290 1285 1282 1275 1270 1262 1254 1246 1240 1237 1234 1228 1220 1213 1205 1196 1187 1177 1172 1161 1154 1148 1142 1129 1115 1104 1091 1081 1071 1062 1054 1042 1030 1009 1006 998 998 998 998 998 994 994
746 746 748 754 762 768 775 778 779 779 779 779 779 779 779 779 779 781 782 782 782 788 796 803 806 812 821 827 832 832 832 828 828 828 829 834 841 841 841 837 827 811 797 769 736 736 736 0 0 0 0 857 857 857 849 849 849 850 853 857 859 862 863 866 868 871 876 879 880 880 880 868 844 842 0 0 0 0 0 0 624 624 624 651 673 0 0 0 0 0 1233 1237 1258 1290 1329 1359 1371 1381 1384 1385 1386 1388 1394 1401 1407 1410 1412 1412 1412 1403 0 0 0 0 0 0 0 0 0 0 0 0 0 0 1463 1488 1488 1488 0 0 0 0 0 0 0 0 0 0 0 0 0 1532 1551 1564 1572 1579 1579 1579 1579 1576 1576 1576 1573 1573 1573 1572 1572 1572 1568 1565 1564 1562 1558 1558 1558 1562 1562 1564 1564 1565 1571 1575 1579 1584 1588 1593 1597 1604 1612 1622 1626 1626 1626 1608 1593 1593 1593 1641 1669 1669 1672 1679 1687 1697 1701 1701 1701 1698 1687 1674 0 0 0 0 0 0 0 0 0 0 0 0 0 0 0 0 0 1770 1779 1792 1796 1805 1807 1808 1811 1813 1814 1816 1818 1822 1824 1824 1824 1824 1825 1825 1828 1831 1833 1835 1836 1838 1839 1840 1841 1842 1844 1845 1848 1849 1851 1852 1852 1853 1853 1853 1854 1856 1859 1861 1862 1865 1866 1868 1869 1869 1871 1871 1871 1874 1876 1878 1878 1878 1878 1876 1871 0 0 0 0 0 0 0 0 0 0 0 0 0 0 0 1884 1893 1893 1893 1884 1864 1837 0 0 0 1632 1614 1613 1607 1606 1603 1599 1595 1592 1590 1587 1584 1583 1582 1579 1577 1574 1569 1566 1562 1559 1555 1553 1553 1551 1547 1545 1543 1541 1540 1537 1534 1533 1530 1527 1525 1523 1522 1520 1518 1517 1516 1514 1513 1512 1511 1510 1509 1508 1506 1504 1503 1502 1501 1501 1500 1499 1498 1497 1496 1495 1494 1493 1492 1492 1490 1490 1488 1486 1485 1485 1484 1483 1482 1481 1480 1480 1480 1479 1478 1477 1477 1477 1476 1476 1475 1474 1474 1473 1473 1472 1471 1470 1469 1467 1466 1466 1465 1464 1463 1461 1461 1461 1460 1460 1460 1460 1459 1459 1459 1459 1459 1459 1459 1459 1459 1458 1458 1458 1458 1457 1457 1457 1457 1456 1456 1456 1455 1454 1454 1454 1452 1452 1452 1452 1451 1451 1451 1450 1449 1449 1448 1448 1447 1447 1447 1446 1445 1445 1444 1444 1444 1444 1443 1443 1443 1443 1443 1443 1444 1443 1443 1443 1443 1442 1442 1441 1441 1440 1440 1439 1438 1437 1436 1436 1435 1435 1434 1434 1434 1433 1433 1432 1430 1429 1428 1428 1428 1427 1427 1426 1425 1424 1424 1422 1421 1420 1419 1418 1417 1416 1415 1414 1413 1411 1410 1410 1409 1409 1408 1407 1406 1404 1403 1402 1401 1401 1399 1398 1397 1396 1394 1393 1392 1390 1389 1389 1389 1389 1389 1390 1391 1392 1393 1394 1395 1396 1397 1397 1397 1395 1395 1395 1395 1395 1395 1394 1394 1392 1389 1389 1388 1386 1384 1382 1380 1379 1378 1377 1376 1375 1374 1372 1371 1370 1367 1365 1361 1356 1354 1354 1354 1351 1348 1344 1341 1340 1339 1336 1334 1332 1330 1328 1326 1322 1319 1318 1316 1315 1312 1308 1300 1296 1295 1293 1290 1285 1282 1275 1271 1267 1260 1250 1239 1233 1232 1230 1223 1215 1207 1199 1186 1177 1169 1168 1158 1151 1147 1138 1123 1106 1094 1088 1081 1074 1062 1052 1041 1030 1009 1006 998 994 991 991 991 987 987
737 737 741 748 754 765 768 768 770 770 771 771 771 771 771 772 775 775 776 777 779 782 788 792 797 804 814 823 825 825 825 825 825 826 829 833 840 840 840 837 829 819 797 788 738 721 0 0 0 0 0 833 835 836 840 844 844 847 848 850 850 851 859 861 867 869 872 877 877 877 869 852 0 0 0 0 0 0 0 0 0 624 624 653 0 0 0 0 0 0 1245 1267 1270 1305 1338 1359 1371 1378 1379 1379 1380 1383 1386 1395 1401 1407 1407 1407 1404 1395 0 0 0 0 0 0 0 0 0 0 0 0 0 0 1462 1477 1477 1477 0 0 0 0 0 0 0 0 0 0 0 0 0 1523 1544 1556 1565 1569 1570 1572 1572 1573 1573 1573 1573 1572 1572 1572 1572 1572 1569 1567 1566 1565 1562 1562 1562 1562 1562 1564 1564 1565 1565 1565 1568 1570 1574 1579 1586 1591 1599 1610 1610 1610 1610 1586 1586 1586 1601 1657 1669 1669 1672 1679 1687 1697 1697 1697 1697 1690 1677 0 0 0 0 0 0 0 0 0 0 0 0 0 0 0 0 0 0 1770 1779 1792 1793 1794 1800 1802 1803 1805 1808 1811 1816 1819 1821 1822 1823 1823 1824 1825 1828 1832 1833 1835 1836 1838 1839 1840 1841 1843 1844 1845 1848 1850 1852 1854 1855 1856 1856 1856 1856 1858 1859 1861 1862 1865 1866 1868 1868 1868 1868 1868 1868 1868 1868 1868 1867 1865 1865 1864 1858 0 0 0 0 0 0 0 0 0 0 0 0 0 0 0 1884 1893 1893 1893 1884 1864 1837 0 0 0 1628 1606 1604 1600 1598 1597 1594 1591 1589 1587 1583 1581 1580 1578 1577 1574 1571 1566 1563 1560 1556 1553 1551 1550 1549 1546 1545 1542 1541 1538 1536 1534 1531 1529 1527 1525 1522 1521 1519 1518 1516 1515 1513 1512 1510 1510 1509 1507 1506 1505 1503 1501 1500 1499 1498 1498 1497 1497 1495 1494 1494 1492 1492 1491 1491 1490 1489 1488 1486 1485 1484 1484 1483 1482 1481 1480 1480 1479 1478 1477 1477 1477 1477 1476 1475 1475 1474 1474 1473 1473 1472 1471 1470 1469 1467 1466 1466 1465 1464 1463 1461 1460 1460 1460 1459 1459 1459 1459 1458 1457 1457 1457 1457 1457 1457 1457 1457 1457 1457 1456 1456 1456 1456 1455 1455 1455 1455 1454 1454 1453 1452 1450 1450 1450 1450 1450 1449 1449 1448 1448 1447 1447 1447 1447 1446 1446 1445 1445 1444 1444 1444 1444 1443 1443 1443 1442 1442 1442 1443 1443 1443 1443 1443 1443 1442 1441 1441 1440 1439 1438 1438 1438 1437 1436 1435 1435 1435 1434 1434 1432 1432 1432 1431 1429 1427 1427 1426 1426 1426 1426 1425 1425 1423 1422 1422 1420 1420 1419 1418 1417 1416 1415 1413 1412 1411 1410 1409 1409 1408 1407 1406 1405 1403 1402 1401 1400 1400 1399 1397 1397 1395 1394 1392 1391 1390 1388 1388 1388 1388 1388 1389 1389 1391 1391 1393 1394 1395 1395 1395 1394 1393 1393 1392 1392 1392 1392 1392 1392 1390 1389 1387 1387 1385 1383 1381 1379 1377 1376 1375 1373 1372 1372 1371 1369 1366 1363 1360 1357 1353 1353 1351 1350 1349 1346 1343 1340 1338 1336 1333 1331 1328 1325 1324 1322 1320 1318 1315 1312 1311 1310 1306 1300 1295 1291 1288 1283 1278 1274 1269 1266 1261 1255 1241 1236 1227 1225 1218 1213 1207 1199 1190 1179 1175 1169 1165 1157 1151 1141 1128 1114 1099 1090 1086 1081 1074 1065 1052 1040 1028 1013 1006 997 988 986 985 985 975 975
726 726 733 741 748 756 758 758 760 760 765 765 765 763 763 763 767 771 771 771 773 777 781 785 790 796 805 814 816 821 822 823 825 826 829 833 838 838 838 835 829 819 796 788 0 0 0 0 0 0 0 824 827 831 831 833 837 838 838 838 839 839 846 857 858 862 865 865 865 865 856 0 0 0 0 0 0 0 0 0 0 0 0 0 0 0 0 0 0 0 1249 1283 1285 1318 1338 1358 1366 1371 1371 1372 1373 1375 1381 1388 1395 1395 1395 1390 1384 1366 0 0 0 0 0 0 0 0 0 0 0 0 0 1435 1453 1463 1463 1463 0 0 0 0 0 0 0 0 0 0 0 0 0 1513 1533 1548 1559 1564 1564 1566 1567 1569 1571 1571 1571 1571 1571 1571 1571 1571 1570 1570 1569 1569 1569 1569 1567 1564 1564 1564 1564 1563 1563 1563 1563 1563 1566 1570 1577 1584 1593 1600 1600 1600 1583 1567 1567 1567 1613 1657 1669 1669 1672 1679 1686 1695 1695 1695 1695 1684 0 0 0 0 0 0 0 0 0 0 0 0 0 0 0 0 0 0 0 1769 1775 1779 1790 1791 1795 1797 1799 1800 1804 1808 1815 1817 1819 1820 1821 1823 1825 1828 1830 1832 1833 1835 1836 1838 1839 1840 1841 1843 1844 1846 1848 1851 1853 1856 1856 1857 1857 1857 1858 1861 1863 1865 1867 1869 1869 1869 1869 1869 1868 1868 1868 1868 1868 1868 1860 1854 1852 1852 0 0 0 0 0 0 0 0 0 0 0 0 0 0 0 0 1884 1893 1893 1893 1884 1864 1837 0 0 0 1615 1602 1593 1593 1591 1591 1589 1587 1587 1584 1581 1579 1577 1576 1575 1573 1568 1564 1560 1557 1554 1551 1548 1547 1547 1546 1543 1541 1539 1537 1535 1533 1530 1528 1526 1524 1522 1521 1518 1516 1515 1514 1512 1511 1509 1508 1506 1505 1505 1503 1501 1500 1499 1497 1496 1495 1495 1495 1494 1493 1493 1492 1491 1489 1489 1488 1488 1488 1486 1484 1484 1483 1482 1482 1481 1480 1480 1478 1478 1477 1476 1476 1476 1476 1475 1475 1474 1474 1473 1473 1472 1471 1470 1468 1467 1466 1465 1464 1464 1462 1461 1460 1460 1459 1458 1458 1458 1458 1457 1457 1456 1456 1456 1456 1456 1456 1456 1456 1456 1456 1455 1455 1455 1455 1454 1454 1454 1453 1452 1452 1450 1449 1448 1448 1448 1448 1447 1447 1447 1446 1446 1446 1446 1445 1445 1445 1444 1444 1444 1443 1443 1443 1443 1443 1442 1442 1442 1442 1442 1442 1442 1442 1442 1441 1441 1440 1440 1440 1439 1438 1437 1437 1436 1435 1435 1433 1433 1433 1432 1431 1431 1430 1428 1427 1426 1425 1424 1424 1424 1424 1424 1423 1422 1422 1420 1420 1419 1418 1417 1416 1415 1414 1413 1412 1411 1409 1409 1408 1408 1407 1405 1404 1402 1401 1400 1400 1398 1397 1396 1395 1394 1392 1392 1390 1389 1387 1386 1386 1386 1387 1388 1389 1389 1390 1391 1392 1392 1392 1392 1391 1391 1390 1390 1390 1390 1390 1390 1390 1388 1387 1386 1385 1382 1380 1379 1377 1376 1374 1371 1371 1371 1369 1369 1366 1363 1361 1358 1355 1351 1349 1348 1347 1347 1344 1339 1338 1335 1333 1331 1329 1324 1320 1318 1318 1317 1315 1312 1308 1307 1306 1305 1299 1292 1286 1281 1277 1274 1268 1263 1260 1255 1249 1238 1228 1222 1217 1208 1199 1193 1187 1181 1176 1172 1167 1161 1156 1149 1134 1114 1098 1087 1086 1086 1082 1077 1065 1052 1039 1028 1013 1006 997 986 983 983 980 971 971
721 721 725 731 739 747 749 749 751 754 757 757 757 757 757 757 760 764 764 767 767 770 777 782 787 792 797 799 807 809 817 820 825 826 829 833 833 833 832 832 829 819 795 0 0 0 0 0 0 0 0 811 819 821 824 829 832 836 837 837 837 838 838 842 849 855 859 859 859 856 843 0 0 0 0 0 0 0 0 592 592 601 0 0 0 0 0 0 0 0 1249 1283 1308 1319 1338 1352 1360 1366 1366 1367 1367 1370 1375 1380 1380 1380 1379 1371 1360 1344 0 0 0 0 0 0 0 0 0 0 0 0 1417 1434 1441 1444 1444 1444 0 0 0 0 0 0 0 0 0 0 0 0 0 1510 1525 1539 1550 1556 1557 1558 1561 1565 1565 1565 1568 1569 1569 1570 1570 1570 1570 1570 1570 1570 1570 1570 1570 1568 1567 1567 1566 1565 1563 1561 1559 1559 1559 1563 1567 1573 1587 1587 1587 1578 1547 1547 1547 1567 1613 1657 1663 1664 1667 1674 1680 1687 1689 1689 1689 1664 0 0 0 0 0 0 0 0 0 0 0 0 0 0 0 0 0 0 1760 1767 1769 1769 1769 1775 1778 1785 1792 1797 1801 1807 1812 1815 1817 1819 1821 1823 1825 1828 1832 1832 1833 1834 1836 1837 1839 1839 1841 1843 1844 1846 1848 1851 1853 1856 1856 1857 1857 1857 1859 1863 1866 1868 1871 1872 1873 1873 1873 1869 1868 1868 1868 1868 1868 1868 1860 1854 1847 1822 0 0 0 0 0 0 0 0 0 0 0 0 0 0 0 1864 1879 1882 1882 1882 1870 1851 1835 0 0 0 1613 1601 1593 1589 1588 1588 1585 1585 1585 1584 1580 1578 1577 1576 1574 1571 1566 1562 1557 1554 1551 1548 1547 1547 1545 1543 1542 1540 1537 1536 1534 1532 1530 1528 1526 1523 1521 1519 1518 1516 1514 1512 1511 1511 1508 1508 1506 1505 1503 1502 1500 1500 1498 1497 1495 1494 1494 1493 1492 1492 1491 1490 1490 1488 1488 1488 1488 1486 1485 1484 1483 1482 1481 1481 1481 1480 1479 1478 1477 1476 1476 1476 1476 1475 1475 1474 1473 1473 1473 1472 1471 1470 1469 1468 1467 1466 1465 1464 1463 1462 1461 1460 1460 1458 1458 1458 1458 1457 1457 1455 1455 1455 1455 1456 1456 1455 1455 1455 1455 1455 1454 1454 1454 1453 1453 1452 1452 1452 1450 1450 1448 1447 1447 1447 1446 1446 1446 1446 1446 1445 1445 1445 1445 1444 1444 1444 1444 1443 1443 1443 1442 1442 1442 1442 1442 1442 1442 1442 1442 1442 1442 1441 1441 1441 1441 1440 1440 1439 1438 1437 1437 1436 1435 1435 1433 1433 1432 1432 1431 1430 1429 1428 1426 1425 1424 1423 1423 1423 1422 1422 1422 1422 1421 1420 1420 1418 1418 1418 1416 1415 1414 1413 1412 1410 1409 1408 1407 1407 1406 1405 1404 1403 1402 1401 1400 1399 1398 1397 1395 1394 1393 1392 1391 1389 1387 1386 1384 1384 1384 1384 1386 1386 1387 1388 1388 1389 1389 1389 1389 1389 1389 1388 1387 1387 1387 1387 1387 1386 1386 1386 1384 1383 1380 1379 1377 1376 1374 1370 1369 1369 1369 1367 1366 1363 1360 1358 1356 1352 1349 1347 1345 1345 1343 1340 1337 1334 1333 1331 1328 1325 1319 1315 1314 1313 1312 1309 1306 1301 1301 1300 1300 1297 1288 1280 1276 1272 1268 1264 1259 1256 1252 1245 1234 1223 1216 1208 1196 1186 1179 1177 1176 1174 1171 1167 1161 1155 1140 1124 1102 1087 1085 1085 1084 1082 1077 1065 1048 1031 1023 1013 1005 993 986 983 980 977 968 968
719 720 720 720 726 739 743 744 745 748 749 749 750 750 750 751 754 757 757 758 761 766 771 780 787 792 795 799 801 804 811 817 820 824 828 828 828 826 826 826 826 814 0 0 0 698 687 687 0 0 0 0 811 816 821 826 830 835 836 837 837 838 838 838 843 848 851 851 851 848 831 0 0 0 0 0 0 607 592 592 592 603 637 0 0 0 0 0 0 0 1249 1283 1308 1319 1337 1350 1357 1361 1363 1364 1364 1364 1367 1373 1373 1373 1371 1361 1341 0 0 0 0 0 0 0 0 0 0 0 0 0 1417 1426 1437 1442 1442 1442 0 0 0 0 0 0 0 0 0 0 0 0 0 1504 1518 1531 1541 1550 1550 1551 1555 1557 1559 1561 1563 1566 1566 1568 1568 1569 1569 1569 1570 1570 1571 1572 1572 1572 1571 1571 1567 1566 1563 1561 1559 1559 1558 1557 1558 1563 1575 1575 1575 1550 1506 1506 1506 1567 1615 1641 1652 1655 1662 1669 1673 1679 1679 1679 1660 0 0 0 0 0 0 0 0 0 0 0 0 0 0 0 0 0 0 0 1760 1761 1761 1763 1768 1772 1778 1785 1787 1794 1798 1803 1809 1811 1813 1815 1818 1823 1825 1828 1832 1832 1833 1833 1834 1836 1837 1838 1841 1843 1844 1846 1848 1851 1853 1856 1856 1856 1857 1857 1860 1863 1866 1868 1871 1872 1873 1873 1873 1874 1874 1874 1875 1875 1874 1868 1860 1854 1847 1818 0 0 0 0 0 0 0 0 0 0 0 0 0 0 0 1865 1877 1877 1877 1877 1864 1849 1831 0 0 0 1609 1598 1591 1589 1588 1588 1583 1582 1582 1581 1579 1577 1576 1574 1572 1569 1565 1559 1556 1552 1549 1546 1545 1544 1544 1542 1540 1539 1536 1534 1533 1531 1528 1526 1524 1522 1519 1518 1516 1514 1513 1512 1511 1509 1508 1507 1505 1503 1503 1501 1499 1497 1496 1496 1495 1494 1492 1492 1490 1490 1489 1489 1488 1487 1487 1486 1486 1485 1483 1483 1483 1482 1481 1481 1481 1480 1479 1478 1477 1476 1476 1475 1475 1474 1474 1473 1472 1472 1472 1472 1471 1470 1469 1468 1467 1466 1464 1464 1463 1462 1461 1460 1459 1458 1458 1458 1457 1457 1455 1454 1454 1454 1454 1454 1454 1454 1454 1454 1453 1453 1453 1453 1453 1452 1451 1451 1451 1450 1449 1447 1447 1446 1446 1446 1446 1446 1446 1446 1445 1445 1444 1444 1444 1444 1444 1444 1443 1443 1442 1442 1442 1441 1441 1441 1441 1440 1441 1441 1441 1441 1441 1441 1440 1440 1440 1439 1438 1438 1438 1436 1436 1435 1435 1433 1433 1432 1431 1430 1429 1428 1427 1425 1425 1424 1423 1422 1422 1421 1421 1421 1420 1420 1420 1420 1418 1418 1417 1416 1415 1414 1413 1412 1410 1408 1407 1407 1406 1405 1405 1404 1403 1403 1402 1400 1400 1399 1398 1396 1395 1394 1393 1391 1389 1387 1385 1383 1383 1383 1383 1383 1384 1385 1385 1385 1385 1386 1388 1388 1388 1387 1387 1386 1385 1385 1385 1385 1385 1385 1384 1384 1383 1381 1379 1377 1376 1373 1371 1368 1368 1367 1365 1365 1363 1360 1358 1356 1355 1352 1348 1345 1343 1341 1339 1337 1334 1332 1330 1327 1326 1321 1314 1311 1309 1307 1306 1303 1298 1295 1294 1294 1293 1290 1282 1276 1271 1267 1263 1258 1255 1253 1247 1240 1231 1221 1213 1201 1188 1179 1171 1171 1170 1169 1165 1161 1155 1144 1131 1110 1097 1087 1085 1083 1082 1082 1077 1063 1045 1029 1020 1010 1000 992 985 982 978 975 968 968
718 718 718 720 721 729 736 737 738 738 738 739 741 741 743 744 746 748 748 750 753 761 769 777 785 791 794 798 801 804 806 809 815 819 824 824 824 823 821 820 816 802 0 0 727 691 673 673 673 0 0 0 0 804 813 823 828 832 835 836 836 836 836 836 839 841 841 841 839 831 819 0 0 0 0 0 610 595 595 595 598 619 645 0 0 0 0 0 0 0 1247 1283 1308 1319 1327 1338 1349 1353 1354 1354 1355 1356 1359 1362 1365 1365 1365 1354 0 0 0 0 0 0 0 0 0 0 0 0 0 1408 1417 1423 1423 1425 1425 1423 0 0 0 0 0 0 0 0 0 0 0 0 0 1503 1514 1523 1531 1537 1540 1542 1543 1544 1550 1555 1559 1561 1565 1566 1566 1569 1569 1569 1570 1570 1571 1572 1572 1572 1571 1571 1567 1567 1566 1562 1559 1559 1557 1557 1557 1557 1556 1552 1551 1518 1506 1506 1506 1573 1615 1632 1644 1653 1658 1662 1667 1667 1667 1652 0 0 0 0 0 0 0 0 0 0 0 0 0 0 0 0 0 0 0 1737 1754 1757 1759 1761 1767 1772 1778 1782 1787 1791 1793 1797 1804 1807 1808 1810 1815 1817 1822 1828 1832 1832 1832 1832 1833 1835 1836 1838 1841 1843 1844 1846 1847 1849 1850 1853 1854 1855 1855 1857 1860 1863 1866 1868 1871 1872 1873 1873 1873 1874 1875 1879 1885 1889 1889 1889 1877 1866 1847 0 0 0 0 0 0 0 0 0 0 0 0 0 0 0 1857 1867 1876 1876 1876 1876 1863 1846 1818 0 0 1619 1606 1598 1591 1590 1587 1587 1583 1579 1578 1578 1577 1575 1574 1572 1569 1566 1562 1558 1554 1550 1547 1545 1544 1543 1542 1540 1539 1536 1535 1533 1531 1528 1526 1524 1522 1520 1518 1515 1514 1513 1512 1510 1510 1509 1507 1506 1505 1503 1502 1500 1498 1496 1494 1493 1493 1492 1490 1490 1489 1488 1488 1487 1487 1486 1485 1484 1483 1483 1483 1483 1482 1482 1481 1481 1481 1480 1479 1478 1477 1476 1475 1475 1475 1474 1474 1473 1472 1471 1471 1471 1471 1470 1468 1467 1467 1465 1464 1464 1463 1461 1460 1460 1458 1457 1457 1457 1456 1456 1455 1453 1453 1453 1453 1453 1453 1453 1453 1453 1452 1452 1452 1451 1451 1451 1450 1449 1449 1448 1448 1447 1446 1445 1445 1445 1445 1446 1446 1445 1445 1444 1444 1444 1443 1443 1443 1443 1442 1442 1441 1441 1441 1440 1440 1440 1440 1440 1440 1440 1440 1440 1440 1440 1440 1440 1439 1439 1437 1437 1437 1436 1435 1435 1434 1433 1432 1431 1430 1430 1429 1427 1426 1425 1424 1423 1422 1421 1421 1421 1420 1420 1420 1419 1418 1418 1418 1416 1416 1414 1414 1413 1412 1411 1408 1408 1407 1407 1406 1405 1404 1403 1403 1402 1401 1400 1400 1398 1396 1395 1394 1393 1392 1389 1388 1387 1385 1383 1383 1381 1381 1381 1381 1383 1383 1384 1384 1386 1386 1386 1386 1386 1385 1384 1383 1383 1382 1383 1383 1383 1383 1383 1382 1379 1377 1376 1373 1372 1369 1368 1367 1366 1364 1363 1361 1358 1355 1355 1353 1352 1348 1343 1341 1339 1336 1333 1331 1328 1322 1319 1316 1313 1310 1306 1303 1300 1300 1297 1292 1289 1286 1285 1284 1283 1275 1269 1266 1263 1260 1254 1249 1247 1242 1237 1228 1219 1207 1195 1182 1172 1166 1165 1163 1159 1155 1149 1140 1130 1119 1106 1097 1086 1085 1082 1082 1081 1071 1058 1039 1026 1018 1010 998 991 985 982 978 971 964 964
717 717 717 718 719 724 728 731 733 733 735 735 735 736 736 739 741 743 743 744 748 755 764 772 781 788 794 797 799 800 801 802 805 812 817 818 818 818 815 814 807 793 0 0 696 690 656 656 656 0 0 0 0 783 802 814 824 830 835 836 836 836 836 832 832 832 832 832 831 818 793 0 0 0 0 597 597 597 603 621 629 632 645 662 0 0 0 0 0 0 0 1278 1299 1312 1322 1324 1331 1334 1338 1338 1342 1345 1345 1347 1353 1353 1353 1333 0 0 0 0 0 0 0 0 0 0 0 0 0 1408 1416 1420 1420 1420 1417 1409 0 0 0 0 0 0 0 0 0 0 0 0 1460 1498 1509 1518 1522 1525 1527 1528 1530 1533 1537 1545 1551 1557 1559 1563 1564 1565 1565 1565 1566 1568 1571 1572 1572 1572 1571 1571 1567 1567 1567 1566 1566 1554 1554 1554 1551 1551 1543 1538 1516 1483 1483 1483 1506 1585 1615 1628 1640 1647 1654 1654 1654 1649 1645 0 0 0 0 0 0 0 0 0 0 0 0 0 0 0 0 0 0 0 0 1737 1748 1750 1754 1759 1766 1771 1777 1780 1784 1787 1788 1790 1795 1796 1797 1800 1809 1813 1820 1826 1827 1829 1830 1830 1831 1833 1834 1836 1841 1843 1844 1844 1845 1845 1846 1849 1851 1853 1854 1857 1859 1863 1864 1866 1869 1871 1872 1873 1873 1873 1876 1880 1885 1890 1892 1892 1892 1879 1858 0 0 0 0 0 0 0 0 0 0 0 0 0 0 0 1860 1867 1872 1874 1874 1874 1863 1845 1812 0 0 1619 1603 1598 1590 1585 1585 1585 1582 1577 1576 1576 1574 1572 1570 1569 1566 1563 1559 1555 1552 1547 1545 1543 1542 1541 1540 1537 1535 1533 1531 1530 1528 1526 1523 1521 1519 1518 1515 1514 1512 1511 1511 1510 1509 1507 1506 1505 1504 1502 1500 1499 1497 1496 1494 1492 1491 1490 1489 1488 1487 1486 1485 1485 1484 1484 1482 1482 1481 1481 1481 1481 1481 1481 1480 1480 1480 1480 1479 1478 1476 1475 1475 1474 1474 1473 1472 1472 1472 1471 1471 1470 1470 1469 1468 1467 1466 1465 1464 1463 1462 1461 1460 1459 1458 1457 1456 1456 1456 1456 1455 1453 1453 1453 1453 1452 1452 1452 1452 1452 1452 1450 1450 1450 1450 1449 1449 1449 1448 1448 1447 1446 1446 1445 1445 1445 1445 1445 1445 1445 1444 1444 1444 1443 1443 1443 1442 1441 1441 1441 1441 1440 1440 1440 1440 1440 1440 1440 1439 1439 1439 1439 1439 1439 1439 1439 1439 1438 1437 1436 1436 1436 1435 1434 1433 1433 1432 1430 1429 1428 1427 1425 1424 1423 1423 1421 1421 1421 1420 1420 1419 1419 1418 1418 1418 1417 1416 1415 1414 1414 1412 1412 1411 1410 1408 1408 1407 1407 1405 1404 1403 1402 1401 1401 1400 1399 1397 1397 1395 1393 1392 1392 1390 1388 1388 1386 1384 1382 1381 1381 1381 1381 1381 1382 1383 1384 1384 1384 1385 1385 1385 1385 1384 1382 1381 1381 1381 1381 1381 1381 1381 1381 1379 1378 1377 1376 1373 1370 1368 1367 1366 1364 1362 1361 1358 1356 1355 1353 1352 1349 1344 1342 1341 1338 1335 1331 1328 1323 1319 1317 1314 1311 1308 1303 1299 1296 1295 1291 1287 1282 1278 1277 1274 1269 1265 1263 1260 1259 1256 1249 1243 1238 1237 1234 1226 1215 1203 1188 1173 1165 1161 1158 1153 1149 1143 1134 1125 1116 1110 1103 1095 1083 1082 1076 1073 1066 1056 1041 1026 1014 1009 1002 990 984 980 977 975 969 961 961
710 710 711 715 718 720 722 723 726 729 733 733 733 733 733 734 736 736 738 738 744 750 757 765 774 783 790 794 794 795 795 797 798 802 806 812 813 813 813 807 798 782 753 0 695 690 654 654 654 663 0 0 0 769 786 804 815 827 833 835 835 835 833 829 824 824 823 822 819 804 782 0 0 0 0 593 593 593 603 621 629 632 645 655 0 0 0 0 0 0 0 1276 1290 1300 1307 1310 1317 1322 1325 1330 1335 1336 1337 1339 1337 1336 1329 0 0 0 0 0 0 0 0 0 0 0 0 0 1405 1410 1416 1418 1418 1418 1414 1400 0 0 0 0 0 0 0 0 0 0 0 0 1460 1492 1504 1508 1512 1514 1514 1515 1518 1523 1529 1534 1539 1546 1552 1556 1558 1558 1558 1562 1565 1565 1569 1571 1571 1571 1570 1567 1567 1567 1566 1566 1566 1554 1554 1554 1550 1547 1537 1504 1474 0 0 0 0 1586 1615 1627 1633 1639 1642 1642 1642 1637 0 0 0 0 0 0 0 0 0 0 0 0 0 0 0 0 0 0 0 0 0 1732 1738 1738 1741 1748 1756 1763 1770 1775 1778 1779 1782 1784 1786 1789 1791 1793 1797 1806 1811 1818 1823 1825 1826 1826 1826 1828 1831 1836 1839 1842 1842 1842 1842 1842 1842 1846 1850 1852 1854 1857 1858 1860 1860 1860 1864 1868 1869 1869 1869 1872 1875 1880 1885 1890 1894 1894 1894 1879 1858 0 0 0 0 0 0 0 0 0 0 0 0 0 0 0 1863 1868 1872 1872 1872 1865 1845 1823 1796 0 0 1619 1603 1594 1590 1584 1581 1579 1578 1575 1571 1571 1570 1569 1567 1565 1562 1559 1555 1553 1549 1546 1544 1542 1540 1538 1536 1534 1532 1530 1528 1526 1524 1522 1520 1519 1517 1516 1513 1511 1510 1509 1509 1507 1507 1507 1505 1504 1503 1502 1500 1497 1496 1494 1492 1492 1490 1488 1486 1485 1485 1483 1483 1482 1482 1482 1480 1479 1479 1479 1479 1479 1479 1479 1479 1479 1479 1479 1478 1477 1475 1475 1473 1473 1472 1472 1472 1471 1470 1470 1469 1469 1469 1468 1467 1466 1465 1465 1464 1463 1462 1461 1460 1459 1458 1457 1456 1456 1455 1455 1454 1453 1453 1452 1452 1452 1452 1451 1451 1451 1450 1450 1450 1449 1448 1448 1448 1447 1447 1447 1445 1445 1445 1445 1445 1445 1444 1444 1444 1444 1443 1442 1442 1442 1442 1442 1441 1441 1441 1441 1440 1439 1439 1439 1439 1439 1439 1439 1439 1439 1439 1439 1439 1439 1439 1438 1438 1438 1437 1435 1435 1434 1434 1433 1432 1431 1431 1429 1428 1427 1425 1424 1423 1422 1421 1421 1420 1420 1420 1419 1419 1418 1418 1417 1416 1416 1415 1415 1413 1413 1410 1410 1408 1408 1406 1406 1405 1405 1404 1402 1401 1401 1400 1398 1397 1396 1396 1394 1393 1391 1390 1389 1388 1388 1387 1384 1383 1381 1381 1380 1380 1380 1380 1382 1382 1383 1383 1384 1384 1384 1383 1382 1382 1381 1380 1380 1380 1380 1380 1380 1380 1379 1378 1377 1375 1372 1371 1368 1366 1366 1364 1363 1360 1357 1356 1354 1353 1352 1349 1346 1342 1339 1337 1336 1333 1330 1326 1322 1318 1316 1313 1310 1307 1302 1297 1294 1292 1288 1281 1277 1273 1270 1268 1263 1260 1259 1257 1255 1251 1246 1236 1232 1232 1228 1220 1210 1196 1180 1165 1160 1155 1152 1146 1141 1135 1125 1116 1108 1103 1097 1090 1081 1068 1058 1054 1051 1047 1037 1019 1014 1000 989 979 975 974 969 969 960 952 952
