566 566 585 608 611 634 654 666 675 683 688 694 699 705 710 714 719 722 727 732 736 741 745 748 751 755 757 760 762 763 766 768 768 769 770 770 770 769 767 763 760 744 0 0 653 643 639 639 639 639 640 644 648 651 654 656 659 662 665 666 668 670 671 672 673 675 676 677 678 679 679 682 685 690 694 697 700 702 706 709 713 716 721 724 731 746 765 778 791 808 811 822 831 836 840 842 843 844 846 848 851 855 857 858 859 860 860 861 864 864 865 867 868 869 869 871 873 873 873 873 873 874 875 875 875 0 0 0 0 883 883 883 882 875 859 834 818 808 802 802 802 802 801 799 799 799 799 801 802 804 805 808 811 813 814 814 816 817 817 818 819 820 820 820 821 822 824 826 832 838 855 871 890 899 911 923 930 935 938 940 943 945 946 948 950 952 953 955 956 957 958 960 961 963 964 965 966 967 968 969 970 970 971 971 971 971 971 971 965 956 927 901 892 892 892 895 899 901 901 903 903 904 904 905 905 906 907 907 908 911 916 919 923 928 934 941 947 959 975 994 1007 1016 1024 1029 1033 1034 1038 1042 1043 1043 1044 1046 1046 1048 1051 1052 1055 1057 1059 1060 1060 1062 1064 1067 1067 1067 1070 1072 1075 1080 1082 1084 1084 1085 1085 1085 1090 1090 1094 1096 1098 1101 1102 1108 1109 1111 1115 1117 1118 1120 1124 1130 1134 1138 1139 1140 1144 1148 1151 1152 1156 1158 1160 1161 1162 1164 1164 1166 1166 1166 1165 1165 1165 1169 1173 1182 0 0 0 0 1814 1838 1850 1857 1861 1861 1861 1861 1861 1860 1859 1857 1855 1850 1841 1833 1833 0 0 0 0 0 2864 3017 3054 3083 3097 3104 3107 3111 3112 3139 3162 3176 3183 3189 3189 3189 3189 3188 3180 3169 3169 3169 3182 3196 3202 3202 3202 3201 3201 3201 3203 3203 3203 3203 3204 3204 3210 3212 3216 3223 3223 3223 3221 3214 3207 3194 3163 3084 2867 2595 0 0 0 0 1628 1628 1626 1626 1626 1623 1620 1617 1612 1612 1612 1612 1610 1606 1602 1599 1596 1589 1583 1580 1580 1580 1577 1573 1569 1566 1563 1560 1555 1551 1545 1542 1539 1539 1537 1537 1537 1538 1543 1543 1543 1542 1539 1539 1539 1538 1538 1538 1533 1533 1533 1537 1547 1560 1560 1564 1564 1564 1564 1565 1567 1571 1571 1572 1574 1575 1579 1585 1590 1595 1598 1598 1598 1597 1595 1595 1595 1593 1590 1587 1582 1574 1566 1561 1557 1553 1550 1547 1544 1541 1538 1535 1532 1528 1525 1522 1518 1515 1512 1505 1502 1500 1499 1497 1494 1494 1494 1495 1496 1497 1498 1500 1507 1516 1526 1534 1541 1547 1556 1565 1572 1573 1574 1574 1574 1574 1574 1573 1573 1571 1570 1566 1563 1557 1551 1548 1546 1545 1541 1537 1533 1528 1525 1523 1522 1519 1517 1514 1513 1512 1511 1510 1510 1508 1502 1498 1496 1496 1495 1490 1486 1475 1467 1460 1452 1449 1447 1445 1443 1441 1435 1427 1423 1413 1410 1409 1409 1408 1404 1402 1398 1388 1382 1375 1370 1368 1364 1356 1356 1356 1356 1356 1356 1356 1355 1355 1346 1333 1326 1319 1314 1309 1307 1300 1295 1292 1280 1268 1268 1268 1268 1275 1275 1275 1262 1237 0 0 1115 1095 1095 1081 1081 1081 1080 1080 1078 1078 1078 1071 1054 1044 1044 1044 1045 1045 1045 1024 1020 1020 1020 1020 1031 0
570 570 587 607 610 633 654 665 673 683 689 694 699 704 709 714 719 722 727 732 737 741 745 748 752 755 757 761 763 765 767 768 769 769 770 770 770 770 767 763 760 744 0 0 652 644 641 640 640 641 641 644 648 651 654 656 659 662 665 666 668 670 671 671 673 674 676 677 677 678 678 681 685 690 694 697 700 702 706 709 713 716 721 724 731 747 766 784 798 808 811 822 831 836 841 843 843 844 847 848 851 854 858 859 859 860 860 861 864 865 867 868 868 869 869 870 872 873 873 873 874 875 875 875 875 0 0 0 0 883 883 883 882 874 859 834 809 801 801 801 801 801 801 799 799 799 799 802 803 805 807 810 812 814 816 817 817 818 818 819 821 822 823 823 823 825 828 829 832 838 855 881 899 913 922 925 932 937 939 941 943 945 946 948 950 952 954 955 955 957 958 960 961 962 963 965 966 967 968 968 970 970 971 971 971 971 971 971 964 954 921 891 891 891 893 899 906 908 908 908 907 906 906 906 907 909 911 911 911 915 920 926 929 939 945 951 956 968 977 996 1008 1016 1024 1028 1033 1034 1036 1040 1041 1042 1042 1042 1044 1044 1046 1051 1053 1054 1054 1054 1058 1059 1062 1064 1066 1067 1070 1072 1075 1080 1082 1084 1087 1087 1088 1092 1092 1093 1100 1105 1106 1106 1109 1114 1115 1116 1116 1120 1124 1127 1130 1133 1135 1139 1139 1142 1147 1150 1152 1155 1157 1159 1161 1162 1164 1164 1166 1167 1167 1167 1166 1166 1166 1171 1177 1188 0 0 0 0 1824 1838 1844 1849 1855 1859 1860 1860 1861 1861 1861 1859 1857 1856 1851 1841 1831 1831 0 0 0 0 0 2712 2959 3051 3097 3111 3135 3139 3142 3155 3178 3191 3192 3192 3191 3189 3189 3188 3185 3183 3183 3185 3192 3206 3206 3206 3197 3197 3197 3200 3203 3203 3207 3208 3208 3208 3206 3206 3206 3209 3215 3215 3215 3214 3207 3193 3153 3071 2804 0 0 0 0 0 1624 1624 1623 1623 1623 1621 1619 1617 1612 1611 1609 1607 1604 1601 1597 1592 1589 1584 1580 1580 1579 1577 1577 1573 1569 1566 1563 1560 1557 1554 1550 1545 1542 1540 1538 1536 1536 1536 1539 1540 1540 1540 1538 1538 1538 1538 1538 1534 1529 1529 1529 1532 1536 1538 1540 1543 1552 1556 1560 1564 1567 1571 1571 1571 1571 1574 1579 1585 1591 1596 1599 1599 1599 1597 1595 1595 1595 1593 1591 1589 1583 1577 1569 1561 1557 1553 1551 1547 1544 1541 1538 1535 1532 1529 1527 1524 1520 1516 1513 1509 1505 1501 1499 1497 1493 1493 1493 1495 1496 1497 1498 1500 1506 1521 1531 1539 1543 1547 1556 1565 1572 1573 1574 1574 1574 1574 1574 1574 1574 1572 1570 1566 1563 1557 1551 1548 1546 1544 1541 1537 1532 1528 1523 1522 1521 1519 1517 1516 1514 1512 1511 1509 1508 1505 1500 1499 1499 1499 1495 1490 1480 1473 1467 1460 1452 1445 1443 1443 1441 1441 1435 1427 1423 1413 1410 1409 1409 1408 1404 1402 1398 1388 1382 1375 1370 1366 1364 1356 1356 1356 1356 1356 1356 1356 1356 1356 1348 1333 1326 1321 1319 1314 1306 1300 1294 1288 1287 1277 1277 1277 1277 1282 1282 1282 1277 1248 0 0 1119 1097 1097 1081 1081 1081 1081 1081 1082 1082 1082 1071 1071 1066 1063 1061 1058 1058 1045 1024 1024 1024 1033 1033 1050 0
571 571 587 607 610 633 654 665 673 683 689 694 699 704 710 714 719 723 728 733 737 742 747 749 752 756 759 761 763 766 767 769 769 770 770 770 770 770 767 763 760 744 0 0 651 644 641 640 640 641 642 645 648 651 654 656 659 662 665 666 668 670 671 671 673 674 676 677 677 678 678 681 685 690 694 697 700 702 706 709 712 716 721 724 731 747 767 787 798 809 816 824 831 837 842 844 845 846 848 0 0 0 858 859 860 860 860 862 864 865 867 868 869 869 869 869 871 873 873 874 875 875 876 876 876 874 874 874 877 881 881 881 880 873 859 834 809 801 801 801 801 801 801 799 799 799 800 802 804 807 810 812 813 816 819 819 819 819 819 820 822 824 825 826 826 828 831 834 834 838 856 881 903 916 922 925 932 937 939 941 943 944 946 948 950 952 954 955 955 957 958 959 961 962 963 964 965 967 967 967 968 969 970 971 971 972 972 971 969 954 921 891 891 891 893 900 908 916 916 916 913 911 911 911 913 919 924 926 928 929 930 932 942 951 959 966 968 971 980 1000 1008 1016 1024 1027 1030 1034 1034 1035 1038 1038 1039 1039 1042 1043 1043 1045 1048 1049 1050 1050 1055 1055 1056 1056 1059 1064 1065 1066 1069 1076 1082 1084 1089 1090 1092 1094 1096 1100 1104 1106 1108 1111 1113 1116 1119 1120 1124 1129 1132 1133 1135 1136 1138 1140 1142 1145 1150 1153 1154 1156 1157 1160 1162 1163 1164 1165 1166 1167 1167 1167 1168 1168 1168 1172 1178 0 0 0 0 0 1828 1838 1842 1848 1853 1859 1860 1860 1861 1862 1862 1861 1860 1858 1855 1852 1848 1834 1830 0 0 0 0 0 2679 2953 3069 3111 3135 3139 3142 3155 3178 3191 3191 3191 3189 3188 3188 3188 3188 3188 3189 3195 3202 3209 3209 3209 3196 3194 3194 3194 3198 3203 3207 3208 3208 3208 3206 3200 3200 3200 3205 3209 3209 3209 3207 3192 3136 3024 2720 0 0 0 0 1625 1619 1619 1619 1621 1621 1621 1619 1617 1612 1611 1609 1607 1604 1601 1597 1592 1588 1584 1580 1579 1579 1577 1576 1572 1569 1566 1563 1560 1557 1555 1553 1549 1545 1542 1538 1535 1535 1535 1535 1535 1535 1531 1531 1531 1536 1536 1536 1534 1529 1529 1529 1532 1536 1538 1540 1543 1549 1553 1556 1561 1567 1570 1571 1571 1571 1574 1579 1585 1591 1596 1599 1600 1600 1600 1596 1595 1595 1594 1592 1590 1585 1578 1572 1567 1561 1556 1551 1547 1544 1541 1538 1535 1532 1530 1527 1525 1522 1518 1514 1511 1508 1504 1500 1497 1491 1487 1487 1487 1490 1494 1498 1500 1507 1524 1531 1539 1543 1549 1556 1562 1564 1569 1572 1574 1574 1574 1574 1574 1574 1572 1570 1567 1563 1557 1551 1548 1546 1543 1541 1536 1531 1528 1523 1521 1520 1519 1517 1516 1514 1512 1511 1508 1504 1500 1500 1499 1499 1499 1496 1490 1480 1473 1467 1462 1452 1441 1440 1438 1437 1434 1433 1427 1421 1413 1411 1410 1409 1408 1402 1397 1390 1388 1382 1375 1370 1366 1364 1356 1356 1356 1356 1356 1356 1356 1356 1356 1351 1340 1326 1322 1321 1316 1306 1299 1294 1290 1288 1283 1277 1277 1277 1282 1282 1282 1278 1250 0 0 1119 1098 1098 1087 1087 1084 1084 1084 1103 1103 1103 1087 1076 1074 1074 1072 1068 1061 1045 1022 1022 1022 1039 1039 1050 0
572 572 590 607 610 634 654 665 672 683 689 694 699 704 710 715 720 724 728 733 738 742 747 751 754 757 759 762 764 766 768 770 771 771 771 771 771 770 768 764 756 739 0 0 651 645 641 640 640 641 643 645 648 651 654 656 658 661 664 666 668 670 671 672 673 674 676 677 678 678 678 681 686 690 694 696 698 701 705 708 712 716 721 724 731 747 770 788 801 810 822 824 833 839 843 846 848 848 849 0 0 0 858 860 861 861 862 864 865 868 868 868 869 869 869 869 871 873 873 875 875 875 877 877 877 876 876 876 878 880 880 880 879 873 859 832 809 801 801 801 801 801 801 799 799 799 801 802 805 809 812 814 816 818 819 819 819 819 819 820 823 826 828 828 828 829 832 834 835 838 856 882 903 916 922 927 932 937 939 941 943 944 946 948 950 952 953 955 955 956 958 959 960 961 962 963 963 965 966 967 968 969 970 971 971 971 971 971 969 955 921 894 894 894 897 900 911 921 921 921 919 919 919 925 932 940 947 954 954 954 954 954 960 967 971 973 976 981 997 1004 1010 1016 1021 1023 1027 1030 1031 1031 1035 1037 1037 1037 1037 1036 1036 1037 1037 1036 1037 1038 1038 1038 1038 1045 1054 1054 1055 1060 1069 1076 1082 1088 1090 1092 1095 1099 1102 1105 1107 1109 1112 1115 1118 1121 1123 1126 1130 1132 1133 1136 1138 1140 1142 1143 1145 1148 1151 1154 1155 1156 1158 1161 1162 1164 1165 1166 1167 1167 1168 1168 1168 1169 1170 1173 1178 0 0 0 0 0 1829 1838 1841 1846 1852 1856 1859 1860 1861 1862 1863 1863 1863 1862 1857 1853 1852 1844 1834 1834 1834 0 0 0 0 2712 2983 3098 3135 3139 3142 3155 3178 3191 3191 3191 3182 3180 3180 3182 3183 3186 3190 3199 3204 3209 3209 3209 3196 3194 3193 3193 3194 3195 3200 3208 3208 3208 3206 3200 3200 3200 3205 3209 3209 3209 3207 3180 3105 2904 0 0 0 0 0 1616 1616 1616 1619 1621 1621 1621 1620 1617 1614 1611 1609 1607 1604 1601 1597 1592 1588 1584 1580 1579 1578 1577 1576 1571 1569 1566 1563 1560 1558 1556 1553 1550 1545 1543 1540 1535 1531 1530 1528 1524 1523 1523 1523 1528 1533 1534 1534 1534 1529 1529 1529 1532 1536 1538 1540 1543 1547 1550 1553 1557 1564 1567 1569 1569 1571 1573 1579 1586 1592 1596 1599 1600 1600 1600 1598 1596 1596 1594 1592 1590 1585 1580 1575 1569 1564 1560 1553 1548 1545 1542 1539 1537 1534 1531 1527 1525 1523 1521 1517 1514 1511 1505 1500 1497 1490 1482 1482 1482 1482 1486 1492 1501 1513 1524 1531 1539 1543 1549 1554 1560 1564 1569 1572 1575 1575 1575 1575 1574 1574 1572 1570 1567 1565 1561 1556 1548 1545 1543 1540 1536 1532 1528 1523 1520 1518 1516 1516 1516 1514 1512 1511 1507 1502 1500 1500 1500 1500 1499 1497 1490 1480 1473 1467 1462 1451 1441 1440 1438 1437 1434 1433 1427 1421 1413 1411 1411 1409 1408 1398 1388 1384 1384 1381 1377 1370 1366 1364 1360 1359 1357 1356 1356 1356 1356 1355 1353 1348 1340 1328 1322 1321 1316 1308 1299 1294 1292 1291 1285 1277 1277 1277 1282 1282 1282 1278 1250 1213 1181 1144 1122 1107 1100 1098 1098 1100 1105 1124 1124 1124 1099 1080 1077 1075 1074 1069 1061 1050 1022 1022 1022 1039 1039 1050 0
574 574 590 607 613 634 654 665 672 684 689 694 699 704 709 715 720 724 728 733 738 743 747 751 755 758 761 763 765 767 769 770 772 773 773 773 772 772 770 765 756 738 0 0 651 645 640 640 640 640 643 646 649 651 654 656 658 661 664 666 668 670 671 672 674 676 678 680 681 681 681 685 687 691 694 696 698 701 705 708 712 716 721 724 731 747 771 789 801 814 825 828 836 841 845 847 849 851 852 853 855 855 858 860 861 861 863 864 866 868 868 869 869 869 869 869 871 873 873 875 876 877 878 879 880 880 880 880 880 880 880 879 877 873 859 832 809 801 801 801 801 801 801 801 801 801 801 803 805 810 814 817 818 820 820 820 820 820 820 822 825 827 828 828 829 830 832 834 837 843 857 882 904 917 922 927 932 935 938 940 942 944 946 947 950 951 953 954 954 955 956 958 959 960 961 961 962 964 965 967 968 969 970 970 970 971 970 970 967 954 929 903 903 903 909 918 925 932 933 934 936 936 938 939 945 949 950 954 964 968 972 981 986 986 991 993 994 996 1004 1008 1013 1013 1013 1015 1017 1018 1022 1025 1029 1029 1029 1026 1019 1019 1019 1019 1019 1017 1016 1014 1014 1014 1015 1021 1031 1039 1040 1053 1069 1076 1082 1089 1093 1096 1100 1104 1107 1109 1110 1112 1114 1117 1121 1124 1126 1128 1131 1133 1135 1137 1139 1142 1144 1145 1147 1150 1153 1154 1156 1157 1160 1161 1163 1164 1166 1167 1167 1167 1168 1168 1169 1170 1171 1173 1183 0 0 0 0 0 1831 1838 1842 1846 1852 1854 1859 1860 1861 1861 1863 1865 1865 1865 1858 1855 1854 1854 1844 1841 1839 1839 0 0 0 0 2640 2916 3075 3130 3132 3137 3148 3168 3180 3180 3182 3180 3180 3182 3183 3187 3191 3200 3204 3204 3204 3203 3195 3193 3193 3192 3193 3193 3199 3205 3206 3206 3206 3200 3200 3200 3205 3209 3209 3209 3195 3152 3031 0 0 0 0 0 0 1616 1616 1616 1619 1621 1621 1621 1620 1618 1617 1613 1609 1607 1605 1602 1599 1594 1588 1585 1582 1581 1579 1578 1575 1571 1570 1569 1565 1562 1560 1557 1554 1550 1546 1544 1542 1536 1531 1528 1523 1521 1521 1521 1521 1521 1529 1533 1536 1537 1538 1538 1539 1540 1541 1543 1543 1543 1547 1550 1553 1557 1560 1564 1567 1569 1570 1573 1579 1586 1592 1595 1598 1600 1600 1600 1598 1596 1596 1594 1592 1590 1585 1580 1575 1570 1566 1561 1555 1551 1547 1544 1542 1539 1536 1532 1528 1526 1525 1523 1520 1516 1513 1506 1500 1497 1490 1482 1477 1477 1477 1481 1492 1500 1509 1521 1531 1537 1542 1549 1554 1560 1564 1568 1572 1574 1574 1574 1574 1574 1572 1571 1570 1567 1565 1561 1556 1549 1545 1543 1539 1536 1532 1528 1525 1520 1518 1516 1516 1516 1513 1510 1508 1504 1502 1500 1500 1500 1500 1500 1497 1490 1486 1477 1467 1462 1451 1441 1440 1438 1437 1434 1433 1430 1421 1414 1413 1413 1411 1407 1395 1388 1384 1382 1381 1379 1376 1372 1369 1366 1365 1364 1361 1357 1355 1355 1355 1351 1346 1333 1326 1322 1321 1316 1308 1299 1294 1292 1292 1288 1273 1272 1268 1268 1272 1272 1268 1250 1200 1180 1144 1122 1122 1122 1132 1133 1133 1133 1132 1131 1128 1107 1086 1079 1078 1075 1069 1061 1050 1027 1027 1027 1038 1038 1039 0
574 574 590 608 631 635 652 662 672 684 689 694 699 704 709 716 720 725 729 734 738 743 747 752 755 758 762 764 766 768 770 772 772 773 773 773 773 772 772 768 756 738 0 0 651 645 640 640 640 642 644 647 649 652 654 656 658 661 664 666 668 670 672 673 674 677 680 681 684 686 686 687 689 691 694 696 698 701 705 708 713 717 721 724 731 747 773 799 814 817 826 829 839 846 846 848 849 852 855 856 857 857 858 860 861 862 864 865 867 868 868 869 869 869 870 870 873 874 875 876 877 877 879 879 880 880 880 881 881 881 881 879 877 872 859 832 809 801 801 801 801 803 803 803 804 804 804 805 807 812 817 820 823 823 823 823 823 823 823 826 828 830 831 831 831 831 832 835 839 849 866 885 906 917 922 928 932 935 936 939 941 943 946 947 949 951 953 954 954 954 955 957 958 960 960 961 961 962 963 964 966 967 970 970 970 970 969 969 967 955 931 906 906 906 929 936 942 943 945 948 959 961 961 961 961 961 962 970 990 991 992 997 1003 1007 1012 1012 1012 1013 1013 1014 1014 1014 1009 1007 1007 1007 1009 1012 1012 1012 1009 1007 1001 1001 1001 1006 1010 1010 1010 1008 1008 1008 1010 1020 1030 1038 1040 1053 1070 1081 1090 1092 1094 1099 1104 1107 1109 1111 1114 1115 1117 1120 1123 1126 1128 1130 1132 1134 1136 1139 1142 1144 1146 1147 1148 1151 1153 1155 1157 1159 1160 1163 1165 1165 1167 1169 1169 1169 1171 1171 1171 1172 1173 1177 1187 0 0 0 0 0 1835 1839 1844 1848 1852 1854 1858 1860 1861 1861 1863 1865 1865 1865 1864 1864 1863 1862 1862 1857 1850 1841 1839 0 0 0 0 0 2866 3081 3117 3135 3148 3168 3180 3180 3182 3180 3180 3182 3183 3191 3199 3202 3202 3202 3200 3196 3193 3193 3193 3193 3193 3194 3199 3205 3208 3212 3213 3219 3221 3221 3221 3217 3211 3204 3178 3072 2966 0 0 0 0 0 1621 1616 1616 1616 1619 1621 1621 1622 1622 1621 1620 1616 1611 1608 1606 1604 1600 1595 1590 1585 1583 1581 1579 1578 1575 1571 1570 1569 1566 1564 1561 1559 1556 1551 1547 1546 1545 1543 1537 1528 1523 1521 1521 1517 1517 1517 1525 1532 1535 1537 1538 1539 1540 1542 1545 1545 1546 1547 1547 1550 1553 1557 1560 1564 1566 1569 1570 1572 1579 1586 1592 1594 1595 1595 1596 1596 1596 1596 1596 1593 1589 1587 1584 1580 1575 1571 1567 1563 1559 1554 1551 1550 1547 1545 1541 1535 1530 1529 1526 1523 1520 1518 1516 1510 1500 1497 1490 1482 1477 1477 1477 1480 1490 1500 1509 1521 1525 1529 1534 1537 1546 1558 1564 1568 1572 1574 1574 1574 1574 1574 1572 1570 1568 1567 1565 1561 1556 1549 1545 1542 1539 1533 1533 1531 1527 1522 1518 1516 1516 1516 1513 1510 1508 1503 1502 1501 1501 1501 1500 1500 1497 1490 1486 1477 1467 1457 1448 1441 1440 1440 1440 1439 1439 1437 1436 1431 1426 1422 1414 1407 1395 1387 1384 1380 1380 1379 1378 1377 1373 1372 1371 1369 1367 1365 1355 1354 1345 1344 1342 1333 1324 1321 1320 1316 1309 1301 1297 1295 1294 1289 1273 1261 1258 1258 1258 1258 1255 1236 1197 1177 1144 1140 1140 1140 1149 1149 1149 1135 1133 1131 1128 1116 1104 1095 1086 1078 1071 1061 1051 1036 1036 1036 1038 1038 1039 0
574 574 590 610 632 635 650 660 672 684 689 694 699 704 709 715 721 725 730 734 738 744 749 752 756 759 762 765 766 769 770 773 773 774 774 774 775 774 773 768 757 738 0 0 650 643 640 640 640 642 644 648 652 653 655 658 659 662 664 666 668 671 674 675 676 679 681 683 685 687 688 689 691 693 695 699 702 705 706 710 713 717 721 726 732 749 775 799 814 818 828 830 842 847 849 851 853 853 856 858 859 859 860 860 861 863 864 865 867 867 868 869 869 870 870 870 873 874 875 876 877 878 879 879 880 880 881 881 881 880 880 879 877 871 858 830 809 803 802 802 802 804 805 805 805 807 809 809 811 816 821 825 826 826 826 826 826 826 826 829 832 834 834 834 834 835 836 838 842 851 873 896 911 917 921 928 932 934 936 938 940 942 944 947 949 950 951 952 952 954 954 956 958 959 959 961 961 961 961 961 963 966 966 967 968 967 967 967 967 956 934 934 934 944 954 957 962 964 969 977 984 985 985 987 989 991 993 995 1006 1007 1007 1010 1011 1012 1012 1014 1016 1020 1020 1020 1017 1011 1001 992 983 983 983 987 990 990 991 993 999 999 999 999 999 1003 1003 1003 1004 1004 1007 1019 1029 1036 1040 1053 1072 1084 1091 1093 1097 1101 1105 1108 1112 1114 1117 1118 1119 1122 1125 1128 1129 1130 1132 1135 1139 1141 1143 1145 1147 1148 1150 1151 1154 1156 1158 1160 1162 1163 1165 1167 1169 1169 1170 1172 1172 1173 1173 1176 1176 1178 0 0 0 0 0 0 1838 1843 1846 1851 1853 1854 1858 1860 1861 1862 1863 1865 1867 1868 1868 1868 1868 1867 1864 1860 1859 1851 1839 1828 0 0 0 0 0 2787 3087 3126 3146 3168 3186 3186 3186 3186 3186 3186 3197 3208 3208 3208 3204 3193 3191 3191 3191 3191 3193 3193 3194 3194 3199 3205 3212 3221 3230 3242 3242 3242 3221 3217 3211 3185 3115 3010 2874 0 0 0 0 0 1624 1622 1622 1624 1624 1625 1625 1625 1623 1623 1620 1616 1612 1608 1607 1605 1602 1597 1592 1587 1584 1582 1580 1577 1574 1571 1570 1569 1566 1564 1561 1559 1557 1553 1550 1549 1549 1547 1543 1534 1523 1521 1521 1517 1517 1517 1525 1530 1534 1537 1538 1539 1540 1544 1546 1549 1549 1549 1552 1555 1555 1558 1560 1564 1565 1568 1569 1572 1576 1581 1586 1589 1591 1592 1594 1596 1596 1596 1593 1590 1585 1583 1582 1578 1575 1572 1568 1564 1560 1557 1554 1551 1549 1546 1542 1538 1533 1529 1526 1523 1520 1518 1516 1510 1501 1498 1493 1483 1473 1473 1473 1478 1486 1499 1509 1515 1521 1524 1528 1531 1540 1553 1563 1568 1572 1574 1574 1574 1574 1573 1572 1570 1568 1567 1564 1560 1555 1549 1544 1540 1538 1533 1533 1531 1527 1523 1519 1517 1517 1516 1513 1510 1507 1503 1502 1501 1501 1501 1500 1500 1497 1490 1486 1477 1463 1447 1441 1440 1440 1440 1440 1439 1439 1437 1436 1431 1429 1424 1419 1408 1395 1387 1383 1380 1379 1379 1379 1379 1379 1377 1373 1369 1367 1365 1355 1354 1342 1338 1338 1333 1324 1314 1309 1309 1309 1309 1309 1307 1298 1288 1271 1256 1247 1242 1240 1209 1207 1197 1192 1170 1144 1141 1141 1141 1149 1149 1149 1135 1133 1131 1128 1116 1113 1106 1093 1079 1072 1064 1055 1037 1037 1037 1038 1038 1039 0
569 569 590 612 632 635 650 660 672 682 689 694 699 704 709 715 721 726 730 735 740 744 749 752 756 760 763 765 768 770 772 773 774 774 775 775 775 775 775 768 757 738 0 0 650 640 639 639 639 642 644 648 652 655 657 658 659 662 664 667 669 671 674 676 677 679 682 683 685 687 688 691 693 696 698 702 703 706 708 710 714 717 721 730 741 753 775 799 814 821 829 832 843 847 849 852 854 854 856 858 859 860 860 861 861 863 864 865 867 867 867 868 869 870 870 871 873 874 875 876 877 878 879 879 880 881 882 882 882 881 880 879 877 870 855 829 808 803 802 802 802 804 806 807 808 811 812 812 817 823 829 831 831 831 831 830 829 829 829 833 837 837 838 839 839 841 841 841 846 854 874 899 913 917 921 928 932 934 936 938 940 941 943 943 944 945 945 946 946 950 952 953 956 956 957 957 958 959 959 961 961 961 962 962 962 965 966 966 966 966 964 964 964 968 969 969 973 982 990 992 993 996 998 1001 1004 1005 1005 1007 1009 1013 1016 1019 1020 1021 1021 1023 1023 1023 1023 1023 1018 1003 990 981 981 981 980 979 981 981 981 987 990 991 991 992 993 994 1000 1002 1003 1003 1005 1014 1024 1036 1040 1060 1078 1086 1093 1097 1100 1104 1107 1111 1114 1116 1117 1119 1121 1124 1126 1129 1130 1132 1134 1137 1140 1142 1144 1146 1148 1150 1152 1153 1155 1157 1159 1162 1163 1164 1165 1167 1169 1171 1171 1172 1173 1173 1174 1176 1177 1181 0 0 0 0 0 0 1848 1849 1850 1851 1853 1854 1857 1860 1861 1862 1863 1864 1866 1868 1868 1868 1868 1867 1866 1863 1860 1855 1848 1828 1819 0 0 0 0 0 2932 3118 3138 3156 3195 3195 3195 3186 3186 3186 3197 3213 3213 3213 3204 3193 3190 3190 3190 3191 3194 3195 3198 3207 3221 3226 3233 3243 3248 3248 3248 3242 3221 3217 3192 3157 3087 2980 2740 0 0 0 0 1629 1629 1626 1626 1626 1627 1627 1627 1626 1624 1623 1620 1616 1612 1609 1609 1608 1606 1601 1597 1591 1586 1583 1580 1577 1574 1571 1570 1567 1566 1564 1561 1559 1557 1553 1551 1550 1549 1549 1545 1534 1523 1522 1522 1521 1521 1521 1525 1529 1533 1536 1537 1539 1540 1544 1549 1553 1554 1555 1558 1561 1562 1562 1563 1564 1565 1566 1567 1570 1574 1576 1582 1585 1588 1589 1592 1593 1593 1593 1590 1587 1584 1580 1579 1578 1575 1572 1569 1565 1561 1557 1554 1551 1549 1546 1543 1538 1533 1529 1526 1523 1520 1518 1516 1510 1502 1499 1498 1491 1473 1473 1473 1478 1484 1494 1504 1514 1521 1524 1528 1531 1538 1549 1561 1567 1571 1573 1573 1574 1574 1573 1572 1570 1568 1567 1564 1560 1555 1549 1544 1540 1537 1534 1533 1531 1527 1523 1519 1517 1517 1516 1513 1510 1506 1503 1502 1501 1499 1499 1498 1498 1496 1490 1482 1473 1452 1442 1440 1439 1439 1439 1440 1439 1439 1437 1436 1431 1429 1424 1419 1408 1395 1388 1383 1380 1379 1379 1379 1379 1379 1377 1373 1370 1367 1365 1353 1350 1339 1336 1333 1328 1319 1309 1309 1309 1309 1309 1309 1307 1298 1288 1260 1237 1230 1227 1225 1209 1194 1188 1181 1170 1144 1141 1141 1141 1149 1149 1149 1133 1126 1123 1118 1116 1113 1106 1093 1083 1077 1067 1055 1038 1038 1038 1040 1040 1040 0
563 563 589 611 632 634 649 660 672 682 689 694 699 705 710 716 721 726 731 735 741 746 750 754 757 760 764 766 768 771 772 774 774 775 775 775 775 775 775 768 757 738 0 0 650 640 638 638 638 640 644 648 652 655 657 658 659 662 664 667 669 672 675 677 679 682 684 686 687 689 691 692 696 698 702 703 705 706 708 711 714 717 722 733 745 757 776 799 814 823 832 834 844 848 849 852 854 854 856 858 859 860 861 861 861 863 864 865 866 867 867 867 868 869 870 871 873 873 874 876 877 878 878 879 880 881 882 882 882 881 880 879 877 870 855 829 808 805 805 805 807 808 809 810 811 812 813 813 818 828 833 833 833 832 832 832 832 835 838 841 841 841 841 841 842 843 843 846 850 864 880 901 914 918 921 925 928 929 931 933 936 938 939 939 939 939 939 939 941 946 951 951 951 951 952 952 953 953 955 955 955 955 955 955 956 960 963 967 971 972 973 975 978 982 982 984 987 990 996 999 1003 1007 1007 1008 1013 1013 1014 1014 1016 1018 1020 1022 1026 1029 1029 1029 1026 1026 1026 1026 1018 1000 983 978 978 978 978 978 977 977 977 981 985 987 987 988 988 991 998 1001 1002 1003 1005 1012 1020 1035 1053 1072 1079 1086 1097 1102 1105 1107 1109 1112 1116 1117 1119 1121 1123 1125 1128 1130 1132 1134 1136 1139 1141 1143 1146 1147 1150 1151 1153 1155 1157 1158 1161 1163 1164 1166 1166 1168 1170 1172 1172 1173 1173 1174 1174 1176 1179 1183 0 0 0 0 0 1838 1848 1849 1850 1852 1853 1854 1857 1860 1861 1862 1863 1864 1864 1866 1868 1868 1868 1867 1866 1863 1861 1861 1848 1836 1819 1812 0 0 0 0 0 2892 3115 3156 3195 3195 3195 3186 3186 3186 3197 3213 3213 3213 3210 3193 3190 3190 3190 3191 3204 3210 3210 3221 3234 3244 3248 3248 3249 3249 3248 3242 3221 3207 3180 3147 3056 2915 2645 0 0 0 0 1629 1629 1628 1628 1628 1630 1630 1630 1626 1625 1623 1619 1616 1612 1610 1609 1608 1606 1602 1599 1595 1591 1585 1580 1577 1574 1571 1570 1567 1562 1557 1557 1554 1554 1553 1551 1550 1549 1549 1546 1541 1527 1523 1523 1522 1522 1522 1525 1528 1531 1532 1533 1537 1538 1544 1550 1553 1554 1555 1558 1562 1562 1562 1563 1564 1564 1565 1566 1568 1570 1573 1577 1580 1584 1588 1591 1591 1591 1589 1588 1586 1582 1579 1579 1578 1575 1572 1569 1565 1561 1557 1554 1551 1549 1546 1543 1538 1533 1529 1526 1523 1520 1518 1514 1510 1506 1504 1503 1499 1473 1473 1473 1478 1484 1492 1501 1514 1521 1524 1527 1531 1537 1544 1552 1562 1567 1571 1573 1573 1573 1573 1573 1573 1570 1568 1564 1560 1555 1549 1544 1540 1537 1534 1533 1532 1528 1523 1519 1517 1517 1516 1513 1510 1506 1503 1501 1499 1498 1498 1496 1494 1489 1486 1480 1466 1449 1441 1437 1436 1436 1436 1436 1434 1433 1431 1431 1430 1429 1424 1419 1408 1399 1389 1382 1380 1379 1379 1379 1379 1379 1377 1373 1371 1369 1360 1352 1347 1339 1333 1329 1324 1315 1306 1300 1300 1300 1307 1307 1307 1298 1252 1235 1228 1222 1219 1215 1208 1189 1185 1177 1170 1156 1145 1141 1139 1133 1130 1129 1124 1120 1117 1116 1113 1113 1106 1093 1083 1077 1069 1055 1038 1038 1038 1040 1040 1040 0
561 561 589 611 632 634 648 660 671 682 689 694 700 705 710 716 721 726 731 736 741 747 751 755 758 761 764 766 769 771 773 774 775 775 775 775 775 775 774 768 757 737 0 0 650 640 638 638 638 640 644 648 651 655 657 659 659 662 665 667 670 673 676 679 681 684 686 688 690 691 692 695 699 702 705 706 706 707 709 711 714 719 723 734 746 758 776 799 814 827 836 844 846 848 849 852 854 854 856 858 859 860 861 861 861 863 864 865 866 866 866 867 868 869 870 870 871 872 873 874 877 877 878 879 879 881 881 881 881 881 878 878 878 870 855 829 809 808 808 808 811 813 813 813 813 813 813 814 819 828 834 834 834 834 834 837 839 844 849 852 852 852 852 850 848 848 848 852 862 873 888 903 914 917 919 923 925 925 926 927 930 933 936 936 936 934 934 934 937 940 940 941 941 941 941 941 941 941 944 945 946 946 946 947 948 954 960 965 971 978 984 985 988 991 996 998 998 999 999 1004 1010 1012 1012 1014 1017 1018 1019 1020 1021 1023 1023 1025 1029 1029 1029 1029 1029 1029 1026 1025 1016 994 976 976 976 976 976 976 975 975 975 978 981 984 986 987 988 990 995 1001 1002 1002 1005 1009 1017 1035 1062 1072 1082 1092 1098 1103 1107 1109 1111 1114 1117 1119 1121 1123 1125 1127 1130 1131 1133 1135 1137 1140 1142 1144 1147 1149 1151 1152 1154 1156 1158 1159 1161 1163 1166 1166 1168 1170 1171 1172 1172 1173 1173 1174 1174 1178 1182 1191 0 0 0 0 1825 1844 1848 1849 1850 1853 1853 1854 1857 1860 1861 1862 1863 1864 1864 1864 1864 1865 1865 1864 1864 1864 1862 1862 1855 1839 1832 1823 1823 1823 0 0 0 2504 2962 3136 3195 3195 3195 3180 3180 3180 3189 3213 3224 3224 3224 3205 3190 3190 3190 3201 3218 3225 3227 3231 3241 3248 3249 3249 3249 3248 3239 3231 3218 3205 3179 3133 2996 2820 0 0 0 0 0 1629 1629 1629 1629 1631 1631 1631 1630 1627 1625 1622 1619 1616 1612 1610 1609 1608 1606 1602 1599 1597 1593 1587 1582 1577 1575 1573 1572 1567 1562 1554 1551 1550 1548 1548 1548 1550 1548 1548 1546 1541 1534 1529 1528 1528 1525 1525 1525 1527 1528 1530 1532 1532 1537 1543 1550 1553 1554 1555 1558 1562 1562 1562 1563 1563 1563 1564 1565 1566 1569 1570 1573 1578 1582 1586 1590 1590 1590 1589 1587 1585 1581 1579 1578 1578 1577 1574 1571 1566 1562 1557 1553 1549 1547 1545 1542 1538 1533 1529 1526 1523 1520 1516 1511 1509 1507 1506 1506 1500 1491 1484 1484 1484 1486 1492 1501 1514 1520 1524 1527 1531 1537 1544 1550 1558 1565 1569 1571 1573 1573 1573 1573 1573 1571 1568 1564 1559 1555 1552 1547 1543 1537 1534 1533 1532 1528 1523 1518 1512 1511 1509 1507 1507 1504 1500 1497 1496 1496 1496 1495 1493 1489 1484 1471 1457 1447 1440 1436 1435 1435 1432 1430 1427 1424 1422 1421 1420 1418 1417 1414 1408 1399 1390 1382 1379 1379 1379 1379 1379 1379 1377 1372 1371 1369 1360 1351 1347 1332 1326 1324 1323 1315 1306 1298 1298 1298 1293 1293 1293 1260 1249 1235 1228 1222 1219 1215 1202 1189 1183 1177 1170 1164 1157 1141 1118 1118 1117 1117 1117 1116 1114 1113 1112 1106 1097 1083 1083 1077 1069 1055 1037 1037 1037 1037 1037 1033 0
559 559 588 611 628 631 648 660 671 681 689 694 700 706 711 716 722 728 731 737 742 747 751 755 759 762 764 766 769 772 774 774 775 775 776 776 776 775 774 768 757 737 0 676 657 648 642 640 640 640 644 648 651 655 658 659 659 662 665 669 672 674 677 681 683 685 688 690 692 693 695 698 701 706 710 710 711 711 713 716 719 721 724 735 749 759 780 800 815 828 839 844 846 848 849 851 853 854 856 857 859 860 860 862 862 863 864 865 865 865 866 867 868 869 870 870 871 872 873 874 876 877 878 878 879 879 881 881 881 881 878 878 878 870 855 835 813 811 811 811 812 813 815 816 817 817 817 819 821 828 835 838 838 840 843 845 847 850 856 860 861 861 861 861 861 861 863 866 872 881 894 909 913 917 918 923 923 924 925 925 925 926 927 927 927 927 924 924 924 924 924 924 924 924 924 924 921 921 921 923 925 926 929 930 939 950 957 965 975 987 988 989 992 995 998 1002 1003 1005 1006 1009 1012 1013 1014 1017 1019 1021 1021 1022 1025 1026 1028 1028 1029 1029 1030 1030 1030 1029 1024 1020 1013 989 975 975 974 974 974 974 974 974 975 978 981 984 986 987 988 990 995 1000 1002 1003 1005 1009 1015 1035 1062 1080 1087 1092 1099 1105 1109 1111 1113 1116 1118 1121 1123 1124 1126 1128 1131 1133 1135 1137 1139 1141 1143 1146 1148 1149 1151 1153 1155 1157 1158 1161 1162 1164 1166 1168 1169 1170 1171 1172 1173 1173 1174 1174 1175 1184 1193 1199 0 0 0 0 1831 1844 1848 1849 1850 1853 1853 1853 1855 1859 1860 1862 1863 1864 1864 1864 1864 1864 1864 1864 1864 1864 1863 1862 1861 1859 1855 1845 1837 1834 1834 0 0 0 2509 2917 3140 3176 3176 3176 3176 3176 3182 3205 3224 3224 3224 3207 3200 3200 3200 3211 3228 3231 3233 3233 3241 3248 3248 3248 3244 3240 3230 3222 3214 3204 3178 3069 2955 2803 0 0 0 0 0 1630 1629 1629 1629 1631 1631 1631 1630 1627 1624 1622 1618 1615 1612 1609 1608 1607 1606 1602 1599 1597 1593 1589 1583 1579 1578 1573 1572 1568 1562 1554 1551 1548 1548 1548 1548 1548 1548 1548 1546 1541 1534 1531 1530 1528 1525 1525 1525 1526 1527 1529 1531 1532 1537 1542 1550 1553 1553 1554 1555 1558 1561 1561 1561 1562 1562 1562 1563 1566 1568 1569 1572 1575 1580 1585 1588 1589 1589 1589 1587 1584 1581 1579 1578 1578 1577 1574 1571 1566 1562 1557 1553 1548 1546 1543 1539 1536 1532 1529 1525 1523 1520 1516 1511 1508 1507 1506 1506 1500 1494 1487 1486 1486 1487 1492 1501 1514 1520 1524 1527 1530 1537 1544 1550 1558 1563 1566 1569 1572 1573 1573 1573 1573 1571 1568 1564 1559 1555 1552 1550 1548 1544 1541 1536 1532 1528 1523 1518 1512 1509 1506 1505 1502 1501 1498 1496 1494 1493 1492 1492 1492 1485 1474 1463 1453 1444 1436 1434 1432 1431 1429 1426 1426 1424 1417 1413 1411 1411 1410 1409 1408 1399 1390 1382 1379 1379 1379 1379 1379 1379 1377 1372 1371 1369 1360 1351 1346 1332 1326 1324 1323 1315 1306 1298 1298 1298 1291 1289 1282 1260 1249 1235 1228 1222 1219 1215 1204 1189 1183 1177 1170 1166 1158 1142 1118 1117 1117 1116 1116 1116 1112 1112 1112 1101 1096 1082 1076 1073 1069 1051 1036 1032 1031 1028 1028 1022 0
557 557 579 602 623 628 645 659 670 681 689 694 700 706 712 717 723 729 733 738 744 748 752 755 760 762 765 768 771 773 774 775 776 777 777 776 776 776 774 768 758 737 0 682 667 654 648 643 643 643 646 648 651 655 658 659 659 662 668 671 674 677 679 681 684 687 690 692 694 697 698 700 701 706 711 711 713 713 713 718 723 724 726 737 753 763 782 802 816 828 840 845 846 848 850 851 853 854 856 857 859 860 860 862 862 863 863 864 865 865 866 866 867 869 870 870 870 871 871 873 874 876 876 878 878 879 880 880 880 880 878 878 878 870 856 838 816 816 816 817 817 817 817 817 817 819 820 831 841 844 845 851 855 859 861 868 870 872 876 880 880 880 880 880 882 882 882 883 883 891 911 912 912 912 913 913 913 916 916 916 914 911 907 907 907 903 903 906 906 903 902 903 903 903 903 903 898 898 898 903 905 911 915 921 924 942 957 965 980 991 991 992 995 998 1001 1003 1006 1008 1010 1012 1013 1016 1017 1019 1020 1022 1023 1025 1027 1028 1030 1031 1031 1031 1031 1031 1030 1030 1023 1018 1008 988 974 973 973 973 973 973 973 974 975 978 981 983 986 987 988 990 994 996 1001 1004 1006 1009 1015 1031 1062 1080 1089 1094 1100 1108 1111 1112 1115 1117 1120 1122 1125 1126 1128 1131 1133 1134 1137 1138 1141 1142 1145 1147 1149 1150 1153 1155 1157 1158 1160 1162 1164 1165 1167 1169 1170 1171 1172 1174 1174 1174 1174 1174 1175 1184 1193 1203 0 0 0 0 1833 1844 1844 1848 1850 1853 1853 1853 1855 1858 1860 1861 1862 1864 1864 1864 1864 1864 1864 1864 1864 1864 1863 1863 1863 1863 1861 1861 1861 1848 1834 0 0 0 0 2542 2920 3134 3168 3171 3175 3175 3182 3194 3216 3216 3216 3207 3207 3207 3214 3227 3230 3231 3233 3233 3241 3247 3247 3247 3243 3238 3223 3218 3210 3197 3166 3038 2914 2736 0 0 0 0 1631 1630 1630 1630 1630 1630 1630 1630 1628 1627 1624 1622 1618 1615 1611 1609 1606 1605 1603 1602 1599 1597 1593 1589 1585 1581 1578 1573 1572 1568 1565 1557 1551 1548 1548 1545 1544 1543 1543 1543 1541 1541 1534 1532 1531 1528 1525 1525 1525 1526 1527 1528 1530 1532 1535 1541 1545 1547 1548 1548 1549 1551 1555 1556 1557 1557 1558 1559 1563 1566 1567 1568 1571 1572 1576 1583 1588 1588 1588 1588 1586 1583 1580 1578 1578 1578 1577 1574 1571 1566 1562 1557 1553 1548 1546 1543 1538 1535 1531 1528 1525 1523 1521 1516 1511 1508 1507 1507 1506 1500 1494 1487 1487 1487 1493 1501 1509 1514 1520 1521 1525 1528 1537 1544 1550 1555 1559 1562 1566 1569 1573 1573 1573 1573 1571 1566 1563 1559 1555 1552 1551 1549 1546 1545 1542 1536 1531 1525 1518 1512 1509 1506 1505 1502 1501 1498 1496 1493 1489 1487 1483 1478 1470 1466 1460 1452 1444 1435 1430 1430 1429 1428 1426 1424 1424 1416 1413 1410 1408 1408 1408 1405 1399 1390 1383 1380 1380 1380 1381 1381 1381 1377 1372 1371 1369 1355 1348 1341 1332 1326 1323 1321 1315 1305 1298 1291 1290 1289 1286 1282 1260 1249 1241 1238 1231 1226 1216 1204 1189 1183 1179 1174 1168 1162 1150 1117 1117 1111 1108 1107 1107 1107 1107 1107 1100 1085 1072 1066 1064 1056 1038 1025 1022 1022 1022 1022 1022 0
555 555 569 590 616 626 639 653 665 677 686 692 699 706 712 718 725 730 734 739 745 749 753 757 760 763 765 768 771 774 775 776 777 778 778 778 776 776 774 769 759 739 0 682 669 661 654 649 649 649 650 652 654 657 659 659 659 662 670 675 676 679 680 682 687 689 693 696 698 701 703 703 705 709 713 714 716 716 717 721 724 726 728 741 756 770 786 804 820 831 841 845 846 848 850 851 853 854 856 857 859 859 860 861 862 863 863 864 864 864 864 865 866 868 870 870 870 870 871 871 874 875 875 876 876 876 877 878 878 878 878 878 877 871 858 839 832 832 832 834 834 834 834 834 834 840 846 859 863 864 865 865 870 874 877 881 883 886 890 890 893 894 895 900 900 900 900 900 901 908 913 913 913 902 893 893 893 897 897 897 896 886 879 879 879 876 876 879 879 879 880 881 881 883 884 885 886 886 888 892 895 903 913 921 924 941 957 974 986 991 993 996 998 1001 1003 1006 1008 1010 1012 1013 1016 1018 1019 1021 1022 1023 1026 1026 1029 1032 1032 1032 1032 1033 1033 1032 1032 1030 1023 1015 1008 988 973 972 972 972 973 974 976 977 978 979 981 982 986 987 989 991 994 996 1001 1006 1008 1011 1015 1029 1061 1081 1094 1102 1106 1110 1112 1114 1116 1119 1121 1124 1126 1128 1130 1132 1134 1136 1138 1139 1142 1144 1146 1148 1150 1152 1153 1156 1158 1160 1162 1163 1164 1166 1168 1170 1171 1173 1174 1175 1175 1175 1175 1175 1176 1185 1193 0 0 0 0 0 1834 1843 1844 1846 1850 1853 1853 1853 1855 1857 1859 1861 1863 1864 1865 1866 1866 1866 1865 1864 1864 1864 1864 1864 1864 1864 1865 1865 1865 1862 1848 1822 0 0 0 0 2558 2950 3138 3168 3171 3174 3182 3194 3204 3207 3207 3207 3207 3207 3215 3231 3233 3233 3234 3234 3240 3242 3242 3242 3236 3231 3215 3204 3203 3193 3145 3013 2857 0 0 0 0 0 1641 1633 1633 1631 1631 1629 1629 1629 1627 1625 1622 1620 1617 1613 1610 1607 1606 1605 1603 1601 1599 1596 1593 1590 1585 1581 1578 1573 1570 1568 1565 1562 1558 1552 1549 1545 1544 1541 1540 1539 1537 1532 1532 1531 1531 1528 1525 1525 1525 1526 1527 1528 1530 1532 1535 1538 1539 1541 1544 1544 1547 1549 1553 1554 1554 1555 1557 1558 1562 1564 1566 1567 1569 1571 1575 1578 1579 1583 1583 1583 1582 1579 1578 1578 1577 1577 1577 1575 1571 1566 1561 1557 1553 1548 1546 1543 1538 1534 1531 1528 1525 1523 1521 1516 1512 1508 1506 1504 1502 1498 1494 1487 1487 1487 1494 1503 1510 1513 1514 1515 1521 1528 1537 1544 1550 1552 1553 1557 1563 1565 1570 1572 1572 1572 1569 1565 1562 1558 1555 1553 1551 1549 1547 1545 1542 1539 1537 1529 1518 1513 1509 1506 1505 1502 1501 1498 1493 1488 1485 1481 1476 1470 1465 1461 1457 1451 1443 1435 1429 1427 1426 1426 1424 1418 1416 1413 1413 1410 1408 1408 1405 1404 1399 1390 1383 1381 1381 1381 1381 1381 1381 1379 1373 1371 1369 1355 1348 1341 1331 1329 1325 1321 1315 1305 1300 1294 1290 1289 1286 1282 1267 1254 1246 1243 1236 1229 1218 1203 1188 1183 1183 1178 1174 1171 1165 1140 1134 1116 1102 1102 1102 1105 1105 1105 1091 1070 1061 1059 1052 1043 1022 1008 1006 1006 1008 1008 1017 0
554 554 568 584 607 619 632 648 661 674 684 691 697 704 712 718 725 731 735 740 745 750 754 757 760 764 766 769 772 774 776 777 778 778 778 778 777 776 775 770 761 739 0 682 669 661 659 656 655 655 655 657 658 660 661 661 662 665 673 677 680 682 685 687 690 693 698 702 703 707 708 710 712 715 717 720 721 723 727 731 731 732 734 746 756 771 789 806 821 833 842 845 846 848 850 851 852 854 855 856 858 858 859 861 861 862 862 862 862 862 863 864 866 868 868 868 869 870 871 871 873 874 874 874 874 874 874 876 877 877 877 877 877 874 869 857 847 847 847 852 857 857 858 863 872 877 877 880 881 882 884 885 888 891 895 901 906 907 910 910 910 911 911 913 915 917 918 920 920 922 922 922 913 902 890 880 876 876 875 874 871 867 867 865 864 861 861 861 863 866 870 874 879 882 884 885 886 886 888 892 895 900 909 921 924 941 959 976 988 992 995 998 1000 1002 1005 1006 1008 1012 1013 1015 1017 1019 1021 1023 1025 1025 1027 1029 1030 1033 1033 1034 1034 1034 1035 1035 1035 1031 1023 1014 1007 981 970 968 968 968 970 975 978 979 979 980 981 981 984 987 990 992 994 996 1001 1006 1011 1016 1017 1029 1061 1087 1101 1106 1109 1111 1113 1116 1118 1120 1123 1125 1127 1129 1131 1133 1135 1137 1139 1142 1144 1145 1147 1149 1152 1153 1155 1157 1159 1161 1162 1164 1166 1167 1170 1171 1173 1174 1177 1177 1177 1177 1177 1177 1179 1185 1197 0 0 0 0 0 1834 1842 1844 1845 1848 1853 1853 1854 1856 1857 1859 1861 1863 1864 1865 1866 1866 1866 1866 1865 1865 1865 1865 1865 1865 1866 1866 1866 1866 1862 1859 1842 1842 0 0 0 0 2874 2964 3127 3168 3171 3186 3194 3198 3198 3198 3198 3198 3208 3217 3232 3233 3233 3233 3233 3233 3232 3232 3230 3224 3216 3209 3198 3192 3166 3124 3004 2820 0 0 0 0 0 1642 1640 1634 1632 1631 1629 1629 1629 1627 1624 1621 1618 1615 1612 1609 1607 1605 1603 1601 1600 1599 1596 1593 1590 1585 1581 1574 1572 1569 1568 1566 1564 1562 1560 1556 1550 1544 1541 1540 1539 1537 1533 1532 1532 1531 1528 1525 1525 1525 1526 1527 1528 1529 1530 1532 1534 1537 1541 1544 1544 1547 1549 1552 1554 1554 1555 1557 1558 1561 1562 1563 1566 1567 1569 1571 1573 1575 1577 1581 1581 1581 1578 1577 1577 1577 1577 1577 1575 1570 1566 1561 1557 1553 1549 1546 1543 1537 1534 1531 1527 1525 1523 1521 1516 1512 1507 1506 1503 1499 1494 1489 1485 1485 1485 1494 1503 1510 1512 1513 1513 1521 1528 1538 1547 1550 1552 1553 1557 1563 1565 1567 1570 1570 1570 1568 1564 1561 1558 1555 1553 1552 1550 1547 1545 1542 1539 1537 1529 1520 1517 1514 1511 1509 1507 1502 1498 1490 1486 1481 1476 1471 1466 1461 1456 1450 1450 1443 1435 1429 1425 1425 1423 1421 1417 1416 1413 1413 1411 1408 1408 1405 1404 1399 1391 1385 1383 1382 1382 1382 1382 1382 1380 1373 1369 1363 1352 1348 1341 1331 1329 1325 1321 1312 1304 1301 1300 1292 1290 1286 1284 1279 1261 1254 1245 1241 1229 1218 1203 1189 1186 1186 1183 1174 1174 1171 1171 1143 1116 1094 1092 1092 1092 1092 1092 1071 1066 1061 1055 1045 1025 1006 1003 1001 1001 1003 1003 1006 0
541 541 557 579 600 619 622 644 660 670 680 689 697 704 711 718 725 731 737 741 746 751 754 758 762 764 768 770 772 775 776 777 778 779 779 779 778 776 775 770 761 739 0 679 669 663 660 658 658 658 659 660 662 664 665 665 666 668 674 678 681 684 687 690 695 696 700 705 707 711 713 714 716 718 720 724 727 731 736 738 738 739 741 748 759 775 793 812 823 833 842 844 846 848 850 850 851 852 854 855 856 857 857 859 859 859 859 859 859 859 859 860 863 863 864 864 864 866 868 870 872 872 872 872 871 871 871 873 874 875 875 877 877 877 877 869 869 869 870 871 872 872 873 880 892 892 892 890 890 890 895 897 900 903 909 915 917 918 919 919 920 920 921 921 922 922 922 923 923 923 923 922 914 902 887 877 875 873 871 869 868 864 863 863 860 858 858 858 863 866 870 874 876 882 884 885 885 885 888 892 895 899 908 922 925 941 960 977 988 994 996 999 1001 1004 1005 1008 1010 1012 1014 1016 1019 1020 1022 1024 1026 1027 1028 1030 1033 1034 1035 1036 1036 1037 1037 1037 1036 1032 1024 1014 999 974 965 965 965 967 970 975 978 979 980 980 981 981 984 987 990 994 996 998 1003 1010 1017 1023 1025 1029 1061 1087 1102 1108 1111 1113 1116 1118 1119 1121 1124 1127 1129 1130 1133 1134 1136 1138 1140 1143 1145 1147 1149 1150 1153 1155 1157 1158 1160 1162 1164 1165 1166 1169 1170 1172 1174 1176 1178 1179 1179 1180 1180 1181 1183 1185 1197 0 0 0 0 0 1833 1839 1843 1844 1848 1849 1853 1854 1856 1857 1859 1861 1863 1864 1865 1866 1866 1867 1867 1867 1867 1866 1865 1865 1865 1866 1866 1866 1867 1867 1863 1858 1845 1845 0 0 0 2501 2786 3052 3146 3171 3186 3193 3193 3193 3198 3198 3198 3210 3222 3234 3234 3234 3230 3228 3228 3227 3223 3218 3211 3201 3187 3174 3168 3141 3093 2964 2648 0 0 0 0 1650 1643 1638 1635 1632 1630 1629 1629 1628 1626 1623 1621 1617 1614 1612 1609 1607 1604 1601 1599 1599 1598 1595 1593 1590 1584 1579 1574 1572 1568 1567 1566 1564 1562 1560 1556 1552 1546 1541 1540 1539 1537 1534 1534 1532 1531 1531 1526 1526 1526 1527 1527 1528 1529 1529 1529 1532 1537 1540 1544 1544 1547 1549 1551 1552 1553 1555 1557 1558 1560 1561 1563 1564 1565 1565 1566 1569 1572 1577 1580 1580 1580 1578 1577 1577 1577 1577 1577 1574 1570 1566 1561 1557 1554 1551 1546 1543 1537 1534 1530 1528 1525 1524 1519 1515 1512 1507 1506 1502 1496 1494 1489 1485 1485 1485 1494 1503 1508 1510 1511 1511 1520 1533 1542 1547 1551 1552 1553 1557 1563 1564 1564 1566 1566 1566 1566 1563 1560 1558 1555 1552 1551 1550 1547 1545 1542 1539 1537 1529 1520 1517 1514 1513 1513 1511 1505 1498 1489 1482 1477 1473 1467 1463 1457 1452 1450 1450 1444 1438 1429 1425 1423 1421 1419 1416 1415 1413 1413 1411 1411 1409 1405 1404 1399 1392 1387 1385 1384 1384 1384 1384 1384 1380 1373 1366 1352 1340 1335 1329 1329 1328 1325 1316 1307 1304 1301 1300 1292 1290 1286 1284 1279 1272 1257 1245 1241 1229 1218 1203 1189 1186 1185 1183 1174 1174 1171 1171 1143 1114 1092 1075 1075 1075 1075 1075 1066 1066 1061 1055 1037 1011 997 997 995 995 995 990 980 0
536 536 557 579 600 619 622 644 659 669 679 689 696 704 711 719 726 732 738 742 746 752 755 759 762 765 768 770 773 775 777 778 779 779 779 779 778 776 775 770 761 739 0 679 669 663 660 659 659 659 661 662 665 668 671 672 672 672 677 681 685 689 692 695 695 696 702 706 708 712 717 720 722 725 727 729 732 736 742 744 745 748 751 757 767 781 797 814 823 833 842 842 843 845 847 847 847 849 849 850 853 854 854 854 855 855 855 855 855 855 855 858 859 859 859 859 859 860 863 866 866 866 868 867 868 869 869 870 870 873 873 874 874 878 882 883 883 884 885 886 886 886 888 891 897 900 902 902 905 907 909 909 909 913 917 919 921 922 923 923 924 924 925 925 925 926 926 926 926 926 926 923 915 902 885 877 875 873 871 869 868 863 863 859 859 858 858 858 863 866 870 872 876 880 885 885 886 890 894 896 896 899 906 925 939 948 962 978 989 996 999 1001 1004 1006 1008 1010 1013 1015 1017 1019 1020 1022 1025 1027 1028 1029 1030 1032 1034 1036 1037 1038 1038 1038 1038 1037 1036 1033 1024 1015 997 973 965 965 965 967 970 976 978 980 981 981 981 982 984 987 992 996 997 1001 1005 1011 1017 1029 1036 1041 1064 1088 1104 1109 1113 1115 1118 1119 1122 1123 1125 1128 1130 1132 1134 1135 1138 1140 1141 1143 1146 1148 1150 1152 1154 1156 1159 1159 1161 1163 1165 1167 1168 1170 1173 1174 1175 1177 1178 1181 1181 1182 1183 1183 1184 1188 1197 0 0 0 0 0 1833 1837 1840 1843 1847 1849 1853 1854 1856 1858 1860 1862 1863 1864 1865 1866 1867 1867 1868 1868 1868 1867 1866 1866 1866 1866 1866 1867 1868 1868 1868 1862 1855 1851 1851 0 0 0 2512 2793 3032 3120 3186 3192 3192 3192 3192 3192 3198 3210 3227 3234 3234 3234 3230 3226 3223 3223 3214 3208 3203 3192 3174 3155 3144 3126 3089 2919 0 0 0 0 0 1643 1637 1637 1636 1634 1633 1630 1630 1626 1624 1623 1620 1617 1614 1611 1609 1607 1603 1599 1598 1596 1595 1594 1589 1584 1581 1578 1574 1572 1568 1567 1566 1564 1562 1560 1556 1552 1549 1547 1544 1542 1539 1536 1536 1535 1534 1534 1530 1527 1527 1527 1528 1528 1528 1529 1529 1532 1536 1539 1543 1544 1546 1548 1550 1550 1551 1554 1557 1558 1559 1560 1561 1563 1563 1563 1563 1566 1571 1576 1579 1579 1579 1577 1576 1576 1576 1576 1576 1574 1570 1566 1561 1557 1554 1551 1546 1543 1537 1532 1531 1528 1526 1524 1519 1515 1510 1508 1506 1502 1496 1494 1489 1485 1485 1485 1491 1501 1507 1507 1508 1509 1519 1533 1542 1547 1550 1553 1557 1561 1563 1563 1563 1564 1564 1564 1564 1563 1559 1556 1553 1552 1551 1550 1547 1545 1541 1533 1528 1523 1520 1517 1515 1514 1514 1513 1508 1498 1489 1479 1472 1467 1463 1459 1454 1451 1450 1449 1445 1438 1431 1425 1422 1419 1418 1415 1413 1411 1411 1411 1411 1409 1408 1405 1400 1393 1388 1388 1388 1388 1388 1388 1384 1379 1370 1361 1349 1337 1333 1328 1326 1325 1321 1314 1307 1303 1301 1300 1292 1290 1286 1284 1279 1272 1257 1245 1241 1229 1217 1200 1189 1186 1183 1180 1172 1172 1171 1166 1143 1097 1073 1069 1068 1067 1066 1066 1064 1060 1060 1055 1037 1011 997 986 981 981 980 980 980 0
534 534 557 579 600 619 622 644 659 668 679 689 696 704 711 719 727 733 739 742 747 752 756 760 763 766 769 771 773 776 778 778 779 779 779 779 778 776 774 770 761 739 0 679 669 666 666 665 664 664 664 664 666 672 679 679 679 679 679 684 689 693 695 697 698 699 704 709 711 715 718 723 728 731 734 736 738 743 746 748 751 757 762 768 777 788 800 815 823 832 837 839 839 840 842 844 845 846 846 846 850 852 852 852 851 851 851 851 851 852 853 856 856 856 856 855 855 855 856 859 859 859 859 858 858 859 859 861 861 861 863 866 874 878 886 891 893 893 894 895 897 898 900 902 903 904 907 911 913 914 916 917 917 920 922 925 926 926 926 927 928 929 929 929 929 930 930 930 930 928 928 924 915 902 885 877 875 873 871 869 868 863 863 859 859 859 859 860 864 867 870 872 877 880 885 885 886 892 895 898 899 900 906 925 940 949 968 983 991 998 1002 1004 1007 1009 1010 1013 1015 1017 1018 1021 1023 1025 1026 1028 1030 1032 1032 1034 1036 1037 1038 1040 1040 1040 1040 1040 1039 1036 1029 1014 992 973 965 965 965 967 971 976 979 981 982 983 983 983 984 988 993 996 999 1001 1006 1011 1017 1029 1042 1056 1071 1090 1105 1112 1116 1118 1119 1122 1123 1124 1127 1129 1131 1133 1135 1137 1138 1141 1143 1145 1147 1149 1151 1153 1155 1157 1159 1161 1163 1164 1166 1168 1170 1171 1174 1175 1177 1178 1181 1182 1182 1184 1185 1185 1185 1188 1200 0 0 0 0 1816 1833 1836 1838 1843 1847 1849 1851 1854 1856 1858 1860 1862 1863 1864 1866 1867 1867 1867 1868 1868 1868 1867 1867 1866 1866 1866 1866 1867 1868 1869 1869 1869 1862 1853 1845 1845 0 0 0 2321 2838 3052 3151 3169 3171 3180 3183 3187 3207 3225 3242 3242 3242 3234 3226 3223 3223 3221 3214 3208 3202 3192 3174 3151 3138 3113 3036 2683 0 0 0 0 1650 1645 1643 1643 1643 1641 1637 1633 1630 1626 1624 1623 1620 1617 1614 1611 1609 1607 1603 1599 1596 1593 1592 1588 1582 1579 1577 1576 1574 1572 1568 1566 1563 1563 1561 1559 1556 1552 1549 1548 1546 1546 1545 1544 1542 1541 1538 1534 1532 1529 1529 1529 1528 1528 1528 1528 1528 1531 1535 1539 1543 1544 1546 1548 1549 1549 1550 1554 1557 1558 1558 1558 1560 1560 1560 1561 1561 1563 1567 1574 1575 1576 1576 1576 1575 1575 1575 1575 1575 1573 1569 1564 1561 1557 1554 1551 1545 1540 1537 1532 1531 1528 1526 1524 1519 1515 1510 1508 1506 1502 1495 1492 1489 1486 1486 1486 1489 1496 1500 1501 1502 1508 1519 1533 1542 1546 1550 1553 1557 1561 1562 1563 1563 1564 1564 1564 1564 1562 1558 1555 1553 1552 1550 1548 1546 1543 1539 1532 1528 1523 1520 1517 1516 1515 1515 1514 1508 1496 1484 1475 1470 1465 1461 1457 1454 1450 1449 1449 1445 1438 1433 1425 1421 1419 1416 1415 1412 1411 1411 1411 1410 1409 1408 1405 1401 1395 1395 1395 1393 1393 1393 1389 1383 1376 1361 1353 1347 1337 1333 1328 1325 1324 1320 1312 1306 1301 1300 1290 1284 1283 1282 1282 1278 1272 1257 1243 1238 1227 1215 1200 1183 1180 1175 1172 1170 1168 1165 1165 0 1066 1064 1064 1064 1064 1064 1062 1062 1060 1060 1055 1037 1011 997 986 981 981 980 980 980 0
534 534 557 579 601 622 626 647 659 668 679 689 696 704 711 720 727 734 739 743 748 753 756 761 764 766 770 772 774 776 778 778 779 780 780 780 778 777 774 770 761 742 0 684 677 675 674 674 674 674 672 672 672 681 687 687 687 687 687 688 695 698 700 701 702 707 713 716 717 719 723 728 737 746 746 747 748 750 760 762 764 770 777 777 782 794 806 816 821 828 833 836 836 837 837 839 840 841 843 845 848 848 848 848 845 844 844 844 844 844 844 844 843 843 843 845 845 845 847 845 843 843 843 838 838 838 841 844 845 855 858 866 874 881 892 896 896 897 898 901 903 904 904 906 906 907 909 912 914 916 917 918 919 920 923 925 927 928 928 928 929 931 931 933 933 933 933 933 933 931 930 924 914 901 883 877 875 873 872 871 870 870 864 859 859 859 860 863 866 868 870 872 877 880 885 885 888 892 895 898 899 900 906 934 951 961 974 989 996 1002 1004 1006 1008 1010 1012 1015 1016 1019 1021 1022 1024 1026 1028 1030 1032 1033 1035 1035 1037 1039 1040 1041 1042 1043 1043 1043 1040 1039 1033 1016 990 973 969 969 969 971 972 976 979 981 983 984 985 987 987 991 993 996 999 1001 1007 1011 1017 1030 1051 1070 1082 1093 1105 1113 1117 1120 1121 1123 1124 1126 1129 1131 1133 1134 1136 1138 1141 1142 1143 1146 1149 1150 1153 1155 1156 1159 1161 1162 1163 1165 1167 1169 1171 1173 1176 1177 1178 1179 1182 1183 1184 1184 1185 1185 1186 1188 1203 0 0 0 0 1818 1830 1835 1837 1842 1846 1848 1851 1854 1856 1858 1860 1862 1863 1864 1866 1867 1867 1867 1868 1869 1869 1869 1868 1868 1867 1867 1867 1867 1868 1869 1871 1871 1871 1862 1848 1827 1827 0 0 2077 2589 2855 3062 3127 3140 3150 3183 3202 3230 3243 3243 3243 3239 3226 3223 3223 3221 3221 3214 3208 3201 3191 3173 3150 3127 3073 2842 2394 0 0 0 0 1635 1635 1635 1643 1643 1643 1638 1633 1630 1626 1624 1623 1619 1616 1613 1611 1609 1607 1603 1598 1593 1590 1587 1584 1581 1579 1577 1576 1574 1572 1569 1566 1562 1561 1561 1558 1556 1552 1549 1548 1546 1546 1545 1544 1542 1541 1538 1534 1532 1530 1529 1529 1528 1528 1528 1528 1528 1529 1532 1537 1540 1543 1545 1547 1547 1547 1549 1551 1554 1555 1556 1557 1557 1558 1558 1559 1559 1559 1563 1567 1569 1571 1571 1571 1572 1572 1572 1572 1572 1571 1568 1564 1561 1557 1553 1547 1542 1540 1537 1532 1531 1529 1526 1524 1520 1515 1510 1508 1505 1500 1495 1492 1489 1486 1486 1486 1487 1491 1496 1498 1502 1508 1518 1530 1539 1544 1549 1553 1557 1559 1561 1561 1561 1563 1563 1563 1563 1561 1558 1555 1553 1551 1547 1545 1541 1537 1536 1532 1528 1523 1520 1517 1516 1516 1515 1515 1508 1493 1481 1474 1469 1464 1460 1456 1454 1450 1449 1449 1445 1438 1433 1425 1421 1419 1416 1414 1411 1410 1407 1407 1407 1405 1405 1405 1401 1397 1397 1397 1394 1394 1393 1389 1381 1376 1361 1353 1347 1337 1333 1328 1325 1321 1316 1311 1305 1301 1298 1286 1284 1280 1278 1278 1272 1258 1249 1239 1235 1223 1212 1197 1182 1179 1175 1172 1166 1165 1162 1159 0 1065 1063 1063 1063 1063 1059 1058 1058 1058 1058 1055 1054 1042 1007 986 981 981 980 980 980 0
531 531 559 586 605 625 629 647 659 668 682 691 698 704 712 720 728 734 739 743 749 754 758 761 765 768 770 773 774 777 778 780 780 780 780 780 779 778 774 772 763 750 719 687 684 682 682 682 682 681 681 681 681 691 697 698 698 698 698 698 703 703 703 703 0 0 728 735 739 741 742 743 750 760 762 762 763 778 780 782 783 783 786 788 793 808 814 819 821 825 831 834 835 835 836 837 837 837 837 837 837 837 836 836 834 832 830 830 828 828 825 816 816 816 816 817 819 818 819 820 821 823 823 823 823 823 825 827 844 854 858 866 875 890 897 898 898 899 902 904 905 906 907 909 909 910 910 914 917 918 920 921 921 923 924 925 927 930 931 932 932 933 934 936 936 936 936 936 935 932 930 924 914 899 879 875 874 873 872 871 870 870 867 862 862 862 863 864 867 869 871 874 877 881 885 886 888 892 895 898 899 901 917 935 951 961 980 990 997 1002 1005 1008 1009 1012 1014 1016 1018 1020 1022 1024 1025 1028 1029 1031 1032 1034 1036 1037 1039 1041 1041 1041 1042 1043 1043 1043 1041 1040 1034 1016 990 973 972 972 972 973 973 976 979 981 983 985 988 990 992 994 996 996 999 1001 1007 1011 1017 1031 1057 1081 1092 1096 1105 1113 1118 1121 1124 1125 1127 1129 1130 1132 1134 1136 1138 1140 1142 1144 1146 1148 1150 1151 1153 1156 1158 1159 1161 1163 1165 1166 1169 1170 1172 1174 1177 1178 1180 1181 1184 1184 1185 1185 1185 1186 1187 1190 0 0 0 0 1791 1818 1830 1835 1837 1842 1846 1848 1851 1854 1856 1858 1860 1861 1862 1864 1866 1867 1867 1868 1868 1869 1869 1869 1869 1871 1871 1872 1872 1872 1872 1873 1874 1874 1874 1871 1864 1840 1793 1793 1793 0 0 2679 2844 3052 3100 3145 3175 3205 3230 3243 3243 3243 3233 3225 3225 3225 3221 3221 3218 3209 3200 3191 3173 3145 3114 3053 0 0 0 0 1679 1620 1620 1620 1631 1643 1643 1643 1639 1635 1630 1626 1624 1622 1619 1616 1613 1610 1608 1607 1602 1595 1590 1588 1585 1584 1581 1579 1577 1575 1574 1571 1569 1566 1562 1561 1560 1558 1556 1552 1549 1548 1546 1546 1545 1544 1542 1541 1538 1534 1532 1530 1529 1529 1528 1528 1528 1528 1528 1529 1532 1535 1537 1541 1544 1545 1546 1547 1548 1549 1550 1552 1554 1554 1555 1555 1556 1557 1557 1558 1560 1562 1564 1565 1567 1570 1570 1570 1570 1569 1569 1568 1565 1563 1560 1557 1550 1546 1542 1540 1539 1537 1533 1531 1528 1525 1522 1516 1512 1508 1505 1500 1495 1493 1489 1486 1486 1486 1486 1491 1493 1497 1502 1508 1516 1527 1532 1537 1542 1546 1549 1553 1553 1556 1559 1563 1563 1563 1563 1561 1559 1555 1553 1551 1547 1545 1541 1537 1535 1532 1528 1525 1521 1518 1516 1516 1515 1515 1508 1487 1480 1474 1468 1464 1458 1453 1450 1448 1446 1444 1439 1434 1433 1425 1420 1417 1415 1412 1410 1407 1406 1403 1402 1401 1401 1400 1398 1397 1397 1397 1394 1394 1393 1388 1381 1376 1361 1353 1347 1342 1338 1334 1325 1320 1314 1310 1305 1301 1298 1286 1284 1280 1275 1275 1261 1246 1239 1234 1229 1217 1203 1194 1182 1176 1174 1171 1163 1161 1158 0 1089 1055 1055 1055 1055 1052 1050 1046 1046 1049 1050 1053 1053 1053 1041 1006 997 997 994 980 980 0
531 531 559 589 610 626 631 647 661 670 683 694 698 705 712 720 728 735 741 744 749 754 758 762 765 768 771 773 776 778 779 780 781 781 781 781 781 780 777 773 764 755 726 697 695 694 692 694 695 695 696 702 704 709 711 716 722 722 723 724 726 727 728 729 0 0 755 761 769 771 772 773 776 779 783 786 790 791 791 791 792 796 798 803 810 820 821 821 822 822 824 826 826 826 826 826 824 823 814 814 814 809 809 812 809 809 809 804 800 799 797 792 791 789 788 788 788 787 786 786 786 794 800 803 807 810 810 817 838 852 858 868 880 891 898 898 900 901 904 905 906 908 909 912 913 913 915 917 919 920 922 922 924 925 926 928 930 932 933 934 934 935 936 938 938 938 938 937 937 935 930 924 913 893 871 870 869 869 870 870 870 870 867 865 865 865 865 866 868 870 872 874 878 881 885 887 888 891 894 898 899 901 919 935 953 966 980 991 997 1002 1006 1008 1011 1013 1016 1017 1019 1022 1023 1025 1027 1029 1030 1032 1033 1035 1038 1039 1040 1042 1042 1042 1042 1043 1044 1044 1044 1042 1034 1016 990 974 974 974 975 977 977 977 979 981 983 987 990 992 995 996 996 997 998 1003 1007 1011 1017 1031 1064 1081 1093 1100 1108 1114 1118 1122 1125 1126 1128 1130 1132 1133 1136 1137 1139 1141 1143 1144 1146 1148 1151 1152 1154 1156 1158 1160 1161 1164 1166 1168 1170 1172 1174 1176 1177 1179 1182 1184 1185 1185 1185 1185 1185 1187 1194 1196 0 0 0 0 1810 1826 1830 1835 1837 1842 1846 1848 1852 1854 1856 1858 1860 1861 1862 1863 1865 1866 1867 1868 1868 1869 1870 1870 1871 1872 1872 1872 1872 1872 1873 1873 1874 1874 1874 1873 1871 1855 1825 1809 1809 0 0 0 2637 2766 3031 3127 3174 3205 3230 3232 3232 3232 3227 3226 3226 3226 3226 3226 3224 3210 3200 3182 3161 3130 3075 2964 0 0 0 0 1649 1620 1620 1620 1630 1639 1639 1639 1639 1635 1630 1626 1624 1622 1619 1616 1613 1609 1606 1605 1599 1595 1590 1587 1585 1583 1581 1579 1577 1575 1573 1571 1569 1566 1562 1561 1560 1558 1556 1553 1549 1547 1545 1544 1543 1543 1542 1541 1538 1534 1531 1530 1528 1528 1528 1527 1527 1527 1528 1529 1532 1535 1537 1539 1541 1543 1545 1546 1547 1547 1548 1550 1552 1553 1553 1554 1554 1556 1556 1557 1559 1560 1561 1562 1563 1564 1564 1565 1565 1566 1565 1565 1565 1562 1559 1552 1549 1546 1542 1541 1539 1537 1535 1532 1530 1525 1522 1518 1512 1508 1504 1500 1494 1492 1489 1486 1485 1485 1485 1489 1493 1496 1501 1508 1516 1523 1530 1534 1538 1543 1546 1550 1552 1554 1559 1563 1563 1563 1563 1561 1559 1557 1555 1551 1547 1545 1541 1537 1535 1531 1528 1525 1521 1518 1516 1516 1515 1515 1494 1485 1479 1472 1465 1459 1455 1451 1448 1446 1446 1441 1435 1428 1425 1422 1420 1417 1414 1411 1407 1406 1406 1403 1402 1400 1399 1399 1398 1397 1397 1394 1394 1393 1389 1385 1380 1376 1370 1359 1351 1347 1340 1334 1325 1315 1310 1309 1305 1301 1298 1287 1286 1285 1280 1270 1250 1236 1226 1221 1213 1200 1188 1182 1181 1176 1174 1170 1161 1149 1136 1095 1057 1056 1056 1056 1056 1052 1050 1046 1045 1044 1046 1046 1053 1053 1053 1006 997 997 994 970 970 0
531 531 0 0 617 634 637 652 663 673 685 694 698 705 712 721 730 735 741 744 749 755 758 762 766 769 772 775 776 779 780 781 781 782 782 782 782 782 779 777 775 757 729 710 703 703 702 702 702 702 702 718 727 730 734 739 744 745 745 746 747 752 759 761 769 782 785 787 790 791 791 792 793 793 797 802 807 811 815 815 815 817 817 818 821 825 825 825 821 815 813 810 804 798 797 791 790 790 784 781 781 780 781 781 785 785 785 784 784 782 781 782 783 783 783 783 782 782 782 782 783 786 790 793 798 802 803 812 830 850 863 868 881 893 899 899 901 904 905 907 909 910 913 914 916 917 918 919 922 923 924 925 925 927 928 929 931 933 935 936 936 938 939 940 940 940 939 938 938 937 930 924 913 887 871 870 868 868 870 868 868 868 867 865 865 865 865 868 870 871 874 877 878 881 885 887 888 890 894 898 900 904 923 938 953 970 981 993 999 1003 1008 1011 1013 1015 1017 1019 1020 1023 1025 1026 1028 1030 1032 1033 1035 1037 1038 1040 1042 1042 1043 1043 1043 1044 1044 1044 1044 1042 1033 1014 988 977 977 977 978 979 979 979 979 982 984 987 991 993 997 997 997 997 998 1003 1009 1014 1019 1037 1067 1083 1094 1104 1110 1115 1119 1122 1125 1127 1129 1130 1132 1134 1136 1138 1140 1141 1143 1144 1146 1148 1151 1152 1154 1156 1158 1161 1163 1164 1167 1169 1172 1173 1175 1177 1179 1180 1182 1185 1185 1185 1186 1186 1187 1188 1195 1199 0 0 0 0 1824 1831 1835 1838 1839 1843 1846 1850 1852 1854 1856 1857 1859 1861 1862 1863 1865 1866 1867 1868 1868 1869 1870 1870 1871 1872 1872 1872 1872 1872 1873 1873 1874 1874 1874 1873 1872 1867 1855 1830 1809 1809 0 0 0 2566 2805 3020 3150 3205 3214 3218 3221 3225 3226 3226 3226 3231 3231 3231 3224 3211 3200 3182 3161 3118 3040 2801 0 0 0 0 1630 1620 1620 1620 1628 1629 1638 1638 1638 1635 1630 1626 1623 1621 1619 1616 1612 1609 1606 1603 1599 1595 1590 1587 1585 1583 1581 1579 1577 1575 1573 1571 1569 1566 1563 1561 1560 1558 1556 1553 1550 1547 1545 1543 1541 1540 1539 1539 1536 1534 1531 1530 1527 1526 1526 1526 1526 1527 1529 1530 1532 1535 1537 1538 1540 1541 1543 1545 1545 1545 1547 1549 1551 1551 1552 1553 1554 1555 1556 1556 1557 1558 1558 1558 1559 1560 1561 1562 1563 1565 1565 1565 1563 1560 1553 1549 1548 1546 1544 1542 1539 1537 1535 1532 1530 1525 1522 1519 1515 1508 1503 1499 1494 1492 1489 1486 1484 1484 1484 1488 1492 1495 1501 1507 1515 1523 1528 1534 1538 1543 1546 1549 1551 1553 1556 1561 1562 1562 1562 1561 1558 1557 1555 1553 1551 1547 1543 1539 1535 1531 1528 1525 1521 1518 1516 1515 1513 1502 1492 1485 1479 1472 1465 1457 1451 1447 1446 1445 1444 1440 1434 1428 1423 1422 1420 1417 1414 1411 1407 1406 1406 1404 1404 1400 1398 1398 1397 1394 1392 1391 1391 1388 1383 1379 1377 1376 1370 1361 1352 1348 1341 1335 1325 1315 1310 1310 1309 1302 1294 1288 1287 1285 1280 1262 1247 1230 1212 1206 1187 1187 1181 1179 1176 1172 1170 1167 1153 1108 1095 1091 1057 1056 1056 1056 1056 1052 1050 1045 1044 1041 1041 1041 1053 1053 1053 1006 997 994 956 950 931 0
537 537 0 0 625 640 653 656 668 679 689 694 699 705 716 723 731 736 742 746 750 755 759 763 767 769 772 775 777 779 781 781 783 783 783 783 783 782 782 780 777 763 739 717 717 717 722 726 727 729 729 734 748 752 758 763 763 763 765 765 769 780 786 786 791 799 805 806 806 807 809 809 809 809 815 820 826 827 827 830 831 831 831 833 833 833 832 828 821 812 804 791 778 775 773 771 765 762 761 761 759 758 758 758 762 769 776 779 779 779 780 780 780 782 782 782 782 782 782 782 783 786 790 793 798 799 800 802 825 849 866 870 884 894 899 901 904 906 907 909 910 913 915 916 917 918 920 921 922 924 925 926 928 929 930 931 933 935 936 937 939 940 940 941 941 941 941 939 939 937 931 924 908 879 871 870 868 868 867 867 866 865 865 865 865 866 866 868 870 872 875 877 879 881 884 887 888 890 894 898 903 909 925 940 951 970 988 997 1001 1006 1009 1012 1014 1016 1018 1020 1022 1024 1026 1028 1029 1030 1033 1035 1037 1038 1040 1042 1043 1043 1043 1044 1044 1044 1044 1044 1044 1042 1031 1010 988 979 979 979 981 982 982 983 984 984 987 991 993 996 998 998 998 998 998 1003 1011 1018 1023 1043 1069 1083 1094 1105 1111 1117 1120 1123 1125 1128 1129 1131 1133 1135 1136 1138 1140 1141 1143 1144 1146 1148 1151 1152 1155 1157 1159 1161 1163 1165 1168 1170 1173 1174 1176 1178 1181 1182 1184 1186 1186 1186 1186 1186 1188 1190 1195 1199 0 0 0 0 1824 1831 1838 1842 1845 1845 1847 1850 1852 1854 1855 1856 1858 1861 1862 1863 1865 1866 1867 1868 1868 1869 1870 1870 1871 1872 1872 1872 1872 1872 1873 1873 1873 1873 1873 1874 1873 1872 1872 1859 1826 1826 0 0 0 0 2541 2619 2746 2997 3182 3186 3217 3225 3225 3228 3233 3239 3239 3239 3227 3211 3200 3182 3161 3117 3013 2763 0 0 0 0 1618 1618 1618 1621 1628 1629 1629 1631 1631 1631 1627 1625 1621 1619 1618 1615 1612 1609 1606 1603 1599 1595 1591 1587 1586 1583 1581 1578 1577 1576 1573 1571 1568 1566 1563 1562 1560 1558 1556 1554 1550 1547 1545 1543 1540 1537 1536 1536 1536 1534 1531 1530 1527 1526 1526 1526 1526 1527 1529 1531 1533 1535 1537 1538 1540 1541 1543 1543 1543 1544 1544 1544 1548 1549 1550 1551 1553 1554 1554 1554 1554 1555 1555 1555 1555 1557 1559 1561 1562 1564 1564 1564 1563 1560 1553 1546 1545 1544 1544 1542 1538 1537 1535 1532 1530 1524 1522 1519 1515 1508 1503 1499 1496 1493 1490 1487 1484 1484 1484 1486 1491 1494 1499 1507 1515 1523 1528 1534 1538 1543 1546 1549 1551 1553 1555 1560 1560 1560 1560 1560 1558 1557 1555 1553 1552 1550 1546 1541 1535 1531 1528 1525 1524 1519 1514 1510 1504 1498 1492 1485 1479 1472 1465 1457 1450 1445 1444 1444 1443 1439 1433 1427 1423 1422 1420 1417 1414 1411 1407 1406 1406 1406 1404 1400 1397 1394 1392 1388 1386 1383 1381 1380 1380 1377 1374 1373 1370 1362 1355 1350 1343 1336 1325 1315 1310 1310 1309 1302 1294 1288 1287 1285 1273 1260 1247 1229 1208 1203 1185 1178 1175 1173 1168 1159 1158 1155 1124 1108 1095 1091 1073 1069 1069 1073 1073 1073 1073 1069 1050 1041 1041 1041 1053 1053 1053 1012 975 972 950 928 920 0
539 539 0 0 626 641 656 659 674 684 691 695 700 706 716 725 731 737 742 747 750 755 759 764 767 770 772 775 778 780 781 783 783 784 784 785 784 784 783 782 779 769 753 735 735 735 745 749 750 752 753 755 758 763 769 779 785 786 787 788 795 800 801 802 805 813 817 817 818 820 821 822 823 825 829 835 837 837 838 838 838 839 840 840 840 840 838 832 821 809 799 782 768 766 765 764 761 757 755 753 753 753 753 755 757 760 767 773 776 777 778 779 780 782 782 782 782 782 782 782 783 786 790 793 798 799 800 802 825 849 866 871 885 895 900 903 906 907 909 911 913 915 917 918 919 920 921 923 925 926 927 928 930 930 932 933 934 937 938 938 940 941 942 942 942 942 941 939 939 938 933 924 908 879 875 875 872 868 866 866 866 865 865 865 865 866 867 868 871 873 876 877 880 882 884 887 888 890 895 903 911 912 927 941 953 972 991 1000 1004 1007 1010 1012 1015 1017 1019 1021 1023 1025 1027 1029 1030 1032 1034 1036 1038 1040 1041 1043 1044 1045 1045 1045 1045 1045 1045 1045 1045 1039 1024 998 990 982 982 982 983 987 987 987 987 990 995 997 998 1000 1001 1001 1001 1002 1002 1011 1016 1021 1028 1052 1072 1083 1096 1106 1113 1117 1121 1123 1126 1128 1130 1131 1133 1135 1137 1138 1140 1141 1143 1144 1146 1148 1150 1152 1155 1157 1160 1162 1164 1167 1169 1171 1174 1176 1178 1181 1182 1184 1186 1187 1188 1188 1188 1188 1189 1192 1194 0 0 0 0 0 1824 1831 1838 1842 1845 1845 1847 1850 1852 1852 1854 1856 1858 1861 1862 1863 1865 1866 1867 1868 1868 1869 1870 1870 1871 1871 1871 1871 1871 1871 1871 1871 1871 1871 1872 1873 1873 1873 1873 1867 1840 1825 1825 1825 0 0 0 0 0 2643 3058 3183 3211 3221 3224 3228 3240 3240 3240 3239 3232 3226 3223 3209 3170 3116 3003 2664 0 0 0 0 1618 1618 1618 1622 1627 1628 1629 1629 1627 1627 1626 1624 1620 1618 1615 1614 1611 1608 1605 1603 1600 1598 1596 1590 1586 1583 1579 1578 1577 1576 1573 1570 1568 1566 1563 1562 1560 1558 1556 1554 1551 1548 1545 1543 1540 1537 1536 1535 1535 1534 1531 1530 1527 1526 1526 1526 1526 1527 1529 1531 1533 1535 1537 1538 1540 1541 1543 1543 1543 1542 1542 1542 1543 1547 1549 1551 1552 1553 1553 1553 1553 1554 1554 1555 1555 1556 1557 1558 1561 1564 1564 1564 1563 1560 1553 1546 1545 1545 1544 1542 1538 1536 1535 1532 1528 1523 1522 1519 1515 1509 1503 1499 1497 1493 1490 1489 1487 1485 1485 1485 1489 1491 1495 1506 1515 1523 1528 1533 1538 1543 1547 1549 1551 1552 1553 1554 1557 1560 1560 1560 1558 1557 1556 1554 1552 1550 1548 1543 1536 1531 1528 1525 1524 1519 1514 1510 1502 1497 1492 1487 1483 1476 1468 1457 1450 1445 1444 1444 1441 1437 1433 1427 1423 1422 1422 1421 1417 1412 1408 1406 1406 1406 1404 1400 1397 1393 1388 1388 1386 1383 1377 1377 1377 1375 1374 1371 1370 1364 1355 1351 1343 1336 1332 1323 1312 1311 1310 1302 1294 1288 1284 1283 1270 1260 1247 1229 1208 1203 1185 1177 1170 1166 1160 1152 1146 1145 1124 1108 1105 1103 1099 1099 1099 1095 1087 1084 1073 1069 1050 1035 1035 1035 1049 1049 1049 0 957 953 944 920 920 0
547 547 0 609 629 643 661 664 679 687 691 695 701 708 718 725 732 738 742 747 750 755 760 764 768 771 774 775 779 780 782 784 785 786 786 786 786 786 784 782 781 771 759 750 750 750 750 754 771 772 772 773 776 781 787 796 806 808 808 810 813 816 816 816 819 822 827 829 829 831 832 833 835 836 838 840 840 842 843 843 843 844 846 846 846 844 840 833 821 809 788 773 765 762 761 760 759 756 753 750 750 750 752 754 757 758 763 771 775 775 776 778 780 781 782 782 782 782 783 783 783 786 789 794 799 799 800 802 825 850 868 874 888 897 900 905 908 909 910 913 915 917 917 919 921 922 924 925 926 927 928 930 931 932 933 935 936 937 939 940 941 942 942 943 943 943 941 940 939 939 935 924 896 878 875 875 872 868 866 866 866 866 865 865 866 866 868 870 871 873 876 878 880 882 885 887 888 890 897 906 912 913 930 943 953 974 994 1002 1007 1008 1010 1013 1016 1018 1020 1023 1025 1026 1029 1031 1032 1034 1035 1037 1039 1040 1042 1044 1045 1047 1047 1047 1047 1048 1048 1048 1045 1039 1024 998 990 987 987 987 990 991 991 991 991 995 1000 1002 1002 1003 1005 1005 1005 1007 1007 1015 1019 1023 1033 1060 1073 1089 1104 1109 1113 1117 1121 1123 1127 1129 1130 1131 1133 1135 1137 1138 1140 1141 1143 1144 1146 1148 1149 1152 1155 1157 1160 1163 1166 1168 1170 1173 1176 1178 1179 1181 1184 1185 1188 1189 1190 1190 1191 1191 1191 1192 1195 0 0 0 0 0 1818 1830 1838 1842 1845 1845 1847 1848 1850 1852 1854 1856 1858 1860 1861 1863 1864 1865 1866 1867 1868 1869 1870 1870 1870 1870 1869 1869 1869 1869 1870 1870 1870 1870 1870 1871 1872 1872 1872 1867 1848 1829 1826 1825 1823 0 0 0 0 0 2920 3154 3201 3204 3209 3228 3240 3244 3244 3244 3241 3241 3238 3230 3175 3085 2810 2268 0 0 0 1637 1624 1624 1624 1625 1626 1628 1628 1628 1626 1624 1623 1623 1620 1615 1612 1611 1610 1608 1605 1602 1600 1598 1596 1590 1586 1583 1579 1578 1577 1576 1573 1570 1567 1566 1563 1562 1559 1558 1555 1554 1551 1550 1547 1545 1540 1537 1536 1535 1534 1533 1530 1530 1529 1529 1527 1527 1527 1528 1529 1531 1533 1535 1537 1539 1540 1542 1542 1542 1541 1541 1541 1541 1543 1546 1548 1550 1550 1550 1550 1550 1552 1553 1554 1554 1554 1554 1556 1557 1560 1564 1564 1564 1564 1561 1555 1547 1547 1545 1544 1544 1538 1535 1534 1532 1528 1523 1518 1513 1511 1509 1504 1502 1499 1496 1493 1490 1490 1488 1486 1486 1486 1488 1491 1503 1514 1523 1527 1533 1538 1543 1547 1548 1550 1551 1551 1552 1554 1558 1558 1558 1558 1557 1555 1554 1552 1551 1549 1544 1537 1531 1529 1527 1525 1519 1514 1510 1500 1495 1490 1487 1483 1479 1471 1462 1450 1445 1444 1444 1441 1437 1435 1427 1426 1423 1423 1423 1420 1414 1410 1409 1407 1406 1402 1399 1397 1392 1388 1387 1386 1383 1377 1375 1375 1373 1370 1369 1366 1362 1355 1349 1343 1336 1332 1329 1325 1319 1310 1302 1291 1285 1282 1279 1270 1260 1250 1230 1208 1203 1185 1177 1170 1166 1160 1152 1146 1145 1124 1122 1119 1119 1119 1113 1104 1100 1087 1084 1073 1069 1042 1037 1037 1037 1044 1044 1044 0 957 953 918 915 913 0
551 551 0 613 635 652 668 670 682 689 694 698 703 710 718 725 732 738 743 747 750 756 760 764 768 772 774 777 779 781 783 784 786 787 788 788 788 788 786 785 784 777 769 768 768 768 776 776 776 777 794 795 796 798 801 808 814 820 820 820 822 823 824 825 828 829 830 832 834 834 836 837 839 840 841 841 843 844 845 845 846 847 847 847 847 845 840 833 821 808 781 764 759 757 757 757 756 753 750 749 749 749 751 754 755 756 758 764 768 770 773 775 778 779 780 780 782 782 783 783 783 786 789 794 799 802 808 808 827 853 871 889 893 902 904 907 909 910 912 914 915 918 919 920 922 923 925 926 927 929 930 931 932 933 935 936 937 939 940 942 942 943 943 943 943 943 942 941 940 939 935 921 893 878 875 875 872 868 866 866 866 866 866 866 867 869 870 871 871 873 876 878 880 882 885 887 889 893 899 908 914 915 936 948 953 980 995 1002 1007 1010 1012 1015 1016 1020 1022 1024 1026 1027 1029 1031 1032 1034 1036 1038 1039 1041 1043 1045 1046 1047 1048 1049 1049 1049 1049 1048 1045 1039 1024 998 990 990 990 991 995 995 995 995 995 998 1001 1003 1004 1006 1008 1009 1009 1010 1011 1016 1020 1024 1033 1061 1076 1094 1104 1110 1114 1118 1121 1124 1127 1129 1130 1131 1133 1134 1137 1138 1139 1141 1143 1144 1146 1148 1149 1151 1154 1157 1160 1163 1167 1169 1172 1175 1178 1179 1182 1184 1186 1188 1188 1189 1190 1192 1192 1192 1192 1192 1196 0 0 0 0 0 1815 1829 1835 1838 1840 1843 1846 1848 1850 1851 1854 1856 1858 1859 1861 1862 1864 1864 1866 1867 1868 1868 1869 1869 1869 1869 1869 1869 1869 1869 1868 1868 1868 1868 1868 1869 1870 1870 1870 1867 1848 1830 1827 1826 1825 0 0 0 0 0 2918 3150 3181 3182 3193 3218 3240 3244 3245 3249 3247 3245 3245 3230 3175 2961 2630 2128 0 0 0 1627 1627 1627 1628 1629 1629 1629 1627 1625 1624 1623 1620 1616 1613 1610 1607 1607 1606 1606 1605 1602 1600 1598 1596 1590 1585 1580 1576 1576 1575 1574 1572 1570 1567 1565 1563 1562 1559 1557 1555 1552 1551 1550 1548 1545 1541 1538 1535 1534 1532 1531 1530 1530 1529 1529 1527 1527 1527 1528 1529 1531 1532 1535 1537 1539 1540 1542 1542 1542 1540 1539 1539 1539 1543 1545 1547 1547 1547 1547 1548 1549 1551 1553 1553 1553 1554 1554 1555 1556 1559 1564 1564 1564 1564 1561 1559 1556 1555 1552 1550 1545 1539 1535 1533 1532 1527 1522 1517 1511 1509 1508 1507 1504 1502 1500 1497 1491 1490 1488 1486 1486 1486 1486 1488 1500 1513 1521 1525 1529 1536 1541 1547 1548 1549 1549 1550 1550 1551 1554 1558 1558 1558 1556 1554 1554 1552 1551 1550 1545 1540 1534 1531 1530 1530 1525 1518 1510 1500 1495 1490 1487 1484 1480 1475 1468 1457 1453 1450 1446 1441 1437 1437 1435 1430 1430 1428 1428 1424 1419 1414 1411 1407 1406 1401 1399 1396 1391 1388 1387 1386 1383 1377 1375 1372 1370 1369 1368 1366 1361 1355 1349 1343 1336 1332 1329 1325 1319 1310 1298 1289 1285 1282 1274 1269 1260 1250 1231 1208 1203 1187 1177 1170 1166 1160 1152 1146 1146 1146 1145 1145 1136 1130 1123 1117 1101 1087 1072 1052 1050 1050 1050 1054 1063 1063 1054 1043 0 0 953 920 918 918 0
551 551 0 614 639 658 674 675 688 693 697 700 706 711 718 726 732 738 743 747 751 756 761 765 768 772 775 777 780 782 784 785 787 788 790 791 791 791 791 789 788 788 783 783 783 787 791 791 793 796 797 808 809 809 811 816 821 823 824 825 825 826 828 831 831 832 832 833 834 836 837 839 841 842 843 843 844 845 845 847 847 848 848 848 848 845 840 833 820 803 777 758 755 754 754 754 752 749 746 746 746 746 750 752 752 753 757 759 764 768 771 773 775 778 779 780 782 782 782 782 782 782 788 794 799 802 811 826 838 856 875 890 896 903 906 908 910 912 914 916 917 919 921 922 923 925 926 927 929 930 931 931 933 934 936 937 938 939 940 943 943 944 944 944 944 944 944 941 941 939 933 920 893 874 874 873 872 868 866 866 866 866 866 867 869 870 871 872 872 874 876 878 881 883 885 887 889 896 903 910 916 917 939 952 973 990 996 1002 1007 1011 1014 1016 1018 1021 1023 1025 1027 1029 1030 1032 1033 1035 1037 1039 1040 1041 1044 1045 1047 1048 1049 1049 1050 1050 1049 1049 1045 1038 1023 999 992 992 992 995 998 999 999 1000 1000 1001 1003 1005 1008 1008 1009 1013 1015 1016 1018 1020 1020 1024 1037 1062 1081 1094 1105 1110 1119 1119 1122 1124 1127 1129 1131 1131 1133 1134 1136 1137 1139 1140 1142 1144 1146 1148 1149 1150 1153 1157 1160 1163 1167 1170 1173 1176 1179 1181 1183 1185 1187 1188 1188 1189 1192 1192 1192 1192 1192 1192 1202 0 0 0 0 1786 1800 1816 1829 1833 1836 1840 1846 1848 1849 1851 1853 1856 1858 1859 1860 1862 1862 1864 1865 1867 1867 1868 1868 1868 1868 1868 1868 1868 1868 1868 1868 1868 1868 1868 1868 1868 1869 1869 1869 1862 1848 1830 1830 1827 1826 0 0 0 0 0 2912 3132 3177 3182 3193 3218 3245 3246 3252 3253 3252 3247 3247 3230 3170 2912 2306 1988 0 0 1625 1621 1621 1621 1632 1632 1632 1629 1625 1622 1618 1613 1611 1610 1609 1609 1607 1603 1603 1603 1601 1597 1595 1593 1589 1584 1580 1574 1570 1570 1570 1570 1570 1569 1565 1564 1563 1561 1559 1556 1553 1552 1551 1550 1549 1547 1544 1542 1538 1534 1530 1529 1529 1529 1529 1529 1527 1527 1527 1528 1529 1531 1532 1534 1537 1539 1541 1542 1542 1542 1539 1539 1539 1539 1542 1544 1545 1545 1545 1547 1548 1549 1551 1552 1553 1553 1553 1553 1553 1554 1556 1564 1564 1564 1564 1561 1560 1559 1558 1558 1554 1550 1540 1534 1533 1530 1527 1522 1516 1511 1509 1509 1508 1506 1504 1502 1497 1492 1490 1488 1487 1487 1487 1487 1488 1496 1509 1517 1522 1525 1529 1534 1538 1543 1543 1543 1545 1545 1545 1551 1555 1556 1556 1556 1555 1555 1553 1551 1550 1546 1542 1537 1535 1535 1534 1530 1525 1515 1500 1495 1490 1487 1485 1481 1475 1470 1463 1462 1458 1453 1449 1443 1440 1439 1439 1436 1435 1431 1429 1423 1417 1411 1407 1405 1401 1399 1395 1390 1387 1386 1386 1385 1380 1375 1372 1370 1369 1368 1365 1358 1355 1349 1344 1337 1332 1329 1325 1319 1303 1292 1288 1284 1278 1271 1269 1260 1250 1231 1225 1205 1195 1186 1177 1171 1162 1153 1153 1152 1151 1151 1145 1138 1132 1123 1117 1101 1079 1059 1052 1049 1049 1049 1060 1060 1060 1047 1034 1012 0 0 920 918 918 0
554 554 0 614 643 663 678 680 690 696 698 703 707 711 719 726 732 739 744 748 752 757 761 765 768 773 776 779 781 783 784 786 788 790 791 792 793 793 793 793 792 792 792 793 795 799 802 804 805 809 809 810 811 814 816 819 822 823 825 826 826 828 830 833 833 834 835 835 836 838 839 841 842 844 845 846 846 847 849 849 849 849 849 849 848 845 840 832 819 795 770 756 751 750 749 748 747 745 745 745 745 745 747 750 751 752 755 759 762 765 769 771 773 775 777 778 778 778 778 777 777 777 780 785 793 802 812 826 842 860 879 891 897 903 906 908 910 913 915 917 918 920 922 923 924 926 928 928 930 930 931 933 934 935 936 937 938 941 942 943 944 945 945 945 945 945 945 943 942 940 933 920 891 873 872 872 871 868 867 866 866 866 866 867 869 872 872 874 874 874 876 878 881 883 885 887 889 896 904 912 918 924 939 961 975 990 997 1003 1008 1012 1015 1017 1019 1022 1024 1026 1027 1029 1031 1033 1034 1036 1037 1039 1040 1042 1044 1045 1047 1048 1050 1050 1050 1050 1049 1049 1045 1038 1023 1003 994 994 994 997 1000 1002 1002 1002 1002 1002 1004 1008 1010 1010 1011 1014 1020 1025 1027 1029 1029 1030 1046 1073 1090 1100 1105 1110 1120 1121 1123 1124 1127 1129 1131 1131 1132 1132 1133 1135 1138 1139 1140 1142 1145 1147 1148 1149 1151 1154 1158 1163 1167 1170 1173 1177 1180 1183 1185 1186 1188 1188 1189 1189 1194 1194 1194 1193 1193 1193 0 0 0 0 0 1789 1800 1810 1821 1831 1834 1840 1845 1847 1849 1851 1853 1854 1856 1857 1859 1861 1862 1864 1865 1866 1866 1866 1867 1867 1867 1868 1868 1868 1868 1868 1867 1867 1867 1867 1867 1867 1866 1866 1860 1854 1841 1832 1832 1832 0 0 0 0 0 0 2912 3132 3177 3182 3193 3218 3245 3253 3253 3253 3253 3252 3247 3223 3135 2766 0 0 0 0 1610 1610 1610 1623 1632 1632 1632 1627 1624 1621 1618 1613 1611 1610 1609 1609 1607 1603 1601 1600 1598 1593 1591 1588 1583 1579 1576 1571 1570 1570 1570 1568 1567 1567 1565 1562 1562 1560 1557 1555 1553 1551 1551 1550 1549 1547 1545 1542 1538 1533 1530 1528 1528 1528 1528 1528 1528 1528 1528 1528 1529 1531 1532 1534 1536 1539 1541 1541 1541 1541 1539 1537 1537 1537 1539 1543 1544 1545 1545 1546 1547 1549 1550 1551 1551 1552 1552 1552 1549 1549 1549 1553 1556 1558 1559 1559 1559 1559 1559 1558 1554 1550 1541 1534 1530 1529 1525 1520 1515 1511 1510 1509 1508 1508 1505 1502 1497 1492 1490 1487 1487 1487 1487 1487 1488 1493 1499 1504 1509 1515 1523 1529 1534 1539 1539 1539 1539 1539 1542 1548 1550 1553 1555 1555 1555 1555 1554 1551 1551 1548 1548 1548 1546 1544 1539 1535 1528 1520 1512 1503 1491 1489 1486 1481 1477 1473 1467 1467 1466 1462 1455 1448 1445 1445 1444 1444 1440 1437 1431 1424 1418 1412 1408 1405 1401 1399 1390 1389 1386 1385 1385 1385 1383 1377 1372 1370 1369 1362 1357 1354 1350 1349 1344 1337 1332 1323 1317 1313 1301 1292 1287 1284 1276 1269 1263 1259 1250 1231 1225 1208 1207 1201 1200 1187 1165 1155 1154 1153 1152 1152 1146 1141 1137 1123 1119 1100 1075 1059 1052 1049 1049 1049 1060 1060 1060 1047 1034 1012 1010 0 0 0 956 0
559 559 0 618 645 664 679 689 691 696 700 703 708 714 719 726 732 739 744 749 755 758 762 767 770 773 777 779 782 784 786 788 790 790 793 793 795 795 796 796 796 798 799 800 802 805 808 809 811 813 814 814 815 815 819 821 823 825 827 828 829 830 831 833 834 835 836 837 838 839 841 842 844 845 847 848 849 849 850 850 851 851 851 850 848 845 840 832 819 792 770 754 749 747 745 744 742 742 742 743 744 745 746 748 751 752 755 758 761 764 767 770 771 773 774 775 775 775 775 775 775 776 780 785 793 799 812 827 846 866 880 893 900 903 907 909 911 914 915 917 919 921 922 924 925 927 928 929 930 931 933 933 935 936 937 938 940 941 942 944 945 945 946 946 946 946 945 944 942 940 931 916 891 873 871 869 869 867 867 866 866 866 866 868 870 873 875 875 876 878 878 878 881 883 885 886 889 896 905 912 918 928 941 963 979 990 998 1003 1009 1012 1015 1017 1020 1023 1026 1027 1028 1030 1032 1033 1034 1036 1037 1039 1041 1042 1044 1045 1047 1048 1050 1050 1050 1051 1050 1050 1045 1038 1023 1003 995 995 995 997 1000 1003 1005 1005 1006 1006 1008 1010 1010 1011 1012 1015 1021 1031 1039 1042 1046 1051 1062 1081 1099 1105 1109 1111 1120 1123 1123 1124 1127 1129 1129 1130 1130 1130 1131 1131 1131 1133 1136 1138 1140 1142 1144 1147 1151 1154 1157 1162 1167 1172 1175 1179 1182 1184 1186 1188 1189 1190 1190 1192 1195 1197 1200 1200 1205 1208 0 0 0 0 0 1790 1800 1810 1818 1829 1833 1839 1845 1847 1849 1850 1851 1853 1855 1857 1858 1860 1862 1864 1865 1865 1866 1866 1866 1866 1866 1867 1867 1867 1867 1867 1867 1867 1866 1866 1866 1866 1866 1865 1853 1837 1834 1832 0 0 0 0 0 0 0 0 2912 3132 3177 3190 3200 3223 3246 3253 3253 3253 3253 3252 3247 3178 2930 2548 0 0 0 1645 1609 1609 1609 1623 1632 1632 1632 1627 1624 1621 1618 1613 1611 1610 1609 1609 1607 1603 1601 1599 1596 1593 1591 1588 1582 1578 1573 1571 1570 1569 1569 1568 1567 1567 1565 1562 1561 1560 1557 1555 1553 1550 1549 1549 1549 1547 1545 1542 1538 1533 1530 1528 1528 1528 1528 1528 1528 1528 1529 1530 1531 1531 1532 1534 1536 1538 1540 1541 1541 1541 1538 1536 1535 1535 1535 1541 1544 1544 1545 1546 1547 1548 1549 1549 1549 1550 1550 1550 1548 1548 1548 1551 1555 1558 1559 1559 1559 1559 1559 1558 1554 1550 1541 1534 1530 1527 1525 1520 1514 1511 1511 1511 1510 1509 1506 1502 1498 1492 1489 1487 1487 1487 1487 1487 1487 1493 1499 1502 1508 1514 1519 1526 1531 1534 1534 1534 1535 1536 1541 1545 1547 1550 1551 1554 1554 1554 1554 1553 1553 1553 1553 1552 1552 1550 1546 1535 1528 1520 1513 1507 1504 1501 1498 1492 1486 1477 1475 1472 1470 1467 1459 1452 1449 1448 1448 1448 1444 1441 1433 1425 1418 1412 1408 1405 1401 1399 1390 1388 1385 1385 1384 1384 1383 1380 1377 1374 1369 1362 1357 1353 1350 1349 1344 1339 1332 1320 1314 1308 1299 1292 1287 1283 1275 1263 1251 1244 1242 1230 1225 1214 1210 1209 1201 1187 1171 1155 1155 1153 1152 1152 1148 1144 1137 1123 1119 1093 1075 1059 1056 1052 1052 1052 1060 1060 1060 1047 1034 1032 1032 1027 1025 1020 973 0
569 569 0 625 649 665 680 689 691 697 701 703 709 714 719 727 733 740 745 750 755 759 763 767 771 774 777 779 782 784 787 789 791 792 793 794 795 797 798 799 800 802 803 804 806 808 809 811 813 815 816 817 818 819 821 823 824 826 828 830 830 832 833 834 836 837 838 839 839 841 842 844 846 847 848 850 850 851 852 852 852 852 852 850 849 847 840 832 819 792 769 753 748 746 744 744 741 741 741 741 744 744 745 747 749 752 755 758 759 762 765 767 769 771 772 773 774 775 775 775 775 776 780 785 791 799 812 830 848 866 881 894 901 905 907 910 912 915 916 918 920 922 923 925 927 927 929 930 932 932 934 935 936 937 938 939 941 942 944 945 945 946 946 946 946 946 946 944 942 939 930 912 887 873 871 866 866 866 866 866 866 866 866 868 871 873 876 876 876 879 879 879 882 883 884 885 889 896 905 912 920 935 945 963 979 992 1003 1007 1009 1013 1015 1018 1021 1023 1026 1027 1029 1030 1032 1033 1034 1036 1038 1039 1041 1042 1044 1045 1047 1048 1050 1051 1051 1052 1051 1051 1048 1038 1023 1003 996 996 996 998 1000 1003 1008 1011 1012 1012 1013 1013 1015 1018 1019 1021 1026 1033 1045 1053 1055 1055 1063 1081 1099 1106 1109 1111 1120 1123 1123 1124 1127 1127 1127 1127 1127 1129 1129 1129 1129 1132 1133 1134 1138 1138 1139 1140 1150 1154 1156 1162 1167 1174 1177 1181 1183 1185 1187 1189 1191 1192 1193 1194 1195 1197 1200 1205 1217 1218 0 0 0 0 0 1803 1807 1810 1816 1820 1832 1839 1845 1846 1848 1849 1850 1851 1854 1856 1857 1860 1861 1863 1864 1864 1864 1865 1865 1865 1865 1865 1865 1866 1866 1866 1866 1866 1866 1866 1866 1866 1866 1862 1852 1830 1830 0 0 0 0 0 2538 2647 2652 2789 3052 3155 3199 3203 3212 3233 3246 3253 3253 3253 3252 3250 3229 3141 2877 0 0 0 1676 1623 1610 1610 1610 1632 1632 1632 1632 1626 1623 1621 1619 1615 1614 1612 1611 1610 1608 1604 1601 1599 1596 1592 1590 1587 1581 1577 1573 1571 1569 1569 1569 1568 1566 1566 1564 1562 1561 1559 1557 1555 1553 1550 1549 1548 1548 1547 1544 1542 1536 1533 1530 1529 1529 1528 1528 1528 1529 1529 1529 1530 1531 1531 1532 1534 1536 1537 1539 1540 1540 1540 1538 1535 1530 1530 1530 1537 1543 1543 1544 1545 1546 1547 1547 1548 1548 1549 1549 1549 1548 1548 1548 1550 1554 1556 1559 1559 1559 1559 1559 1558 1553 1549 1541 1534 1530 1527 1525 1520 1514 1513 1513 1512 1512 1510 1507 1503 1498 1493 1489 1487 1486 1483 1483 1483 1486 1492 1499 1501 1501 1512 1518 1522 1526 1530 1530 1531 1531 1535 1539 1542 1545 1547 1550 1554 1554 1554 1554 1553 1553 1553 1553 1553 1552 1550 1546 1535 1528 1520 1513 1507 1504 1504 1501 1497 1490 1484 1478 1473 1470 1467 1462 1456 1451 1449 1448 1448 1444 1441 1433 1425 1419 1413 1408 1405 1401 1399 1390 1388 1384 1384 1383 1382 1382 1382 1379 1375 1370 1362 1357 1353 1350 1346 1344 1339 1331 1320 1310 1301 1296 1292 1287 1279 1269 1260 1251 1241 1235 1230 1225 1216 1212 1212 1205 1197 1172 1157 1157 1157 1153 1153 1153 1144 1137 1125 1119 1093 1075 1063 1062 1056 1056 1056 1060 1060 1060 1048 1039 1039 1039 1039 1035 1020 973 0
572 572 0 630 652 669 680 689 691 697 701 705 709 715 721 728 735 740 746 751 756 760 764 768 772 774 778 780 783 786 788 790 792 793 794 795 797 799 800 802 803 804 806 807 809 810 812 812 815 817 818 820 820 822 824 825 826 828 829 831 832 833 835 836 838 839 839 841 841 843 844 845 847 848 850 852 852 853 853 854 854 854 854 853 851 848 841 834 820 791 766 753 748 746 744 743 741 741 741 741 742 743 743 744 747 750 753 755 758 759 763 765 768 770 772 773 773 774 775 775 777 779 781 784 791 799 815 831 849 867 882 896 902 905 907 911 914 916 918 919 921 922 924 926 927 928 930 931 932 934 935 935 936 938 939 940 942 943 944 946 946 947 947 947 947 947 946 945 942 939 930 912 886 873 871 866 866 866 866 866 866 866 867 869 871 874 878 879 879 880 880 880 883 883 884 885 889 896 904 912 921 935 947 967 981 996 1005 1008 1010 1013 1016 1018 1021 1023 1026 1027 1029 1030 1032 1033 1035 1036 1038 1040 1041 1042 1043 1045 1047 1048 1050 1052 1052 1052 1052 1052 1049 1038 1023 1003 1000 1000 1000 1000 1001 1006 1013 1017 1020 1020 1020 1020 1020 1026 1033 1036 1038 1040 1052 1059 1061 1062 1066 1085 1099 1106 1109 1111 1120 1123 1123 1123 1123 1122 1122 1123 1126 1128 1128 1128 1129 1130 1133 1133 1133 1134 1135 1139 1147 1153 1156 1162 1168 1175 1180 1183 1184 1186 1187 1190 1192 1193 1193 1194 1196 1198 1201 1209 1220 0 0 0 0 0 1809 1812 1814 1816 1816 1820 1828 1838 1842 1844 1845 1847 1849 1851 1853 1854 1856 1858 1861 1861 1862 1862 1862 1862 1863 1863 1863 1863 1864 1864 1864 1865 1865 1865 1865 1865 1867 1867 1864 1862 1835 1835 0 0 0 0 2642 2713 2965 3011 3037 3141 3175 3213 3214 3216 3217 3233 3248 3248 3248 3246 3240 3236 3215 3128 2827 0 0 0 1655 1623 1623 1623 1633 1637 1637 1637 1630 1626 1622 1621 1619 1617 1615 1614 1611 1610 1608 1604 1600 1597 1595 1592 1590 1585 1580 1575 1573 1571 1569 1569 1569 1568 1566 1565 1564 1564 1561 1559 1558 1556 1554 1550 1548 1547 1546 1544 1543 1540 1535 1533 1531 1530 1529 1529 1529 1529 1529 1529 1530 1530 1530 1531 1532 1534 1534 1535 1536 1536 1536 1536 1535 1525 1525 1525 1527 1534 1539 1543 1544 1545 1545 1545 1545 1545 1545 1545 1546 1546 1546 1546 1546 1550 1553 1554 1559 1559 1559 1559 1556 1554 1553 1549 1542 1536 1531 1527 1526 1521 1515 1515 1513 1513 1512 1510 1507 1503 1498 1493 1490 1487 1486 1483 1483 1483 1483 1489 1496 1501 1501 1512 1515 1519 1522 1524 1526 1527 1529 1532 1535 1538 1540 1544 1549 1554 1554 1554 1554 1553 1553 1553 1553 1553 1552 1550 1546 1535 1526 1519 1513 1508 1506 1505 1503 1497 1491 1485 1478 1475 1471 1467 1462 1457 1452 1449 1449 1448 1444 1441 1434 1430 1423 1419 1412 1407 1404 1400 1395 1388 1383 1383 1383 1382 1382 1382 1379 1375 1372 1367 1357 1354 1348 1346 1344 1339 1331 1312 1295 1293 1291 1286 1286 1277 1267 1260 1251 1241 1235 1230 1226 1223 1219 1212 1205 1197 1172 1168 1159 1158 1156 1156 1156 1148 1139 1127 1116 1087 1084 1083 1076 1073 1060 1060 1060 1060 1060 1049 1040 1040 1040 1040 1038 1020 992 0
572 572 0 630 654 670 679 689 691 697 702 706 711 717 723 730 736 742 746 752 757 760 765 768 772 776 778 782 784 786 788 791 793 795 796 798 799 801 802 803 805 807 807 809 811 812 814 814 816 818 819 820 822 824 825 826 827 830 831 832 834 835 836 838 839 840 841 842 843 844 846 847 849 850 851 852 854 854 854 854 854 854 854 853 852 850 843 837 820 789 766 753 748 746 743 742 741 740 740 740 740 741 741 742 745 748 750 752 754 757 760 763 766 769 771 772 772 774 775 777 780 780 781 785 792 802 816 831 850 869 883 896 903 905 909 913 915 917 919 920 922 924 925 927 928 929 930 931 933 934 935 936 938 938 940 942 943 944 945 946 947 947 947 947 947 947 947 945 942 938 930 910 886 873 872 866 865 865 865 866 866 867 868 871 872 876 879 881 881 882 882 884 884 885 887 887 891 896 904 911 921 938 950 969 986 997 1005 1009 1010 1014 1016 1019 1021 1023 1026 1027 1029 1030 1032 1033 1035 1036 1038 1040 1041 1042 1043 1045 1046 1048 1049 1052 1054 1054 1054 1054 1051 1040 1024 1011 1007 1007 1007 1007 1007 1012 1017 1022 1025 1025 1025 1025 1025 1033 1048 1052 1057 1062 1066 1066 1069 1071 1076 1085 1099 1103 1106 1108 1113 1113 1113 1112 1112 1112 1113 1119 1119 1119 1119 1119 1119 1126 1131 1131 1131 1132 1132 1135 1147 1152 1156 1164 1171 1175 1182 1185 1187 1188 1189 1191 1193 1194 1194 1195 1196 1199 1202 1209 1221 0 0 0 0 0 1818 1819 1819 1819 1819 1820 1828 1833 1837 1841 1845 1847 1849 1850 1852 1854 1855 1857 1858 1859 1860 1861 1861 1862 1862 1862 1862 1862 1862 1863 1864 1864 1865 1865 1865 1865 1866 1866 1864 1846 1846 0 0 0 0 2860 2962 3054 3119 3150 3187 3203 3228 3228 3228 3228 3228 3234 3248 3248 3248 3246 3236 3214 3165 2923 0 0 0 0 1655 1625 1625 1625 1633 1633 1633 1633 1627 1623 1622 1620 1619 1617 1615 1614 1611 1610 1608 1604 1600 1596 1592 1590 1587 1584 1578 1574 1571 1570 1569 1569 1568 1568 1566 1565 1564 1564 1562 1559 1558 1556 1554 1551 1548 1547 1544 1543 1541 1538 1535 1533 1531 1530 1530 1530 1530 1530 1530 1530 1529 1529 1529 1530 1533 1534 1534 1534 1534 1534 1533 1533 1530 1525 1525 1525 1526 1532 1536 1540 1542 1542 1542 1541 1540 1540 1541 1541 1542 1542 1542 1542 1543 1543 1549 1554 1559 1559 1559 1558 1555 1553 1552 1549 1548 1544 1538 1534 1532 1528 1521 1517 1515 1514 1514 1513 1509 1504 1500 1495 1490 1487 1484 1483 1482 1482 1482 1483 1490 1494 1500 1507 1511 1515 1518 1521 1522 1523 1524 1528 1532 1534 1536 1539 1542 1548 1549 1551 1551 1551 1551 1551 1550 1544 1540 1540 1540 1535 1526 1519 1513 1509 1508 1506 1503 1498 1492 1485 1480 1475 1472 1467 1462 1458 1452 1450 1449 1448 1444 1440 1434 1430 1423 1421 1418 1412 1409 1406 1400 1390 1383 1381 1381 1381 1381 1381 1379 1375 1372 1367 1358 1355 1348 1348 1344 1335 1289 1289 1286 1286 1286 1286 1286 1277 1266 1256 1253 1241 1235 1230 1226 1226 1219 1212 1201 1192 1190 1178 1159 1158 1156 1156 1156 1148 1140 1135 1116 1087 1085 1085 1076 1073 1068 1068 1068 1068 1068 1054 1044 1044 1044 1044 1039 1020 992 0
573 573 0 631 655 670 679 689 691 697 703 707 712 717 723 731 738 743 747 752 758 761 765 770 774 777 780 783 786 787 789 791 794 795 797 799 801 802 804 805 806 808 809 810 811 813 815 816 817 819 821 822 824 825 826 828 829 831 832 834 835 836 838 839 840 841 843 844 845 847 847 849 850 851 852 854 855 855 855 855 855 855 855 854 853 850 844 839 820 789 762 753 747 744 743 741 741 740 740 739 740 740 740 741 743 746 747 749 752 756 760 762 766 769 771 772 772 774 775 779 781 781 782 786 792 803 816 831 850 871 885 898 904 906 909 913 917 918 920 921 923 924 925 927 929 930 931 932 934 935 936 937 938 939 940 942 943 945 946 947 948 948 948 948 948 948 947 945 942 938 929 910 886 873 872 866 864 864 864 866 866 867 869 871 874 877 880 883 883 884 884 888 888 889 890 891 892 896 904 911 922 938 955 972 987 998 1007 1009 1013 1015 1016 1019 1021 1023 1025 1027 1029 1030 1032 1033 1035 1036 1038 1040 1041 1042 1043 1045 1045 1046 1049 1053 1054 1054 1054 1054 1052 1041 1030 1018 1018 1018 1018 1019 1019 1019 1023 1028 1032 1032 1033 1033 1033 1049 1062 1077 1078 1078 1083 1083 1083 1088 1091 1092 1099 1102 1106 1107 1107 1107 1109 1107 1107 1107 1105 1102 1102 1102 1102 1104 1106 1111 1115 1118 1120 1122 1123 1126 1137 1152 1156 1164 1173 1178 1184 1187 1189 1191 1192 1193 1194 1194 1195 1196 1198 1199 1209 1213 0 0 0 0 0 1817 1819 1822 1822 1822 1822 1824 1828 1832 1837 1841 1844 1847 1849 1850 1851 1853 1854 1856 1857 1858 1859 1859 1860 1861 1861 1861 1861 1861 1862 1862 1863 1863 1864 1864 1864 1864 1864 1858 1846 1846 0 0 0 0 2632 2996 3139 3168 3189 3207 3226 3246 3246 3246 3244 3240 3240 3240 3248 3248 3248 3245 3231 3196 3080 0 0 0 0 0 1641 1625 1625 1625 1633 1633 1633 1633 1626 1620 1620 1619 1618 1617 1615 1611 1609 1608 1606 1604 1599 1594 1587 1584 1582 1579 1575 1571 1570 1570 1569 1569 1568 1568 1566 1565 1565 1564 1563 1560 1558 1556 1554 1551 1549 1547 1544 1541 1540 1538 1535 1533 1532 1530 1530 1530 1530 1530 1530 1530 1529 1529 1529 1530 1532 1534 1534 1534 1529 1529 1529 1529 1527 1524 1524 1524 1525 1527 1534 1539 1539 1539 1537 1536 1536 1536 1536 1537 1538 1538 1538 1538 1538 1538 1541 1552 1555 1556 1556 1556 1554 1552 1552 1550 1548 1544 1538 1534 1532 1528 1522 1518 1516 1515 1514 1513 1509 1504 1500 1495 1490 1486 1484 1483 1481 1481 1481 1481 1485 1489 1493 1500 1504 1510 1513 1516 1517 1518 1521 1525 1527 1531 1533 1535 1539 1539 1542 1542 1542 1542 1541 1538 1530 1530 1530 1531 1531 1531 1524 1517 1513 1509 1508 1506 1504 1500 1492 1487 1481 1475 1472 1470 1466 1460 1454 1450 1449 1448 1445 1440 1434 1430 1423 1421 1419 1415 1411 1407 1400 1392 1383 1381 1380 1376 1376 1374 1373 1372 1372 1367 1360 1356 1348 1348 1344 1334 1289 1289 1286 1285 1285 1284 1284 1276 1265 1258 1253 1247 1236 1233 1229 1226 1219 1212 1198 1193 1192 1179 1155 1155 1155 1153 1153 1148 1145 1136 1116 1089 1085 1085 1077 1073 1068 1068 1068 1068 1068 1060 1048 1046 1046 1045 1041 1020 992 0
