842 842 867 899 926 944 945 951 951 951 951 943 913 913 913 912 910 888 853 852 834 834 834 834 827 827 827 838 839 0 0 0 0 0 0 0 0 0 0 0 0 0 0 0 0 852 832 825 822 806 799 787 778 778 778 781 790 799 808 819 826 833 852 855 868 880 880 880 0 0 0 0 0 0 604 595 595 595 594 594 594 593 588 588 588 593 595 595 595 585 585 584 572 557 552 552 552 557 560 561 563 572 578 585 598 619 0 0 0 761 771 773 773 777 789 809 0 0 0 0 0 0 1541 1562 1570 1585 1601 1611 1620 1630 1637 1641 1644 1644 1646 1649 1652 1653 1655 1656 1658 1658 1660 1661 1663 1664 1665 1665 1666 1667 1668 1670 1671 1672 1673 1674 1675 1677 1679 1681 1682 1683 1684 1685 1685 1686 1687 1687 1688 1688 1689 1690 1691 1692 1693 1694 1695 1696 1697 1698 1698 1699 1701 1702 1702 1702 1702 1701 1698 1690 1674 1601 0 0 0 0 0 0 900 891 876 866 865 865 864 864 858 851 848 848 848 852 854 857 861 873 0 0 0 0 0 0 0 0 0 0 0 0 0 0 0 858 858 858 863 886 912 912 912 909 895 895 895 897 0 0 0 0 0 0 0 0 0 0 0 0 0 0 0 0 0 0 0 0 0 0 0 0 0 0 0 0 0 0 0 0 0 0 0 0 0 0 0 0 1660 1640 1615 1602 1596 1592 1592 1591 1590 1588 1586 1584 1582 1579 1577 1575 1572 1570 1568 1567 1565 1562 1559 1557 1554 1552 1549 1546 1543 1542 1540 1539 1536 1534 1533 1531 1530 1528 1527 1525 1524 1522 1520 1518 1517 1516 1515 1513 1512 1511 1509 1509 1508 1507 1505 1504 1504 1503 1503 1502 1502 1501 1501 1499 1499 1498 1497 1496 1496 1496 1495 1495 1494 1493 1493 1493 1492 1492 1492 1491 1491 1491 1490 1489 1489 1488 1488 1486 1486 1485 1483 1483 1481 1481 1479 1479 1479 1480 1480 1480 1480 1480 1481 1481 1482 1482 1483 1483 1483 1482 1482 1481 1481 1481 1481 1481 1481 1481 1481 1481 1481 1480 1480 1480 1479 1479 1479 1479 1478 1478 1478 1478 1478 1478 1478 1478 1478 1478 1478 1479 1479 1479 1480 1480 1481 1481 1482 1482 1482 1482 1483 1483 1484 1484 1484 1484 1484 1484 1483 1483 1483 1483 1483 1482 1482 1482 1482 1481 1481 1481 1481 1481 1481 1481 1481 1481 1481 1481 1481 1481 1481 1481 1481 1479 1478 1477 1476 1475 1473 1472 1470 1469 1467 1465 1464 1463 1462 1461 1459 1459 1458 1457 1455 1455 1455 1455 1455 1456 1457 1458 1459 1460 1463 1466 1468 1469 1470 1471 1471 1472 1472 1472 1473 1473 1474 1474 1474 1474 1475 1476 1476 1477 1478 1480 1481 1482 1483 1483 1484 1484 1484 1485 1484 1484 1484 1484 1484 1485 1485 1485 1485 1485 1485 1485 1483 1482 1481 1481 1480 1479 1478 1475 1474 1473 1473 1473 1473 1471 1470 1470 1470 1470 1470 1470 1470 1471 1471 1471 1469 1465 1461 1459 1456 1453 1451 1450 1445 1443 1440 1438 1435 1433 1431 1426 1415 1395 1376 1346 1336 1336 1335 1326 1310 1296 1296 1296 1298 1306 1306 0 0 0 0 0 0 0 0 0 1008 1008 978 978 978 978 981 981 978 977 965 946 930 906 896 887 881 846 842 839 835 834 821 804 786 767 746 736 0 0 0 628 628 646 655 0 0 0
842 842 870 899 926 944 948 950 951 951 950 946 939 939 939 939 939 886 853 846 823 821 821 821 821 821 825 825 836 0 0 0 0 1094 1096 1134 1159 1159 0 0 0 0 0 0 0 828 821 810 809 804 789 781 773 773 773 782 791 799 808 819 830 848 864 881 884 884 884 883 0 0 0 0 0 0 614 611 611 611 611 611 610 610 605 605 605 605 609 609 609 593 585 584 572 557 552 552 552 557 560 560 561 561 567 579 598 616 637 0 0 743 764 771 773 777 787 809 0 0 0 0 0 0 1545 1565 1575 1590 1603 1611 1618 1627 1633 1638 1640 1642 1644 1647 1649 1651 1653 1654 1655 1655 1657 1658 1660 1661 1662 1663 1664 1664 1666 1668 1669 1670 1671 1673 1675 1676 1677 1679 1680 1681 1683 1683 1683 1685 1685 1686 1686 1687 1687 1689 1690 1691 1693 1694 1695 1696 1697 1698 1698 1699 1701 1702 1705 1705 1705 1700 1697 1689 0 0 0 0 0 0 0 909 897 888 876 866 865 865 864 864 859 853 848 848 848 852 854 854 861 873 0 0 0 0 0 0 0 0 0 0 0 0 0 0 892 858 858 858 873 891 912 912 912 907 892 892 892 897 0 0 0 0 0 0 0 0 0 0 0 0 0 0 0 0 0 0 0 0 0 0 0 0 0 0 0 0 0 0 0 0 0 0 0 0 0 0 0 1663 1660 1627 1611 1603 1596 1594 1593 1592 1590 1587 1586 1583 1582 1579 1576 1574 1571 1570 1568 1566 1564 1561 1558 1555 1553 1550 1548 1545 1543 1541 1538 1537 1535 1533 1532 1530 1529 1528 1526 1524 1523 1521 1520 1518 1517 1514 1513 1512 1512 1511 1509 1508 1507 1506 1505 1504 1503 1503 1502 1501 1501 1500 1499 1499 1498 1497 1497 1496 1495 1495 1494 1494 1493 1493 1492 1492 1491 1491 1491 1491 1489 1489 1489 1488 1487 1487 1486 1485 1484 1484 1483 1482 1481 1480 1479 1479 1479 1479 1479 1479 1480 1480 1480 1481 1481 1481 1481 1482 1482 1481 1481 1481 1481 1481 1480 1480 1480 1480 1480 1480 1479 1479 1479 1479 1478 1478 1478 1478 1478 1478 1477 1477 1477 1477 1477 1477 1477 1477 1477 1478 1478 1478 1478 1479 1480 1480 1480 1481 1481 1482 1482 1482 1482 1482 1482 1483 1483 1483 1483 1483 1483 1482 1482 1482 1482 1482 1481 1481 1481 1481 1481 1481 1481 1481 1481 1481 1481 1480 1480 1480 1480 1480 1479 1479 1478 1477 1476 1475 1473 1472 1470 1469 1467 1465 1464 1462 1462 1461 1459 1458 1457 1457 1455 1455 1455 1455 1455 1456 1457 1458 1459 1460 1463 1465 1467 1469 1470 1471 1472 1473 1473 1473 1474 1474 1474 1474 1475 1475 1476 1476 1477 1477 1478 1480 1481 1482 1482 1483 1484 1484 1485 1485 1485 1485 1485 1485 1485 1485 1485 1485 1485 1485 1485 1484 1483 1483 1482 1481 1481 1479 1478 1476 1475 1474 1473 1473 1472 1471 1470 1470 1469 1469 1468 1468 1468 1468 1468 1467 1465 1463 1461 1457 1455 1453 1451 1450 1449 1447 1444 1441 1436 1433 1432 1430 1415 1398 1376 1346 1336 1336 1335 1326 1312 1300 1300 1298 1298 1306 1306 1306 0 0 0 0 0 0 0 0 982 982 976 976 974 972 972 970 963 956 934 926 914 905 896 887 881 858 847 846 839 834 821 803 779 758 746 736 0 0 0 636 636 646 655 661 661 664
842 842 870 899 926 944 948 950 950 951 953 960 968 968 968 948 939 0 0 0 0 0 807 821 821 821 815 815 815 0 0 0 1080 1099 1102 1134 1139 1139 1139 0 0 0 0 0 0 798 797 795 791 790 788 780 773 773 773 783 793 799 808 821 839 853 865 881 884 884 884 883 0 0 0 0 0 644 633 633 633 639 639 639 631 631 623 615 615 615 638 638 638 615 600 585 572 557 552 552 552 557 559 560 560 561 567 579 598 616 635 0 0 722 741 755 761 777 787 816 0 0 0 0 0 1521 1555 1569 1587 1596 1603 1611 1616 1621 1627 1633 1637 1640 1641 1644 1647 1649 1651 1652 1653 1654 1654 1655 1657 1658 1660 1660 1662 1663 1665 1667 1668 1670 1671 1672 1674 1675 1677 1678 1679 1680 1681 1682 1683 1683 1684 1685 1685 1686 1687 1687 1689 1690 1691 1693 1694 1695 1697 1698 1698 1698 1700 1702 1705 1705 1705 1700 1696 1680 0 0 1021 0 0 0 923 905 896 883 865 865 865 865 865 865 862 862 862 862 862 862 861 861 861 880 913 952 984 984 984 960 948 942 0 0 0 935 935 917 892 878 877 877 877 891 912 912 912 906 889 889 889 891 0 0 0 0 0 0 0 0 0 0 0 0 0 0 0 0 0 0 0 0 1645 1592 1576 1576 1576 1578 1587 0 0 0 0 0 0 0 0 0 0 0 0 1660 1657 1627 1611 1603 1597 1594 1594 1593 1590 1587 1586 1582 1581 1577 1575 1573 1571 1569 1567 1565 1562 1560 1556 1554 1550 1547 1546 1544 1541 1539 1536 1535 1533 1531 1531 1530 1528 1527 1525 1524 1522 1520 1519 1517 1516 1514 1513 1512 1510 1509 1508 1506 1506 1505 1504 1503 1502 1501 1501 1501 1500 1499 1499 1498 1498 1496 1496 1496 1495 1494 1494 1492 1492 1491 1491 1491 1490 1489 1489 1489 1489 1488 1487 1487 1486 1486 1485 1484 1483 1482 1482 1481 1480 1479 1478 1478 1478 1478 1478 1478 1478 1479 1479 1480 1480 1481 1481 1481 1481 1480 1480 1480 1480 1480 1480 1479 1479 1479 1479 1478 1478 1478 1478 1477 1477 1477 1477 1477 1477 1476 1476 1476 1476 1475 1475 1475 1475 1476 1476 1476 1477 1477 1478 1479 1479 1479 1480 1480 1481 1481 1481 1481 1481 1481 1482 1482 1482 1482 1482 1482 1482 1481 1481 1481 1481 1481 1481 1481 1481 1481 1480 1480 1480 1480 1480 1480 1480 1480 1479 1479 1479 1479 1479 1478 1477 1477 1476 1474 1473 1472 1470 1469 1467 1466 1464 1462 1461 1460 1459 1457 1456 1456 1455 1454 1454 1454 1455 1456 1456 1457 1458 1460 1463 1465 1466 1468 1469 1471 1472 1473 1473 1474 1474 1475 1475 1475 1475 1476 1476 1476 1477 1478 1479 1480 1481 1482 1482 1483 1484 1484 1485 1485 1486 1486 1486 1485 1485 1485 1485 1485 1485 1485 1485 1484 1483 1483 1482 1481 1480 1479 1478 1476 1475 1474 1473 1472 1471 1471 1470 1470 1469 1469 1467 1467 1467 1466 1465 1463 1463 1460 1459 1457 1454 1453 1451 1450 1449 1447 1444 1441 1437 1434 1433 1432 1421 1404 1376 1351 1335 1334 1333 1326 1312 1303 1294 1294 1294 1294 1318 1318 0 0 0 0 0 0 0 0 976 976 976 972 968 968 968 961 949 932 917 917 911 903 895 887 881 858 847 846 839 834 821 793 770 745 739 736 721 697 670 649 649 649 655 661 661 664
841 841 870 894 920 941 946 948 948 948 953 960 968 968 968 946 937 0 0 0 0 0 743 799 815 815 815 815 815 0 0 0 1081 1117 1119 1121 1121 1121 1073 0 0 0 0 0 792 782 780 780 779 779 778 773 773 773 780 793 796 800 808 824 843 856 865 881 884 884 884 879 0 0 0 0 668 644 633 633 633 640 640 640 639 635 635 628 628 628 641 650 650 650 606 594 581 568 553 553 553 557 559 560 561 561 567 579 597 613 629 652 0 698 721 743 761 777 790 819 0 0 0 0 0 1534 1555 1569 1593 1599 1606 1611 1616 1619 1624 1629 1633 1637 1639 1642 1644 1647 1648 1650 1650 1651 1652 1653 1655 1657 1657 1659 1660 1661 1663 1665 1667 1668 1669 1671 1672 1674 1675 1677 1678 1679 1680 1680 1681 1681 1683 1683 1683 1684 1685 1686 1688 1689 1691 1691 1692 1694 1695 1698 1698 1698 1698 1698 1703 1703 1703 1700 1684 1656 0 0 1021 1010 0 960 919 904 895 881 865 865 865 865 865 865 865 865 869 869 869 866 862 862 862 880 919 960 983 983 983 957 946 927 916 0 916 916 916 911 895 883 878 878 878 891 906 906 906 904 889 880 880 880 889 0 0 0 0 0 0 0 0 0 0 0 0 0 0 0 0 0 0 1648 1602 1583 1575 1568 1564 1564 1564 1564 0 0 0 0 0 0 0 0 0 0 1647 1644 1627 1617 1611 1604 1598 1594 1594 1593 1590 1586 1584 1581 1578 1575 1573 1572 1570 1568 1566 1564 1560 1559 1555 1551 1549 1545 1545 1541 1539 1537 1536 1534 1532 1531 1530 1529 1527 1526 1524 1523 1521 1519 1518 1516 1515 1514 1512 1511 1510 1508 1506 1505 1504 1504 1503 1502 1502 1501 1500 1499 1499 1499 1498 1496 1496 1496 1495 1495 1494 1493 1493 1492 1491 1491 1490 1489 1489 1488 1488 1487 1487 1487 1486 1486 1485 1485 1484 1483 1482 1482 1481 1480 1479 1479 1478 1478 1478 1478 1478 1478 1478 1478 1478 1479 1479 1480 1480 1480 1480 1480 1480 1480 1480 1479 1479 1479 1479 1478 1477 1477 1477 1477 1477 1476 1476 1476 1475 1475 1475 1475 1475 1475 1475 1474 1474 1474 1474 1475 1475 1476 1476 1476 1477 1477 1478 1479 1479 1479 1480 1480 1480 1481 1481 1481 1481 1481 1481 1481 1481 1481 1481 1481 1481 1481 1480 1480 1480 1480 1480 1480 1479 1479 1479 1479 1479 1479 1479 1479 1479 1479 1478 1478 1478 1477 1476 1476 1475 1474 1472 1471 1470 1469 1467 1466 1464 1463 1461 1459 1458 1457 1456 1455 1455 1454 1454 1454 1454 1456 1456 1457 1458 1460 1463 1465 1466 1468 1469 1471 1472 1473 1473 1474 1474 1475 1475 1475 1475 1476 1477 1477 1477 1478 1479 1480 1481 1482 1482 1483 1483 1484 1485 1485 1486 1486 1486 1485 1485 1485 1485 1484 1484 1484 1484 1483 1483 1483 1482 1480 1478 1478 1477 1476 1475 1474 1473 1471 1471 1470 1470 1469 1469 1468 1467 1466 1465 1463 1463 1463 1462 1460 1458 1456 1454 1452 1451 1449 1449 1447 1444 1441 1437 1434 1433 1432 1422 1405 1378 1351 1334 1333 1330 1322 1312 1303 1296 1294 1293 1293 1294 1301 1301 0 0 0 0 0 0 0 967 967 967 963 960 959 959 959 933 918 917 917 909 902 895 885 872 858 847 835 819 808 761 758 747 744 736 736 721 697 670 649 644 644 644 644 661 661
841 841 868 887 913 929 937 940 943 947 952 960 968 968 0 0 0 0 0 0 0 0 0 0 0 0 0 0 0 0 0 1074 1081 1117 1117 1117 0 0 0 0 0 0 810 795 787 782 777 776 776 775 775 773 773 773 781 795 798 801 810 827 846 856 865 876 876 876 876 0 0 0 0 0 667 644 633 633 633 640 640 640 640 638 638 638 642 656 665 669 669 669 616 602 600 586 571 563 562 561 560 560 562 567 568 577 596 609 624 644 659 677 695 726 0 0 0 0 0 0 0 0 1524 1538 1555 1580 1594 1601 1606 1610 1615 1618 1623 1628 1633 1634 1637 1639 1641 1644 1646 1648 1648 1649 1651 1652 1654 1655 1656 1657 1657 1659 1661 1663 1664 1667 1668 1670 1672 1673 1674 1675 1677 1677 1679 1679 1679 1681 1681 1682 1682 1683 1684 1685 1686 1688 1689 1690 1692 1693 1694 1696 1696 1697 1698 1698 1700 1700 1700 1684 0 0 0 0 0 0 0 955 917 904 890 881 866 866 866 868 869 869 872 872 872 872 871 866 862 862 862 880 0 960 981 981 981 956 941 926 908 908 908 911 911 911 895 883 878 878 878 880 885 894 894 894 887 875 875 875 875 903 933 0 0 0 0 0 0 0 0 0 0 0 0 0 0 0 0 1594 1584 1583 1575 1567 1562 1562 1562 1564 1576 1580 1582 1588 1590 1603 0 1667 1667 1667 1645 1626 1621 1616 1611 1606 1600 1594 1593 1592 1589 1585 1582 1580 1577 1574 1572 1571 1569 1566 1564 1562 1560 1557 1554 1550 1547 1544 1542 1540 1538 1537 1534 1533 1531 1531 1529 1529 1526 1526 1524 1522 1521 1519 1517 1516 1515 1513 1512 1511 1509 1507 1506 1505 1504 1504 1503 1502 1501 1500 1499 1499 1499 1498 1497 1496 1496 1496 1494 1494 1493 1493 1492 1491 1491 1490 1490 1488 1488 1487 1487 1486 1485 1485 1484 1484 1484 1484 1483 1483 1482 1481 1480 1480 1479 1478 1478 1477 1477 1477 1477 1477 1477 1477 1478 1478 1478 1479 1479 1479 1479 1479 1479 1479 1479 1478 1478 1478 1478 1477 1476 1476 1476 1475 1475 1475 1475 1475 1475 1475 1474 1474 1474 1474 1474 1474 1474 1473 1473 1474 1474 1474 1475 1476 1476 1476 1476 1477 1477 1478 1478 1479 1480 1480 1480 1480 1480 1480 1480 1481 1481 1480 1480 1480 1480 1480 1480 1480 1479 1479 1479 1479 1478 1478 1478 1478 1478 1478 1478 1478 1478 1478 1478 1477 1477 1477 1475 1475 1474 1473 1472 1471 1470 1468 1467 1465 1464 1462 1461 1459 1458 1457 1455 1454 1454 1453 1453 1453 1454 1455 1455 1456 1457 1459 1462 1463 1465 1467 1469 1470 1472 1472 1473 1474 1474 1475 1475 1475 1475 1476 1477 1477 1477 1478 1479 1480 1481 1482 1482 1482 1483 1484 1485 1485 1486 1486 1486 1485 1485 1485 1484 1484 1484 1483 1483 1483 1482 1482 1480 1479 1477 1477 1477 1476 1475 1473 1472 1471 1471 1470 1470 1469 1468 1468 1467 1465 1464 1463 1462 1462 1461 1459 1457 1455 1453 1452 1450 1449 1447 1446 1442 1440 1437 1434 1432 1432 1422 1405 1383 1355 1334 1332 1327 1320 1311 1303 1296 1293 1291 1291 1293 1301 1301 1301 0 0 0 0 0 0 0 0 0 0 940 942 942 942 926 918 917 917 907 900 889 881 866 850 837 822 812 0 0 0 0 0 0 0 0 0 670 649 642 642 641 642 642 643
841 841 868 887 913 926 934 940 940 947 952 958 962 962 0 0 0 0 0 0 0 0 0 0 0 0 0 0 0 0 0 0 1088 1117 1117 0 0 0 0 0 0 0 801 789 785 781 776 776 776 775 775 775 776 778 786 796 798 801 814 830 846 856 862 862 862 861 861 0 0 0 0 0 0 632 631 631 631 636 643 644 645 651 652 653 657 670 680 680 680 671 630 628 622 610 593 584 579 571 565 565 565 571 576 577 592 607 619 631 648 663 695 0 0 0 0 0 0 0 0 0 1546 1546 1560 1588 1597 1602 1606 1610 1614 1618 1621 1628 1631 1633 1635 1637 1641 1643 1644 1645 1645 1647 1647 1648 1651 1652 1653 1654 1655 1657 1658 1660 1662 1664 1667 1669 1670 1671 1672 1673 1674 1676 1676 1678 1679 1680 1680 1680 1681 1681 1682 1684 1685 1686 1687 1689 1690 1691 1693 1694 1694 1694 1696 1697 1697 1697 1692 0 0 0 0 0 0 0 0 924 902 885 882 881 881 881 880 880 872 872 872 872 872 872 871 866 862 862 862 873 0 0 970 970 970 950 939 923 898 895 895 895 895 895 895 883 878 874 873 873 873 879 886 886 886 872 870 870 870 902 924 0 0 0 0 0 0 0 0 0 0 0 0 0 0 0 0 1567 1567 1567 1567 1567 1562 1562 1562 1564 1576 1579 1579 1579 1579 1579 1600 1617 1617 1620 1619 1617 1616 1616 1611 1606 1600 1594 1591 1587 1586 1583 1582 1578 1575 1573 1570 1569 1566 1564 1562 1560 1559 1556 1552 1548 1545 1543 1540 1539 1537 1535 1533 1532 1531 1529 1528 1527 1526 1524 1522 1521 1519 1518 1516 1515 1514 1512 1511 1509 1508 1506 1505 1504 1503 1502 1502 1501 1500 1500 1499 1498 1498 1497 1496 1495 1494 1494 1494 1493 1492 1492 1491 1490 1490 1489 1488 1487 1487 1487 1486 1485 1484 1484 1483 1483 1483 1482 1482 1481 1480 1480 1479 1479 1478 1477 1477 1477 1476 1476 1476 1476 1476 1476 1477 1477 1477 1478 1478 1478 1479 1478 1478 1478 1478 1478 1478 1478 1476 1476 1475 1475 1475 1475 1475 1475 1474 1474 1474 1474 1474 1474 1473 1473 1473 1473 1473 1473 1472 1472 1473 1474 1474 1474 1475 1476 1476 1477 1477 1478 1478 1478 1479 1479 1479 1479 1479 1480 1480 1480 1480 1480 1480 1480 1479 1479 1479 1479 1478 1478 1478 1477 1477 1477 1477 1476 1476 1476 1477 1476 1476 1476 1476 1476 1476 1476 1475 1475 1474 1472 1472 1471 1469 1468 1466 1465 1464 1462 1461 1459 1458 1456 1454 1454 1453 1452 1452 1452 1453 1454 1454 1455 1457 1458 1461 1463 1465 1467 1468 1469 1470 1472 1472 1472 1473 1473 1475 1475 1475 1476 1476 1477 1477 1478 1479 1480 1481 1481 1482 1482 1483 1483 1485 1485 1485 1485 1485 1485 1484 1484 1484 1483 1483 1482 1482 1481 1481 1480 1479 1477 1477 1476 1476 1475 1473 1473 1472 1471 1471 1470 1470 1469 1468 1467 1465 1464 1463 1462 1462 1462 1460 1458 1456 1453 1452 1450 1448 1446 1445 1444 1442 1439 1436 1433 1432 1429 1422 1405 1385 1359 1338 1331 1325 1316 1307 1300 1296 1293 1290 1290 1293 1301 1324 1324 0 0 0 0 0 0 0 0 0 0 924 933 933 933 926 921 918 917 906 887 877 869 860 845 832 808 805 0 0 0 0 0 0 0 0 0 638 618 618 618 631 631 631 631
841 841 868 887 913 926 934 939 940 947 952 955 955 955 0 0 0 0 0 0 0 0 0 0 0 0 0 0 0 0 0 0 0 0 0 0 0 0 0 0 0 0 782 778 776 775 775 775 775 775 776 778 783 788 793 796 799 802 815 831 846 855 855 855 853 844 0 0 0 0 0 0 0 624 624 624 631 636 643 650 656 656 663 663 664 670 682 682 682 680 642 633 632 630 620 611 601 587 577 574 574 574 577 577 588 598 613 626 642 663 0 0 0 0 0 0 0 0 0 0 1549 1552 1575 1588 1597 1601 1606 1609 1613 1617 1621 1626 1630 1631 1632 1636 1638 1640 1641 1642 1643 1644 1644 1646 1648 1649 1651 1652 1654 1655 1657 1658 1660 1663 1665 1667 1668 1670 1671 1671 1673 1674 1675 1676 1677 1678 1678 1679 1679 1679 1681 1682 1683 1684 1685 1686 1688 1689 1690 1690 1690 1692 1693 1696 1696 1696 1688 0 0 0 0 0 0 0 0 904 894 885 881 880 880 881 880 880 872 872 872 872 872 871 861 859 859 859 862 865 0 0 957 957 957 929 896 893 881 876 876 866 866 866 863 863 859 859 859 859 865 870 876 876 876 868 857 857 857 892 918 944 0 0 0 0 0 0 0 0 0 0 0 0 0 0 0 1535 1558 1568 1568 1568 1568 1568 1571 1573 1576 1576 1576 1575 1574 1574 1574 1594 1596 1596 1603 1610 1610 1610 1610 1606 1600 1594 1588 1585 1582 1581 1580 1577 1574 1571 1569 1566 1565 1562 1561 1559 1558 1555 1551 1547 1544 1542 1540 1538 1536 1535 1532 1531 1530 1529 1528 1526 1525 1523 1522 1520 1519 1517 1516 1514 1513 1512 1511 1509 1508 1506 1504 1504 1502 1501 1501 1500 1500 1499 1498 1498 1497 1496 1496 1494 1494 1493 1493 1492 1492 1490 1490 1490 1489 1488 1487 1486 1486 1486 1485 1484 1483 1483 1482 1482 1481 1481 1481 1480 1480 1479 1479 1478 1477 1477 1476 1476 1475 1475 1475 1475 1475 1475 1476 1477 1477 1477 1478 1478 1478 1478 1477 1477 1477 1477 1477 1477 1476 1475 1474 1474 1474 1474 1474 1474 1474 1474 1474 1474 1474 1474 1473 1473 1472 1472 1472 1472 1472 1472 1472 1473 1473 1474 1475 1475 1476 1476 1476 1477 1478 1478 1478 1478 1479 1479 1479 1479 1479 1479 1479 1478 1479 1478 1478 1478 1478 1478 1477 1477 1476 1476 1476 1476 1476 1476 1476 1476 1476 1476 1476 1476 1476 1476 1475 1475 1475 1473 1473 1472 1471 1470 1469 1467 1466 1465 1464 1462 1460 1458 1457 1456 1454 1453 1452 1452 1452 1452 1452 1453 1453 1455 1456 1458 1461 1462 1464 1465 1468 1469 1470 1471 1471 1472 1473 1473 1473 1473 1475 1475 1476 1476 1476 1476 1478 1478 1479 1479 1480 1481 1482 1483 1485 1485 1485 1484 1484 1484 1482 1482 1482 1481 1481 1480 1480 1480 1480 1478 1477 1476 1475 1475 1474 1473 1472 1472 1470 1470 1469 1468 1468 1467 1466 1465 1464 1462 1461 1461 1460 1460 1459 1456 1454 1452 1450 1448 1446 1445 1443 1443 1440 1438 1435 1433 1431 1427 1418 1405 1386 1359 1339 1327 1306 1303 1299 1293 1293 1293 1293 1293 1293 1302 1320 1320 0 0 0 0 0 0 0 0 0 0 0 922 926 926 926 923 921 917 905 887 872 856 844 824 809 806 784 0 0 0 663 654 638 0 0 0 616 608 608 616 623 623 623 623
844 844 878 896 913 925 933 940 940 947 952 952 952 0 0 0 0 0 0 0 0 0 0 0 0 0 0 0 0 0 0 0 0 0 0 0 0 0 0 0 0 0 761 761 761 762 765 771 775 776 786 787 796 796 797 799 799 803 816 831 846 846 846 842 0 0 0 0 0 0 0 0 0 620 620 624 631 636 650 666 666 666 664 664 664 670 682 682 682 680 654 647 646 644 642 636 627 0 0 0 587 585 585 585 586 586 607 626 642 0 0 0 0 0 0 0 0 0 0 1517 1549 1567 1583 1588 1597 1601 1606 1609 1613 1616 1621 1624 1627 1628 1630 1632 1635 1636 1638 1639 1640 1641 1643 1644 1645 1648 1650 1651 1652 1653 1655 1657 1659 1661 1663 1665 1666 1667 1669 1670 1672 1672 1673 1674 1675 1675 1676 1676 1677 1678 1679 1680 1682 1683 1684 1685 1686 1686 1686 1686 1686 1686 1690 1690 1690 1690 1687 0 0 0 0 0 0 0 916 901 894 885 881 880 880 881 880 880 871 868 868 864 860 860 857 857 857 859 862 864 876 911 946 946 946 914 892 876 863 858 856 854 854 852 852 849 849 852 853 856 864 864 864 857 843 843 843 843 854 886 912 935 0 0 0 0 0 0 0 0 0 0 0 0 0 0 0 1524 1558 1575 1575 1578 1581 1581 1586 1590 1590 1590 1582 1574 1562 1562 1562 1577 1593 1595 1595 1601 1606 1606 1606 1601 1599 1594 1588 1585 1582 1580 1578 1577 1574 1570 1567 1565 1563 1561 1558 1556 1556 1553 1550 1545 1543 1540 1538 1536 1536 1533 1532 1530 1528 1527 1526 1526 1524 1523 1521 1520 1519 1517 1515 1514 1512 1511 1510 1509 1507 1506 1504 1503 1502 1501 1500 1499 1498 1498 1497 1497 1496 1495 1494 1494 1493 1493 1492 1492 1491 1490 1490 1489 1488 1487 1486 1486 1484 1484 1484 1483 1483 1482 1481 1481 1481 1480 1480 1480 1478 1478 1477 1477 1477 1476 1475 1475 1475 1475 1475 1475 1475 1475 1476 1476 1476 1477 1477 1477 1477 1477 1477 1477 1476 1476 1476 1476 1475 1474 1474 1473 1473 1473 1473 1474 1474 1474 1474 1474 1473 1473 1473 1472 1472 1472 1472 1472 1471 1471 1472 1472 1472 1473 1474 1475 1476 1476 1476 1477 1477 1478 1478 1478 1478 1478 1478 1478 1478 1478 1478 1478 1478 1478 1477 1477 1477 1477 1476 1475 1475 1475 1475 1475 1474 1474 1474 1474 1474 1474 1474 1474 1474 1475 1475 1475 1474 1473 1472 1472 1471 1469 1468 1466 1465 1464 1464 1462 1459 1458 1456 1455 1454 1452 1452 1451 1451 1451 1451 1452 1453 1454 1455 1457 1459 1461 1462 1465 1467 1469 1470 1470 1470 1471 1471 1472 1472 1473 1473 1473 1474 1474 1475 1476 1476 1476 1477 1478 1479 1479 1481 1483 1484 1484 1484 1483 1482 1482 1481 1481 1480 1478 1478 1477 1477 1477 1477 1477 1475 1474 1474 1473 1472 1470 1469 1469 1469 1468 1468 1466 1464 1463 1462 1462 1461 1459 1458 1458 1458 1457 1456 1453 1451 1449 1447 1445 1444 1442 1442 1440 1438 1437 1434 1432 1428 1425 1416 1404 1391 1363 1343 1327 1306 1290 1285 1284 1284 1284 1293 1293 1297 1302 1319 1319 1319 0 0 0 0 0 0 0 0 0 0 921 922 926 926 926 921 915 905 886 866 841 809 800 799 796 778 0 0 669 663 652 637 621 614 603 597 603 603 607 610 610 610 610
844 844 878 896 913 925 934 940 947 947 949 949 949 0 0 0 0 0 0 0 0 0 921 921 913 913 913 0 0 0 0 0 0 0 0 0 0 0 0 0 0 749 747 746 747 749 750 758 769 776 786 797 797 797 799 800 800 807 816 831 839 839 839 823 0 0 0 0 0 0 0 0 620 620 620 629 637 643 651 666 666 666 664 664 664 666 682 682 682 680 669 0 0 0 0 0 0 0 0 0 0 599 586 586 586 586 607 626 642 0 0 0 0 0 0 0 0 0 0 1523 1549 1568 1583 1588 1594 1599 1605 1608 1611 1613 1616 1621 1624 1626 1628 1630 1632 1633 1635 1636 1638 1640 1641 1643 1644 1645 1648 1649 1651 1652 1653 1654 1657 1659 1661 1663 1664 1666 1667 1669 1669 1670 1671 1671 1672 1673 1674 1674 1674 1676 1677 1678 1681 1683 1683 1683 1683 1683 1683 1683 1683 1683 1683 1684 1684 1684 1683 0 0 0 0 0 0 0 897 895 894 886 878 871 871 870 860 0 843 843 843 848 849 850 850 852 856 859 860 864 875 890 902 911 911 911 889 874 857 842 839 839 839 840 844 844 844 846 849 855 855 855 841 833 833 833 843 843 854 878 902 917 0 0 0 0 0 0 0 0 0 0 0 0 0 0 0 0 1558 1578 1584 1586 1587 1587 1587 1590 1590 1590 1582 1574 1562 1562 1562 1577 1589 1593 1595 1597 1598 1599 1599 1598 1596 1593 1588 1585 1581 1579 1577 1575 1572 1570 1567 1563 1561 1559 1556 1554 1552 1550 1548 1545 1541 1539 1537 1536 1535 1533 1530 1529 1527 1527 1526 1525 1523 1522 1521 1519 1519 1517 1515 1513 1512 1510 1509 1508 1507 1505 1504 1503 1501 1501 1500 1499 1498 1497 1497 1496 1496 1495 1494 1493 1493 1492 1492 1491 1490 1489 1488 1488 1487 1486 1485 1484 1484 1483 1483 1482 1481 1481 1480 1480 1479 1479 1479 1478 1478 1477 1476 1476 1476 1475 1475 1474 1474 1474 1474 1474 1474 1474 1475 1475 1475 1475 1476 1476 1476 1476 1476 1476 1476 1475 1475 1475 1475 1474 1474 1473 1473 1473 1473 1473 1473 1473 1473 1473 1473 1472 1472 1472 1472 1471 1471 1470 1470 1471 1471 1472 1472 1473 1474 1474 1475 1475 1476 1476 1477 1477 1477 1477 1478 1478 1477 1477 1477 1477 1477 1477 1476 1476 1476 1476 1476 1476 1475 1475 1475 1474 1474 1473 1473 1473 1473 1473 1473 1474 1474 1474 1474 1474 1473 1473 1473 1472 1471 1470 1470 1469 1467 1465 1464 1464 1462 1461 1459 1457 1456 1454 1452 1451 1450 1449 1449 1449 1450 1451 1452 1453 1454 1456 1458 1459 1461 1464 1466 1467 1468 1469 1470 1470 1471 1471 1471 1472 1472 1473 1473 1473 1473 1473 1474 1474 1476 1476 1477 1477 1477 1480 1482 1482 1482 1481 1480 1480 1480 1479 1477 1476 1476 1476 1475 1475 1475 1474 1473 1473 1472 1471 1470 1468 1468 1467 1466 1465 1464 1463 1461 1460 1459 1459 1459 1457 1454 1454 1454 1453 1452 1450 1449 1447 1445 1442 1440 1440 1438 1436 1435 1435 1432 1428 1424 1420 1413 1403 1394 1371 1351 1327 1306 1290 1277 1274 1274 1274 1279 1293 1297 1302 1309 1322 1322 1322 0 0 0 0 0 0 0 0 0 0 922 926 926 926 921 914 904 886 864 835 801 777 775 770 756 723 696 669 663 652 636 613 590 581 581 581 592 596 596 596 596 596
844 844 878 896 913 925 934 942 947 948 948 948 940 0 0 0 0 0 0 0 928 938 938 938 928 928 928 938 0 0 0 0 0 0 0 0 0 0 0 0 757 744 744 744 745 746 748 750 760 776 786 797 797 797 799 800 801 807 816 830 837 837 837 792 0 0 0 0 0 0 630 617 617 617 630 634 637 643 651 666 666 666 647 645 645 645 661 676 676 683 687 0 0 0 0 0 0 0 0 0 0 0 0 586 586 586 607 628 0 0 0 0 0 0 0 0 0 0 0 1523 1549 1568 1583 1587 1593 1597 1600 1603 1607 1609 1614 1618 1622 1624 1625 1627 1629 1630 1632 1634 1636 1637 1638 1640 1642 1644 1645 1646 1648 1649 1651 1652 1655 1656 1658 1661 1662 1663 1665 1665 1667 1667 1668 1670 1671 1671 1671 1671 1672 1673 1676 1678 1679 1680 1680 1680 1680 1680 1680 1678 1678 1678 1681 1683 1683 1683 0 0 0 0 0 0 0 0 901 900 896 894 878 860 849 840 826 0 813 813 819 829 837 846 847 848 851 851 852 855 869 881 888 900 900 900 888 871 852 828 828 828 829 830 836 838 839 840 845 851 851 851 841 833 833 833 843 843 857 878 892 897 0 0 0 0 0 0 0 0 0 0 0 0 0 0 0 0 0 0 0 0 1590 1590 1591 1592 1592 1592 1579 1565 1562 1562 1562 1577 1593 1595 1595 1597 1597 1597 1597 1596 1595 1593 1588 1585 1581 1578 1575 1573 1570 1568 1566 1563 1560 1556 1555 1551 1550 1548 1546 1543 1541 1538 1537 1535 1534 1532 1529 1528 1527 1525 1525 1524 1523 1521 1520 1518 1517 1515 1514 1512 1511 1509 1508 1507 1506 1505 1504 1503 1501 1500 1499 1498 1498 1497 1496 1495 1495 1494 1493 1493 1492 1492 1491 1491 1490 1488 1488 1487 1487 1485 1484 1483 1483 1482 1481 1481 1481 1480 1479 1479 1478 1478 1478 1477 1477 1476 1476 1476 1475 1475 1474 1474 1474 1474 1474 1474 1474 1474 1474 1474 1475 1475 1475 1475 1476 1476 1476 1475 1475 1475 1474 1474 1473 1473 1473 1473 1473 1473 1473 1473 1473 1472 1472 1472 1472 1472 1472 1472 1471 1471 1470 1470 1470 1470 1471 1471 1471 1473 1473 1474 1474 1475 1475 1476 1476 1476 1477 1477 1477 1477 1476 1476 1476 1476 1476 1475 1475 1475 1475 1475 1475 1474 1474 1474 1473 1473 1472 1472 1472 1472 1472 1472 1473 1473 1473 1473 1473 1473 1473 1472 1472 1471 1470 1469 1469 1468 1466 1465 1463 1462 1462 1460 1458 1456 1454 1453 1451 1450 1449 1449 1449 1449 1449 1450 1451 1452 1454 1454 1456 1458 1460 1463 1464 1466 1468 1469 1470 1470 1470 1470 1471 1471 1471 1472 1472 1472 1473 1473 1473 1473 1474 1474 1474 1474 1474 1475 1477 1478 1478 1478 1478 1476 1476 1476 1474 1473 1473 1473 1473 1473 1473 1472 1471 1470 1470 1469 1468 1467 1465 1464 1463 1462 1461 1459 1458 1458 1457 1457 1456 1453 1451 1450 1450 1450 1448 1447 1446 1444 1442 1440 1437 1436 1434 1434 1432 1432 1429 1425 1421 1416 1408 1403 1394 1376 1355 1333 1312 1290 1277 1272 1263 1263 1263 1292 1297 1301 1308 1322 1322 1322 0 0 0 0 0 0 0 0 0 0 0 921 921 921 921 911 904 886 860 0 0 750 745 743 740 720 696 680 673 652 633 611 590 578 578 578 592 595 596 596 596 596
844 844 873 896 912 923 933 942 947 948 948 948 925 865 0 0 0 0 0 936 945 947 947 947 931 931 931 950 0 0 0 0 0 0 0 0 0 0 0 0 752 744 744 744 745 746 748 750 760 776 786 792 792 792 792 792 801 807 816 822 822 0 0 0 0 0 0 657 646 644 630 617 617 617 630 634 637 643 650 650 650 637 627 627 627 645 661 663 673 674 676 0 0 0 0 0 0 0 0 0 0 0 0 0 0 0 0 0 0 0 0 0 0 0 0 0 0 0 1498 1523 1552 1568 1576 1581 1588 1593 1595 1598 1603 1608 1610 1615 1619 1621 1623 1624 1625 1627 1628 1630 1632 1633 1635 1636 1639 1641 1642 1643 1645 1647 1649 1651 1652 1654 1656 1658 1660 1661 1663 1663 1663 1664 1665 1666 1667 1667 1667 1667 1669 1671 1672 1675 1676 1677 1677 1677 1677 1677 1677 1676 1676 1676 1680 1680 1680 1667 0 0 0 0 0 0 0 0 903 903 896 894 878 856 832 813 0 0 792 792 796 809 820 829 830 830 830 830 841 849 869 876 879 879 879 870 848 827 819 816 810 816 817 817 823 826 838 840 845 851 851 851 841 833 833 833 843 853 862 873 880 894 0 0 0 0 0 0 0 0 0 0 0 0 0 0 0 0 0 0 0 0 0 0 1600 1595 1595 1595 1563 1552 1552 1552 1571 1587 1595 1596 1596 1596 1594 1594 1594 1593 1593 1590 1586 1583 1580 1576 1574 1572 1568 1565 1563 1561 1558 1556 1553 1550 1548 1546 1544 1542 1539 1538 1536 1534 1533 1530 1529 1527 1525 1525 1523 1522 1521 1520 1519 1517 1516 1514 1513 1511 1510 1508 1507 1506 1505 1504 1504 1502 1501 1499 1498 1497 1496 1496 1495 1495 1494 1494 1493 1492 1492 1491 1490 1490 1489 1488 1487 1486 1485 1484 1483 1483 1482 1481 1481 1480 1480 1480 1479 1479 1478 1477 1477 1476 1475 1475 1475 1475 1474 1474 1474 1474 1474 1474 1474 1474 1474 1474 1474 1474 1474 1475 1475 1475 1475 1475 1475 1474 1474 1474 1474 1474 1473 1473 1473 1472 1472 1472 1472 1472 1471 1471 1471 1471 1471 1471 1471 1471 1470 1470 1470 1470 1470 1470 1470 1470 1471 1471 1473 1473 1474 1474 1475 1475 1476 1476 1476 1476 1476 1476 1475 1475 1475 1475 1475 1474 1474 1474 1474 1473 1473 1473 1473 1472 1472 1472 1471 1471 1471 1471 1471 1471 1471 1472 1472 1472 1472 1472 1472 1471 1471 1470 1469 1469 1468 1467 1466 1465 1463 1462 1461 1460 1457 1456 1454 1452 1450 1449 1449 1448 1448 1448 1448 1449 1451 1452 1453 1454 1456 1458 1460 1462 1463 1464 1466 1467 1468 1468 1469 1470 1470 1470 1471 1471 1471 1471 1471 1471 1472 1472 1472 1472 1471 1471 1471 1473 1475 1475 1475 1475 1474 1473 1473 1471 1471 1470 1470 1470 1470 1470 1470 1470 1469 1468 1468 1468 1466 1465 1463 1461 1461 1459 1458 1457 1455 1454 1454 1453 1451 1450 1449 1448 1447 1446 1445 1444 1443 1441 1439 1436 1435 1433 1431 1431 1430 1428 1427 1422 1417 1411 1405 1399 1394 1376 1363 1337 1314 1291 1277 1272 1263 1259 1259 1259 1286 1297 1299 1302 1317 1317 1317 0 0 0 0 0 0 0 0 0 0 0 918 918 918 910 896 870 0 0 0 750 745 740 734 718 696 680 673 652 633 607 590 576 576 576 577 585 587 592 594 594
844 844 873 896 908 920 932 942 947 948 948 948 921 865 834 834 834 870 922 939 947 947 947 935 931 931 931 0 0 0 0 0 0 0 0 0 0 0 793 770 752 745 745 745 745 748 748 750 760 776 778 779 779 779 779 784 801 801 801 795 0 0 0 0 726 670 657 655 644 644 630 617 617 617 630 634 636 639 639 639 628 613 613 613 627 645 661 663 669 670 674 0 0 774 774 774 748 0 0 0 0 0 0 0 0 0 0 0 0 0 0 0 0 0 0 0 0 1462 1500 1530 1554 1566 1572 1579 1584 1588 1592 1595 1600 1604 1609 1611 1614 1617 1620 1620 1622 1624 1625 1627 1629 1629 1632 1634 1637 1638 1640 1641 1642 1644 1647 1648 1651 1652 1654 1656 1658 1659 1661 1661 1661 1661 1662 1662 1663 1664 1664 1665 1666 1668 1670 1672 1673 1674 1674 1674 1673 1673 1673 1673 1673 1675 1679 1679 1679 0 0 0 0 0 0 0 0 0 0 903 896 895 878 856 832 813 0 0 792 792 796 809 820 829 829 829 829 830 841 849 869 876 876 876 860 843 834 827 809 809 809 810 815 817 823 826 834 840 845 851 851 851 851 851 851 852 861 867 867 873 879 891 918 0 0 0 0 0 0 0 0 0 0 0 0 0 0 0 0 0 0 0 0 0 0 0 0 0 1563 1552 1552 1552 1579 1594 1600 1600 1596 1596 1593 1591 1591 1591 1591 1588 1585 1582 1579 1575 1573 1570 1566 1562 1560 1559 1557 1554 1551 1549 1547 1545 1543 1541 1539 1537 1534 1533 1532 1530 1528 1526 1525 1523 1522 1521 1520 1519 1518 1516 1514 1512 1512 1509 1509 1507 1506 1505 1503 1503 1502 1501 1500 1499 1498 1497 1496 1495 1495 1494 1493 1493 1492 1491 1490 1490 1490 1489 1488 1487 1487 1485 1484 1483 1483 1482 1481 1480 1480 1480 1479 1479 1479 1477 1477 1476 1476 1475 1475 1474 1474 1474 1474 1473 1473 1473 1473 1473 1473 1473 1473 1473 1473 1474 1474 1474 1474 1474 1474 1474 1474 1474 1473 1473 1473 1473 1473 1472 1472 1472 1472 1472 1472 1472 1471 1470 1470 1470 1470 1470 1470 1470 1470 1469 1469 1469 1469 1469 1469 1470 1471 1471 1472 1472 1474 1474 1474 1475 1475 1475 1475 1475 1475 1475 1474 1474 1474 1474 1473 1473 1473 1472 1472 1472 1472 1472 1472 1471 1471 1471 1470 1470 1470 1470 1470 1470 1471 1471 1471 1471 1471 1471 1471 1470 1470 1469 1469 1468 1467 1467 1465 1464 1462 1461 1460 1458 1457 1455 1453 1451 1450 1449 1449 1448 1447 1447 1447 1448 1449 1451 1452 1454 1455 1457 1459 1460 1462 1463 1464 1465 1466 1468 1468 1468 1469 1469 1470 1470 1470 1470 1470 1471 1471 1471 1471 1471 1471 1471 1471 1472 1472 1472 1472 1472 1472 1471 1471 1470 1469 1468 1468 1468 1468 1468 1468 1468 1467 1466 1466 1465 1463 1462 1460 1460 1458 1457 1456 1453 1453 1452 1450 1448 1447 1446 1445 1445 1444 1442 1441 1439 1438 1438 1436 1433 1433 1431 1430 1429 1427 1425 1423 1420 1414 1409 1404 1398 1389 1376 1363 1341 1317 1293 1285 1274 1263 1255 1255 1255 1256 1284 1292 1297 1321 1321 1321 0 0 0 0 0 0 0 0 0 0 0 0 0 0 0 0 0 0 0 774 749 745 740 734 718 696 680 673 652 630 598 590 581 569 569 569 569 581 594 600 600
850 850 873 896 908 919 923 926 942 942 942 938 895 865 865 865 877 900 923 941 946 946 946 935 935 935 0 0 0 0 0 0 0 0 0 0 0 771 771 763 754 745 745 745 749 754 760 766 775 779 779 779 779 779 779 784 784 784 779 0 0 0 0 0 671 665 657 655 652 652 648 625 600 600 600 600 609 612 628 628 628 613 613 613 627 653 661 663 669 670 674 0 755 774 774 774 772 770 0 0 0 0 0 0 0 0 0 0 0 0 0 0 0 0 0 0 0 1474 1500 1536 1558 1566 1572 1578 1581 1585 1588 1592 1596 1600 1603 1605 1607 1609 1614 1617 1618 1619 1621 1623 1625 1627 1629 1631 1634 1636 1636 1638 1639 1642 1643 1645 1648 1650 1652 1653 1655 1657 1658 1658 1658 1659 1659 1660 1660 1660 1661 1663 1664 1665 1667 1669 1670 1670 1670 1670 1671 1671 1671 1671 1672 1673 1673 1673 1671 0 0 0 0 0 0 0 0 0 0 904 904 903 878 856 832 813 0 0 0 792 796 809 820 829 829 829 829 830 841 849 869 869 869 851 839 835 832 826 809 809 809 810 815 817 823 826 833 840 845 852 852 858 858 858 858 858 866 867 873 874 878 882 912 0 0 0 0 0 0 0 0 0 0 0 0 0 0 0 0 0 0 0 0 0 0 0 0 0 0 0 1555 1555 1594 1594 1602 1602 1596 1596 1593 1591 1591 1589 1589 1586 1583 1580 1577 1575 1572 1569 1566 1562 1559 1557 1556 1553 1550 1548 1546 1544 1543 1541 1538 1536 1534 1533 1531 1529 1527 1525 1523 1523 1521 1520 1519 1517 1516 1514 1513 1512 1509 1509 1507 1506 1506 1504 1503 1502 1501 1500 1499 1498 1497 1495 1495 1494 1493 1492 1492 1492 1491 1491 1490 1490 1489 1488 1487 1486 1485 1484 1483 1482 1482 1481 1481 1480 1479 1479 1478 1478 1477 1477 1476 1476 1476 1474 1474 1474 1474 1473 1473 1473 1473 1473 1473 1473 1473 1472 1472 1473 1473 1473 1473 1473 1474 1474 1473 1473 1473 1473 1473 1473 1473 1472 1472 1472 1471 1471 1471 1471 1471 1471 1470 1470 1470 1470 1469 1469 1469 1469 1469 1468 1468 1468 1468 1469 1469 1469 1470 1471 1471 1472 1473 1474 1474 1475 1475 1475 1475 1474 1474 1474 1473 1473 1473 1473 1471 1471 1471 1471 1471 1470 1470 1470 1470 1470 1470 1469 1469 1469 1469 1469 1470 1470 1470 1470 1470 1470 1470 1470 1470 1470 1470 1469 1469 1467 1467 1466 1464 1463 1461 1460 1459 1458 1455 1454 1452 1451 1450 1448 1448 1447 1447 1447 1447 1447 1448 1449 1452 1453 1454 1455 1457 1459 1460 1462 1463 1464 1465 1466 1467 1468 1468 1468 1469 1469 1469 1469 1469 1469 1469 1469 1469 1469 1469 1469 1469 1470 1470 1470 1470 1470 1470 1470 1469 1469 1467 1466 1466 1466 1466 1466 1466 1466 1465 1464 1462 1461 1461 1459 1458 1457 1456 1455 1452 1451 1449 1448 1445 1444 1443 1443 1442 1440 1439 1437 1436 1435 1435 1435 1432 1431 1430 1429 1429 1426 1423 1420 1418 1415 1413 1408 1404 1395 1384 1374 1368 1363 1326 1293 1288 1280 1274 1266 1255 1255 1255 1261 1285 1296 1320 1320 1320 1312 0 0 0 0 0 0 0 0 0 0 0 0 0 0 0 0 0 778 774 771 758 749 733 718 0 0 0 637 605 594 589 584 570 569 569 569 581 594 600 600
865 865 884 901 908 919 923 925 925 925 909 907 894 882 882 882 898 910 924 945 946 946 946 935 935 935 0 0 0 0 0 0 0 0 0 0 0 756 755 755 752 747 747 747 749 764 775 785 787 787 787 782 779 779 779 779 778 778 0 0 0 0 0 0 667 665 659 657 652 652 648 626 600 600 600 600 609 612 628 628 628 613 613 613 643 666 670 670 672 673 674 0 755 774 779 793 802 809 809 809 0 0 0 0 0 0 0 0 0 0 0 0 0 0 0 0 1466 1480 1524 1548 1558 1566 1572 1578 1581 1584 1586 1589 1591 1594 1598 1601 1603 1606 1608 1610 1613 1616 1619 1620 1624 1625 1626 1628 1631 1633 1634 1636 1637 1639 1641 1644 1646 1647 1648 1650 1651 1653 1654 1655 1655 1655 1656 1656 1656 1657 1658 1659 1660 1662 1664 1666 1667 1667 1668 1669 1669 1669 1670 1670 1671 1673 1673 1673 0 0 0 0 0 0 0 0 0 0 0 0 892 885 878 858 856 0 0 0 0 0 0 0 827 829 829 834 843 850 860 861 868 868 868 847 831 830 829 820 813 813 813 815 822 823 826 828 833 840 845 852 864 864 871 873 877 877 877 874 867 867 867 873 897 0 0 0 0 0 0 0 0 0 0 0 0 0 0 0 0 0 0 0 0 0 0 0 0 0 0 0 0 0 0 1607 1607 1605 1605 1596 1593 1590 1590 1589 1587 1585 1582 1580 1577 1574 1571 1568 1564 1561 1559 1557 1554 1552 1550 1547 1545 1542 1542 1541 1537 1535 1533 1530 1529 1527 1525 1524 1523 1522 1520 1519 1518 1517 1516 1513 1512 1510 1508 1507 1506 1505 1504 1503 1502 1502 1500 1498 1497 1497 1496 1495 1494 1493 1492 1491 1491 1490 1490 1490 1489 1489 1488 1487 1486 1486 1484 1483 1483 1482 1481 1481 1481 1479 1479 1478 1478 1477 1476 1476 1476 1476 1474 1474 1473 1473 1473 1472 1472 1472 1472 1472 1472 1472 1472 1472 1472 1472 1473 1473 1473 1473 1473 1473 1472 1472 1472 1472 1472 1472 1472 1471 1471 1470 1470 1470 1470 1470 1470 1469 1469 1469 1468 1468 1468 1468 1468 1468 1468 1468 1468 1468 1468 1468 1468 1468 1470 1470 1471 1471 1472 1473 1473 1473 1473 1473 1474 1474 1474 1473 1473 1472 1471 1471 1470 1470 1470 1469 1469 1469 1469 1469 1469 1469 1469 1469 1468 1468 1468 1468 1469 1469 1469 1469 1470 1470 1469 1469 1469 1469 1469 1468 1468 1467 1466 1465 1463 1461 1460 1460 1458 1457 1454 1454 1452 1450 1449 1448 1448 1447 1447 1446 1446 1446 1447 1449 1450 1452 1453 1454 1456 1458 1459 1461 1462 1463 1464 1465 1466 1466 1467 1467 1468 1468 1468 1468 1468 1468 1468 1468 1468 1468 1468 1468 1467 1467 1467 1467 1467 1467 1467 1467 1467 1466 1465 1464 1464 1464 1464 1464 1463 1462 1462 1460 1459 1458 1458 1456 1455 1455 1453 1452 1450 1447 1446 1444 1442 1441 1441 1440 1439 1437 1435 1433 1431 1431 1431 1430 1427 1426 1425 1425 1425 1423 1420 1417 1413 1410 1407 1404 1398 1387 1376 1373 1369 1363 1326 1294 1288 1280 1279 1275 1261 1243 1243 1243 1265 1281 1300 1312 1312 1312 1307 0 0 0 0 0 0 0 0 0 0 0 0 0 769 769 769 771 771 771 758 749 731 0 0 0 0 599 594 594 589 589 583 569 569 569 581 594 600 600
865 865 885 906 911 919 923 925 925 925 909 907 894 884 884 884 908 921 935 952 952 952 960 960 960 961 0 0 0 0 0 0 0 0 0 0 760 755 755 754 752 747 747 747 753 774 790 804 804 804 799 788 786 786 786 786 786 0 0 0 0 0 661 662 665 667 667 665 659 652 648 626 606 600 600 600 609 612 0 0 0 0 0 650 658 681 681 681 681 681 684 710 750 765 779 793 802 812 822 822 822 819 809 809 0 0 0 0 0 0 0 0 0 0 0 0 1486 1519 1542 1554 1562 1569 1574 1578 1581 1581 1583 1585 1586 1589 1593 1595 1597 1599 1599 1604 1609 1612 1614 1616 1619 1623 1624 1627 1629 1629 1632 1633 1634 1636 1638 1641 1643 1644 1645 1646 1648 1649 1650 1651 1652 1652 1652 1652 1652 1653 1655 1655 1658 1659 1661 1662 1663 1664 1666 1667 1668 1668 1668 1668 1668 1668 1668 1665 0 0 0 0 0 0 0 0 0 0 0 0 0 885 879 876 0 0 0 0 0 0 0 0 0 851 851 851 852 852 860 861 860 851 851 838 824 824 822 820 819 819 819 827 834 834 834 834 834 835 845 852 864 871 875 883 896 896 896 876 856 854 854 854 860 879 0 0 0 0 0 0 0 0 0 0 0 0 0 0 0 0 2173 2173 2173 2163 0 0 0 0 0 0 0 0 0 0 1619 1605 1605 1596 1593 1590 1589 1588 1585 1583 1580 1579 1576 1573 1569 1566 1562 1560 1557 1555 1552 1551 1548 1546 1543 1540 1539 1538 1537 1534 1531 1530 1528 1526 1524 1523 1522 1521 1520 1518 1516 1515 1515 1513 1510 1509 1506 1506 1505 1504 1503 1502 1501 1501 1500 1498 1497 1496 1495 1494 1493 1492 1491 1490 1490 1490 1489 1488 1488 1488 1487 1487 1486 1485 1484 1483 1482 1481 1480 1480 1479 1479 1478 1478 1478 1476 1476 1476 1476 1475 1474 1473 1473 1473 1473 1472 1472 1472 1472 1471 1472 1471 1471 1472 1472 1472 1472 1472 1472 1472 1472 1472 1472 1471 1471 1471 1471 1471 1471 1471 1470 1470 1470 1470 1469 1469 1469 1468 1468 1468 1468 1468 1468 1468 1467 1467 1467 1467 1467 1467 1467 1467 1467 1467 1468 1469 1470 1471 1471 1472 1472 1473 1473 1473 1474 1474 1474 1473 1472 1471 1470 1469 1469 1469 1469 1468 1468 1467 1467 1467 1467 1467 1467 1467 1467 1467 1468 1468 1468 1468 1469 1469 1469 1469 1469 1469 1468 1468 1468 1467 1467 1466 1465 1464 1462 1460 1459 1458 1457 1455 1454 1453 1452 1450 1449 1448 1448 1446 1445 1445 1445 1445 1446 1448 1448 1450 1452 1453 1455 1456 1458 1460 1460 1461 1463 1463 1465 1465 1466 1466 1467 1467 1467 1467 1467 1467 1467 1467 1467 1466 1466 1466 1466 1465 1465 1465 1465 1465 1465 1464 1464 1464 1463 1462 1462 1461 1460 1460 1460 1459 1458 1457 1456 1456 1454 1454 1453 1453 1451 1449 1447 1444 1443 1442 1441 1439 1437 1437 1435 1433 1432 1430 1430 1428 1428 1426 1423 1423 1421 1420 1419 1418 1415 1412 1408 1405 1402 1398 1392 1383 1376 1373 1369 1363 1326 1306 1288 1280 1279 1275 1261 1240 1238 1238 1238 1248 1271 1298 1309 1309 1309 0 0 0 0 0 0 0 0 0 0 0 0 766 754 754 754 761 761 761 758 749 0 0 0 0 589 589 589 597 596 596 596 581 581 581 583 594 595 595
865 865 887 907 913 921 924 925 925 925 909 907 894 894 894 0 947 963 971 971 971 962 962 962 978 983 994 1039 0 0 0 0 0 0 0 769 755 753 753 753 753 750 750 750 761 784 807 826 0 0 0 801 796 793 792 786 783 0 0 0 654 654 654 662 672 672 672 667 657 644 628 626 610 608 608 610 0 0 0 0 0 0 0 684 684 697 705 705 705 705 707 711 744 755 761 780 802 812 822 827 831 831 831 827 821 821 0 0 0 0 0 0 0 0 0 1504 1506 1534 1547 1558 1564 1570 1576 1578 1578 1578 1579 1581 1582 1582 1585 1586 1586 1587 1589 1595 1601 1603 1604 1607 1613 1615 1618 1620 1622 1626 1628 1629 1629 1632 1635 1638 1639 1639 1641 1642 1643 1644 1645 1647 1647 1647 1648 1649 1649 1650 1651 1653 1654 1655 1658 1660 1661 1661 1663 1664 1664 1664 1664 1664 1664 1664 1664 0 0 0 0 0 0 0 0 0 0 0 0 0 0 0 0 0 0 0 0 0 0 0 0 0 0 876 852 852 852 852 852 850 848 838 832 820 810 810 810 813 813 815 820 835 840 840 840 834 834 834 839 851 864 871 875 883 896 896 896 876 856 848 848 846 848 846 0 0 0 0 0 0 0 0 0 0 0 0 0 0 0 2148 2173 2181 2181 2181 2181 2172 2165 0 0 0 0 0 0 0 1628 1618 1607 1598 1593 1590 1588 1586 1583 1581 1579 1577 1574 1571 1568 1565 1562 1558 1556 1553 1552 1550 1547 1544 1542 1539 1538 1536 1535 1534 1530 1529 1527 1525 1523 1522 1520 1520 1518 1516 1515 1514 1512 1511 1509 1508 1505 1504 1504 1503 1502 1501 1499 1498 1498 1496 1496 1495 1493 1493 1492 1491 1490 1489 1488 1488 1488 1488 1488 1487 1487 1486 1485 1484 1483 1483 1481 1480 1480 1479 1479 1478 1477 1477 1476 1476 1475 1475 1475 1474 1473 1473 1472 1472 1471 1471 1471 1471 1471 1471 1471 1471 1471 1471 1471 1471 1472 1472 1472 1472 1472 1472 1471 1471 1471 1470 1470 1470 1470 1470 1469 1469 1469 1468 1468 1468 1467 1467 1467 1467 1467 1466 1467 1467 1467 1467 1467 1466 1466 1466 1466 1466 1466 1466 1467 1467 1468 1469 1470 1471 1471 1471 1471 1472 1472 1472 1472 1471 1471 1469 1469 1468 1468 1467 1467 1466 1466 1466 1466 1466 1466 1467 1467 1467 1467 1467 1467 1467 1467 1468 1468 1468 1468 1468 1468 1468 1468 1467 1467 1466 1466 1465 1464 1463 1461 1460 1459 1458 1456 1455 1454 1453 1451 1450 1449 1447 1446 1445 1445 1444 1443 1443 1443 1444 1447 1448 1451 1451 1453 1454 1456 1458 1460 1461 1462 1462 1463 1464 1464 1464 1466 1466 1466 1466 1466 1466 1466 1466 1465 1465 1464 1464 1464 1464 1464 1463 1463 1463 1463 1463 1462 1462 1461 1461 1460 1459 1459 1458 1457 1457 1456 1455 1455 1453 1452 1452 1451 1450 1449 1447 1444 1442 1441 1441 1439 1438 1435 1434 1432 1430 1429 1427 1427 1426 1424 1421 1419 1417 1416 1415 1414 1412 1410 1408 1405 1402 1399 1395 1390 1381 1376 1374 1369 1351 1326 1306 1288 1279 1279 1275 1261 1238 1228 1228 1228 1231 1246 1272 1293 1294 1294 0 0 0 0 0 0 0 0 0 0 0 0 749 749 749 751 755 755 755 752 740 0 0 0 589 589 589 597 600 600 600 600 583 583 583 583 586 594 594
846 846 887 907 916 922 925 929 929 929 926 926 926 928 946 961 974 979 979 979 973 962 962 962 978 983 1003 1039 1039 0 0 0 0 0 0 755 753 753 753 753 753 754 761 766 0 0 0 0 0 0 0 852 824 806 792 786 782 0 0 658 654 654 654 662 672 672 672 667 642 627 612 611 611 612 623 0 0 0 0 0 0 0 731 716 716 716 726 728 728 726 726 728 744 755 759 770 788 807 822 827 832 834 845 850 850 850 850 0 0 0 0 0 0 0 1498 1507 1519 1540 1553 1559 1564 1571 1576 1577 1577 1577 1577 1577 1578 1578 1578 1578 1579 1580 1581 1585 1589 1592 1595 1596 1600 1607 1610 1613 1614 1618 1622 1624 1626 1629 1631 1634 1635 1635 1635 1637 1639 1641 1642 1642 1643 1645 1645 1646 1646 1647 1649 1650 1652 1654 1656 1659 1659 1659 1659 1660 1660 1661 1661 1661 1661 1661 1651 0 0 0 0 0 0 0 0 0 0 0 0 0 0 0 0 0 0 0 0 0 0 0 0 0 0 0 852 847 841 839 839 829 827 821 811 804 788 788 788 798 813 814 821 836 841 841 841 835 835 835 839 851 855 869 875 883 896 896 896 876 852 848 848 846 846 844 841 841 841 0 0 0 0 0 0 0 0 0 0 0 0 2120 2149 2181 2187 2195 2195 2195 2191 2184 2172 0 0 0 0 0 1638 1631 1607 1598 1592 1587 1586 1584 1582 1580 1578 1576 1573 1570 1567 1563 1561 1558 1555 1553 1550 1548 1546 1544 1541 1538 1536 1535 1535 1532 1530 1528 1526 1525 1523 1522 1520 1519 1518 1516 1514 1513 1512 1511 1508 1506 1505 1503 1502 1501 1500 1499 1498 1497 1496 1496 1495 1494 1492 1491 1490 1490 1489 1488 1487 1487 1487 1487 1486 1486 1485 1484 1483 1483 1483 1481 1480 1480 1479 1478 1478 1477 1476 1476 1476 1475 1475 1475 1474 1473 1473 1472 1472 1471 1471 1471 1471 1471 1471 1471 1471 1471 1471 1471 1471 1471 1471 1471 1471 1471 1471 1471 1471 1470 1470 1470 1469 1469 1469 1469 1469 1468 1468 1467 1467 1467 1466 1466 1466 1466 1466 1466 1466 1466 1466 1465 1465 1465 1465 1465 1465 1465 1465 1465 1466 1467 1468 1468 1469 1470 1470 1471 1471 1471 1470 1470 1470 1470 1469 1468 1468 1467 1467 1466 1465 1465 1465 1465 1465 1465 1465 1465 1466 1466 1466 1466 1466 1466 1466 1466 1466 1466 1467 1467 1467 1467 1467 1466 1466 1464 1464 1463 1462 1462 1461 1460 1458 1457 1456 1454 1453 1452 1451 1449 1448 1446 1445 1444 1443 1442 1442 1442 1442 1442 1445 1447 1448 1449 1451 1453 1455 1458 1459 1460 1460 1461 1463 1463 1464 1464 1464 1465 1465 1465 1465 1464 1464 1464 1464 1464 1463 1463 1462 1462 1461 1461 1461 1461 1461 1461 1461 1459 1459 1459 1458 1457 1456 1456 1455 1455 1454 1453 1452 1451 1451 1450 1449 1448 1447 1445 1442 1441 1439 1438 1436 1435 1433 1431 1429 1427 1426 1426 1423 1422 1419 1416 1414 1412 1411 1410 1409 1408 1406 1404 1402 1400 1398 1395 1390 1381 1376 1374 1363 1351 1327 1306 1288 1278 1276 1265 1255 1233 1227 1227 1226 1227 1227 1232 1270 1294 0 0 0 0 0 0 0 0 0 0 0 0 0 741 741 741 739 739 738 732 732 725 0 0 0 589 589 597 601 605 605 601 600 583 583 583 583 584 590 590
846 846 887 906 917 926 928 929 930 930 933 934 935 951 957 962 974 979 979 979 973 959 959 959 978 988 1003 1029 1029 0 0 0 0 0 0 745 745 745 752 752 754 755 761 791 0 0 0 0 0 0 0 0 844 817 792 779 0 0 0 658 658 658 662 662 664 664 664 633 616 612 606 606 612 612 624 0 0 0 0 764 764 764 747 738 738 738 757 757 757 744 744 744 744 755 756 763 776 793 809 824 832 834 845 850 869 886 886 0 0 0 0 0 0 0 1502 1516 1539 1551 1558 1564 1568 1573 1576 1576 1576 1575 1575 1575 1576 1576 1576 1575 1574 1574 1574 1577 1581 1584 1585 1587 1592 1598 1603 1606 1607 1609 1613 1618 1621 1625 1627 1629 1632 1632 1632 1633 1635 1637 1638 1639 1640 1640 1642 1643 1644 1645 1646 1648 1649 1652 1654 1656 1657 1657 1657 1656 1656 1656 1657 1657 1657 1653 0 0 0 0 0 0 0 0 0 0 0 0 0 0 0 0 0 0 0 0 0 0 0 0 0 0 0 0 0 821 815 814 813 809 808 807 803 803 788 788 788 795 814 816 823 843 848 848 848 843 839 839 839 851 855 856 864 865 878 878 878 876 857 857 856 854 854 844 841 841 841 859 878 908 0 0 0 0 0 0 0 0 2042 2095 2125 2149 2181 2198 2198 2198 2194 2184 2174 2155 0 0 0 0 1672 1631 1607 1598 1591 1585 1583 1582 1580 1578 1576 1574 1571 1568 1565 1562 1559 1556 1553 1551 1549 1547 1544 1542 1540 1537 1535 1533 1532 1531 1529 1527 1526 1524 1523 1521 1519 1519 1517 1516 1514 1512 1511 1509 1507 1505 1504 1503 1501 1500 1499 1498 1497 1495 1495 1494 1493 1492 1492 1491 1489 1488 1488 1487 1486 1486 1486 1486 1485 1485 1484 1483 1482 1482 1482 1481 1479 1478 1478 1478 1478 1476 1476 1476 1475 1475 1474 1474 1474 1472 1472 1471 1470 1470 1470 1470 1470 1470 1470 1470 1470 1471 1471 1471 1471 1471 1471 1471 1471 1471 1471 1471 1470 1470 1470 1469 1469 1469 1469 1468 1468 1467 1467 1467 1466 1466 1466 1466 1466 1465 1465 1465 1465 1464 1464 1464 1464 1464 1464 1464 1464 1464 1464 1465 1465 1466 1466 1467 1468 1468 1469 1469 1469 1469 1469 1469 1468 1468 1468 1467 1467 1466 1465 1465 1465 1464 1464 1464 1464 1464 1464 1464 1464 1464 1465 1464 1464 1465 1465 1465 1466 1466 1466 1466 1466 1466 1466 1465 1465 1463 1463 1462 1462 1462 1460 1460 1458 1456 1455 1453 1452 1451 1449 1448 1447 1446 1444 1442 1441 1441 1440 1440 1440 1441 1442 1444 1445 1446 1448 1451 1454 1456 1458 1459 1460 1460 1462 1462 1462 1463 1463 1463 1463 1463 1463 1463 1463 1463 1462 1462 1462 1461 1461 1460 1460 1460 1460 1460 1460 1459 1459 1458 1458 1457 1457 1455 1454 1454 1454 1454 1453 1452 1451 1449 1449 1448 1447 1446 1444 1442 1441 1438 1438 1435 1434 1432 1429 1428 1425 1425 1423 1421 1419 1419 1417 1413 1411 1408 1406 1404 1404 1403 1402 1399 1397 1397 1397 1393 1387 1381 1376 1373 1361 1348 1327 1306 1286 1275 1271 1257 1237 1228 1226 1226 1225 1217 1217 1217 1230 1270 0 0 0 0 0 0 0 0 0 0 0 0 0 741 741 741 739 737 736 727 727 723 0 0 0 609 609 609 609 609 608 601 600 583 582 577 577 577 581 581
846 846 882 906 917 928 934 935 935 935 935 940 949 951 957 962 974 978 978 978 966 959 959 959 974 992 999 999 999 0 0 0 0 0 731 731 731 743 752 752 764 765 776 0 0 0 0 0 0 0 0 0 0 0 0 0 0 0 0 679 679 675 675 668 662 649 0 605 605 605 605 606 612 624 647 0 0 0 768 768 768 764 755 755 755 766 788 788 788 771 770 761 760 760 756 756 756 756 783 796 819 834 845 850 869 888 893 0 0 0 0 0 0 1500 1502 1527 1551 1563 1567 1568 1568 1573 1575 1575 1575 1575 1575 1575 1575 1575 1575 1572 1572 1572 1572 1573 1576 1578 1579 1582 1586 1592 1597 1598 1601 1602 1606 1610 1614 1620 1623 1626 1627 1627 1628 1629 1631 1634 1635 1635 1636 1637 1638 1641 1641 1643 1643 1645 1647 1649 1652 1653 1653 1653 1653 1653 1653 1653 1654 1654 1654 1634 0 0 0 0 1124 1120 1118 0 0 0 0 0 0 0 0 0 0 0 0 0 0 0 0 0 0 0 0 0 0 811 810 793 792 792 793 796 796 796 788 788 788 793 809 823 846 859 860 860 860 853 841 841 841 843 843 843 853 854 854 874 874 874 861 861 861 885 885 885 841 841 841 859 877 898 0 0 0 0 0 0 0 0 2028 2065 2101 2127 2156 2187 2194 2194 2194 2184 2174 2155 0 0 0 1672 1669 1631 1605 1597 1589 1584 1582 1580 1579 1576 1573 1571 1569 1565 1562 1559 1556 1554 1552 1550 1548 1546 1544 1541 1538 1536 1534 1532 1531 1529 1528 1526 1525 1523 1522 1520 1519 1517 1516 1515 1513 1512 1509 1507 1505 1504 1502 1501 1499 1499 1497 1496 1495 1494 1493 1492 1492 1491 1490 1489 1488 1487 1486 1486 1485 1485 1485 1484 1484 1484 1482 1481 1481 1481 1480 1480 1479 1478 1477 1477 1477 1476 1475 1475 1474 1474 1474 1474 1473 1472 1472 1471 1470 1470 1470 1470 1470 1470 1470 1470 1470 1470 1471 1471 1471 1471 1471 1470 1470 1470 1470 1470 1470 1470 1469 1469 1469 1469 1469 1468 1467 1467 1466 1466 1466 1465 1465 1464 1464 1464 1464 1464 1464 1464 1464 1463 1463 1463 1463 1463 1463 1463 1464 1464 1465 1466 1466 1466 1467 1467 1467 1468 1468 1468 1468 1467 1467 1466 1466 1466 1465 1465 1464 1464 1463 1463 1463 1463 1463 1463 1463 1463 1463 1463 1463 1463 1464 1464 1465 1465 1465 1465 1465 1465 1465 1465 1465 1464 1463 1462 1461 1461 1460 1460 1460 1459 1456 1456 1454 1452 1452 1450 1448 1448 1446 1445 1444 1442 1440 1440 1439 1439 1439 1439 1440 1442 1444 1445 1446 1449 1452 1454 1457 1458 1458 1460 1460 1461 1461 1461 1462 1462 1462 1462 1462 1461 1461 1461 1461 1461 1460 1460 1459 1459 1458 1458 1458 1458 1458 1458 1456 1456 1456 1455 1454 1454 1453 1453 1453 1453 1451 1450 1448 1448 1448 1447 1446 1444 1442 1439 1438 1436 1434 1433 1431 1429 1427 1425 1423 1422 1420 1417 1416 1415 1415 1412 1409 1404 1402 1400 1400 1399 1398 1395 1394 1391 1390 1389 1387 1380 1374 1373 1358 1337 1327 1306 1285 1272 1265 1251 1230 1221 1217 1216 1213 1203 1203 1203 1209 1215 0 0 0 0 0 0 0 0 0 0 0 0 0 741 741 741 734 734 734 726 726 716 0 0 611 611 610 609 609 601 595 583 581 581 579 577 577 576 572 576
848 848 882 903 917 928 936 936 936 937 939 940 949 951 957 962 972 972 972 961 957 957 957 959 974 988 992 992 992 0 0 0 0 0 709 709 726 740 751 760 772 795 795 0 0 0 0 0 0 0 0 0 0 0 0 0 0 0 0 694 692 692 692 665 636 0 0 594 594 600 605 620 648 649 0 0 0 746 769 769 769 764 758 758 758 779 807 807 807 790 781 780 775 764 756 756 756 756 779 789 799 816 833 849 869 888 893 0 0 0 0 0 0 1498 1502 1536 1557 1563 1567 1568 1568 1573 1573 1573 1573 1573 1573 1573 1573 1573 1572 1571 1569 1569 1569 1571 1572 1574 1576 1577 1581 1584 1586 1589 1593 1594 1596 1598 1603 1610 1615 1619 1621 1623 1625 1626 1629 1630 1632 1633 1634 1634 1636 1638 1639 1640 1641 1642 1644 1646 1648 1649 1650 1650 1651 1651 1651 1651 1651 1651 1639 0 0 0 0 1148 1124 1124 1120 1120 0 0 0 0 0 0 0 0 0 0 1203 1209 1209 0 0 0 0 0 0 0 0 792 784 784 782 782 784 795 799 799 799 792 792 792 809 823 846 859 863 863 863 853 841 841 841 843 843 843 836 836 836 853 858 858 865 865 880 885 885 885 858 858 858 860 875 890 0 0 0 0 0 0 0 0 2023 2047 2080 2117 2146 2174 2194 2194 2194 2184 2174 2155 0 0 0 1672 1669 1617 1602 1594 1588 1583 1580 1579 1578 1574 1571 1568 1566 1563 1560 1557 1554 1552 1551 1548 1547 1545 1543 1541 1538 1536 1533 1532 1530 1528 1526 1525 1524 1523 1521 1520 1518 1517 1516 1514 1512 1511 1508 1506 1503 1502 1501 1499 1497 1496 1494 1494 1493 1493 1492 1491 1491 1490 1489 1488 1487 1486 1485 1485 1485 1484 1484 1483 1482 1482 1481 1481 1480 1480 1480 1479 1478 1477 1477 1476 1476 1475 1475 1474 1474 1474 1473 1473 1472 1472 1471 1471 1470 1470 1470 1470 1470 1470 1470 1470 1470 1470 1470 1471 1471 1471 1470 1470 1470 1470 1470 1470 1469 1469 1469 1468 1468 1468 1468 1467 1467 1466 1466 1465 1465 1464 1464 1464 1464 1464 1463 1463 1463 1463 1463 1463 1463 1463 1463 1463 1462 1462 1462 1462 1463 1464 1465 1465 1465 1466 1466 1466 1466 1466 1466 1466 1466 1466 1465 1465 1464 1464 1463 1462 1462 1462 1462 1461 1461 1461 1462 1462 1462 1462 1462 1463 1463 1463 1463 1464 1464 1464 1464 1464 1464 1464 1464 1463 1462 1461 1460 1459 1459 1458 1458 1457 1456 1454 1453 1451 1451 1449 1448 1446 1445 1443 1442 1441 1440 1439 1438 1437 1437 1437 1438 1441 1442 1443 1445 1448 1450 1452 1455 1457 1458 1458 1459 1459 1460 1460 1461 1461 1461 1460 1460 1459 1459 1459 1459 1458 1458 1458 1458 1457 1457 1457 1456 1456 1456 1456 1455 1455 1453 1452 1452 1452 1451 1451 1451 1451 1449 1448 1447 1446 1446 1445 1444 1442 1440 1437 1436 1434 1433 1430 1429 1427 1424 1422 1420 1419 1416 1414 1413 1412 1411 1410 1406 1402 1400 1398 1398 1397 1395 1391 1388 1386 1384 1383 1382 1378 1372 1363 1352 1335 1327 1304 1285 1268 1251 1241 1230 1221 1211 1206 1197 1184 1184 1182 1182 1182 0 0 0 0 0 0 0 0 0 0 0 0 0 737 737 737 734 734 733 726 726 706 673 643 616 613 610 609 609 596 578 563 563 563 572 576 576 572 567 567
851 851 882 903 915 928 936 936 939 940 942 945 949 951 955 960 969 969 969 953 950 950 950 957 973 979 981 981 0 0 0 0 0 0 702 702 717 739 751 762 777 809 0 0 0 0 0 0 0 0 0 0 0 0 0 0 0 0 0 0 702 702 702 665 0 0 0 0 590 600 614 0 0 0 0 0 0 759 769 769 769 760 760 760 762 783 809 817 817 817 802 801 793 780 756 756 756 756 779 789 797 798 815 829 846 862 883 0 0 0 0 0 1458 1498 1503 1544 1557 1563 1567 1568 1568 1570 1570 1571 1571 1571 1571 1571 1571 1570 1569 1569 1568 1567 1567 1567 1569 1570 1571 1573 1575 1577 1579 1582 1583 1585 1586 1587 1592 1599 1604 1609 1613 1615 1618 1621 1624 1628 1629 1630 1631 1632 1635 1637 1638 1638 1639 1639 1641 1642 1644 1646 1647 1647 1648 1650 1650 1650 1648 1643 0 0 0 0 0 1124 1128 1128 1120 1120 0 0 0 0 0 0 0 0 0 1183 1203 1209 1209 1209 0 0 0 0 0 0 0 773 757 757 757 765 777 792 798 798 798 787 787 787 801 823 846 859 863 863 863 853 841 841 841 843 843 843 836 832 832 832 839 854 858 871 884 885 885 885 869 864 864 864 875 888 0 0 0 0 0 0 0 0 2013 2031 2066 2105 2136 2170 2192 2192 2192 2184 2172 2152 0 0 0 1669 1657 1611 1597 1593 1586 1583 1579 1578 1575 1573 1569 1566 1564 1561 1558 1555 1552 1551 1549 1546 1544 1542 1541 1539 1537 1536 1533 1531 1529 1527 1525 1524 1523 1522 1520 1519 1517 1516 1514 1512 1510 1509 1507 1505 1502 1501 1500 1498 1497 1495 1494 1492 1492 1492 1491 1491 1489 1489 1488 1486 1486 1485 1484 1484 1483 1483 1482 1482 1481 1481 1480 1480 1480 1478 1478 1478 1477 1477 1476 1475 1475 1474 1474 1473 1473 1472 1472 1472 1471 1471 1470 1470 1470 1470 1470 1470 1470 1470 1469 1469 1470 1470 1470 1470 1470 1470 1470 1470 1469 1469 1469 1469 1469 1469 1469 1468 1468 1467 1467 1467 1466 1465 1465 1465 1464 1463 1463 1463 1463 1463 1462 1462 1462 1462 1462 1462 1462 1462 1462 1462 1462 1462 1461 1461 1461 1462 1463 1464 1464 1464 1464 1464 1465 1465 1465 1465 1465 1465 1465 1464 1464 1463 1463 1461 1461 1461 1460 1460 1460 1460 1460 1460 1461 1461 1462 1462 1462 1462 1462 1462 1462 1462 1462 1462 1462 1462 1462 1461 1461 1460 1459 1457 1457 1457 1456 1455 1455 1453 1452 1451 1450 1449 1447 1446 1444 1443 1442 1440 1438 1438 1436 1436 1436 1437 1437 1439 1441 1442 1444 1446 1448 1451 1453 1456 1456 1457 1458 1458 1458 1459 1459 1459 1459 1459 1458 1458 1457 1456 1456 1456 1456 1456 1455 1455 1455 1455 1455 1455 1455 1455 1454 1452 1452 1450 1450 1450 1450 1449 1449 1449 1448 1447 1445 1444 1443 1442 1441 1439 1436 1436 1433 1432 1429 1428 1427 1426 1424 1421 1418 1416 1414 1411 1410 1408 1406 1404 1401 1399 1397 1396 1395 1394 1393 1387 1382 1379 1379 1379 1378 1372 1366 1353 1349 1329 1321 1304 1285 1268 1248 1239 1230 1221 1210 1198 1181 1160 1155 1149 1146 1144 1144 1144 1154 1154 0 0 0 0 0 0 0 0 0 735 735 735 734 734 726 724 724 701 669 640 617 615 614 613 609 590 563 550 550 550 568 570 570 570 567 567
851 851 877 897 915 928 934 936 939 941 943 946 949 950 953 959 964 964 964 951 942 942 942 955 968 968 968 0 0 0 0 0 0 702 702 702 717 736 751 762 0 0 0 0 0 0 0 0 0 0 0 0 0 0 0 0 0 0 0 0 0 0 703 662 0 0 0 0 0 0 0 0 0 0 0 0 0 769 769 769 769 760 760 760 770 793 821 844 844 844 835 827 826 812 793 779 779 779 779 789 797 798 807 817 830 851 0 0 0 0 0 1468 1484 1500 1520 1544 1557 1561 1563 1565 1565 1565 1566 1568 1569 1570 1570 1570 1569 1569 1567 1567 1565 1564 1564 1564 1565 1566 1567 1569 1571 1573 1574 1575 1577 1579 1580 1582 1584 1588 1593 1597 1602 1607 1609 1615 1620 1624 1626 1627 1628 1630 1631 1634 1635 1637 1637 1638 1638 1640 1641 1641 1643 1644 1645 1646 1648 1648 1648 1642 0 0 0 0 1128 1124 1128 1128 1120 0 0 0 0 0 0 0 0 0 0 1183 1203 1203 1203 1203 0 0 0 0 0 0 0 763 757 757 757 760 766 786 798 798 798 787 787 787 793 805 819 842 863 863 863 843 835 831 831 831 836 836 836 827 827 827 839 854 859 871 884 885 885 885 878 865 865 865 875 888 0 0 0 0 0 0 0 0 2003 2028 2047 2080 2115 2146 2170 2171 2171 2171 2156 2118 0 0 0 1664 1648 1606 1595 1590 1584 1581 1578 1575 1573 1569 1566 1563 1562 1561 1558 1554 1552 1549 1547 1545 1542 1540 1538 1536 1535 1534 1532 1531 1529 1526 1524 1523 1522 1521 1519 1519 1517 1515 1512 1510 1509 1507 1506 1503 1501 1499 1498 1497 1496 1495 1493 1492 1491 1490 1490 1489 1488 1487 1487 1485 1484 1484 1483 1483 1482 1481 1481 1480 1480 1480 1479 1478 1478 1477 1477 1476 1475 1475 1475 1474 1473 1473 1472 1472 1472 1471 1471 1471 1471 1471 1470 1470 1470 1470 1470 1469 1469 1468 1468 1468 1468 1468 1469 1469 1469 1469 1469 1469 1469 1469 1469 1469 1469 1468 1468 1468 1468 1467 1466 1466 1465 1465 1464 1464 1463 1462 1462 1462 1462 1461 1461 1461 1461 1461 1461 1461 1461 1460 1460 1460 1460 1460 1460 1460 1460 1460 1461 1462 1462 1463 1463 1463 1463 1463 1464 1464 1464 1464 1463 1463 1463 1462 1462 1461 1460 1460 1460 1460 1460 1460 1460 1460 1460 1461 1461 1461 1461 1461 1461 1461 1461 1461 1461 1461 1461 1460 1460 1459 1459 1459 1458 1457 1457 1456 1456 1454 1453 1452 1451 1450 1448 1447 1446 1444 1443 1442 1440 1438 1437 1436 1435 1435 1435 1435 1435 1437 1439 1440 1443 1445 1448 1449 1452 1454 1456 1456 1456 1456 1457 1457 1457 1457 1457 1456 1456 1455 1455 1454 1453 1453 1453 1453 1453 1453 1453 1453 1453 1453 1453 1452 1452 1451 1450 1450 1449 1449 1448 1448 1448 1447 1446 1445 1443 1441 1439 1439 1439 1437 1435 1433 1431 1429 1428 1427 1425 1424 1422 1418 1416 1414 1412 1409 1406 1403 1401 1397 1395 1393 1393 1392 1391 1391 1389 1386 1381 1378 1377 1375 1372 1366 1353 1342 1330 1322 1314 1304 1286 1266 1244 1236 1229 1221 1209 1191 1162 1141 1132 1126 1119 1115 1114 1114 1114 1135 1135 0 0 0 0 0 0 0 0 721 728 728 728 728 725 721 713 690 665 640 621 615 615 615 603 577 553 548 548 548 551 565 569 569 569 569
851 851 876 891 913 925 933 935 937 941 943 946 948 950 952 956 956 956 950 945 942 942 942 955 957 957 0 0 0 0 0 0 711 709 709 709 717 734 749 0 0 0 0 0 0 0 0 0 0 0 0 0 0 0 0 0 0 0 0 0 0 0 0 0 0 0 0 0 0 0 0 0 0 0 0 0 0 0 779 777 769 760 760 760 787 813 843 862 862 862 857 855 855 841 826 815 815 812 809 805 805 805 807 817 830 0 0 0 0 0 0 1472 1502 1505 1530 1544 1555 1558 1559 1562 1562 1562 1563 1563 1564 1566 1567 1567 1567 1567 1565 1564 1563 1561 1561 1561 1563 1563 1564 1565 1566 1568 1568 1569 1571 1572 1575 1578 1580 1582 1584 1588 1595 1598 1602 1609 1614 1618 1620 1623 1624 1627 1628 1632 1633 1634 1634 1635 1636 1637 1638 1640 1641 1641 1642 1642 1645 1645 1645 0 0 0 0 0 1117 1117 1120 1117 1117 0 0 0 937 0 0 0 0 0 0 0 1179 1180 1180 0 0 0 0 0 0 0 778 761 757 756 756 757 761 777 790 790 790 785 785 785 793 797 798 818 843 843 843 828 826 826 826 830 833 833 833 827 827 827 839 854 862 873 885 885 885 0 0 0 0 0 0 0 0 0 0 0 0 0 0 0 0 2013 2027 2054 2094 2126 2151 2156 2156 2156 2123 0 0 0 1664 1663 1633 1602 1593 1586 1581 1578 1575 1572 1570 1567 1564 1562 1560 1558 1557 1554 1550 1548 1545 1543 1541 1538 1537 1535 1534 1532 1532 1530 1528 1525 1524 1522 1521 1520 1518 1518 1515 1514 1512 1508 1507 1506 1503 1501 1500 1498 1497 1496 1495 1493 1493 1491 1490 1489 1489 1487 1487 1487 1486 1485 1483 1482 1482 1482 1481 1480 1480 1479 1479 1478 1478 1477 1477 1476 1475 1475 1475 1474 1474 1472 1472 1472 1471 1471 1471 1471 1471 1471 1471 1470 1470 1470 1470 1470 1469 1469 1469 1468 1467 1467 1467 1468 1468 1468 1468 1468 1468 1468 1468 1468 1468 1468 1468 1467 1467 1467 1467 1466 1466 1465 1465 1464 1464 1464 1463 1462 1462 1461 1461 1461 1461 1461 1460 1460 1460 1460 1460 1459 1459 1459 1459 1459 1459 1459 1459 1460 1460 1460 1461 1461 1461 1461 1462 1462 1462 1462 1463 1463 1463 1462 1461 1461 1460 1460 1460 1459 1459 1459 1459 1459 1459 1459 1459 1460 1460 1460 1460 1460 1460 1460 1460 1460 1460 1460 1460 1459 1459 1459 1458 1457 1456 1455 1455 1455 1454 1453 1452 1451 1449 1448 1447 1446 1445 1443 1442 1440 1438 1437 1436 1434 1434 1434 1434 1434 1434 1435 1437 1439 1441 1444 1446 1449 1452 1454 1454 1455 1455 1455 1455 1455 1455 1455 1455 1455 1454 1453 1453 1452 1451 1451 1451 1451 1451 1451 1451 1451 1451 1451 1450 1450 1450 1449 1449 1448 1447 1446 1446 1446 1446 1445 1444 1441 1440 1439 1437 1436 1435 1435 1434 1431 1429 1427 1426 1425 1424 1421 1420 1417 1413 1410 1408 1406 1401 1399 1396 1391 1388 1388 1388 1387 1386 1385 1385 1383 1380 1376 1372 1368 1364 1360 1346 1341 1329 1318 1308 1300 1285 1266 1242 1235 1228 1221 1208 1186 1157 1137 1121 1109 1107 1098 1089 1089 1089 1089 1089 0 0 0 0 0 0 0 0 0 721 721 723 721 721 721 703 679 656 645 640 640 637 615 603 574 553 548 548 548 549 565 579 579 579 579
839 839 869 889 906 921 928 932 936 941 943 946 948 949 951 954 954 954 949 943 935 935 935 954 954 0 0 0 0 0 0 716 710 707 707 707 717 734 0 0 0 0 0 0 0 1082 1098 1103 1103 0 0 0 0 0 0 0 0 0 0 0 0 0 0 0 0 0 0 0 0 0 0 0 0 0 0 0 0 0 0 0 0 766 766 766 788 839 861 869 869 869 869 868 863 863 846 841 840 835 830 823 815 815 815 817 830 0 0 0 0 0 1439 1481 1509 1525 1530 1544 1549 1553 1556 1559 1559 1559 1560 1560 1561 1562 1564 1564 1564 1564 1563 1561 1559 1559 1559 1559 1559 1560 1561 1561 1562 1563 1564 1564 1567 1568 1570 1574 1577 1579 1581 1583 1588 1593 1595 1602 1608 1611 1614 1618 1621 1623 1625 1628 1629 1630 1631 1632 1633 1634 1636 1637 1637 1639 1639 1639 1642 1642 1642 0 0 0 0 1097 1096 1096 1096 1096 1096 0 0 0 936 914 0 0 0 0 0 0 0 0 0 0 0 0 0 0 0 0 771 757 757 756 756 757 761 776 790 790 790 785 785 785 791 795 798 818 837 837 837 815 815 815 817 829 829 829 817 817 817 827 840 0 0 0 0 0 0 0 0 0 0 0 0 0 0 0 0 0 0 0 0 0 0 0 2020 2049 2084 2126 2150 2150 2150 2136 2112 0 0 0 1654 1649 1626 1598 1590 1582 1578 1575 1572 1569 1567 1565 1562 1559 1558 1555 1553 1551 1548 1545 1543 1541 1539 1537 1536 1535 1533 1531 1531 1529 1527 1525 1523 1522 1520 1518 1517 1516 1514 1512 1510 1507 1506 1504 1502 1500 1498 1497 1495 1495 1494 1493 1492 1490 1490 1488 1487 1487 1486 1486 1484 1484 1483 1482 1481 1481 1481 1479 1479 1478 1478 1478 1477 1477 1475 1474 1474 1474 1473 1473 1472 1472 1472 1471 1471 1471 1471 1470 1470 1470 1470 1470 1470 1469 1469 1469 1469 1469 1468 1467 1467 1467 1467 1467 1467 1467 1467 1467 1467 1467 1467 1467 1467 1467 1467 1467 1466 1466 1466 1465 1465 1465 1464 1464 1463 1463 1462 1462 1461 1461 1461 1460 1460 1459 1459 1459 1459 1459 1459 1459 1458 1458 1458 1458 1458 1458 1458 1458 1459 1459 1459 1459 1460 1460 1460 1460 1460 1460 1461 1461 1461 1461 1461 1460 1459 1459 1459 1458 1458 1458 1458 1458 1458 1459 1459 1459 1459 1460 1460 1460 1460 1460 1460 1459 1459 1459 1458 1458 1458 1458 1457 1456 1454 1454 1453 1453 1452 1451 1450 1449 1448 1446 1446 1445 1443 1442 1440 1438 1437 1435 1433 1432 1432 1432 1433 1433 1433 1434 1436 1437 1439 1443 1445 1448 1451 1452 1452 1452 1452 1452 1453 1453 1453 1453 1453 1453 1451 1451 1450 1450 1450 1450 1450 1450 1450 1450 1449 1449 1449 1448 1448 1448 1448 1447 1447 1447 1446 1445 1444 1443 1443 1443 1441 1438 1438 1435 1434 1433 1433 1433 1432 1429 1427 1425 1425 1423 1420 1418 1417 1414 1411 1406 1404 1401 1395 1392 1386 1381 1381 1380 1380 1380 1380 1378 1377 1376 1375 1372 1366 1361 1357 1354 1345 1334 1328 1315 1305 1298 1283 1266 1242 1232 1223 1211 1191 1177 1152 1132 1106 1091 1088 1076 1076 1076 1078 1078 1078 1063 0 0 0 0 0 0 0 0 701 715 717 717 715 713 687 665 649 649 645 640 637 615 594 573 553 548 548 548 549 564 580 580 585 585
835 835 867 885 901 913 923 930 935 940 943 944 946 949 950 950 950 946 935 928 928 928 934 952 952 0 0 0 0 753 733 715 709 707 707 707 719 734 0 0 0 0 0 0 1063 1082 1098 1103 1103 1103 0 0 0 0 0 0 0 0 0 0 0 0 0 0 0 0 0 0 0 0 0 0 0 0 0 0 0 0 0 0 0 0 0 0 0 0 861 875 875 875 873 873 871 871 861 859 859 858 848 843 835 831 831 831 0 0 0 0 0 1439 1440 1491 1513 1525 1530 1537 1542 1547 1551 1555 1556 1556 1556 1557 1557 1558 1560 1560 1560 1559 1559 1558 1558 1558 1557 1557 1557 1557 1558 1558 1559 1560 1561 1562 1563 1566 1567 1571 1573 1575 1577 1579 1583 1589 1593 1595 1597 1601 1605 1610 1614 1618 1622 1624 1625 1625 1626 1629 1630 1632 1633 1634 1635 1636 1636 1636 1639 1639 0 0 0 0 0 1090 1074 1074 1074 1076 1076 0 0 0 920 915 915 0 0 0 0 0 0 0 0 0 0 0 0 0 0 0 747 743 743 743 757 757 761 776 790 790 790 787 787 787 791 795 798 818 833 833 833 800 799 799 799 816 816 816 815 815 815 827 848 0 0 0 0 0 0 0 0 0 0 0 0 0 0 0 0 0 0 0 0 0 0 0 0 2048 2084 2126 2150 2150 2150 2127 2102 0 0 0 1654 1649 1607 1589 1581 1577 1574 1571 1569 1567 1565 1563 1560 1558 1554 1552 1550 1548 1545 1543 1541 1540 1538 1537 1535 1534 1532 1531 1530 1528 1526 1524 1523 1521 1519 1517 1515 1514 1512 1511 1508 1506 1504 1502 1500 1499 1498 1496 1495 1494 1493 1492 1491 1489 1488 1487 1486 1485 1485 1484 1484 1482 1481 1481 1481 1480 1479 1479 1479 1478 1477 1476 1476 1475 1474 1473 1473 1472 1471 1471 1471 1470 1470 1470 1470 1470 1470 1470 1470 1470 1470 1470 1469 1469 1469 1469 1469 1468 1468 1467 1467 1467 1467 1467 1466 1466 1466 1466 1466 1466 1466 1466 1466 1466 1466 1466 1466 1465 1465 1465 1464 1464 1464 1463 1462 1462 1462 1461 1461 1461 1460 1460 1459 1459 1459 1458 1458 1458 1458 1458 1458 1457 1457 1457 1457 1457 1457 1457 1457 1457 1458 1458 1458 1458 1459 1459 1459 1460 1460 1460 1460 1460 1460 1459 1459 1458 1458 1458 1458 1457 1457 1457 1458 1458 1458 1458 1458 1459 1459 1459 1459 1458 1458 1458 1457 1457 1457 1457 1457 1456 1455 1454 1454 1453 1452 1451 1451 1450 1449 1448 1446 1445 1444 1443 1442 1440 1439 1437 1436 1433 1433 1431 1431 1431 1431 1431 1432 1433 1434 1436 1438 1441 1444 1446 1448 1450 1450 1450 1450 1450 1451 1451 1451 1451 1451 1450 1449 1449 1449 1449 1448 1448 1448 1448 1448 1447 1447 1447 1447 1446 1446 1446 1446 1446 1445 1445 1445 1443 1441 1441 1441 1440 1438 1436 1435 1432 1432 1431 1431 1431 1429 1426 1425 1423 1422 1421 1417 1415 1413 1410 1406 1402 1399 1394 1391 1386 1383 1380 1377 1377 1376 1375 1373 1371 1371 1368 1365 1358 1356 1354 1350 1346 1344 1332 1318 1311 1301 1294 1280 1251 1228 1217 1209 1188 1162 1160 1147 1109 1093 1088 1071 1069 1063 1062 1059 1059 1057 1048 0 0 0 0 0 0 0 0 0 703 703 703 700 690 664 640 640 640 640 640 637 615 591 570 558 555 547 547 547 564 580 580 586 586
835 835 867 882 897 906 916 924 931 937 940 942 944 944 944 944 943 932 922 918 918 918 934 934 934 0 0 0 755 733 728 715 707 707 707 707 719 740 0 0 0 0 0 1058 1071 1082 1098 1103 1103 1103 0 0 0 0 0 0 0 0 0 0 0 0 0 0 0 0 0 0 0 0 0 0 0 0 0 0 0 0 0 0 0 0 0 0 0 0 0 885 885 880 880 880 879 877 877 877 877 877 868 863 861 861 861 861 0 0 0 0 0 1445 1470 1503 1513 1525 1529 1531 1535 1540 1548 1551 1552 1552 1554 1554 1554 1555 1555 1555 1555 1555 1554 1554 1554 1554 1555 1555 1555 1555 1555 1555 1557 1557 1558 1559 1561 1563 1565 1566 1567 1569 1571 1574 1577 1582 1587 1591 1593 1595 1598 1601 1604 1608 1611 1613 1617 1619 1623 1624 1627 1630 1632 1632 1633 1633 1633 1633 1629 0 0 0 0 0 0 1066 1055 1055 1055 1055 1055 0 0 0 892 892 892 0 0 0 0 0 0 0 0 0 0 0 0 0 0 737 736 736 737 743 752 760 763 776 792 794 794 794 793 793 793 795 805 825 832 832 832 797 773 773 773 782 808 812 812 817 831 839 0 0 0 0 0 0 0 0 0 0 0 0 0 0 0 0 0 0 0 0 0 0 0 0 0 2048 2084 2128 2143 2143 2143 2120 2089 0 0 0 1649 1637 1604 1587 1578 1574 1571 1569 1567 1565 1564 1560 1558 1555 1552 1550 1547 1544 1542 1540 1539 1538 1536 1536 1533 1533 1532 1530 1529 1527 1525 1523 1521 1520 1518 1517 1515 1512 1510 1508 1506 1503 1503 1502 1500 1499 1496 1495 1493 1492 1491 1491 1489 1487 1487 1486 1485 1484 1483 1483 1482 1482 1480 1479 1479 1479 1478 1478 1477 1476 1476 1475 1475 1474 1473 1472 1471 1470 1470 1469 1469 1469 1469 1469 1469 1469 1469 1469 1469 1469 1469 1469 1469 1469 1469 1469 1468 1468 1468 1467 1466 1465 1465 1465 1465 1465 1465 1465 1465 1465 1465 1466 1466 1466 1466 1466 1465 1465 1465 1464 1464 1463 1463 1462 1462 1461 1461 1460 1460 1460 1460 1459 1459 1458 1458 1458 1458 1458 1458 1457 1457 1457 1456 1456 1456 1456 1456 1456 1456 1456 1456 1456 1456 1456 1457 1458 1459 1459 1459 1459 1459 1459 1458 1458 1458 1458 1458 1457 1457 1457 1457 1457 1457 1457 1457 1457 1457 1458 1458 1458 1458 1458 1457 1457 1457 1457 1456 1456 1455 1455 1453 1453 1452 1451 1450 1450 1449 1448 1447 1446 1444 1443 1442 1441 1440 1440 1438 1437 1434 1432 1431 1429 1429 1429 1430 1430 1430 1431 1432 1435 1437 1439 1442 1444 1446 1447 1448 1448 1449 1449 1449 1449 1449 1448 1447 1447 1447 1447 1447 1446 1446 1446 1446 1446 1446 1446 1446 1445 1444 1444 1444 1443 1443 1443 1442 1442 1441 1440 1439 1438 1438 1436 1435 1434 1432 1430 1430 1429 1428 1428 1426 1424 1423 1422 1420 1418 1414 1411 1409 1406 1402 1397 1394 1389 1386 1385 1381 1379 1375 1374 1373 1371 1369 1366 1365 1362 1356 1352 1347 1344 1342 1336 1333 1324 1318 1310 1300 1290 1278 1241 1221 1200 1173 1153 1145 1138 1117 1093 1078 1074 1067 1058 1052 1051 1046 1041 1040 1040 0 0 0 0 0 0 0 0 0 0 664 664 662 660 642 638 638 638 638 638 635 611 577 570 558 555 547 547 547 558 566 566 583 583
835 835 864 881 896 904 910 915 922 930 938 939 939 939 937 925 924 913 907 907 907 918 934 934 934 0 0 0 749 729 722 715 699 699 699 707 721 741 0 0 0 0 0 1060 1072 1080 1088 1088 1088 0 0 0 0 0 0 0 0 0 0 0 0 0 0 0 0 0 0 0 0 0 0 0 0 0 0 0 0 0 0 0 0 0 0 0 0 0 0 0 0 0 0 0 0 0 0 0 0 0 0 0 886 886 886 0 0 0 0 0 0 1447 1478 1503 1513 1519 1523 1525 1529 1534 1538 1544 1547 1549 1549 1549 1550 1550 1550 1550 1550 1550 1551 1551 1551 1552 1552 1552 1552 1552 1552 1552 1553 1555 1556 1557 1558 1560 1561 1562 1564 1565 1567 1568 1571 1576 1580 1583 1584 1586 1588 1590 1593 1597 1601 1604 1608 1613 1616 1620 1623 1626 1629 1629 1630 1630 1630 1629 1626 0 0 0 0 0 0 1034 1034 1034 1039 1039 1039 0 0 0 881 881 881 0 0 0 0 0 0 0 0 0 0 0 0 0 731 731 726 731 737 743 752 764 779 791 801 803 803 803 797 797 797 811 826 832 832 832 815 775 769 769 752 769 779 798 812 824 831 0 0 0 0 0 0 0 0 0 0 0 0 0 0 0 0 0 0 0 0 0 0 0 0 0 0 0 2084 2128 2134 2134 2134 2113 2079 0 0 1657 1648 1628 1594 1585 1577 1573 1570 1567 1567 1564 1561 1558 1555 1553 1550 1546 1544 1541 1539 1539 1537 1535 1534 1533 1533 1532 1531 1529 1528 1525 1522 1521 1519 1517 1516 1514 1511 1509 1507 1505 1504 1502 1501 1500 1498 1497 1495 1493 1492 1490 1490 1489 1488 1487 1486 1485 1484 1483 1482 1482 1481 1481 1479 1479 1478 1478 1477 1477 1476 1476 1475 1474 1474 1473 1472 1471 1470 1468 1468 1468 1468 1468 1467 1467 1467 1467 1467 1467 1468 1468 1468 1468 1468 1468 1468 1468 1467 1467 1467 1467 1466 1465 1465 1464 1464 1464 1464 1464 1464 1465 1465 1465 1465 1465 1465 1465 1465 1465 1464 1463 1463 1463 1462 1462 1462 1461 1460 1460 1460 1460 1459 1459 1458 1458 1458 1458 1457 1457 1457 1456 1456 1456 1456 1455 1455 1455 1455 1455 1455 1456 1455 1456 1456 1456 1457 1457 1457 1457 1458 1458 1458 1458 1458 1457 1457 1457 1456 1456 1456 1455 1455 1455 1455 1456 1456 1456 1456 1457 1457 1457 1457 1457 1456 1456 1456 1455 1455 1455 1454 1453 1452 1451 1450 1449 1449 1448 1448 1446 1446 1444 1443 1443 1441 1440 1439 1438 1437 1435 1433 1432 1429 1428 1428 1428 1428 1429 1430 1430 1431 1433 1435 1438 1441 1443 1444 1446 1446 1447 1448 1448 1448 1447 1446 1446 1446 1445 1445 1445 1445 1445 1444 1444 1444 1444 1444 1444 1444 1444 1443 1441 1441 1441 1440 1440 1440 1439 1438 1438 1437 1436 1435 1434 1432 1431 1430 1429 1427 1426 1426 1424 1423 1422 1422 1421 1419 1416 1411 1407 1403 1400 1395 1392 1390 1387 1384 1381 1380 1377 1375 1374 1371 1368 1365 1363 1360 1355 1350 1346 1343 1339 1335 1332 1327 1323 1318 1306 1299 1286 1272 1239 1221 1193 1159 1144 1133 1113 1092 1072 1070 1067 1063 1053 1047 1042 1041 1040 1040 1040 0 0 0 0 0 0 0 0 0 0 649 651 649 644 630 630 630 632 632 632 621 604 577 571 558 555 547 539 539 539 565 565 582 582
839 839 863 881 895 903 909 911 920 926 932 934 934 934 927 913 912 907 906 906 907 918 918 918 0 0 0 0 735 722 707 707 692 692 692 707 722 749 0 0 0 0 0 1058 1072 1079 1082 1082 1082 0 0 0 0 0 0 0 0 0 0 0 0 0 0 0 0 0 0 0 0 0 0 0 0 0 0 0 0 0 0 0 0 0 0 0 0 0 0 0 0 0 0 0 0 0 0 0 0 0 0 0 0 0 0 0 0 0 0 0 1409 1454 1483 1503 1511 1513 1516 1522 1524 1527 1533 1537 1542 1543 1544 1545 1546 1546 1546 1546 1546 1546 1547 1547 1547 1548 1548 1549 1549 1549 1549 1550 1551 1553 1555 1556 1557 1557 1557 1560 1561 1563 1564 1565 1566 1569 1575 1577 1578 1580 1583 1584 1587 1589 1593 1597 1600 1603 1609 1611 1617 1622 1623 1623 1623 1623 1622 1621 0 0 0 0 0 0 0 1027 1027 1027 1027 1027 1019 0 0 0 870 870 0 0 0 0 0 0 0 0 0 0 0 0 0 731 731 731 735 736 739 744 752 764 787 799 807 807 812 815 815 816 830 831 836 836 836 814 795 775 769 752 751 751 769 794 812 827 836 0 0 0 0 0 0 0 0 0 0 0 0 0 0 0 0 0 0 0 0 0 0 0 0 0 0 0 2084 2128 2128 2128 2123 2104 0 0 0 1657 1648 1620 1594 1583 1576 1572 1570 1567 1566 1563 1559 1556 1553 1550 1547 1544 1542 1541 1539 1537 1536 1534 1533 1533 1532 1531 1531 1528 1526 1522 1520 1518 1516 1516 1513 1512 1510 1508 1505 1504 1502 1500 1499 1498 1497 1495 1493 1492 1490 1488 1488 1488 1486 1486 1485 1484 1484 1483 1482 1481 1480 1479 1478 1477 1477 1477 1476 1475 1475 1475 1474 1473 1473 1472 1470 1469 1469 1467 1467 1466 1466 1466 1466 1466 1466 1466 1466 1466 1467 1467 1467 1467 1467 1467 1467 1466 1466 1466 1466 1466 1465 1464 1463 1463 1463 1463 1463 1463 1463 1463 1463 1464 1464 1464 1464 1464 1464 1464 1463 1463 1462 1462 1462 1461 1461 1461 1460 1459 1459 1459 1459 1458 1458 1458 1457 1457 1456 1456 1455 1455 1455 1455 1454 1454 1454 1454 1454 1454 1454 1454 1454 1454 1454 1455 1456 1456 1456 1456 1457 1457 1457 1457 1457 1456 1456 1455 1455 1455 1454 1454 1454 1454 1455 1455 1456 1456 1456 1456 1456 1456 1456 1456 1456 1456 1455 1455 1454 1454 1454 1453 1452 1450 1448 1448 1447 1447 1446 1445 1444 1442 1442 1441 1440 1439 1438 1437 1436 1434 1433 1431 1429 1428 1428 1428 1428 1428 1428 1429 1431 1432 1434 1436 1438 1440 1442 1444 1445 1446 1447 1447 1447 1445 1444 1444 1443 1443 1443 1443 1443 1443 1443 1442 1442 1442 1442 1442 1442 1442 1441 1440 1439 1438 1438 1438 1438 1437 1437 1435 1434 1433 1432 1431 1430 1430 1430 1427 1426 1424 1423 1422 1421 1421 1421 1420 1417 1413 1407 1403 1398 1392 1389 1388 1384 1383 1381 1380 1378 1376 1372 1368 1368 1364 1359 1353 1351 1348 1345 1344 1343 1332 1328 1326 1325 1322 1314 1306 1292 1279 1264 1239 1221 1193 1159 1140 1126 1106 1072 1068 1064 1063 1059 1050 1040 1040 1040 1040 1040 1040 0 0 0 0 0 0 0 0 0 0 641 641 641 637 627 627 626 626 626 626 621 602 577 571 555 541 537 0 0 0 0 0 0 0
835 835 862 880 893 902 906 911 916 921 924 924 924 924 922 911 910 901 901 901 916 923 923 0 0 0 0 0 732 693 679 679 679 679 692 707 728 0 0 0 0 0 0 0 1072 1078 1078 1078 0 0 0 0 0 0 0 0 0 0 0 0 0 0 0 0 0 0 0 0 0 0 0 0 0 0 0 1226 1226 1211 1211 0 0 0 0 0 0 0 0 0 0 0 0 0 0 0 0 0 0 0 0 0 0 0 0 0 0 0 0 0 1409 1457 1487 1503 1510 1513 1514 1518 1521 1524 1528 1532 1536 1538 1539 1539 1539 1539 1540 1540 1541 1541 1542 1542 1542 1543 1544 1544 1546 1548 1548 1549 1551 1552 1554 1555 1556 1556 1556 1557 1559 1561 1563 1564 1565 1567 1570 1573 1575 1577 1579 1582 1584 1587 1589 1592 1594 1595 1600 1605 1609 1614 1620 1620 1620 1608 1602 1602 0 0 0 0 0 0 0 0 1001 1014 1014 1014 0 0 0 0 860 860 0 0 0 0 0 0 0 0 0 0 0 0 733 733 733 733 737 737 740 753 756 769 793 809 811 813 817 831 836 840 852 852 852 843 836 814 795 775 769 752 751 751 769 794 812 828 837 0 0 0 0 0 0 0 0 0 0 0 0 0 0 0 0 0 0 0 0 0 0 0 0 0 0 0 2073 2104 2111 2111 2111 2095 0 0 0 1648 1636 1614 1592 1583 1576 1571 1570 1567 1565 1561 1557 1553 1551 1548 1545 1542 1541 1540 1538 1536 1533 1532 1531 1530 1529 1528 1528 1526 1524 1521 1518 1516 1514 1513 1511 1510 1508 1506 1504 1503 1502 1499 1498 1496 1495 1494 1493 1491 1489 1488 1488 1487 1486 1485 1484 1483 1482 1482 1481 1480 1479 1477 1476 1476 1476 1475 1475 1475 1474 1473 1472 1472 1471 1470 1470 1468 1468 1466 1466 1465 1465 1465 1464 1464 1465 1465 1465 1465 1465 1465 1466 1467 1467 1467 1466 1466 1465 1465 1465 1465 1465 1464 1463 1462 1462 1462 1462 1462 1462 1462 1462 1462 1462 1463 1463 1463 1463 1463 1463 1462 1461 1461 1461 1461 1461 1460 1460 1458 1458 1458 1457 1457 1457 1457 1456 1455 1455 1455 1455 1454 1454 1454 1453 1453 1453 1453 1452 1452 1452 1453 1453 1453 1453 1454 1454 1455 1456 1456 1456 1455 1455 1455 1455 1455 1455 1454 1454 1454 1453 1453 1453 1453 1454 1454 1454 1455 1455 1456 1456 1456 1456 1456 1456 1455 1454 1454 1454 1453 1453 1451 1450 1449 1448 1447 1445 1445 1445 1444 1443 1441 1441 1439 1438 1438 1437 1436 1434 1433 1432 1430 1428 1426 1426 1426 1427 1427 1427 1428 1430 1431 1433 1435 1437 1438 1440 1441 1442 1444 1444 1444 1444 1442 1442 1442 1442 1442 1441 1441 1441 1441 1441 1441 1441 1440 1440 1440 1440 1440 1438 1437 1436 1436 1436 1436 1435 1434 1434 1433 1431 1430 1430 1429 1429 1428 1427 1426 1424 1422 1420 1420 1420 1419 1419 1418 1415 1409 1403 1399 1394 1388 1384 1384 1381 1379 1377 1376 1371 1370 1368 1366 1363 1358 1353 1349 1345 1343 1342 1340 1325 1322 1320 1320 1316 1316 1314 1305 1289 1274 1255 1239 1221 1193 1159 1139 1124 1103 1072 1068 1063 1053 1052 1042 1039 1039 1039 1039 1039 1038 0 0 0 0 0 0 0 0 0 0 622 636 636 636 621 604 604 0 605 605 605 596 578 573 554 524 0 0 0 0 0 0 0 0
835 835 852 878 889 893 901 908 913 916 916 916 916 912 910 904 897 897 897 901 916 916 916 0 0 0 0 0 708 691 677 676 676 676 689 707 728 0 0 0 0 0 0 0 0 0 0 0 0 0 0 0 0 0 0 0 0 0 0 0 0 0 0 0 0 0 0 0 0 0 0 0 0 0 1226 1226 1226 1211 1211 1211 0 0 0 0 0 0 0 0 0 0 0 0 0 0 0 0 0 0 0 0 0 0 0 0 0 0 0 0 1424 1464 1487 1502 1508 1512 1514 1515 1518 1520 1524 1527 1531 1533 1534 1534 1534 1533 1533 1533 1535 1536 1536 1537 1537 1539 1540 1542 1543 1545 1548 1549 1550 1552 1553 1554 1554 1554 1555 1555 1557 1560 1562 1564 1565 1566 1568 1571 1573 1575 1577 1579 1581 1584 1586 1587 1588 1589 1592 1594 1598 1606 1606 1606 1605 1605 1599 0 0 0 0 0 0 0 0 0 0 0 0 0 0 0 0 0 828 828 0 0 0 0 0 0 0 0 0 0 0 0 733 733 733 735 737 739 746 754 763 773 796 813 827 836 0 0 0 0 875 870 856 856 841 814 795 781 776 775 765 765 765 792 812 828 0 0 0 0 0 0 0 0 0 0 0 0 0 0 0 0 0 0 0 0 0 0 0 0 0 0 0 0 2065 2097 2101 2101 2101 2086 0 0 0 1644 1636 1601 1588 1579 1574 1571 1568 1565 1562 1559 1555 1551 1548 1546 1543 1541 1540 1537 1535 1533 1531 1530 1529 1528 1527 1525 1524 1523 1521 1518 1516 1515 1512 1512 1510 1507 1505 1503 1502 1500 1500 1498 1496 1495 1494 1493 1491 1491 1489 1488 1488 1487 1486 1485 1483 1481 1481 1480 1479 1478 1477 1476 1475 1475 1474 1474 1473 1473 1473 1473 1472 1471 1471 1470 1469 1467 1467 1466 1465 1464 1464 1464 1464 1464 1464 1464 1464 1464 1464 1465 1465 1465 1465 1465 1465 1465 1465 1464 1464 1464 1463 1463 1463 1462 1461 1461 1461 1461 1461 1461 1462 1461 1461 1461 1462 1461 1462 1462 1462 1461 1461 1461 1461 1461 1459 1459 1458 1458 1457 1457 1456 1456 1456 1455 1455 1454 1454 1453 1453 1453 1453 1453 1453 1452 1452 1452 1451 1451 1451 1451 1451 1451 1452 1452 1453 1453 1454 1454 1454 1454 1454 1454 1454 1453 1453 1453 1453 1453 1453 1452 1452 1453 1453 1453 1453 1454 1454 1454 1454 1454 1454 1454 1454 1454 1452 1452 1452 1452 1451 1451 1449 1448 1446 1445 1444 1444 1443 1442 1441 1440 1439 1438 1436 1436 1435 1434 1433 1432 1430 1428 1426 1425 1425 1425 1425 1426 1426 1426 1427 1429 1431 1433 1434 1437 1438 1439 1440 1441 1441 1441 1441 1441 1440 1440 1440 1440 1440 1440 1440 1440 1440 1440 1440 1439 1438 1438 1438 1437 1437 1436 1435 1434 1434 1433 1432 1432 1431 1430 1429 1428 1428 1427 1427 1425 1424 1424 1422 1420 1417 1417 1417 1417 1417 1414 1409 1403 1400 1396 1391 1384 1382 1378 1376 1375 1373 1370 1363 1362 1360 1360 1357 1353 1349 1346 1342 1337 1334 1330 1324 1321 1316 1316 1314 1313 1313 1305 1289 1268 1248 1239 1224 1203 1170 1139 1122 1101 1072 1068 1063 1053 1038 1035 1035 1035 1040 1040 1040 1038 0 0 0 0 0 0 0 0 0 0 622 634 634 634 611 582 573 573 573 576 578 578 578 573 553 523 0 0 0 0 0 0 0 487
828 828 834 859 867 873 888 901 909 910 910 910 908 904 899 894 893 893 893 901 914 914 914 0 0 0 0 0 683 665 665 665 667 676 688 707 728 0 0 0 0 0 0 0 0 0 0 0 0 0 0 0 0 0 0 0 0 0 0 0 0 0 0 0 0 0 0 0 0 0 0 0 0 1166 1203 1203 1203 1194 1193 1193 1193 0 0 0 1326 1338 1338 1338 0 0 0 0 0 0 0 0 0 0 0 0 0 0 0 0 0 0 0 1405 1439 1464 1487 1497 1506 1512 1513 1514 1514 1517 1519 1522 1525 1528 1528 1528 1528 1527 1527 1527 1529 1531 1532 1533 1534 1536 1537 1539 1540 1543 1545 1547 1550 1551 1552 1553 1553 1554 1554 1555 1557 1559 1561 1564 1564 1565 1567 1569 1571 1573 1574 1576 1579 1581 1581 1581 1582 1582 1582 1582 1583 1587 1587 1587 1586 1584 0 0 0 0 0 0 0 0 940 939 914 0 0 0 0 0 0 803 803 803 0 0 0 0 0 0 0 0 0 0 753 745 733 733 733 735 747 751 753 762 780 795 821 827 0 0 0 0 0 0 0 0 0 0 858 829 811 797 787 776 767 767 767 785 812 827 0 0 0 0 0 0 0 0 0 0 0 0 0 0 0 0 0 0 0 0 0 0 0 0 0 0 0 0 0 2086 2086 2086 2081 2062 0 0 0 1636 1628 1591 1578 1574 1572 1569 1566 1564 1561 1557 1553 1548 1545 1543 1541 1539 1537 1534 1532 1530 1529 1528 1527 1525 1525 1523 1522 1521 1519 1516 1514 1512 1511 1509 1508 1505 1503 1500 1499 1498 1496 1496 1494 1494 1492 1492 1490 1490 1488 1488 1487 1486 1485 1484 1482 1481 1479 1479 1478 1477 1477 1475 1475 1473 1473 1473 1472 1472 1471 1471 1470 1470 1469 1469 1468 1467 1466 1466 1465 1464 1464 1463 1463 1463 1463 1464 1464 1464 1463 1463 1463 1464 1464 1464 1464 1463 1463 1463 1462 1462 1462 1462 1461 1461 1461 1461 1461 1461 1461 1460 1460 1460 1461 1461 1461 1461 1461 1461 1461 1461 1461 1461 1461 1460 1459 1458 1458 1456 1456 1456 1456 1455 1455 1455 1454 1454 1453 1452 1452 1452 1452 1452 1451 1451 1451 1450 1450 1450 1450 1450 1450 1450 1450 1451 1451 1451 1452 1452 1452 1453 1453 1453 1453 1453 1453 1453 1453 1452 1452 1451 1451 1451 1452 1452 1452 1452 1452 1452 1452 1452 1452 1452 1452 1452 1451 1450 1450 1450 1450 1449 1448 1446 1445 1444 1443 1442 1442 1441 1440 1438 1437 1436 1435 1435 1433 1433 1431 1429 1427 1426 1424 1423 1423 1423 1423 1423 1423 1425 1425 1427 1428 1431 1432 1434 1434 1437 1438 1438 1438 1439 1439 1438 1438 1438 1438 1438 1438 1438 1438 1438 1438 1437 1437 1437 1436 1436 1436 1435 1435 1434 1433 1433 1431 1430 1429 1429 1429 1428 1427 1426 1425 1424 1424 1423 1422 1421 1419 1418 1417 1416 1415 1414 1412 1408 1403 1400 1397 1394 1387 1382 1377 1374 1371 1371 1369 1365 1361 1357 1357 1356 1355 1351 1347 1344 1338 1334 1329 1327 1324 1321 1316 1309 1305 1305 1305 1297 1284 1266 1247 1239 1227 1212 1171 1139 1114 1099 1084 1080 1063 1053 1038 1035 1035 1035 1043 1043 1043 0 0 0 0 0 0 0 0 0 0 0 622 625 625 625 606 582 563 551 551 551 555 573 573 573 544 523 0 0 0 0 0 0 487 487
819 819 831 837 852 860 876 894 903 905 905 905 905 898 890 888 888 888 888 896 896 896 0 0 0 0 0 0 668 661 661 661 665 673 686 707 728 0 0 0 0 0 0 0 0 0 0 0 0 0 0 0 0 0 0 0 0 0 0 0 0 0 0 0 0 0 0 0 0 0 0 0 1136 1171 1188 1188 1188 1169 1169 1169 1170 0 0 1305 1326 1338 1338 1342 1348 1349 0 0 0 0 0 0 0 0 0 0 0 0 0 0 0 0 1397 1415 1449 1464 1477 1487 1503 1511 1511 1512 1512 1512 1515 1517 1520 1521 1523 1523 1523 1523 1523 1523 1523 1524 1525 1527 1529 1532 1534 1536 1538 1540 1541 1545 1547 1550 1552 1552 1553 1553 1553 1554 1555 1558 1560 1563 1563 1564 1565 1568 1569 1571 1572 1574 1575 1576 1576 1576 1576 1576 1577 1577 1577 1577 1576 1576 1572 0 0 0 0 0 0 0 0 939 938 931 914 904 882 849 834 813 791 791 791 803 0 0 0 0 0 0 0 0 0 763 751 734 733 733 733 741 753 761 766 773 797 817 830 0 0 0 0 0 0 0 0 0 0 0 0 829 815 797 790 779 770 770 770 784 797 807 0 0 0 0 0 0 0 0 0 0 0 0 0 0 0 0 0 0 0 0 0 0 0 0 0 0 0 0 0 2079 2079 2079 2063 2043 0 0 0 1639 1624 1584 1573 1569 1567 1566 1565 1560 1557 1555 1551 1546 1543 1540 1537 1536 1534 1531 1530 1527 1527 1526 1526 1524 1523 1521 1520 1519 1517 1515 1512 1509 1508 1507 1507 1503 1500 1498 1495 1495 1494 1494 1493 1492 1491 1490 1490 1489 1488 1487 1486 1485 1484 1482 1482 1481 1479 1478 1477 1476 1475 1474 1473 1473 1472 1472 1471 1471 1470 1470 1470 1469 1469 1467 1466 1466 1465 1465 1464 1464 1463 1462 1462 1462 1462 1462 1462 1462 1462 1462 1462 1462 1462 1462 1462 1462 1461 1461 1461 1461 1461 1461 1460 1460 1460 1460 1459 1459 1459 1459 1459 1459 1459 1459 1459 1459 1459 1460 1460 1459 1459 1459 1459 1459 1458 1458 1457 1456 1455 1455 1455 1454 1454 1454 1453 1453 1452 1452 1452 1451 1451 1451 1450 1450 1449 1449 1449 1449 1449 1448 1448 1448 1449 1449 1450 1450 1450 1451 1451 1451 1451 1451 1451 1451 1451 1451 1451 1451 1451 1451 1450 1450 1451 1451 1451 1451 1451 1451 1451 1450 1450 1450 1450 1450 1449 1449 1448 1448 1448 1448 1447 1446 1445 1443 1442 1441 1440 1439 1438 1437 1436 1435 1433 1432 1432 1430 1428 1427 1426 1424 1423 1422 1422 1422 1422 1422 1422 1422 1423 1423 1426 1428 1429 1431 1432 1434 1435 1435 1435 1436 1436 1436 1436 1436 1436 1436 1436 1435 1435 1435 1435 1435 1435 1435 1434 1434 1434 1433 1432 1431 1431 1430 1430 1428 1426 1426 1426 1426 1425 1423 1422 1421 1421 1420 1420 1418 1417 1416 1414 1413 1412 1410 1407 1404 1402 1399 1394 1391 1385 1381 1376 1371 1368 1366 1366 1364 1360 1357 1355 1353 1351 1347 1344 1340 1334 1330 1326 1326 1322 1321 1316 1307 1299 1294 1292 1285 1274 1260 1247 1239 1229 1214 1186 1147 1113 1099 1086 1080 1073 1058 1038 1035 1035 1035 1043 1043 1043 0 0 0 0 0 0 0 0 0 0 0 620 624 624 624 593 582 563 551 551 551 552 552 552 551 543 523 0 0 0 0 0 0 487 487
816 816 826 829 840 849 865 882 893 896 897 897 897 891 879 876 876 876 884 888 888 888 0 0 0 0 0 0 648 648 648 658 665 671 685 705 725 0 0 0 0 0 0 0 0 0 0 0 0 0 0 0 0 0 0 0 0 0 0 0 0 0 0 0 0 0 0 0 0 0 0 1124 1138 1162 1162 1162 1148 1148 1148 1164 1170 1218 1261 1290 1321 1338 1338 1342 1348 1349 1349 1365 1370 1371 1373 0 0 0 0 0 0 0 0 0 0 0 1400 1433 1451 1464 1471 1480 1490 1500 1505 1507 1508 1509 1509 1510 1513 1515 1516 1516 1517 1517 1517 1517 1517 1517 1518 1521 1524 1529 1530 1533 1536 1538 1540 1541 1546 1548 1549 1549 1549 1551 1551 1552 1555 1558 1560 1561 1562 1562 1564 1566 1567 1569 1570 1571 1571 1571 1571 1572 1573 1573 1573 1573 1573 1572 1569 1567 1552 0 0 0 0 0 0 0 0 939 938 931 914 904 879 849 834 808 790 790 790 808 0 0 0 0 0 0 0 749 748 747 747 733 732 732 733 745 763 773 775 783 803 833 837 0 0 0 0 0 0 0 0 0 0 0 0 0 819 803 795 782 770 770 770 778 783 790 0 0 0 0 0 0 0 0 0 0 0 0 0 0 0 0 0 0 0 0 0 0 0 0 0 0 0 0 0 2063 2063 2063 2042 2016 0 0 0 1639 1610 1578 1571 1562 1560 1560 1559 1558 1555 1551 1547 1544 1541 1538 1535 1533 1531 1528 1527 1526 1525 1524 1523 1522 1520 1519 1518 1517 1515 1513 1511 1508 1506 1505 1504 1501 1499 1496 1495 1494 1492 1491 1491 1490 1489 1488 1487 1487 1486 1485 1484 1483 1481 1481 1480 1479 1478 1477 1476 1475 1475 1474 1473 1472 1472 1471 1471 1470 1470 1469 1469 1468 1467 1467 1465 1465 1465 1463 1463 1462 1461 1461 1460 1460 1460 1461 1461 1461 1461 1461 1461 1461 1461 1461 1461 1460 1460 1460 1460 1460 1460 1460 1459 1459 1459 1459 1459 1458 1458 1458 1458 1458 1458 1458 1458 1458 1458 1458 1459 1458 1458 1458 1458 1458 1457 1457 1457 1456 1455 1455 1454 1453 1453 1453 1453 1453 1452 1451 1451 1450 1450 1450 1449 1448 1448 1448 1448 1448 1448 1447 1447 1447 1447 1448 1448 1449 1449 1449 1449 1449 1449 1449 1450 1450 1450 1450 1449 1449 1449 1449 1449 1449 1449 1449 1449 1449 1449 1449 1449 1449 1449 1449 1449 1448 1448 1447 1447 1447 1447 1446 1445 1443 1443 1441 1440 1439 1438 1438 1437 1436 1435 1434 1432 1431 1430 1428 1427 1426 1425 1423 1422 1421 1420 1420 1420 1420 1420 1421 1421 1423 1424 1426 1427 1429 1430 1431 1432 1432 1433 1434 1435 1435 1435 1435 1435 1435 1435 1433 1433 1433 1433 1433 1432 1433 1432 1432 1430 1429 1429 1429 1428 1428 1426 1425 1424 1423 1423 1422 1421 1420 1419 1418 1418 1418 1418 1416 1414 1412 1410 1409 1407 1405 1403 1401 1399 1396 1393 1389 1385 1380 1375 1370 1365 1364 1363 1361 1359 1357 1353 1351 1347 1343 1337 1333 1329 1326 1325 1324 1321 1321 1316 1304 1297 1289 1285 1277 1266 1252 1245 1239 1229 1214 1193 1154 1109 1099 1086 1080 1073 1058 1036 1035 1035 1035 1043 1043 1043 0 0 0 0 0 0 0 0 0 0 621 622 621 620 612 593 582 575 551 551 551 551 551 551 551 543 534 0 0 0 0 0 0 496 496
811 811 821 828 834 846 855 868 880 884 885 885 884 874 868 868 868 873 876 876 876 873 0 0 0 0 0 0 629 629 640 655 661 668 681 697 716 0 0 0 0 0 0 0 0 0 0 0 0 0 0 0 0 0 0 0 0 0 0 0 0 0 0 0 0 0 0 0 0 0 0 1117 1141 1159 1159 1159 1128 1128 1128 1164 1170 1218 1260 1290 1301 1312 1321 1333 1338 1342 1349 1365 1370 1371 1373 1385 0 0 0 0 0 0 0 0 0 0 1407 1438 1451 1463 1467 1477 1485 1492 1497 1503 1504 1505 1505 1505 1506 1508 1508 1509 1509 1509 1511 1511 1512 1512 1515 1518 1521 1524 1527 1531 1533 1534 1539 1541 1542 1545 1546 1546 1547 1548 1549 1551 1552 1555 1558 1559 1560 1561 1562 1564 1565 1566 1567 1568 1569 1569 1570 1570 1571 1571 1571 1571 1570 1567 1559 1543 1526 0 0 0 0 0 0 0 0 940 939 934 931 912 879 849 832 797 794 794 794 809 838 0 0 0 0 0 725 725 725 730 730 730 731 731 731 745 763 773 778 784 811 845 0 0 0 0 0 0 0 0 0 0 0 0 0 0 819 797 790 779 767 767 767 769 783 790 0 0 0 0 0 0 0 0 0 0 0 0 0 0 0 0 0 0 0 0 0 0 0 0 0 0 0 0 0 0 2042 2042 2024 0 0 0 1642 1639 1595 1574 1569 1561 1558 1557 1557 1557 1553 1548 1545 1542 1540 1537 1534 1531 1527 1527 1526 1524 1523 1521 1520 1518 1517 1516 1515 1514 1513 1511 1507 1504 1503 1503 1501 1500 1497 1496 1494 1492 1491 1490 1489 1488 1488 1487 1487 1485 1485 1483 1482 1481 1480 1479 1479 1478 1477 1476 1475 1474 1473 1472 1471 1471 1471 1470 1470 1469 1469 1468 1468 1467 1466 1465 1465 1464 1463 1462 1460 1460 1459 1459 1459 1459 1459 1459 1459 1459 1459 1459 1460 1460 1460 1460 1460 1460 1460 1459 1459 1459 1459 1458 1458 1458 1457 1458 1457 1457 1457 1457 1457 1457 1457 1457 1457 1457 1457 1457 1457 1457 1457 1457 1457 1457 1456 1456 1455 1455 1454 1453 1453 1452 1452 1452 1451 1451 1450 1450 1450 1450 1449 1448 1448 1448 1448 1448 1447 1447 1447 1446 1446 1446 1447 1447 1447 1448 1448 1448 1448 1448 1448 1448 1448 1448 1448 1447 1447 1447 1447 1447 1447 1447 1447 1447 1447 1447 1447 1448 1448 1448 1447 1447 1447 1447 1446 1446 1446 1446 1445 1444 1444 1443 1441 1439 1438 1438 1437 1437 1436 1435 1433 1432 1430 1429 1428 1427 1426 1424 1424 1423 1421 1420 1420 1419 1419 1419 1419 1419 1420 1421 1423 1425 1427 1427 1428 1428 1430 1431 1432 1433 1433 1433 1433 1433 1432 1432 1432 1431 1430 1430 1429 1429 1429 1429 1429 1429 1427 1426 1426 1426 1426 1424 1422 1422 1421 1419 1418 1418 1417 1416 1416 1416 1416 1416 1415 1412 1411 1410 1407 1406 1404 1402 1399 1398 1397 1396 1393 1389 1383 1379 1374 1370 1364 1362 1362 1361 1358 1356 1351 1347 1343 1336 1330 1323 1322 1320 1319 1318 1317 1317 1311 1301 1293 1285 1278 1268 1263 1248 1240 1237 1227 1213 1193 1154 1109 1097 1086 1080 1073 1058 1036 1035 1035 1035 1043 1043 0 0 0 0 0 0 0 0 625 624 621 621 621 611 609 609 593 582 575 566 553 553 551 550 550 544 543 536 526 513 513 513 503 503 498 498
