677 677 686 693 702 715 731 742 751 757 767 778 790 807 819 824 836 839 844 849 859 869 894 916 933 945 956 966 972 980 989 997 1001 1005 1019 1036 1054 1066 1079 1095 1107 1121 1132 1141 1152 1171 1177 1188 1199 1208 1220 1233 1244 1252 1261 1270 1281 1299 1307 1312 1317 1321 1330 1340 1352 1358 1358 1358 1358 1358 1366 1377 1385 1393 1398 1401 1404 1407 1412 1417 1422 1428 1430 1430 1430 1414 1403 1381 0 0 0 0 0 0 865 861 860 860 860 864 867 870 871 872 874 875 876 878 879 880 882 882 883 884 885 885 885 885 884 883 882 881 880 875 869 858 842 822 805 794 787 784 782 781 778 778 778 778 781 784 787 789 791 791 792 792 794 797 798 804 815 827 829 833 844 856 875 893 902 912 915 925 939 949 958 960 964 968 970 973 975 977 979 982 983 985 987 989 991 993 995 997 999 1000 1003 1004 1006 1007 1009 1010 1012 1013 1015 1016 1018 1020 1021 1023 1025 1026 1027 1030 1031 1033 1035 1037 1038 1039 1042 1044 1046 1047 1050 1052 1054 1055 1058 1060 1062 1064 1066 1067 1068 1069 1070 1074 1077 1079 1082 1085 1087 1089 1091 1093 1095 1098 1098 1099 1099 1100 1102 1104 1108 1109 1109 1110 1110 1111 1112 1114 1117 1120 1120 1121 1124 1125 1126 1126 1127 1127 1127 1128 1129 1129 1129 1129 1128 1127 1127 1127 1128 1128 1130 1133 1135 1136 1138 1139 1142 1147 1153 1157 1157 1157 1156 1156 1155 1153 1152 1149 1147 1146 1145 1145 1144 1144 1144 1148 1150 1154 1158 1163 1169 1178 1184 1192 1198 1205 1214 1221 1225 1226 1228 1229 1231 1232 1234 1235 1236 1236 1236 1234 1234 1234 1232 1232 1229 1229 1228 1226 1224 1220 1218 1218 1215 1214 1211 1205 1201 1199 1198 1195 1191 1188 1186 1185 1182 1180 1179 1178 1177 1177 1175 1175 1175 1174 1174 1174 1174 1174 1173 1173 1173 1174 1175 1175 1176 1176 1177 1177 1177 1177 1177 1183 1191 1211 0 0 0 0 0 0 0 0 0 0 0 0 0 0 2479 2484 2503 2508 2546 2614 2687 2716 2736 2748 2748 2748 2748 2748 2748 2753 2766 2788 2807 2811 2811 2811 2804 2752 2682 0 0 0 0 0 0 1654 1638 1630 1620 1620 1620 1621 1621 1621 1620 1613 1605 1604 1604 1604 1606 1606 1606 1607 1610 1610 1610 1610 1610 1615 1625 1635 1643 1643 1643 1634 1625 1620 1620 1616 1612 1603 1593 1588 1588 1588 1593 1598 1605 1608 1608 1608 1608 1608 1607 1604 1600 1598 1595 1591 1590 1590 1587 1568 1557 1552 1546 1541 1535 1532 1529 1526 1525 1525 1525 1529 1529 1529 1529 1528 1528 1528 1533 1533 1533 1531 1523 1522 1522 1522 1522 1523 1525 1525 1526 1533 1534 1534 1538 1542 1547 1547 1547 1544 1541 1538 1537 1537 1537 1538 1539 1539 1539 1539 1538 1537 1535 1532 1531 1530 1528 1527 1524 1523 1521 1519 1519 1518 1517 1517 1508 1505 1505 1505 1505 1505 1492 1481 1471 1460 1453 1450 1449 1448 1448 1447 1442 1434 1431 1430 1427 1426 1411 1395 1379 1364 1353 1352 1352 1351 1348 1342 1342 1340 1338 1336 1323 1291 1275 1269 1264 1256 1244 1238 1237 1236 1225 1197 1160 1133 1123 1119 1104 1083 1081 1076 1072 1061 1061 1061 1062 1072 1072 1072 1057 1015 997 974 971 948 927 906 0 0 0 0 0 0 0 0 655 655 688 689 689 689 669 669 669 709 732 732 732 732
679 679 686 693 702 719 732 745 754 763 774 784 804 819 823 834 836 839 852 863 878 891 908 924 939 953 965 974 977 983 991 997 1001 1011 1024 1039 1054 1069 1083 1095 1108 1121 1132 1141 1152 1171 1177 1188 1199 1208 1220 1233 1244 1252 1261 1272 1287 1299 1308 1315 1319 1325 1333 1344 1354 1364 1364 1365 1367 1369 1378 1384 1390 1394 1398 1402 1406 1409 1414 1421 1424 1431 1431 1431 1431 1422 1408 1395 0 0 0 0 0 0 872 865 862 862 862 866 870 870 871 872 874 875 876 878 879 880 882 882 883 884 884 885 885 885 884 883 882 881 880 875 869 856 839 820 804 791 787 784 783 782 782 782 782 782 782 784 787 789 791 791 791 792 794 797 798 802 806 816 816 817 827 830 843 867 886 907 910 912 925 940 950 958 964 967 970 972 975 977 979 981 983 985 987 989 990 993 995 997 998 1000 1002 1004 1006 1007 1008 1010 1012 1012 1014 1016 1018 1019 1021 1023 1025 1026 1028 1030 1032 1033 1035 1037 1038 1040 1042 1044 1046 1048 1050 1052 1054 1055 1058 1060 1062 1064 1066 1067 1068 1069 1073 1075 1077 1079 1082 1085 1087 1089 1091 1093 1095 1097 1098 1098 1099 1100 1102 1104 1108 1108 1110 1110 1111 1112 1114 1115 1118 1120 1121 1123 1123 1125 1126 1126 1127 1128 1128 1128 1128 1129 1129 1129 1129 1128 1128 1128 1128 1129 1131 1134 1136 1137 1139 1142 1147 1152 1158 1161 1161 1161 1161 1160 1158 1157 1153 1150 1148 1148 1148 1148 1148 1148 1148 1151 1154 1161 1167 1169 1177 1184 1193 1200 1209 1217 1225 1228 1232 1233 1234 1234 1234 1235 1236 1237 1238 1238 1238 1237 1236 1236 1235 1234 1232 1232 1230 1229 1226 1222 1221 1220 1219 1217 1214 1210 1207 1203 1201 1198 1196 1193 1190 1187 1184 1182 1181 1179 1178 1178 1176 1176 1175 1175 1175 1175 1175 1175 1175 1175 1175 1175 1175 1176 1176 1176 1178 1178 1178 1178 1178 1182 1188 1201 1214 0 0 0 0 0 0 0 0 0 0 0 0 0 0 0 0 0 0 2579 2651 2689 2712 2745 2761 2772 2772 2772 2772 2772 2779 2796 2804 2804 2804 2801 2770 2718 2639 0 0 0 0 0 1664 1654 1654 1648 1628 1623 1623 1623 1623 1623 1622 1616 1608 1606 1606 1605 1606 1606 1606 1608 1610 1610 1611 1612 1614 1622 1633 1646 1651 1651 1651 1641 1627 1621 1620 1620 1617 1608 1595 1592 1592 1592 1602 1603 1605 1608 1608 1608 1608 1608 1607 1607 1604 1598 1595 1591 1590 1590 1587 1574 1557 1552 1546 1541 1536 1535 1534 1531 1531 1531 1532 1532 1532 1529 1529 1529 1531 1534 1534 1534 1534 1531 1526 1525 1525 1525 1525 1525 1526 1526 1526 1527 1529 1530 1536 1542 1547 1547 1547 1546 1542 1540 1539 1539 1539 1540 1541 1542 1542 1542 1541 1539 1535 1533 1532 1532 1531 1530 1529 1527 1526 1526 1526 1525 1525 1520 1512 1507 1507 1507 1505 1505 1498 1484 1474 1461 1455 1451 1450 1449 1446 1444 1442 1434 1431 1430 1427 1426 1411 1397 1383 1369 1368 1366 1365 1363 1361 1361 1359 1357 1356 1346 1342 1322 1291 1279 1269 1257 1244 1238 1238 1237 1236 1197 1160 1133 1123 1113 1104 1083 1076 1072 1071 1061 1061 1061 1062 1072 1072 1072 1051 1015 996 972 958 947 922 896 0 0 0 0 0 0 0 0 667 667 681 686 686 681 664 664 664 0 723 723 723 723
680 680 686 693 702 719 735 745 755 763 775 788 810 819 834 849 852 853 862 874 890 903 916 929 947 961 968 977 980 986 992 998 1004 1013 1025 1039 1054 1069 1083 1096 1109 1121 1126 1138 1152 1171 1177 1188 1200 1208 1221 1233 1244 1254 1265 1277 1292 1299 1309 1316 1321 1328 1336 1346 1359 1368 1376 1378 1381 1386 1391 1395 1398 1400 1402 1406 1411 1413 1418 1421 1426 1432 1432 1432 1431 1422 1413 1395 0 0 0 0 0 880 872 865 864 864 864 867 870 870 871 872 874 875 877 878 879 880 881 882 883 884 884 885 885 885 884 883 882 881 880 875 868 853 834 819 804 792 787 784 783 783 783 784 784 785 786 787 789 789 791 791 791 792 794 797 798 799 799 800 800 800 811 823 833 847 859 875 900 912 922 939 950 957 963 965 969 972 975 977 979 981 983 985 987 989 990 992 995 996 998 999 1001 1003 1005 1007 1008 1009 1011 1012 1014 1015 1017 1019 1020 1023 1024 1026 1028 1030 1032 1034 1035 1037 1039 1041 1043 1045 1047 1049 1051 1053 1054 1055 1058 1060 1062 1064 1066 1067 1070 1071 1073 1075 1078 1079 1082 1085 1087 1089 1091 1093 1094 1096 1097 1097 1099 1100 1102 1103 1105 1107 1109 1112 1113 1113 1115 1117 1120 1121 1123 1123 1123 1125 1126 1128 1128 1128 1128 1128 1128 1129 1129 1129 1129 1128 1128 1128 1128 1130 1133 1136 1138 1140 1142 1145 1152 1159 1161 1162 1164 1164 1164 1162 1161 1158 1155 1153 1153 1153 1151 1151 1151 1151 1151 1153 1157 1166 1174 1178 1185 1194 1203 1212 1219 1225 1230 1234 1235 1236 1236 1237 1237 1237 1239 1239 1239 1239 1239 1239 1238 1238 1237 1236 1234 1233 1233 1232 1229 1225 1223 1221 1220 1219 1217 1215 1210 1207 1205 1202 1199 1196 1192 1189 1187 1184 1183 1182 1181 1180 1178 1177 1177 1177 1176 1176 1176 1176 1176 1176 1176 1176 1176 1176 1176 1176 1177 1179 1179 1180 1180 1182 1187 1197 1203 1203 1206 1211 0 0 0 0 0 0 0 0 0 0 0 0 0 0 0 2519 2596 2655 2685 2719 2761 2776 2789 2789 2792 2792 2792 2792 2792 2790 2789 2769 2743 2692 0 0 0 0 0 1672 1671 1671 1665 1665 1665 1636 1632 1630 1628 1628 1624 1617 1610 1608 1607 1607 1606 1606 1606 1608 1610 1611 1611 1612 1615 1626 1638 1650 1652 1652 1652 1641 1631 1624 1621 1620 1619 1609 1600 1600 1600 1600 1604 1605 1606 1607 1608 1608 1608 1608 1608 1607 1604 1598 1595 1590 1588 1588 1587 1576 1567 1556 1548 1545 1542 1538 1535 1531 1531 1531 1532 1532 1532 1527 1527 1527 1531 1536 1536 1536 1534 1531 1531 1529 1528 1527 1527 1526 1526 1526 1526 1526 1528 1530 1535 1540 1547 1549 1549 1549 1545 1542 1542 1541 1541 1541 1542 1544 1544 1544 1544 1541 1535 1533 1533 1533 1533 1533 1533 1532 1531 1530 1529 1529 1527 1523 1520 1511 1509 1508 1507 1507 1499 1488 1474 1463 1456 1453 1450 1449 1445 1440 1436 1430 1428 1425 1423 1423 1412 1400 1386 1380 1379 1379 1379 1376 1376 1375 1374 1372 1359 1346 1342 1323 1306 1298 1290 1274 1255 1238 1238 1236 1236 1197 1160 1133 1123 1113 1104 1083 1076 1074 1074 1074 1074 1072 1072 1072 1072 1072 1047 1015 996 962 950 946 918 0 0 0 795 785 776 0 0 0 680 680 680 681 681 681 659 659 0 0 703 703 703 703
679 680 680 681 697 719 735 746 756 765 776 788 810 819 838 859 862 864 867 878 898 916 919 935 952 964 976 979 988 991 992 998 1005 1014 1027 1039 1054 1069 1083 1099 1110 1119 1126 1141 1161 1171 1177 1188 1200 1212 1225 1236 1248 1258 1267 1279 1292 1300 1309 1317 1323 1330 1340 1351 1364 1375 1385 1389 1394 1400 1403 1405 1406 1406 1409 1411 1414 1419 1421 1424 1427 1433 1433 1433 1429 1422 1413 1395 0 0 0 0 0 875 872 865 864 864 864 869 870 870 871 872 874 875 877 878 879 880 881 882 883 884 884 885 885 885 884 883 882 881 879 875 868 851 827 816 804 792 787 785 784 784 784 785 785 785 786 788 789 790 790 791 792 793 795 797 797 797 798 798 798 800 811 817 831 845 852 856 876 899 919 939 950 956 963 965 968 971 975 977 979 981 983 984 987 988 990 992 993 996 997 999 1000 1002 1005 1006 1008 1009 1010 1012 1014 1015 1017 1019 1020 1023 1024 1026 1028 1030 1032 1034 1035 1037 1039 1041 1043 1045 1047 1049 1051 1053 1055 1056 1058 1060 1062 1064 1066 1067 1070 1072 1073 1075 1078 1080 1082 1084 1087 1089 1091 1092 1094 1095 1097 1097 1099 1100 1102 1103 1105 1107 1109 1112 1113 1114 1116 1118 1120 1122 1123 1123 1124 1125 1126 1128 1128 1128 1128 1128 1128 1129 1129 1129 1129 1129 1129 1129 1130 1132 1135 1138 1141 1143 1147 1152 1155 1162 1163 1164 1166 1166 1166 1165 1164 1161 1159 1158 1158 1157 1157 1157 1154 1154 1154 1157 1166 1173 1179 1184 1195 1203 1211 1220 1226 1230 1234 1237 1237 1237 1238 1239 1240 1241 1241 1241 1241 1241 1241 1241 1240 1240 1239 1237 1236 1235 1235 1234 1231 1228 1225 1224 1221 1220 1218 1217 1214 1211 1209 1205 1202 1198 1195 1192 1190 1187 1186 1184 1182 1182 1180 1179 1179 1179 1178 1177 1177 1177 1177 1177 1177 1177 1177 1176 1176 1176 1177 1179 1180 1182 1182 1183 1186 1196 1200 1201 1204 1210 1212 0 0 0 0 0 0 0 0 0 0 0 0 0 0 0 2546 2583 2636 2680 2731 2776 2791 2797 2805 2805 2806 2806 2806 2790 2779 2743 2701 2584 0 0 0 0 0 1670 1670 1670 1672 1672 1672 1653 1643 1640 1639 1634 1628 1620 1615 1614 1613 1608 1604 1604 1604 1607 1607 1607 1611 1611 1616 1627 1638 1650 1652 1652 1652 1641 1633 1626 1623 1621 1620 1614 1606 1604 1604 1604 1605 1606 1606 1607 1607 1607 1608 1607 1607 1607 1604 1597 1594 1588 1585 1583 1581 1576 1568 1562 1551 1548 1545 1542 1536 1533 1533 1533 1532 1532 1532 1528 1528 1528 1532 1536 1536 1536 1534 1532 1531 1531 1529 1529 1527 1526 1526 1526 1527 1528 1530 1530 1535 1540 1547 1551 1552 1552 1552 1549 1547 1546 1542 1542 1542 1545 1545 1545 1544 1542 1536 1536 1536 1536 1536 1536 1536 1535 1534 1533 1531 1529 1527 1523 1520 1512 1509 1508 1508 1508 1500 1489 1477 1467 1461 1458 1454 1449 1445 1440 1436 1429 1425 1423 1423 1422 1415 1407 1398 1394 1394 1392 1391 1390 1387 1381 1377 1372 1359 1346 1342 1323 1315 1314 1310 1309 1280 1238 1238 1236 1228 1197 1160 1139 1134 1113 1104 1092 1092 1092 1098 1098 1098 1097 1076 1074 1047 1037 1034 1015 996 958 950 0 0 0 863 845 826 803 788 767 0 0 0 678 676 671 670 670 0 0 0 0 0 703 703 703
679 680 680 681 697 719 746 763 768 774 777 788 810 815 838 863 870 873 874 883 907 929 939 942 955 970 982 985 991 996 999 1000 1005 1014 1028 1041 1055 1072 1089 1101 1110 1119 1126 1141 1161 1171 1177 1188 1201 1219 1231 1239 1248 1258 1268 1281 1292 1300 1310 1318 1325 1332 1342 1355 1369 1377 1386 1394 1400 1406 1409 1412 1413 1414 1416 1417 1421 1425 1427 1429 1430 1433 1433 1433 1425 1420 1413 1388 0 0 0 0 0 875 866 861 861 861 865 869 871 871 871 872 873 875 877 877 879 879 881 881 883 884 884 884 884 884 884 883 882 881 879 873 867 849 823 810 803 792 787 786 786 786 786 786 786 787 787 788 789 790 790 792 792 794 796 797 797 797 798 798 798 800 811 817 828 837 845 854 868 887 906 930 949 956 962 965 968 971 974 977 979 981 982 984 986 988 990 991 993 995 997 999 1000 1001 1003 1006 1007 1009 1010 1011 1013 1015 1016 1018 1020 1022 1024 1026 1028 1030 1032 1034 1035 1037 1039 1041 1043 1045 1048 1049 1051 1053 1055 1056 1058 1060 1062 1064 1066 1067 1070 1072 1074 1075 1078 1080 1082 1084 1086 1088 1090 1092 1094 1095 1097 1097 1099 1100 1101 1103 1105 1107 1109 1112 1113 1114 1116 1118 1120 1122 1123 1124 1125 1126 1127 1128 1129 1129 1129 1129 1129 1130 1130 1130 1131 1131 1131 1132 1133 1135 1136 1139 1144 1149 1154 1157 1159 1163 1167 1170 1171 1171 1171 1171 1168 1165 1162 1162 1162 1161 1161 1159 1159 1159 1161 1168 1176 1182 1188 1192 1200 1208 1217 1226 1230 1235 1237 1238 1238 1240 1241 1242 1243 1244 1244 1244 1244 1244 1243 1243 1242 1242 1241 1240 1239 1238 1236 1235 1232 1230 1228 1225 1223 1222 1220 1219 1216 1214 1212 1209 1205 1201 1197 1195 1192 1190 1188 1186 1184 1183 1182 1181 1180 1180 1179 1178 1178 1178 1177 1177 1177 1177 1177 1177 1177 1177 1179 1180 1180 1182 1182 1182 1182 1191 1196 1199 1203 1207 1207 1208 1220 1235 0 0 0 0 0 0 0 0 0 0 0 0 2527 2528 2593 2647 2689 2774 2791 2799 2805 2805 2809 2809 2809 2790 2777 2719 2692 2556 0 0 0 0 1670 1670 1670 1675 1677 1677 1677 1662 1652 1649 1645 1639 1631 1623 1620 1618 1613 1608 1602 1602 1602 1603 1606 1606 1607 1611 1616 1628 1640 1650 1651 1651 1651 1645 1638 1632 1626 1622 1621 1618 1609 1609 1607 1607 1606 1606 1606 1606 1606 1606 1607 1607 1607 1605 1603 1597 1593 1588 1585 1582 1579 1576 1570 1563 1556 1552 1549 1543 1537 1533 1533 1533 1532 1532 1532 1528 1528 1528 1532 1536 1536 1536 1533 1532 1532 1531 1531 1530 1528 1527 1527 1527 1531 1531 1532 1534 1536 1540 1548 1559 1559 1559 1557 1555 1555 1553 1549 1547 1546 1546 1545 1545 1544 1544 1541 1540 1540 1539 1539 1538 1538 1537 1536 1533 1531 1529 1525 1521 1520 1516 1512 1511 1509 1508 1501 1490 1478 1470 1465 1464 1458 1450 1445 1440 1436 1429 1423 1423 1422 1422 1415 1411 1405 1399 1396 1396 1395 1393 1387 1381 1377 1372 1359 1342 1337 1323 1315 1314 1310 1309 1280 1234 1211 1199 1198 1191 1160 1140 1136 1123 1121 1121 1121 1134 1134 1134 1131 1123 1116 1074 1044 1037 1034 1016 1001 0 0 0 0 855 847 847 843 825 808 0 0 0 0 0 666 666 663 0 0 0 0 0 0 687 691 691
679 680 680 686 697 730 762 780 780 787 787 788 805 811 838 863 876 879 880 893 911 930 944 952 955 975 985 989 996 999 1003 1006 1014 1022 1033 1049 1069 1083 1096 1103 1111 1119 1127 1141 1161 1176 1190 1204 1215 1225 1238 1245 1253 1262 1270 1281 1292 1300 1311 1320 1327 1334 1345 1356 1369 1378 1387 1396 1402 1407 1411 1416 1418 1421 1423 1425 1428 1431 1434 1434 1434 1434 1434 1433 1423 1419 1412 0 0 0 0 0 0 875 861 861 861 862 865 870 870 871 871 872 873 875 877 877 879 879 881 881 883 884 884 884 884 884 884 883 883 880 875 868 860 845 815 807 802 792 789 788 788 788 788 788 787 787 787 788 790 790 790 792 792 794 796 797 797 797 798 799 800 805 811 817 828 830 832 844 865 887 906 920 948 956 962 964 967 971 974 976 978 981 982 984 985 987 989 991 993 995 996 997 999 1001 1003 1005 1007 1008 1010 1011 1013 1014 1016 1018 1019 1022 1024 1025 1027 1029 1032 1034 1035 1037 1039 1041 1043 1045 1048 1050 1051 1053 1055 1056 1058 1060 1062 1064 1066 1067 1070 1072 1074 1076 1078 1080 1082 1084 1086 1088 1090 1092 1093 1095 1097 1097 1099 1100 1101 1103 1105 1107 1109 1112 1113 1115 1116 1118 1120 1122 1124 1125 1125 1126 1127 1128 1130 1130 1130 1130 1131 1131 1131 1131 1132 1133 1134 1135 1136 1136 1140 1142 1148 1153 1160 1163 1165 1170 1173 1175 1175 1175 1175 1174 1170 1167 1165 1165 1165 1164 1164 1163 1163 1163 1167 1178 1185 1190 1195 1202 1209 1214 1224 1231 1236 1240 1242 1242 1242 1243 1245 1245 1245 1245 1246 1246 1246 1246 1245 1245 1245 1244 1243 1242 1241 1240 1238 1237 1234 1231 1229 1226 1224 1223 1222 1220 1218 1218 1216 1212 1207 1204 1201 1199 1194 1192 1190 1188 1187 1185 1184 1183 1182 1181 1180 1179 1179 1179 1178 1178 1178 1178 1178 1178 1178 1178 1179 1180 1181 1181 1182 1182 1182 1185 1193 1195 1195 1195 1195 1195 1204 1207 0 0 0 0 0 0 0 0 0 0 0 0 0 2513 2529 2610 2681 2723 2755 2780 2791 2804 2813 2813 2813 2811 2774 2717 2640 2548 0 0 0 1664 1664 1664 1665 1675 1678 1678 1678 1667 1658 1656 1653 1646 1639 1632 1625 1621 1613 1608 1601 1601 1601 1601 1603 1604 1605 1611 1616 1630 1642 1649 1651 1651 1651 1650 1645 1638 1630 1624 1621 1619 1617 1615 1615 1609 1606 1605 1605 1604 1604 1605 1605 1605 1605 1603 1600 1596 1593 1588 1583 1578 1574 1572 1571 1567 1562 1559 1554 1545 1537 1534 1534 1534 1534 1534 1533 1531 1531 1531 1533 1535 1535 1535 1534 1533 1533 1534 1534 1533 1533 1532 1532 1531 1531 1531 1535 1540 1541 1547 1556 1565 1565 1565 1564 1561 1561 1559 1555 1549 1548 1547 1546 1546 1546 1546 1546 1546 1545 1543 1543 1542 1542 1541 1538 1533 1531 1529 1525 1523 1523 1521 1521 1519 1514 1509 1501 1492 1482 1479 1469 1465 1461 1455 1447 1442 1437 1430 1426 1422 1418 1417 1417 1413 1406 1400 1398 1396 1395 1393 1389 1381 1372 1363 1349 1334 1323 1320 1315 1314 1310 1309 1280 1232 1198 1186 1180 1152 1146 1141 1141 1141 1145 1171 1171 1171 1160 1141 1141 1138 1116 1063 1038 1034 1027 1025 1007 0 0 0 0 855 848 848 847 840 829 0 0 0 0 0 0 0 0 0 0 0 0 0 0 670 679 679
689 689 695 703 716 745 770 784 784 787 788 788 792 811 838 863 877 884 889 903 914 932 948 957 965 979 986 995 1004 1006 1010 1016 1027 1040 1053 1066 1081 1099 1109 1111 1114 1119 1130 1152 1169 1184 1201 1211 1220 1235 1247 1256 1260 1267 1275 1281 1292 1300 1313 1323 1331 1337 1347 1358 1369 1378 1387 1396 1406 1413 1417 1420 1422 1426 1429 1431 1435 1437 1438 1439 1440 1440 1440 1433 1423 1419 1411 0 0 0 0 0 0 864 859 859 859 863 867 870 870 870 871 872 873 875 877 877 878 879 881 881 883 883 884 884 884 884 884 883 882 879 873 866 857 838 812 806 798 792 789 788 788 788 788 788 788 788 788 789 790 791 791 792 793 794 796 797 797 798 799 805 811 817 819 819 828 830 832 844 861 887 906 920 944 956 962 965 967 971 973 976 978 980 982 983 984 987 988 990 992 993 996 997 999 1001 1003 1004 1006 1007 1009 1011 1012 1014 1016 1017 1019 1021 1024 1025 1027 1029 1031 1033 1035 1037 1039 1041 1043 1045 1048 1050 1051 1053 1055 1056 1058 1060 1062 1064 1065 1067 1069 1072 1074 1076 1078 1080 1082 1084 1086 1088 1090 1092 1093 1095 1097 1098 1099 1100 1102 1103 1106 1108 1109 1112 1113 1115 1116 1118 1120 1122 1124 1125 1125 1126 1128 1129 1130 1131 1131 1131 1131 1131 1132 1133 1134 1136 1137 1138 1139 1140 1144 1151 1156 1159 1166 1170 1174 1178 1179 1180 1180 1180 1179 1175 1174 1174 1172 1170 1169 1169 1169 1169 1169 1170 1175 1181 1191 1199 1206 1214 1219 1224 1232 1237 1241 1244 1245 1245 1246 1246 1247 1247 1247 1248 1249 1249 1249 1249 1248 1248 1247 1246 1245 1244 1243 1241 1239 1239 1236 1234 1231 1228 1226 1224 1223 1221 1221 1220 1217 1213 1209 1207 1205 1200 1196 1194 1193 1191 1189 1187 1185 1184 1183 1182 1182 1181 1181 1181 1180 1180 1179 1178 1178 1178 1179 1179 1179 1180 1180 1181 1181 1181 1182 1184 1186 1190 1190 1191 1193 1193 1195 1206 1219 1228 0 0 0 0 0 0 0 0 0 0 0 0 2501 2572 2659 2675 2700 2735 2767 2804 2833 2833 2833 2813 2774 2709 2535 2535 0 0 1648 1648 1648 1657 1665 1675 1678 1678 1678 1673 1667 1666 1664 1659 1653 1642 1634 1622 1616 1606 1600 1600 1600 1601 1601 1603 1605 1612 1616 1634 1642 1647 1647 1651 1651 1651 1651 1643 1632 1625 1622 1621 1620 1620 1617 1609 1604 1604 1604 1603 1603 1602 1601 1601 1601 1598 1596 1595 1592 1588 1581 1573 1572 1572 1570 1570 1568 1564 1557 1550 1543 1539 1537 1537 1535 1535 1535 1535 1534 1534 1534 1535 1535 1535 1534 1534 1534 1540 1541 1541 1541 1539 1537 1537 1537 1538 1540 1544 1545 1556 1563 1570 1570 1570 1569 1565 1562 1561 1559 1557 1554 1552 1552 1550 1549 1549 1548 1548 1548 1545 1544 1543 1543 1541 1538 1534 1531 1527 1524 1524 1524 1527 1527 1527 1523 1514 1503 1495 1487 1484 1469 1465 1463 1455 1448 1444 1440 1432 1427 1422 1418 1417 1417 1413 1407 1400 1399 1398 1396 1394 1390 1380 1368 1357 1342 1330 1314 1310 1302 1290 1282 1266 1237 1208 1184 1178 1168 1152 1146 1141 1141 1141 1164 1182 1182 1182 1167 1151 1144 1138 1121 0 1045 1044 1022 1022 1022 0 0 0 0 857 856 857 860 860 856 0 0 0 0 0 0 0 0 0 0 0 0 0 0 670 678 678
691 691 699 711 727 749 771 784 784 788 789 790 792 811 838 863 879 886 891 906 920 933 949 962 976 983 994 1006 1014 1018 1024 1032 1041 1051 1060 1070 1087 1102 1111 1115 1126 1129 1142 1162 1180 1199 1212 1218 1226 1240 1255 1263 1267 1271 1277 1285 1292 1303 1315 1326 1333 1342 1351 1361 1370 1381 1390 1403 1413 1419 1423 1426 1430 1433 1438 1439 1442 1442 1443 1446 1446 1446 1444 1434 1423 1419 1401 0 0 0 0 0 0 864 855 855 855 863 868 870 870 870 871 871 873 875 876 877 878 879 880 881 882 883 883 883 884 883 883 883 882 879 873 864 857 837 812 798 791 789 788 788 788 788 788 788 788 788 788 789 790 791 791 792 793 794 796 797 800 805 808 811 818 820 824 827 828 830 832 844 860 885 906 920 944 957 962 965 967 971 973 975 978 980 981 983 984 986 988 990 992 993 995 996 998 1000 1002 1004 1005 1007 1008 1011 1012 1014 1015 1017 1019 1021 1023 1025 1027 1029 1031 1033 1035 1037 1039 1041 1043 1045 1048 1050 1051 1053 1055 1056 1057 1059 1061 1063 1065 1067 1069 1072 1074 1076 1079 1080 1082 1084 1086 1088 1090 1092 1093 1095 1096 1098 1099 1100 1102 1104 1106 1109 1111 1112 1113 1115 1117 1119 1121 1122 1124 1125 1126 1126 1128 1130 1132 1132 1133 1133 1133 1134 1134 1136 1136 1138 1140 1142 1143 1144 1146 1156 1162 1164 1172 1177 1180 1183 1183 1184 1184 1184 1182 1177 1177 1176 1176 1175 1175 1174 1173 1173 1173 1177 1184 1190 1196 1207 1217 1221 1224 1230 1236 1241 1246 1248 1249 1249 1249 1249 1250 1251 1251 1251 1251 1251 1251 1251 1251 1251 1250 1249 1248 1247 1246 1244 1241 1240 1238 1236 1233 1230 1229 1227 1225 1224 1223 1221 1217 1215 1213 1211 1207 1203 1200 1198 1196 1194 1191 1189 1187 1186 1185 1185 1183 1183 1182 1181 1181 1181 1181 1180 1180 1179 1179 1179 1180 1180 1180 1180 1180 1181 1182 1184 1186 1186 1186 1186 1186 1186 1190 1201 1217 1223 1228 1230 0 0 0 0 0 0 0 0 0 0 0 2546 2639 2642 2682 2689 2765 2799 2833 2833 2833 2813 2755 2673 2535 0 0 0 1632 1632 1632 1645 1657 1668 1676 1676 1676 1676 1676 1676 1675 1675 1667 1655 1641 1624 1617 1606 1600 1600 1600 1601 1601 1601 1605 1614 1625 1635 1642 1647 1647 1651 1651 1651 1651 1644 1633 1625 1625 1624 1622 1621 1617 1610 1604 1603 1603 1602 1602 1600 1600 1597 1596 1596 1595 1595 1591 1587 1581 1572 1572 1572 1570 1570 1568 1564 1561 1555 1548 1544 1541 1541 1540 1539 1538 1538 1538 1536 1536 1535 1536 1536 1536 1541 1547 1547 1548 1548 1547 1548 1548 1550 1552 1553 1554 1555 1558 1560 1569 1576 1576 1576 1574 1571 1567 1566 1565 1562 1560 1558 1556 1554 1554 1552 1552 1552 1549 1546 1545 1544 1543 1543 1539 1534 1531 1527 1524 1524 1524 1527 1531 1531 1531 1523 1510 1503 1495 1484 1470 1466 1465 1455 1448 1444 1440 1435 1429 1423 1418 1417 1417 1416 1411 1405 1399 1398 1396 1394 1390 1380 1367 1353 1337 1321 1304 1279 1275 1272 1264 1237 1203 1181 1178 1178 1168 1152 1148 1148 1148 1149 1165 1185 1185 1185 1171 1158 1145 1140 1131 0 1048 1044 1038 1028 1028 0 0 0 0 900 875 875 875 875 875 0 0 0 0 0 0 0 0 0 0 0 0 0 0 670 678 678
692 692 701 716 731 753 772 784 784 788 790 790 792 814 839 863 879 887 895 907 922 937 951 965 979 985 995 1010 1022 1034 1039 1043 1051 1057 1065 1074 1088 1104 1111 1115 1126 1141 1159 1175 1190 1206 1214 1221 1228 1240 1255 1264 1270 1273 1278 1286 1297 1308 1318 1326 1337 1349 1359 1368 1375 1384 1397 1406 1415 1421 1426 1432 1435 1440 1445 1449 1449 1449 1449 1452 1457 1457 1457 1440 1429 1427 1400 0 0 0 0 0 0 862 855 855 855 863 868 870 870 870 870 871 873 874 876 877 878 879 880 881 882 883 883 883 883 883 883 882 882 879 873 863 854 836 809 790 786 786 786 787 787 787 788 788 788 789 789 789 790 791 792 792 793 794 797 799 802 805 809 812 818 820 824 827 829 834 841 848 860 885 914 929 949 958 962 964 967 970 972 975 977 979 981 982 984 986 987 989 990 993 994 996 998 1000 1001 1002 1004 1006 1008 1009 1011 1013 1014 1016 1018 1020 1022 1025 1026 1029 1030 1033 1034 1037 1038 1041 1042 1045 1047 1049 1050 1052 1053 1056 1057 1059 1061 1063 1065 1067 1069 1072 1074 1076 1079 1080 1082 1084 1086 1088 1090 1092 1093 1095 1096 1098 1100 1101 1103 1105 1107 1109 1111 1112 1114 1116 1118 1120 1122 1124 1124 1125 1126 1127 1129 1131 1133 1134 1134 1135 1136 1137 1137 1138 1139 1141 1143 1146 1148 1148 1151 1157 1163 1172 1179 1183 1184 1185 1185 1187 1188 1188 1188 1185 1181 1180 1180 1180 1180 1180 1179 1179 1179 1183 1189 1195 1206 1219 1225 1226 1230 1235 1240 1247 1251 1253 1253 1253 1253 1253 1253 1253 1253 1254 1254 1254 1254 1253 1253 1253 1252 1252 1251 1249 1248 1246 1244 1243 1241 1238 1236 1234 1233 1231 1228 1226 1226 1223 1220 1218 1216 1213 1209 1206 1203 1201 1199 1196 1194 1192 1189 1188 1187 1187 1185 1184 1183 1183 1183 1182 1182 1182 1181 1180 1180 1180 1180 1180 1180 1180 1181 1181 1182 1184 1186 1186 1186 1186 1186 1186 1190 1198 1217 1223 1226 1228 1234 1241 0 0 0 0 0 0 0 0 0 0 2568 2612 2647 2663 2728 2793 2833 2833 2833 2813 2755 2672 2532 0 0 0 1632 1632 1632 1645 1657 1668 1676 1676 1676 1678 1678 1680 1680 1680 1672 1662 1647 1631 1618 1606 1600 1600 1600 1601 1603 1603 1608 1617 1627 1636 1641 1645 1647 1651 1651 1651 1651 1644 1633 1629 1628 1627 1625 1624 1620 1610 1604 1603 1602 1602 1601 1599 1598 1594 1594 1593 1591 1591 1589 1586 1578 1568 1568 1568 1568 1568 1568 1564 1561 1557 1552 1548 1545 1545 1545 1545 1544 1544 1542 1536 1536 1536 1536 1537 1545 1549 1549 1550 1550 1550 1551 1554 1557 1562 1562 1562 1563 1563 1563 1571 1572 1578 1578 1578 1576 1573 1573 1573 1571 1571 1569 1566 1558 1558 1558 1557 1557 1557 1553 1550 1546 1544 1544 1544 1540 1535 1531 1527 1524 1524 1524 1527 1531 1531 1531 1529 1527 1520 1513 1491 1477 1471 1467 1458 1448 1444 1440 1437 1435 1432 1429 1426 1423 1422 1419 1412 1404 1396 1395 1394 1389 1380 1364 1351 1330 1310 1295 1279 1275 1272 1264 1237 1203 1181 1178 1178 1176 1169 1169 1166 1166 1166 1180 1186 1186 1186 1173 1159 1148 1147 1136 0 1055 1052 1044 1039 1033 1004 981 960 944 924 889 888 886 885 880 874 0 0 0 0 0 0 0 0 0 0 0 0 0 0 678 678
694 694 706 721 738 755 773 784 790 790 790 792 802 820 844 865 880 892 898 912 929 944 958 969 979 989 995 1010 1026 1039 1048 1052 1057 1063 1072 1080 1093 1104 1113 1118 1130 1147 1166 1182 1197 1206 1217 1222 1230 1241 1255 1265 1271 1274 1280 1286 1301 1310 1318 1326 1337 1350 1365 1375 1382 1389 1397 1407 1415 1422 1430 1433 1440 1447 1451 1454 1454 1455 1456 1462 1462 1462 1462 1451 1438 1428 1400 0 0 0 0 0 0 862 855 855 855 861 868 869 869 870 870 871 872 874 875 876 878 879 880 881 882 882 882 882 882 882 881 881 880 877 873 863 846 826 803 789 785 785 785 787 787 787 788 788 789 789 789 790 791 791 792 792 794 796 798 800 802 805 809 812 818 820 824 827 829 835 842 850 860 886 914 936 950 957 962 964 967 970 972 975 977 978 980 982 983 985 986 988 990 992 994 995 997 999 1000 1002 1004 1006 1007 1009 1011 1012 1014 1016 1018 1020 1022 1024 1026 1028 1030 1032 1034 1037 1038 1041 1042 1044 1046 1047 1050 1051 1053 1054 1057 1058 1061 1063 1065 1067 1069 1072 1074 1076 1079 1080 1082 1084 1086 1088 1090 1092 1093 1095 1096 1098 1100 1101 1103 1105 1107 1109 1111 1113 1114 1116 1118 1120 1122 1124 1124 1126 1127 1127 1130 1132 1134 1135 1135 1137 1138 1139 1140 1141 1142 1145 1147 1149 1152 1154 1162 1166 1170 1179 1187 1191 1191 1192 1192 1192 1194 1196 1196 1196 1190 1189 1187 1187 1187 1187 1187 1187 1187 1192 1198 1208 1221 1227 1228 1233 1236 1240 1246 1250 1252 1254 1255 1255 1256 1256 1256 1256 1256 1256 1256 1256 1255 1255 1255 1255 1255 1255 1253 1252 1250 1249 1248 1246 1244 1242 1241 1238 1236 1233 1232 1230 1228 1225 1222 1219 1217 1214 1211 1210 1207 1205 1202 1198 1195 1193 1192 1190 1189 1189 1187 1186 1185 1185 1184 1183 1183 1183 1182 1182 1181 1181 1181 1181 1181 1181 1181 1181 1182 1184 1186 1186 1186 1187 1187 1189 1191 1192 1199 1202 1207 1214 1219 1222 1230 0 0 0 0 0 0 0 0 0 2534 2566 2608 2641 2712 2745 2796 2796 2796 2770 2725 2599 2481 0 0 1648 1632 1632 1632 1645 1657 1668 1676 1676 1676 1676 1676 1680 1680 1680 1672 1662 1648 1642 1630 1617 1605 1602 1602 1602 1603 1604 1613 1623 1630 1636 1640 1644 1647 1652 1652 1652 1651 1644 1636 1633 1633 1631 1629 1626 1622 1614 1607 1604 1603 1602 1601 1598 1596 1592 1588 1587 1587 1587 1582 1579 1574 1566 1566 1566 1567 1567 1567 1562 1561 1557 1555 1550 1549 1547 1547 1546 1546 1546 1546 1540 1540 1540 1542 1547 1549 1550 1550 1550 1550 1550 1554 1558 1563 1568 1568 1568 1568 1568 1568 1574 1575 1579 1579 1579 1577 1575 1575 1575 1577 1577 1577 1571 1564 1564 1564 1563 1563 1563 1559 1557 1549 1549 1548 1546 1544 1538 1532 1528 1525 1525 1525 1526 1529 1529 1529 1529 1527 1521 1517 1509 1493 1482 1471 1460 1448 1444 1440 1437 1435 1432 1429 1426 1423 1422 1419 1412 1404 1396 1395 1394 1389 1379 1361 1343 1320 1302 1295 1279 1275 1272 1264 1237 1203 1187 1187 1187 1187 1187 1183 1183 1183 1186 1190 1190 1190 1188 1174 1173 1160 1154 1149 1138 1108 1081 1065 1054 1033 1006 987 967 955 944 928 907 891 887 882 875 863 0 0 0 0 710 708 691 0 0 0 0 0 0 0 0
702 702 713 728 745 763 773 784 790 797 799 801 813 831 846 866 882 892 900 913 929 946 960 971 979 989 996 1011 1030 1045 1053 1058 1063 1070 1079 1092 1100 1104 1113 1118 1130 1148 1169 1186 1198 1209 1218 1223 1230 1241 1256 1267 1273 1274 1282 1294 1302 1310 1318 1327 1337 1350 1365 1375 1383 1392 1399 1409 1417 1425 1432 1435 1445 1451 1456 1459 1460 1460 1467 1475 1475 1475 1463 1451 1439 1434 1400 0 0 0 0 0 0 862 855 855 855 861 865 868 868 869 869 871 872 874 875 876 878 879 880 881 881 882 882 882 882 882 880 879 877 875 873 862 843 817 800 788 785 785 785 786 787 787 788 788 789 790 790 791 791 791 792 792 795 797 799 800 802 805 809 812 815 819 821 825 831 835 842 850 859 886 918 938 950 957 961 964 967 970 972 974 975 977 980 981 983 984 986 988 990 991 993 995 997 998 1000 1002 1003 1005 1007 1009 1010 1012 1014 1016 1018 1020 1022 1024 1025 1028 1030 1032 1034 1036 1038 1040 1042 1044 1045 1047 1049 1051 1052 1054 1056 1058 1061 1063 1065 1067 1069 1071 1074 1076 1078 1080 1082 1085 1086 1088 1090 1092 1093 1095 1097 1098 1100 1102 1104 1105 1107 1109 1111 1113 1115 1117 1119 1121 1123 1124 1126 1127 1128 1130 1131 1133 1135 1136 1137 1138 1140 1141 1142 1143 1145 1148 1151 1153 1157 1162 1167 1173 1177 1184 1190 1194 1196 1197 1198 1198 1199 1199 1199 1199 1199 1199 1198 1197 1197 1197 1198 1199 1199 1203 1211 1223 1230 1231 1234 1239 1242 1247 1251 1253 1256 1256 1256 1257 1258 1258 1258 1259 1259 1259 1259 1259 1258 1258 1258 1257 1257 1257 1256 1255 1254 1253 1252 1248 1247 1245 1243 1241 1238 1235 1234 1232 1229 1226 1224 1222 1219 1217 1214 1212 1210 1207 1204 1201 1198 1196 1194 1193 1191 1190 1189 1188 1188 1187 1186 1185 1185 1184 1184 1183 1183 1182 1182 1182 1182 1182 1182 1182 1183 1184 1186 1186 1186 1187 1187 1189 1190 1190 1191 1194 1194 1195 1196 1198 1211 1218 0 0 0 0 0 0 0 0 2122 2445 2495 2533 2557 2713 2734 2755 2755 2734 2725 2572 2177 0 0 1634 1634 1634 1635 1650 1665 1672 1672 1672 1675 1675 1675 1680 1680 1680 1672 1662 1648 1643 1632 1622 1611 1607 1607 1607 1607 1611 1619 1624 1630 1636 1640 1644 1648 1652 1652 1652 1648 1644 1638 1636 1634 1634 1632 1628 1625 1622 1613 1607 1603 1602 1601 1598 1596 1592 1588 1586 1583 1579 1577 1572 1570 1563 1563 1563 1562 1562 1562 1561 1560 1558 1555 1553 1550 1549 1547 1547 1547 1547 1547 1545 1545 1545 1549 1554 1554 1554 1551 1550 1550 1550 1555 1559 1563 1568 1574 1574 1574 1574 1574 1576 1579 1580 1580 1580 1578 1576 1576 1576 1579 1579 1579 1574 1566 1564 1564 1564 1564 1564 1564 1562 1557 1554 1553 1552 1549 1541 1535 1528 1526 1525 1525 1525 1526 1527 1527 1527 1527 1521 1517 1509 1498 1492 1481 1461 1448 1444 1442 1438 1435 1432 1430 1426 1423 1422 1419 1412 1404 1394 1390 1388 1381 1371 1352 1337 1318 1302 1295 1288 1285 1281 1274 1257 1224 1196 1196 1195 1195 1195 1185 1185 1185 1198 1198 1198 1190 1188 1185 1179 1177 1170 1160 1149 1130 1103 1077 1054 1034 1009 991 982 966 947 941 911 897 896 896 887 872 0 0 0 724 712 712 712 712 0 0 0 0 0 0 0
707 707 719 735 750 767 775 782 790 798 802 808 814 832 852 867 882 893 900 915 932 949 962 974 981 989 1001 1016 1034 1047 1055 1063 1068 1076 1088 1100 1106 1107 1113 1118 1138 1160 1176 1188 1199 1209 1218 1226 1232 1242 1256 1267 1278 1289 1292 1298 1304 1311 1318 1328 1337 1350 1365 1375 1383 1393 1402 1412 1419 1428 1432 1439 1447 1453 1458 1461 1466 1471 1477 1477 1477 1477 1464 1453 1440 1434 1399 1390 0 0 0 0 0 859 855 855 855 861 865 867 868 868 869 870 872 873 875 876 878 879 880 881 881 882 882 882 882 881 880 879 877 873 869 860 843 816 798 787 785 785 785 786 787 787 788 789 789 790 790 791 791 792 792 793 795 798 799 800 802 806 809 812 814 817 820 825 831 836 842 850 859 885 918 938 950 957 961 964 966 968 971 973 975 977 979 981 982 984 985 987 989 991 993 994 996 998 1000 1001 1003 1004 1006 1008 1010 1011 1013 1014 1016 1019 1021 1023 1025 1026 1029 1031 1033 1036 1037 1039 1041 1043 1045 1047 1048 1050 1052 1053 1056 1058 1060 1063 1065 1067 1069 1072 1074 1076 1078 1080 1083 1085 1086 1088 1090 1092 1093 1094 1097 1098 1100 1102 1104 1106 1108 1109 1111 1114 1115 1117 1119 1121 1123 1125 1126 1128 1130 1130 1133 1135 1137 1138 1138 1140 1141 1142 1144 1145 1147 1150 1153 1156 1160 1167 1171 1177 1183 1189 1196 1198 1200 1202 1205 1205 1205 1206 1206 1206 1206 1207 1207 1208 1211 1211 1211 1212 1212 1216 1224 1229 1230 1232 1238 1242 1246 1250 1252 1254 1257 1260 1260 1260 1260 1260 1261 1261 1261 1261 1261 1261 1260 1260 1260 1260 1260 1260 1259 1258 1257 1257 1254 1252 1249 1249 1246 1245 1242 1238 1236 1233 1230 1229 1226 1225 1223 1220 1218 1214 1212 1208 1205 1203 1200 1198 1197 1196 1194 1193 1192 1191 1190 1189 1188 1187 1187 1186 1186 1185 1183 1183 1183 1182 1182 1182 1182 1183 1184 1184 1185 1185 1186 1187 1187 1189 1190 1190 1190 1190 1193 1193 1193 1193 1193 1207 1212 1215 1219 1219 0 0 0 0 0 0 0 0 2548 2598 2731 2738 2738 2731 2669 0 0 1680 1636 1625 1625 1625 1641 1656 1669 1673 1673 1673 1672 1672 1672 1673 1673 1673 1664 1654 1650 1643 1635 1626 1616 1614 1614 1614 1614 1615 1619 1624 1630 1636 1640 1644 1648 1651 1651 1651 1648 1645 1640 1637 1636 1635 1633 1629 1628 1627 1618 1607 1605 1604 1601 1598 1596 1592 1588 1585 1581 1579 1577 1571 1564 1561 1561 1561 1560 1562 1562 1561 1560 1558 1556 1555 1553 1551 1548 1548 1548 1548 1548 1548 1548 1551 1554 1554 1554 1554 1551 1551 1551 1552 1556 1559 1563 1568 1574 1574 1574 1575 1575 1576 1579 1580 1580 1580 1578 1578 1578 1580 1581 1581 1581 1576 1572 1566 1566 1566 1567 1567 1567 1567 1566 1561 1555 1555 1550 1544 1537 1531 1527 1525 1525 1524 1525 1525 1525 1525 1525 1521 1517 1509 1498 1492 1481 1461 1453 1448 1446 1438 1436 1432 1430 1426 1418 1414 1413 1403 1388 1379 1374 1369 1362 1353 1342 1332 1316 1299 1290 1288 1285 1282 1278 1260 1225 1202 1199 1197 1197 1197 1192 1192 1192 1202 1202 1202 1190 1188 1185 1179 1177 1170 1168 1165 1149 1127 1104 0 0 0 0 0 971 952 944 923 922 920 919 907 888 888 881 0 0 0 0 0 0 0 0 0 0 0 752 752
713 713 727 740 755 767 775 782 790 798 802 808 818 834 853 869 883 895 906 923 937 952 966 974 981 991 1002 1016 1034 1047 1056 1064 1073 1084 1094 1105 1110 1117 1121 1135 1153 1169 1184 1197 1207 1217 1224 1228 1234 1243 1257 1272 1286 1290 1297 1302 1308 1314 1322 1328 1337 1350 1362 1372 1383 1394 1405 1414 1424 1431 1437 1443 1449 1455 1460 1463 1468 1474 1481 1481 1481 1478 1466 1455 1445 1428 1395 1390 0 0 0 0 0 859 856 856 856 859 864 866 867 868 869 870 871 873 875 876 877 879 880 881 881 882 882 882 882 881 880 879 877 873 868 860 843 812 793 786 785 785 785 786 787 787 788 789 790 791 791 791 792 792 792 793 795 798 799 800 802 806 809 812 814 817 820 825 831 836 842 847 859 886 919 936 949 957 961 963 966 968 971 973 974 976 979 980 982 984 985 987 989 990 992 994 996 998 1000 1001 1002 1004 1006 1007 1009 1010 1013 1014 1016 1018 1021 1022 1024 1026 1028 1030 1032 1035 1037 1038 1040 1042 1044 1046 1048 1050 1051 1053 1056 1057 1059 1062 1064 1067 1069 1072 1074 1076 1078 1080 1082 1085 1086 1088 1090 1091 1093 1094 1097 1098 1100 1102 1104 1106 1108 1110 1112 1114 1115 1117 1119 1121 1123 1125 1127 1129 1131 1133 1135 1137 1137 1138 1139 1141 1143 1144 1145 1148 1150 1152 1155 1157 1164 1169 1173 1180 1188 1195 1199 1201 1204 1205 1208 1210 1210 1210 1209 1209 1209 1215 1215 1216 1221 1222 1222 1224 1225 1225 1232 1233 1236 1239 1243 1247 1253 1257 1257 1259 1260 1261 1262 1262 1262 1262 1264 1264 1264 1264 1264 1264 1263 1263 1263 1263 1263 1262 1262 1261 1261 1260 1258 1256 1254 1252 1250 1247 1245 1242 1238 1235 1232 1230 1229 1227 1226 1223 1219 1216 1214 1211 1208 1205 1202 1201 1199 1198 1196 1195 1194 1193 1192 1192 1191 1189 1189 1188 1187 1186 1185 1184 1184 1183 1183 1183 1183 1184 1184 1184 1185 1185 1186 1187 1187 1189 1190 1190 1190 1190 1193 1193 1193 1193 1193 1198 1206 1208 1213 1216 0 0 0 0 0 0 0 0 0 2594 2708 2710 2710 2710 2627 0 0 1652 1615 1615 1615 1625 1641 1656 1669 1673 1673 1673 1672 1672 1672 1673 1673 1673 1664 1654 1650 1645 1641 1629 1622 1622 1619 1619 1619 1620 1622 1624 1630 1636 1641 1644 1648 1648 1648 1648 1648 1645 1640 1637 1637 1637 1633 1632 1631 1631 1624 1610 1607 1605 1604 1602 1598 1594 1590 1584 1580 1579 1577 1571 1564 1561 1561 1561 1560 1562 1562 1562 1560 1560 1558 1557 1554 1552 1551 1549 1549 1549 1549 1550 1554 1555 1555 1555 1554 1552 1552 1552 1552 1554 1556 1560 1562 1567 1574 1574 1574 1575 1575 1576 1579 1580 1580 1580 1579 1579 1579 1580 1582 1582 1582 1576 1573 1568 1567 1567 1567 1574 1575 1575 1575 1570 1564 1556 1552 1545 1540 1534 1532 1529 1526 1525 1525 1523 1523 1523 1523 1519 1513 1505 1498 1492 1482 1462 1454 1452 1446 1438 1436 1432 1430 1426 1418 1414 1413 1402 1387 1379 1370 1354 1342 1337 1333 1325 1316 1297 1290 1288 1285 1282 1278 1264 1227 1202 1202 1199 1198 1198 1198 1198 1198 1198 1198 1197 1195 1188 1185 1179 1177 1170 1168 1165 1158 1154 1140 1110 1098 0 0 0 0 956 952 952 951 945 936 921 908 904 903 0 0 0 0 0 0 0 0 0 0 0 752 752
713 713 727 746 759 768 775 782 790 798 802 809 819 835 854 873 893 906 919 932 945 952 966 974 984 994 1003 1016 1034 1047 1057 1068 1078 1087 1097 1107 1116 1129 1135 1154 1166 1177 1191 1206 1216 1224 1226 1233 1237 1249 1263 1279 1289 1295 1303 1308 1314 1323 1333 1337 1340 1350 1362 1372 1383 1394 1406 1418 1427 1432 1440 1447 1453 1459 1463 1465 1470 1475 1482 1482 1482 1479 1466 1457 1447 1423 1375 1374 0 0 0 0 0 859 856 856 856 859 864 866 867 868 868 870 871 873 874 876 877 878 880 881 881 882 882 882 882 881 880 879 877 873 868 862 843 810 790 786 784 784 784 786 787 787 788 789 791 791 792 792 793 793 794 795 797 798 800 800 801 806 810 813 814 817 820 825 831 836 840 847 861 886 921 937 946 956 961 962 966 968 970 972 974 976 978 980 982 983 985 987 988 990 992 994 996 997 999 1001 1002 1004 1005 1007 1008 1010 1012 1013 1015 1018 1019 1022 1023 1025 1027 1029 1031 1034 1035 1038 1039 1041 1043 1046 1047 1049 1051 1053 1055 1057 1059 1062 1064 1067 1069 1071 1074 1075 1077 1080 1082 1084 1086 1088 1090 1091 1093 1094 1096 1098 1100 1102 1104 1106 1108 1110 1112 1114 1115 1117 1119 1121 1123 1125 1127 1129 1131 1133 1135 1137 1139 1140 1141 1142 1145 1147 1149 1151 1153 1156 1158 1161 1165 1172 1178 1187 1193 1198 1200 1205 1209 1210 1212 1212 1212 1212 1212 1212 1215 1218 1219 1222 1226 1230 1231 1232 1234 1236 1241 1247 1248 1250 1251 1255 1261 1261 1262 1262 1264 1264 1264 1264 1265 1265 1266 1267 1267 1267 1268 1268 1268 1267 1266 1266 1265 1265 1265 1265 1264 1263 1263 1262 1260 1257 1256 1253 1247 1245 1241 1239 1235 1231 1231 1231 1229 1224 1222 1219 1216 1214 1212 1208 1205 1203 1201 1200 1199 1198 1196 1195 1194 1194 1193 1192 1191 1190 1189 1188 1187 1185 1184 1184 1184 1184 1184 1184 1184 1184 1185 1186 1186 1187 1187 1188 1188 1188 1189 1189 1191 1191 1191 1193 1193 1194 1201 1202 1206 1214 1217 1231 0 0 0 0 0 0 0 0 2567 2637 2637 2637 0 0 0 0 1601 1601 1601 1625 1641 1656 1669 1673 1674 1674 1674 1674 1674 1673 1673 1673 1664 1654 1650 1648 1646 1639 1631 1630 1628 1623 1623 1623 1623 1624 1629 1636 1641 1644 1647 1647 1648 1648 1647 1646 1644 1641 1639 1637 1633 1633 1633 1632 1627 1616 1612 1609 1606 1605 1603 1596 1590 1584 1580 1580 1578 1571 1564 1561 1561 1561 1562 1565 1566 1566 1566 1562 1561 1559 1557 1557 1557 1557 1556 1556 1556 1556 1556 1556 1556 1556 1554 1553 1553 1553 1554 1554 1557 1560 1562 1564 1568 1569 1570 1572 1575 1576 1578 1579 1579 1579 1580 1580 1580 1580 1582 1582 1582 1577 1573 1568 1567 1567 1567 1574 1578 1582 1582 1582 1575 1564 1554 1548 1545 1540 1537 1535 1532 1529 1525 1520 1520 1517 1517 1517 1509 1500 1494 1488 1483 1468 1461 1456 1450 1441 1436 1434 1431 1426 1418 1414 1413 1402 1387 1379 1370 1354 1342 1326 1322 1319 1308 1297 1286 1286 1285 1282 1278 1266 1235 1203 1203 1203 1211 1211 1213 1213 1211 1211 1211 1197 1195 1181 1164 1164 1164 1165 1165 1165 1158 1154 1142 1117 1108 1096 0 0 0 0 984 981 970 954 939 938 938 934 926 909 0 0 0 0 825 832 832 832 0 0 0 752
713 713 729 746 760 769 774 782 790 798 802 809 820 836 855 873 894 914 929 941 949 954 966 974 985 994 1004 1016 1034 1047 1060 1073 1082 1089 1097 1108 1125 1130 1148 1162 1174 1185 1198 1210 1218 1226 1232 1237 1246 1256 1269 1284 1291 1303 1312 1319 1325 1334 1341 1344 1347 1355 1362 1372 1383 1394 1409 1421 1431 1435 1442 1447 1455 1462 1467 1468 1470 1475 1483 1483 1483 1481 1466 1457 1447 1422 1375 1374 0 0 0 0 864 862 858 858 858 859 863 865 867 867 868 870 871 873 874 876 877 878 879 880 882 882 882 882 882 881 880 879 877 873 868 862 840 810 790 786 784 784 784 786 787 787 788 791 791 792 793 793 794 794 795 796 797 799 800 800 801 806 810 813 816 818 822 826 831 836 840 847 865 902 925 937 946 953 961 963 965 967 970 972 974 975 977 979 981 983 984 987 988 990 992 994 996 997 999 1000 1002 1003 1004 1006 1007 1008 1011 1012 1014 1015 1018 1020 1021 1023 1025 1027 1030 1032 1035 1036 1038 1040 1042 1044 1047 1048 1051 1053 1055 1057 1059 1061 1063 1066 1069 1071 1074 1075 1077 1079 1082 1084 1086 1088 1090 1091 1093 1095 1096 1099 1100 1102 1104 1106 1108 1110 1112 1114 1116 1117 1120 1122 1123 1126 1127 1130 1132 1134 1135 1137 1139 1141 1143 1144 1146 1148 1152 1153 1156 1158 1162 1165 1171 1177 1185 1190 1197 1201 1202 1205 1211 1215 1216 1216 1216 1216 1219 1222 1224 1224 1225 1229 1233 1236 1239 1241 1243 1247 1251 1253 1255 1256 1258 1260 1264 1264 1265 1265 1265 1266 1266 1267 1267 1268 1269 1269 1270 1270 1270 1271 1271 1271 1270 1270 1269 1268 1268 1268 1268 1267 1267 1266 1264 1263 1261 1258 1251 1249 1246 1241 1237 1235 1234 1234 1230 1227 1224 1222 1220 1218 1215 1211 1208 1205 1204 1203 1202 1201 1199 1197 1196 1196 1195 1194 1193 1192 1190 1189 1188 1186 1185 1185 1185 1184 1184 1184 1184 1184 1185 1186 1187 1187 1187 1187 1188 1188 1189 1189 1190 1191 1191 1192 1193 1194 1197 1201 1202 1207 1217 1220 1222 1227 0 0 0 0 0 0 0 0 0 0 0 0 0 0 1598 1598 1598 1620 1637 1651 1656 1661 1675 1676 1677 1677 1677 1677 1675 1672 1665 1655 1651 1648 1646 1639 1635 1631 1628 1625 1624 1624 1624 1624 1628 1635 1641 1644 1645 1645 1647 1648 1648 1648 1645 1644 1641 1638 1638 1636 1635 1633 1629 1619 1612 1609 1607 1606 1603 1596 1590 1582 1581 1580 1580 1575 1569 1565 1565 1565 1566 1568 1568 1568 1566 1562 1561 1561 1561 1561 1561 1561 1561 1561 1563 1563 1563 1563 1561 1556 1554 1554 1554 1554 1555 1556 1562 1562 1563 1563 1563 1565 1565 1569 1572 1574 1576 1578 1579 1579 1579 1580 1580 1580 1581 1581 1581 1577 1573 1568 1567 1567 1567 1574 1578 1582 1582 1582 1579 1570 1563 1556 1550 1545 1542 1539 1534 1529 1525 1517 1516 1513 1512 1511 1503 1496 1494 1488 1483 1478 1467 1463 1458 1452 1445 1439 1433 1430 1425 1422 1414 1402 1387 1380 1370 1354 1342 1326 1316 1312 1308 1299 1286 1286 1285 1282 1278 1272 1235 1203 1203 1203 1221 1241 1241 1241 1233 1221 1213 1197 1195 1167 1163 1163 1162 1162 1161 1161 1158 1154 1142 1117 1117 1116 1111 0 0 0 1012 1002 974 958 945 944 944 941 941 933 923 0 0 832 832 832 832 832 817 0 0 0
711 711 730 746 760 769 774 782 790 798 803 811 822 836 854 873 894 914 929 941 949 957 969 974 988 996 1004 1016 1034 1047 1064 1078 1086 1093 1099 1110 1125 1134 1156 1173 1183 1191 1201 1212 1223 1229 1235 1242 1251 1262 1276 1291 1297 1311 1318 1325 1331 1338 1345 1351 1357 1363 1372 1382 1390 1403 1415 1426 1432 1438 1444 1448 1456 1464 1469 1472 1472 1475 1484 1484 1484 1482 1470 1466 1447 1407 1374 1369 0 0 0 0 864 862 861 860 860 861 863 865 866 867 868 870 871 873 874 875 877 878 879 881 882 882 882 882 882 882 880 879 877 875 871 861 840 810 790 788 788 787 787 787 789 790 791 791 792 793 794 795 795 795 797 797 798 800 800 800 801 806 810 814 816 820 823 826 832 836 840 854 876 903 925 937 946 953 959 962 965 967 969 971 973 975 977 979 981 982 984 986 988 990 991 993 995 997 999 1000 1001 1003 1004 1005 1006 1007 1009 1011 1013 1014 1016 1018 1020 1021 1024 1026 1027 1030 1033 1035 1037 1039 1041 1043 1046 1048 1050 1051 1054 1057 1058 1061 1063 1066 1069 1071 1073 1075 1077 1079 1082 1084 1086 1088 1089 1091 1093 1095 1096 1099 1100 1102 1104 1106 1108 1110 1112 1114 1116 1117 1120 1122 1123 1126 1127 1130 1132 1134 1136 1137 1140 1141 1143 1145 1147 1150 1152 1154 1156 1160 1165 1171 1177 1183 1191 1195 1202 1206 1206 1208 1212 1216 1219 1222 1223 1223 1225 1227 1228 1230 1231 1233 1236 1242 1244 1248 1251 1254 1257 1259 1261 1262 1265 1266 1266 1266 1266 1266 1266 1267 1268 1268 1269 1270 1271 1272 1272 1273 1274 1274 1274 1273 1273 1273 1273 1273 1273 1273 1273 1273 1271 1270 1269 1268 1266 1263 1258 1252 1249 1245 1241 1240 1240 1237 1234 1230 1228 1226 1223 1221 1218 1214 1211 1210 1208 1207 1206 1204 1203 1201 1200 1198 1198 1197 1195 1194 1192 1191 1190 1188 1186 1186 1186 1185 1185 1184 1184 1184 1185 1186 1186 1187 1187 1187 1187 1188 1188 1189 1190 1191 1191 1191 1193 1194 1197 1198 1201 1207 1217 1217 1217 1219 1227 1227 0 0 0 0 0 0 0 0 0 0 0 0 1577 1577 1580 1601 1623 1636 1645 1658 1672 1678 1678 1679 1678 1678 1675 1672 1665 1655 1651 1648 1647 1641 1636 1632 1631 1627 1624 1624 1624 1624 1626 1632 1639 1642 1644 1645 1647 1648 1648 1648 1648 1647 1644 1638 1638 1638 1635 1634 1630 1621 1614 1609 1608 1607 1603 1599 1590 1584 1584 1582 1581 1581 1576 1570 1570 1570 1570 1570 1570 1570 1566 1564 1564 1564 1564 1564 1565 1565 1565 1566 1566 1566 1567 1567 1567 1566 1559 1555 1555 1555 1556 1564 1564 1564 1564 1563 1563 1563 1565 1568 1570 1573 1574 1574 1577 1579 1579 1579 1579 1579 1579 1579 1578 1576 1572 1567 1566 1566 1566 1570 1578 1582 1582 1582 1579 1574 1570 1563 1555 1546 1542 1539 1534 1529 1525 1517 1511 1506 1504 1499 1497 1495 1494 1488 1488 1486 1482 1469 1459 1452 1449 1448 1444 1438 1433 1424 1419 1402 1388 1383 1374 1361 1348 1326 1316 1310 1307 1299 1286 1286 1285 1282 1282 1273 1255 1224 1224 1224 1250 1279 1279 1279 1248 1235 1224 1220 1200 1167 1163 1163 1162 1162 1161 1145 1142 1138 1135 1133 1133 1120 1120 1120 1096 1063 1029 1008 998 958 945 944 944 941 941 933 923 0 0 833 833 833 833 833 828 0 0 0
711 711 730 749 761 769 774 782 793 798 805 816 829 840 855 872 894 914 930 941 950 958 970 974 989 1004 1013 1021 1040 1055 1072 1081 1090 1098 1104 1114 1125 1135 1161 1178 1190 1193 1202 1213 1224 1233 1241 1250 1259 1272 1286 1297 1304 1316 1322 1328 1334 1342 1349 1356 1361 1368 1382 1394 1405 1412 1421 1430 1434 1440 1444 1449 1456 1466 1472 1474 1475 1479 1486 1486 1486 1482 1471 1466 1445 1406 1390 0 0 0 0 0 864 862 861 860 860 861 863 865 866 867 868 869 871 872 874 875 877 878 879 881 882 882 883 883 883 883 882 881 879 876 871 862 840 810 792 791 791 791 791 793 793 793 793 793 794 795 795 796 796 796 797 799 800 801 801 802 802 805 811 814 817 820 824 826 832 838 844 857 878 907 929 938 946 953 959 962 964 967 969 971 973 975 977 978 980 982 984 986 988 989 991 993 995 997 998 1000 1001 1002 1004 1004 1006 1006 1008 1008 1010 1011 1014 1016 1018 1020 1022 1023 1026 1029 1031 1034 1036 1038 1041 1043 1045 1047 1049 1051 1054 1056 1058 1061 1063 1065 1068 1071 1073 1075 1077 1079 1082 1084 1086 1088 1089 1091 1093 1095 1096 1099 1100 1102 1104 1106 1108 1110 1112 1114 1116 1118 1120 1122 1124 1126 1128 1130 1132 1134 1136 1138 1140 1141 1143 1147 1150 1152 1153 1155 1158 1163 1170 1174 1179 1188 1193 1200 1205 1208 1210 1212 1215 1217 1219 1222 1224 1229 1231 1232 1233 1236 1237 1238 1240 1245 1249 1253 1256 1258 1261 1264 1264 1265 1266 1267 1267 1268 1269 1269 1270 1270 1270 1270 1271 1272 1273 1275 1276 1276 1276 1276 1276 1276 1276 1277 1278 1278 1279 1279 1279 1277 1276 1274 1273 1273 1271 1267 1264 1257 1252 1249 1248 1245 1243 1240 1237 1233 1231 1228 1226 1223 1221 1219 1217 1215 1213 1211 1209 1208 1206 1205 1203 1202 1200 1199 1197 1195 1194 1193 1190 1189 1188 1187 1187 1186 1186 1186 1186 1186 1186 1186 1186 1187 1187 1187 1187 1188 1188 1189 1190 1191 1191 1192 1192 1194 1197 1198 1201 1206 1211 1214 1214 1214 1214 1227 1230 0 0 0 0 0 0 0 0 0 0 0 1540 1543 1553 1574 1596 1615 1636 1656 1669 1681 1681 1681 1679 1678 1675 1672 1665 1655 1651 1648 1647 1643 1639 1636 1633 1627 1625 1624 1624 1625 1626 1632 1637 1640 1644 1645 1648 1648 1648 1648 1648 1647 1644 1641 1641 1640 1640 1640 1632 1624 1616 1611 1610 1608 1603 1599 1590 1586 1586 1586 1586 1586 1584 1577 1572 1572 1572 1572 1572 1570 1566 1566 1566 1566 1568 1568 1568 1567 1567 1567 1567 1567 1569 1573 1573 1573 1570 1562 1562 1562 1564 1573 1573 1573 1565 1561 1561 1561 1564 1567 1568 1569 1570 1572 1574 1577 1577 1578 1578 1578 1578 1578 1578 1575 1572 1567 1566 1566 1566 1570 1576 1580 1580 1580 1579 1577 1575 1567 1555 1547 1543 1539 1534 1528 1524 1517 1511 1506 1504 1499 1497 1495 1494 1494 1494 1490 1482 1472 1462 1453 1453 1452 1452 1444 1435 1425 1420 1406 1391 1383 1374 1362 1351 1332 1316 1309 1307 1302 1294 1294 1293 1288 1286 1278 1269 1247 1247 1247 1275 1286 1286 1286 1266 1249 1243 1235 1219 1167 1167 1167 1164 1164 1161 1145 1117 1117 1114 1114 1117 1123 1123 1123 1100 1063 1049 1010 998 958 941 941 941 941 941 933 923 0 848 833 833 833 833 833 817 0 0 0
711 711 730 750 762 769 778 792 797 804 812 820 834 845 855 872 894 914 930 942 950 962 970 990 1004 1012 1019 1032 1049 1066 1077 1086 1093 1100 1107 1114 1121 1137 1161 1178 1190 1198 1205 1214 1225 1239 1252 1261 1270 1281 1292 1300 1309 1320 1325 1330 1338 1350 1361 1368 1371 1378 1392 1406 1413 1421 1428 1434 1437 1442 1445 1451 1458 1468 1474 1477 1479 1484 1488 1488 1488 1482 1472 1467 1440 1406 1392 0 0 0 0 0 864 860 860 860 861 861 863 865 865 866 868 869 871 872 873 875 876 878 879 881 882 882 883 883 883 883 883 883 879 877 873 864 840 810 796 793 793 793 796 797 797 797 794 794 794 795 796 796 798 798 798 800 800 802 803 803 804 806 812 816 818 822 825 828 833 846 855 865 881 909 929 939 948 954 959 962 964 966 969 970 973 974 976 978 979 982 984 985 988 989 991 993 994 997 998 1000 1001 1001 1002 1003 1004 1005 1006 1007 1007 1008 1010 1014 1014 1016 1020 1021 1024 1027 1030 1033 1036 1038 1040 1042 1044 1047 1048 1051 1054 1056 1058 1060 1063 1065 1067 1070 1072 1075 1077 1079 1082 1084 1086 1088 1089 1091 1093 1095 1096 1099 1100 1102 1104 1106 1108 1110 1112 1114 1116 1118 1120 1122 1124 1126 1128 1130 1132 1134 1137 1139 1141 1142 1145 1147 1150 1152 1153 1156 1159 1163 1170 1175 1181 1188 1194 1200 1205 1209 1212 1215 1218 1220 1222 1222 1227 1229 1234 1237 1237 1239 1242 1244 1248 1251 1255 1259 1262 1263 1264 1265 1267 1268 1270 1271 1271 1271 1271 1271 1271 1271 1272 1273 1273 1276 1276 1277 1278 1279 1280 1280 1281 1281 1281 1281 1281 1282 1282 1282 1282 1282 1280 1279 1278 1277 1276 1273 1268 1264 1259 1256 1253 1252 1249 1247 1243 1238 1235 1231 1228 1226 1223 1222 1220 1218 1216 1214 1212 1210 1209 1207 1205 1204 1202 1201 1198 1197 1196 1194 1192 1191 1190 1189 1188 1187 1187 1187 1187 1187 1187 1187 1187 1187 1187 1188 1188 1188 1189 1189 1190 1191 1192 1193 1194 1196 1197 1198 1201 1205 1210 1211 1211 1213 1214 1220 1221 1223 0 0 0 0 0 0 0 0 0 0 1512 1514 1523 1546 1567 1579 1610 1647 1667 1681 1681 1681 1679 1677 1675 1669 1660 1654 1648 1648 1647 1647 1644 1637 1633 1627 1627 1626 1626 1626 1627 1632 1637 1640 1644 1649 1650 1650 1650 1650 1650 1647 1646 1646 1646 1646 1646 1644 1633 1625 1620 1619 1616 1610 1603 1599 1594 1592 1592 1592 1592 1592 1591 1583 1578 1576 1575 1575 1574 1570 1567 1567 1567 1568 1569 1570 1570 1569 1569 1567 1567 1567 1569 1577 1580 1580 1580 1572 1568 1568 1568 1575 1575 1575 1569 1561 1561 1561 1564 1567 1568 1568 1569 1569 1570 1573 1574 1576 1577 1578 1578 1578 1578 1575 1572 1567 1566 1566 1566 1570 1575 1579 1579 1579 1579 1579 1576 1569 1556 1550 1545 1541 1534 1528 1524 1517 1511 1506 1504 1499 1497 1496 1495 1494 1494 1490 1482 1472 1463 1455 1455 1453 1452 1445 1435 1428 1420 1408 1392 1383 1374 1362 1351 1335 1317 1308 1307 1306 1305 1304 1302 1299 1295 1285 1282 1273 1273 1273 1289 1289 1289 1286 1266 1257 1251 1245 1231 1209 1181 1173 1172 1169 1162 1145 1117 1117 1117 1118 1123 1123 1123 1123 1100 1063 1052 1016 998 946 942 942 946 946 942 942 916 0 848 833 833 833 833 832 807 0 0 0
712 712 739 756 763 769 780 792 797 804 815 823 835 847 857 872 894 914 930 942 954 963 975 999 1011 1018 1025 1036 1053 1066 1077 1086 1095 1101 1109 1114 1121 1137 1161 1178 1190 1198 1206 1219 1235 1250 1262 1272 1278 1286 1292 1300 1311 1320 1326 1331 1345 1361 1375 1384 1386 1392 1402 1412 1420 1427 1433 1437 1441 1444 1449 1455 1462 1471 1475 1479 1481 1486 1492 1492 1492 1482 1476 1467 1426 1403 1397 0 0 0 0 0 854 854 854 860 861 861 863 864 865 866 868 869 871 872 873 875 876 877 879 881 882 883 884 884 884 884 884 883 882 877 875 864 845 820 806 800 797 797 797 797 797 797 794 794 794 795 796 796 798 799 799 801 802 804 804 805 805 807 812 816 819 822 825 828 833 847 859 867 886 911 930 941 949 955 959 962 963 966 968 970 972 974 975 977 979 981 983 985 987 989 990 992 994 996 998 999 1001 1001 1002 1002 1003 1004 1005 1005 1006 1006 1006 1007 1011 1014 1018 1020 1022 1025 1028 1032 1034 1037 1039 1041 1044 1045 1048 1051 1053 1056 1058 1060 1062 1064 1066 1070 1072 1074 1077 1079 1082 1084 1086 1088 1089 1091 1093 1094 1096 1099 1100 1102 1104 1106 1108 1110 1112 1114 1117 1118 1120 1122 1124 1127 1128 1131 1132 1134 1137 1139 1141 1143 1145 1148 1150 1152 1154 1157 1160 1163 1170 1176 1181 1188 1194 1200 1205 1209 1213 1217 1221 1223 1225 1226 1227 1231 1236 1240 1242 1244 1246 1249 1254 1258 1261 1264 1265 1265 1267 1269 1272 1274 1274 1274 1274 1274 1274 1274 1274 1274 1275 1276 1277 1279 1280 1281 1282 1283 1285 1285 1285 1285 1284 1284 1284 1284 1284 1284 1284 1283 1283 1283 1283 1281 1280 1279 1276 1272 1268 1263 1261 1260 1257 1251 1249 1246 1241 1237 1233 1230 1228 1224 1223 1221 1219 1218 1216 1213 1212 1210 1207 1206 1204 1202 1201 1199 1197 1196 1194 1194 1192 1191 1190 1188 1188 1188 1188 1187 1187 1187 1187 1188 1188 1188 1189 1189 1190 1190 1190 1191 1192 1193 1194 1196 1199 1200 1202 1205 1208 1209 1210 1211 1215 1218 1221 1221 1221 1222 0 0 0 0 0 0 0 0 0 1492 1496 1509 1535 1553 1568 1620 1662 1679 1679 1679 1677 1676 1675 1669 1660 1650 1650 1650 1648 1647 1644 1637 1633 1625 1625 1625 1627 1627 1630 1632 1637 1640 1647 1650 1650 1650 1651 1651 1651 1651 1648 1648 1648 1648 1648 1644 1636 1632 1630 1625 1624 1622 1609 1601 1600 1598 1598 1597 1596 1595 1592 1586 1582 1581 1581 1581 1577 1575 1570 1570 1570 1571 1573 1573 1573 1573 1572 1570 1570 1570 1571 1578 1580 1580 1580 1576 1575 1575 1575 1575 1575 1575 1574 1567 1565 1565 1565 1565 1566 1567 1568 1569 1570 1573 1574 1576 1577 1578 1578 1578 1578 1575 1573 1570 1569 1569 1569 1570 1575 1578 1578 1579 1579 1578 1576 1569 1556 1550 1545 1539 1534 1528 1524 1521 1518 1514 1510 1503 1497 1496 1496 1494 1494 1493 1482 1472 1463 1455 1455 1454 1453 1447 1436 1428 1419 1408 1394 1383 1373 1361 1351 1335 1319 1310 1310 1310 1317 1317 1317 1308 1305 1300 1297 1293 1293 1293 1298 1298 1298 1286 1266 1257 1257 1255 1245 1222 1200 1176 1175 1171 1165 1152 1117 1117 1117 1118 1128 1128 1128 1120 1100 1052 1034 1017 992 948 942 942 947 948 947 947 916 0 849 848 846 839 804 792 792 0 0 0
722 722 747 760 765 769 780 792 797 804 815 823 835 848 862 877 899 921 937 946 958 965 979 999 1012 1018 1025 1037 1053 1066 1077 1087 1096 1102 1109 1116 1121 1137 1157 1173 1188 1199 1210 1226 1243 1258 1269 1278 1282 1289 1295 1301 1311 1320 1326 1334 1347 1368 1385 1397 1400 1404 1411 1419 1427 1436 1438 1442 1445 1449 1454 1461 1467 1473 1478 1481 1482 1487 1493 1493 1493 1482 1480 1467 1426 1403 1397 0 0 0 0 861 854 854 854 860 861 862 863 864 865 866 867 869 871 872 873 875 876 877 879 881 882 883 884 884 884 884 884 884 882 881 879 870 851 833 820 813 805 802 800 800 798 798 795 795 795 795 796 797 798 800 802 803 805 806 806 806 807 808 812 817 820 822 825 828 833 847 860 869 888 911 930 941 950 955 958 959 962 965 967 970 972 973 975 977 979 981 983 985 987 989 990 992 994 996 997 999 999 1000 1001 1002 1002 1003 1003 1003 1003 1003 1003 1003 1003 1008 1012 1016 1019 1022 1025 1028 1033 1036 1038 1040 1042 1044 1047 1050 1053 1056 1058 1060 1062 1064 1066 1069 1072 1074 1077 1079 1081 1083 1086 1088 1089 1091 1093 1094 1096 1098 1100 1102 1104 1106 1108 1110 1112 1115 1117 1119 1121 1123 1124 1127 1128 1131 1133 1135 1137 1139 1141 1143 1145 1148 1150 1154 1157 1159 1160 1164 1170 1176 1181 1188 1194 1199 1204 1209 1213 1217 1221 1223 1225 1229 1231 1234 1237 1242 1245 1247 1248 1250 1256 1263 1266 1266 1266 1267 1269 1272 1276 1276 1276 1276 1276 1276 1277 1278 1278 1278 1278 1278 1280 1282 1284 1284 1285 1287 1288 1288 1288 1288 1287 1287 1287 1287 1288 1288 1287 1287 1286 1285 1285 1284 1283 1282 1280 1278 1275 1272 1272 1269 1264 1258 1253 1250 1246 1243 1240 1237 1235 1230 1228 1225 1223 1220 1218 1216 1214 1212 1210 1208 1206 1205 1202 1201 1199 1198 1197 1195 1194 1193 1191 1190 1189 1189 1188 1188 1188 1188 1188 1188 1188 1189 1189 1189 1190 1191 1191 1191 1192 1193 1194 1196 1199 1200 1202 1204 1205 1205 1206 1210 1215 1218 1220 1220 1220 1219 1220 1222 1241 1258 0 0 0 0 0 0 0 0 0 0 0 0 0 1659 1673 1673 1673 1673 1671 1669 1655 1649 1649 1649 1646 1646 1644 1637 1633 1625 1625 1625 1627 1627 1630 1634 1640 1649 1650 1650 1650 1650 1651 1651 1651 1651 1649 1649 1649 1648 1648 1644 1636 1634 1634 1632 1630 1622 1612 1606 1601 1600 1599 1598 1596 1596 1592 1586 1584 1584 1584 1582 1579 1576 1573 1573 1573 1577 1577 1577 1577 1577 1576 1575 1575 1575 1575 1578 1580 1580 1580 1576 1575 1575 1575 1575 1576 1576 1576 1572 1569 1568 1565 1565 1565 1567 1568 1570 1572 1573 1574 1576 1577 1577 1579 1579 1579 1577 1575 1574 1572 1571 1571 1571 1574 1576 1576 1578 1578 1576 1576 1567 1556 1547 1543 1537 1533 1528 1524 1521 1518 1515 1512 1509 1504 1499 1498 1497 1496 1495 1482 1476 1467 1461 1460 1459 1455 1449 1439 1428 1418 1412 1398 1383 1372 1361 1351 1335 1319 1317 1317 1317 1327 1327 1327 1317 1312 1307 1307 1307 1307 1305 1304 1292 1278 1266 1264 1261 1260 1257 1255 1236 1221 1200 1178 1174 1170 1158 1127 1126 1126 1125 1125 1125 1122 1120 1100 1052 1034 1017 992 952 952 952 960 960 960 960 0 0 0 875 864 839 804 797 0 0 0 815
732 732 748 760 767 770 780 792 795 806 815 824 836 849 867 892 911 928 943 951 959 966 980 1000 1013 1020 1025 1037 1055 1069 1079 1089 1097 1102 1111 1116 1123 1137 1157 1173 1188 1199 1211 1229 1250 1267 1279 1282 1286 1292 1296 1305 1314 1321 1329 1336 1349 1369 1387 1399 1405 1413 1423 1432 1439 1445 1448 1450 1453 1457 1462 1468 1473 1478 1481 1481 1483 1489 1493 1493 1493 1489 1486 1456 1426 1403 1400 0 0 0 0 857 853 853 853 859 861 862 863 863 865 866 867 869 870 872 873 875 876 877 879 881 882 883 884 884 884 885 885 885 885 884 879 872 861 846 833 822 810 807 805 802 800 798 795 795 795 795 796 797 798 801 804 806 807 809 809 809 810 812 815 818 820 822 825 828 835 848 862 873 890 913 930 943 950 955 956 959 961 964 967 969 972 973 975 977 979 980 983 985 986 988 990 992 994 995 997 998 998 999 1000 1000 1001 1001 1002 1002 1002 1000 999 999 999 1003 1004 1006 1011 1016 1022 1027 1029 1032 1036 1040 1041 1044 1047 1050 1053 1055 1058 1059 1061 1063 1066 1069 1071 1073 1076 1078 1081 1083 1086 1087 1089 1091 1093 1094 1096 1098 1100 1102 1104 1106 1108 1110 1112 1115 1117 1119 1121 1123 1124 1127 1129 1131 1133 1135 1137 1139 1142 1144 1145 1148 1151 1154 1157 1159 1162 1166 1170 1175 1181 1187 1193 1197 1203 1209 1213 1217 1221 1223 1225 1229 1233 1237 1238 1243 1247 1250 1252 1255 1259 1265 1267 1268 1269 1270 1271 1273 1277 1277 1277 1276 1276 1276 1280 1280 1280 1280 1280 1280 1282 1284 1286 1288 1289 1291 1293 1293 1293 1293 1293 1293 1293 1292 1291 1291 1291 1290 1289 1288 1288 1287 1287 1286 1283 1281 1280 1279 1278 1274 1271 1266 1260 1256 1252 1250 1247 1246 1241 1238 1232 1230 1229 1225 1222 1219 1217 1214 1213 1211 1209 1207 1205 1203 1202 1200 1198 1198 1196 1195 1193 1193 1191 1191 1190 1189 1189 1189 1189 1189 1189 1189 1189 1190 1191 1191 1191 1191 1192 1193 1195 1196 1199 1200 1202 1203 1204 1205 1206 1210 1215 1220 1220 1220 1220 1220 1218 1215 1218 1218 1235 0 0 0 0 0 0 0 0 0 0 0 0 0 0 1633 1651 1665 1665 1665 1655 1648 1648 1648 1646 1646 1644 1637 1629 1625 1625 1625 1626 1627 1630 1635 1644 1649 1650 1650 1651 1651 1651 1651 1651 1651 1649 1649 1649 1648 1648 1644 1636 1634 1634 1632 1630 1622 1614 1608 1606 1604 1600 1598 1596 1595 1592 1589 1585 1585 1584 1582 1580 1579 1579 1579 1578 1578 1578 1578 1578 1579 1579 1579 1579 1579 1579 1578 1578 1577 1577 1576 1575 1575 1575 1575 1576 1576 1576 1575 1575 1573 1570 1567 1567 1567 1570 1574 1574 1574 1576 1576 1576 1577 1580 1580 1580 1578 1577 1577 1576 1572 1572 1572 1573 1574 1574 1575 1575 1574 1573 1567 1556 1547 1543 1537 1533 1528 1524 1521 1518 1515 1513 1511 1507 1505 1499 1498 1496 1495 1491 1484 1474 1468 1460 1459 1455 1449 1439 1428 1418 1412 1402 1383 1368 1360 1351 1335 1322 1322 1322 1326 1332 1332 1332 1329 1315 1309 1309 1309 1309 1309 1309 1292 1278 1266 1266 1266 1267 1267 1267 1249 1229 1215 1201 1188 1183 1182 1141 1134 1130 1123 1123 1123 1123 1119 1102 1055 1034 1017 992 985 974 974 974 996 996 996 0 0 0 0 0 0 0 0 0 0 826 826
739 739 748 760 767 775 780 792 795 806 817 825 837 850 880 909 928 937 946 953 962 966 982 1001 1013 1020 1028 1040 1055 1072 1085 1095 1104 1113 1113 1116 1127 1138 1157 1173 1188 1201 1216 1235 1258 1278 1287 1292 1295 1299 1304 1311 1320 1328 1337 1345 1356 1369 1388 1400 1410 1422 1432 1442 1450 1454 1457 1460 1462 1467 1472 1476 1478 1482 1483 1484 1484 1491 1494 1494 1494 1491 1489 1456 1438 1403 0 0 0 0 0 853 853 853 853 858 861 862 862 863 865 866 867 869 870 872 873 875 876 877 879 881 882 883 884 885 885 885 885 886 886 886 882 874 868 855 839 829 819 817 816 810 803 798 797 797 797 797 797 798 799 802 806 809 810 811 812 812 813 814 815 818 820 822 825 828 835 848 863 878 891 916 935 944 950 954 956 958 961 964 966 969 971 972 975 976 978 980 982 984 986 988 989 991 993 995 996 997 998 999 999 999 1000 1001 1001 1001 999 996 996 993 993 993 995 997 1003 1007 1014 1021 1027 1031 1035 1037 1041 1043 1047 1050 1052 1055 1057 1059 1061 1063 1065 1068 1070 1073 1075 1078 1080 1083 1086 1087 1089 1091 1092 1094 1096 1098 1100 1102 1104 1106 1108 1110 1112 1115 1117 1119 1121 1123 1125 1127 1129 1131 1133 1135 1137 1139 1142 1144 1147 1149 1152 1155 1158 1160 1163 1166 1170 1173 1178 1184 1190 1193 1198 1205 1209 1213 1217 1220 1224 1229 1233 1237 1238 1243 1247 1252 1258 1263 1267 1270 1272 1273 1273 1273 1274 1277 1280 1280 1280 1277 1277 1277 1281 1281 1281 1281 1281 1281 1282 1286 1290 1292 1294 1295 1298 1298 1298 1297 1297 1296 1296 1296 1296 1296 1296 1295 1294 1293 1293 1292 1291 1289 1288 1286 1284 1284 1283 1280 1277 1273 1269 1265 1261 1257 1254 1251 1248 1244 1239 1238 1237 1233 1230 1224 1220 1217 1215 1214 1213 1211 1209 1206 1204 1202 1200 1199 1198 1196 1194 1194 1194 1193 1192 1191 1191 1190 1190 1190 1190 1190 1190 1190 1191 1191 1191 1191 1192 1193 1195 1196 1198 1200 1201 1202 1204 1204 1205 1208 1212 1216 1217 1217 1217 1217 1216 1215 1211 1211 1211 1231 0 0 0 0 0 0 0 0 0 0 0 0 0 0 1614 1645 1655 1655 1655 1643 1643 1643 1643 1643 1643 1634 1628 1623 1623 1623 1625 1627 1631 1636 1644 1650 1650 1650 1651 1651 1651 1652 1652 1652 1650 1647 1647 1646 1644 1640 1634 1634 1634 1632 1630 1622 1615 1612 1609 1604 1600 1597 1595 1592 1590 1589 1586 1585 1584 1583 1582 1582 1582 1582 1581 1581 1579 1579 1579 1580 1582 1582 1582 1581 1581 1578 1577 1576 1576 1576 1576 1575 1575 1575 1576 1577 1578 1579 1579 1579 1576 1571 1571 1571 1576 1576 1576 1576 1576 1576 1576 1577 1580 1580 1580 1579 1579 1578 1576 1572 1572 1572 1572 1572 1572 1570 1570 1569 1567 1563 1556 1544 1535 1530 1529 1528 1524 1520 1517 1515 1513 1512 1512 1511 1507 1504 1503 1502 1502 1495 1484 1474 1460 1459 1455 1449 1439 1428 1418 1412 1402 1382 1368 1360 1351 1335 1322 1322 1322 1328 1334 1341 1341 1341 1320 1319 1317 1317 1317 1317 1317 1292 1278 1266 1266 1266 1282 1282 1282 1259 1230 1220 1205 1200 1198 1194 1172 1140 1135 1134 1133 1123 1122 1119 1119 1098 1074 1054 995 987 987 987 997 1004 1009 1009 1009 994 0 0 0 0 0 0 0 0 856 856
741 741 749 761 767 776 782 792 795 806 820 826 837 854 888 918 933 945 950 958 963 973 987 1002 1013 1022 1033 1049 1067 1081 1093 1103 1112 1115 1118 1126 1138 1149 1159 1174 1192 1210 1228 1249 1272 1286 1298 1303 1306 1310 1314 1320 1331 1342 1353 1360 1364 1373 1392 1401 1416 1428 1440 1449 1457 1460 1464 1466 1471 1476 1481 1481 1483 1489 1489 1491 1493 1495 1495 1495 1495 1491 1489 1456 1438 1403 0 0 0 0 0 851 851 851 854 858 860 862 862 863 865 866 867 869 870 872 873 875 876 877 879 881 882 883 884 885 885 886 887 887 887 886 885 878 877 869 854 839 832 825 823 822 822 814 814 808 806 806 805 805 805 806 810 812 814 815 815 816 816 816 817 818 822 825 826 828 835 848 869 884 895 916 935 944 950 953 956 958 961 964 966 968 970 972 974 976 978 980 982 984 986 987 989 990 993 994 996 997 997 997 998 999 999 999 999 998 996 992 991 983 983 983 984 993 996 998 1004 1012 1021 1027 1033 1035 1038 1043 1046 1049 1051 1053 1056 1058 1060 1062 1064 1067 1070 1073 1075 1077 1080 1082 1085 1087 1088 1090 1092 1094 1096 1097 1099 1102 1103 1106 1108 1110 1112 1115 1116 1119 1121 1123 1125 1127 1129 1131 1133 1136 1138 1139 1142 1145 1147 1149 1152 1155 1158 1161 1163 1166 1170 1173 1177 1181 1187 1190 1194 1200 1205 1208 1211 1216 1220 1226 1233 1237 1238 1243 1247 1252 1258 1265 1267 1272 1273 1273 1273 1275 1275 1279 1283 1283 1283 1279 1279 1279 1282 1282 1282 1282 1282 1282 1285 1290 1293 1296 1296 1300 1301 1301 1301 1300 1300 1300 1301 1301 1301 1300 1300 1300 1299 1299 1298 1297 1295 1293 1292 1290 1288 1288 1288 1285 1281 1277 1275 1272 1268 1263 1261 1261 1257 1251 1246 1243 1241 1238 1234 1229 1224 1221 1219 1217 1216 1216 1215 1211 1208 1204 1202 1200 1199 1197 1196 1195 1194 1194 1193 1192 1192 1191 1191 1191 1191 1191 1191 1191 1191 1191 1192 1192 1192 1193 1195 1196 1198 1200 1201 1201 1203 1204 1205 1207 1212 1216 1216 1216 1217 1217 1215 1213 1211 1208 1208 1205 1205 1206 0 0 0 0 0 0 0 0 0 0 0 0 0 0 1628 1633 1633 1637 1637 1637 1637 1637 1637 1633 1627 1622 1622 1622 1624 1627 1630 1637 1646 1652 1652 1652 1651 1651 1651 1653 1653 1653 1652 1646 1641 1640 1639 1636 1633 1629 1628 1627 1622 1619 1615 1614 1610 1604 1599 1594 1594 1592 1590 1589 1587 1585 1584 1583 1583 1583 1583 1583 1583 1581 1579 1579 1579 1582 1582 1583 1583 1583 1583 1578 1577 1576 1576 1576 1575 1575 1575 1575 1576 1578 1578 1579 1579 1579 1577 1574 1574 1574 1576 1578 1578 1578 1577 1577 1577 1577 1578 1579 1579 1579 1579 1578 1576 1572 1571 1571 1571 1571 1570 1569 1567 1566 1563 1559 1549 1542 1529 1524 1524 1524 1523 1520 1517 1517 1517 1517 1517 1517 1515 1511 1511 1505 1503 1499 1489 1474 1463 1456 1442 1436 1428 1423 1417 1408 1402 1380 1367 1360 1351 1335 1331 1331 1331 1332 1335 1353 1353 1353 1333 1326 1323 1323 1326 1326 1323 1311 1299 1292 1283 1283 1283 1282 1282 1271 1239 1220 1205 1200 1198 1194 1178 1153 1149 1144 1141 1125 1122 1122 1119 1107 1091 0 1013 1001 1001 1001 1005 1009 1009 1009 1009 1003 987 0 0 0 0 0 891 891 887 887
744 744 749 761 770 786 795 798 808 822 833 840 847 868 896 924 942 954 959 967 971 981 992 1005 1015 1027 1042 1059 1078 1093 1105 1106 1114 1123 1126 1136 1147 1160 1170 1186 1203 1226 1245 1265 1282 1296 1306 1312 1315 1319 1323 1331 1343 1354 1368 1374 1379 1383 1396 1410 1422 1432 1443 1451 1458 1463 1468 1473 1478 1482 1485 1489 1491 1496 1501 1504 1505 1505 1505 1503 1496 1491 1487 1461 1438 1403 0 0 0 0 0 851 851 851 854 858 860 862 862 863 865 866 867 869 870 872 873 875 876 878 879 881 882 884 885 885 886 887 887 887 887 887 886 886 884 878 868 860 853 842 839 839 839 831 830 824 821 818 813 813 813 813 814 814 815 815 817 817 817 819 819 821 823 827 830 832 836 849 870 885 898 917 933 945 950 952 955 958 961 964 966 968 970 971 973 975 977 979 981 983 985 987 988 990 992 993 994 996 996 997 997 997 998 998 998 995 993 987 978 972 968 968 968 978 983 988 994 1001 1008 1017 1025 1031 1035 1041 1045 1048 1051 1053 1055 1056 1059 1061 1063 1067 1069 1072 1075 1077 1079 1082 1085 1086 1088 1090 1092 1094 1096 1097 1099 1101 1103 1105 1108 1110 1112 1114 1116 1119 1121 1123 1125 1127 1129 1131 1133 1136 1138 1140 1142 1145 1147 1150 1152 1155 1158 1161 1163 1166 1170 1173 1177 1180 1184 1186 1189 1196 1201 1205 1209 1214 1219 1223 1227 1233 1238 1239 1244 1252 1258 1265 1270 1274 1279 1279 1280 1282 1287 1288 1289 1289 1288 1284 1283 1283 1283 1284 1284 1285 1285 1285 1290 1293 1295 1297 1299 1301 1303 1303 1303 1303 1303 1303 1304 1304 1304 1304 1303 1302 1302 1302 1302 1300 1299 1298 1296 1295 1293 1292 1290 1289 1287 1283 1280 1278 1275 1270 1268 1267 1265 1261 1256 1250 1246 1244 1239 1235 1232 1227 1224 1222 1221 1220 1218 1217 1212 1208 1205 1203 1202 1201 1199 1198 1196 1196 1194 1194 1193 1193 1193 1192 1192 1191 1191 1191 1192 1192 1192 1192 1193 1193 1195 1197 1198 1199 1200 1201 1202 1204 1206 1207 1211 1212 1213 1214 1215 1215 1215 1215 1212 1208 1208 1205 1204 1204 1204 1204 1210 0 0 0 0 0 0 0 0 0 0 0 0 1605 1615 1625 1631 1631 1636 1636 1636 1632 1627 1620 1620 1620 1624 1626 1628 1637 1645 1654 1655 1656 1656 1655 1655 1656 1655 1655 1654 1646 1640 1634 1633 1633 1633 1629 1627 1624 1617 1615 1615 1614 1610 1604 1599 1594 1594 1592 1591 1590 1589 1588 1584 1584 1584 1583 1584 1584 1583 1581 1578 1578 1578 1582 1584 1586 1586 1584 1584 1579 1579 1576 1576 1576 1576 1576 1578 1578 1579 1579 1579 1579 1579 1579 1577 1576 1576 1576 1576 1578 1579 1579 1579 1575 1575 1575 1576 1576 1579 1579 1579 1578 1573 1570 1570 1570 1569 1569 1569 1568 1567 1565 1563 1557 1547 1535 1529 1524 1524 1524 1522 1520 1517 1517 1517 1519 1520 1520 1520 1514 1511 1505 1503 1499 1490 1478 1465 1456 1442 1436 1424 1412 1401 1395 1391 1376 1367 1360 1354 1345 1339 1339 1338 1339 1339 1357 1357 1357 1347 1341 1334 1334 1331 1330 1329 1321 1313 1306 1290 1290 1285 1282 1282 1271 1243 1220 1206 1201 1200 1194 1178 1156 1150 1147 1143 1127 1126 1123 1122 1114 1104 1079 1028 1005 1005 1005 1007 1009 1009 1009 1009 1003 995 976 0 0 0 909 909 909 907 907
747 747 749 761 779 798 799 811 822 836 847 857 868 883 903 926 947 962 971 977 980 989 996 1006 1017 1031 1048 1070 1092 1107 1108 1114 1120 1123 1130 1137 1153 1168 1182 1198 1217 1238 1256 1272 1285 1301 1313 1317 1322 1325 1330 1337 1349 1365 1382 1391 1397 1402 1409 1419 1433 1440 1445 1452 1461 1465 1474 1479 1480 1486 1491 1494 1498 1505 1511 1514 1515 1515 1514 1510 1498 1492 1487 1461 1438 1393 0 0 0 0 855 851 851 851 856 858 860 861 862 863 864 866 867 868 870 872 873 875 876 878 879 881 882 884 885 886 886 887 888 888 888 888 887 886 885 882 874 868 864 863 863 860 857 855 844 840 836 833 824 821 821 821 821 821 818 818 818 818 819 820 823 824 826 829 834 840 843 857 877 889 900 918 933 945 950 952 955 957 961 964 966 967 969 971 973 975 977 979 980 983 984 986 988 990 991 993 994 995 995 995 996 996 996 996 995 993 991 984 976 970 965 958 958 958 964 972 985 995 996 1003 1014 1021 1028 1034 1039 1041 1046 1051 1053 1055 1058 1060 1063 1066 1069 1072 1074 1077 1079 1081 1083 1085 1088 1090 1092 1094 1096 1097 1099 1101 1103 1105 1108 1110 1112 1114 1116 1119 1121 1123 1125 1127 1129 1131 1133 1135 1138 1140 1142 1145 1147 1150 1152 1155 1158 1161 1163 1166 1169 1173 1175 1179 1182 1186 1189 1191 1197 1201 1204 1211 1217 1220 1223 1228 1232 1233 1238 1244 1255 1265 1270 1277 1284 1288 1293 1293 1293 1294 1294 1302 1302 1302 1300 1296 1296 1293 1293 1293 1292 1292 1292 1295 1299 1301 1303 1304 1304 1305 1305 1305 1306 1306 1306 1306 1306 1306 1306 1306 1305 1305 1304 1302 1301 1300 1299 1297 1296 1296 1295 1294 1293 1290 1287 1285 1281 1279 1276 1273 1271 1266 1263 1257 1253 1251 1247 1242 1238 1233 1230 1227 1225 1224 1222 1220 1216 1212 1209 1207 1205 1203 1202 1199 1199 1197 1197 1196 1196 1195 1194 1194 1193 1193 1193 1193 1193 1193 1193 1193 1193 1194 1195 1198 1199 1199 1200 1201 1202 1205 1207 1208 1211 1211 1212 1213 1213 1215 1216 1216 1216 1209 1208 1206 1204 1197 1196 1196 1196 1196 1197 1202 0 0 0 0 0 0 0 0 0 0 0 1593 1601 1616 1629 1629 1629 1623 1620 1617 1615 1615 1615 1622 1627 1637 1645 1654 1655 1656 1656 1656 1658 1659 1659 1659 1655 1646 1640 1634 1633 1629 1629 1628 1627 1624 1617 1615 1614 1614 1610 1604 1599 1594 1594 1594 1594 1594 1594 1590 1589 1586 1586 1586 1585 1584 1583 1581 1578 1578 1578 1582 1584 1586 1586 1584 1584 1581 1580 1580 1580 1577 1577 1577 1581 1581 1581 1580 1579 1578 1578 1577 1577 1577 1576 1574 1574 1574 1578 1578 1578 1575 1571 1569 1569 1569 1572 1576 1576 1576 1573 1570 1570 1570 1569 1569 1569 1568 1566 1565 1563 1552 1543 1535 1529 1524 1524 1524 1524 1524 1521 1521 1521 1521 1521 1521 1520 1514 1511 1505 1503 1500 1494 1486 1471 1456 1442 1436 1424 1412 1395 1384 1376 1371 1367 1366 1362 1359 1355 1355 1349 1349 1349 1360 1360 1360 1353 1353 1353 1350 1341 1339 1332 1321 1315 1306 1292 1280 1280 1273 1273 1271 1249 1221 1206 1201 1200 1191 1179 1157 1157 1156 1151 1145 1133 1129 1127 1124 1113 1079 1045 1026 1022 1019 1009 1008 1004 1003 1003 1003 995 994 991 983 942 926 921 915 914 914
760 760 765 782 796 811 812 822 826 839 854 867 879 889 906 926 948 967 976 980 985 991 996 1006 1021 1039 1063 1083 1094 1110 1118 1123 1128 1131 1134 1141 1159 1181 1195 1212 1228 1248 1263 1276 1289 1302 1313 1317 1326 1329 1331 1340 1353 1368 1390 1406 1412 1413 1418 1426 1440 1445 1449 1455 1461 1467 1478 1482 1487 1492 1495 1499 1504 1512 1520 1521 1521 1521 1521 1512 1505 1492 1487 1461 1432 0 0 0 0 0 853 853 853 853 856 858 860 861 862 863 864 865 867 868 870 872 873 875 876 878 879 881 882 884 885 886 887 888 888 888 888 888 890 890 890 888 885 880 877 876 873 871 869 868 861 851 848 847 839 831 830 829 829 827 823 823 823 824 824 825 826 828 830 834 843 852 859 870 877 893 911 920 935 945 950 951 954 957 961 963 966 967 969 971 973 975 976 978 980 982 984 985 988 989 991 992 993 994 995 995 995 995 994 994 993 991 990 983 975 960 952 946 944 944 946 953 971 984 985 987 998 1007 1016 1024 1029 1034 1045 1047 1049 1051 1054 1059 1062 1066 1069 1071 1074 1077 1078 1081 1083 1085 1088 1090 1092 1094 1095 1096 1099 1101 1103 1105 1108 1110 1112 1114 1116 1118 1120 1123 1125 1127 1129 1131 1133 1135 1138 1140 1142 1145 1147 1150 1152 1155 1157 1161 1163 1166 1169 1172 1175 1179 1181 1185 1187 1191 1194 1197 1202 1205 1210 1216 1222 1226 1227 1232 1237 1240 1249 1263 1267 1277 1305 1307 1310 1310 1307 1307 1311 1314 1315 1315 1315 1312 1311 1309 1306 1301 1297 1296 1296 1296 1301 1305 1307 1307 1307 1308 1309 1309 1309 1308 1308 1307 1307 1307 1307 1307 1307 1306 1305 1305 1304 1302 1301 1300 1299 1298 1298 1297 1296 1296 1294 1292 1288 1285 1282 1281 1280 1275 1269 1265 1263 1259 1252 1248 1245 1242 1239 1235 1231 1230 1227 1224 1219 1215 1212 1210 1208 1206 1204 1202 1201 1199 1199 1198 1197 1197 1195 1194 1194 1194 1194 1194 1194 1194 1194 1194 1194 1195 1196 1198 1199 1199 1200 1201 1203 1205 1207 1209 1210 1211 1211 1212 1212 1213 1216 1216 1216 1211 1211 1209 1205 1203 1195 1194 1194 1194 1196 1200 1204 0 0 0 0 0 0 0 0 0 0 0 0 0 1609 1609 1609 1609 1609 1606 1606 1606 1606 1612 1623 1632 1645 1654 1655 1656 1656 1656 1659 1659 1659 1659 1656 1648 1640 1633 1633 1631 1629 1629 1629 1624 1617 1615 1613 1613 1609 1604 1601 1601 1601 1601 1601 1601 1598 1594 1590 1587 1586 1586 1586 1582 1576 1575 1572 1572 1572 1580 1584 1586 1586 1584 1584 1584 1584 1584 1581 1580 1580 1580 1581 1582 1582 1582 1577 1577 1577 1577 1577 1577 1576 1574 1574 1574 1574 1575 1575 1575 1569 1560 1560 1560 1560 1566 1571 1571 1571 1570 1569 1569 1569 1568 1567 1567 1565 1561 1558 1552 1540 1535 1531 1528 1528 1528 1526 1527 1527 1526 1526 1525 1525 1524 1520 1514 1511 1505 1503 1500 1498 1493 1481 1465 1447 1437 1424 1412 1395 1384 1376 1371 1368 1368 1367 1366 1365 1362 1358 1358 1358 1362 1362 1362 1356 1356 1356 1354 1349 1342 1337 1328 1319 1311 1302 1286 1275 1273 1273 1271 1253 1231 1211 1207 1204 1191 1178 1169 1169 1169 1175 1175 1175 1152 1136 1129 1113 1079 1057 1054 1054 1054 1018 1009 1001 994 994 994 994 994 991 983 960 940 929 915 914 914
765 765 777 794 811 817 822 826 829 839 857 871 880 894 908 928 950 969 980 984 990 994 1001 1012 1029 1051 1075 1084 1103 1117 1126 1131 1135 1138 1143 1158 1177 1195 1209 1223 1239 1256 1270 1281 1291 1302 1314 1319 1326 1330 1335 1343 1355 1370 1397 1412 1421 1424 1427 1436 1446 1451 1455 1460 1463 1471 1481 1489 1493 1497 1501 1506 1511 1517 1523 1529 1529 1529 1524 1520 1510 1495 1490 1459 1428 0 0 0 0 0 853 853 853 853 856 858 860 861 862 862 864 864 867 868 870 871 873 874 876 878 879 881 882 884 885 886 887 888 888 889 889 889 891 891 892 892 891 891 891 887 878 878 878 878 874 868 867 866 864 856 851 847 838 832 830 830 830 831 832 833 833 834 835 840 847 858 864 871 878 896 913 924 936 942 948 951 954 957 960 963 965 967 969 971 973 974 976 978 980 982 984 985 987 989 990 991 993 993 994 994 994 993 992 991 990 989 987 978 964 955 938 936 934 934 934 947 957 964 971 980 986 995 1003 1012 1022 1034 1041 1042 1043 1049 1052 1056 1060 1063 1066 1070 1073 1075 1078 1080 1082 1085 1086 1089 1091 1093 1095 1096 1099 1100 1103 1105 1108 1109 1112 1114 1116 1118 1120 1123 1125 1127 1129 1131 1133 1135 1138 1140 1142 1145 1147 1150 1152 1155 1157 1160 1163 1166 1169 1171 1174 1178 1181 1184 1187 1190 1193 1197 1199 1203 1205 1209 1218 1221 1221 1224 1232 1240 1247 1253 1266 1277 1305 1311 1312 1317 1317 1317 1333 1334 1335 1343 1343 1343 1340 1331 1321 1311 1306 1306 1306 1306 1306 1308 1309 1309 1310 1311 1312 1312 1312 1310 1310 1309 1309 1309 1309 1309 1309 1308 1307 1307 1306 1306 1304 1303 1303 1302 1301 1301 1299 1298 1297 1295 1294 1290 1287 1286 1285 1283 1277 1272 1270 1265 1260 1255 1252 1249 1246 1242 1238 1233 1231 1227 1222 1218 1216 1213 1211 1209 1207 1204 1203 1202 1201 1200 1199 1197 1197 1196 1195 1195 1195 1195 1195 1195 1195 1195 1195 1196 1197 1198 1199 1199 1200 1201 1203 1205 1208 1209 1210 1211 1211 1212 1212 1213 1215 1216 1216 1216 1215 1211 1207 1201 1195 1193 1191 1191 1193 1196 1203 1212 1215 0 0 0 0 0 0 0 0 0 0 0 0 1591 1594 1594 1594 1594 1588 1588 1588 1596 1610 1623 1634 1642 1644 1646 1647 1652 1659 1659 1659 1659 1656 1649 1640 1634 1633 1633 1633 1633 1633 1627 1619 1615 1612 1609 1609 1608 1607 1607 1607 1606 1605 1603 1600 1598 1594 1589 1588 1588 1586 1578 1569 1568 1564 1564 1564 1569 1576 1579 1581 1581 1583 1584 1584 1584 1583 1581 1581 1581 1584 1584 1584 1582 1578 1578 1578 1578 1579 1579 1579 1574 1568 1568 1568 1575 1575 1575 1566 1555 1555 1555 1557 1561 1570 1572 1572 1572 1569 1569 1569 1568 1567 1564 1560 1554 1551 1546 1540 1535 1535 1535 1535 1535 1537 1537 1537 1535 1530 1527 1526 1524 1518 1514 1511 1505 1503 1502 1499 1493 1481 1465 1451 1439 1432 1414 1395 1384 1376 1371 1371 1371 1371 1372 1372 1372 1372 1372 1372 1372 1372 1363 1357 1357 1357 1356 1351 1344 1339 1336 1335 1330 1323 1304 1275 1273 1273 1270 1260 1249 1236 1226 1214 1191 1178 1175 1175 1175 1175 1175 1175 1166 1153 1138 1113 1080 1080 1078 1076 1076 1076 1012 992 986 986 986 991 986 986 983 968 948 929 915 914 914
771 771 784 800 814 819 827 827 829 841 859 871 881 894 911 933 954 972 980 987 994 1000 1008 1023 1043 1053 1077 1093 1107 1120 1130 1134 1137 1141 1146 1162 1182 1200 1217 1231 1246 1262 1275 1284 1293 1304 1317 1324 1329 1335 1341 1349 1359 1375 1401 1417 1426 1433 1437 1443 1450 1458 1461 1465 1466 1474 1484 1491 1496 1500 1505 1512 1516 1520 1525 1530 1531 1531 1531 1531 1524 1501 1501 1458 0 0 0 0 0 864 853 853 853 853 856 858 860 861 862 862 863 864 867 868 870 871 873 874 876 878 879 880 882 883 885 886 887 888 889 890 890 890 891 892 892 893 893 893 893 892 892 892 892 892 888 887 886 884 877 869 863 860 852 844 842 841 840 840 840 841 841 842 842 844 853 858 864 871 881 897 914 928 936 942 948 951 954 958 960 962 964 966 968 971 972 974 976 978 980 982 984 985 987 988 990 991 993 993 993 993 993 992 991 989 988 987 982 974 964 952 935 934 931 931 931 935 938 953 963 971 981 986 992 1002 1014 1032 1038 1041 1041 1047 1051 1052 1056 1060 1064 1067 1071 1074 1076 1079 1081 1083 1086 1089 1091 1093 1094 1096 1098 1100 1102 1104 1107 1109 1112 1114 1115 1117 1120 1122 1124 1126 1129 1130 1133 1135 1137 1139 1142 1145 1146 1149 1152 1154 1157 1160 1163 1165 1168 1171 1174 1177 1180 1183 1186 1188 1191 1195 1198 1200 1202 1205 1208 1215 1218 1220 1230 1234 1234 1240 1247 1274 1305 1347 1347 1347 1361 1361 1361 1361 1361 1362 1361 1355 1352 1352 1344 1332 1321 1320 1316 1316 1315 1313 1313 1313 1313 1313 1314 1314 1314 1312 1312 1311 1311 1311 1311 1311 1310 1309 1309 1308 1308 1308 1307 1306 1306 1304 1303 1302 1301 1301 1301 1299 1297 1296 1294 1293 1292 1291 1285 1279 1274 1271 1266 1262 1258 1254 1250 1247 1244 1240 1234 1231 1226 1223 1220 1216 1214 1213 1210 1208 1206 1204 1203 1202 1201 1199 1199 1197 1196 1196 1196 1196 1196 1196 1195 1196 1196 1197 1197 1198 1200 1200 1201 1202 1203 1205 1208 1209 1210 1211 1212 1212 1212 1213 1214 1216 1216 1216 1215 1212 1208 1203 1197 1191 1190 1190 1190 1190 1193 1194 1199 1202 1202 1208 0 0 0 0 0 0 0 0 0 0 0 0 1567 1567 1560 1560 1560 1577 1592 1605 1617 1628 1632 1634 1638 1644 1659 1659 1659 1659 1657 1653 1643 1634 1634 1634 1639 1639 1639 1627 1619 1615 1612 1611 1611 1609 1609 1609 1607 1607 1607 1607 1604 1602 1599 1594 1590 1589 1586 1578 1566 1560 1559 1559 1559 1565 1568 1574 1574 1578 1581 1584 1584 1584 1583 1581 1581 1581 1583 1583 1583 1582 1580 1578 1578 1579 1579 1579 1579 1570 1566 1566 1566 1570 1570 1570 1560 1553 1553 1553 1555 1561 1569 1572 1572 1572 1569 1568 1566 1564 1561 1559 1555 1550 1546 1540 1538 1535 1535 1535 1535 1540 1544 1544 1544 1537 1530 1528 1526 1522 1518 1514 1512 1507 1502 1502 1499 1493 1481 1465 1451 1443 1432 1415 1393 1381 1379 1378 1378 1377 1377 1377 1382 1387 1389 1391 1391 1391 1380 1366 1358 1358 1357 1357 1352 1346 1346 1345 1342 1342 1329 1315 1287 1279 1275 1269 1260 1250 1236 1228 1219 1200 1180 1180 1180 1180 1180 1180 1175 1166 1153 1138 1113 1080 1080 1078 1078 1078 1078 1025 992 986 985 984 984 984 968 963 963 948 929 915 914 914
775 775 786 802 818 820 831 831 835 844 863 873 883 896 917 942 961 976 983 993 1001 1007 1018 1035 1045 1064 1078 1093 1107 1123 1133 1137 1139 1143 1149 1163 1184 1202 1219 1231 1249 1264 1278 1287 1296 1308 1322 1327 1334 1344 1352 1362 1372 1387 1406 1419 1428 1437 1443 1448 1455 1461 1467 1468 1472 1478 1486 1492 1498 1502 1507 1512 1518 1523 1526 1531 1532 1534 1534 1534 1527 1511 1501 1455 0 0 0 0 0 860 853 853 853 853 855 858 860 861 861 861 863 864 867 868 869 871 873 874 876 878 879 880 882 883 885 886 887 889 889 890 891 891 892 892 893 893 893 894 894 894 894 895 895 895 895 894 893 885 882 877 869 867 864 857 855 855 854 854 853 853 853 850 850 850 853 860 864 872 881 897 919 931 937 942 948 952 955 958 960 962 964 966 968 970 972 974 976 977 979 981 983 985 986 988 990 990 991 992 992 992 992 991 989 988 987 985 978 965 956 947 933 931 927 927 927 927 929 935 941 951 956 969 977 984 997 1017 1029 1030 1032 1040 1047 1052 1054 1058 1063 1065 1069 1072 1075 1078 1081 1082 1085 1088 1090 1092 1094 1096 1097 1099 1102 1104 1106 1109 1111 1113 1115 1117 1120 1122 1124 1126 1128 1130 1132 1134 1136 1139 1141 1143 1146 1149 1152 1154 1157 1160 1163 1165 1168 1170 1174 1176 1179 1182 1185 1188 1190 1193 1196 1197 1200 1204 1205 1208 1211 1216 1221 1223 1223 1227 1229 1261 0 0 0 0 0 0 0 0 0 0 1385 1367 1365 1360 1349 1344 1336 1332 1330 1330 1325 1323 1322 1322 1316 1316 1315 1315 1315 1315 1315 1315 1314 1314 1314 1313 1312 1312 1311 1310 1310 1310 1308 1308 1308 1307 1306 1305 1304 1304 1304 1303 1301 1300 1298 1297 1296 1294 1291 1287 1282 1277 1272 1270 1265 1261 1257 1253 1249 1244 1238 1235 1230 1227 1223 1220 1218 1215 1212 1210 1208 1207 1206 1204 1202 1201 1200 1199 1198 1197 1197 1197 1196 1197 1197 1197 1197 1197 1199 1200 1200 1201 1202 1202 1204 1205 1208 1209 1210 1211 1212 1212 1213 1213 1214 1215 1215 1215 1215 1212 1207 1203 1197 1191 1188 1181 1181 1181 1181 1189 1196 1201 1201 1203 1205 1208 0 0 0 0 0 0 0 0 0 0 0 0 1528 1529 1529 1547 1564 1580 1595 1611 1615 1621 1627 1636 1653 1659 1659 1659 1657 1655 1647 1638 1638 1638 1640 1640 1640 1628 1621 1615 1612 1612 1611 1610 1610 1609 1607 1607 1607 1607 1605 1604 1602 1602 1595 1589 1586 1578 1566 1560 1557 1557 1557 1560 1563 1566 1567 1569 1575 1582 1583 1583 1583 1581 1581 1581 1580 1580 1577 1577 1577 1577 1577 1579 1579 1579 1579 1569 1564 1564 1564 1564 1564 1563 1559 1553 1553 1553 1554 1561 1566 1572 1572 1572 1569 1563 1559 1558 1557 1557 1554 1548 1541 1540 1538 1537 1536 1536 1536 1540 1544 1544 1544 1537 1531 1528 1525 1522 1518 1515 1513 1509 1502 1502 1499 1492 1481 1464 1451 1443 1432 1415 1393 1381 1380 1379 1378 1378 1378 1379 1386 1392 1397 1397 1397 1393 1382 1369 1361 1359 1358 1358 1353 1352 1351 1349 1349 1345 1329 1315 1297 1295 1279 1269 1262 1252 1248 1242 1226 1204 1192 1188 1182 1180 1177 1177 1174 1166 1153 1138 1113 1080 1080 1080 1078 1078 1078 1050 993 986 985 973 973 973 968 963 963 948 915 914 914 914
780 780 793 810 822 827 841 848 853 864 874 883 893 905 928 950 969 985 990 1001 1008 1012 1019 1036 1052 1066 1080 1095 1109 1126 1138 1145 1147 1148 1154 1167 1187 1204 1219 1233 1253 1271 1280 1289 1301 1322 1326 1340 1349 1356 1363 1373 1384 1397 1412 1423 1433 1439 1445 1451 1460 1465 1468 1473 1478 1483 1492 1499 1502 1505 1510 1515 1522 1525 1528 1532 1533 1536 1536 1536 1529 1516 1501 1458 0 0 0 0 0 860 852 852 852 853 855 858 859 860 860 861 863 864 867 868 869 871 873 874 876 878 879 880 882 883 885 886 887 889 890 891 892 892 893 893 894 894 894 895 896 897 897 898 898 898 898 898 898 896 893 889 884 881 876 869 869 867 867 868 868 867 866 865 861 861 861 861 864 872 881 903 923 933 937 942 948 952 956 958 960 962 964 966 968 970 972 973 975 977 979 981 983 984 986 988 989 990 991 991 991 991 991 990 989 988 987 983 975 965 956 943 931 928 925 925 925 927 927 928 931 935 942 949 954 963 982 998 1001 1008 1011 1024 1035 1043 1050 1055 1059 1064 1069 1072 1075 1078 1080 1082 1085 1087 1089 1092 1093 1095 1097 1099 1101 1104 1106 1108 1111 1112 1115 1117 1119 1122 1124 1126 1128 1130 1132 1134 1135 1138 1140 1143 1146 1148 1151 1154 1157 1160 1163 1165 1168 1170 1172 1175 1178 1182 1185 1187 1189 1193 1195 1197 1200 1202 1205 1208 1211 1213 1217 1217 1221 1222 1226 1239 0 0 0 0 0 0 0 0 0 0 0 0 0 0 1363 1363 1356 1356 1356 1356 1356 1348 1338 1333 1326 1320 1317 1317 1317 1316 1316 1316 1316 1316 1315 1314 1314 1314 1313 1313 1312 1311 1311 1310 1309 1309 1308 1308 1307 1307 1307 1306 1305 1304 1302 1301 1299 1296 1294 1294 1290 1286 1281 1277 1274 1268 1263 1259 1255 1249 1244 1237 1235 1231 1228 1224 1221 1219 1216 1214 1211 1210 1208 1206 1204 1203 1201 1200 1200 1199 1198 1198 1198 1197 1197 1197 1198 1198 1199 1200 1201 1201 1202 1203 1204 1206 1208 1209 1210 1211 1212 1213 1213 1213 1214 1215 1215 1215 1215 1212 1205 1201 1197 1196 1186 1178 1178 1178 1181 1185 1193 1201 1201 1201 1200 1200 1200 1207 1217 0 0 0 0 0 0 0 0 0 0 1482 1489 1509 1534 1557 1570 1589 1599 1608 1615 1631 1648 1653 1654 1655 1655 1655 1651 1648 1648 1648 1648 1648 1645 1632 1623 1620 1619 1616 1612 1612 1611 1609 1607 1607 1607 1607 1605 1604 1602 1602 1595 1589 1586 1580 1566 1560 1556 1555 1555 1555 1554 1554 1555 1557 1561 1567 1571 1578 1580 1581 1581 1581 1580 1577 1571 1571 1571 1571 1571 1570 1570 1569 1569 1569 1564 1560 1559 1559 1559 1557 1557 1556 1554 1554 1554 1557 1563 1567 1567 1567 1567 1556 1553 1553 1552 1552 1551 1547 1541 1540 1538 1538 1536 1536 1536 1540 1544 1544 1544 1537 1531 1527 1525 1521 1518 1516 1513 1509 1501 1500 1498 1490 1476 1464 1451 1443 1432 1415 1397 1384 1381 1380 1378 1378 1378 1382 1386 1392 1397 1397 1397 1397 1387 1372 1366 1363 1361 1360 1357 1356 1354 1352 1350 1345 1329 1315 1297 1296 1283 1269 1263 1256 1252 1244 1228 1211 1208 1195 1190 1182 1174 1165 1157 1150 1140 1133 1119 1116 1101 1088 1087 1081 1078 1050 1045 1034 1033 993 973 973 962 961 961 927 927 927 931 931
787 787 803 819 826 838 851 861 867 875 889 905 918 929 943 959 978 986 1001 1012 1015 1017 1026 1043 1057 1069 1082 1097 1109 1127 1143 1147 1157 1160 1165 1177 1195 1212 1225 1241 1264 1279 1288 1296 1312 1328 1332 1345 1354 1362 1370 1378 1390 1404 1419 1431 1438 1445 1450 1457 1462 1470 1475 1481 1489 1496 1505 1512 1513 1514 1515 1521 1528 1533 1534 1538 1539 1539 1538 1537 1535 1523 1482 1458 0 0 0 0 0 852 851 851 851 853 855 857 858 859 860 861 863 864 866 868 869 871 873 874 876 878 879 880 882 883 885 886 887 889 890 891 892 893 894 895 895 896 896 896 898 898 899 901 902 902 902 902 903 903 903 902 899 898 894 884 883 883 881 881 881 879 879 878 877 871 864 864 864 875 888 907 923 933 937 942 948 952 956 958 960 962 964 966 968 969 971 973 975 977 979 981 982 983 986 987 989 989 990 990 990 990 990 990 989 987 986 982 975 964 951 933 927 924 924 924 924 926 927 928 929 931 933 937 941 952 961 976 993 996 996 1014 1025 1032 1040 1049 1055 1061 1066 1070 1075 1077 1079 1082 1085 1087 1089 1091 1093 1095 1097 1099 1101 1103 1105 1108 1110 1112 1114 1117 1119 1121 1124 1126 1128 1129 1131 1133 1135 1138 1140 1143 1145 1148 1151 1154 1156 1158 1161 1164 1167 1170 1172 1175 1178 1181 1184 1186 1189 1192 1195 1197 1200 1201 1203 1206 1209 1212 1213 1214 1216 1217 1220 1222 0 0 0 0 0 0 0 0 0 0 0 0 0 0 0 0 1376 1374 1376 1374 1374 1359 1357 1337 1330 1322 1320 1318 1318 1318 1318 1317 1316 1316 1316 1316 1316 1316 1315 1314 1313 1313 1312 1312 1312 1312 1312 1310 1310 1310 1310 1310 1308 1306 1305 1303 1302 1300 1299 1298 1296 1292 1288 1283 1279 1275 1270 1265 1260 1254 1249 1242 1239 1236 1233 1230 1226 1223 1220 1216 1214 1212 1210 1208 1206 1204 1203 1202 1201 1201 1199 1199 1199 1198 1198 1198 1198 1198 1200 1200 1201 1202 1202 1204 1204 1206 1208 1209 1210 1211 1212 1213 1213 1214 1214 1214 1214 1214 1213 1212 1204 1199 1197 1196 1186 1178 1178 1178 1178 1182 1191 1200 1200 1200 1200 1200 1200 1207 1216 1226 1238 0 0 0 0 0 0 0 0 0 1467 1477 1495 1522 1539 1557 1573 1588 1600 1620 1637 1639 1644 1646 1651 1653 1655 1655 1653 1653 1652 1650 1650 1644 1632 1624 1619 1619 1617 1617 1613 1609 1608 1607 1607 1604 1604 1602 1602 1602 1595 1588 1587 1586 1581 1567 1555 1553 1553 1549 1548 1548 1546 1546 1546 1547 1548 1553 1563 1575 1578 1578 1578 1571 1565 1564 1562 1562 1562 1553 1553 1553 1557 1557 1557 1550 1549 1549 1549 1554 1554 1554 1554 1553 1553 1554 1562 1563 1566 1566 1566 1556 1553 1550 1550 1550 1547 1544 1544 1542 1542 1542 1536 1536 1536 1540 1540 1540 1538 1535 1531 1527 1524 1521 1518 1516 1513 1509 1501 1499 1497 1490 1472 1461 1451 1441 1428 1413 1397 1384 1381 1381 1381 1381 1382 1384 1386 1392 1397 1397 1397 1397 1388 1377 1371 1368 1368 1364 1359 1356 1355 1354 1350 1340 1321 1310 1301 1297 1287 1269 1263 1260 1254 1248 1235 1222 1208 1195 1190 1182 1173 1165 1153 1138 1137 1133 1129 1122 1121 1091 1084 1078 1071 1050 1047 1043 1039 1021 973 973 964 959 959 934 934 934 943 943
788 788 808 827 831 847 861 870 876 886 899 912 926 932 946 964 982 989 1005 1015 1019 1023 1033 1050 1066 1078 1086 1098 1113 1133 1147 1150 1163 1169 1174 1188 1205 1221 1237 1258 1275 1288 1297 1306 1319 1329 1337 1348 1356 1366 1373 1381 1391 1412 1425 1436 1445 1453 1458 1460 1469 1479 1482 1491 1500 1510 1519 1524 1525 1526 1526 1533 1539 1543 1548 1549 1549 1549 1547 1543 1537 1523 1482 1463 0 0 0 0 0 850 850 850 851 855 856 857 858 859 860 861 862 864 866 868 870 871 873 874 876 878 879 880 882 883 884 886 887 889 890 891 892 893 894 895 896 897 897 898 899 900 902 902 902 903 904 905 906 906 906 906 906 905 905 903 899 898 896 888 883 883 883 884 884 884 877 877 877 882 893 908 926 934 937 942 948 951 956 958 959 962 964 965 967 969 971 972 974 976 979 980 982 983 986 987 988 989 990 990 990 990 990 990 988 987 986 981 973 963 943 927 924 923 923 923 923 925 925 927 928 930 930 932 935 939 950 963 974 983 991 999 1006 1018 1029 1039 1047 1054 1060 1065 1072 1077 1079 1081 1083 1085 1088 1090 1092 1095 1096 1099 1101 1103 1105 1107 1110 1112 1114 1116 1119 1121 1123 1125 1127 1129 1131 1133 1135 1137 1139 1142 1145 1148 1151 1154 1156 1158 1160 1162 1167 1169 1172 1175 1178 1181 1183 1185 1188 1191 1193 1196 1199 1201 1203 1205 1205 1207 1209 1211 1211 1211 1213 1216 0 0 0 0 0 0 0 0 0 0 0 0 0 0 0 0 0 0 0 1378 1378 1376 1367 1349 1331 1323 1320 1320 1320 1320 1319 1318 1318 1318 1318 1318 1317 1317 1317 1316 1315 1315 1315 1315 1314 1314 1314 1313 1312 1312 1311 1311 1311 1310 1309 1307 1305 1305 1304 1304 1303 1299 1292 1288 1286 1281 1276 1272 1266 1259 1253 1248 1243 1240 1237 1234 1231 1227 1223 1220 1217 1215 1213 1211 1208 1207 1205 1204 1204 1203 1201 1201 1200 1200 1200 1200 1200 1200 1201 1202 1202 1203 1204 1205 1206 1208 1209 1209 1211 1211 1212 1213 1214 1214 1214 1214 1213 1213 1213 1209 1204 1198 1196 1196 1186 1178 1175 1175 1175 1181 1191 1200 1200 1200 1200 1200 1200 1201 1205 1218 1221 1226 0 0 0 0 0 0 0 0 0 0 0 0 0 0 1537 1555 1570 1587 1612 1621 1633 1641 1645 1650 1651 1653 1653 1653 1652 1650 1650 1647 1638 1630 1622 1622 1620 1619 1617 1611 1610 1606 1604 1600 1596 1595 1594 1590 1582 1582 1581 1581 1581 1567 1554 1552 1549 1545 1544 1541 1536 1527 1527 1527 1528 1529 1534 1550 1558 1561 1561 1561 1553 1552 1551 1548 1547 1540 1540 1540 1543 1543 1543 1530 1530 1530 1532 1543 1549 1549 1553 1553 1553 1554 1559 1561 1562 1562 1562 1556 1551 1549 1548 1548 1543 1543 1543 1544 1544 1544 1543 1538 1537 1537 1538 1538 1536 1530 1528 1526 1524 1521 1518 1516 1513 1507 1500 1496 1493 1483 1470 1459 1451 1439 1423 1413 1402 1390 1385 1384 1384 1384 1384 1384 1386 1388 1390 1395 1395 1395 1388 1377 1371 1368 1368 1364 1359 1356 1355 1354 1349 1339 1319 1305 1301 1297 1293 1283 1269 1264 1264 1255 1237 1222 1208 1195 1190 1182 1173 1165 1153 1138 1138 1137 1133 1129 1122 1091 1083 1077 1059 1052 1052 1052 1043 1021 1000 984 975 961 959 938 938 938 963 963
