612 612 614 630 649 668 0 0 0 793 815 827 835 843 849 852 857 863 868 873 877 881 885 889 893 897 900 904 907 910 913 916 918 921 923 925 926 928 929 931 932 933 933 933 933 932 932 926 925 920 901 0 0 0 756 756 756 757 757 757 758 758 759 760 763 767 771 773 776 779 783 789 795 798 799 800 801 803 805 808 809 812 815 817 817 819 822 824 838 854 862 873 891 913 936 950 950 950 940 916 0 0 0 837 837 837 840 843 846 849 851 851 854 855 857 858 858 859 860 861 862 864 866 869 872 877 882 887 892 897 900 902 903 907 913 927 943 962 979 996 1014 1021 1028 1034 1038 1039 1040 1042 1044 1045 1046 1047 1049 1049 1050 1050 1051 1052 1053 1053 1054 1054 1054 1054 1055 1055 1055 1054 1054 1053 1052 1052 1052 1052 1049 1044 1039 1039 1039 1040 1043 1047 1060 1066 1069 1070 1075 1077 1079 1081 1083 1084 1086 1087 1089 1089 1090 1092 1093 1093 1095 1095 1096 1097 1098 1098 1099 1100 1101 1102 1103 1103 1103 1101 1101 1100 1099 1098 1096 1090 1082 1069 1054 1039 1038 1037 1036 1034 1034 1034 1034 1036 1038 1043 1049 1059 1067 1073 1079 1084 1089 1096 1106 1114 1119 1120 1123 1126 1134 1136 1138 1138 1139 1139 1139 1136 1130 1118 1105 1103 1102 1101 1101 1101 1101 1101 1101 1101 1101 1102 1102 1102 1104 1105 1107 1108 1109 1110 1111 1112 1114 1116 1117 1119 1122 1127 1130 1136 1143 1152 1165 1178 1185 1189 1189 1189 1191 1192 1192 1192 1193 1193 1193 1193 1191 1189 1189 1189 1185 1181 1178 1173 1170 1169 1166 1166 1166 1167 1170 1174 1178 1187 1198 1207 1213 1221 1225 1228 1231 1233 1236 1237 1239 1240 1241 1243 1244 1245 1246 1247 1247 1248 1250 1250 1250 1251 1251 1252 1252 1252 1252 1252 1251 1249 1249 1246 1239 1223 1212 1212 1212 1217 1224 1240 1255 1262 1266 1271 1274 1278 1278 1278 1279 1280 1282 1282 1283 1283 1283 1283 1283 1283 1282 1282 1270 1260 1250 1223 1202 1202 1200 1200 1196 1195 1195 1193 1190 1190 1190 1190 1191 1193 1194 1194 1195 1195 1200 1211 1224 1234 1267 1298 1319 1324 1329 1333 1338 1340 1342 1344 1346 1348 1349 1350 1352 1352 1354 1355 1356 1357 1358 1359 1359 1361 1362 1365 1367 1369 1370 1371 1371 1375 1384 1407 1447 1466 1466 1466 1461 1452 1452 1452 1465 0 0 0 0 0 0 0 0 0 0 0 0 0 1588 1583 1573 1570 1568 1565 1563 1561 1559 1556 1554 1553 1550 1547 1539 1533 1531 1530 1530 1528 1527 1525 1525 1524 1524 1524 1524 1525 1525 1525 1525 1525 1525 1525 1526 1526 1526 1526 1527 1528 1530 1530 1532 1533 1535 1535 1536 1536 1535 1535 1534 1533 1532 1532 1532 1532 1531 1531 1531 1530 1530 1529 1528 1528 1527 1526 1526 1526 1526 1526 1526 1525 1524 1524 1523 1522 1522 1520 1517 1513 1511 1510 1509 1509 1509 1509 1509 1509 1504 1496 1491 1487 1479 1466 1448 1430 1412 1391 1360 1328 1298 1283 1275 1264 1259 1256 1251 1248 1244 1244 1243 1243 1234 1229 1224 1221 1219 1218 1215 1210 1206 1202 1198 1193 1190 1188 1183 1180 1175 1169 1166 1165 1162 1159 1154 1149 1146 1145 1142 1141 1139 1136 1130 1122 1116 1114 1107 1105 1103 1098 1093 1092 1089 1083 1076 1070 1063 1054 1045 1033 1028 1017 1011 1008 1002 988 980 967 958 956 948 0 0 0
607 607 608 625 641 661 0 0 0 0 810 827 835 843 849 852 857 863 869 873 877 883 886 889 893 897 900 904 907 910 913 916 919 921 924 926 927 929 930 932 933 934 934 934 934 934 934 933 927 922 910 0 0 0 763 758 757 757 757 757 758 758 759 760 763 767 771 773 777 780 785 793 798 800 800 801 804 808 811 811 812 813 816 818 821 826 837 839 859 870 879 892 913 927 936 950 950 950 940 916 0 0 843 837 837 837 840 843 846 849 851 852 854 854 857 858 859 860 860 861 862 864 866 869 872 877 882 887 891 896 899 900 901 904 910 920 935 951 966 984 1006 1016 1026 1033 1037 1039 1040 1042 1043 1045 1046 1047 1048 1049 1049 1049 1051 1051 1053 1053 1053 1053 1053 1053 1053 1052 1052 1052 1051 1050 1050 1050 1049 1046 1037 1027 1018 1018 1018 1028 1039 1047 1060 1066 1068 1070 1075 1077 1079 1082 1084 1085 1087 1088 1090 1091 1092 1093 1094 1095 1096 1096 1097 1098 1100 1100 1101 1102 1103 1103 1103 1103 1103 1103 1102 1102 1102 1099 1096 1090 1083 1074 1055 1048 1043 1041 1039 1038 1038 1038 1038 1040 1044 1048 1054 1064 1074 1082 1089 1099 1106 1110 1116 1120 1123 1127 1130 1134 1139 1141 1141 1142 1141 1141 1141 1138 1137 1133 1125 1116 1102 1101 1101 1101 1101 1101 1101 1101 1102 1102 1102 1104 1105 1106 1107 1109 1110 1111 1112 1113 1114 1116 1118 1120 1124 1129 1131 1134 1141 1152 1164 1177 1185 1188 1189 1189 1190 1190 1190 1191 1191 1191 1191 1191 1189 1186 1184 1184 1182 1177 1174 1166 1165 1165 1165 1165 1165 1166 1170 1173 1177 1181 1193 1206 1213 1220 1225 1228 1231 1234 1236 1237 1239 1241 1243 1243 1245 1246 1247 1248 1248 1250 1250 1251 1251 1251 1251 1252 1252 1252 1252 1252 1251 1249 1249 1247 1245 1236 1236 1236 1236 1242 1249 1254 1257 1263 1268 1272 1276 1280 1281 1281 1282 1284 1285 1286 1286 1286 1286 1286 1286 1286 1285 1285 1279 1268 1251 1232 1203 1202 1202 1201 1198 1195 1195 1194 1193 1189 1189 1189 1191 1195 1199 1204 1209 1209 1213 1223 1232 1252 1279 1303 1319 1327 1330 1336 1341 1343 1345 1346 1347 1349 1351 1351 1353 1354 1356 1356 1358 1358 1360 1360 1361 1362 1364 1366 1370 1371 1371 1372 1373 1373 1374 1387 1439 1455 1455 1455 1448 1432 1432 1432 0 0 0 0 2761 2761 2761 0 0 0 0 0 0 0 1592 1585 1578 1572 1568 1564 1563 1561 1558 1557 1555 1554 1551 1547 1540 1534 1531 1530 1530 1528 1527 1525 1524 1524 1523 1524 1524 1525 1525 1525 1525 1525 1525 1525 1525 1526 1526 1526 1527 1528 1529 1530 1531 1533 1534 1535 1535 1535 1534 1534 1533 1532 1532 1532 1532 1532 1531 1531 1531 1530 1530 1529 1528 1528 1528 1527 1527 1527 1527 1527 1526 1526 1525 1525 1524 1523 1522 1520 1517 1513 1511 1510 1510 1510 1510 1510 1510 1509 1504 1500 1496 1494 1489 1481 1465 1447 1433 1415 1390 1352 1307 1285 1278 1275 1267 1263 1258 1254 1249 1246 1246 1243 1236 1229 1226 1224 1223 1221 1219 1215 1210 1206 1202 1197 1195 1192 1190 1186 1181 1174 1168 1167 1166 1165 1164 1157 1155 1153 1149 1149 1147 1145 1141 1132 1123 1120 1113 1109 1105 1098 1092 1083 1079 1079 1076 1070 1063 1054 1023 1003 1000 1000 1000 1000 1000 987 973 951 940 927 924 0 0 0
599 599 600 615 629 641 0 0 0 0 801 822 835 843 849 852 857 863 869 873 878 883 887 890 893 897 900 904 908 911 913 916 919 922 924 926 927 930 931 933 934 935 936 936 936 936 936 936 936 932 922 905 0 0 0 766 759 759 759 760 760 762 762 763 765 769 771 774 778 782 788 795 799 800 801 803 806 812 813 813 815 815 816 822 833 846 859 862 0 0 0 919 934 951 961 961 961 959 940 916 0 0 842 837 837 837 841 844 848 850 851 852 854 854 856 858 859 860 861 861 862 864 866 869 872 876 881 887 890 894 896 899 901 904 908 917 930 947 955 974 997 1011 1021 1032 1037 1039 1040 1042 1043 1045 1046 1047 1047 1049 1049 1049 1050 1050 1052 1052 1052 1052 1052 1052 1052 1051 1049 1048 1047 1046 1042 1040 1034 1023 1006 997 997 997 998 1013 1033 1047 1055 1061 1065 1071 1076 1079 1080 1083 1084 1086 1088 1089 1090 1091 1093 1094 1095 1095 1096 1097 1098 1099 1100 1101 1102 1103 1104 1104 1105 1105 1105 1105 1104 1104 1104 1100 1096 1092 1087 1081 1072 1055 1049 1044 1042 1039 1039 1039 1040 1043 1047 1054 1059 1068 1080 1092 1099 1107 1117 1121 1125 1126 1129 1134 1138 1142 1143 1144 1144 1144 1144 1144 1143 1141 1141 1137 1131 1122 1112 1103 1103 1102 1101 1102 1102 1102 1102 1103 1103 1104 1106 1108 1109 1110 1112 1113 1113 1113 1115 1117 1120 1122 1126 1129 1131 1134 1138 1151 1161 1175 1185 1186 1187 1189 1190 1190 1190 1190 1190 1189 1188 1187 1185 1180 1173 1170 1169 1168 1164 1162 1160 1160 1160 1163 1164 1166 1170 1173 1177 1181 1193 1202 1210 1217 1224 1228 1231 1234 1236 1238 1240 1242 1243 1245 1246 1247 1248 1248 1249 1250 1251 1251 1251 1251 1251 1253 1253 1253 1253 1252 1251 1249 1249 1247 1245 1239 1239 1239 1245 1248 1256 1261 1264 1270 1273 1276 1279 1281 1283 1283 1285 1286 1287 1287 1289 1289 1289 1289 1289 1289 1289 1287 1284 1273 1254 1232 1207 1202 1202 1201 1199 1195 1195 1195 1194 1192 1191 1191 1191 1197 1205 1211 1219 1223 1228 1240 1253 1276 1293 1308 1321 1329 1335 1341 1343 1346 1346 1348 1349 1350 1353 1354 1354 1355 1356 1358 1359 1361 1361 1361 1362 1364 1365 1367 1370 1373 1373 1373 1373 1373 1373 1380 1417 1446 1446 1446 1432 1432 1432 1432 0 0 0 2581 2792 2792 2792 2670 0 0 0 0 0 1604 1592 1585 1578 1572 1568 1565 1563 1561 1558 1557 1555 1554 1551 1547 1542 1537 1534 1531 1530 1529 1527 1525 1524 1524 1524 1524 1524 1525 1525 1525 1525 1525 1525 1525 1525 1526 1526 1526 1527 1529 1529 1529 1531 1532 1533 1533 1533 1533 1533 1533 1532 1531 1531 1531 1531 1532 1532 1532 1531 1531 1531 1530 1529 1529 1528 1528 1528 1527 1527 1527 1527 1526 1526 1525 1524 1523 1522 1520 1517 1513 1512 1511 1511 1511 1510 1510 1510 1509 1506 1502 1501 1501 1497 1492 1479 1468 1453 1440 1417 0 0 1306 1286 1280 1274 1272 1265 1259 1250 1248 1248 1247 1237 1231 1230 1228 1227 1226 1223 1220 1215 1211 1207 1202 1200 1198 1197 1194 1186 1179 1173 1169 1169 1168 1164 1164 1162 1162 1158 1156 1156 1151 1141 1133 1128 1124 1117 1112 1108 1098 1092 1083 1079 1079 1076 1070 1063 1054 1023 1003 1000 1000 1000 1000 1000 986 965 947 934 927 924 0 0 0
592 592 593 604 612 623 0 0 0 0 0 812 828 840 849 851 857 863 869 873 878 883 887 890 895 898 902 906 909 912 915 917 920 922 924 926 929 931 932 934 935 936 937 938 938 938 939 939 939 939 932 919 0 0 0 0 761 761 761 763 763 764 765 765 766 769 771 774 779 784 790 796 800 801 801 803 808 815 818 818 819 821 831 838 852 0 0 0 0 0 0 963 968 973 975 977 977 977 961 942 0 0 842 839 839 839 842 846 848 850 851 852 854 855 856 858 859 860 861 862 864 866 867 870 873 876 881 886 889 893 896 898 900 903 907 914 925 939 952 962 985 999 1014 1031 1036 1038 1040 1041 1043 1044 1045 1046 1047 1048 1048 1048 1050 1050 1050 1050 1050 1050 1050 1050 1050 1050 1048 1043 1038 1033 1025 1017 1003 987 987 987 988 992 995 1001 1016 1036 1051 1057 1062 1070 1076 1079 1081 1083 1085 1086 1088 1090 1091 1092 1094 1094 1095 1096 1097 1098 1099 1100 1101 1102 1103 1103 1105 1105 1106 1106 1106 1106 1106 1105 1105 1102 1099 1096 1090 1086 1083 1071 1052 1048 1045 1042 1041 1041 1041 1044 1049 1066 1077 1081 1092 1103 1110 1119 1124 1126 1128 1131 1134 1138 1140 1143 1145 1146 1146 1146 1146 1146 1145 1144 1143 1139 1135 1128 1124 1108 1103 1103 1103 1103 1102 1102 1102 1104 1104 1105 1106 1109 1110 1111 1113 1114 1116 1117 1117 1119 1121 1123 1126 1129 1131 1134 1138 1149 1159 1169 1180 1185 1186 1188 1189 1189 1189 1187 1187 1187 1185 1177 1167 1164 1162 1162 1161 1161 1160 1158 1156 1156 1156 1158 1162 1165 1170 1173 1177 1181 1192 1201 1208 1217 1222 1228 1231 1234 1236 1239 1240 1242 1243 1245 1247 1248 1248 1249 1250 1251 1251 1251 1251 1251 1251 1253 1253 1253 1253 1252 1251 1248 1247 1246 1245 1243 1243 1243 1247 1254 1263 1270 1274 1274 1275 1277 1280 1283 1284 1286 1287 1288 1288 1289 1290 1290 1291 1291 1291 1291 1291 1288 1284 1273 1263 1240 1209 1201 1199 1199 1199 1198 1198 1196 1196 1193 1191 1191 1191 1199 1209 1222 1236 1242 1250 1267 1278 1299 1313 1319 1328 1335 1341 1343 1345 1347 1348 1350 1350 1352 1354 1355 1356 1357 1358 1360 1361 1362 1362 1363 1364 1366 1367 1370 1372 1374 1374 1374 1374 1374 1374 1380 1411 1433 1433 1433 1416 1416 1416 1432 0 0 0 2736 2792 2792 2792 2670 0 0 0 0 0 1604 1592 1585 1578 1573 1568 1565 1563 1561 1558 1557 1556 1554 1551 1547 1542 1538 1534 1532 1531 1529 1528 1526 1524 1524 1524 1524 1524 1525 1525 1525 1525 1525 1525 1525 1525 1526 1526 1526 1527 1529 1529 1529 1529 1530 1532 1532 1532 1532 1532 1532 1531 1531 1531 1531 1531 1532 1533 1533 1533 1531 1531 1530 1529 1529 1528 1528 1528 1527 1527 1527 1527 1527 1526 1526 1524 1523 1522 1520 1518 1516 1515 1514 1512 1512 1512 1511 1511 1509 1506 1504 1503 1503 1501 1493 1487 1479 1469 1456 1441 0 0 0 1314 1292 1279 1276 1268 1262 1258 1255 1255 1253 1251 1248 1242 1239 1234 1228 1226 1222 1218 1216 1211 1206 1204 1204 1203 1200 1194 1187 1180 1175 1172 1169 1168 1168 1166 1165 1165 1165 1157 1151 1141 1135 1128 1124 1122 1117 1112 1102 1092 1083 1080 1079 1079 1075 1069 1054 1023 1003 997 997 997 996 990 974 964 941 934 927 924 0 0 0
583 583 583 592 596 0 0 0 0 0 0 801 819 834 845 848 856 863 869 874 879 883 888 891 895 900 904 907 910 913 915 918 920 924 925 928 930 932 933 935 936 938 938 940 940 941 942 942 942 942 940 931 924 0 0 0 0 766 766 766 767 767 768 768 769 770 771 776 781 785 793 797 801 801 801 804 810 816 819 823 825 827 850 0 0 0 0 0 0 971 979 983 984 987 987 987 984 982 978 959 0 0 843 841 841 841 845 846 849 851 851 853 854 855 856 857 857 859 861 862 864 866 868 870 873 876 880 885 889 892 894 896 898 900 904 910 919 929 938 954 969 981 1003 1028 1036 1038 1040 1041 1043 1044 1044 1046 1047 1048 1048 1048 1049 1049 1049 1049 1049 1049 1049 1049 1049 1049 1047 1035 1025 1015 995 980 978 978 978 982 986 990 992 997 1006 1025 1045 1054 1062 1070 1076 1079 1081 1083 1085 1087 1089 1090 1091 1093 1094 1095 1096 1097 1097 1099 1100 1101 1102 1103 1103 1104 1105 1106 1106 1107 1107 1107 1107 1106 1105 1103 1101 1097 1092 1090 1083 1072 1057 1050 1049 1046 1044 1044 1044 1054 1068 1083 1098 1103 1111 1118 1122 1126 1132 1135 1135 1135 1138 1141 1142 1145 1148 1148 1149 1149 1149 1149 1149 1148 1147 1143 1136 1130 1125 1109 1104 1104 1104 1104 1103 1103 1103 1104 1105 1106 1108 1110 1111 1113 1114 1116 1117 1119 1120 1120 1121 1124 1126 1129 1131 1134 1138 1142 1155 1169 1179 1183 1185 1187 1187 1187 1187 1187 1182 1180 1173 1159 1159 1159 1159 1159 1159 1157 1157 1156 1156 1156 1156 1158 1161 1164 1169 1173 1179 1184 1188 1193 1204 1212 1219 1226 1231 1235 1237 1239 1240 1242 1244 1246 1247 1248 1249 1249 1250 1251 1251 1251 1251 1251 1251 1252 1252 1252 1252 1252 1250 1247 1247 1245 1245 1245 1245 1254 1257 1263 1268 1271 1275 1276 1277 1280 1282 1284 1285 1287 1288 1289 1290 1291 1291 1291 1292 1292 1292 1292 1292 1291 1287 1281 1274 1254 1215 1201 1201 1201 1205 1205 1205 1205 1200 1196 1191 1191 1191 1204 1217 1227 1254 1270 1272 1280 1304 1321 1330 1334 1336 1339 1342 1345 1346 1347 1350 1351 1352 1353 1354 1357 1358 1359 1360 1361 1363 1363 1364 1364 1367 1367 1370 1373 1374 1376 1376 1376 1374 1374 1374 1380 1411 1433 1433 1433 1416 1416 1416 0 0 0 2586 2823 2823 2823 2742 2612 0 0 0 0 0 1602 1592 1584 1578 1574 1571 1569 1568 1567 1564 1559 1557 1554 1551 1547 1542 1539 1536 1534 1531 1529 1528 1527 1526 1526 1526 1526 1526 1526 1526 1526 1526 1526 1526 1526 1525 1525 1525 1526 1527 1528 1528 1529 1529 1529 1530 1531 1532 1532 1532 1532 1531 1530 1530 1530 1531 1532 1533 1534 1534 1534 1534 1532 1532 1530 1529 1529 1528 1528 1528 1527 1527 1527 1527 1526 1525 1523 1522 1520 1519 1518 1515 1514 1513 1513 1512 1512 1511 1510 1507 1505 1505 1504 1502 1494 1491 1485 1475 1466 1456 1436 0 0 1343 1319 1308 1303 1298 1285 1272 1260 1257 1256 1256 1254 1247 1243 1240 1232 1227 1223 1221 1218 1214 1210 1208 1207 1207 1204 1198 1191 1184 1179 1174 1169 1169 1169 1172 1172 1172 1165 1157 1151 1139 1135 1132 1129 1129 1125 1113 1102 1092 1083 1080 1079 1079 1075 1069 1061 1035 1015 1010 1001 997 994 989 969 964 941 934 933 932 0 0 0
564 564 0 0 0 0 0 0 0 0 0 0 814 832 844 847 856 863 869 874 879 884 888 893 896 901 905 908 911 913 916 919 922 924 926 928 930 932 934 936 938 939 940 941 941 942 943 944 945 945 945 940 938 930 0 0 0 0 771 771 772 772 772 773 774 776 779 780 784 787 795 800 801 801 803 808 815 826 838 841 841 0 0 0 0 940 955 958 976 983 988 989 990 993 993 993 988 985 980 966 942 0 0 842 842 842 845 847 850 851 852 853 854 855 856 856 857 858 860 862 864 866 868 870 873 876 880 885 888 892 893 895 897 898 901 906 914 924 932 941 950 972 1002 1023 1032 1038 1040 1041 1043 1043 1044 1045 1046 1048 1048 1048 1048 1048 1048 1048 1047 1047 1046 1046 1045 1043 1031 1004 978 973 972 972 972 972 975 978 982 986 987 992 1004 1018 1034 1048 1058 1069 1075 1079 1081 1084 1086 1087 1090 1091 1092 1094 1095 1095 1097 1097 1099 1099 1100 1102 1102 1103 1104 1105 1106 1107 1107 1107 1107 1107 1107 1107 1106 1105 1104 1100 1097 1096 1092 1081 1064 1055 1055 1055 1055 1059 1073 1086 1096 1101 1106 1116 1123 1125 1131 1133 1137 1137 1138 1140 1141 1143 1145 1147 1149 1151 1151 1151 1151 1151 1150 1150 1148 1145 1138 1132 1126 1115 1108 1106 1106 1105 1104 1104 1104 1104 1105 1107 1109 1112 1113 1115 1115 1116 1119 1121 1122 1122 1122 1124 1126 1129 1131 1137 1138 1142 1155 1166 1176 1183 1185 1187 1187 1187 1183 1180 1172 1169 1165 1157 1157 1157 1158 1158 1158 1156 1156 1156 1155 1155 1155 1158 1160 1164 1169 1177 1181 1184 1187 1187 1195 1209 1218 1225 1231 1235 1237 1239 1240 1242 1244 1246 1247 1249 1249 1249 1250 1250 1251 1251 1251 1251 1251 1251 1251 1251 1250 1250 1247 1247 1245 1245 1245 1247 1256 1262 1264 1269 1271 1273 1275 1277 1280 1282 1283 1286 1287 1289 1290 1291 1291 1292 1292 1292 1294 1294 1294 1294 1294 1292 1289 1284 1279 1262 1231 1201 1201 1201 1219 1219 1219 1210 1203 1199 1199 1199 1206 1220 1226 1244 1274 1294 1299 1306 1318 1330 1337 1338 1340 1341 1343 1346 1348 1349 1351 1351 1353 1355 1356 1358 1360 1361 1362 1362 1364 1366 1366 1367 1368 1370 1372 1375 1378 1380 1380 1380 1380 1380 1380 1380 1411 1433 1433 1433 1433 1433 0 0 0 0 2744 2797 2797 2797 2678 2523 0 0 0 0 0 1596 1592 1584 1579 1574 1574 1573 1570 1568 1566 1561 1557 1554 1551 1547 1543 1541 1539 1535 1532 1530 1528 1527 1527 1527 1527 1527 1527 1527 1526 1526 1526 1526 1526 1526 1526 1526 1526 1526 1527 1527 1527 1527 1527 1528 1529 1530 1530 1531 1531 1531 1529 1529 1529 1529 1529 1532 1533 1534 1534 1534 1534 1533 1532 1532 1531 1530 1529 1528 1528 1528 1528 1528 1527 1526 1525 1523 1522 1521 1520 1518 1516 1515 1514 1514 1513 1512 1511 1511 1508 1506 1506 1505 1504 1499 1491 1485 1480 1474 1464 1452 1434 1411 1379 1347 1336 1330 1320 1302 1281 1264 1262 1259 1258 1257 1253 1248 1241 1233 1228 1224 1222 1221 1217 1213 1211 1209 1208 1205 1198 1192 1187 1182 1176 1174 1174 1174 1172 1172 1172 1165 1157 1142 1135 1133 1132 1129 1129 1125 1113 1102 1092 1083 1080 1079 1079 1075 1069 1063 1055 1041 1037 1007 997 992 984 968 953 941 940 940 935 0 0 0
0 0 0 0 0 0 0 0 0 0 0 0 0 829 843 847 855 863 869 874 879 885 889 893 897 901 906 908 911 913 916 919 922 924 927 929 931 933 935 937 939 940 941 942 943 944 944 945 945 945 945 944 940 936 921 0 0 0 777 777 777 778 778 779 779 780 784 786 787 789 796 802 802 803 806 813 825 841 853 858 0 0 0 0 961 970 973 975 981 987 989 991 993 994 994 994 994 989 982 974 965 0 0 844 844 844 845 848 851 851 852 853 853 854 855 856 857 858 860 862 864 866 868 870 873 876 879 884 888 891 893 894 895 898 900 904 911 919 927 937 950 971 988 1005 1023 1035 1038 1041 1041 1042 1043 1044 1046 1046 1047 1048 1048 1048 1046 1043 1043 1042 1038 1031 1023 1011 998 975 968 968 968 968 969 970 972 975 978 981 984 987 994 1007 1027 1043 1052 1062 1071 1077 1082 1084 1086 1088 1090 1092 1093 1094 1095 1096 1097 1098 1099 1100 1101 1102 1102 1104 1105 1106 1106 1107 1107 1107 1108 1108 1107 1107 1106 1106 1106 1105 1103 1103 1100 1092 1076 1064 1064 1064 1066 1079 1092 1101 1106 1109 1115 1123 1124 1128 1132 1135 1138 1139 1140 1142 1144 1146 1147 1148 1151 1152 1153 1153 1153 1153 1152 1152 1151 1147 1143 1139 1134 1126 1118 1109 1108 1106 1105 1105 1105 1105 1106 1108 1111 1113 1113 1115 1117 1118 1120 1122 1124 1124 1125 1125 1126 1129 1133 1137 1140 1142 1155 1166 1176 1183 1183 1185 1185 1183 1179 1172 1159 1158 1158 1156 1156 1156 1156 1156 1156 1156 1156 1155 1155 1155 1155 1157 1160 1163 1169 1177 1184 1185 1185 1187 1195 1207 1218 1225 1231 1235 1237 1239 1240 1242 1244 1246 1247 1249 1249 1249 1249 1249 1250 1250 1250 1251 1251 1250 1248 1247 1247 1246 1246 1243 1239 1239 1239 1247 1258 1264 1267 1270 1273 1274 1277 1279 1281 1284 1285 1287 1288 1289 1291 1292 1292 1294 1294 1295 1296 1296 1296 1296 1295 1292 1289 1286 1285 1280 1259 1235 1235 1235 1235 1235 1228 1214 1208 1208 1208 1217 1235 1246 1267 1292 1300 1300 1313 1323 1326 1333 1340 1341 1341 1341 1344 1347 1348 1350 1352 1353 1354 1355 1357 1359 1361 1361 1363 1365 1367 1368 1368 1369 1370 1372 1375 1377 1378 1380 1382 1382 1383 1383 1383 1405 1433 1434 1434 1434 1436 0 0 0 0 2571 2862 2862 2862 2778 2630 0 0 0 0 0 0 1594 1592 1584 1579 1577 1575 1574 1573 1570 1566 1561 1558 1554 1551 1549 1545 1543 1540 1537 1533 1530 1528 1527 1527 1527 1527 1528 1528 1528 1527 1527 1527 1526 1526 1526 1526 1526 1526 1526 1526 1526 1527 1527 1527 1527 1529 1529 1530 1531 1531 1531 1529 1527 1527 1527 1529 1532 1533 1534 1534 1534 1534 1533 1532 1532 1531 1530 1530 1530 1529 1529 1529 1529 1528 1528 1525 1523 1522 1521 1520 1519 1517 1515 1514 1514 1513 1513 1512 1511 1510 1507 1506 1505 1504 1499 1491 1485 1480 1474 1471 1465 1456 1440 1414 1385 1355 1351 1336 1319 1296 1271 1264 1261 1261 1260 1257 1252 1246 1235 1233 1229 1227 1225 1223 1219 1216 1213 1209 1205 1200 1192 1188 1184 1179 1174 1174 1174 1172 1172 1172 1161 1151 1140 1134 1132 1130 1129 1129 1125 1113 1097 1082 1078 1075 1075 1075 1075 1070 1064 1059 1046 1041 1012 998 990 975 968 953 951 951 951 951 0 0 0
0 0 0 0 0 0 0 0 0 0 0 0 0 819 840 843 855 863 869 874 879 886 890 893 897 902 907 909 912 914 916 920 923 925 928 930 932 934 935 938 939 941 942 943 943 944 946 946 946 946 946 945 942 939 926 908 0 0 0 780 780 779 779 779 779 780 784 789 790 791 798 806 806 807 811 828 0 0 0 0 0 0 952 970 981 984 986 988 989 992 994 995 995 995 995 995 995 994 993 991 983 0 0 0 849 849 849 853 853 853 853 853 853 853 853 856 857 858 860 862 864 866 867 869 872 875 879 883 886 889 891 893 895 897 900 903 907 914 923 934 949 963 980 1001 1022 1033 1036 1040 1041 1041 1042 1043 1044 1045 1045 1045 1045 1045 1039 1035 1034 1030 1018 1006 992 973 967 965 965 965 966 967 969 970 972 973 976 980 981 983 985 998 1019 1040 1052 1061 1069 1077 1081 1085 1087 1089 1090 1092 1093 1094 1095 1097 1097 1098 1099 1100 1101 1103 1103 1104 1105 1106 1106 1107 1107 1108 1108 1108 1108 1107 1107 1106 1106 1106 1106 1106 1103 1097 1088 1085 1085 1085 1091 1094 1099 1108 1114 1117 1123 1127 1128 1131 1134 1137 1139 1139 1142 1144 1146 1148 1149 1150 1151 1153 1154 1155 1155 1155 1154 1154 1153 1151 1148 1143 1138 1129 1119 1113 1110 1108 1107 1107 1107 1107 1108 1111 1112 1113 1113 1115 1118 1120 1121 1123 1125 1126 1127 1129 1131 1132 1136 1138 1141 1142 1155 1166 1176 1179 1179 1179 1177 1173 1167 1160 1158 1157 1157 1155 1153 1153 1153 1153 1154 1154 1154 1154 1155 1155 1155 1157 1160 1163 1169 1177 1184 1185 1185 1185 1193 1205 1215 1224 1231 1235 1237 1239 1240 1242 1244 1246 1247 1248 1248 1248 1249 1249 1249 1249 1249 1249 1249 1247 1247 1245 1245 1244 1241 1236 1236 1236 1237 1247 1258 1265 1269 1271 1274 1277 1279 1281 1283 1284 1286 1288 1289 1291 1292 1293 1294 1295 1296 1296 1298 1299 1299 1299 1298 1296 1292 1288 1288 1284 1270 1244 1239 1238 1235 1235 1232 1232 1232 1232 1239 1243 1255 1280 1299 1313 1316 1316 1325 1332 1336 1337 1341 1342 1342 1343 1344 1347 1349 1351 1352 1354 1355 1358 1359 1361 1362 1363 1366 1368 1371 1372 1372 1372 1372 1375 1377 1378 1379 1380 1385 1386 1389 1403 1431 1443 1443 1443 1443 1443 0 0 0 0 0 2767 2864 2864 2864 2758 2609 0 0 0 0 0 1599 1594 1592 1588 1585 1579 1576 1575 1574 1571 1568 1563 1558 1556 1552 1549 1547 1544 1541 1538 1534 1531 1528 1527 1527 1527 1528 1528 1528 1528 1527 1527 1527 1527 1527 1527 1527 1526 1526 1526 1526 1526 1526 1526 1527 1527 1528 1529 1529 1529 1529 1529 1527 1527 1527 1527 1529 1531 1533 1534 1534 1534 1534 1533 1532 1532 1532 1531 1530 1530 1530 1530 1530 1530 1528 1528 1527 1525 1522 1521 1520 1519 1518 1515 1515 1514 1513 1513 1513 1512 1510 1508 1506 1505 1504 1499 1493 1485 1480 1474 1471 1469 1469 1457 1437 1415 1378 1373 1352 1332 1302 1279 1267 1266 1265 1265 1260 1255 1251 1246 1242 1238 1233 1231 1229 1225 1220 1215 1211 1208 1202 1195 1189 1186 1182 1177 1176 1175 1175 1174 1168 1159 1151 1140 1124 1121 1120 1118 1116 1115 1104 1088 1074 1074 1074 1075 1075 1075 1070 1065 1060 1048 1044 1021 994 984 962 958 958 958 968 968 968 0 0 0
0 0 0 0 0 0 0 0 0 0 0 0 0 0 834 836 854 863 869 873 879 886 890 894 898 902 907 910 912 915 918 921 923 925 928 930 933 935 937 938 940 942 943 944 945 946 947 948 948 948 948 946 945 941 936 925 910 0 0 784 781 781 780 780 780 780 786 790 792 796 805 811 820 0 0 0 0 0 0 0 950 963 972 983 988 991 991 992 994 995 996 996 996 996 996 996 996 996 996 993 986 971 0 0 853 853 853 854 854 854 852 852 852 852 853 855 857 858 860 862 864 866 867 869 871 874 877 880 884 886 888 890 893 897 900 900 904 910 921 933 945 957 976 1000 1014 1024 1034 1039 1041 1041 1042 1043 1043 1043 1043 1043 1042 1035 1028 1025 1017 1002 983 973 964 964 963 963 963 963 964 964 966 969 972 972 975 978 980 983 985 991 1007 1032 1045 1055 1068 1076 1081 1085 1087 1089 1090 1092 1093 1095 1096 1097 1098 1099 1099 1101 1102 1103 1104 1104 1105 1106 1106 1107 1107 1108 1108 1108 1108 1107 1107 1106 1106 1106 1106 1106 1106 1103 1096 1091 1091 1091 1102 1109 1111 1115 1120 1124 1127 1129 1132 1135 1137 1139 1140 1142 1144 1146 1147 1149 1151 1152 1153 1154 1156 1156 1156 1156 1156 1155 1154 1153 1151 1150 1143 1130 1120 1115 1111 1110 1110 1110 1110 1110 1110 1111 1112 1113 1113 1115 1120 1122 1124 1124 1125 1127 1130 1135 1137 1142 1147 1148 1152 1163 1173 1179 1180 1180 1180 1179 1177 1173 1167 1158 1157 1156 1154 1154 1151 1150 1150 1150 1151 1152 1152 1152 1154 1154 1155 1157 1160 1162 1167 1176 1184 1184 1184 1185 1189 1203 1214 1224 1231 1233 1236 1238 1240 1242 1244 1246 1247 1247 1247 1248 1247 1247 1247 1248 1248 1248 1248 1245 1245 1242 1232 1229 1222 1221 1222 1229 1230 1247 1258 1265 1269 1272 1276 1278 1281 1282 1284 1286 1287 1289 1290 1291 1294 1295 1296 1297 1298 1298 1300 1300 1300 1300 1300 1299 1297 1294 1291 1285 1271 1252 1239 1239 1236 1236 1236 1236 1236 1243 1265 1282 1294 1307 1323 1330 1331 1332 1333 1335 1338 1341 1343 1344 1345 1345 1346 1348 1350 1352 1353 1355 1358 1359 1362 1363 1364 1366 1368 1372 1374 1375 1376 1376 1377 1377 1379 1380 1380 1380 1387 1400 1423 1447 1454 1466 1472 1466 1466 1473 0 0 0 0 2597 2911 2911 2911 2847 2733 2559 0 0 0 0 1606 1599 1594 1592 1589 1586 1582 1578 1575 1574 1571 1568 1564 1560 1556 1553 1551 1547 1545 1542 1540 1536 1533 1529 1529 1529 1529 1529 1529 1529 1528 1528 1528 1528 1528 1528 1528 1527 1527 1527 1526 1526 1526 1526 1526 1527 1527 1527 1527 1527 1527 1527 1527 1527 1527 1527 1527 1529 1531 1533 1534 1534 1534 1534 1533 1532 1532 1532 1531 1531 1530 1530 1530 1530 1530 1530 1529 1527 1526 1524 1522 1521 1519 1518 1517 1517 1516 1516 1514 1513 1512 1510 1508 1506 1504 1502 1499 1493 1485 1478 1472 1471 1469 1469 1465 1446 1427 1410 1403 1378 1341 1304 1286 1271 1271 1270 1267 1265 1260 1258 1252 1248 1243 1238 1237 1237 1232 1225 1216 1212 1209 1204 1198 1191 1189 1188 1186 1182 1176 1175 1173 1167 1159 1151 1142 1124 1113 1109 1107 1104 1104 1097 1084 1074 1074 1074 1075 1075 1075 1073 1069 1065 1056 1053 1044 988 981 958 958 958 960 968 968 968 0 0 0
0 0 0 0 0 499 515 531 0 0 0 0 0 0 828 831 852 862 868 873 879 886 891 895 898 902 907 910 913 916 919 922 924 926 929 931 933 936 937 939 941 942 944 946 946 947 949 950 950 951 951 951 949 945 944 935 923 0 0 0 785 781 780 780 780 780 786 793 800 811 826 841 0 0 0 0 0 940 950 959 969 977 983 988 991 994 994 995 996 996 997 997 997 997 998 998 999 999 999 994 987 977 0 0 0 856 856 854 854 854 852 852 852 852 853 855 857 859 860 863 865 866 867 869 871 874 876 879 882 885 888 890 893 897 898 898 898 905 919 932 941 949 967 987 1002 1012 1026 1036 1038 1040 1041 1041 1041 1041 1040 1036 1029 1022 1016 1000 980 962 961 961 961 961 961 961 961 961 959 959 959 966 970 972 974 977 978 982 984 987 1006 1023 1028 1045 1064 1073 1081 1084 1087 1089 1090 1092 1093 1095 1096 1097 1098 1099 1100 1101 1102 1103 1104 1104 1105 1106 1106 1107 1107 1107 1108 1108 1108 1107 1107 1106 1106 1106 1106 1106 1106 1103 1099 1098 1098 1098 1109 1118 1121 1121 1123 1129 1132 1133 1135 1137 1139 1141 1142 1144 1145 1147 1148 1150 1151 1153 1154 1156 1157 1157 1157 1157 1157 1157 1155 1154 1154 1154 1150 1139 1126 1120 1113 1113 1112 1112 1112 1112 1112 1113 1113 1113 1113 1115 1122 1125 1125 1126 1126 1127 1130 1137 1148 1157 1165 1171 1177 1179 1181 1186 1186 1186 1185 1179 1177 1173 1167 1158 1157 1156 1154 1152 1150 1149 1149 1149 1149 1150 1151 1152 1154 1154 1155 1157 1160 1162 1167 1173 1180 1182 1184 1185 1189 1201 1213 1224 1229 1233 1236 1238 1240 1242 1244 1246 1247 1247 1247 1247 1246 1246 1246 1246 1246 1246 1246 1239 1230 1225 1209 1208 1205 1203 1205 1208 1208 1231 1253 1265 1269 1272 1276 1280 1283 1284 1285 1287 1288 1290 1291 1293 1294 1296 1297 1298 1300 1300 1301 1301 1301 1301 1301 1301 1299 1299 1295 1292 1288 1274 1242 1241 1240 1241 1241 1241 1266 1279 1298 1315 1322 1326 1332 1332 1333 1334 1335 1337 1340 1342 1345 1346 1347 1348 1348 1349 1350 1352 1354 1356 1359 1362 1363 1365 1366 1368 1371 1374 1378 1380 1380 1380 1380 1381 1382 1382 1383 1385 1402 1431 1448 1472 1472 1472 1472 1472 1475 1516 0 0 0 0 2815 2898 2898 2898 2810 2670 0 0 0 0 0 1605 1601 1600 1593 1589 1586 1583 1578 1575 1574 1571 1568 1564 1562 1558 1555 1551 1548 1545 1543 1541 1539 1534 1531 1531 1531 1531 1531 1531 1530 1529 1529 1529 1529 1529 1529 1529 1527 1527 1527 1526 1526 1526 1526 1526 1527 1527 1527 1527 1527 1527 1527 1527 1527 1527 1527 1527 1529 1532 1534 1534 1535 1535 1535 1533 1532 1532 1532 1532 1532 1531 1531 1531 1531 1531 1530 1529 1527 1526 1525 1524 1523 1522 1520 1519 1518 1517 1516 1514 1513 1512 1512 1509 1506 1504 1500 1498 1491 1484 1477 1472 1471 1469 1469 1465 1457 1432 1410 1406 1389 1368 1332 1302 1285 1278 1277 1273 1268 1263 1260 1256 1253 1248 1242 1242 1241 1238 1230 1220 1213 1209 1206 1201 1195 1191 1191 1190 1186 1181 1175 1173 1167 1159 1152 1143 1124 1113 1109 1105 1104 1099 1092 1084 1074 1074 1074 1080 1080 1080 1073 1069 1067 1066 1064 1045 998 984 948 948 948 960 968 968 968 0 0 0
460 460 461 468 486 499 515 531 544 0 0 0 0 0 813 817 844 860 868 873 879 886 892 896 900 904 907 911 914 917 920 922 925 928 930 932 934 936 938 940 942 944 945 946 948 949 951 952 953 954 954 954 953 952 947 944 939 920 0 0 801 785 780 780 780 780 791 811 820 827 844 858 0 0 0 939 951 959 970 977 980 984 990 993 995 995 996 997 998 999 999 999 1000 1000 1000 1000 1001 1000 1000 999 993 986 976 0 0 874 856 856 855 855 852 852 852 852 853 855 857 859 861 863 865 866 867 870 871 874 876 879 882 885 888 890 893 896 896 898 898 905 915 925 933 941 950 968 990 1006 1018 1030 1035 1039 1039 1039 1039 1035 1030 1020 1009 996 986 971 956 956 956 956 958 958 958 958 958 958 958 958 959 962 967 970 972 975 977 982 984 986 1002 1011 1018 1039 1059 1071 1077 1083 1087 1089 1090 1092 1094 1095 1096 1097 1098 1099 1100 1101 1102 1103 1104 1104 1105 1106 1106 1107 1107 1107 1107 1107 1107 1107 1107 1106 1106 1106 1106 1106 1106 1103 1101 1101 1101 1107 1117 1124 1126 1127 1129 1131 1135 1136 1138 1140 1141 1142 1144 1145 1147 1149 1150 1151 1152 1154 1155 1156 1158 1158 1158 1158 1158 1158 1157 1156 1155 1155 1154 1151 1142 1127 1116 1116 1115 1115 1115 1115 1115 1115 1114 1114 1114 1115 1125 1129 1129 1129 1129 1129 1130 1142 1159 1171 1175 1179 1181 1184 1188 1191 1191 1191 1189 1187 1184 1178 1167 1158 1156 1155 1154 1152 1150 1148 1148 1148 1148 1150 1151 1152 1154 1156 1157 1159 1160 1162 1167 1171 1177 1181 1183 1185 1189 1197 1207 1216 1227 1233 1236 1237 1240 1242 1244 1246 1248 1248 1248 1247 1245 1244 1244 1244 1244 1244 1244 1232 1214 1200 1196 1196 1196 1200 1200 1203 1203 1223 1248 1258 1269 1272 1276 1282 1284 1285 1287 1288 1290 1291 1293 1293 1295 1297 1298 1299 1300 1301 1302 1302 1302 1302 1302 1302 1301 1301 1301 1296 1291 1277 1255 1242 1242 1242 1252 1283 1303 1313 1318 1324 1330 1331 1333 1333 1336 1336 1337 1338 1340 1343 1345 1347 1347 1348 1349 1350 1352 1353 1355 1358 1361 1364 1366 1368 1368 1370 1373 1376 1378 1380 1381 1382 1383 1384 1385 1392 1395 1405 1441 1454 1470 1472 1472 1474 1474 1474 1500 1523 0 0 0 2819 2929 2929 2929 2870 2756 2593 0 0 0 0 0 1605 1601 1600 1593 1588 1586 1583 1578 1575 1572 1570 1568 1565 1563 1560 1557 1551 1548 1546 1544 1544 1541 1538 1534 1532 1532 1532 1531 1531 1530 1529 1529 1529 1529 1529 1529 1529 1528 1527 1527 1526 1526 1525 1525 1525 1526 1527 1527 1527 1527 1527 1527 1527 1527 1527 1527 1527 1530 1532 1533 1534 1535 1535 1535 1534 1533 1533 1533 1533 1532 1531 1531 1531 1531 1531 1531 1530 1528 1527 1527 1525 1524 1523 1520 1520 1520 1518 1516 1514 1513 1512 1512 1509 1507 1504 1499 1496 1490 1483 1476 1472 1468 1468 1467 1465 1457 1432 1421 1417 1399 1386 1370 1346 1319 1301 1290 1281 1271 1265 1261 1258 1255 1249 1247 1245 1245 1243 1236 1224 1216 1212 1209 1206 1199 1196 1194 1192 1188 1184 1180 1173 1167 1161 1157 1153 1137 1113 1109 1105 1104 1099 1092 1078 1078 1078 1078 1081 1081 1081 1073 1073 1070 1069 1067 1055 1007 990 948 948 948 962 962 962 951 0 0 0
484 484 484 485 490 499 515 531 544 553 0 0 0 0 785 790 827 848 864 872 879 886 893 897 900 904 907 911 914 917 920 923 926 928 931 933 935 938 939 941 942 944 946 948 950 951 952 953 954 955 955 955 954 954 954 953 949 935 0 0 833 801 788 788 788 795 819 839 840 844 862 889 0 0 962 970 974 974 975 983 989 991 994 996 997 998 998 1000 1000 1000 1001 1001 1001 1002 1002 1002 1003 1003 1002 1000 997 994 987 979 0 895 864 857 857 856 852 852 852 852 854 856 857 859 861 863 865 867 868 870 871 874 876 879 882 885 889 891 893 896 896 898 898 905 915 925 933 941 950 957 978 999 1016 1027 1032 1034 1034 1034 1031 1023 1010 997 978 958 951 950 950 950 951 953 954 954 955 955 955 955 957 957 959 961 963 966 969 971 975 979 984 986 994 1005 1016 1032 1052 1066 1073 1080 1086 1089 1091 1091 1094 1095 1096 1098 1099 1100 1101 1101 1102 1103 1104 1104 1105 1105 1105 1106 1106 1106 1106 1106 1106 1105 1104 1103 1103 1103 1104 1104 1104 1100 1100 1100 1107 1113 1122 1126 1129 1129 1131 1134 1136 1139 1139 1141 1143 1143 1145 1147 1148 1150 1151 1153 1154 1155 1157 1157 1158 1159 1160 1160 1160 1159 1159 1158 1157 1157 1156 1156 1151 1139 1121 1121 1119 1119 1118 1118 1118 1118 1117 1117 1117 1119 1127 1134 1137 1140 1141 1144 1148 1160 1174 1180 1182 1186 1190 1192 1195 1196 1196 1196 1192 1190 1185 1179 1167 1158 1156 1155 1154 1152 1150 1148 1148 1148 1148 1150 1151 1155 1156 1158 1159 1160 1161 1163 1167 1171 1175 1180 1183 1186 1190 1195 1199 1209 1222 1232 1236 1237 1240 1242 1244 1246 1248 1248 1248 1245 1245 1244 1243 1243 1243 1236 1223 1208 1193 1182 1182 1182 1190 1192 1192 1194 1197 1216 1242 1258 1265 1273 1276 1282 1285 1286 1288 1290 1291 1292 1294 1295 1296 1298 1299 1300 1301 1303 1303 1303 1303 1303 1303 1303 1303 1303 1302 1300 1293 1279 1279 1269 1269 1269 1285 1306 1316 1320 1325 1326 1331 1333 1334 1337 1338 1339 1339 1339 1341 1344 1345 1347 1349 1350 1351 1353 1353 1355 1357 1360 1362 1366 1370 1370 1371 1371 1374 1377 1378 1383 1384 1385 1390 1393 1395 1406 1411 1429 1442 1459 1474 1474 1474 1478 1478 1478 1525 1540 0 0 2826 2958 2958 2958 2927 2841 2697 2523 0 0 0 0 0 1601 1600 1599 1593 1588 1586 1582 1578 1575 1572 1570 1568 1565 1563 1560 1557 1553 1550 1547 1544 1544 1541 1538 1535 1532 1532 1532 1532 1531 1530 1529 1529 1529 1529 1529 1529 1529 1528 1528 1527 1526 1526 1525 1525 1525 1526 1527 1527 1527 1527 1527 1527 1527 1528 1530 1531 1532 1532 1533 1533 1534 1535 1535 1535 1534 1534 1534 1533 1533 1533 1531 1531 1531 1532 1532 1532 1531 1530 1529 1528 1527 1524 1523 1520 1520 1520 1518 1516 1514 1513 1512 1512 1510 1508 1504 1499 1492 1490 1483 1476 1470 1468 1468 1467 1465 1457 1436 1422 1417 1406 1398 1386 1374 1355 1337 1312 1293 1277 1268 1263 1263 1259 1252 1250 1250 1249 1246 1239 1228 1221 1217 1214 1210 1206 1202 1199 1194 1191 1185 1181 1177 1169 1168 1163 1162 1162 1135 1131 1116 1105 1099 1092 1078 1078 1078 1080 1082 1082 1082 1074 1074 1071 1071 1071 1071 1068 994 955 955 955 955 955 951 948 0 0 0
0 0 0 0 0 0 0 0 0 0 0 0 0 0 0 0 794 835 860 872 879 886 893 897 901 904 908 912 915 918 920 923 926 929 932 934 936 938 940 941 944 945 948 949 951 952 953 955 956 956 956 956 956 956 955 955 950 940 922 893 0 0 822 822 0 0 0 0 0 0 907 935 954 969 979 981 982 983 983 989 992 994 994 996 997 999 999 1000 1001 1002 1002 1003 1003 1004 1004 1004 1004 1004 1003 1002 1000 997 993 992 979 0 0 866 860 859 855 854 854 854 856 857 858 859 862 864 867 867 868 870 871 875 877 880 884 887 890 892 893 896 896 896 898 907 915 925 933 941 950 957 978 999 1005 1015 1025 1025 1025 1022 1013 993 977 966 956 953 950 949 948 948 948 948 949 950 952 953 954 955 956 957 958 960 961 963 966 969 973 977 981 984 988 998 1006 1019 1044 1063 1072 1078 1085 1089 1091 1091 1094 1096 1096 1098 1099 1100 1101 1101 1102 1103 1103 1104 1105 1105 1105 1106 1106 1106 1106 1105 1105 1103 1100 1100 1100 1100 1100 1100 1097 1097 1097 1099 1107 1114 1122 1128 1131 1131 1132 1135 1137 1139 1142 1143 1144 1145 1147 1148 1150 1151 1152 1154 1155 1157 1157 1158 1160 1160 1161 1161 1162 1162 1162 1161 1159 1158 1158 1156 1155 1144 1129 1129 1127 1126 1126 1125 1124 1123 1123 1123 1123 1124 1131 1136 1143 1146 1150 1156 1161 1168 1182 1188 1189 1191 1194 1198 1198 1198 1198 1198 1197 1193 1188 1180 1167 1158 1156 1155 1154 1152 1150 1148 1148 1148 1148 1150 1152 1156 1157 1158 1159 1160 1161 1163 1167 1171 1175 1178 1182 1187 1191 1194 1198 1209 1222 1232 1236 1237 1238 1241 1242 1244 1245 1245 1245 1243 1241 1236 1233 1231 1229 1218 1196 1186 1179 1177 1177 1177 1178 1180 1181 1181 1188 1209 1239 1253 1265 1273 1278 1282 1285 1289 1290 1291 1291 1293 1294 1296 1298 1298 1300 1302 1302 1303 1304 1304 1304 1304 1304 1304 1304 1305 1305 1305 1299 1298 1298 1287 1287 1287 1301 1313 1317 1322 1327 1331 1333 1335 1337 1340 1340 1341 1341 1342 1343 1345 1346 1348 1350 1351 1353 1354 1355 1357 1359 1362 1364 1367 1370 1371 1372 1373 1375 1377 1380 1384 1386 1398 1409 1412 1413 1426 1435 1440 1449 1463 1463 1463 1461 0 0 0 0 0 2444 2832 2985 2985 2985 2958 2914 2780 2637 0 0 0 0 1652 1607 1596 1593 1592 1592 1587 1583 1581 1578 1574 1572 1569 1568 1565 1563 1560 1557 1554 1551 1547 1544 1544 1542 1538 1536 1533 1532 1532 1532 1531 1530 1529 1529 1529 1529 1529 1529 1529 1529 1528 1528 1527 1526 1525 1525 1525 1526 1527 1528 1528 1528 1528 1528 1528 1529 1531 1532 1532 1533 1533 1533 1534 1535 1535 1535 1535 1535 1535 1534 1533 1533 1533 1533 1533 1534 1534 1534 1532 1532 1530 1530 1528 1524 1523 1521 1520 1520 1518 1516 1514 1512 1512 1511 1510 1508 1504 1499 1490 1482 1475 1472 1471 1470 1468 1467 1465 1452 1443 1428 1423 1410 1405 1401 1392 1376 1358 1339 1313 1291 1278 1274 1269 1263 1258 1254 1252 1251 1247 1242 1234 1226 1222 1218 1214 1209 1206 1202 1199 1191 1186 1183 1180 1172 1172 1172 1171 1168 1151 1147 1124 1118 1106 1092 1078 1078 1078 1080 1083 1083 1083 1074 1074 1072 1072 1072 1072 1068 1019 990 983 983 966 956 951 948 0 0 0
0 0 0 0 0 0 0 0 0 0 0 0 0 0 0 0 0 822 854 870 879 886 893 897 901 904 908 912 915 918 921 924 927 930 932 935 937 939 941 943 945 947 949 950 952 954 955 956 957 958 959 959 959 959 959 957 956 955 941 926 0 0 864 864 0 0 0 0 0 0 946 963 977 981 985 988 988 989 990 991 994 995 996 997 998 999 1000 1001 1002 1003 1003 1004 1005 1005 1005 1005 1005 1004 1004 1003 1003 1002 998 995 989 0 0 867 865 862 860 857 857 857 859 859 859 861 863 867 868 871 872 873 876 878 880 883 886 888 891 892 894 896 896 896 901 911 921 927 935 946 951 957 978 999 1005 1015 1015 1015 1007 1002 985 957 951 949 949 949 949 948 948 947 946 946 946 947 949 952 953 955 956 957 958 959 960 962 964 967 971 976 979 982 988 995 1004 1013 1033 1054 1065 1077 1084 1087 1091 1092 1094 1096 1097 1098 1099 1100 1101 1101 1101 1102 1102 1103 1105 1105 1105 1105 1105 1105 1104 1104 1103 1099 1097 1097 1097 1097 1097 1090 1084 1084 1084 1095 1107 1114 1122 1128 1131 1132 1134 1135 1138 1140 1143 1145 1146 1147 1148 1150 1151 1152 1154 1154 1157 1158 1158 1159 1161 1161 1162 1163 1163 1163 1163 1163 1162 1160 1160 1160 1158 1153 1141 1133 1133 1133 1131 1131 1130 1129 1128 1126 1126 1126 1132 1138 1148 1157 1163 1171 1175 1181 1189 1192 1192 1193 1195 1198 1199 1199 1199 1199 1198 1195 1190 1183 1177 1167 1156 1153 1152 1152 1150 1148 1148 1148 1148 1150 1155 1157 1158 1159 1160 1161 1161 1164 1167 1171 1175 1178 1183 1187 1191 1194 1197 1204 1216 1227 1233 1234 1236 1237 1239 1241 1241 1241 1236 1234 1230 1221 1210 1205 1202 1185 1179 1176 1176 1176 1176 1176 1175 1175 1175 1175 1182 1195 1224 1252 1263 1275 1281 1282 1286 1289 1291 1291 1292 1293 1295 1298 1299 1300 1301 1302 1303 1305 1305 1306 1306 1307 1307 1307 1308 1308 1308 1308 1307 1307 1304 1306 1306 1306 1313 1318 1323 1328 1330 1333 1335 1336 1339 1342 1343 1343 1343 1344 1345 1346 1348 1350 1352 1353 1355 1356 1357 1358 1360 1363 1366 1369 1370 1372 1376 1380 1384 1384 1385 1386 1393 1413 1419 1420 1422 1435 1449 1457 1462 1463 1463 1463 1464 0 0 0 0 0 2851 3001 3001 3001 2985 2958 2858 2710 0 0 0 0 0 1622 1601 1592 1587 1587 1585 1584 1580 1580 1577 1574 1572 1569 1567 1564 1562 1559 1557 1554 1551 1547 1544 1543 1542 1539 1536 1533 1532 1532 1531 1531 1530 1530 1529 1529 1529 1529 1528 1528 1528 1528 1528 1527 1526 1525 1525 1525 1526 1527 1528 1528 1528 1529 1529 1529 1531 1532 1533 1533 1534 1534 1534 1534 1535 1536 1537 1537 1537 1535 1535 1535 1535 1535 1536 1536 1536 1536 1534 1534 1533 1532 1531 1529 1526 1523 1521 1520 1520 1518 1516 1513 1512 1511 1511 1510 1507 1504 1498 1489 1481 1475 1473 1471 1471 1469 1466 1464 1452 1443 1428 1424 1417 1413 1406 1401 1388 1370 1355 1336 1313 1293 1281 1275 1269 1262 1259 1257 1256 1251 1246 1238 1230 1228 1223 1218 1214 1209 1207 1202 1195 1186 1185 1182 1178 1177 1176 1174 1174 1163 1160 1147 1137 1117 1100 1090 1085 1085 1085 1085 1085 1082 1076 1075 1074 1074 1074 1072 1068 1038 1017 1002 983 966 956 956 951 0 0 0
680 680 681 0 0 0 0 0 0 0 0 0 0 0 0 0 0 822 838 865 879 886 891 897 900 904 909 913 916 919 921 925 928 931 934 936 938 941 942 944 945 948 949 952 953 955 956 957 958 959 961 962 962 962 962 962 962 960 958 947 938 919 895 895 895 899 918 935 949 960 966 975 986 989 991 991 991 992 992 993 994 996 997 999 1000 1000 1001 1002 1003 1004 1005 1005 1006 1006 1006 1006 1005 1004 1004 1004 1005 1005 1005 1001 997 979 0 0 869 862 860 859 859 859 859 859 859 861 864 868 871 873 877 879 881 883 885 888 891 892 894 896 896 896 896 899 908 918 928 938 944 957 969 981 993 1002 1005 1015 1015 1015 1007 997 971 949 949 949 947 947 947 947 947 947 946 946 946 947 949 951 952 954 955 957 957 958 958 961 964 967 971 974 977 982 988 994 1002 1012 1029 1049 1061 1073 1083 1087 1091 1093 1094 1096 1098 1098 1099 1099 1099 1100 1100 1101 1101 1102 1104 1104 1104 1103 1103 1103 1102 1099 1096 1092 1090 1089 1089 1085 1077 1065 1065 1065 1075 1094 1105 1114 1121 1128 1131 1132 1134 1136 1138 1141 1144 1145 1147 1147 1150 1151 1152 1153 1154 1156 1157 1158 1160 1160 1161 1162 1163 1165 1165 1165 1165 1165 1164 1163 1162 1162 1161 1160 1149 1134 1134 1134 1133 1133 1133 1132 1130 1128 1128 1128 1143 1158 1165 1168 1173 1177 1181 1186 1189 1193 1194 1196 1198 1200 1201 1201 1201 1201 1199 1197 1194 1191 1181 1169 1156 1148 1148 1148 1148 1146 1146 1146 1148 1152 1155 1157 1158 1159 1160 1161 1164 1167 1169 1172 1175 1178 1183 1188 1192 1194 1197 1204 1209 1217 1228 1234 1234 1234 1234 1234 1234 1234 1229 1224 1221 1206 1193 1189 1177 1171 1171 1171 1172 1174 1174 1175 1175 1175 1175 1175 1180 1193 1219 1245 1261 1275 1282 1283 1286 1290 1291 1292 1294 1295 1296 1298 1300 1302 1303 1303 1305 1306 1307 1307 1308 1308 1309 1309 1310 1311 1311 1311 1311 1311 1311 1312 1314 1317 1320 1324 1327 1331 1332 1335 1336 1337 1340 1342 1344 1344 1345 1346 1347 1348 1349 1351 1352 1354 1356 1357 1358 1359 1362 1364 1369 1373 1374 1378 1384 1384 1387 1387 1388 1400 1428 1434 1437 1438 1442 1452 1465 1465 1466 1466 1464 1464 1469 0 0 0 0 2857 3008 3008 3008 3006 2983 2921 2809 2605 0 0 0 0 0 1605 1596 1590 1587 1585 1584 1581 1577 1577 1576 1574 1571 1569 1565 1563 1561 1559 1557 1554 1551 1547 1544 1543 1542 1539 1536 1533 1532 1532 1531 1531 1530 1530 1529 1528 1528 1528 1528 1528 1528 1528 1528 1527 1526 1526 1526 1526 1526 1527 1528 1530 1530 1530 1530 1530 1532 1534 1534 1534 1534 1534 1535 1536 1536 1538 1538 1539 1539 1539 1538 1538 1538 1538 1538 1538 1538 1538 1536 1536 1535 1533 1532 1531 1527 1524 1522 1521 1520 1518 1515 1513 1511 1510 1510 1507 1506 1504 1498 1489 1481 1474 1472 1471 1471 1469 1466 1460 1450 1443 1437 1432 1426 1422 1416 1409 1397 1375 1357 1346 1343 1316 1298 1276 1270 1263 1262 1261 1261 1257 1250 1242 1238 1232 1228 1224 1219 1213 1208 1204 1198 1194 1190 1184 1178 1178 1178 1177 1177 1174 1171 1147 1141 1128 1112 1098 1094 1093 1093 1091 1086 1082 1079 1077 1075 1074 1074 1072 1068 1042 1024 1005 986 967 967 967 960 0 0 0
692 692 692 705 717 735 0 0 0 0 0 0 0 0 0 0 0 822 838 865 875 883 888 894 900 904 909 914 916 919 923 926 929 932 935 937 939 941 943 945 947 949 951 953 955 957 957 958 959 960 962 962 963 963 963 963 963 963 963 962 953 938 926 926 926 936 949 962 970 975 978 982 988 991 992 993 993 993 993 994 995 997 998 1000 1000 1001 1002 1003 1004 1005 1006 1007 1007 1007 1007 1007 1007 1007 1006 1006 1006 1006 1006 1006 1002 985 0 0 0 863 860 859 859 859 859 860 860 862 865 868 872 875 880 882 886 889 889 891 894 898 902 903 903 903 903 903 911 923 938 955 967 981 999 1011 1021 1021 1026 1026 1022 1021 1007 997 971 949 949 949 947 947 947 947 946 946 946 946 946 947 948 950 951 952 953 954 956 956 958 961 964 967 971 974 977 981 987 993 1000 1010 1028 1049 1059 1069 1081 1087 1091 1093 1094 1096 1098 1098 1099 1099 1099 1100 1100 1100 1101 1102 1102 1102 1102 1101 1101 1100 1095 1091 1085 1079 1078 1076 1070 1065 1065 1053 1053 1053 1069 1086 1098 1108 1116 1125 1130 1133 1134 1136 1140 1143 1145 1146 1147 1149 1150 1151 1153 1153 1155 1156 1157 1159 1160 1161 1162 1163 1164 1165 1166 1166 1166 1165 1165 1164 1164 1164 1163 1161 1155 1138 1134 1134 1134 1137 1137 1137 1137 1137 1137 1146 1159 1170 1172 1175 1179 1181 1184 1187 1192 1193 1196 1198 1201 1201 1203 1204 1204 1204 1203 1203 1201 1194 1185 1170 1156 1148 1148 1148 1147 1145 1145 1145 1149 1152 1155 1158 1158 1159 1161 1163 1165 1169 1172 1175 1176 1179 1184 1189 1193 1195 1197 1204 1209 1217 1227 1231 1231 1232 1231 1231 1231 1230 1226 1215 1205 1182 1177 1176 1174 1171 1168 1168 1168 1173 1173 1175 1175 1175 1175 1175 1180 1187 1213 1237 1258 1275 1281 1282 1286 1291 1292 1294 1295 1296 1298 1299 1301 1302 1304 1305 1306 1308 1308 1310 1310 1311 1312 1312 1312 1313 1314 1314 1314 1315 1316 1317 1317 1320 1323 1326 1329 1332 1334 1336 1337 1338 1342 1344 1345 1346 1346 1347 1348 1350 1350 1352 1353 1355 1356 1359 1360 1363 1364 1368 1372 1374 1375 1382 1387 1389 1389 1391 1409 1425 1432 1441 1444 1450 1458 1468 1473 1473 1473 1469 1469 1469 0 0 0 0 2845 2987 3008 3008 3008 2990 2940 2864 2706 0 0 0 0 0 0 1590 1589 1589 1587 1585 1583 1578 1576 1575 1572 1572 1569 1566 1564 1562 1560 1559 1557 1554 1551 1547 1544 1542 1540 1539 1536 1533 1532 1532 1531 1531 1530 1530 1529 1528 1528 1528 1528 1528 1528 1528 1527 1527 1526 1526 1526 1527 1527 1528 1528 1530 1531 1531 1532 1532 1534 1535 1535 1535 1535 1535 1537 1538 1539 1539 1539 1540 1540 1540 1540 1539 1539 1538 1538 1538 1538 1538 1537 1536 1536 1536 1534 1533 1531 1527 1524 1522 1520 1518 1515 1513 1511 1510 1508 1505 1502 1499 1494 1488 1479 1474 1472 1471 1471 1469 1465 1459 1450 1444 1440 1437 1429 1422 1417 1413 1404 1384 1366 1360 1358 1348 1338 1314 1277 1264 1264 1264 1263 1262 1254 1245 1241 1236 1229 1226 1221 1214 1211 1208 1205 1203 1200 1188 1182 1180 1180 1177 1177 1174 1171 1153 1147 1132 1120 1114 1101 1097 1093 1091 1086 1082 1079 1077 1074 1073 1071 1069 1061 1042 1031 1010 987 967 967 967 967 0 0 0
692 692 693 712 733 753 772 789 814 834 0 0 0 0 0 0 0 845 853 865 875 878 886 892 897 904 909 914 917 921 923 927 930 933 935 938 940 942 943 946 948 950 952 954 956 957 958 960 960 961 962 964 965 965 965 966 966 966 966 966 965 957 957 957 957 969 970 973 978 983 985 987 989 992 993 994 995 996 996 996 997 999 1000 1001 1002 1003 1003 1004 1005 1006 1006 1007 1008 1009 1009 1009 1009 1009 1009 1007 1007 1007 1006 1006 1002 993 986 0 0 0 860 860 860 860 861 861 861 863 865 868 872 875 881 883 889 891 894 896 898 903 909 912 912 912 914 914 915 933 959 981 991 1003 1019 1028 1031 1032 1041 1041 1041 1034 1021 997 971 949 949 949 947 947 947 947 946 946 946 946 946 947 948 949 950 951 953 954 955 956 958 961 964 967 970 973 977 981 986 992 999 1007 1022 1038 1052 1064 1078 1087 1091 1093 1094 1096 1098 1098 1099 1099 1099 1100 1100 1100 1100 1100 1099 1098 1098 1097 1096 1096 1090 1083 1076 1063 1057 1056 1051 1050 1048 1048 1048 1048 1063 1078 1092 1104 1116 1124 1130 1132 1134 1138 1141 1143 1145 1146 1148 1150 1151 1152 1153 1155 1155 1157 1158 1159 1161 1162 1163 1163 1165 1165 1166 1167 1167 1167 1166 1166 1166 1165 1164 1162 1159 1148 1137 1137 1137 1138 1143 1143 1144 1149 1155 1161 1167 1174 1178 1181 1182 1184 1188 1193 1194 1196 1199 1200 1202 1203 1204 1204 1205 1205 1205 1205 1202 1195 1187 1183 1176 1148 1148 1148 1147 1147 1147 1147 1150 1152 1155 1158 1160 1162 1164 1166 1168 1172 1175 1178 1180 1184 1187 1192 1196 1200 1200 1205 1209 1217 1227 1228 1228 1228 1227 1223 1219 1215 1203 1189 1174 1173 1173 1172 1172 1171 1168 1168 1168 1169 1173 1177 1177 1177 1177 1177 1180 1187 1203 1236 1258 1275 1281 1282 1287 1291 1292 1294 1296 1297 1300 1300 1302 1304 1304 1307 1308 1309 1310 1311 1311 1312 1313 1314 1315 1315 1315 1317 1318 1319 1321 1323 1324 1324 1326 1328 1330 1334 1336 1338 1339 1340 1342 1344 1346 1347 1347 1349 1350 1351 1352 1353 1355 1355 1356 1359 1363 1368 1373 1377 1378 1378 1378 1382 1396 1408 1426 1428 1442 1446 1448 1448 1453 1461 1472 1480 1480 1480 1474 1474 1474 0 0 0 0 2832 2965 2991 3008 3008 3008 2940 2858 2776 2564 0 0 0 0 0 1594 1589 1589 1588 1588 1587 1582 1577 1576 1574 1572 1569 1566 1565 1562 1560 1560 1559 1557 1555 1549 1544 1541 1539 1538 1536 1536 1533 1532 1532 1530 1530 1530 1530 1528 1528 1528 1528 1528 1528 1527 1527 1527 1526 1526 1527 1527 1528 1528 1528 1529 1531 1532 1532 1533 1534 1535 1536 1536 1537 1537 1538 1540 1540 1541 1541 1541 1541 1541 1541 1541 1539 1539 1539 1539 1538 1538 1538 1538 1538 1537 1536 1535 1535 1533 1529 1526 1522 1520 1517 1515 1512 1511 1510 1508 1504 1499 1495 1490 1485 1479 1474 1472 1471 1471 1464 1458 1454 1450 1444 1440 1437 1429 1422 1417 1413 1404 1384 1366 1360 1358 1348 1338 1331 1304 1279 1269 1268 1267 1262 1256 1249 1245 1240 1232 1229 1224 1217 1213 1212 1212 1212 1212 1203 1192 1183 1182 1180 1178 1174 1171 1159 1149 1133 1130 1121 1113 1101 1093 1091 1085 1081 1079 1077 1072 1066 1063 1058 1050 1045 1039 1025 998 979 979 979 972 0 0 0
692 692 693 718 744 767 783 796 814 843 860 876 887 892 0 0 0 893 889 878 878 878 881 891 896 902 909 914 919 921 924 927 930 933 936 938 940 942 944 946 949 951 953 955 957 958 960 961 962 963 965 966 966 968 968 969 970 970 971 971 971 971 972 973 975 978 979 979 984 987 988 990 991 992 994 996 996 997 997 997 998 1000 1001 1002 1002 1004 1004 1005 1006 1006 1008 1008 1009 1010 1010 1011 1011 1011 1011 1010 1009 1008 1008 1008 1005 1004 998 985 0 0 0 862 861 861 861 862 862 863 866 869 872 876 882 889 891 894 896 899 904 906 912 918 923 925 926 932 956 971 988 1006 1015 1022 1032 1038 1040 1040 1044 1044 1044 1042 1037 1016 985 963 953 951 951 951 949 947 946 946 946 946 946 946 947 948 949 951 951 953 954 955 957 961 964 967 970 973 977 980 986 990 996 1002 1009 1026 1043 1058 1070 1082 1088 1091 1094 1096 1098 1098 1098 1098 1099 1099 1099 1099 1099 1099 1098 1095 1093 1092 1090 1088 1079 1069 1058 1038 1038 1038 1038 1038 1039 1040 1040 1040 1054 1068 1079 1100 1115 1123 1128 1132 1135 1138 1141 1143 1145 1147 1148 1150 1151 1152 1154 1156 1156 1158 1159 1161 1161 1163 1163 1164 1165 1167 1167 1168 1168 1168 1168 1168 1168 1167 1166 1163 1160 1156 1151 1146 1146 1146 1151 1157 1161 1163 1166 1170 1176 1181 1183 1186 1187 1191 1193 1195 1196 1198 1200 1202 1204 1204 1205 1206 1207 1207 1207 1207 1202 1200 1200 1194 1180 1161 1151 1150 1147 1147 1147 1149 1150 1152 1155 1158 1161 1164 1167 1169 1171 1175 1179 1181 1182 1185 1188 1192 1198 1203 1206 1208 1212 1219 1227 1227 1227 1225 1219 1210 1204 1194 1186 1177 1174 1173 1172 1172 1172 1170 1170 1169 1169 1169 1173 1178 1178 1180 1181 1182 1185 1187 1199 1230 1255 1266 1270 1281 1287 1291 1292 1294 1296 1298 1300 1302 1303 1305 1306 1308 1309 1310 1311 1313 1313 1314 1314 1316 1316 1317 1318 1318 1319 1320 1322 1324 1326 1326 1328 1329 1332 1335 1338 1339 1340 1342 1344 1345 1346 1347 1350 1350 1351 1352 1354 1355 1356 1356 1357 1360 1368 1377 1382 1382 1383 1384 1384 1389 1411 1429 1435 1442 1451 1460 1460 1461 1463 1472 1473 1480 1480 1480 1482 1489 0 0 0 0 2815 2975 2996 2996 2996 2993 2966 2856 2735 2523 0 0 0 0 0 1590 1586 1586 1586 1587 1587 1587 1582 1577 1574 1574 1572 1569 1566 1565 1562 1560 1560 1559 1557 1555 1549 1543 1540 1538 1538 1536 1536 1533 1532 1532 1530 1530 1530 1530 1528 1527 1527 1527 1527 1527 1527 1527 1527 1527 1527 1527 1527 1529 1529 1529 1530 1531 1533 1533 1533 1535 1536 1537 1538 1538 1538 1540 1543 1543 1544 1544 1544 1545 1545 1545 1543 1542 1540 1540 1540 1540 1540 1540 1540 1540 1538 1537 1536 1535 1533 1530 1526 1522 1520 1517 1515 1512 1510 1510 1507 1503 1498 1494 1489 1483 1477 1473 1471 1470 1467 1461 1456 1451 1448 1444 1441 1437 1429 1422 1417 1413 1404 1390 1366 1360 1358 1348 1338 1331 1317 1297 1279 1270 1267 1263 1257 1251 1247 1241 1236 1231 1226 1219 1217 1216 1215 1213 1212 1204 1192 1183 1179 1177 1173 1170 1167 1159 1149 1141 1134 1123 1113 1102 1095 1092 1085 1081 1078 1071 1066 1062 1059 1055 1050 1046 1045 1043 1032 1002 986 982 979 0 0 0
692 692 694 718 744 767 783 802 818 843 867 886 900 912 919 920 925 925 925 906 882 882 882 883 890 896 904 914 919 921 924 928 932 934 937 939 941 943 945 948 949 952 954 956 958 959 961 962 963 965 966 967 969 970 971 972 973 975 975 975 975 975 977 978 979 983 984 984 986 990 991 992 993 994 995 997 998 998 999 999 1001 1001 1002 1003 1004 1005 1005 1006 1007 1008 1009 1009 1011 1011 1011 1012 1012 1012 1012 1011 1011 1011 1011 1011 1009 1008 1005 998 986 0 0 872 865 865 865 867 870 870 872 874 875 876 882 891 893 898 900 902 907 912 917 927 929 929 949 973 995 1007 1018 1030 1038 1044 1045 1045 1050 1050 1050 1046 1046 1046 1040 1025 1002 977 961 956 954 951 949 947 946 946 946 946 946 946 946 947 948 950 951 953 954 955 957 960 963 966 970 973 977 980 985 989 993 997 1002 1013 1034 1052 1062 1073 1081 1085 1090 1094 1096 1097 1097 1097 1097 1097 1098 1098 1098 1097 1097 1093 1090 1087 1080 1068 1056 1048 1034 1030 1027 1027 1027 1034 1035 1035 1036 1038 1041 1051 1064 1092 1110 1118 1126 1132 1135 1139 1142 1144 1145 1147 1149 1151 1151 1154 1155 1156 1158 1158 1160 1161 1163 1164 1165 1166 1166 1167 1168 1169 1169 1169 1169 1169 1169 1169 1169 1168 1166 1162 1156 1150 1150 1150 1157 1161 1166 1168 1169 1172 1180 1185 1188 1190 1193 1194 1196 1197 1198 1200 1202 1204 1205 1206 1207 1208 1208 1209 1209 1209 1206 1204 1202 1197 1182 1162 1158 1155 1152 1150 1150 1150 1150 1152 1155 1158 1161 1165 1168 1170 1172 1175 1179 1181 1182 1185 1189 1192 1198 1203 1209 1217 1219 1224 1227 1227 1227 1225 1214 1202 1196 1192 1185 1177 1174 1173 1172 1172 1171 1170 1170 1169 1169 1169 1173 1178 1181 1182 1182 1186 1190 1190 1196 1211 1232 1250 1268 1280 1286 1290 1292 1294 1296 1299 1301 1303 1304 1306 1308 1309 1310 1312 1312 1313 1315 1315 1316 1317 1319 1319 1319 1320 1321 1322 1323 1325 1328 1328 1330 1331 1334 1337 1338 1340 1342 1343 1345 1347 1348 1350 1351 1352 1353 1356 1357 1357 1358 1359 1360 1368 1375 1379 1384 1386 1386 1387 1389 1408 1428 1434 1441 1449 1458 1467 1473 1478 1478 1478 1479 1479 1480 1480 0 0 0 0 0 2789 2964 2975 2991 2991 2991 2962 2939 2835 2583 0 0 0 0 0 1588 1587 1586 1586 1586 1587 1587 1587 1582 1578 1574 1574 1572 1568 1566 1565 1562 1559 1559 1559 1557 1555 1549 1543 1539 1538 1537 1536 1536 1534 1533 1532 1530 1530 1530 1529 1527 1527 1527 1527 1527 1527 1527 1527 1527 1528 1528 1528 1529 1529 1529 1531 1532 1532 1533 1533 1535 1535 1537 1539 1539 1540 1542 1544 1546 1546 1546 1547 1547 1547 1547 1547 1545 1544 1543 1541 1541 1541 1541 1541 1541 1540 1539 1537 1536 1535 1534 1531 1527 1522 1520 1516 1514 1511 1510 1510 1507 1500 1496 1492 1485 1478 1473 1469 1469 1468 1464 1457 1452 1448 1447 1444 1440 1437 1427 1418 1413 1410 1404 1390 1364 1356 1352 1346 1336 1331 1317 1299 1288 1274 1267 1263 1258 1251 1248 1243 1237 1232 1228 1225 1221 1219 1215 1214 1213 1204 1192 1183 1179 1175 1173 1170 1167 1159 1152 1142 1134 1124 1114 1104 1095 1092 1085 1081 1078 1071 1064 1060 1058 1055 1055 1053 1052 1052 1032 1007 1000 981 980 0 0 0
688 688 694 718 744 767 783 803 820 843 867 891 906 920 932 932 937 937 937 926 909 891 884 884 884 892 901 911 919 921 924 928 932 935 938 940 942 944 945 948 950 953 955 957 958 960 962 963 965 966 967 969 970 972 973 974 976 976 977 979 979 980 981 983 985 986 987 987 989 990 993 994 995 996 996 998 999 1000 1000 1001 1002 1002 1004 1004 1005 1006 1007 1008 1009 1009 1010 1011 1012 1012 1013 1013 1014 1014 1014 1014 1014 1014 1014 1014 1014 1011 1008 1004 1000 0 0 0 873 873 873 875 876 877 877 878 879 883 890 898 900 903 905 908 913 922 933 942 947 956 982 1003 1016 1025 1032 1039 1045 1049 1050 1051 1052 1052 1051 1051 1051 1048 1042 1029 1021 999 966 956 954 952 950 948 946 946 946 946 946 946 946 946 947 949 950 953 954 955 956 958 963 966 969 973 977 980 985 988 991 995 1000 1006 1024 1048 1061 1070 1080 1085 1090 1093 1094 1094 1096 1096 1096 1096 1095 1095 1095 1091 1089 1085 1081 1075 1063 1039 1028 1014 1014 1014 1016 1020 1025 1028 1031 1032 1034 1036 1040 1045 1063 1081 1096 1112 1123 1132 1135 1139 1142 1144 1146 1148 1149 1151 1153 1154 1156 1157 1158 1159 1161 1162 1163 1164 1165 1166 1167 1168 1168 1169 1169 1169 1169 1169 1169 1169 1169 1169 1168 1164 1161 1161 1161 1161 1167 1172 1175 1179 1181 1182 1185 1190 1192 1193 1194 1196 1198 1199 1201 1202 1204 1206 1207 1208 1208 1209 1210 1210 1210 1210 1209 1206 1202 1199 1187 1175 1166 1165 1162 1155 1152 1152 1152 1152 1155 1158 1162 1165 1169 1171 1172 1175 1179 1181 1182 1187 1189 1194 1202 1213 1216 1226 1233 1233 1233 1231 1227 1225 1214 1201 1196 1192 1185 1177 1176 1176 1174 1174 1173 1172 1172 1172 1172 1173 1175 1178 1181 1182 1186 1188 1190 1190 1196 1208 1223 1247 1266 1280 1287 1289 1292 1294 1296 1299 1302 1303 1305 1307 1308 1309 1311 1312 1314 1315 1316 1316 1317 1319 1319 1321 1321 1321 1322 1323 1325 1326 1328 1330 1331 1333 1335 1337 1338 1340 1342 1345 1346 1347 1349 1351 1353 1354 1357 1359 1363 1363 1364 1365 1371 1374 1377 1380 1387 1392 1403 1404 1413 1425 1431 1439 1446 1454 1463 1474 1481 1481 1481 1478 1472 1470 1470 1470 0 0 0 0 2723 2933 2964 2975 2975 2975 2968 2928 2864 2709 0 0 0 0 0 0 1588 1587 1586 1585 1585 1585 1585 1585 1582 1578 1574 1574 1572 1569 1566 1565 1562 1559 1558 1557 1557 1555 1548 1542 1539 1538 1537 1537 1537 1536 1535 1533 1532 1531 1530 1529 1527 1526 1526 1526 1527 1527 1527 1527 1528 1529 1529 1529 1529 1529 1530 1531 1532 1533 1534 1535 1536 1537 1538 1539 1541 1543 1545 1546 1547 1548 1548 1549 1550 1550 1550 1549 1548 1546 1545 1544 1544 1544 1543 1543 1541 1540 1539 1537 1535 1535 1534 1531 1527 1522 1519 1516 1511 1507 1507 1507 1503 1499 1489 1484 1478 1471 1465 1463 1462 1460 1456 1450 1447 1446 1444 1443 1440 1437 1425 1413 1408 1405 1400 1383 1363 1356 1352 1346 1336 1325 1317 1308 1290 1276 1267 1263 1258 1253 1250 1243 1238 1234 1234 1231 1226 1222 1218 1217 1213 1204 1190 1181 1178 1175 1173 1170 1167 1161 1152 1143 1134 1124 1114 1105 1101 1096 1091 1085 1078 1071 1064 1060 1058 1058 1058 1058 1058 1053 1032 1007 1000 981 973 0 0 0
675 675 694 699 731 758 783 803 821 843 867 891 907 922 938 939 939 939 937 926 909 891 875 875 875 885 892 904 917 920 924 928 932 935 938 941 943 945 947 950 951 953 955 958 960 961 963 965 966 967 969 971 972 974 974 975 976 977 979 981 981 982 984 985 986 987 987 988 990 992 993 995 996 997 998 999 1000 1001 1002 1002 1003 1003 1004 1005 1006 1007 1008 1009 1010 1010 1012 1012 1013 1014 1014 1015 1015 1015 1015 1015 1016 1016 1016 1016 1016 1014 1012 1009 1006 994 0 0 877 877 877 880 880 881 881 882 882 886 893 903 906 911 913 917 927 943 950 959 974 995 1012 1021 1033 1040 1041 1045 1048 1051 1052 1053 1053 1053 1053 1053 1052 1050 1045 1040 1029 1005 970 957 954 952 950 948 947 946 946 946 946 946 946 946 947 949 950 952 954 954 956 958 962 965 969 973 976 980 985 987 989 992 996 1003 1011 1030 1054 1067 1076 1085 1089 1093 1094 1094 1094 1094 1094 1093 1093 1089 1084 1081 1076 1067 1059 1051 1032 1015 1009 1009 1009 1011 1015 1020 1023 1026 1028 1031 1034 1036 1038 1044 1053 1071 1091 1109 1123 1131 1135 1139 1142 1144 1146 1148 1149 1152 1153 1154 1156 1157 1159 1160 1161 1162 1164 1164 1166 1166 1167 1168 1168 1169 1169 1169 1169 1169 1169 1169 1169 1169 1168 1164 1164 1164 1165 1170 1174 1177 1180 1183 1188 1191 1191 1192 1194 1195 1197 1199 1200 1202 1202 1204 1205 1207 1209 1210 1210 1211 1212 1212 1212 1212 1211 1210 1207 1202 1193 1179 1170 1170 1167 1160 1153 1153 1153 1153 1156 1159 1162 1166 1169 1171 1173 1176 1179 1181 1183 1194 1204 1213 1217 1220 1225 1233 1239 1239 1239 1234 1230 1226 1214 1201 1194 1191 1185 1184 1182 1181 1177 1174 1174 1173 1173 1173 1173 1173 1175 1178 1180 1182 1186 1188 1190 1191 1196 1208 1222 1247 1265 1280 1287 1289 1293 1295 1297 1301 1303 1304 1306 1307 1309 1310 1311 1313 1315 1316 1317 1317 1318 1320 1321 1322 1323 1323 1324 1326 1327 1327 1330 1331 1333 1335 1337 1338 1339 1341 1343 1345 1347 1348 1349 1352 1355 1359 1361 1364 1369 1371 1371 1375 1378 1378 1379 1390 1407 1425 1429 1432 1433 1434 1440 1447 1455 1462 1469 1475 1481 1481 1481 1478 1463 1463 1463 1470 0 0 0 2661 2874 2950 2964 2964 2964 2954 2920 2876 2815 0 0 0 0 0 0 1590 1588 1587 1587 1585 1585 1585 1585 1585 1582 1577 1573 1573 1571 1569 1566 1565 1562 1559 1557 1556 1554 1551 1546 1542 1538 1538 1537 1537 1537 1536 1535 1533 1532 1531 1530 1529 1527 1526 1526 1526 1527 1527 1527 1528 1529 1530 1530 1530 1530 1530 1532 1532 1533 1535 1536 1536 1537 1538 1539 1540 1542 1544 1545 1547 1547 1549 1550 1550 1551 1551 1551 1551 1550 1548 1546 1546 1546 1546 1544 1543 1542 1541 1540 1537 1535 1534 1533 1531 1527 1522 1517 1513 1508 1505 1503 1499 1497 1491 1483 1478 1472 1464 1458 1457 1455 1452 1445 1444 1443 1443 1443 1443 1440 1436 1424 1409 1403 1401 1397 1379 1363 1356 1352 1346 1336 1325 1320 1309 1292 1278 1269 1263 1258 1254 1250 1245 1240 1239 1239 1235 1231 1225 1221 1218 1212 1201 1190 1181 1178 1177 1175 1173 1171 1165 1153 1143 1134 1123 1114 1106 1101 1098 1092 1086 1078 1071 1064 1061 1061 1061 1061 1061 1058 1053 1024 1007 1000 984 973 0 0 0
666 666 692 697 730 756 781 803 821 842 867 891 907 922 938 939 939 939 937 926 909 891 873 873 873 875 883 896 910 913 921 927 932 935 938 941 944 946 948 950 952 955 957 959 960 962 964 966 967 969 970 972 973 974 976 977 978 979 981 983 983 984 986 987 988 988 990 990 991 993 995 995 997 998 999 1001 1001 1002 1003 1003 1004 1004 1005 1006 1008 1008 1009 1010 1011 1011 1013 1014 1014 1015 1015 1016 1016 1016 1016 1016 1016 1016 1017 1016 1016 1015 1014 1013 1007 996 976 0 0 884 884 884 884 885 885 887 887 889 899 910 913 918 918 930 950 964 971 991 1006 1018 1024 1036 1047 1049 1049 1050 1051 1054 1055 1056 1056 1056 1057 1057 1056 1055 1050 1045 1034 1018 991 963 954 952 951 950 949 948 946 946 946 946 946 947 947 949 950 952 954 954 956 958 962 965 968 972 976 980 984 987 989 992 996 1003 1010 1019 1047 1066 1075 1082 1088 1093 1093 1093 1090 1089 1089 1089 1087 1082 1076 1068 1057 1039 1027 1017 1013 1010 1009 1009 1009 1010 1014 1017 1021 1024 1027 1030 1033 1035 1038 1041 1050 1065 1083 1103 1122 1129 1133 1139 1143 1144 1146 1148 1150 1152 1153 1154 1156 1158 1159 1160 1162 1163 1164 1165 1166 1166 1167 1168 1168 1169 1169 1169 1169 1169 1169 1169 1169 1169 1168 1164 1164 1164 1166 1172 1177 1181 1186 1188 1191 1191 1193 1195 1196 1198 1199 1201 1202 1203 1204 1205 1207 1209 1210 1211 1212 1212 1214 1214 1214 1214 1214 1214 1211 1207 1199 1186 1176 1170 1167 1162 1156 1155 1155 1155 1157 1160 1163 1167 1170 1171 1173 1177 1179 1185 1198 1213 1221 1223 1226 1229 1234 1242 1243 1243 1243 1240 1236 1230 1217 1202 1195 1192 1188 1186 1186 1185 1181 1179 1177 1175 1175 1173 1173 1173 1175 1178 1180 1182 1186 1188 1191 1191 1198 1208 1222 1234 1259 1280 1286 1289 1293 1296 1298 1301 1304 1305 1307 1309 1309 1311 1312 1314 1316 1317 1318 1318 1320 1321 1322 1323 1324 1325 1326 1327 1328 1329 1330 1332 1334 1336 1338 1339 1340 1343 1344 1346 1347 1349 1351 1353 1358 1359 1361 1365 1372 1373 1374 1383 1388 1392 1400 1425 1437 1446 1446 1446 1446 1446 1455 1462 1469 1474 1474 1477 1481 1481 1481 1467 1463 1463 1463 0 0 0 2591 2857 2961 2961 2961 2938 2923 2914 2845 2781 0 0 0 0 0 0 1597 1597 1594 1590 1588 1588 1588 1587 1585 1585 1581 1575 1571 1571 1570 1568 1566 1562 1558 1553 1551 1550 1549 1547 1545 1541 1538 1538 1538 1538 1538 1536 1535 1533 1532 1531 1530 1529 1527 1525 1525 1525 1527 1527 1527 1529 1529 1530 1530 1530 1532 1532 1533 1534 1535 1536 1537 1538 1538 1539 1540 1541 1543 1544 1546 1547 1548 1549 1550 1552 1552 1552 1552 1551 1550 1549 1548 1548 1547 1546 1546 1545 1543 1541 1540 1537 1534 1532 1532 1529 1523 1516 1510 1508 1506 1503 1496 1493 1488 1482 1474 1472 1468 1462 1454 1453 1452 1450 1444 1441 1441 1441 1441 1441 1440 1434 1420 1409 1401 1398 1390 1378 1364 1357 1353 1347 1336 1325 1320 1313 1302 1284 1272 1265 1261 1257 1253 1249 1245 1242 1239 1236 1232 1230 1226 1222 1212 1200 1189 1181 1181 1181 1180 1180 1180 1171 1158 1145 1134 1123 1114 1108 1103 1100 1094 1087 1083 1077 1071 1068 1068 1067 1067 1067 1055 1034 1013 999 991 984 973 0 0 0
657 657 692 693 0 753 778 803 821 839 864 888 907 922 938 938 938 918 908 896 892 873 867 867 867 873 879 891 901 904 915 922 928 932 938 941 944 946 949 951 954 956 958 959 961 963 965 967 968 969 972 972 975 976 977 978 979 981 982 984 984 985 986 988 989 990 991 992 994 995 996 997 997 999 1000 1001 1002 1003 1004 1005 1005 1006 1007 1008 1009 1010 1010 1011 1012 1012 1014 1014 1016 1016 1017 1017 1017 1018 1018 1018 1018 1018 1018 1018 1018 1018 1016 1014 1008 1001 993 0 0 904 890 890 890 892 892 893 894 900 915 926 928 934 941 959 976 983 995 1009 1026 1038 1042 1049 1051 1051 1052 1053 1054 1055 1056 1057 1057 1058 1058 1058 1058 1057 1051 1046 1040 1029 1005 973 956 955 954 952 951 950 949 949 949 948 948 948 948 949 950 952 954 955 956 958 962 965 967 970 975 980 984 986 989 992 996 1003 1009 1019 1043 1060 1071 1074 1085 1092 1092 1092 1088 1087 1084 1078 1075 1068 1057 1044 1033 1023 1018 1017 1013 1010 1009 1009 1009 1010 1011 1012 1018 1023 1027 1029 1032 1034 1037 1041 1049 1058 1076 1097 1115 1124 1133 1139 1143 1144 1146 1148 1150 1152 1154 1155 1157 1158 1159 1160 1162 1163 1164 1165 1166 1166 1167 1167 1168 1168 1168 1169 1169 1169 1168 1168 1168 1168 1168 1165 1165 1165 1170 1177 1182 1185 1187 1190 1191 1192 1195 1196 1198 1199 1201 1202 1204 1205 1206 1207 1208 1211 1211 1213 1213 1214 1215 1216 1216 1216 1216 1216 1215 1213 1207 1197 1180 1173 1170 1163 1160 1159 1157 1157 1157 1162 1167 1170 1172 1175 1178 1181 1195 1206 1214 1223 1229 1231 1234 1237 1238 1242 1244 1245 1245 1244 1241 1232 1223 1206 1195 1192 1189 1189 1188 1188 1185 1183 1180 1176 1176 1175 1175 1175 1175 1178 1180 1181 1183 1188 1191 1193 1201 1211 1222 1229 1255 1279 1287 1290 1295 1297 1299 1303 1305 1306 1308 1309 1311 1312 1313 1315 1316 1318 1319 1320 1321 1322 1323 1324 1325 1326 1328 1329 1330 1331 1331 1334 1335 1337 1338 1340 1342 1343 1345 1346 1348 1349 1352 1355 1358 1360 1363 1367 1372 1374 1374 1387 1407 1410 1432 1442 1451 1453 1454 1454 1456 1460 1466 1475 1481 1482 1483 1483 1482 1481 1478 1467 1467 0 0 0 0 0 2814 2979 2979 2979 2956 2917 2891 2827 0 0 0 0 0 0 0 1598 1597 1596 1596 1591 1590 1589 1588 1587 1585 1583 1579 1575 1571 1567 1566 1564 1560 1556 1552 1547 1545 1543 1542 1542 1542 1539 1538 1538 1538 1538 1538 1536 1534 1533 1532 1531 1530 1529 1528 1526 1526 1526 1526 1527 1527 1529 1530 1531 1531 1531 1532 1533 1533 1534 1535 1537 1537 1539 1539 1540 1542 1543 1543 1545 1546 1548 1548 1550 1552 1553 1553 1553 1553 1551 1550 1549 1548 1548 1547 1546 1546 1545 1543 1541 1540 1536 1533 1532 1529 1525 1518 1512 1507 1504 1503 1501 1493 1487 1479 1472 1466 1465 1463 1457 1451 1451 1450 1449 1443 1440 1438 1438 1438 1436 1433 1428 1420 1409 1400 1396 1387 1378 1366 1362 1359 1350 1338 1326 1320 1318 1312 1304 1294 1283 1270 1265 1261 1254 1248 1242 1240 1237 1237 1235 1230 1222 1210 1200 1189 1185 1185 1185 1187 1187 1187 1173 1159 1148 1136 1124 1115 1110 1105 1101 1096 1091 1088 1077 1071 1071 1070 1070 1070 1057 1039 1023 1013 999 991 984 973 0 0 0
643 643 676 0 0 0 776 799 819 836 857 884 901 904 904 904 898 883 0 0 861 850 850 850 856 872 876 883 893 904 908 916 923 932 938 941 944 947 949 952 954 956 959 960 962 963 965 967 969 971 972 973 975 976 978 980 981 982 983 985 986 987 988 989 990 991 992 993 995 996 997 997 999 1000 1001 1002 1003 1004 1005 1005 1006 1007 1008 1009 1010 1010 1011 1012 1012 1013 1015 1015 1016 1017 1017 1018 1018 1019 1019 1019 1019 1019 1019 1019 1019 1019 1019 1018 1016 1016 1012 1001 0 0 897 897 897 899 899 900 900 914 937 953 956 968 979 987 998 1017 1029 1034 1039 1047 1048 1050 1052 1053 1055 1055 1056 1057 1057 1059 1059 1059 1059 1059 1059 1058 1054 1050 1045 1036 1020 993 969 960 957 954 952 951 951 951 951 950 950 950 950 950 950 952 954 956 956 959 962 965 967 970 975 980 983 986 991 996 999 1004 1009 1019 1025 1045 1064 1067 1082 1091 1091 1091 1088 1079 1066 1057 1052 1044 1033 1022 1019 1018 1018 1016 1013 1010 1009 1009 1009 1010 1011 1012 1018 1023 1026 1029 1031 1034 1037 1040 1044 1051 1074 1088 1105 1122 1131 1137 1142 1144 1146 1148 1150 1152 1154 1155 1157 1158 1159 1160 1162 1163 1164 1165 1165 1166 1166 1167 1167 1167 1167 1167 1167 1167 1167 1167 1167 1167 1164 1164 1164 1166 1172 1178 1183 1187 1189 1191 1192 1193 1196 1197 1199 1201 1203 1204 1205 1206 1208 1209 1210 1211 1213 1214 1215 1216 1217 1217 1217 1217 1217 1217 1216 1213 1208 1200 1184 1176 1172 1166 1165 1165 1163 1163 1163 1167 1173 1178 1181 1184 1191 1202 1208 1214 1217 1225 1232 1238 1241 1244 1245 1246 1246 1247 1248 1247 1246 1240 1229 1214 1195 1192 1191 1191 1191 1189 1188 1186 1184 1180 1176 1175 1175 1175 1175 1178 1180 1181 1183 1188 1193 1198 1206 1215 1225 1229 1250 1273 1288 1293 1295 1298 1301 1304 1306 1307 1309 1310 1312 1313 1315 1316 1317 1318 1320 1320 1322 1323 1324 1325 1327 1327 1328 1329 1330 1331 1332 1334 1336 1338 1340 1341 1343 1345 1347 1348 1350 1351 1353 1357 1362 1365 1367 1372 1380 1387 1395 1419 1439 1440 1444 1448 1452 1456 1456 1456 1457 1462 1477 1481 1486 1486 1486 1484 1481 1478 1478 1478 0 0 0 0 0 2791 2984 2998 2998 2998 2953 2902 2831 2676 0 0 0 0 0 0 1600 1599 1596 1596 1596 1592 1591 1590 1588 1587 1585 1582 1576 1573 1569 1565 1563 1561 1559 1555 1552 1547 1544 1542 1541 1539 1539 1539 1538 1538 1538 1538 1537 1536 1534 1533 1532 1531 1531 1530 1529 1527 1526 1526 1526 1527 1527 1529 1530 1531 1531 1531 1532 1533 1534 1535 1537 1538 1539 1539 1540 1541 1542 1543 1544 1545 1546 1548 1549 1550 1552 1553 1553 1553 1553 1551 1550 1549 1548 1548 1547 1546 1546 1545 1543 1541 1538 1535 1533 1529 1526 1520 1514 1509 1504 1502 1500 1498 1488 1480 1470 1463 1459 1456 1455 1451 1447 1446 1446 1446 1441 1439 1437 1434 1432 1430 1427 1426 1420 1409 1400 1394 1387 1378 1373 1368 1361 1352 1344 1331 1323 1319 1312 1306 1298 1291 1286 1279 1275 1264 1252 1245 1240 1240 1238 1235 1230 1222 1210 1200 1190 1187 1187 1187 1187 1187 1187 1178 1160 1154 1147 1137 1123 1118 1113 1101 1096 1094 1090 1079 1071 1071 1070 1070 1070 1053 1032 1023 1013 999 991 989 980 0 0 0
0 0 0 0 0 0 0 0 0 828 848 873 878 878 878 871 870 0 0 0 816 816 816 824 830 855 869 874 883 899 904 914 922 930 937 942 945 947 950 953 955 957 959 961 962 964 966 968 969 972 974 974 977 978 979 980 983 984 985 986 987 988 989 990 991 992 993 994 995 996 998 999 1000 1001 1002 1002 1004 1005 1006 1007 1007 1008 1009 1009 1011 1012 1013 1014 1014 1015 1015 1016 1017 1017 1018 1018 1019 1020 1020 1020 1021 1021 1021 1021 1020 1019 1019 1019 1019 1018 1017 1010 0 0 917 905 905 905 906 914 929 951 971 985 988 996 1005 1013 1023 1034 1045 1046 1048 1048 1049 1051 1054 1056 1056 1057 1057 1058 1059 1059 1060 1060 1061 1061 1061 1060 1057 1054 1050 1041 1031 1021 996 962 958 955 953 953 953 952 952 951 950 950 950 950 952 954 956 957 959 961 964 966 967 970 975 980 983 986 993 999 1004 1008 1009 1019 1025 1045 1064 1067 1073 1082 1082 1082 1077 1065 1046 1038 1035 1035 1026 1022 1019 1018 1017 1016 1014 1011 1009 1009 1009 1010 1011 1012 1017 1021 1024 1027 1030 1032 1035 1038 1039 1047 1056 1072 1090 1112 1126 1134 1142 1144 1146 1148 1150 1152 1154 1156 1157 1158 1159 1160 1162 1163 1164 1164 1165 1165 1166 1166 1166 1166 1166 1165 1165 1165 1165 1165 1165 1160 1160 1160 1161 1167 1172 1178 1185 1189 1190 1192 1194 1195 1197 1198 1200 1202 1204 1205 1207 1208 1209 1211 1211 1213 1214 1215 1216 1217 1218 1219 1219 1218 1218 1218 1217 1214 1211 1204 1197 1188 1173 1171 1171 1170 1165 1165 1165 1173 1183 1188 1190 1197 1208 1213 1219 1222 1228 1235 1243 1248 1249 1249 1250 1250 1250 1250 1250 1250 1249 1244 1235 1217 1198 1194 1193 1193 1193 1191 1189 1187 1185 1180 1178 1176 1175 1175 1175 1178 1180 1181 1183 1188 1195 1202 1208 1226 1229 1231 1250 1273 1289 1294 1297 1298 1302 1304 1307 1308 1310 1311 1313 1314 1315 1316 1317 1319 1320 1322 1323 1324 1325 1327 1327 1328 1329 1329 1331 1331 1332 1334 1337 1339 1341 1342 1343 1346 1349 1350 1352 1352 1355 1360 1367 1373 1376 1385 1399 1411 1429 1442 1451 1451 1452 1452 1457 1457 1458 1459 1459 1466 1481 1489 1490 1490 1490 1484 1484 1478 1478 1486 0 0 0 0 2612 2924 2993 2998 2998 2998 2935 2900 2758 2162 0 0 0 0 0 1596 1596 1596 1596 1596 1596 1594 1592 1590 1588 1587 1585 1580 1576 1570 1568 1565 1563 1561 1557 1555 1551 1546 1543 1540 1540 1539 1539 1539 1538 1538 1538 1538 1536 1535 1534 1533 1532 1531 1531 1530 1530 1528 1526 1526 1526 1527 1527 1530 1531 1531 1531 1531 1532 1534 1534 1536 1538 1539 1540 1540 1540 1541 1542 1543 1544 1546 1547 1548 1549 1550 1552 1553 1553 1553 1553 1551 1550 1549 1548 1548 1546 1545 1544 1542 1540 1539 1537 1534 1529 1522 1519 1515 1510 1506 1503 1498 1494 1488 1479 1472 1465 1460 1456 1455 1454 1451 1447 1443 1439 1439 1438 1436 1434 1430 1428 1425 1421 1421 1420 1409 1400 1393 1386 1378 1373 1368 1361 1354 1348 1340 1328 1320 1312 1306 1299 1297 1287 1284 1281 1270 1258 1250 1245 1241 1238 1236 1232 1223 1210 1198 1192 1188 1188 1188 1189 1189 1189 1178 1164 1163 1158 1150 1127 1125 1121 1108 1101 1098 1091 1084 1078 1074 1074 1073 1068 1053 1030 1021 1021 1020 1003 997 983 0 0 0
0 0 0 0 0 0 0 0 0 0 0 859 859 859 853 845 0 0 0 801 801 807 813 822 829 839 849 858 871 892 896 910 920 928 937 942 945 947 950 953 955 958 959 962 963 965 967 969 971 972 974 976 978 979 980 981 984 985 986 987 989 990 991 991 993 994 994 996 996 998 998 1000 1001 1002 1003 1004 1004 1005 1006 1008 1009 1009 1010 1011 1012 1013 1013 1014 1015 1015 1017 1017 1019 1019 1019 1020 1020 1021 1021 1021 1022 1022 1022 1021 1020 1020 1020 1020 1020 1020 1019 1011 1002 992 953 923 923 923 932 950 972 991 1001 1005 1008 1019 1026 1032 1039 1042 1046 1049 1050 1051 1052 1053 1056 1057 1058 1059 1059 1060 1061 1061 1062 1062 1062 1062 1062 1062 1062 1058 1052 1047 1041 1033 1014 987 959 955 953 953 953 953 953 952 951 951 951 951 952 954 957 959 960 962 964 967 969 973 977 981 983 988 997 1003 1007 1009 1012 1019 1025 1045 1064 1067 1071 1071 1071 1065 1055 1046 1035 1027 1027 1026 1025 1022 1019 1018 1017 1016 1015 1012 1009 1009 1009 1011 1013 1015 1016 1020 1023 1026 1028 1031 1033 1036 1038 1042 1050 1061 1082 1100 1115 1127 1138 1144 1146 1148 1150 1152 1154 1156 1157 1158 1159 1160 1162 1163 1163 1163 1164 1164 1164 1164 1164 1164 1164 1164 1161 1159 1158 1157 1155 1155 1155 1156 1159 1167 1172 1179 1185 1189 1192 1194 1195 1197 1199 1200 1202 1203 1205 1206 1208 1209 1210 1211 1213 1214 1215 1216 1217 1218 1219 1220 1220 1220 1220 1219 1218 1217 1215 1213 1210 1203 1187 1176 1174 1172 1171 1171 1171 1182 1185 1198 1211 1214 1220 1226 1230 1236 1241 1245 1249 1251 1252 1252 1253 1253 1253 1253 1253 1252 1250 1245 1235 1222 1203 1194 1193 1193 1193 1191 1189 1187 1185 1180 1179 1177 1174 1174 1174 1179 1181 1183 1187 1192 1196 1202 1209 1226 1234 1240 1250 1273 1289 1294 1297 1300 1304 1306 1307 1309 1311 1312 1314 1315 1316 1317 1318 1320 1321 1322 1323 1324 1326 1327 1327 1329 1329 1330 1331 1331 1333 1334 1338 1340 1342 1344 1345 1347 1349 1351 1352 1353 1358 1366 1374 1381 1385 1403 1427 1457 1465 1465 1465 1460 1460 1460 1460 1460 1460 1460 1460 1471 1482 1494 1494 1494 1491 1488 1488 1488 1494 0 0 0 0 2604 2913 2993 2993 2993 2987 2949 2896 2793 2315 1955 0 0 0 0 1592 1592 1592 1603 1603 1603 1601 1596 1595 1592 1589 1587 1585 1580 1574 1569 1566 1564 1562 1560 1557 1554 1550 1546 1541 1539 1539 1539 1539 1539 1538 1538 1538 1537 1536 1535 1534 1533 1532 1531 1531 1531 1531 1530 1529 1528 1528 1528 1529 1530 1530 1530 1531 1531 1532 1534 1535 1536 1538 1540 1540 1540 1542 1543 1543 1543 1545 1546 1547 1548 1549 1550 1552 1553 1553 1553 1553 1551 1550 1548 1548 1547 1546 1543 1541 1538 1535 1533 1530 1527 1523 1517 1514 1510 1506 1503 1497 1493 1486 1481 1475 1469 1463 1459 1455 1455 1453 1451 1446 1442 1439 1437 1434 1433 1430 1428 1425 1423 1420 1420 1420 1409 1400 1393 1386 1378 1373 1368 1361 1356 1354 1348 1337 1327 1313 1307 1302 1298 1293 1287 1283 1271 1266 1255 1253 1244 1240 1237 1233 1223 1210 1200 1194 1189 1189 1189 1189 1189 1188 1181 1167 1163 1158 1155 1140 1132 1131 1119 1108 1098 1091 1086 1082 1078 1076 1073 1062 1050 1029 1021 1021 1021 1020 1013 989 0 0 0
0 0 0 0 0 0 0 0 0 0 0 0 0 0 0 0 0 0 0 780 787 804 809 822 829 839 849 858 866 880 886 902 916 926 935 942 945 948 950 953 955 958 960 963 964 966 968 970 972 973 975 977 978 980 981 982 985 986 987 989 990 991 992 993 994 995 996 996 997 998 1000 1001 1002 1003 1004 1005 1005 1007 1007 1008 1010 1010 1011 1012 1012 1014 1014 1015 1016 1017 1018 1019 1019 1020 1021 1021 1021 1022 1022 1022 1022 1022 1022 1022 1021 1020 1020 1020 1021 1021 1021 1016 1009 1000 970 950 950 950 967 986 1003 1014 1016 1020 1023 1029 1034 1040 1049 1049 1050 1051 1053 1053 1053 1055 1057 1059 1060 1060 1061 1062 1062 1063 1063 1063 1064 1064 1064 1064 1064 1062 1057 1054 1048 1041 1028 1008 981 955 954 954 954 953 953 953 953 953 953 953 954 956 958 961 962 964 966 969 972 976 981 984 988 994 1000 1005 1010 1016 1027 1035 1043 1063 1070 1072 1072 1071 1071 1065 1055 1030 1029 1026 1024 1023 1023 1022 1020 1018 1017 1016 1015 1013 1012 1012 1012 1012 1013 1015 1016 1019 1022 1023 1027 1030 1033 1034 1036 1042 1050 1060 1077 1091 1110 1124 1134 1142 1146 1148 1150 1152 1154 1156 1157 1158 1158 1160 1161 1162 1162 1163 1163 1163 1163 1162 1161 1161 1160 1160 1156 1151 1145 1141 1141 1141 1142 1156 1161 1167 1172 1179 1185 1189 1192 1195 1196 1198 1200 1201 1203 1205 1206 1208 1209 1211 1211 1213 1214 1216 1217 1218 1219 1219 1221 1221 1221 1221 1221 1220 1219 1217 1217 1216 1214 1209 1198 1183 1180 1174 1174 1174 1187 1189 1190 1201 1219 1226 1231 1236 1237 1241 1246 1249 1251 1252 1254 1255 1256 1257 1257 1257 1256 1253 1253 1252 1242 1225 1212 1196 1193 1193 1193 1192 1189 1187 1185 1180 1180 1177 1175 1175 1175 1180 1182 1184 1188 1193 1197 1203 1212 1226 1239 1241 1255 1280 1292 1294 1298 1301 1307 1309 1309 1311 1312 1314 1314 1315 1317 1319 1319 1320 1322 1322 1323 1325 1326 1327 1328 1329 1329 1330 1331 1332 1333 1335 1338 1342 1344 1345 1346 1348 1351 1354 1355 1359 1363 1367 1379 1386 1411 1433 1463 1477 1477 1477 1474 1468 1468 1468 1467 1467 1467 1467 1467 1471 1482 1494 1495 1495 1495 1495 1495 1498 0 0 0 0 2610 2927 2991 2991 2991 2975 2930 2871 2768 0 0 0 0 0 0 1603 1597 1597 1597 1604 1604 1604 1601 1598 1596 1592 1590 1587 1584 1580 1574 1569 1566 1564 1562 1560 1556 1550 1545 1541 1536 1536 1536 1537 1537 1537 1538 1537 1537 1537 1536 1535 1534 1533 1533 1532 1532 1532 1531 1531 1529 1528 1528 1528 1529 1530 1530 1530 1531 1531 1532 1534 1535 1536 1538 1540 1540 1541 1542 1543 1543 1544 1545 1546 1547 1548 1549 1550 1552 1553 1553 1553 1552 1551 1549 1548 1547 1546 1543 1539 1536 1532 1530 1526 1521 1517 1517 1514 1509 1504 1499 1492 1488 1484 1479 1475 1470 1467 1462 1459 1454 1453 1453 1449 1445 1440 1439 1435 1432 1431 1430 1427 1423 1422 1420 1420 1419 1409 1400 1392 1382 1377 1368 1360 1357 1356 1356 1356 1347 1330 1313 1309 1304 1301 1299 1290 1285 1275 1266 1262 1258 1253 1244 1239 1233 1225 1212 1201 1194 1194 1193 1192 1192 1190 1187 1181 1167 1163 1158 1156 1150 1139 1134 1126 1117 1104 1092 1086 1086 1081 1079 1072 1062 1046 1023 1021 1021 1021 1032 1032 1032 0 0 0
0 0 0 0 0 0 0 0 0 0 0 0 0 0 0 0 0 0 0 760 778 790 809 819 829 839 849 858 865 877 881 897 912 924 935 941 945 948 950 953 955 959 961 963 965 967 969 970 972 974 976 978 979 981 982 984 985 986 988 989 991 992 992 995 995 996 997 997 999 1000 1001 1002 1002 1004 1005 1006 1006 1008 1009 1009 1010 1012 1013 1013 1014 1014 1015 1016 1017 1018 1019 1019 1020 1021 1021 1022 1022 1022 1022 1023 1023 1023 1023 1022 1021 1021 1021 1022 1022 1022 1022 1019 1016 1005 987 975 975 975 995 1008 1018 1023 1026 1030 1031 1038 1045 1049 1050 1052 1052 1054 1055 1056 1056 1057 1059 1060 1061 1062 1062 1063 1063 1064 1065 1065 1065 1066 1066 1065 1065 1064 1062 1058 1055 1050 1042 1024 991 967 956 956 955 955 955 955 955 955 956 957 958 959 961 963 964 966 968 970 973 978 983 988 993 999 1006 1013 1026 1035 1045 1057 1068 1081 1081 1081 1080 1078 1071 1065 1055 1030 1026 1025 1022 1022 1022 1021 1020 1018 1017 1016 1015 1013 1013 1013 1013 1014 1015 1016 1016 1018 1020 1023 1026 1029 1032 1033 1035 1041 1049 1060 1075 1090 1108 1122 1131 1138 1145 1148 1150 1152 1154 1156 1158 1158 1158 1159 1159 1161 1161 1161 1161 1161 1161 1161 1160 1157 1153 1150 1143 1134 1132 1131 1131 1131 1142 1156 1161 1166 1172 1179 1183 1189 1192 1195 1197 1199 1201 1203 1205 1206 1208 1209 1210 1211 1212 1214 1216 1217 1218 1219 1220 1221 1221 1222 1222 1222 1222 1221 1221 1220 1218 1217 1215 1209 1202 1193 1193 1193 1194 1195 1195 1204 1206 1216 1227 1234 1238 1241 1242 1246 1251 1252 1254 1255 1256 1257 1258 1258 1258 1258 1258 1256 1254 1254 1247 1231 1217 1201 1195 1195 1194 1192 1189 1187 1185 1180 1180 1180 1176 1176 1176 1180 1184 1186 1192 1195 1197 1203 1212 1228 1239 1244 1265 1282 1292 1294 1299 1302 1309 1311 1311 1313 1313 1314 1316 1317 1318 1319 1320 1321 1322 1323 1324 1325 1327 1327 1329 1329 1330 1331 1332 1332 1334 1335 1338 1343 1346 1346 1350 1352 1352 1356 1358 1362 1369 1374 1386 1409 1430 1448 1463 1477 1477 1477 1476 1474 1473 1473 1473 1473 1473 1475 1476 1478 1483 1495 1500 1505 1506 1512 0 0 0 0 0 2582 2912 2986 2986 2986 2981 2946 2893 2778 0 0 0 0 0 1659 1616 1600 1600 1600 1605 1605 1605 1605 1601 1599 1597 1593 1590 1586 1584 1579 1574 1569 1566 1562 1560 1558 1552 1542 1538 1538 1535 1535 1535 1535 1536 1536 1536 1537 1537 1537 1536 1535 1534 1534 1533 1533 1532 1532 1532 1531 1530 1528 1528 1528 1529 1529 1530 1530 1530 1531 1534 1535 1536 1537 1538 1540 1540 1541 1542 1543 1544 1544 1545 1546 1547 1547 1548 1550 1552 1552 1552 1552 1551 1551 1549 1546 1544 1543 1540 1537 1532 1528 1524 1522 1519 1516 1516 1512 1509 1502 1491 1486 1481 1479 1475 1471 1467 1464 1462 1458 1454 1453 1451 1448 1445 1440 1435 1431 1429 1428 1426 1424 1420 1420 1419 1419 1417 1409 1400 1387 1376 1370 1361 1356 1356 1356 1356 1356 1347 1334 1315 1310 1308 1305 1304 1297 1293 1282 1273 1264 1260 1254 1248 1243 1235 1226 1214 1204 1194 1194 1194 1193 1192 1190 1187 1181 1167 1161 1160 1156 1151 1145 1137 1129 1121 1113 1101 1097 1094 1089 1080 1069 1061 1046 1023 1021 1021 1021 1032 1032 1032 0 0 0
0 0 0 0 0 0 0 0 0 0 0 0 0 0 0 0 0 0 0 0 771 780 802 819 831 843 850 857 865 876 881 894 909 921 931 938 944 947 950 953 955 959 961 963 965 967 969 970 973 975 977 978 980 981 983 984 986 987 989 990 992 993 993 995 996 997 998 999 1000 1000 1001 1002 1003 1004 1005 1007 1007 1008 1010 1010 1011 1012 1013 1014 1015 1016 1016 1017 1018 1018 1020 1020 1021 1021 1022 1022 1022 1023 1023 1023 1023 1023 1023 1022 1021 1021 1021 1022 1022 1022 1022 1019 1016 1012 1004 995 995 995 1009 1018 1025 1034 1040 1041 1043 1046 1049 1051 1052 1052 1053 1055 1056 1058 1058 1059 1061 1061 1062 1063 1063 1064 1065 1065 1066 1066 1066 1066 1066 1066 1066 1065 1064 1064 1060 1052 1046 1034 1009 975 964 958 957 956 956 956 958 959 961 961 962 962 963 965 966 969 973 975 975 981 986 991 998 1009 1024 1038 1049 1056 1065 1072 1082 1089 1089 1089 1087 1084 1082 1080 1060 1030 1026 1023 1021 1020 1020 1020 1020 1018 1017 1016 1015 1014 1014 1014 1014 1014 1015 1016 1016 1016 1018 1021 1025 1029 1031 1033 1035 1041 1049 1058 1073 1090 1108 1117 1128 1138 1144 1148 1150 1152 1154 1157 1157 1158 1158 1158 1159 1159 1158 1158 1157 1157 1157 1154 1151 1143 1136 1129 1120 1118 1118 1120 1122 1129 1141 1156 1156 1157 1166 1175 1181 1188 1192 1195 1197 1199 1202 1204 1206 1208 1209 1210 1211 1212 1214 1215 1216 1217 1219 1220 1221 1221 1222 1222 1222 1222 1222 1222 1222 1222 1220 1219 1217 1217 1216 1214 1207 1204 1204 1204 1204 1212 1221 1230 1234 1236 1241 1243 1247 1250 1253 1255 1257 1258 1259 1260 1261 1261 1261 1261 1261 1259 1258 1257 1249 1240 1224 1201 1195 1195 1194 1192 1189 1187 1185 1182 1182 1182 1183 1185 1186 1187 1189 1191 1193 1195 1197 1204 1214 1228 1241 1269 1272 1283 1292 1294 1299 1305 1310 1311 1313 1313 1314 1316 1317 1318 1319 1320 1320 1321 1322 1324 1325 1326 1327 1328 1329 1330 1331 1332 1333 1333 1334 1336 1339 1344 1347 1350 1353 1353 1356 1360 1361 1374 1393 1397 1412 1422 1431 1449 1463 1477 1477 1479 1480 1480 1480 1480 1479 1479 1479 1482 1483 1484 1485 1497 1507 1512 0 0 0 0 0 0 2521 2880 2984 2986 2986 2986 2973 2904 2809 0 0 0 0 0 1682 1648 1607 1607 1607 1609 1609 1609 1607 1607 1603 1600 1597 1593 1590 1586 1582 1579 1573 1569 1565 1561 1559 1553 1543 1541 1538 1536 1535 1535 1535 1535 1535 1535 1536 1537 1537 1537 1537 1536 1535 1534 1533 1533 1533 1533 1532 1531 1530 1528 1528 1528 1528 1528 1529 1530 1533 1533 1534 1536 1538 1539 1539 1540 1540 1541 1542 1543 1544 1544 1545 1546 1547 1547 1548 1550 1551 1551 1551 1550 1549 1548 1547 1545 1542 1539 1537 1533 1528 1524 1522 1519 1515 1514 1512 1512 1508 1499 1489 1482 1479 1477 1474 1469 1466 1463 1460 1457 1454 1453 1450 1448 1442 1434 1430 1427 1423 1423 1422 1418 1415 1414 1413 1411 1409 1398 1389 1379 1374 1359 1355 1353 1353 1353 1350 1350 1347 1338 1338 1330 1320 1313 1308 1304 1300 1296 1285 1274 1262 1258 1251 1243 1238 1232 1221 1210 1198 1195 1194 1193 1192 1189 1185 1181 1167 1161 1160 1159 1154 1145 1138 1131 1125 1117 1110 1102 1096 1091 1081 1071 1061 1046 1023 1021 1021 1021 1035 1035 1035 0 0 0
412 412 417 0 0 0 0 0 0 0 0 0 0 0 0 0 0 0 0 0 758 772 797 819 831 843 850 857 866 876 881 891 904 915 927 937 942 947 950 952 956 959 961 964 966 968 970 971 973 975 977 978 980 982 983 985 987 988 990 991 992 994 995 996 997 998 999 1000 1000 1002 1003 1004 1004 1005 1007 1007 1008 1010 1011 1011 1012 1013 1014 1015 1016 1016 1017 1017 1018 1019 1020 1020 1021 1022 1022 1022 1022 1023 1023 1023 1023 1023 1023 1022 1022 1022 1022 1023 1023 1023 1023 1019 1016 1012 1004 1004 1004 1010 1022 1032 1036 1040 1045 1046 1046 1047 1049 1051 1053 1054 1054 1055 1057 1058 1059 1060 1061 1062 1062 1064 1065 1066 1067 1067 1067 1067 1067 1067 1067 1067 1067 1067 1066 1066 1060 1056 1050 1043 1027 997 967 962 958 956 956 956 960 962 962 962 962 963 964 965 968 972 978 983 986 991 993 999 1011 1024 1039 1052 1061 1071 1078 1089 1096 1096 1096 1094 1094 1091 1089 1088 1072 1038 1029 1023 1021 1020 1020 1019 1018 1017 1017 1016 1015 1014 1014 1014 1014 1014 1015 1016 1016 1016 1017 1019 1023 1028 1031 1033 1035 1041 1047 1055 1069 1088 1106 1115 1126 1138 1143 1148 1150 1152 1154 1157 1157 1158 1158 1158 1158 1156 1156 1155 1155 1155 1147 1142 1131 1127 1125 1120 1118 1115 1115 1115 1117 1124 1137 1149 1156 1156 1159 1172 1180 1186 1191 1195 1198 1201 1202 1204 1206 1208 1209 1211 1212 1214 1214 1215 1217 1218 1220 1220 1222 1222 1222 1223 1224 1224 1224 1223 1222 1222 1222 1221 1221 1221 1221 1221 1210 1210 1210 1216 1226 1230 1234 1238 1241 1243 1245 1248 1250 1252 1255 1256 1258 1259 1261 1262 1263 1263 1263 1263 1263 1261 1259 1257 1255 1244 1231 1211 1197 1196 1195 1194 1192 1188 1185 1183 1183 1183 1185 1188 1191 1197 1197 1197 1197 1197 1197 1208 1216 1228 1250 1279 1285 1289 1293 1297 1303 1307 1310 1312 1313 1315 1315 1317 1318 1319 1320 1320 1321 1323 1323 1324 1326 1327 1328 1328 1330 1331 1332 1333 1334 1335 1335 1337 1339 1344 1350 1354 1355 1357 1358 1364 1382 1408 1413 1413 1416 1427 1441 1450 1463 1466 1469 1469 1476 1481 1482 1483 1484 1484 1489 1496 1497 1497 1499 0 0 0 0 0 0 0 0 2522 2862 2984 2984 2984 2980 2947 2874 2692 0 0 0 0 0 0 1653 1626 1611 1611 1610 1610 1610 1609 1607 1607 1603 1600 1598 1594 1590 1586 1581 1577 1573 1569 1565 1560 1555 1549 1543 1541 1538 1536 1534 1532 1532 1532 1532 1534 1535 1537 1537 1537 1537 1536 1535 1535 1535 1534 1533 1533 1532 1531 1530 1528 1527 1527 1527 1528 1529 1530 1534 1537 1538 1539 1539 1539 1539 1540 1540 1541 1542 1543 1543 1544 1545 1545 1545 1547 1548 1549 1551 1551 1551 1548 1546 1545 1545 1544 1542 1537 1533 1529 1526 1521 1518 1514 1513 1510 1510 1510 1504 1498 1489 1482 1476 1475 1471 1467 1464 1462 1459 1455 1452 1449 1446 1443 1438 1432 1427 1423 1420 1418 1415 1412 1409 1408 1405 1402 1398 1390 1383 1377 1372 1359 1355 1353 1350 1349 1348 1347 1346 1338 1338 1332 1326 1319 1313 1310 1306 1305 1300 1291 1281 1270 1256 1243 1239 1236 1233 1226 1212 1197 1195 1191 1190 1186 1185 1181 1167 1161 1160 1159 1155 1146 1138 1133 1130 1123 1114 1104 1096 1091 1082 1071 1062 1050 1036 1025 1025 1025 1040 1040 1040 0 0 0
399 399 403 403 0 0 0 0 0 0 0 0 0 0 0 0 0 0 0 0 742 767 793 815 831 843 850 857 866 876 881 891 901 913 924 933 939 946 948 952 956 959 962 964 967 969 970 972 973 975 977 980 981 983 984 986 988 989 991 992 993 994 996 997 999 999 1000 1001 1001 1003 1003 1005 1006 1006 1007 1009 1009 1010 1011 1012 1013 1014 1015 1015 1017 1017 1018 1019 1019 1020 1020 1020 1021 1022 1022 1022 1022 1023 1023 1023 1023 1023 1023 1022 1022 1022 1022 1022 1022 1022 1022 1018 1016 1012 1004 1004 1004 1013 1023 1032 1036 1040 1045 1046 1046 1048 1049 1051 1053 1054 1054 1056 1058 1060 1060 1061 1063 1063 1064 1065 1066 1067 1067 1068 1068 1069 1069 1069 1069 1069 1069 1069 1069 1068 1065 1059 1054 1047 1036 1023 991 962 959 958 958 958 960 963 964 964 965 965 965 965 969 974 983 991 997 1001 1005 1013 1025 1037 1051 1062 1076 1085 1089 1093 1100 1102 1102 1102 1100 1097 1095 1092 1081 1061 1037 1023 1021 1020 1020 1019 1018 1017 1017 1016 1015 1014 1014 1014 1014 1014 1015 1016 1016 1016 1017 1018 1022 1027 1031 1034 1036 1041 1047 1052 1059 1086 1103 1111 1120 1131 1140 1148 1150 1152 1154 1157 1157 1157 1156 1154 1152 1152 1152 1151 1150 1150 1136 1123 1121 1119 1117 1117 1116 1114 1114 1114 1117 1121 1128 1138 1144 1147 1154 1169 1179 1185 1190 1195 1199 1201 1202 1205 1207 1209 1211 1212 1213 1214 1216 1216 1218 1219 1220 1221 1222 1222 1223 1223 1224 1224 1224 1223 1222 1222 1222 1222 1221 1221 1221 1221 1220 1220 1220 1228 1238 1243 1243 1245 1246 1247 1249 1251 1253 1255 1256 1258 1259 1261 1263 1264 1265 1265 1265 1265 1264 1264 1261 1257 1256 1248 1232 1220 1201 1198 1197 1196 1194 1192 1189 1186 1185 1185 1185 1189 1195 1201 1203 1203 1204 1204 1204 1216 1243 1262 1271 1281 1290 1292 1298 1303 1304 1307 1310 1312 1314 1315 1317 1318 1319 1319 1320 1321 1322 1323 1324 1325 1327 1328 1329 1329 1330 1331 1333 1334 1335 1337 1338 1338 1340 1347 1353 1357 1360 1363 1364 1388 1411 1420 1427 1428 1430 1435 1447 1454 1463 1466 1469 1469 1476 1482 1487 1488 1491 1496 1507 1515 1519 0 0 0 0 0 0 0 0 0 2776 2954 2984 2984 2984 2964 2937 2905 2779 0 0 0 0 0 0 0 1617 1613 1611 1611 1610 1610 1610 1608 1607 1606 1606 1605 1598 1593 1590 1586 1580 1575 1570 1568 1562 1557 1552 1548 1543 1541 1538 1536 1535 1532 1532 1532 1532 1534 1535 1536 1537 1537 1537 1536 1536 1535 1535 1534 1533 1533 1532 1530 1529 1528 1527 1527 1527 1528 1529 1530 1535 1538 1538 1539 1540 1540 1540 1541 1541 1541 1542 1543 1543 1544 1545 1545 1545 1545 1547 1549 1549 1549 1549 1545 1544 1544 1543 1543 1540 1535 1530 1526 1521 1517 1514 1510 1507 1507 1505 1501 1498 1495 1489 1481 1475 1470 1467 1467 1463 1461 1458 1452 1447 1443 1439 1438 1434 1428 1423 1421 1419 1417 1415 1412 1408 1405 1402 1396 1390 1384 1379 1374 1368 1355 1353 1352 1350 1349 1347 1343 1340 1338 1338 1332 1328 1322 1319 1315 1313 1309 1300 1291 1284 1281 1276 1261 1248 1246 1245 1243 1223 1204 1196 1191 1190 1186 1185 1181 1175 1172 1172 1166 1157 1148 1141 1137 1134 1127 1115 1105 1096 1091 1081 1071 1067 1059 1054 1048 1048 1048 1048 1048 1040 0 0 0
