1135 1135 1138 1151 1160 1167 1170 1171 1178 1189 1198 1205 1215 1223 1236 1241 1250 1259 1268 1275 1282 1289 1293 1299 1308 1324 1332 1337 1342 1346 1352 1356 1361 1364 1366 1369 1370 1371 1372 1374 1374 1374 1374 1368 0 0 0 0 0 0 0 0 1421 1432 1435 1438 1439 1441 1442 1443 1443 1444 1446 1449 1451 1451 1451 1447 1444 1444 1444 1474 1474 1474 1470 1432 0 0 0 0 1238 1228 1226 1226 1226 1228 1233 1244 1250 1250 1257 1263 1263 1263 1255 1237 0 0 0 0 0 0 0 0 0 0 0 0 0 0 0 0 0 0 0 0 0 0 0 0 0 0 0 0 0 0 0 0 0 0 739 739 740 741 742 746 746 742 742 0 0 0 0 0 0 0 0 0 0 0 0 0 0 0 0 0 0 0 0 0 0 1729 1747 1752 1756 1761 1764 1765 1765 1765 1766 1767 1767 1768 1768 1769 1770 1771 1771 1772 1772 1774 1775 1776 1777 1777 1779 1779 1780 1781 1781 1782 1782 1783 1784 1784 1784 1784 1785 1785 1785 1786 1787 1787 1788 1788 1789 1790 1791 1792 1793 1793 1794 1795 1795 1795 1796 1797 1797 1797 1798 1799 1800 1800 1800 1801 1803 1805 1805 1805 1806 1806 1806 1808 1811 0 0 0 0 2695 2843 2894 2910 2919 2929 2936 2936 2936 2902 2844 2592 0 0 0 1178 1152 1130 1105 1089 1074 1070 1066 1062 1062 1062 1073 0 0 0 1317 1317 1317 1284 1281 1281 0 0 0 0 0 2501 2501 2527 2501 2494 0 0 0 0 0 0 0 0 0 0 0 0 0 0 0 0 0 0 0 0 0 0 0 0 0 0 0 0 1429 1408 1398 1397 1397 1397 1402 1403 1403 1403 1399 1397 1386 1377 1373 1372 1368 1365 1365 1359 1359 1359 1365 1367 1370 1395 1416 1416 1420 0 0 0 0 0 0 0 0 0 0 0 0 0 0 0 0 0 0 0 0 0 0 0 0 0 0 0 0 0 0 0 0 0 0 0 0 0 0 0 0 0 0 1794 1792 1790 1783 1780 1778 1776 1768 1765 1764 1763 1761 1759 1756 1754 1752 1751 1747 1743 1740 1737 1733 1730 1727 1726 1726 1725 1725 1725 1724 1722 1718 1713 1709 1705 1701 1691 1673 1654 0 1578 1554 1541 1531 1526 1524 1524 1524 1524 1525 1525 1525 1523 1521 1521 1518 1514 1507 1500 1497 1494 1492 1490 1489 1489 1487 1487 1487 1487 1485 1482 1482 1481 1478 1472 1467 1466 1465 1465 1465 1461 1459 1451 1445 1429 1388 1345 1318 1305 1305 1305 1304 1300 1298 1295 1294 1291 1289 1287 1284 1283 1283 1282 1281 1281 1281 1293 1307 1329 1358 1360 1364 1380 1380 1392 1399 1402 1407 1407 1407 1404 1401 1400 1400 1400 1401 1403 1403 1403 1402 1398 1398 1398 1398 1403 1405 1405 1406 1405 1405 1398 1382 1373 1373 1366 1340 1325 1321 1318 1318 1318 1318 1339 1353 1366 1366 1366 1365 1357 1353 1350 1350 1349 1347 1347 1347 1345 1344 1344 1342 1342 1342 1344 1344 1344 1343 1343 1343 1348 1354 1355 1355 1355 1354 1345 1340 1335 1331 1319 1308 1299 1288 1281 1279 1278 1272 1271 1269 1267 1261 1252 1229 1209 1195 1195 1193 1191 1167 1167 1167 1167 1167 1161 1152 1150 1150 1149 1150 1150 1149 1144 1129 1120 1111 1105 1095 1088 1080 1065 1062 1046 1046 1046 1042 1042 1032 1017 997 969 934 934 934 947 948 948 947 947 915 902 902 902 905 905 905 897 897
1136 1136 1140 1151 1159 1167 1170 1174 1181 1189 1198 1210 1220 1228 1236 1241 1250 1259 1268 1276 1284 1291 1295 1302 1314 1324 1332 1338 1342 1347 1353 1356 1360 1363 1366 1367 1368 1370 1372 1373 1373 1373 1373 1366 0 0 0 0 0 0 0 0 1421 1432 1433 1435 1439 1441 1442 1443 1443 1444 1446 1449 1450 1450 1450 1444 1444 1444 1463 1477 1477 1477 0 0 0 0 0 1238 1236 1236 1237 1237 0 0 0 0 0 0 1271 1267 1263 1257 1246 0 0 0 0 0 0 0 0 0 0 0 0 0 0 0 0 0 0 0 0 0 0 0 0 0 0 0 0 0 0 0 0 0 0 0 0 0 750 750 745 745 740 740 740 0 0 0 0 0 0 0 0 0 0 0 0 0 0 0 0 0 0 0 0 0 1726 1744 1747 1752 1756 1760 1762 1763 1763 1764 1765 1766 1767 1767 1768 1769 1769 1769 1770 1771 1772 1774 1774 1776 1776 1777 1779 1779 1780 1781 1781 1782 1782 1783 1783 1784 1784 1784 1785 1785 1785 1786 1787 1787 1788 1788 1789 1790 1791 1792 1793 1793 1794 1795 1795 1796 1796 1796 1797 1797 1798 1799 1799 1800 1800 1801 1803 1803 1803 1805 1803 1803 1803 1805 1811 0 0 0 2625 2829 2891 2901 2910 2919 2929 2929 2929 2922 2889 2758 0 0 0 0 1169 1150 1130 1098 1074 1066 1062 1061 1061 1045 1045 1045 0 0 0 1322 1322 1322 1284 1284 0 0 0 0 0 2549 2549 2549 2545 2501 2494 0 0 0 0 0 0 0 0 0 0 0 0 0 0 0 0 0 0 0 0 0 0 0 0 0 0 0 1419 1415 1407 1383 1380 1380 1380 1382 1383 1387 1389 1389 1389 1386 1377 1372 1366 1366 1364 1364 1359 1359 1359 1367 1370 1380 1387 1387 1389 1395 1399 1415 0 0 0 0 0 0 0 0 0 0 0 0 0 0 0 0 0 0 0 0 0 0 0 0 0 0 0 0 0 0 0 0 0 0 0 0 0 0 0 1793 1789 1789 1785 1777 1776 1775 1773 1768 1764 1763 1763 1761 1759 1754 1751 1750 1747 1744 1741 1739 1736 1733 1729 1727 1725 1725 1723 1719 1719 1718 1717 1716 1713 1709 1705 1701 1700 1694 1682 1660 0 0 0 1531 1526 1526 1525 1525 1525 1526 1526 1526 1525 1525 1522 1519 1516 1508 1504 1499 1494 1492 1491 1490 1490 1490 1489 1488 1488 1486 1484 1483 1480 1476 1470 1467 1466 1466 1465 1465 1461 1459 1455 1451 1448 1417 1383 1353 1328 1320 1310 1308 1304 1299 1298 1297 1295 1291 1288 1288 1287 1286 1286 1286 1287 1296 1313 1334 1364 1370 1373 1394 1397 1404 1407 1408 1410 1410 1410 1410 1407 1403 1401 1401 1401 1402 1403 1403 1403 1402 1398 1396 1396 1396 1401 1405 1405 1406 1405 1405 1398 1392 1387 1378 1372 1356 1325 1321 1318 1318 1318 1318 1324 1334 1344 1359 1359 1359 1355 1352 1350 1349 1347 1346 1346 1345 1344 1344 1342 1340 1340 1340 1344 1344 1344 1341 1337 1337 1337 1349 1353 1353 1353 1350 1344 1336 1331 1323 1316 1308 1298 1290 1282 1278 1278 1274 1274 1273 1271 1268 1263 1255 1254 1241 1220 1203 1191 1167 1167 1165 1164 1164 1158 1152 1150 1150 1149 1149 1149 1138 1126 1121 1117 1108 1105 1095 1088 1080 1071 1062 1051 1051 1051 1045 1045 1037 1007 982 967 930 930 929 929 933 947 947 947 914 899 899 899 905 905 905 885 885
1136 1136 1140 1148 1159 1166 1170 1176 1183 1192 1201 1210 1220 1228 1236 1241 1250 1259 1269 1276 1285 1293 1300 1307 1317 1324 1332 1339 1342 1348 1353 1356 1360 1362 1364 1364 1366 1369 1372 1373 1373 1373 1363 1363 0 0 0 0 0 0 0 0 1421 1431 1432 1434 1437 1440 1441 1442 1443 1444 1446 1450 1450 1450 1447 1447 1447 1453 1473 1473 1473 0 0 0 0 0 1238 1238 1238 1238 1245 0 0 0 0 0 0 0 0 1268 1263 1251 0 0 0 0 0 0 0 0 0 0 0 0 0 0 0 0 0 0 0 0 0 0 0 0 0 0 0 0 0 0 0 0 0 0 0 0 0 0 0 746 745 725 720 720 720 742 0 0 852 880 881 882 895 0 0 0 0 0 0 0 0 0 0 0 0 0 1745 1745 1747 1753 1756 1759 1761 1762 1763 1764 1765 1765 1766 1767 1767 1768 1769 1769 1770 1771 1772 1773 1774 1775 1776 1777 1778 1779 1780 1780 1781 1782 1782 1783 1783 1784 1784 1784 1784 1785 1785 1786 1787 1787 1788 1789 1789 1790 1791 1792 1793 1793 1794 1794 1795 1796 1796 1797 1797 1797 1797 1797 1798 1799 1799 1801 1803 1803 1803 1803 1801 1801 1796 1796 0 0 0 0 2758 2858 2891 2901 2910 2910 2918 2918 2918 2909 2812 2563 0 0 0 0 1156 1147 1128 1096 1067 1066 1062 1061 1061 1045 1045 0 0 0 1339 1339 1339 1322 1292 1292 0 0 0 0 2526 2549 2549 2549 2549 2549 2624 2624 2624 0 0 0 0 0 0 0 0 0 0 0 0 0 0 0 0 0 0 0 0 0 0 0 0 0 1391 1389 1378 1365 1360 1360 1360 1361 1364 1366 1366 1368 1368 1368 1355 1355 1355 1359 1359 1364 1364 1365 1379 1381 1386 1386 1385 1381 1385 1385 1398 1415 1435 1440 1460 0 0 0 0 0 0 0 0 0 0 0 0 0 0 0 0 0 0 0 0 0 0 0 0 0 0 0 0 0 0 0 0 0 0 0 1793 1790 1788 1786 1784 1774 1770 1769 1769 1766 1761 1761 1760 1758 1755 1753 1750 1747 1744 1741 1739 1737 1734 1731 1729 1726 1725 1724 1723 1719 1717 1716 1713 1712 1711 1709 1705 1702 1702 1701 1700 1692 1682 0 0 0 0 1533 1528 1528 1528 1528 1528 1527 1527 1525 1522 1519 1516 1512 1507 1502 1497 1494 1492 1490 1490 1490 1489 1488 1488 1486 1484 1483 1480 1475 1469 1467 1466 1466 1465 1465 1464 1460 1458 1455 1449 1438 1415 1388 1356 1333 1317 1313 1308 1301 1300 1299 1298 1298 1297 1297 1295 1295 1295 1301 1315 1324 1339 1340 1370 1372 1397 1406 1409 1410 1410 1410 1412 1412 1412 1410 1407 1404 1403 1403 1403 1404 1404 1404 1404 1402 1398 1395 1395 1395 1397 1405 1405 1405 1405 1405 1398 1392 1390 1383 1373 1358 1339 1324 1323 1319 1318 1318 1318 1322 1329 1335 1342 1350 1350 1350 1350 1347 1346 1345 1345 1345 1344 1344 1342 1339 1339 1339 1341 1341 1341 1339 1335 1332 1332 1332 1334 1334 1334 1329 1328 1328 1324 1319 1313 1304 1297 1290 1282 1278 1278 1275 1274 1273 1272 1268 1263 1255 1254 1248 1238 1221 1197 1167 1164 1163 1161 1155 1153 1144 1144 1144 1140 1140 1140 1127 1109 1095 1091 1089 1088 1087 1085 1080 1071 1062 1056 1056 1056 1056 1056 1039 1007 982 967 930 930 929 929 933 948 948 948 911 892 892 888 881 870 856 856 856
1135 1135 1140 1147 1159 1166 1170 1177 1184 1194 1202 1210 1220 1228 1235 1242 1249 1259 1269 1278 1288 1297 1304 1310 1319 1327 1333 1340 1345 1348 1353 1356 1360 1361 1363 1364 1366 1368 1371 1371 1371 1371 1363 1363 0 0 0 0 0 0 0 0 1421 1430 1431 1433 1437 1439 1440 1441 1443 1444 1446 1448 1448 1448 1447 1447 1447 1463 1475 1475 1475 0 0 0 0 1259 1240 1240 1240 1252 0 0 0 0 0 0 0 0 0 0 0 0 0 0 0 0 0 0 0 0 0 0 0 0 0 0 0 0 0 0 0 0 0 0 0 0 0 0 0 0 0 0 1062 1103 1104 1104 0 0 0 0 0 0 745 725 720 720 720 758 0 822 848 861 863 865 881 895 0 0 0 0 0 0 0 0 0 0 0 1738 1745 1745 1747 1753 1756 1759 1760 1761 1762 1764 1764 1765 1766 1766 1767 1767 1768 1769 1770 1771 1772 1772 1774 1774 1776 1777 1778 1779 1780 1780 1781 1781 1782 1783 1783 1783 1784 1784 1784 1785 1785 1786 1787 1788 1788 1789 1790 1790 1791 1792 1793 1793 1793 1794 1795 1796 1796 1797 1797 1797 1797 1797 1797 1799 1799 1801 1801 1801 1801 1798 1798 1791 1784 0 0 0 0 0 2758 2858 2891 2899 2901 2901 2907 2907 2907 2885 2742 0 0 0 0 1142 1130 1129 1117 1088 1065 1065 1065 1061 1061 1045 0 0 0 0 1342 1342 1342 1301 1301 0 0 0 0 0 2572 2572 2572 2549 2549 2549 2699 2699 2699 2696 2696 2568 2568 2568 0 0 0 0 0 0 0 0 0 0 0 0 0 0 0 0 0 0 0 1357 1357 1350 1348 1348 1346 1346 1344 1344 1344 1341 1340 1339 1330 1330 1330 1346 1355 1358 1362 1363 1363 1374 1382 1386 1386 1386 1384 1379 1379 1379 1398 1415 1435 1440 1460 1482 0 0 0 0 0 0 0 0 0 0 0 0 0 0 0 0 0 0 0 0 0 0 0 0 0 0 0 0 0 0 0 0 0 1792 1788 1787 1787 1785 1777 1770 1766 1766 1765 1762 1758 1756 1756 1755 1752 1750 1748 1744 1741 1739 1737 1734 1733 1730 1727 1726 1725 1724 1721 1718 1716 1715 1713 1710 1708 1707 1703 1703 1702 1702 1702 1701 1698 1683 1662 0 0 0 1536 1536 1535 1535 1535 1535 1527 1525 1522 1519 1516 1512 1507 1504 1499 1496 1492 1490 1490 1490 1489 1488 1488 1486 1485 1483 1480 1475 1469 1467 1466 1466 1465 1465 1464 1461 1460 1455 1449 1438 1431 1411 1386 1358 1334 1328 1327 1314 1305 1305 1305 1305 1305 1300 1296 1296 1296 1307 1332 1346 1359 1365 1398 1399 1417 1417 1417 1415 1415 1415 1413 1413 1413 1410 1407 1405 1405 1405 1405 1405 1405 1405 1404 1402 1399 1395 1391 1391 1391 1395 1396 1396 1396 1394 1392 1391 1390 1385 1377 1360 1344 1336 1334 1329 1324 1319 1319 1319 1320 1332 1340 1341 1346 1346 1346 1344 1344 1344 1344 1344 1344 1343 1340 1337 1337 1337 1340 1340 1340 1335 1333 1332 1328 1327 1326 1325 1320 1320 1320 1318 1318 1318 1312 1301 1295 1290 1283 1278 1278 1276 1275 1275 1273 1270 1263 1255 1254 1248 1238 1221 1200 1189 1167 1163 1158 1154 1146 1137 1133 1133 1129 1127 1127 1115 1104 1094 1091 1087 1084 1084 1083 1074 1071 1062 1062 1062 1060 1060 1060 1039 1007 982 967 953 936 933 933 933 951 951 951 906 0 0 0 0 0 0 0 0
1135 1135 1140 1145 1157 1165 1169 1177 1184 1195 1203 1210 1220 1227 1235 1243 1249 1259 1270 1280 1290 1298 1306 1313 1321 1327 1335 1341 1345 1348 1352 1356 1359 1361 1363 1364 1366 1368 1371 1371 1371 1371 1357 1309 0 0 0 0 0 0 0 0 1418 1428 1431 1433 1437 1438 1440 1441 1442 1444 1446 1446 1446 1443 1443 1443 1447 1467 1467 1467 1459 0 0 0 1247 1247 1247 1247 1253 1268 0 0 0 0 0 0 0 0 0 0 0 0 0 0 0 0 0 0 0 0 0 0 0 0 0 0 0 0 0 0 0 0 830 830 832 0 0 0 0 1003 1022 1042 1062 1103 1117 1117 1117 0 0 0 0 0 745 726 726 726 740 760 792 822 836 838 844 860 881 910 0 0 0 0 0 0 0 0 0 0 1729 1738 1745 1746 1747 1754 1756 1758 1759 1761 1762 1763 1763 1764 1765 1766 1767 1767 1768 1769 1770 1770 1772 1772 1773 1774 1776 1777 1778 1779 1780 1780 1780 1781 1782 1783 1783 1783 1784 1784 1784 1785 1785 1786 1787 1788 1788 1789 1790 1790 1791 1792 1792 1793 1793 1794 1795 1796 1796 1797 1797 1797 1797 1797 1797 1799 1801 1801 1801 1800 1797 1792 1783 1767 0 0 0 0 0 0 2758 2858 2887 2889 2891 2899 2903 2903 2903 2854 2655 0 0 0 1117 1117 1109 1109 1101 1079 1062 1062 1062 1062 1062 0 0 0 0 0 1344 1344 1315 1301 1301 0 0 0 0 2506 2572 2572 2572 2572 2572 2647 2699 2699 2742 2807 2867 3177 3177 3177 2973 2817 2579 0 0 0 0 0 0 0 0 0 0 0 0 0 0 0 0 1352 1347 1337 1339 1340 1340 1339 1339 1338 1334 1328 1324 1323 1323 1323 1323 1346 1355 1356 1357 1358 1363 1374 1382 1387 1387 1387 1379 1375 1375 1375 1399 1424 1435 1440 1460 1482 1516 1518 0 0 0 0 0 0 0 0 0 0 0 0 0 0 0 0 0 0 0 0 0 0 0 2766 2766 2766 0 0 0 0 0 1792 1787 1784 1784 1776 1771 1767 1764 1762 1759 1757 1755 1754 1753 1752 1748 1747 1746 1743 1739 1737 1735 1733 1731 1728 1726 1723 1721 1721 1719 1717 1715 1714 1712 1708 1705 1704 1702 1702 1702 1702 1702 1701 1698 1695 1686 1672 0 0 1584 1561 1548 1547 1547 1541 1528 1525 1518 1515 1515 1512 1507 1504 1501 1496 1493 1490 1490 1489 1488 1488 1488 1488 1487 1485 1480 1475 1469 1467 1466 1466 1466 1465 1465 1463 1460 1455 1449 1440 1432 1428 1418 1405 1383 1352 1333 1322 1313 1313 1311 1311 1309 1308 1308 1308 1327 1337 1341 1363 1384 1403 1403 1425 1425 1425 1423 1417 1417 1415 1414 1414 1411 1407 1406 1405 1405 1405 1405 1406 1407 1407 1407 1405 1400 1396 1391 1390 1388 1383 1382 1381 1381 1381 1384 1385 1385 1385 1383 1369 1359 1358 1344 1334 1329 1322 1319 1319 1319 1322 1322 1322 1324 1324 1328 1337 1339 1344 1344 1344 1343 1342 1338 1335 1334 1334 1333 1333 1332 1330 1328 1328 1328 1327 1321 1314 1311 1311 1311 1312 1312 1312 1310 1301 1293 1288 1283 1279 1279 1279 1279 1277 1273 1270 1262 1254 1252 1248 1238 1221 1200 1190 1174 1163 1158 1154 1146 1136 1119 1119 1119 1112 1112 1112 1102 1094 1088 1086 1084 1082 1081 1067 1063 1056 1056 1056 1060 1060 1060 1039 1026 1014 998 979 959 946 946 946 951 951 951 0 0 0 0 0 0 0 0 0
1135 1135 1140 1144 1150 1160 1169 1177 1186 1195 1203 1210 1218 1226 1235 1243 1249 1262 1271 1283 1293 1300 1308 1315 1323 1330 1335 1341 1345 1348 1352 1355 1357 1360 1363 1365 1366 1368 1371 1371 1371 1371 1354 1308 0 0 0 0 0 0 0 0 1417 1427 1431 1433 1436 1438 1440 1441 1442 1444 1444 1444 1444 1443 1443 1443 1453 1472 1472 1472 1432 0 0 0 1237 1237 1237 1247 1274 1322 0 0 0 0 0 0 0 0 0 0 0 0 0 0 0 0 0 0 0 0 0 0 0 0 0 0 0 0 0 0 0 834 834 834 845 861 0 0 990 1000 1003 1003 1062 1103 1117 1131 1141 1141 0 0 0 0 798 754 743 743 743 761 795 822 827 827 841 860 887 911 0 0 0 0 0 0 0 0 0 0 1729 1738 1743 1746 1751 1754 1756 1757 1758 1760 1761 1762 1763 1764 1765 1765 1766 1767 1768 1768 1770 1770 1771 1772 1773 1774 1775 1777 1778 1778 1779 1780 1780 1781 1782 1783 1783 1783 1784 1784 1784 1785 1785 1786 1787 1788 1788 1789 1790 1790 1791 1791 1792 1792 1793 1794 1795 1796 1796 1797 1797 1797 1797 1797 1798 1799 1801 1801 1801 1799 1794 1784 1771 1727 0 0 0 0 0 0 2550 2677 2747 2816 2837 2882 2897 2897 2897 2804 2507 0 0 0 1096 1091 1087 1072 1056 1055 1055 1056 1075 1085 1123 0 0 0 0 1383 1383 1342 1313 1313 1313 0 0 0 0 2542 2564 2564 2564 2564 2564 2647 2715 2742 2770 2807 3213 3399 3399 3399 3309 3189 3051 2792 0 0 0 0 0 0 0 0 0 0 0 0 0 0 0 1333 1333 1333 1335 1337 1339 1339 1339 1338 1326 1324 1323 1321 1323 1323 1323 1352 1353 1353 1355 1356 1363 1374 1382 1387 1387 1387 1379 1375 1375 1375 1399 1424 1448 1461 1487 1510 1518 1519 1519 0 0 0 0 0 0 0 0 0 0 0 0 0 0 0 0 0 0 0 0 0 2535 2644 2644 2644 2241 0 0 0 1787 1787 1782 1782 1779 1772 1765 1763 1762 1760 1756 1753 1752 1751 1751 1748 1745 1745 1744 1741 1737 1734 1733 1732 1729 1727 1725 1722 1720 1718 1717 1716 1715 1713 1711 1707 1703 1701 1701 1701 1701 1701 1701 1701 1698 1698 1695 1692 1683 0 1646 1625 1596 1563 1562 1545 1531 1525 1518 1513 1512 1509 1507 1504 1501 1496 1493 1490 1490 1489 1488 1488 1488 1488 1487 1485 1483 1476 1471 1469 1469 1468 1467 1467 1466 1464 1461 1457 1449 1440 1433 1430 1426 1421 1414 1389 1366 1349 1326 1317 1317 1317 1317 1319 1320 1328 1346 1350 1366 1381 1403 1413 1417 1426 1426 1426 1423 1419 1419 1419 1416 1416 1410 1407 1407 1407 1407 1408 1408 1408 1408 1407 1407 1405 1400 1397 1394 1390 1386 1382 1381 1381 1380 1380 1380 1380 1383 1383 1383 1377 1375 1368 1363 1347 1339 1329 1317 1314 1314 1313 1310 1305 1305 1305 1305 1319 1325 1335 1340 1340 1340 1340 1335 1333 1333 1330 1329 1326 1326 1326 1326 1326 1326 1319 1315 1307 1302 1302 1302 1306 1307 1307 1307 1297 1289 1283 1283 1279 1279 1279 1279 1277 1272 1268 1260 1252 1248 1237 1227 1213 1204 1193 1182 1173 1158 1154 1146 1136 1119 1104 1104 1102 1098 1093 1082 1078 1077 1076 1076 1067 1063 1063 1062 1055 1055 1055 1057 1057 1057 1039 1026 1014 1011 1005 990 958 958 958 955 955 950 0 0 0 0 0 0 0 0 0
1133 1133 1140 1144 1150 1160 1169 1180 1190 1198 1204 1210 1218 1226 1235 1245 1251 1263 1274 1285 1294 1301 1308 1318 1324 1330 1336 1341 1345 1348 1351 1354 1357 1360 1363 1365 1368 1369 1369 1370 1370 1370 1354 0 0 0 0 0 0 0 0 0 1417 1427 1431 1433 1436 1437 1440 1441 1442 1443 1444 1444 1444 1444 1444 1446 1460 1460 1460 0 0 0 1263 1237 1237 1237 1238 0 0 0 0 0 0 0 0 0 0 0 0 0 0 0 0 0 0 0 0 0 0 0 0 0 0 0 0 0 0 0 0 0 0 0 0 0 0 0 0 985 990 1000 1003 1003 1018 1067 1108 1131 0 0 0 0 0 0 0 0 0 0 0 765 800 822 827 827 841 860 0 0 0 0 0 0 0 0 0 0 1683 1716 1730 1738 1743 1747 1752 1755 1755 1756 1758 1760 1761 1761 1762 1763 1764 1765 1766 1766 1767 1767 1768 1769 1770 1771 1772 1774 1775 1776 1777 1778 1779 1780 1780 1781 1782 1782 1783 1783 1784 1784 1785 1785 1785 1786 1787 1788 1788 1789 1789 1790 1790 1791 1792 1792 1793 1794 1795 1795 1797 1797 1798 1798 1798 1798 1798 1801 1802 1802 1802 1799 1790 0 0 0 0 0 0 0 0 0 0 0 0 0 0 2714 2840 2840 2840 2780 2507 0 0 0 1089 1070 1064 1046 1046 1046 1054 1063 1081 1092 0 0 0 0 0 0 0 0 0 0 0 0 0 0 2452 2551 2564 2564 2564 2564 2587 2689 2701 2730 2763 2845 3213 3399 3399 3399 3412 3399 3382 3297 3116 2960 2691 2437 2325 0 0 0 0 0 0 0 0 0 1333 1330 1330 1330 1333 1336 1340 1340 1340 1335 1325 1321 1319 1319 1321 1325 1338 1353 1353 1353 1354 1354 1358 1359 1365 1377 1379 1379 1379 1373 1373 1373 1398 1424 1451 0 1515 1549 1549 1549 1519 1518 1499 1499 1499 0 0 0 1630 1669 1669 1669 1648 1644 1591 1563 1541 1541 0 0 0 0 0 0 0 0 0 0 0 1794 1786 1786 1782 1782 1777 1767 1759 1759 1756 1756 1755 1752 1749 1748 1747 1743 1743 1742 1742 1740 1737 1733 1730 1730 1727 1725 1722 1721 1719 1716 1714 1712 1712 1710 1708 1706 1703 1700 1700 1700 1701 1701 1701 1700 1698 1698 1695 1694 1692 1685 1674 1665 1654 1618 1584 1565 1531 1525 1518 1513 1512 1509 1507 1504 1501 1495 1493 1489 1489 1488 1488 1488 1488 1488 1487 1485 1483 1479 1474 1472 1470 1470 1469 1468 1467 1465 1462 1457 1449 1440 1437 1434 1430 1426 1421 1415 1401 1401 1384 1348 1335 1331 1331 1331 1332 1333 1355 1368 1382 1393 1409 1415 1422 1428 1428 1428 1424 1421 1420 1420 1420 1416 1410 1409 1409 1409 1409 1409 1409 1408 1408 1407 1407 1405 1402 1398 1394 1390 1386 1382 1381 1381 1380 1378 1378 1378 1380 1380 1380 1377 1375 1369 1368 1357 1351 1340 1326 1313 1307 1303 1299 1291 1291 1290 1291 1292 1297 1323 1334 1336 1336 1336 1334 1333 1333 1330 1329 1326 1326 1326 1324 1324 1323 1318 1311 1305 1299 1299 1299 1296 1296 1294 1290 1285 1280 1278 1278 1279 1279 1279 1279 1277 1272 1265 1257 1246 1239 1232 1222 1213 1204 1194 1193 1191 1159 1154 1147 1136 1119 1104 1103 1102 1098 1093 1080 1066 1065 1064 1064 1064 1063 1062 1061 1055 1054 1050 1048 1047 1036 1029 1026 1014 1011 1005 990 972 969 968 961 955 943 0 0 0 0 761 740 739 699 699
1133 1133 1140 1144 1150 1160 1172 1183 1191 1199 1205 1210 1218 1226 1236 1246 1257 1263 1274 1285 1294 1301 1311 1318 1324 1330 1336 1341 1345 1348 1351 1353 1357 1359 1363 1365 1368 1368 1368 1368 1367 1363 1353 0 0 0 0 0 0 0 0 0 1417 1427 1430 1433 1435 1437 1439 1439 1440 1442 1443 1443 1444 1446 1450 1454 1455 1455 1455 0 0 0 0 1235 1235 1237 0 0 0 0 0 0 1653 1653 1653 1639 0 0 0 0 0 0 0 0 0 0 0 0 0 0 0 0 0 0 0 0 0 0 0 0 0 0 0 0 0 0 0 985 990 1000 1003 1003 1018 0 0 1110 0 0 0 0 0 0 0 0 0 0 0 0 800 822 827 827 841 0 0 0 0 0 0 0 0 0 0 0 1702 1725 1732 1737 1741 1747 1752 1755 1755 1756 1756 1758 1760 1761 1762 1763 1763 1764 1765 1766 1766 1767 1768 1769 1770 1771 1772 1773 1774 1776 1777 1778 1779 1780 1780 1781 1781 1782 1783 1783 1784 1784 1785 1785 1786 1786 1787 1788 1788 1789 1789 1790 1790 1791 1792 1792 1793 1794 1795 1795 1797 1797 1798 1798 1798 1798 1798 1802 1802 1802 1802 1797 0 0 0 0 0 0 0 0 0 0 0 0 0 0 0 0 2597 2747 2747 2747 2507 0 0 0 1089 1070 1052 1034 1034 1034 1035 1070 1090 1093 0 0 0 0 0 0 0 0 0 0 0 0 0 0 2547 2551 2564 2564 2564 2564 2598 2689 2701 2730 2784 2845 3213 3399 3399 3399 3412 3419 3419 3419 3385 3294 3151 2966 2832 2531 0 0 0 0 0 0 0 0 1313 1313 1313 1330 1331 1336 1340 1340 1340 1332 1324 1321 1318 1318 1321 1337 1348 1353 1353 1353 1349 1340 1339 1339 1339 1358 1378 1378 1378 1373 1373 1373 1379 1424 1451 0 1553 1585 1586 1586 1585 1551 1499 1499 1499 0 0 0 0 1661 1661 1661 1648 1631 1591 1563 1541 0 0 0 0 0 0 0 0 0 0 0 0 1794 1785 1785 1782 1781 1777 1762 1758 1755 1754 1753 1752 1749 1746 1745 1743 1741 1739 1739 1739 1737 1735 1731 1729 1727 1724 1723 1721 1719 1717 1714 1712 1711 1708 1707 1705 1704 1703 1700 1698 1698 1698 1698 1698 1698 1698 1698 1695 1694 1692 1688 1682 1678 1671 1655 1626 1601 1570 1535 1523 1513 1512 1509 1507 1504 1499 1490 1489 1489 1488 1488 1487 1487 1486 1486 1484 1483 1483 1479 1477 1474 1472 1471 1471 1470 1468 1466 1464 1460 1454 1447 1441 1437 1435 1434 1431 1425 1419 1414 1414 1389 1358 1357 1351 1351 1357 1362 1380 1388 1395 1407 1411 1417 1423 1428 1428 1428 1424 1422 1422 1421 1420 1416 1410 1410 1410 1410 1410 1410 1409 1408 1408 1407 1407 1405 1402 1400 1395 1391 1387 1382 1382 1381 1381 1377 1377 1377 1378 1378 1378 1378 1375 1371 1368 1363 1357 1345 1329 1317 1305 1303 1299 1291 1290 1289 1289 1289 1289 1309 1332 1332 1333 1333 1333 1332 1332 1330 1329 1325 1325 1325 1323 1323 1323 1318 1311 1304 1297 1292 1289 1288 1287 1281 1267 1266 1266 1266 1269 1271 1271 1270 1270 1270 1268 1259 1247 1239 1235 1230 1222 1213 1204 1202 1201 1194 1192 1190 1186 1177 1138 1104 1103 1102 1098 1093 1080 1066 1065 1064 1064 1064 1062 1060 1060 1055 1044 1044 1040 1036 1036 1020 1013 1011 1010 1005 990 983 970 964 944 935 917 0 0 0 0 751 740 739 699 699
1133 1133 1141 1148 1151 1163 1174 1183 1191 1199 1206 1210 1219 1228 1236 1246 1257 1263 1274 1285 1294 1301 1311 1318 1324 1330 1336 1340 1344 1347 1350 1352 1356 1358 1361 1365 1368 1368 1368 1366 1363 1362 1353 0 0 0 0 0 0 0 0 0 1417 1427 1430 1432 1433 1435 1437 1437 1439 1441 1443 1443 1445 1450 1452 1456 1456 1456 0 0 0 0 0 0 0 0 0 0 0 0 0 1643 1653 1653 1653 1639 1631 0 0 0 0 0 0 0 0 0 0 0 0 0 0 0 0 0 0 0 0 0 0 0 0 0 0 0 0 0 0 0 1003 1010 1018 0 0 0 0 0 0 0 0 0 0 0 0 0 0 0 0 0 0 841 841 851 0 0 0 0 0 0 0 0 0 0 0 0 1714 1725 1732 1736 1741 1747 1752 1755 1755 1755 1756 1757 1758 1759 1761 1761 1763 1763 1764 1765 1766 1766 1768 1768 1769 1770 1771 1772 1774 1776 1776 1777 1779 1780 1780 1781 1781 1782 1783 1783 1784 1784 1785 1785 1786 1786 1787 1788 1788 1789 1789 1790 1790 1791 1792 1792 1793 1794 1795 1795 1797 1797 1797 1798 1798 1798 1798 1802 1802 1802 1802 1797 0 0 0 0 0 0 0 0 0 0 0 0 0 0 0 0 0 2574 2574 2574 0 0 0 0 0 1070 1052 1015 1015 1015 1035 1073 1096 1118 0 0 0 0 0 0 0 0 0 0 0 0 0 0 2547 2551 2572 2576 2586 2607 2668 2689 2701 2730 2790 2887 2890 3130 3276 3304 3382 3419 3419 3431 3419 3419 3385 3351 3278 3153 2882 2797 0 0 0 0 0 0 1311 1311 1311 1330 1330 1334 1337 1337 1337 1331 1314 1293 1293 1293 1318 1337 1348 1353 1353 1353 1349 1340 1339 1339 1339 1353 1373 1373 1373 1362 1362 1362 1366 1402 0 0 1553 1585 1586 1586 1585 1558 1527 1512 1512 0 0 0 0 0 1661 1661 1648 1636 1631 1620 1603 0 0 0 0 0 0 0 0 0 0 0 0 1792 1785 1783 1779 1779 1771 1762 1757 1754 1752 1750 1749 1747 1745 1742 1740 1738 1736 1736 1735 1735 1732 1730 1727 1725 1723 1721 1720 1718 1717 1714 1711 1708 1707 1706 1704 1704 1702 1700 1698 1696 1696 1696 1696 1696 1696 1695 1694 1694 1692 1688 1687 1684 1674 1664 1654 1639 0 0 0 1519 1517 1516 1515 1504 1492 1488 1488 1487 1487 1487 1486 1485 1484 1483 1483 1483 1483 1479 1477 1474 1472 1471 1471 1470 1470 1467 1464 1460 1456 1450 1446 1442 1440 1439 1438 1436 1426 1419 1419 1412 1394 1374 1374 1374 1385 1398 1403 1406 1410 1412 1413 1418 1427 1435 1435 1435 1424 1424 1423 1423 1422 1416 1412 1411 1411 1411 1411 1411 1409 1407 1405 1405 1404 1404 1403 1400 1397 1391 1387 1383 1383 1382 1382 1377 1375 1375 1375 1377 1377 1377 1374 1371 1370 1366 1360 1349 1332 1317 1305 1303 1299 1291 1290 1289 1287 1287 1287 1306 1324 1324 1327 1328 1332 1332 1332 1330 1329 1324 1317 1315 1315 1314 1314 1314 1307 1301 1296 1292 1288 1285 1282 1275 1261 1261 1261 1261 1264 1264 1261 1260 1255 1254 1251 1245 1235 1233 1231 1228 1221 1213 1208 1206 1205 1202 1202 1202 1202 1191 1160 1126 1120 1110 1103 1093 1080 1066 1065 1064 1064 1064 1062 1060 1058 1055 1044 1044 1038 1030 1030 1017 1003 998 998 994 988 983 974 964 944 927 916 0 0 0 751 740 730 739 699 699
1133 1133 1145 1158 1166 1168 1176 1183 1191 1200 1207 1213 1222 1229 1237 1246 1257 1264 1272 1282 1291 1301 1311 1319 1324 1329 1334 1337 1342 1346 1349 1352 1355 1358 1360 1363 1365 1366 1366 1366 1363 1362 1353 0 0 0 0 0 0 0 0 0 1419 1427 1430 1431 1432 1433 1435 1436 1438 1441 1442 1443 1446 1451 1456 1456 1456 0 0 0 0 0 0 0 0 0 0 0 0 0 1620 1643 1653 1653 1653 1639 1631 0 0 0 0 0 0 0 0 0 0 0 0 0 0 0 0 0 0 0 0 0 0 0 0 0 0 0 0 0 0 0 0 0 0 0 0 0 0 0 0 0 0 0 0 0 0 0 0 0 0 0 0 0 0 0 0 0 0 0 0 0 0 0 0 0 0 1714 1718 1728 1732 1736 1740 1745 1749 1750 1751 1752 1754 1756 1757 1758 1759 1761 1761 1763 1764 1765 1766 1766 1767 1768 1769 1770 1770 1772 1774 1775 1776 1777 1778 1779 1780 1781 1782 1782 1783 1783 1784 1784 1785 1785 1786 1787 1787 1788 1788 1789 1789 1790 1790 1791 1792 1792 1794 1795 1795 1797 1798 1798 1798 1798 1798 1798 1798 1802 1802 1802 1802 1790 0 0 0 0 0 0 0 0 0 0 0 0 0 0 0 0 0 0 0 0 0 0 0 0 0 0 0 1015 1015 1015 1035 1073 1102 1121 0 0 0 0 1390 1390 1387 0 0 0 0 0 0 0 2547 2556 2576 2604 2658 2723 2838 2841 2841 2887 2887 2858 2858 2887 2890 2958 3103 3266 3336 3385 3419 3431 3452 3452 3441 3441 3359 3211 2956 0 0 0 0 0 1311 1311 1311 1311 1311 1319 1316 1313 1313 1313 1301 1293 1293 1293 1318 1338 1348 1357 1357 1357 1353 1340 1339 1339 1339 1353 1362 1362 1362 1359 1359 1359 1363 1391 0 0 1553 1585 1586 1586 1585 1569 1563 1561 1561 0 0 0 0 0 0 0 0 1646 1646 1646 0 0 0 0 0 0 0 0 0 0 0 0 1802 1791 1779 1777 1776 1772 1766 1760 1757 1754 1750 1748 1746 1744 1742 1739 1737 1735 1733 1732 1732 1732 1730 1727 1726 1724 1722 1720 1719 1717 1715 1712 1710 1707 1705 1703 1702 1701 1701 1699 1697 1695 1695 1695 1694 1693 1693 1691 1690 1690 1689 1688 1687 1684 1679 1678 1673 1665 1651 1632 0 0 0 1526 1519 1506 1492 1488 1488 1487 1487 1485 1485 1484 1484 1483 1483 1482 1481 1479 1477 1474 1472 1472 1471 1471 1470 1468 1464 1460 1457 1454 1452 1451 1445 1442 1440 1436 1432 1427 1423 1419 1411 1402 1402 1402 1413 1422 1422 1422 1419 1419 1419 1421 1427 1435 1435 1435 1425 1425 1425 1424 1422 1417 1414 1413 1412 1412 1409 1408 1406 1404 1404 1404 1403 1403 1403 1400 1397 1391 1390 1387 1385 1385 1384 1384 1375 1375 1375 1376 1376 1376 1373 1371 1370 1368 1364 1354 1336 1318 1308 1308 1308 1308 1308 1302 1287 1287 1287 1287 1305 1310 1313 1318 1327 1329 1329 1329 1329 1323 1317 1314 1314 1312 1312 1309 1303 1298 1295 1292 1287 1284 1282 1275 1261 1260 1259 1256 1256 1254 1252 1247 1242 1242 1239 1231 1228 1228 1227 1225 1221 1213 1210 1209 1208 1209 1209 1209 1208 1194 1164 1135 1135 1131 1126 1120 1103 1084 1084 1083 1075 1075 1072 1056 1044 1034 1019 1019 1019 1019 1019 1012 996 988 986 983 978 978 978 965 944 927 913 0 0 0 751 750 733 739 733 733
1133 1133 1145 1158 1166 1170 1177 1183 1191 1200 1208 1217 1224 1231 1238 1246 1257 1265 1272 1281 1288 1301 1312 1319 1324 1329 1333 1337 1341 1345 1348 1352 1355 1356 1359 1361 1364 1365 1365 1365 1363 1362 1360 0 0 0 0 0 0 0 0 0 1419 1424 1429 1430 1430 1433 1434 1436 1438 1440 1441 1442 1446 1452 1452 1452 1445 0 0 0 0 0 0 0 0 0 0 0 0 0 1620 1643 1648 1648 1648 1635 1631 0 0 0 0 0 0 0 0 0 0 0 0 0 0 0 0 0 0 0 0 0 0 0 0 0 0 0 0 0 0 0 0 0 0 0 0 0 0 0 0 0 0 0 0 0 0 0 0 0 0 0 0 0 0 0 0 0 0 0 0 0 0 0 0 0 1713 1715 1719 1728 1732 1736 1739 1743 1747 1747 1749 1751 1753 1755 1756 1757 1758 1759 1761 1762 1763 1764 1765 1766 1767 1767 1768 1769 1770 1772 1773 1774 1776 1777 1778 1779 1780 1781 1781 1782 1783 1783 1784 1784 1785 1785 1786 1787 1787 1788 1788 1789 1789 1790 1790 1791 1792 1792 1794 1795 1797 1797 1799 1799 1799 1798 1798 1798 1798 1802 1802 1802 1800 0 0 0 0 0 0 0 0 0 0 0 0 0 0 0 0 0 0 0 0 0 0 0 0 0 0 0 0 0 1025 1025 1051 1081 1103 0 0 0 0 1390 1390 1390 1372 1339 0 0 0 0 0 0 2520 2556 2584 2634 2693 2904 3044 3050 3050 3050 2948 2890 2887 2887 2858 2858 2897 2909 3022 3134 3329 3419 3452 3452 3468 3468 3441 3419 3260 2805 0 0 0 1329 1311 1311 1311 1311 1311 1293 1293 1293 1294 1294 1294 1293 1293 1293 1318 1338 1350 1357 1357 1357 1353 1352 1348 1348 1347 1346 1346 1347 1346 1355 1357 1359 1363 1390 0 0 1545 1561 1562 1562 1567 1569 1569 1584 1621 0 0 0 0 0 0 0 0 0 0 0 0 0 0 0 0 0 0 0 0 0 0 1803 1796 1790 1777 1768 1768 1764 1762 1760 1757 1753 1749 1747 1745 1742 1740 1737 1734 1732 1731 1731 1729 1729 1727 1726 1725 1722 1721 1719 1717 1716 1714 1711 1709 1707 1705 1703 1702 1700 1698 1697 1696 1694 1693 1693 1693 1691 1691 1690 1688 1688 1688 1687 1687 1684 1679 1678 1675 1674 1666 1655 1645 0 0 0 0 1507 1492 1490 1488 1487 1487 1485 1485 1485 1484 1483 1482 1481 1478 1476 1475 1473 1472 1472 1471 1471 1470 1468 1464 1460 1457 1455 1454 1454 1453 1445 1441 1436 1432 1428 1423 1421 1415 1415 1415 1419 1425 1430 1431 1431 1431 1422 1422 1422 1427 1435 1435 1435 1427 1426 1425 1425 1423 1418 1416 1416 1414 1412 1409 1405 1404 1402 1402 1402 1403 1403 1403 1399 1397 1391 1390 1387 1385 1385 1384 1384 1380 1375 1374 1373 1371 1371 1371 1371 1370 1369 1366 1363 1351 1338 1333 1330 1329 1329 1326 1323 1288 1280 1280 1280 1292 1300 1305 1305 1307 1316 1317 1317 1316 1316 1313 1312 1312 1311 1311 1308 1301 1293 1293 1291 1286 1284 1282 1275 1261 1260 1259 1256 1248 1246 1242 1236 1233 1232 1230 1228 1227 1226 1224 1221 1219 1213 1210 1209 1209 1209 1209 1209 1208 1197 1168 1135 1135 1131 1131 1131 1129 1129 1125 1125 1125 1122 1086 1056 1040 1015 1015 1015 1015 1015 1015 997 985 964 960 960 960 973 973 973 955 926 910 0 0 0 778 770 770 770 741 741
1133 1133 1145 1158 1166 1171 1178 1183 1191 1200 1210 1221 1229 1233 1239 1246 1257 1265 1272 1281 1288 1301 1312 1319 1323 1328 1333 1337 1341 1345 1348 1352 1354 1356 1358 1361 1364 1364 1364 1363 1362 1362 1360 0 0 0 0 0 0 0 0 0 1417 1422 1422 1426 1428 1430 1432 1435 1437 1439 1441 1442 1446 1453 1453 1453 0 0 0 0 0 0 0 0 0 0 0 0 0 1605 1620 1627 1637 1637 1637 1625 0 0 0 0 0 0 0 0 0 0 0 0 0 0 0 0 0 0 0 0 0 0 0 0 0 0 0 0 0 0 0 0 0 0 0 0 0 0 0 0 0 0 0 0 0 0 0 0 0 0 0 0 0 0 0 0 0 0 0 0 0 0 0 0 0 1718 1725 1726 1728 1730 1732 1736 1739 1742 1744 1746 1748 1749 1751 1753 1755 1757 1757 1759 1760 1761 1761 1762 1764 1765 1766 1767 1768 1768 1770 1771 1772 1774 1775 1777 1778 1779 1779 1781 1781 1782 1782 1783 1783 1784 1785 1785 1786 1787 1787 1788 1788 1789 1790 1790 1791 1791 1792 1793 1794 1795 1797 1797 1799 1799 1799 1798 1798 1798 1798 1798 1798 1798 0 0 0 0 0 1174 1162 1148 0 0 0 0 0 0 0 0 0 0 0 0 0 0 0 0 0 0 0 0 0 0 1062 1062 1066 1082 0 0 0 0 0 1372 1372 1372 1356 1356 0 0 0 0 0 2492 2519 2556 2605 2666 2836 3033 3113 3115 3115 3115 3071 3028 2945 2909 2858 2858 2853 2829 2829 2876 2979 3186 3292 3441 3468 3468 3441 3419 3260 2805 0 0 0 1329 1311 1311 1307 1306 1293 1292 1292 1293 1294 1297 1301 1301 1303 1309 1324 1344 1352 1357 1357 1357 1353 1352 1348 1348 1347 1345 1340 1330 1319 1319 1319 1357 1363 1390 1423 1475 1510 1536 1541 1542 1550 1567 1569 1584 1621 0 0 0 0 0 0 0 0 0 0 0 0 0 0 0 0 0 0 0 0 0 1806 1792 1791 1783 1773 1768 1762 1760 1760 1758 1754 1750 1748 1746 1744 1742 1738 1735 1732 1729 1728 1728 1728 1727 1725 1723 1722 1721 1719 1718 1716 1714 1712 1709 1707 1706 1704 1703 1702 1700 1698 1697 1694 1693 1691 1689 1689 1689 1689 1689 1687 1686 1686 1685 1684 1681 1679 1678 1675 1674 1668 1667 1665 1663 1657 1643 0 0 0 1502 1499 1494 1487 1487 1487 1488 1488 1488 1483 1481 1478 1476 1472 1472 1472 1471 1471 1471 1469 1468 1464 1460 1457 1457 1456 1454 1453 1446 1441 1438 1433 1429 1425 1423 1421 1421 1421 1424 1428 1432 1432 1432 1431 1426 1423 1423 1423 1428 1428 1428 1427 1426 1425 1425 1423 1418 1416 1416 1415 1412 1409 1405 1404 1402 1402 1402 1402 1402 1400 1397 1394 1391 1390 1387 1385 1385 1384 1383 1380 1377 1375 1373 1371 1371 1370 1369 1369 1369 1366 1364 1363 1361 1350 1345 1342 1337 1329 1324 1303 1280 1279 1279 1279 1287 1296 1299 1301 1308 1308 1312 1312 1312 1311 1311 1311 1310 1310 1304 1296 1291 1290 1289 1286 1284 1283 1282 1282 1272 1259 1256 1248 1242 1234 1229 1226 1226 1225 1225 1224 1224 1222 1219 1218 1213 1210 1209 1208 1209 1209 1209 1208 1198 1171 1145 1137 1135 1133 1131 1129 1129 1128 1125 1125 1122 1091 1056 1040 1015 994 994 992 992 991 991 972 954 937 937 937 950 955 955 955 926 0 0 0 780 780 776 776 776 776 776
1126 1126 1133 1151 1165 1173 1178 1185 1194 1202 1214 1223 1231 1234 1239 1248 1257 1266 1275 1281 1288 1301 1312 1319 1323 1328 1333 1337 1341 1345 1348 1352 1354 1356 1358 1361 1364 1364 1364 1363 1363 1363 1360 0 0 0 0 0 0 0 0 0 1411 1411 1414 1414 1414 1423 1428 1434 1437 1437 1439 1440 1444 1444 1444 1436 0 0 0 0 0 0 0 0 0 0 0 0 1597 1605 1615 1616 1616 1616 1610 0 0 0 0 0 0 0 0 0 0 0 0 0 0 0 0 0 0 0 0 0 0 0 0 0 0 0 0 0 0 0 0 0 0 0 0 0 0 0 0 0 0 0 0 0 0 0 0 0 0 0 0 0 0 0 0 0 0 0 0 0 0 0 0 0 0 1726 1727 1727 1729 1733 1734 1736 1739 1741 1744 1745 1747 1748 1749 1751 1753 1754 1755 1757 1758 1760 1761 1761 1763 1764 1764 1765 1766 1768 1770 1771 1772 1773 1774 1775 1777 1778 1779 1780 1780 1781 1782 1783 1783 1783 1784 1785 1786 1787 1787 1788 1788 1789 1790 1790 1791 1791 1792 1793 1794 1795 1797 1797 1799 1799 1799 1799 1799 1799 1799 1798 1797 0 0 0 0 0 1189 1176 1166 1148 1123 0 0 0 0 1132 1138 1144 0 0 0 0 0 0 0 0 0 0 0 0 0 0 1081 1081 1083 0 0 0 0 0 1312 1355 1356 1356 1356 1356 0 0 0 0 0 2501 2519 2560 2621 2730 2932 3102 3151 3152 3152 3152 3117 3088 3064 3012 2964 2909 2876 2829 2829 2858 2858 2887 2947 3093 3292 3401 3401 3401 3260 2805 0 0 0 1342 1318 1307 1295 1294 1293 1292 1292 1293 1294 1297 1307 1325 1328 1332 1341 1349 1358 1358 1358 1352 1350 1348 1348 1348 1347 1345 1340 1328 1317 1317 1317 1357 1384 1391 1413 1451 1485 1513 1519 1520 1526 1541 1567 1584 1621 0 0 0 0 0 0 0 0 0 0 0 0 0 0 0 0 0 0 0 0 1814 1799 1784 1784 1779 1772 1768 1762 1759 1757 1755 1750 1748 1745 1744 1742 1740 1736 1733 1729 1727 1726 1726 1725 1724 1722 1721 1720 1718 1716 1715 1714 1713 1711 1709 1706 1704 1703 1701 1699 1699 1697 1696 1693 1691 1691 1688 1688 1686 1686 1686 1684 1682 1681 1681 1680 1677 1675 1675 1674 1674 1668 1667 1665 1663 1658 1655 1646 0 0 0 1508 1499 1493 1493 1493 1493 1493 1493 1483 1481 1478 1476 1472 1472 1472 1471 1471 1470 1469 1467 1464 1460 1458 1457 1457 1454 1453 1447 1441 1438 1434 1430 1428 1425 1425 1425 1425 1426 1429 1432 1432 1432 1431 1427 1422 1420 1416 1416 1416 1425 1425 1425 1425 1425 1423 1418 1416 1416 1415 1412 1407 1404 1402 1401 1399 1399 1398 1397 1397 1394 1390 1389 1387 1386 1384 1383 1382 1382 1380 1378 1376 1375 1371 1367 1367 1367 1366 1366 1366 1365 1364 1363 1362 1351 1344 1338 1334 1334 1322 1301 1280 1279 1279 1279 1282 1292 1300 1301 1304 1308 1308 1308 1309 1309 1307 1307 1307 1300 1292 1289 1288 1284 1284 1282 1283 1282 1282 1272 1265 1259 1248 1240 1232 1226 1221 1221 1221 1222 1222 1222 1221 1219 1217 1213 1208 1206 1206 1206 1208 1208 1208 1200 1176 1145 1141 1137 1136 1133 1129 1129 1128 1125 1125 1122 1091 1068 1040 1015 994 980 980 974 938 0 0 919 919 913 913 913 955 955 955 0 0 0 807 784 784 779 777 777 776 776
1122 1122 1131 1143 1162 1173 1178 1186 1194 1202 1214 1223 1231 1234 1240 1248 1257 1266 1275 1282 1290 1299 1312 1319 1323 1328 1333 1337 1340 1344 1348 1351 1354 1356 1358 1361 1363 1363 1363 1363 1363 1363 1360 0 0 0 0 0 0 0 0 0 1390 1390 1391 1391 1391 1408 1423 1425 1425 1426 1427 1437 1439 1439 1439 1411 0 0 0 0 0 0 0 0 0 0 0 0 1597 1605 1611 1611 1611 1609 1598 0 0 0 0 0 0 0 0 0 0 0 0 0 0 0 0 0 0 0 0 0 0 0 0 0 0 0 0 0 0 0 0 0 0 0 0 0 0 0 0 0 0 0 0 0 0 0 0 0 0 0 0 0 0 0 0 0 0 0 0 0 0 0 0 0 1728 1728 1730 1730 1730 1733 1734 1736 1739 1740 1743 1744 1744 1745 1747 1748 1751 1752 1754 1754 1756 1758 1759 1760 1761 1763 1763 1765 1766 1767 1768 1770 1771 1772 1773 1775 1777 1778 1779 1780 1780 1781 1782 1782 1783 1783 1784 1784 1786 1786 1786 1787 1788 1789 1789 1790 1791 1791 1792 1793 1794 1795 1796 1798 1799 1800 1800 1801 1800 1801 1800 1800 1789 0 0 0 0 0 1195 1192 1185 1177 1135 0 0 0 1144 1144 1147 1148 1168 0 0 0 0 0 0 0 0 0 0 0 0 0 1116 1116 1138 0 0 1212 1246 1272 1306 1331 1337 1341 1352 0 0 0 0 0 2489 2501 2519 2563 2636 2848 3085 3146 3160 3160 3160 3153 3153 3143 3125 3079 3030 2984 2915 2876 2876 2858 2858 2858 2887 2897 2921 3078 3078 3078 2900 0 0 0 0 1346 1323 1307 1294 1291 1291 1294 1294 1296 1301 1305 1322 1335 1342 1347 1348 1356 1358 1358 1358 1350 1344 1337 1337 1337 1337 1337 1337 1328 1323 1323 1323 1362 1387 1391 1413 1451 1474 1474 1477 1478 1489 1519 1554 1570 0 0 0 0 0 2574 2574 2574 2553 2529 0 0 0 0 0 0 0 0 0 0 0 1796 1791 1784 1781 1778 1770 1765 1761 1758 1756 1752 1750 1748 1745 1742 1740 1738 1735 1733 1729 1727 1725 1724 1723 1721 1720 1718 1718 1716 1712 1712 1712 1710 1709 1707 1705 1703 1701 1699 1697 1697 1695 1693 1692 1691 1688 1687 1685 1685 1684 1682 1681 1679 1678 1677 1675 1673 1671 1670 1670 1670 1668 1667 1665 1663 1660 1660 1654 1636 1621 0 0 0 1515 1508 1508 1502 1502 1499 1484 1481 1480 1477 1472 1472 1471 1471 1470 1470 1469 1467 1464 1461 1459 1458 1458 1454 1450 1448 1442 1438 1434 1430 1428 1427 1427 1427 1427 1428 1429 1432 1432 1432 1430 1426 1423 1420 1416 1415 1415 1415 1417 1423 1423 1423 1422 1418 1416 1416 1415 1412 1406 1402 1401 1401 1398 1397 1396 1395 1393 1391 1388 1386 1384 1381 1380 1380 1380 1380 1379 1378 1376 1375 1371 1366 1362 1361 1360 1360 1361 1361 1363 1363 1363 1354 1345 1345 1344 1342 1335 1314 1302 1287 1280 1280 1280 1285 1294 1294 1300 1305 1305 1305 1306 1306 1307 1307 1307 1297 1292 1289 1288 1282 1282 1282 1282 1272 1272 1272 1265 1259 1247 1240 1232 1224 1221 1216 1213 1213 1213 1217 1217 1217 1216 1213 1207 1202 1200 1200 1200 1203 1203 1203 1197 1170 1141 1137 1136 1133 1128 1125 1123 1122 1120 1112 1091 1068 1040 1015 993 980 979 974 923 0 0 0 874 874 874 0 0 0 0 0 0 831 801 786 786 782 782 782 781 781
1121 1121 1129 1141 1156 1173 1179 1186 1194 1202 1214 1223 1231 1235 1240 1248 1256 1266 1275 1282 1290 1299 1312 1318 1323 1328 1333 1337 1340 1344 1347 1350 1354 1356 1358 1360 1363 1363 1363 1363 1363 1363 1360 0 0 0 0 0 0 0 0 0 1377 1377 1386 1386 1389 1398 1399 1399 1399 1399 1425 1437 1437 1437 1437 1409 0 0 0 0 0 0 0 0 0 0 0 0 1597 1604 1606 1607 1607 1607 0 0 0 0 0 0 0 0 0 0 0 0 0 0 0 0 0 0 0 0 0 0 0 0 0 0 0 0 0 0 0 0 0 0 0 0 0 0 0 0 0 0 0 0 0 0 0 0 0 0 0 0 0 0 0 0 0 0 0 0 0 0 0 0 0 1730 1730 1730 1730 1730 1730 1733 1735 1736 1740 1740 1743 1743 1743 1744 1744 1746 1748 1750 1751 1753 1754 1755 1757 1758 1760 1761 1762 1763 1765 1766 1767 1769 1770 1771 1773 1774 1775 1777 1778 1779 1780 1781 1782 1782 1782 1783 1783 1784 1785 1786 1786 1786 1787 1789 1789 1789 1790 1791 1792 1793 1794 1795 1796 1797 1799 1800 1801 1801 1801 1801 1800 1788 0 0 0 0 0 1232 1220 1210 1204 1203 1203 0 0 0 1201 1185 1169 1169 1169 0 0 0 0 0 0 0 0 0 0 0 0 0 1120 1120 1140 1153 1173 1212 1246 1272 1305 1316 1320 1330 0 0 0 0 0 0 2489 2492 2526 2583 2690 2902 3099 3148 3162 3166 3168 3168 3167 3167 3159 3140 3096 3050 3008 2978 2978 2920 2920 2887 2887 2858 2852 2818 2771 2690 0 0 0 0 0 0 1337 1308 1301 1300 1300 1300 1300 1300 1302 1311 1328 1336 1342 1347 1351 1358 1358 1358 1358 1350 1344 1332 1332 1332 1337 1337 1337 1328 1328 1328 1330 1363 1395 1404 1413 1451 1474 1474 1474 1474 1477 1515 1553 1570 0 0 0 0 2531 2574 2574 2574 2553 2537 2529 0 0 0 0 0 0 0 0 0 1795 1789 1784 1781 1779 1773 1770 1765 1761 1757 1754 1749 1748 1745 1744 1742 1738 1736 1734 1731 1728 1726 1724 1722 1721 1721 1719 1717 1715 1712 1711 1709 1709 1708 1706 1705 1703 1702 1699 1697 1696 1694 1693 1692 1690 1688 1687 1685 1684 1683 1682 1680 1678 1675 1675 1675 1674 1671 1669 1669 1668 1665 1664 1664 1664 1663 1661 1660 1658 1657 1648 1636 1625 1612 0 1535 1515 1514 1512 1506 1500 1494 1494 1485 1479 1472 1470 1467 1467 1467 1467 1467 1464 1462 1462 1461 1458 1454 1450 1448 1445 1441 1436 1430 1429 1428 1428 1428 1428 1429 1430 1430 1430 1430 1429 1425 1423 1420 1416 1415 1414 1414 1415 1416 1416 1416 1415 1415 1415 1414 1414 1411 1402 1401 1400 1400 1398 1397 1396 1394 1393 1391 1387 1382 1379 1378 1378 1378 1378 1378 1378 1378 1376 1375 1371 1367 1361 1360 1360 1359 1359 1359 1359 1356 1356 1355 1355 1355 1349 1349 1345 1317 1304 1291 1282 1282 1281 1281 1282 1285 1289 1291 1292 1294 1296 1302 1305 1305 1305 1297 1292 1289 1288 1282 1282 1272 1272 1270 1269 1266 1265 1259 1249 1240 1232 1224 1221 1216 1211 1211 1208 1208 1211 1210 1208 1208 1201 1193 1191 1191 1191 1198 1198 1198 1197 1177 1159 1144 1140 1131 1126 1118 1112 1104 1101 1095 1080 1068 1040 1015 993 977 970 963 923 0 0 0 0 0 0 0 0 0 0 0 842 823 801 786 786 786 791 791 791 791
1117 1117 1126 1137 1150 1168 1179 1186 1194 1201 1209 1220 1228 1234 1240 1247 1255 1264 1275 1282 1290 1298 1308 1317 1323 1328 1333 1336 1340 1343 1347 1350 1353 1356 1358 1360 1363 1363 1363 1364 1363 1363 1361 0 0 0 0 0 0 0 0 0 1367 1368 1370 1373 1380 1380 1380 1380 1380 1399 1425 1437 1437 1437 1419 0 0 0 0 1171 1171 1171 0 0 0 0 0 0 0 1575 1577 1599 1599 0 0 0 0 0 0 0 0 0 0 0 0 0 0 0 0 0 1759 1763 1768 1768 1763 0 0 0 0 0 0 0 0 0 0 0 0 0 0 0 0 0 0 0 0 0 0 0 0 0 0 0 0 0 0 0 0 0 0 0 0 0 0 0 0 0 0 0 1723 1732 1732 1732 1731 1731 1731 1733 1735 1738 1740 1740 1741 1742 1742 1743 1744 1744 1746 1748 1749 1751 1751 1752 1753 1755 1757 1758 1760 1762 1764 1765 1766 1768 1769 1770 1771 1773 1775 1776 1777 1779 1779 1781 1781 1782 1782 1782 1783 1784 1785 1785 1785 1786 1786 1787 1788 1789 1789 1790 1791 1793 1794 1795 1796 1798 1798 1800 1801 1801 1801 1801 1799 0 0 0 0 0 1248 1246 1246 1233 1213 1213 1213 1228 1228 1228 1201 1185 1169 1169 1169 0 0 0 0 0 0 0 0 0 0 0 0 0 1121 1121 1145 1163 1185 1208 1246 1272 1302 1303 1305 1323 0 0 0 0 0 0 2488 2496 2526 2583 2690 2930 3111 3148 3162 3167 3169 3169 3168 3168 3159 3140 3117 3091 3070 3050 3029 3012 2995 2979 2921 2897 2852 2818 2631 0 0 0 0 0 0 0 0 1312 1312 1312 1326 1326 1326 1311 1311 1311 1328 1336 1342 1348 1353 1358 1364 1364 1364 1359 1344 1330 1330 1330 1337 1340 1340 1340 1340 1340 1343 1379 1410 1442 1465 1474 1474 1474 1474 1474 1477 1515 1553 0 0 0 0 0 2531 2547 2553 2553 2547 2537 2529 2519 0 0 0 0 0 0 1815 1802 1794 1788 1783 1781 1774 1769 1764 1758 1754 1754 1751 1748 1746 1745 1743 1740 1736 1732 1730 1728 1726 1724 1723 1722 1721 1720 1718 1715 1712 1710 1707 1706 1705 1705 1705 1703 1702 1700 1698 1696 1694 1693 1691 1689 1689 1686 1685 1684 1683 1682 1679 1677 1676 1673 1672 1671 1671 1670 1668 1668 1666 1664 1664 1664 1664 1662 1661 1660 1658 1658 1657 1657 1653 1649 0 0 0 0 1522 1508 1503 1501 1500 1495 1486 1474 1470 1466 1466 1466 1466 1465 1464 1462 1462 1462 1458 1454 1450 1448 1446 1442 1437 1431 1429 1429 1429 1429 1430 1430 1430 1430 1430 1427 1426 1425 1423 1420 1417 1415 1415 1414 1413 1410 1409 1409 1409 1409 1412 1412 1412 1404 1400 1400 1400 1399 1397 1396 1395 1394 1392 1387 1385 1379 1376 1376 1376 1376 1377 1377 1377 1377 1375 1373 1369 1367 1362 1360 1359 1358 1357 1358 1359 1356 1355 1355 1355 1355 1349 1349 1345 1325 1309 1296 1286 1282 1281 1280 1278 1277 1277 1277 1277 1277 1279 1292 1299 1299 1299 1297 1294 1294 1291 1288 1282 1272 1269 1266 1266 1259 1256 1252 1250 1240 1232 1226 1226 1222 1207 1207 1201 1201 1201 1200 1199 1197 1189 1185 1185 1185 1186 1193 1197 1197 1197 1177 1159 1144 1140 1131 1119 1106 1095 1091 1087 1076 1065 1053 1032 1005 989 976 970 963 959 0 0 0 0 0 0 0 0 806 826 826 826 816 788 788 788 800 802 802 804 804
1114 1114 1124 1137 1149 1168 1179 1183 1190 1193 1204 1215 1226 1234 1239 1245 1252 1260 1271 1281 1288 1295 1306 1314 1321 1326 1330 1333 1338 1342 1345 1349 1353 1355 1358 1360 1363 1364 1365 1365 1365 1365 1362 0 0 0 0 0 0 0 0 0 1363 1368 1369 1378 1378 1378 1373 1373 1373 1399 1426 1437 1437 1437 0 0 0 0 1177 1169 1169 1169 1181 0 0 0 0 0 0 0 0 0 0 0 0 0 0 0 0 0 0 0 0 0 0 0 0 0 0 1734 1759 1763 1768 1768 1763 1762 0 0 0 0 0 0 0 0 0 0 0 0 0 0 0 0 0 0 0 0 0 0 0 0 0 0 0 0 0 0 0 0 0 0 0 0 0 0 0 0 0 0 1733 1735 1735 1735 1734 1734 1734 1736 1738 1739 1740 1740 1741 1741 1741 1742 1743 1744 1745 1746 1746 1748 1749 1750 1752 1754 1756 1757 1758 1759 1761 1764 1765 1767 1768 1769 1771 1772 1775 1776 1777 1779 1779 1780 1781 1781 1782 1782 1783 1783 1784 1785 1785 1785 1785 1785 1786 1788 1789 1790 1791 1792 1793 1795 1797 1797 1797 1797 1797 1799 1799 1799 1794 0 0 0 0 0 1246 1246 1246 1240 1234 1234 1234 1238 1238 1238 1201 1185 1177 1177 1177 0 0 0 0 0 0 0 0 0 0 0 0 0 1128 1128 1148 1170 1185 1208 1241 1272 1273 1278 1282 1290 0 0 0 0 0 0 0 2506 2526 2583 2690 2957 3123 3148 3162 3167 3169 3169 3168 3168 3159 3140 3117 3100 3096 3091 3090 3081 3062 3049 3023 2985 2920 2818 2628 0 0 0 0 0 0 0 0 0 0 0 0 0 0 1340 1328 1328 1328 1336 1342 1349 1354 1365 1374 1374 1374 1366 1344 1332 1332 1332 1346 1352 1352 1352 1352 1352 1376 1409 1432 1442 1465 1480 1480 1480 1477 1477 1477 1515 0 0 0 0 0 0 2519 2519 2519 2513 2513 2513 2513 2513 0 0 0 0 0 1829 1812 1801 1792 1785 1783 1778 1774 1768 1762 1756 1751 1748 1746 1745 1741 1740 1740 1736 1733 1730 1728 1725 1722 1721 1721 1720 1719 1718 1716 1713 1710 1706 1703 1703 1703 1703 1703 1701 1699 1697 1696 1693 1693 1690 1689 1688 1685 1684 1683 1682 1682 1680 1678 1676 1673 1671 1669 1668 1668 1668 1667 1667 1665 1664 1664 1663 1662 1662 1661 1659 1658 1658 1657 1657 1656 1653 1649 1636 1624 0 0 0 1508 1506 1502 1497 1492 1482 1470 1466 1465 1465 1465 1463 1462 1462 1462 1462 1458 1454 1451 1449 1446 1442 1437 1432 1432 1431 1431 1431 1431 1430 1430 1430 1430 1427 1424 1423 1422 1420 1417 1416 1415 1414 1413 1410 1407 1406 1406 1406 1407 1407 1407 1403 1400 1399 1398 1398 1397 1395 1395 1393 1392 1387 1380 1373 1373 1373 1373 1375 1375 1375 1375 1375 1374 1371 1369 1367 1360 1356 1356 1356 1356 1356 1355 1354 1354 1354 1354 1354 1349 1349 1345 1326 1316 1304 1291 1287 1281 1280 1272 1267 1263 1263 1263 1268 1275 1288 1298 1298 1298 1297 1295 1295 1293 1291 1286 1278 1270 1266 1266 1258 1255 1252 1250 1246 1237 1231 1226 1223 1209 1207 1200 1197 1197 1196 1196 1194 1188 1183 1179 1179 1179 1184 1189 1189 1189 1177 1159 1144 1140 1129 1109 1091 1078 1074 1067 1060 1049 1035 1014 980 971 971 969 963 959 0 0 0 0 0 0 0 788 788 788 800 800 800 782 782 782 800 802 802 804 804
1111 1111 1124 1136 1149 1163 1179 1181 1188 1191 1196 1207 1222 1233 1239 1243 1248 1257 1270 1280 1288 1294 1302 1312 1319 1324 1328 1331 1336 1340 1344 1348 1352 1355 1356 1358 1362 1364 1365 1365 1365 1365 1362 0 0 0 0 0 0 0 0 0 1330 1344 1368 1378 1378 1378 1362 1362 1362 1403 1414 1415 1415 0 0 0 0 0 1159 1156 1156 1156 1140 0 0 0 0 0 0 0 0 0 0 0 0 0 0 0 0 0 0 0 0 0 0 0 0 0 1709 1720 1725 1748 1762 1762 1762 1762 0 0 0 0 0 0 0 0 0 0 0 0 0 0 0 0 0 0 0 0 0 0 0 0 0 0 0 0 0 0 0 0 0 0 0 0 0 0 0 0 0 1722 1733 1735 1735 1736 1736 1736 1736 1738 1738 1739 1740 1740 1740 1740 1740 1741 1743 1744 1745 1745 1746 1746 1748 1750 1750 1753 1755 1756 1757 1758 1759 1762 1764 1766 1767 1768 1770 1771 1774 1775 1776 1778 1778 1779 1780 1781 1782 1782 1782 1783 1783 1783 1784 1784 1785 1785 1786 1787 1789 1790 1791 1792 1793 1795 1796 1796 1796 1796 1796 1796 1796 1789 0 0 0 0 0 0 1246 1246 1246 1240 1234 1234 1234 1238 1238 1238 1199 1176 1176 1176 1184 0 0 0 0 0 0 0 1265 1263 1263 0 0 0 1162 1162 1162 1170 1185 1208 1233 1239 1241 1241 1242 1267 0 0 0 0 0 0 0 0 2479 2541 2690 2957 3111 3137 3146 3153 3167 3168 3168 3168 3149 3139 3117 3110 3110 3110 3112 3112 3112 3097 3080 3044 3002 2866 2591 0 0 0 0 0 0 0 0 0 0 0 1410 1410 1410 1349 1330 1330 1330 1336 1342 1349 1362 1376 1378 1378 1378 1377 1345 1345 1345 1354 1362 1364 1366 1366 1366 1371 1376 1409 1432 1442 1465 1480 1489 1489 1491 1491 1494 0 0 0 0 0 0 0 2496 2496 2491 2495 2495 2495 2495 2495 0 0 0 0 0 1819 1807 1794 1788 1784 1782 1778 1771 1768 1761 1752 1750 1747 1744 1741 1738 1737 1736 1733 1730 1727 1725 1723 1720 1718 1717 1716 1716 1714 1712 1709 1706 1701 1699 1699 1699 1699 1699 1698 1697 1695 1694 1692 1691 1689 1687 1685 1683 1682 1681 1680 1680 1678 1676 1675 1672 1669 1667 1664 1664 1664 1664 1664 1664 1664 1663 1663 1662 1662 1659 1657 1657 1657 1657 1657 1656 1653 1650 1648 1644 1639 1619 0 0 0 1507 1501 1496 1487 1476 1469 1466 1464 1463 1462 1462 1462 1462 1462 1459 1455 1452 1449 1446 1443 1439 1436 1435 1435 1434 1432 1431 1430 1430 1430 1428 1426 1424 1423 1421 1420 1417 1416 1415 1414 1413 1410 1407 1405 1405 1405 1406 1406 1406 1400 1394 1394 1394 1395 1395 1395 1394 1393 1392 1387 1377 1372 1372 1372 1372 1373 1374 1374 1374 1373 1371 1371 1369 1366 1360 1356 1356 1356 1356 1356 1350 1343 1341 1341 1342 1342 1341 1341 1331 1326 1319 1316 1308 1303 1283 1281 1272 1267 1260 1260 1260 1263 1272 1283 1286 1294 1295 1295 1295 1295 1293 1291 1287 1281 1274 1269 1266 1258 1254 1252 1249 1246 1241 1232 1230 1227 1227 1213 1200 1190 1190 1190 1190 1190 1185 1183 1177 1171 1171 1171 1170 1165 1164 1154 1140 1128 1121 1113 1096 1082 1077 1058 1035 1032 1029 1026 1010 980 971 970 969 963 959 0 0 0 0 0 0 802 788 788 788 788 788 788 778 778 778 800 802 802 804 804
1105 1105 1117 1132 1145 1155 1166 1177 1180 1185 1193 1202 1215 1227 1236 1242 1246 1257 1270 1280 1288 1293 1302 1310 1317 1323 1328 1331 1335 1339 1343 1347 1350 1353 1355 1357 1359 1362 1365 1365 1365 1365 1362 0 0 0 0 0 0 0 0 0 0 1344 1368 1368 1368 1359 1359 1359 1369 1424 1424 1424 0 0 0 0 0 0 1146 1146 1146 1146 1099 1099 0 0 0 0 0 0 0 0 0 0 0 0 0 0 0 0 0 0 0 0 0 0 0 1691 1709 1713 1713 1718 1722 1722 1722 1708 0 0 0 0 0 0 0 0 0 0 0 0 0 0 0 0 0 0 0 0 0 0 0 0 0 0 0 0 0 0 0 0 0 0 0 0 0 0 0 0 1707 1724 1733 1735 1735 1736 1736 1736 1737 1738 1738 1739 1740 1740 1740 1740 1740 1740 1741 1742 1743 1744 1745 1746 1746 1748 1749 1751 1753 1755 1756 1756 1758 1759 1762 1764 1765 1767 1768 1770 1773 1774 1775 1776 1778 1779 1779 1780 1780 1780 1781 1782 1783 1783 1783 1783 1783 1785 1786 1787 1789 1790 1791 1792 1793 1795 1796 1796 1796 1795 1795 1794 1791 0 0 0 0 0 0 0 0 1238 1238 1238 1234 1234 1232 1229 1229 1200 1168 1168 1168 1176 0 0 0 0 0 0 0 1261 1261 1271 1273 1273 0 0 1225 1205 1205 1205 1205 1208 1226 1226 1227 1227 1227 1259 0 0 0 0 0 0 0 0 0 0 2696 2957 3106 3135 3136 3136 3136 3136 3104 2998 2998 2998 3051 3086 3100 3110 3112 3112 3112 3107 3098 3078 3002 2866 2591 0 0 0 0 0 0 0 0 0 0 1441 1426 1426 1417 1357 1334 1334 1334 1338 1348 1356 1363 1376 1381 1382 1382 1382 1359 1359 1359 1372 1372 1372 1371 1369 1369 1371 1376 1409 1432 1439 1447 1468 1489 1491 1491 1501 1525 0 0 0 0 0 0 2491 2496 2496 2491 2495 2495 2491 2491 2476 0 0 0 0 0 1815 1802 1793 1787 1782 1781 1778 1771 1764 1756 1751 1747 1745 1742 1740 1738 1736 1733 1730 1727 1724 1721 1721 1718 1717 1715 1714 1711 1708 1707 1704 1700 1698 1695 1695 1695 1696 1696 1696 1694 1693 1692 1689 1689 1687 1685 1683 1682 1680 1679 1678 1677 1676 1674 1673 1671 1669 1666 1663 1663 1663 1663 1663 1663 1663 1663 1662 1660 1659 1658 1657 1657 1657 1657 1657 1656 1653 1650 1648 1644 1640 1638 1622 1610 0 0 0 1496 1491 1483 1474 1470 1464 1460 1460 1460 1462 1462 1462 1460 1455 1452 1448 1446 1443 1442 1442 1440 1439 1436 1433 1431 1430 1429 1429 1428 1426 1424 1421 1418 1417 1417 1416 1415 1414 1410 1410 1407 1405 1405 1405 1404 1404 1402 1397 1392 1392 1392 1394 1394 1394 1393 1393 1390 1381 1377 1372 1370 1370 1370 1372 1374 1374 1374 1371 1369 1368 1368 1366 1359 1354 1354 1354 1354 1354 1343 1337 1332 1330 1330 1330 1329 1329 1328 1325 1323 1321 1319 1318 1315 1289 1272 1267 1260 1260 1260 1263 1271 1271 1274 1281 1291 1295 1295 1295 1293 1291 1287 1281 1274 1271 1266 1258 1254 1249 1249 1246 1241 1232 1230 1229 1229 1214 1200 1190 1176 1173 1170 1170 1172 1172 1170 1170 1164 1155 1127 1127 1127 1127 1127 1112 1107 1101 1093 1082 1073 1057 1035 1032 1029 1026 1010 980 971 970 969 963 959 945 0 0 0 0 0 802 788 788 784 784 784 762 753 753 753 0 0 0 0 0
1089 1089 1097 1110 1127 1140 1153 1166 1170 1179 1186 1197 1207 1219 1227 1236 1243 1257 1268 1279 1288 1293 1301 1310 1317 1323 1327 1330 1335 1339 1341 1345 1349 1351 1354 1355 1358 1360 1362 1365 1365 1365 1362 0 0 0 0 0 0 0 0 0 0 1344 1368 1368 1368 1353 1353 1353 1402 1410 1410 1410 0 0 0 0 0 1133 1133 1130 1130 1122 1098 1098 0 0 0 0 0 0 0 0 0 0 0 0 0 0 0 0 0 0 0 0 0 0 1671 1691 1707 1709 1709 1709 1709 1698 1696 1687 0 0 0 0 0 0 0 0 0 0 0 0 0 0 0 0 0 0 0 0 0 0 0 0 0 0 0 0 0 0 0 0 0 0 0 0 0 0 0 1707 1722 1728 1733 1734 1734 1736 1736 1736 1737 1738 1738 1738 1739 1740 1740 1740 1740 1740 1741 1741 1742 1742 1743 1744 1745 1747 1748 1750 1751 1752 1754 1755 1756 1758 1760 1762 1764 1766 1767 1769 1772 1773 1774 1776 1777 1777 1778 1778 1780 1780 1781 1782 1782 1783 1783 1783 1783 1784 1785 1786 1788 1790 1791 1791 1791 1791 1791 1793 1794 1794 1793 1792 0 0 0 0 0 0 0 0 0 0 1204 1214 1214 1214 1213 1207 1189 1171 1157 1157 1157 1176 0 0 0 0 0 0 0 1247 1247 1247 1273 1273 0 0 1268 1236 1221 1211 1211 1211 1219 1219 1222 1223 1227 1256 0 0 0 0 0 0 0 0 0 0 2728 2968 3106 3116 3116 3116 3114 3061 2919 2752 2752 2752 2859 2938 3052 3110 3112 3112 3112 3107 3098 3078 3002 2866 2531 0 0 0 0 0 0 0 0 0 0 1461 1459 1449 1417 1363 1340 1340 1340 1359 1363 1364 1365 1382 1388 1388 1388 1382 1366 1366 1366 1383 1383 1383 1376 1376 1370 1375 1375 1378 1385 1405 1431 1461 1463 1488 1492 1505 1529 0 0 0 0 0 0 2497 2497 2496 2491 2495 2494 2491 2491 0 0 0 0 0 1824 1807 1798 1792 1786 1781 1781 1777 1768 1761 1755 1750 1745 1742 1741 1739 1738 1733 1730 1727 1725 1722 1718 1717 1716 1715 1713 1711 1708 1705 1702 1699 1696 1693 1691 1690 1689 1689 1689 1691 1691 1691 1690 1688 1686 1684 1682 1680 1679 1678 1677 1676 1675 1673 1671 1669 1667 1666 1664 1663 1661 1660 1660 1661 1661 1661 1661 1660 1659 1658 1657 1657 1658 1657 1657 1657 1655 1653 1650 1648 1644 1640 1638 1633 1630 1626 1605 0 0 1493 1485 1477 1471 1463 1459 1459 1459 1462 1462 1462 1461 1455 1452 1448 1446 1446 1445 1444 1440 1439 1436 1433 1431 1429 1428 1428 1426 1423 1422 1419 1416 1415 1415 1414 1414 1413 1410 1410 1407 1405 1404 1404 1404 1399 1396 1392 1390 1389 1389 1388 1388 1388 1390 1390 1390 1381 1377 1371 1369 1369 1369 1371 1371 1371 1365 1364 1364 1364 1364 1361 1356 1349 1349 1349 1349 1349 1336 1330 1329 1329 1327 1324 1320 1320 1319 1319 1323 1323 1326 1326 1326 1322 1310 1290 1260 1260 1260 1263 1270 1271 1271 1276 1282 1286 1288 1290 1290 1290 1286 1282 1274 1271 1267 1259 1254 1249 1249 1246 1241 1231 1230 1229 1229 1216 1204 1190 1176 1150 1146 1144 1144 1144 1150 1150 1150 1127 1117 1117 1117 1117 1117 1112 1107 1101 1092 1080 1070 1057 1035 1032 1029 1026 1010 993 987 985 971 966 959 949 934 930 903 885 0 0 790 790 784 784 784 753 743 715 715 715 715 714 710 710
1089 1089 1089 1100 1118 1132 1144 1159 1163 1172 1180 1187 1201 1211 1221 1232 1240 1255 1268 1278 1288 1293 1301 1309 1316 1323 1325 1329 1333 1338 1341 1344 1347 1351 1354 1355 1358 1360 1362 1365 1365 1365 1357 0 0 0 0 0 0 0 0 0 0 1361 1370 1370 1370 1370 1370 1377 1410 1410 1410 1370 0 0 0 0 1131 1131 1131 1129 1129 1119 1077 1077 0 0 0 0 0 0 0 0 0 0 0 0 0 0 0 0 0 0 0 0 0 1656 1671 1688 1700 1700 1700 1700 1696 1691 1686 1686 0 0 0 0 0 0 0 0 0 0 0 0 0 0 0 0 0 0 0 0 0 0 0 0 0 0 0 0 0 0 0 0 0 0 0 0 0 0 0 1719 1722 1728 1733 1733 1733 1735 1735 1735 1736 1737 1737 1738 1739 1739 1739 1739 1740 1740 1740 1741 1741 1742 1742 1743 1744 1746 1747 1749 1750 1751 1751 1752 1754 1755 1756 1758 1760 1764 1766 1768 1770 1772 1774 1775 1776 1777 1777 1777 1778 1779 1781 1781 1782 1782 1782 1782 1783 1784 1784 1786 1787 1789 1789 1789 1788 1788 1788 1791 1791 1791 1791 1776 0 0 0 0 0 0 0 0 0 0 0 0 0 0 0 0 0 1145 1145 1145 1167 1196 0 0 0 0 0 0 0 1232 1228 1228 1228 1273 0 0 1268 1242 1238 1226 1212 1199 1199 1199 1209 1218 1227 1256 0 0 0 0 0 0 0 0 0 0 2760 2975 3081 3086 3086 3086 3019 2870 2700 2516 2516 2516 2640 2733 2865 2985 3062 3090 3098 3098 3098 3078 2986 2866 2531 0 0 0 0 0 0 0 0 0 0 1486 1478 1449 1417 1363 1363 1363 1367 1367 1367 1376 1376 1376 1386 1386 1386 1382 1377 1377 1377 1415 1415 1415 1380 1379 1378 1377 1369 1369 1369 1371 1415 1451 1453 1482 1496 1507 1533 0 0 0 0 0 2506 2512 2547 2552 2552 2552 2537 2495 0 0 0 0 0 0 1807 1798 1795 1790 1786 1781 1778 1771 1764 1759 1755 1749 1743 1741 1739 1737 1734 1730 1727 1724 1722 1720 1717 1715 1715 1713 1711 1708 1706 1701 1699 1696 1693 1691 1689 1687 1687 1686 1686 1686 1688 1688 1688 1685 1683 1681 1680 1679 1679 1677 1674 1674 1672 1671 1669 1666 1665 1663 1662 1660 1660 1659 1659 1659 1659 1658 1658 1658 1657 1657 1657 1657 1657 1657 1657 1656 1654 1651 1650 1647 1643 1640 1638 1635 1631 1628 1621 1608 1587 0 1511 1483 1472 1463 1459 1459 1459 1463 1463 1463 1461 1455 1447 1444 1444 1444 1444 1444 1440 1439 1436 1433 1431 1428 1427 1425 1423 1421 1419 1416 1413 1412 1412 1411 1411 1411 1410 1410 1407 1405 1404 1404 1403 1398 1392 1389 1385 1383 1378 1374 1372 1372 1372 1380 1380 1380 1377 1371 1367 1367 1366 1365 1365 1362 1360 1360 1360 1360 1359 1359 1354 1348 1346 1344 1344 1344 1336 1329 1329 1328 1327 1320 1310 1308 1308 1308 1313 1323 1326 1326 1326 1322 1311 1303 1285 1282 1279 1274 1271 1271 1271 1275 1276 1278 1284 1290 1290 1290 1286 1283 1279 1272 1268 1264 1261 1249 1249 1246 1241 1226 1226 1221 1220 1220 1218 1197 1176 1150 1146 1144 1140 1132 1124 1124 1120 1110 1110 1110 1117 1117 1117 1111 1105 1101 1087 1077 1070 1056 1049 1039 1035 1031 1024 1012 988 985 983 974 959 951 938 930 903 890 869 0 798 798 784 784 784 753 743 715 715 715 715 705 704 704
1081 1081 1088 1099 1113 1126 1138 1149 1162 1166 1175 1183 1194 1203 1214 1222 1237 1255 1267 1278 1287 1293 1299 1307 1314 1320 1322 1325 1331 1335 1339 1342 1347 1351 1354 1355 1358 1360 1362 1365 1365 1365 1357 1316 0 0 0 0 0 0 0 0 0 1366 1366 1366 1359 1359 1359 1378 1379 1379 1379 1328 0 0 0 0 1130 1130 1129 1126 1124 1073 1073 1073 0 0 0 0 0 0 0 0 0 0 0 0 0 0 0 0 0 0 0 0 0 1656 1668 1681 1685 1687 1688 1688 1688 1677 1661 0 0 0 0 0 0 0 0 0 0 1829 1829 1822 1818 0 0 0 0 0 0 0 0 0 0 0 0 0 0 0 0 0 0 0 0 0 0 0 0 0 1715 1720 1722 1728 1730 1731 1731 1731 1731 1733 1734 1735 1736 1737 1737 1738 1738 1739 1739 1739 1739 1740 1741 1741 1742 1743 1744 1745 1746 1747 1749 1750 1750 1751 1751 1753 1754 1756 1757 1760 1764 1766 1767 1770 1772 1774 1775 1776 1776 1777 1777 1778 1780 1780 1781 1782 1782 1782 1783 1783 1784 1785 1787 1789 1789 1789 1788 1788 1788 1788 1789 1789 1789 0 0 0 0 0 0 0 0 0 0 0 0 0 0 0 0 0 0 1110 1110 1141 1170 1206 0 0 0 0 0 0 0 1214 1205 1205 1205 1232 0 0 1268 1242 1238 1226 1212 1199 1191 1191 1191 1217 1232 1256 0 0 0 0 0 0 0 0 0 0 2804 2979 3047 3047 3047 3004 2857 2670 0 0 0 0 0 2510 2634 2740 2842 2923 3007 3074 3074 3074 2967 2866 2531 0 0 0 0 0 0 0 0 0 0 0 1502 1447 1401 1392 1392 1392 1392 1392 1383 1374 1374 1374 1381 1381 1381 1379 1379 1379 1397 1443 1443 1443 1403 1383 1379 1378 1369 1348 1348 1348 0 1446 1448 1480 1497 1509 0 0 0 0 0 0 2506 2512 2547 2558 2558 2558 2537 0 0 0 0 0 0 1810 1786 1783 1781 1780 1780 1778 1773 1763 1758 1755 1753 1748 1742 1740 1738 1734 1731 1728 1724 1722 1719 1718 1716 1713 1711 1708 1708 1705 1703 1700 1696 1694 1692 1688 1686 1685 1684 1684 1684 1684 1684 1684 1684 1683 1680 1679 1678 1677 1677 1676 1673 1672 1669 1667 1666 1664 1662 1661 1661 1659 1657 1657 1657 1656 1656 1656 1656 1656 1656 1656 1656 1656 1657 1657 1657 1656 1652 1650 1648 1645 1643 1640 1638 1636 1634 1630 1623 1614 1597 1581 0 1485 1472 1463 1459 1459 1459 1465 1465 1465 1461 1453 1446 1446 1446 1446 1446 1446 1439 1435 1433 1431 1430 1426 1425 1424 1421 1418 1415 1412 1410 1410 1408 1408 1407 1407 1406 1406 1405 1403 1401 1401 1399 1395 1392 1389 1384 1379 1378 1374 1370 1362 1362 1362 1370 1370 1370 1368 1365 1362 1362 1362 1361 1360 1359 1356 1356 1356 1355 1355 1353 1348 1346 1342 1341 1337 1332 1329 1329 1327 1324 1319 1310 1308 1308 1308 1313 1320 1326 1326 1326 1322 1311 1306 1297 1296 1295 1287 1275 1272 1272 1272 1274 1275 1283 1289 1289 1289 1285 1282 1276 1275 1270 1270 1261 1249 1249 1246 1241 1219 1219 1219 1218 1218 1218 1209 1190 1150 1146 1144 1140 1132 1124 1124 1112 1107 1107 1107 1111 1111 1111 1111 1105 1097 1079 1076 1061 1056 1053 1051 1042 1032 1030 1014 1004 999 994 987 967 951 947 930 908 892 879 850 810 810 810 808 808 753 0 715 715 715 715 705 699 699
1076 1076 1085 1096 1112 1121 1134 1144 1155 1158 1167 1177 1187 1196 1205 1217 1231 1245 1260 1272 1281 1289 1293 1301 1309 1314 1317 1322 1325 1332 1337 1342 1347 1350 1354 1358 1359 1361 1363 1365 1365 1365 1357 1332 0 0 0 0 0 0 0 0 0 1366 1366 1366 1355 1355 1355 1382 1382 1382 1350 1299 0 0 0 1130 1128 1127 1127 1126 1108 1070 1070 0 0 0 0 0 0 0 0 0 0 0 1005 1005 1003 0 0 0 0 0 0 0 1613 1638 1656 1667 1671 1677 1677 1677 1675 1655 0 0 0 0 0 0 0 0 0 0 1813 1818 1822 1822 1822 1822 1822 0 0 0 0 0 0 0 0 0 0 0 0 0 0 0 0 0 0 0 0 0 0 1714 1717 1720 1721 1722 1724 1727 1728 1729 1731 1732 1733 1734 1735 1735 1736 1737 1738 1738 1738 1739 1739 1739 1740 1740 1742 1742 1744 1744 1745 1746 1747 1748 1748 1748 1750 1752 1752 1755 1756 1758 1760 1762 1765 1768 1769 1772 1773 1773 1774 1776 1776 1778 1779 1780 1781 1781 1782 1782 1783 1783 1784 1785 1787 1789 1789 1789 1788 1787 1787 1787 1787 1787 1783 0 0 0 0 0 0 0 0 0 0 0 0 0 0 0 0 0 0 0 1099 1140 1178 0 0 0 0 0 0 0 1193 1179 1173 1173 1173 1196 0 0 1242 1242 1238 1226 1212 1199 1191 1191 1191 1211 1238 1257 1293 0 0 0 0 0 0 0 0 2533 2828 2979 3005 3005 3005 2864 2672 0 0 0 0 0 0 0 0 2507 2634 2720 2823 2918 2960 2960 2960 2857 2624 0 0 0 0 0 0 0 0 0 0 0 0 0 1401 1401 1401 1429 1429 1429 1383 1374 1374 1374 1381 1381 1381 1379 1379 1379 1397 1443 1443 1443 1404 1403 1399 1396 1369 1334 1334 1334 0 0 1435 1479 1497 0 0 0 0 0 0 0 2474 2512 2547 2558 2558 2558 2537 0 0 0 0 0 1828 1786 1769 1769 1769 1770 1770 1770 1766 1758 1754 1751 1749 1745 1741 1738 1736 1733 1727 1725 1723 1719 1718 1716 1714 1712 1709 1707 1705 1703 1701 1699 1696 1693 1690 1687 1685 1682 1681 1681 1681 1683 1683 1683 1681 1679 1678 1676 1676 1674 1674 1674 1672 1670 1667 1665 1664 1662 1661 1660 1659 1658 1657 1655 1654 1652 1652 1652 1652 1652 1653 1654 1655 1655 1656 1656 1656 1654 1651 1648 1647 1645 1643 1640 1638 1635 1635 1630 1626 1622 1600 1584 0 0 0 0 1471 1469 1469 1468 1468 1468 1460 1452 1446 1446 1446 1443 1443 1437 1432 1430 1426 1423 1423 1422 1421 1421 1419 1416 1412 1410 1409 1408 1408 1408 1406 1404 1403 1402 1400 1400 1399 1398 1395 1393 1392 1389 1384 1379 1378 1374 1370 1359 1359 1359 1361 1363 1363 1363 1363 1361 1360 1360 1359 1358 1356 1352 1352 1352 1353 1353 1353 1350 1346 1342 1338 1335 1331 1327 1327 1325 1322 1318 1310 1308 1308 1308 1313 1314 1315 1316 1316 1316 1311 1309 1307 1305 1297 1287 1279 1270 1268 1268 1268 1272 1283 1286 1286 1286 1283 1282 1278 1276 1272 1270 1265 1263 1255 1252 1241 1219 1217 1217 1217 1217 1217 1210 1201 1187 1184 1165 1143 1132 1124 1124 1112 1103 1103 1103 1110 1110 1110 1108 1105 1092 1062 1058 1053 1053 1053 1053 1044 1033 1030 1021 1014 1003 994 987 986 966 961 930 908 895 881 854 822 822 819 819 818 802 0 732 732 730 726 705 693 693
1075 1075 1084 1093 1105 1118 1131 1142 1150 1154 1160 1165 1173 1186 1197 1208 1220 1236 1248 1262 1272 1280 1284 1292 1300 1307 1312 1316 1321 1327 1334 1340 1347 1350 1354 1358 1359 1361 1364 1367 1367 1367 1357 1341 0 0 0 0 0 0 0 0 0 1366 1366 1366 1366 1366 1379 1379 1379 0 0 0 1178 1128 1122 1122 1122 1122 1122 1118 1091 1077 1077 0 0 0 0 0 0 0 0 0 0 1001 1001 1001 1001 1001 0 0 0 0 0 1593 1613 1638 1640 1650 1660 1666 1666 1666 1661 1650 0 0 0 0 0 0 0 0 0 0 1777 1782 1788 1801 1822 1822 1822 1809 1804 1803 1777 1775 0 0 0 0 0 0 0 0 0 0 0 0 0 0 0 0 0 1717 1718 1720 1721 1722 1724 1726 1727 1728 1729 1732 1732 1733 1733 1734 1735 1737 1738 1738 1738 1738 1738 1739 1739 1740 1741 1742 1743 1743 1744 1745 1745 1745 1746 1746 1747 1749 1751 1753 1754 1755 1758 1760 1762 1766 1768 1769 1772 1773 1774 1775 1776 1778 1778 1780 1780 1781 1781 1782 1783 1783 1783 1785 1787 1790 1790 1790 1788 1786 1786 1785 1785 1778 0 0 0 0 0 0 0 0 0 0 0 0 0 0 0 0 0 0 0 0 0 0 0 0 0 0 0 0 0 0 1169 1146 1146 1146 1156 1167 1181 1196 0 0 0 1203 1212 1212 1212 1211 1211 1211 1243 1277 1293 0 0 0 0 0 0 0 0 2533 2828 2968 2968 2968 2840 2657 0 0 0 2128 2146 2163 0 0 0 0 0 2518 2602 2752 2883 2883 2883 2857 2811 2603 0 0 0 0 0 0 0 0 0 0 0 0 0 1434 1434 1434 1434 1429 1383 1364 1364 1364 1379 1379 1379 1376 1376 1376 1397 1428 1428 1428 1419 1409 1408 1408 1373 1329 1329 1329 1363 1364 0 0 0 0 0 0 0 0 0 0 2474 2512 2547 2553 2553 2553 0 0 0 0 0 0 1806 1776 1768 1768 1767 1767 1767 1765 1759 1754 1752 1749 1746 1743 1740 1738 1734 1731 1727 1724 1722 1719 1716 1713 1712 1709 1707 1705 1704 1701 1699 1697 1695 1693 1690 1686 1684 1682 1681 1681 1681 1682 1682 1682 1680 1677 1675 1675 1674 1673 1672 1671 1670 1667 1665 1664 1662 1661 1660 1659 1657 1656 1655 1653 1651 1650 1649 1649 1649 1649 1649 1651 1652 1652 1652 1652 1652 1651 1649 1647 1646 1645 1643 1640 1638 1635 1635 1630 1626 1622 1613 1600 1594 1588 0 0 1504 1492 1481 1479 1474 1468 1460 1452 1447 1447 1446 1446 1446 1437 1432 1430 1425 1421 1421 1421 1419 1419 1419 1414 1411 1410 1408 1408 1408 1408 1406 1402 1400 1398 1395 1394 1394 1392 1392 1392 1391 1390 1384 1379 1379 1378 1370 1359 1354 1354 1353 1354 1354 1354 1358 1358 1358 1357 1357 1355 1350 1349 1345 1345 1345 1350 1350 1350 1346 1341 1335 1332 1329 1326 1323 1321 1320 1316 1314 1314 1312 1313 1313 1311 1309 1309 1309 1311 1311 1312 1312 1312 1312 1296 1283 1274 1268 1259 1259 1259 1267 1280 1280 1280 1276 1276 1276 1276 1276 1274 1271 1268 1261 1253 1241 1219 1217 1217 1217 1217 1217 1212 1203 1189 1185 1166 1150 1141 1133 1126 1111 1099 1099 1099 1104 1104 1104 1101 1081 1034 1034 1034 1042 1047 1047 1047 1044 1036 1034 1021 1014 1003 994 987 986 976 966 941 917 902 883 867 844 841 839 839 832 819 796 782 768 748 733 713 694 694
1073 1073 1084 1092 1099 1107 1128 1140 1148 1151 1155 1158 1170 1181 1191 1200 1212 1227 1236 1248 1260 1268 1278 1283 1293 1302 1306 1310 1315 1321 1331 1337 1344 1349 1354 1358 1359 1361 1364 1367 1367 1367 1358 1341 0 0 0 0 0 0 0 0 0 1347 1347 1366 1366 1366 1375 1375 1375 0 0 0 1120 1115 1115 1115 1115 1115 1115 1095 1063 1063 0 0 0 0 0 0 0 0 0 0 999 999 999 999 995 995 0 0 0 0 0 1613 1613 1638 1640 1650 1651 1651 1651 1648 1644 0 0 0 0 0 0 0 0 0 0 1759 1762 1766 1775 1799 1819 1819 1819 1809 1809 1805 1804 1803 1793 0 0 0 0 0 0 0 0 0 0 0 0 0 0 0 1710 1717 1718 1718 1720 1722 1724 1725 1727 1727 1729 1731 1732 1733 1733 1734 1734 1735 1736 1737 1737 1737 1738 1738 1739 1740 1741 1742 1743 1743 1744 1744 1744 1745 1745 1746 1746 1747 1749 1751 1752 1754 1757 1759 1761 1763 1766 1768 1770 1772 1773 1775 1776 1777 1778 1779 1780 1781 1781 1782 1782 1782 1783 1784 1787 1790 1790 1790 1788 1786 1786 1785 1780 0 0 0 0 0 0 0 0 0 0 0 0 0 0 0 0 0 0 0 0 0 0 0 0 0 0 0 0 0 0 1194 1153 1139 1139 1137 1139 1147 1147 1142 0 0 0 0 0 1219 1219 1219 1219 1219 1243 1277 1293 0 0 0 0 0 0 0 0 2533 2828 2828 2828 2808 2604 0 0 0 2086 2096 2112 2130 2138 2146 0 0 0 0 0 2525 2670 2737 2811 2811 2811 2605 0 0 0 0 0 0 0 0 0 0 0 0 0 0 0 0 1460 1429 1388 1364 1364 1364 1379 1379 1379 1372 1372 1372 1397 1403 1403 1408 1409 1409 1409 1409 1374 1329 1329 1329 1345 1346 1371 0 0 0 0 0 0 0 0 0 2468 2512 2545 2545 2545 2523 0 0 0 0 0 1830 1783 1775 1768 1767 1766 1766 1766 1762 1757 1754 1750 1748 1745 1742 1739 1737 1733 1730 1726 1723 1721 1718 1714 1711 1709 1708 1705 1703 1701 1698 1696 1694 1693 1690 1688 1686 1684 1682 1680 1680 1679 1679 1677 1676 1676 1674 1672 1671 1670 1670 1670 1669 1667 1667 1665 1662 1660 1658 1657 1656 1655 1654 1653 1651 1649 1647 1647 1647 1647 1647 1647 1648 1650 1650 1650 1650 1650 1648 1648 1646 1645 1645 1643 1639 1638 1635 1635 1630 1626 1622 1617 1615 1611 1603 1598 1583 1553 1528 1510 1484 1477 1469 1460 1453 1448 1447 1447 1446 1446 1437 1432 1430 1425 1418 1418 1418 1419 1419 1419 1414 1408 1408 1408 1407 1407 1407 1405 1401 1396 1395 1393 1391 1390 1390 1390 1390 1392 1392 1392 1383 1382 1382 1373 1359 1354 1354 1352 1352 1350 1347 1346 1344 1343 1343 1343 1344 1344 1344 1345 1345 1345 1350 1350 1350 1346 1341 1333 1328 1323 1321 1320 1320 1320 1316 1314 1314 1312 1312 1311 1310 1302 1302 1302 1308 1310 1312 1312 1312 1312 1296 1296 1292 1271 1258 1256 1256 1257 1258 1268 1268 1270 1272 1275 1275 1275 1274 1271 1271 1267 1256 1241 1220 1218 1218 1218 1218 1217 1212 1203 1200 1186 1169 1156 1147 1139 1127 1100 1087 1077 1072 1068 1060 1056 1055 1041 1030 1030 1030 1039 1042 1050 1050 1050 1036 1034 1021 1014 1003 992 987 986 976 966 964 945 929 916 892 860 859 858 849 843 823 799 784 779 755 738 713 694 694
1073 1073 1082 1091 1099 1107 1118 1139 1146 1148 1149 1154 1163 1174 1186 1193 1202 1215 1227 1240 1251 1258 1270 1273 1285 1294 1301 1302 1308 1317 1325 1334 1336 1338 1344 1351 1358 1359 1364 1367 1367 1367 1358 1350 0 0 0 0 0 0 0 0 0 1341 1342 1345 1346 1373 1373 1373 0 0 0 0 1108 1108 1108 1110 1110 1110 1109 1084 1077 1077 0 0 0 0 0 0 0 0 0 0 984 984 987 995 997 0 0 0 0 0 0 1637 1638 1640 1640 1650 1651 1651 1651 1636 0 0 0 0 0 0 0 0 0 0 0 1756 1758 1762 1771 1784 1788 1793 1793 1796 1803 1804 1804 1803 1801 1794 0 0 0 0 0 0 0 0 0 0 0 0 0 1700 1710 1717 1717 1718 1720 1722 1724 1725 1726 1727 1728 1729 1731 1732 1732 1733 1733 1734 1735 1735 1735 1736 1737 1737 1739 1740 1741 1742 1743 1743 1744 1744 1744 1745 1745 1745 1745 1746 1747 1749 1750 1751 1754 1756 1759 1761 1763 1766 1768 1771 1772 1774 1775 1777 1778 1779 1780 1781 1781 1782 1782 1782 1782 1784 1786 1788 1788 1788 1785 1785 1783 1781 0 0 0 0 0 0 0 0 0 0 0 0 0 0 0 0 0 0 0 0 0 0 0 0 0 0 0 0 0 0 0 1180 1151 1138 1138 1132 1138 1138 1138 1132 1113 1103 0 0 0 1219 1219 1219 1219 1219 1242 1277 1293 0 0 0 0 0 0 0 0 0 2636 2636 2636 2558 0 0 0 2046 2077 2088 2098 2109 2123 2127 2128 2131 0 0 0 0 0 2526 2644 2644 2644 0 0 0 0 0 0 0 0 0 0 0 0 0 0 0 0 0 1460 1433 1388 1364 1364 1364 1379 1379 1379 1379 1379 1379 1397 1397 1397 1403 1403 1409 1409 1409 1373 1329 1329 1329 1329 1330 1343 1368 0 0 0 0 0 0 0 0 0 2512 2520 2520 2520 0 0 0 0 0 1844 1798 1782 1775 1769 1767 1766 1765 1764 1758 1755 1751 1749 1747 1744 1741 1738 1735 1732 1729 1725 1723 1719 1715 1711 1708 1707 1706 1703 1701 1699 1695 1693 1691 1690 1688 1685 1684 1682 1680 1679 1678 1677 1675 1673 1672 1671 1670 1668 1667 1667 1667 1667 1666 1665 1663 1662 1660 1657 1657 1655 1653 1653 1652 1651 1648 1646 1646 1646 1645 1644 1643 1643 1643 1646 1647 1647 1647 1647 1645 1643 1641 1640 1639 1636 1634 1633 1632 1631 1625 1624 1622 1617 1615 1612 1608 1600 1596 1589 1571 1550 1521 1492 1479 1476 1462 1450 1448 1448 1447 1446 1442 1439 1430 1424 1418 1418 1418 1420 1420 1420 1413 1408 1408 1408 1407 1407 1407 1405 1397 1396 1395 1393 1391 1389 1389 1389 1390 1392 1392 1392 1387 1384 1382 1374 1363 1354 1354 1352 1352 1350 1343 1341 1339 1337 1337 1337 1341 1342 1342 1342 1343 1343 1347 1347 1347 1346 1337 1329 1324 1321 1320 1320 1320 1319 1316 1314 1314 1312 1312 1309 1307 1296 1296 1296 1301 1310 1312 1312 1312 1312 1296 1296 1292 1284 1258 1256 1256 1256 1258 1263 1264 1264 1267 1267 1274 1274 1274 1271 1271 1267 1256 1241 1227 1226 1224 1224 1221 1218 1212 1203 1200 1185 1174 1166 1159 1148 1131 1100 1087 1057 1055 1050 1044 1036 1034 1031 1028 1028 1028 1039 1042 1051 1051 1051 1048 1030 1018 1005 986 966 964 964 964 964 960 953 929 916 911 893 889 883 872 860 824 803 794 783 762 738 713 694 694
1073 1073 1082 1091 1099 1107 1118 1129 1137 1144 1147 1151 1157 1166 1178 1187 1194 1205 1216 1228 1242 1251 1262 1273 1277 1286 1291 1294 1301 1311 1317 1319 1323 1333 1337 1343 1351 1355 1359 1364 1364 1364 1358 1350 0 0 0 0 0 0 0 0 0 1319 1331 1337 1352 1364 1364 1364 0 0 0 0 1102 1102 1108 1109 1109 1109 1094 1064 1064 0 0 0 0 0 0 0 0 0 0 0 0 968 982 995 0 0 0 0 0 0 1652 1660 1662 1662 1662 1660 1656 1653 1651 1625 0 0 0 0 0 0 0 0 0 0 0 1749 1755 1758 1759 1761 1762 1762 1765 1771 1781 1803 1803 1803 1801 1794 1784 0 0 0 0 0 0 0 0 0 0 0 0 1700 1707 1711 1714 1715 1718 1722 1723 1725 1726 1727 1727 1728 1729 1731 1731 1732 1733 1733 1734 1734 1734 1734 1736 1737 1739 1740 1741 1742 1743 1743 1744 1744 1744 1745 1745 1745 1745 1746 1747 1748 1749 1750 1751 1754 1756 1759 1762 1764 1767 1769 1770 1772 1774 1776 1777 1778 1780 1780 1780 1781 1782 1782 1782 1783 1786 1787 1787 1787 1783 1781 1780 0 0 0 0 0 0 0 0 0 0 0 0 0 0 0 0 0 0 0 0 0 0 0 0 0 0 0 0 0 0 0 1184 1162 1146 1132 1132 1129 1129 1129 1116 1112 1111 1103 1103 0 0 1219 1219 1219 1219 1219 1242 1251 0 0 0 0 0 0 0 0 0 0 0 0 0 0 0 0 0 2046 2077 2088 2098 2109 2109 2109 2106 2106 2106 2119 0 0 0 0 0 0 0 0 0 0 0 0 0 0 0 0 0 0 0 0 0 0 0 0 0 0 1388 1381 1381 1381 1411 1411 1411 1389 1389 1389 1403 1403 1403 1403 1403 1404 1404 1404 1373 1333 1330 1329 1329 1330 1343 1368 1399 0 0 0 0 0 0 0 0 0 0 0 0 0 0 0 0 1839 1812 1795 1780 1775 1769 1767 1765 1765 1760 1755 1750 1749 1747 1745 1743 1740 1736 1734 1731 1726 1725 1722 1719 1714 1710 1707 1705 1703 1701 1699 1696 1693 1689 1688 1686 1684 1683 1682 1680 1679 1677 1676 1674 1674 1672 1670 1668 1667 1666 1665 1665 1665 1664 1663 1662 1661 1659 1658 1657 1655 1653 1652 1652 1650 1648 1646 1645 1644 1643 1641 1641 1641 1640 1641 1641 1641 1641 1641 1641 1639 1639 1638 1637 1635 1632 1632 1630 1629 1628 1625 1622 1620 1617 1615 1612 1612 1611 1609 1606 1601 1583 1558 1533 1519 1501 1474 1458 1449 1449 1448 1448 1446 1443 1434 1423 1418 1418 1418 1420 1420 1420 1413 1408 1408 1408 1405 1405 1405 1396 1396 1396 1394 1393 1391 1389 1389 1389 1390 1392 1392 1392 1388 1385 1383 1377 1368 1364 1362 1361 1354 1347 1339 1336 1334 1334 1334 1337 1339 1339 1340 1340 1341 1342 1344 1344 1344 1341 1337 1329 1324 1320 1319 1319 1318 1318 1315 1312 1312 1311 1307 1306 1296 1287 1287 1287 1293 1298 1298 1299 1298 1296 1296 1296 1292 1286 1284 1264 1258 1258 1258 1260 1263 1263 1264 1264 1264 1267 1268 1268 1267 1267 1256 1240 1231 1230 1229 1227 1224 1221 1215 1211 1201 1185 1174 1166 1159 1148 1132 1100 1087 1057 1055 1050 1044 1034 1033 1020 1020 1020 1028 1039 1042 1051 1051 1051 1048 1029 1015 996 976 947 927 927 927 953 953 953 929 916 911 893 889 883 872 860 824 799 796 783 765 765 759 732 732
1073 1073 1082 1091 1101 1109 1118 1126 1134 1140 1145 1148 1156 1164 1172 1181 1191 1199 1209 1221 1234 1244 1255 1269 1272 1281 1285 1290 1294 1300 1308 1312 1316 1325 1334 1340 1347 1352 1356 1360 1360 1360 1358 1350 0 0 0 0 0 0 0 0 0 1302 1318 1331 1353 1353 1353 0 0 0 0 0 1102 1104 1108 1109 1109 1108 1078 1076 1076 0 0 0 0 0 0 0 0 0 0 0 0 0 0 0 0 0 0 0 0 1654 1665 1669 1673 1680 1680 1680 1678 1674 1656 1625 0 0 0 0 0 0 0 0 0 0 0 1744 1747 1752 1754 1754 1755 1758 1760 1765 1770 1780 1791 1793 1793 1793 1784 0 0 0 0 0 0 0 0 0 0 0 1691 1703 1707 1707 1708 1711 1715 1720 1722 1723 1724 1724 1725 1727 1728 1730 1731 1731 1731 1732 1733 1733 1734 1734 1736 1737 1739 1740 1741 1742 1743 1743 1744 1744 1745 1745 1745 1745 1745 1746 1747 1748 1749 1749 1749 1750 1753 1755 1759 1762 1766 1766 1766 1768 1770 1774 1775 1777 1778 1778 1779 1780 1781 1781 1782 1782 1785 1787 1787 1787 1782 1775 0 0 0 0 0 0 0 0 0 0 0 0 0 0 0 0 0 0 0 0 0 0 0 0 0 0 0 0 0 0 0 0 1144 1141 1134 1129 1118 1118 1116 1116 1116 1112 1111 1103 1103 1103 0 1203 1203 1203 1190 1190 1190 1199 0 0 0 0 0 0 0 0 0 0 0 0 0 0 0 0 0 2045 2077 2088 2098 2099 2099 2099 2087 2087 2087 2098 2102 0 0 0 0 0 0 0 0 0 0 0 0 0 0 0 0 0 0 0 0 0 0 0 0 0 0 1407 1407 1428 1463 1463 1463 1441 1431 1430 1422 1417 1403 1403 1403 1391 1391 1391 1378 1352 1338 1330 1330 1330 1343 1368 1398 1421 0 0 0 0 0 0 0 0 0 0 0 0 0 0 1847 1820 1802 1789 1779 1774 1769 1767 1765 1762 1757 1752 1748 1746 1744 1741 1740 1737 1735 1732 1727 1724 1722 1721 1717 1712 1708 1705 1702 1700 1698 1696 1693 1690 1687 1686 1684 1682 1680 1679 1679 1678 1676 1674 1673 1671 1669 1668 1666 1665 1664 1663 1662 1662 1661 1660 1660 1658 1657 1656 1654 1653 1650 1650 1649 1648 1647 1645 1644 1642 1640 1639 1638 1637 1636 1636 1636 1636 1636 1636 1636 1635 1634 1634 1633 1632 1630 1629 1628 1627 1626 1624 1622 1619 1616 1615 1613 1612 1611 1609 1606 1601 1598 1582 1574 1562 1550 1521 1485 1463 1452 1450 1450 1450 1447 1434 1424 1418 1418 1418 1422 1422 1422 1413 1408 1407 1406 1405 1405 1401 1396 1396 1396 1394 1392 1391 1389 1389 1389 1389 1390 1390 1390 1388 1385 1383 1379 1373 1368 1363 1361 1356 1346 1336 1334 1334 1334 1334 1337 1337 1337 1337 1337 1337 1337 1337 1338 1338 1338 1336 1329 1324 1320 1319 1318 1318 1318 1313 1310 1309 1306 1300 1299 1292 1283 1283 1283 1283 1283 1269 1269 1269 1285 1286 1286 1286 1286 1284 1281 1272 1260 1259 1259 1260 1261 1262 1262 1261 1260 1260 1258 1257 1257 1243 1235 1234 1231 1231 1227 1224 1221 1215 1211 1200 1184 1174 1166 1159 1148 1134 1116 1097 1057 1055 1050 1044 1034 1032 1018 1018 1018 1028 1044 1045 1051 1051 1051 1048 1029 1008 985 967 947 925 925 925 953 953 953 917 911 906 893 889 883 872 860 823 796 796 794 792 776 765 732 732
1073 1073 1082 1093 1101 1109 1117 1126 1131 1139 1144 1147 1154 1162 1170 1177 1186 1196 1207 1216 1227 1235 1245 1257 1261 1274 1278 1282 1286 1293 1299 1306 1311 1321 1330 1338 1345 1350 1354 1354 1354 1353 1350 1339 0 0 0 0 0 0 0 0 0 1290 1309 1331 1353 1353 1353 0 0 0 0 1098 1098 1106 1106 1106 1102 1045 1045 1045 0 0 0 0 0 0 0 0 0 0 0 0 0 0 0 0 0 0 0 0 0 1664 1669 1676 1680 1685 1685 1685 1685 1683 1658 0 0 0 0 0 0 0 0 0 0 0 1715 1721 1727 1743 1751 1751 1753 1755 1758 1758 1763 1772 1776 1779 1779 1779 1775 0 0 0 0 0 0 0 0 0 1687 1689 1706 1706 1706 1706 1708 1709 1713 1717 1720 1722 1722 1722 1724 1726 1727 1729 1729 1730 1731 1731 1732 1733 1734 1734 1735 1737 1739 1740 1741 1742 1743 1743 1744 1744 1745 1745 1745 1745 1745 1746 1747 1748 1748 1749 1749 1749 1750 1753 1755 1757 1760 1761 1762 1765 1768 1770 1773 1774 1776 1776 1778 1779 1780 1781 1781 1782 1784 1786 1786 1786 1782 1773 0 0 0 0 0 0 0 0 0 0 0 0 0 0 0 0 0 0 0 0 0 0 0 0 0 0 0 0 0 0 0 0 1104 1104 1104 1104 1101 1101 1101 1102 1111 1111 1111 1109 1109 1109 1165 1176 1176 1179 1176 1176 1165 1165 1165 0 0 0 0 0 0 0 0 0 0 0 0 0 0 0 0 0 2085 2102 2111 2111 2111 2099 2075 2074 2074 2073 2073 2073 2058 2058 0 0 0 0 0 0 0 0 0 0 0 0 0 0 0 0 0 0 0 0 0 0 0 0 0 1468 1478 1478 1478 1470 1444 1435 1427 1424 1422 1407 1406 1404 1396 1391 1381 1362 1352 1345 1345 1345 1360 1368 1398 1417 0 0 0 0 0 0 0 0 0 0 0 0 0 0 1826 1810 1794 1786 1778 1773 1769 1765 1761 1758 1754 1750 1745 1743 1741 1740 1737 1735 1733 1729 1725 1722 1720 1718 1715 1709 1706 1703 1700 1698 1696 1694 1691 1689 1686 1685 1683 1681 1679 1678 1677 1677 1675 1673 1670 1668 1667 1665 1664 1663 1662 1660 1660 1660 1659 1658 1657 1656 1655 1654 1653 1652 1650 1648 1648 1647 1645 1644 1643 1641 1639 1638 1637 1635 1635 1634 1634 1632 1632 1632 1632 1632 1631 1631 1631 1630 1629 1628 1626 1625 1624 1623 1622 1618 1616 1615 1613 1612 1611 1609 1606 1602 1599 1596 1592 1588 1580 1561 0 0 0 1471 1469 1464 1450 1435 1426 1419 1419 1419 1422 1422 1422 1413 1408 1407 1407 1406 1406 1401 1396 1396 1396 1394 1391 1391 1389 1389 1389 1389 1389 1388 1387 1386 1385 1383 1379 1375 1370 1363 1363 1356 1350 1336 1334 1334 1334 1337 1337 1337 1336 1334 1333 1331 1331 1331 1332 1334 1334 1334 1329 1325 1320 1318 1317 1316 1314 1311 1307 1305 1301 1299 1297 1292 1283 1283 1282 1280 1280 1267 1267 1267 1273 1278 1278 1279 1281 1281 1281 1272 1259 1257 1256 1255 1255 1255 1255 1253 1250 1243 1243 1242 1240 1239 1234 1231 1231 1231 1227 1224 1221 1215 1211 1200 1180 1169 1156 1147 1139 1139 1138 1135 1109 1083 1077 1069 1058 1032 1018 1018 1018 1031 1044 1045 1051 1051 1051 1039 1017 995 979 966 947 925 925 925 944 944 944 912 895 894 878 854 841 827 814 797 797 797 795 795 780 765 732 732
1073 1073 1082 1093 1101 1109 1117 1124 1130 1136 1143 1147 1153 1160 1167 1176 1184 1192 1201 1212 1222 1231 1239 1246 1253 1258 1264 1272 1280 1285 1291 1297 1304 1313 1322 1331 1340 1348 1349 1349 1349 1342 1335 1324 0 0 0 0 0 0 0 0 0 1276 1291 1334 1334 1334 0 0 0 0 1099 1099 1099 1106 1106 1106 1059 1045 1036 1036 0 0 0 0 0 0 0 0 0 0 0 0 0 0 0 0 0 0 0 0 1653 1666 1675 1682 1685 1685 1685 1685 1685 1683 1658 0 0 0 0 0 0 0 0 0 0 0 1707 1710 1719 1728 1737 1746 1750 1753 1755 1755 1759 1764 1771 1771 1771 1768 0 0 0 0 0 0 0 0 0 1682 1706 1707 1707 1706 1707 1707 1707 1708 1711 1715 1718 1719 1721 1722 1723 1724 1726 1728 1728 1729 1729 1731 1731 1733 1733 1734 1735 1736 1737 1740 1741 1742 1742 1743 1744 1744 1745 1745 1745 1746 1747 1747 1747 1748 1748 1749 1749 1749 1750 1751 1753 1754 1756 1758 1759 1761 1765 1768 1770 1773 1775 1775 1777 1777 1780 1781 1781 1782 1784 1787 1787 1787 1782 0 0 0 0 0 0 0 0 0 0 0 0 0 0 0 0 0 0 0 0 0 0 0 0 0 0 0 0 0 0 1100 1092 1087 1087 1087 1093 1093 1093 1093 1093 1102 1102 1102 1101 1101 1101 1125 1165 1176 1176 1179 1176 1176 1165 1165 1165 1173 0 0 0 0 0 0 0 0 0 0 0 0 0 0 0 0 0 2111 2113 2113 2113 2099 2073 2049 2048 2047 2045 2045 2028 2028 2028 2029 0 0 0 0 0 0 0 0 0 0 0 0 0 0 0 0 0 0 0 0 0 0 0 0 1483 1483 1483 1482 1467 1444 1441 1435 1434 1432 1429 1423 1406 1391 1382 1375 1375 1374 1374 1374 1374 1380 1398 1399 1405 1416 0 0 0 0 0 0 0 0 0 0 0 1835 1810 1798 1788 1782 1772 1767 1762 1757 1754 1753 1751 1747 1744 1741 1740 1737 1735 1732 1729 1727 1722 1719 1717 1716 1711 1707 1704 1701 1699 1696 1694 1692 1690 1688 1686 1684 1683 1681 1678 1676 1675 1674 1672 1670 1667 1666 1664 1662 1661 1660 1659 1658 1658 1657 1656 1655 1655 1654 1653 1652 1651 1650 1648 1647 1646 1644 1643 1641 1640 1639 1638 1637 1635 1634 1633 1632 1631 1630 1629 1629 1629 1628 1628 1627 1627 1627 1625 1625 1624 1623 1622 1622 1621 1618 1615 1613 1613 1612 1609 1606 1604 1602 1602 1601 1596 1594 1591 1580 1578 1563 0 0 0 0 0 1451 1434 1419 1419 1419 1424 1424 1424 1419 1413 1409 1407 1406 1406 1401 1400 1396 1395 1394 1391 1387 1387 1387 1388 1388 1388 1385 1383 1379 1379 1379 1379 1375 1370 1363 1363 1356 1352 1336 1336 1336 1338 1339 1339 1339 1333 1330 1324 1324 1324 1324 1329 1333 1333 1333 1329 1325 1320 1316 1315 1314 1314 1309 1304 1298 1298 1296 1296 1292 1283 1283 1282 1280 1280 1267 1263 1263 1263 1269 1269 1270 1273 1273 1273 1272 1259 1250 1250 1249 1245 1245 1245 1244 1239 1232 1232 1231 1231 1231 1231 1231 1231 1229 1225 1220 1211 1207 1202 1193 1176 1163 1152 1140 1139 1138 1135 1135 1109 1090 1083 1075 1068 1033 1028 1028 1028 1031 1044 1045 1045 1045 1038 1029 1010 986 975 965 952 949 941 941 933 925 920 896 888 888 878 854 834 810 797 797 797 799 799 799 0 0 692 692
1068 1068 1080 1093 1100 1108 1114 1121 1128 1134 1143 1147 1153 1160 1167 1174 1181 1190 1197 1206 1218 1227 1234 1240 1246 1250 1255 1262 1269 1277 1283 1287 1290 1297 1308 1313 1321 1337 1339 1339 1339 1335 1328 1318 0 0 0 0 0 0 0 0 0 0 1291 1330 1330 0 0 0 0 0 1099 1099 1099 1099 1099 1061 1045 1026 1026 0 0 0 0 0 0 0 0 0 0 0 0 0 0 0 0 0 0 0 0 0 1655 1667 1680 1689 1689 1689 1687 1685 1685 1683 0 0 0 0 0 0 0 0 0 0 0 0 1707 1710 1719 1728 1736 1739 1746 1748 1751 1752 1756 1763 1763 1763 1763 1743 0 0 0 0 0 0 0 0 0 1706 1706 1707 1707 1706 1707 1707 1707 1708 1710 1714 1716 1717 1719 1721 1722 1724 1725 1726 1726 1727 1729 1729 1731 1732 1732 1733 1734 1735 1736 1738 1740 1741 1742 1743 1744 1744 1745 1745 1746 1746 1747 1748 1748 1749 1749 1749 1749 1749 1750 1750 1751 1753 1754 1756 1758 1760 1764 1766 1768 1770 1773 1774 1775 1777 1779 1780 1781 1782 1782 1783 1783 1783 1780 0 0 0 0 0 0 0 0 0 0 0 0 0 0 0 0 0 0 0 0 0 0 0 0 0 0 0 1109 1101 1097 1084 1080 1078 1078 1078 1080 1080 1084 1084 1084 1102 1102 1102 1100 1100 1100 1125 1165 1176 1176 1182 1176 1176 1165 1165 1165 1173 0 0 0 0 0 0 0 0 0 0 0 0 0 0 0 0 0 0 0 2125 2120 2111 2073 2043 2026 2026 2026 2026 2026 2014 2014 2014 2030 2043 2065 2086 0 0 0 0 0 0 0 0 0 0 0 0 0 0 0 0 0 0 0 0 1507 1502 1487 1483 1467 1452 1452 1452 1452 1452 1452 1449 1444 1426 1406 1406 1406 1402 1402 1402 1383 1383 1383 1383 1397 1398 1405 0 0 0 0 0 0 0 0 1864 1844 1810 1795 1787 1777 1775 1769 1762 1757 1753 1751 1749 1747 1745 1742 1741 1738 1736 1734 1729 1726 1723 1720 1718 1716 1714 1709 1705 1702 1700 1697 1695 1693 1691 1689 1688 1685 1682 1681 1678 1677 1674 1672 1670 1669 1666 1665 1662 1661 1661 1658 1657 1656 1655 1655 1654 1653 1652 1652 1652 1650 1650 1649 1648 1647 1646 1644 1642 1641 1640 1638 1637 1636 1635 1634 1632 1631 1629 1629 1628 1627 1627 1626 1625 1624 1623 1623 1622 1622 1622 1621 1620 1619 1618 1617 1615 1614 1612 1611 1611 1608 1606 1604 1602 1602 1601 1597 1595 1595 1594 1594 1594 1592 1572 1562 1547 0 0 0 0 1445 1442 1440 1433 1428 1426 1416 1411 1407 1407 1406 1406 1405 1397 1396 1394 1391 1387 1387 1387 1388 1388 1388 1385 1383 1379 1378 1378 1377 1375 1371 1363 1363 1356 1352 1346 1346 1346 1346 1346 1345 1339 1333 1327 1323 1318 1317 1317 1317 1321 1322 1323 1323 1323 1320 1316 1314 1313 1313 1309 1300 1298 1295 1295 1293 1292 1286 1285 1283 1282 1280 1267 1262 1260 1260 1260 1257 1257 1257 1264 1264 1264 1259 1248 1248 1242 1240 1240 1239 1235 1225 1225 1225 1227 1227 1227 1203 1203 1203 1208 1208 1208 1205 1202 1198 1189 1176 1163 1152 1140 1139 1138 1135 1135 1109 1090 1083 1075 1068 1051 1039 1031 1031 1031 1034 1034 1034 1024 1010 999 989 980 971 965 952 949 933 931 925 882 867 867 867 867 867 854 834 810 797 797 797 807 807 807 0 0 692 692
1063 1063 1074 1086 1096 1103 1110 1118 1124 1133 1142 1147 1153 1160 1167 1174 1180 1187 1195 1199 1210 1222 1230 1235 1240 1246 1250 1255 1263 1269 1273 1277 1280 1283 1290 1298 1305 1318 1327 1327 1327 1324 1320 1312 0 0 0 0 0 0 0 0 0 0 0 0 0 0 0 0 0 1094 1094 1094 1094 1094 1094 0 0 0 0 0 0 0 0 0 0 0 0 0 0 0 0 0 0 0 0 0 0 0 0 0 1655 1669 1681 1692 1692 1692 1686 1680 1674 1664 0 0 0 0 0 0 0 0 0 0 0 1707 1709 1710 1719 1728 1736 1739 1740 1740 1743 1746 1752 1758 1758 1758 1750 0 0 0 0 0 0 0 0 0 0 1706 1706 1706 1706 1706 1706 1706 1707 1708 1710 1712 1714 1716 1718 1719 1721 1722 1723 1724 1726 1726 1727 1729 1730 1731 1732 1733 1733 1734 1735 1737 1739 1741 1741 1743 1744 1744 1745 1745 1746 1746 1747 1748 1749 1749 1749 1749 1749 1749 1750 1750 1750 1751 1752 1753 1755 1758 1762 1764 1766 1768 1769 1771 1774 1776 1778 1780 1781 1782 1782 1782 1782 1782 0 0 0 0 0 0 0 0 0 0 0 0 0 0 0 0 0 0 0 0 0 0 0 0 0 0 0 1086 1080 1080 1080 1080 1080 1070 1062 1062 1062 1074 1077 1078 1084 1106 1106 1106 1100 1100 1100 1125 1158 1176 1178 1186 1189 1189 1189 1205 1205 1205 1249 1286 0 0 0 0 0 0 0 0 0 0 0 0 0 0 0 0 0 0 0 2120 2073 2043 2026 2026 2022 2022 2022 2007 2002 2002 2002 2015 2032 2039 2047 0 0 0 0 0 0 0 0 0 0 0 0 0 0 0 0 0 0 0 0 1502 1489 1483 1467 1452 1452 1452 1453 1453 1453 1449 1444 1426 1417 1417 1417 1417 1417 1417 1404 1383 1383 1383 1386 1396 1403 0 0 0 0 0 0 0 1826 1826 1821 1793 1785 1775 1768 1765 1763 1759 1756 1752 1749 1745 1742 1741 1741 1739 1737 1733 1729 1726 1722 1720 1718 1716 1714 1711 1708 1704 1700 1698 1696 1693 1691 1691 1688 1686 1684 1682 1679 1677 1674 1672 1670 1667 1665 1662 1660 1659 1658 1658 1656 1655 1653 1652 1652 1651 1651 1651 1650 1649 1648 1648 1647 1646 1644 1642 1642 1640 1638 1637 1637 1635 1634 1632 1632 1630 1630 1628 1627 1626 1625 1624 1624 1622 1621 1621 1620 1620 1619 1619 1619 1617 1616 1616 1614 1613 1611 1611 1609 1609 1608 1606 1604 1603 1602 1602 1600 1597 1597 1597 1600 1600 1600 1599 1590 1574 1566 1560 0 0 0 0 0 0 1446 1436 1421 1411 1409 1409 1408 1408 1406 1400 1395 1394 1391 1387 1387 1387 1388 1388 1388 1385 1383 1379 1378 1378 1377 1377 1373 1364 1363 1363 1363 1361 1355 1350 1348 1348 1345 1339 1333 1327 1323 1318 1315 1314 1312 1309 1309 1309 1315 1315 1315 1314 1313 1312 1312 1306 1300 1297 1295 1294 1293 1292 1286 1285 1283 1282 1275 1274 1270 1265 1259 1255 1249 1242 1242 1242 1242 1244 1244 1244 1243 1240 1239 1238 1238 1235 1225 1225 1224 1223 1222 1211 1199 1199 1199 1202 1202 1202 1200 1195 1190 1181 1173 1163 1152 1140 1129 1127 1126 1124 1106 1090 1083 1075 1068 1051 1039 1028 1028 1028 1027 1027 1015 994 0 0 944 953 953 953 952 949 933 925 895 868 858 858 858 863 863 863 834 810 797 797 797 811 811 811 0 0 0 692
1062 1062 1072 1080 1088 1097 1107 1115 1124 1133 1140 1147 1154 1160 1166 1173 1179 1184 1190 1197 1207 1214 1221 1227 1232 1238 1242 1250 1258 1263 1267 1269 1273 1278 1282 1289 1296 1303 1307 1311 1312 1312 1312 0 0 0 0 0 0 0 0 0 0 0 0 0 0 0 0 0 0 1086 1086 1094 1094 1094 0 0 0 0 0 0 0 0 0 0 0 0 0 0 0 0 0 0 0 0 0 0 0 0 0 1654 1656 1669 1681 1692 1692 1692 1682 1674 1668 0 0 0 0 0 0 0 0 0 0 0 1730 1731 1731 1732 1732 1734 1736 1739 1739 1740 1740 1741 1748 1753 1753 1753 0 0 0 0 0 0 0 0 0 0 1701 1706 1706 1706 1706 1706 1706 1706 1707 1708 1709 1711 1713 1714 1716 1716 1717 1719 1721 1723 1724 1726 1727 1727 1729 1730 1731 1732 1733 1734 1735 1737 1739 1740 1741 1742 1744 1744 1745 1746 1746 1747 1747 1748 1749 1749 1749 1749 1749 1750 1750 1750 1750 1750 1751 1752 1754 1756 1759 1761 1763 1765 1767 1768 1770 1774 1777 1777 1779 1780 1780 1779 1779 0 0 0 0 0 0 0 0 0 0 0 0 0 0 0 0 0 0 0 0 0 0 0 0 0 0 0 0 1071 1071 1071 1080 1080 1080 1057 1040 1040 1040 1071 1074 1084 1107 1125 1125 1125 1104 1104 1104 1117 1132 1151 1166 1176 1189 1213 1218 1225 1232 1241 1259 1259 1259 1230 0 0 0 0 0 0 0 0 0 0 0 0 0 0 0 0 0 0 0 0 2026 2026 2022 2020 2017 2004 1999 1999 1999 2002 2014 2017 2019 2024 0 0 0 0 0 0 0 0 0 0 0 0 0 0 0 0 0 0 0 0 1497 1477 1465 1452 1452 1452 1453 1453 1453 1449 1444 1426 1426 1426 1427 1427 1427 1427 1426 1402 1382 1382 1382 1388 1390 0 0 0 0 0 0 1820 1820 1820 1798 1789 1782 1771 1764 1760 1758 1757 1756 1751 1747 1744 1740 1738 1736 1735 1733 1730 1726 1724 1721 1718 1716 1714 1712 1708 1706 1702 1700 1696 1694 1692 1690 1688 1687 1683 1682 1679 1677 1674 1671 1669 1667 1665 1662 1660 1658 1657 1655 1655 1653 1652 1651 1651 1648 1648 1648 1648 1648 1647 1647 1646 1645 1644 1642 1641 1639 1638 1637 1636 1634 1633 1633 1631 1629 1628 1628 1626 1625 1624 1624 1622 1622 1620 1619 1619 1618 1617 1616 1616 1616 1614 1613 1613 1612 1610 1609 1609 1608 1607 1607 1606 1605 1604 1603 1602 1602 1599 1599 1599 1602 1602 1602 1599 1592 1588 1584 1582 1573 1556 1555 1551 0 0 0 1472 1446 1411 1411 1411 1408 1408 1406 1403 1395 1393 1393 1392 1391 1389 1389 1389 1388 1386 1383 1379 1378 1378 1378 1378 1374 1370 1368 1365 1364 1361 1355 1350 1348 1348 1345 1340 1333 1327 1323 1318 1313 1311 1311 1308 1301 1301 1301 1305 1306 1306 1310 1310 1310 1305 1299 1294 1293 1292 1291 1289 1286 1284 1283 1280 1275 1274 1270 1265 1257 1250 1246 1241 1234 1234 1233 1233 1232 1231 1232 1232 1234 1235 1235 1235 1225 1225 1225 1223 1221 1209 1196 1193 1190 1190 1190 1189 1189 1186 1179 1174 1173 1167 1162 1144 1121 1109 1104 1094 1088 1084 1076 1065 1060 1051 1039 1028 1025 1023 1020 1014 1005 981 932 913 912 912 0 0 922 922 920 911 895 868 856 856 856 866 866 866 860 828 801 801 801 811 833 833 0 0 0 0
1061 1061 1071 1080 1086 1097 1106 1114 1123 1132 1140 1146 1154 1160 1166 1173 1177 1180 1185 1192 1201 1212 1219 1221 1225 1230 1234 1241 1251 1255 1259 1264 1269 1274 1276 1278 1281 1284 1292 1304 1306 1306 1306 0 0 0 0 0 0 0 0 0 0 0 0 0 0 0 0 0 1084 1084 1084 1084 1084 1082 0 0 0 0 0 0 0 0 0 0 0 0 0 0 0 0 0 0 0 0 0 0 0 0 1644 1654 1656 1669 1681 1681 1681 1681 1672 1668 1661 0 0 0 0 0 0 0 0 0 0 1726 1735 1743 1743 1743 1743 1743 1742 1742 1740 1740 1737 1737 1737 1737 1737 1737 0 0 0 0 0 0 0 0 0 1697 1701 1705 1705 1705 1705 1705 1706 1706 1707 1708 1709 1711 1711 1712 1714 1715 1715 1717 1720 1721 1724 1725 1726 1727 1728 1729 1731 1732 1733 1734 1735 1737 1739 1740 1741 1742 1744 1744 1745 1747 1747 1747 1748 1749 1750 1750 1750 1750 1750 1750 1750 1750 1750 1750 1750 1752 1753 1755 1757 1759 1759 1760 1763 1766 1769 1772 1773 1777 1777 1777 1775 1774 1754 0 0 0 0 0 0 0 0 0 0 0 0 0 0 0 0 0 0 0 0 0 0 0 0 0 0 0 1069 1068 1068 1071 1080 1080 1080 1057 1040 1040 1040 1056 1074 1084 1107 1125 1125 1125 1110 1110 1110 1116 1117 1118 1129 1153 1189 1213 1218 1225 1232 1241 1254 1254 1254 1208 1208 1208 0 0 0 0 0 0 0 0 0 0 0 0 0 0 0 0 0 0 0 0 2029 2029 2020 1992 1984 1984 1984 1990 2000 2003 2004 2007 2010 0 0 0 0 0 0 0 0 0 0 0 0 0 0 0 0 0 0 0 0 1458 1451 1441 1441 1451 1451 1441 1440 1438 1432 1422 1422 1422 1427 1427 1443 1443 1443 1417 1389 1371 1367 1367 1371 0 0 0 0 0 0 1808 1808 1808 1797 1788 1780 1770 1764 1760 1756 1755 1753 1749 1745 1742 1739 1736 1733 1732 1730 1727 1724 1721 1718 1715 1714 1711 1709 1706 1703 1700 1697 1694 1691 1690 1688 1686 1683 1681 1679 1677 1675 1672 1669 1667 1665 1663 1661 1659 1658 1656 1654 1653 1652 1650 1649 1648 1647 1646 1646 1646 1646 1646 1644 1644 1644 1642 1641 1639 1637 1637 1635 1635 1632 1632 1630 1629 1628 1627 1626 1625 1625 1623 1622 1621 1620 1618 1617 1615 1615 1615 1614 1614 1613 1611 1611 1611 1609 1609 1608 1607 1607 1607 1606 1606 1605 1604 1604 1603 1602 1601 1601 1601 1602 1602 1602 1599 1592 1588 1586 1585 1584 1582 1575 1574 1571 1557 1533 0 0 0 0 0 1417 1417 1417 1403 1395 1395 1394 1394 1394 1394 1392 1390 1389 1386 1383 1380 1379 1379 1379 1379 1377 1373 1371 1368 1364 1361 1355 1350 1348 1348 1346 1341 1337 1330 1324 1318 1313 1311 1311 1308 1301 1292 1292 1291 1290 1290 1290 1297 1299 1299 1299 1294 1293 1292 1289 1286 1284 1284 1283 1279 1275 1274 1270 1265 1254 1247 1239 1234 1234 1230 1230 1230 1227 1226 1222 1222 1222 1234 1234 1234 1225 1225 1223 1222 1220 1208 1195 1193 1190 1186 1185 1177 1176 1176 1173 1173 1173 1170 1165 1145 1118 1101 1093 1088 1082 1074 1071 1065 1059 1048 1033 1024 1021 1017 1011 1005 992 967 932 913 907 896 875 0 875 903 903 903 882 868 853 852 852 853 853 855 855 855 853 819 819 819 833 845 0 0 0 0
