1014 1014 1022 1032 1036 1044 1053 1060 1068 1071 1080 1089 1101 1112 1123 1132 1141 1153 1167 1180 1190 1196 1201 1203 1208 1214 1220 1226 1226 1226 1224 1213 0 0 0 0 0 0 0 0 0 0 1313 1322 1333 1338 1341 1344 1346 1347 1347 1347 1346 1343 1334 0 0 0 0 0 0 0 0 1289 0 0 1078 1070 1053 1053 1053 1053 1055 1055 1057 1058 1058 1059 1059 1060 1060 1061 1063 1064 1064 1064 1065 1066 1066 1067 1067 1067 1067 1068 1068 1069 1069 1069 1069 1069 1070 1070 1070 1070 1070 1070 1070 1070 1070 1070 1070 1070 1070 1070 1070 1070 1070 1070 1070 1070 1070 1070 1069 1068 1067 1066 1065 1061 1056 1049 1031 1020 1011 1009 1009 1009 1009 1021 1021 1021 1017 1012 1012 1012 1012 1013 1016 1024 1027 1027 1027 1026 1026 1026 1028 1034 1040 1043 1045 1047 1049 1050 1053 1057 1058 1060 1061 1062 1063 1064 1064 1065 1065 1065 1065 1065 1065 1065 1065 1065 1065 1064 1064 1064 1064 1064 1064 1064 1064 1064 1063 1063 1063 1062 1062 1061 1060 1060 1060 1060 1059 1058 1057 1057 1055 1055 1055 1054 1054 1054 1054 1054 1054 1053 1053 1053 1052 1052 1052 1052 1052 1052 1053 1054 1055 1055 1055 1056 1056 1056 1055 1055 1055 1056 1056 1056 1056 1056 1056 1056 1056 1055 1055 1055 1055 1055 1055 1055 1054 1054 1054 1054 1054 1054 1054 1054 1054 1054 1053 1053 1053 1052 1052 1052 1052 1051 1051 1051 1051 1051 1050 1050 1050 1050 1050 1049 1049 1049 1049 1048 1048 1047 1047 1047 1046 1046 1046 1046 1046 1045 1045 1044 1044 1044 1044 1044 1043 1043 1043 1042 1042 1042 1042 1042 1042 1042 1042 1042 1042 1042 1042 1042 1041 1041 1041 1041 1041 1041 1041 1041 1040 1040 1040 1040 1040 1040 1040 1040 1038 1037 1037 1037 1036 1035 1035 1035 1036 1036 1036 1036 1036 1036 1035 1035 1034 1033 1033 1033 1032 1032 1032 1032 1031 1031 1031 1031 1031 1030 1030 1030 1030 1030 1030 1030 1030 1029 1029 1028 1027 1027 1027 1026 1026 1026 1026 1026 1025 1025 1025 1025 1025 1023 1022 1021 1020 1020 1020 1020 1021 1021 1024 1024 1024 1024 1024 1023 1023 1023 1023 1022 1021 1020 1020 1020 1020 1020 1020 1020 1020 1020 1020 1020 1021 1021 1021 1021 1021 1021 1021 1022 1022 1022 1022 1022 1022 1022 1022 1022 1022 1022 1022 1022 1022 1022 1022 1022 1021 1021 1021 1021 1021 1021 1021 1021 1021 1020 1020 1020 1019 1019 1019 1019 1019 1018 1018 1018 1017 1017 1017 1016 1016 1016 1016 1016 1015 1015 1015 1015 1015 1015 1015 1015 1015 1014 1014 1014 1014 1013 1013 1013 1013 1012 1012 1012 1012 1012 1012 1012 1013 1014 1015 1016 1017 1019 1022 1022 1026 1029 1031 1032 1032 1033 1034 1034 1034 1034 1033 1032 1031 1030 1030 1028 1028 1027 1027 1026 1025 1025 1024 1023 1023 1022 1022 1021 1021 1020 1019 1019 1019 1020 1020 1020 1021 1022 1023 1024 1024 1024 1027 1030 1032 1037 1037 1040 1040 1051 0 0 0 0 0 0 0 1438 1461 1466 1466 1468 1469 1471 1472 1473 1474 1474 1474 1473 1472 1470 1469 1467 1465 1464 1462 1461 1460 1459 1457 1456 1455 1454 1453 1452 1451 1450 1450 1448 1445 1445 1442 1441 1440 1438 1435 1433 1429 1428 1426 1425 1424 1421 1419 1416 1414 1413 1407 1405 1398 1393 1386 1381 1371 1339 1310 1299 1291 1281 1270 1262 1256 1249 1242 1227 1211 1203 1202 1198 1196 1193 1193 1193 1196 1200 1200 0 0 0 0 0 0 0
1013 1013 1020 1028 1034 1040 1053 1064 1072 1075 1083 1090 1101 1111 1119 1130 1139 1150 1165 1177 1187 1195 1199 1202 1207 1214 1220 1226 1227 1227 1227 1218 0 0 0 0 0 0 0 0 0 0 1321 1331 1336 1339 1342 1343 1345 1347 1347 1347 1346 1344 1333 0 0 0 0 0 0 0 1300 1290 0 0 1078 1070 1053 1053 1053 1053 1055 1055 1057 1057 1058 1058 1059 1059 1060 1061 1062 1063 1063 1064 1064 1065 1065 1066 1066 1067 1067 1067 1068 1068 1068 1069 1069 1069 1069 1069 1070 1069 1070 1070 1070 1070 1070 1070 1070 1070 1070 1070 1070 1070 1070 1070 1070 1070 1070 1070 1069 1068 1067 1066 1065 1063 1058 1054 1046 1038 1038 1038 1036 1036 1036 1036 1037 1037 1038 1038 1038 1039 1041 1043 1045 1048 1048 1048 1048 1048 1045 1045 1045 1046 1049 1053 1053 1054 1054 1055 1055 1058 1060 1061 1063 1063 1063 1064 1064 1065 1065 1065 1065 1065 1065 1065 1065 1065 1064 1064 1064 1064 1064 1064 1064 1064 1064 1064 1063 1063 1063 1062 1062 1061 1061 1060 1060 1060 1060 1059 1059 1059 1057 1056 1056 1056 1056 1055 1055 1055 1055 1055 1055 1054 1054 1054 1054 1054 1054 1054 1054 1055 1056 1056 1057 1057 1057 1057 1056 1056 1056 1056 1056 1056 1056 1056 1056 1056 1055 1055 1055 1055 1055 1054 1054 1054 1054 1054 1054 1054 1054 1054 1054 1054 1054 1054 1053 1053 1052 1052 1052 1052 1052 1051 1051 1051 1051 1051 1050 1050 1050 1050 1050 1049 1049 1049 1049 1048 1048 1047 1047 1047 1046 1046 1046 1046 1046 1045 1045 1044 1044 1044 1044 1044 1043 1043 1043 1042 1042 1042 1042 1042 1042 1042 1042 1042 1042 1041 1041 1041 1041 1041 1041 1041 1041 1040 1040 1040 1040 1039 1039 1039 1039 1039 1039 1039 1037 1037 1037 1036 1035 1035 1035 1035 1036 1036 1036 1036 1036 1035 1035 1035 1034 1033 1033 1033 1032 1032 1032 1031 1031 1031 1031 1031 1030 1030 1030 1030 1030 1030 1030 1030 1030 1029 1028 1027 1027 1027 1026 1026 1026 1026 1026 1026 1025 1025 1025 1025 1025 1024 1024 1023 1023 1021 1021 1021 1021 1022 1024 1024 1024 1024 1024 1023 1023 1023 1023 1022 1021 1021 1020 1020 1020 1020 1020 1020 1020 1020 1021 1021 1021 1021 1021 1021 1021 1021 1022 1022 1022 1022 1022 1022 1022 1022 1022 1022 1022 1022 1022 1022 1022 1022 1021 1021 1021 1021 1021 1021 1021 1021 1021 1021 1021 1020 1020 1020 1020 1019 1019 1019 1019 1018 1018 1018 1017 1017 1017 1016 1016 1016 1015 1015 1015 1015 1015 1015 1015 1015 1015 1015 1015 1014 1014 1014 1013 1013 1013 1012 1012 1012 1012 1012 1012 1012 1012 1012 1012 1013 1014 1014 1016 1018 1020 1021 1023 1026 1027 1029 1029 1031 1031 1031 1031 1031 1030 1029 1028 1028 1026 1026 1025 1025 1025 1024 1023 1023 1023 1022 1022 1022 1021 1021 1020 1020 1019 1019 1019 1020 1020 1020 1021 1022 1023 1024 1024 1025 1028 1030 1032 1037 1039 1040 1042 0 0 0 0 0 0 0 0 1462 1466 1466 1466 1468 1469 1470 1472 1473 1473 1473 1473 1473 1472 1470 1469 1467 1465 1464 1462 1461 1460 1459 1457 1455 1454 1453 1452 1452 1450 1450 1447 1446 1444 1442 1441 1439 1438 1436 1434 1431 1429 1428 1426 1424 1422 1419 1417 1416 1414 1412 1407 1404 1398 1389 1386 1381 1371 1340 1312 1299 1291 1281 1269 1262 1255 1247 1239 1222 1208 1200 1198 1197 1195 1193 1192 1192 1192 1206 1206 1206 1205 0 0 0 0 0
1011 1011 1016 1022 1029 1039 1053 1065 1078 1081 1087 1092 1101 1109 1116 1127 1138 1149 1160 1174 1184 1193 1198 1201 1207 1214 1220 1225 1228 1228 1228 1222 0 0 0 0 0 0 0 0 0 0 1322 1333 1338 1341 1342 1343 1345 1347 1347 1347 1347 1344 1333 0 0 0 0 0 0 0 1305 1290 0 0 1072 1070 1055 1053 1053 1055 1055 1055 1057 1057 1058 1058 1059 1059 1060 1061 1062 1062 1063 1064 1064 1065 1065 1066 1066 1066 1067 1067 1068 1068 1068 1069 1069 1069 1069 1069 1069 1069 1069 1069 1070 1070 1070 1070 1070 1070 1070 1070 1070 1070 1070 1070 1070 1070 1070 1070 1069 1069 1067 1067 1065 1064 1061 1056 1054 1054 1054 1053 1052 1051 1050 1050 1050 1050 1050 1050 1050 1052 1053 1053 1054 1054 1054 1054 1054 1054 1054 1054 1054 1055 1055 1056 1057 1057 1057 1058 1058 1060 1061 1062 1063 1063 1064 1064 1064 1065 1065 1065 1065 1065 1065 1065 1065 1065 1065 1064 1064 1064 1064 1064 1064 1064 1064 1064 1063 1063 1063 1062 1062 1062 1061 1061 1061 1060 1060 1060 1060 1060 1058 1058 1057 1057 1057 1057 1057 1057 1057 1056 1055 1055 1055 1055 1055 1055 1055 1055 1055 1056 1057 1057 1057 1057 1057 1057 1057 1057 1057 1056 1056 1056 1056 1056 1055 1055 1055 1055 1055 1055 1054 1054 1054 1054 1054 1054 1054 1054 1054 1054 1054 1054 1053 1053 1053 1052 1052 1052 1052 1052 1052 1051 1051 1051 1051 1051 1050 1050 1050 1050 1050 1049 1049 1049 1049 1048 1048 1048 1047 1047 1046 1046 1046 1046 1046 1045 1045 1044 1044 1044 1044 1044 1043 1043 1043 1042 1042 1042 1042 1042 1042 1042 1041 1041 1041 1041 1041 1041 1041 1041 1041 1040 1040 1040 1040 1040 1039 1039 1039 1039 1039 1039 1039 1038 1037 1037 1037 1036 1036 1036 1036 1036 1036 1036 1036 1036 1036 1035 1035 1035 1034 1033 1033 1032 1032 1032 1031 1031 1031 1031 1031 1031 1030 1030 1030 1030 1030 1030 1030 1029 1029 1029 1028 1027 1027 1027 1027 1026 1026 1026 1025 1025 1025 1025 1025 1024 1025 1025 1025 1025 1025 1023 1023 1023 1023 1024 1024 1024 1024 1023 1023 1023 1023 1023 1023 1022 1021 1021 1021 1021 1020 1020 1020 1020 1020 1020 1021 1021 1021 1021 1021 1021 1021 1021 1022 1022 1022 1022 1022 1022 1022 1022 1022 1022 1022 1022 1022 1022 1022 1021 1021 1021 1021 1021 1021 1021 1021 1021 1021 1021 1021 1020 1020 1020 1019 1019 1019 1019 1019 1018 1018 1018 1017 1017 1017 1016 1016 1016 1015 1015 1015 1015 1015 1015 1015 1015 1014 1014 1014 1014 1013 1013 1013 1013 1013 1012 1012 1011 1011 1011 1011 1011 1011 1011 1012 1013 1013 1014 1014 1017 1019 1021 1021 1024 1025 1026 1027 1028 1029 1029 1029 1028 1027 1027 1027 1027 1025 1025 1024 1023 1023 1022 1022 1021 1021 1021 1021 1020 1020 1020 1020 1019 1019 1019 1019 1019 1020 1021 1021 1022 1023 1024 1024 1025 1028 1031 1034 1038 1039 1040 0 0 0 0 0 0 0 0 1462 1466 1466 1468 1468 1468 1469 1470 1472 1472 1472 1472 1472 1472 1471 1470 1468 1466 1465 1463 1462 1460 1459 1458 1457 1455 1453 1452 1451 1450 1449 1448 1446 1444 1442 1441 1439 1438 1436 1434 1432 1429 1429 1426 1424 1422 1420 1418 1416 1414 1412 1410 1407 1404 1398 1386 1386 1380 1371 1345 1317 1299 1291 1282 1269 1259 1254 1246 1234 1219 1207 1199 1198 1197 1195 1194 1192 1192 1192 1199 1205 1205 1205 1196 0 0 0 0
1011 1011 1016 1022 1026 1034 1049 1065 1080 1087 1091 1095 1101 1108 1116 1124 1136 1149 1159 1170 1182 1191 1198 1201 1207 1214 1220 1225 1227 1227 1227 1222 0 0 0 0 0 0 0 0 0 0 1322 1334 1338 1341 1342 1342 1345 1347 1347 1347 1347 1344 1333 0 0 0 0 0 0 0 1311 1289 0 0 1072 1070 1058 1057 1055 1055 1055 1055 1057 1057 1058 1058 1059 1060 1060 1061 1062 1062 1063 1063 1064 1064 1065 1065 1066 1066 1066 1066 1068 1068 1068 1069 1069 1069 1069 1069 1069 1069 1069 1069 1069 1069 1070 1070 1070 1070 1070 1070 1070 1070 1070 1070 1070 1070 1070 1070 1069 1069 1068 1067 1066 1064 1063 1061 1061 1061 1061 1061 1060 1058 1058 1057 1057 1057 1057 1056 1057 1057 1056 1057 1057 1057 1057 1057 1057 1058 1058 1059 1061 1061 1061 1061 1061 1061 1061 1061 1061 1061 1062 1063 1063 1064 1064 1064 1064 1065 1065 1065 1065 1065 1065 1065 1064 1064 1064 1064 1064 1064 1064 1064 1064 1064 1064 1064 1063 1063 1063 1062 1062 1062 1062 1062 1061 1061 1061 1061 1060 1060 1059 1058 1058 1058 1058 1058 1058 1058 1058 1057 1057 1057 1056 1056 1056 1056 1056 1056 1057 1057 1057 1057 1057 1057 1057 1057 1057 1057 1057 1056 1056 1056 1056 1055 1055 1055 1055 1055 1055 1054 1054 1054 1054 1054 1054 1053 1053 1053 1053 1053 1053 1053 1053 1053 1052 1052 1052 1052 1052 1052 1051 1051 1051 1051 1051 1050 1050 1050 1050 1050 1050 1049 1049 1049 1049 1048 1048 1048 1047 1047 1047 1046 1046 1046 1045 1045 1045 1044 1044 1044 1044 1043 1043 1043 1043 1042 1042 1042 1042 1041 1041 1041 1041 1041 1041 1041 1041 1041 1041 1041 1041 1040 1040 1040 1040 1039 1039 1039 1039 1039 1039 1038 1038 1038 1037 1037 1037 1036 1036 1036 1036 1036 1036 1036 1035 1035 1035 1035 1035 1034 1034 1033 1033 1032 1032 1032 1031 1031 1031 1031 1031 1031 1030 1030 1030 1030 1030 1030 1029 1029 1029 1029 1028 1027 1027 1027 1027 1026 1026 1026 1026 1026 1025 1025 1024 1024 1024 1025 1025 1025 1025 1023 1023 1023 1023 1023 1023 1023 1023 1023 1023 1023 1023 1023 1023 1022 1022 1021 1021 1021 1021 1020 1020 1020 1020 1021 1021 1021 1021 1021 1021 1021 1021 1022 1022 1022 1022 1022 1022 1023 1023 1023 1023 1023 1022 1022 1022 1022 1022 1021 1021 1021 1021 1021 1021 1021 1021 1021 1021 1021 1021 1020 1020 1020 1019 1019 1019 1019 1019 1018 1018 1018 1017 1017 1016 1016 1016 1015 1015 1015 1015 1015 1015 1015 1014 1014 1014 1014 1014 1014 1013 1013 1013 1013 1012 1012 1012 1011 1010 1010 1010 1010 1011 1011 1011 1012 1012 1013 1014 1016 1018 1019 1020 1021 1022 1022 1023 1024 1024 1025 1025 1025 1025 1025 1024 1024 1024 1023 1023 1022 1022 1021 1021 1020 1020 1020 1020 1020 1020 1019 1019 1019 1019 1019 1019 1019 1020 1021 1021 1022 1022 1023 1025 1026 1029 1032 1036 1039 1042 1050 0 0 0 0 0 0 0 1453 1468 1468 1468 1468 1468 1468 1469 1470 1470 1471 1472 1472 1472 1471 1470 1469 1468 1466 1464 1462 1461 1460 1458 1458 1456 1454 1452 1451 1449 1449 1448 1446 1445 1443 1441 1439 1437 1437 1435 1433 1431 1428 1427 1424 1422 1420 1417 1415 1414 1411 1411 1408 1406 1402 1396 1386 1386 1379 1369 1351 1329 1305 1295 1282 1270 1251 1242 1239 1229 1217 1206 1199 1197 1196 1195 1194 1192 1192 1192 1197 1201 1201 1201 1196 0 0 0 0
1011 1011 1016 1021 1025 1034 1047 1065 1080 1088 1092 1097 1103 1108 1114 1123 1134 1145 1157 1168 1179 1190 1197 1201 1207 1214 1219 1222 1225 1225 1225 1222 0 0 0 0 0 0 0 0 0 0 1321 1334 1338 1339 1341 1341 1343 1344 1346 1346 1346 1345 1333 0 0 0 0 0 0 1309 1309 1265 0 0 1072 1070 1065 1065 1061 1061 1057 1057 1057 1058 1058 1058 1059 1060 1060 1061 1062 1062 1063 1063 1064 1064 1064 1065 1066 1066 1066 1066 1067 1068 1068 1068 1069 1069 1069 1069 1069 1069 1069 1069 1069 1069 1069 1069 1069 1069 1070 1070 1070 1070 1070 1070 1070 1070 1070 1070 1069 1069 1069 1068 1067 1066 1064 1064 1064 1064 1064 1064 1063 1060 1059 1059 1059 1059 1059 1061 1061 1061 1060 1059 1059 1059 1059 1059 1059 1059 1059 1062 1062 1062 1062 1062 1062 1062 1062 1062 1062 1062 1063 1063 1064 1064 1064 1064 1064 1065 1065 1065 1065 1065 1065 1064 1064 1064 1064 1064 1064 1064 1064 1064 1064 1064 1064 1064 1063 1063 1063 1062 1062 1062 1062 1062 1061 1061 1061 1061 1060 1060 1059 1059 1059 1059 1059 1059 1059 1059 1058 1057 1057 1057 1057 1057 1057 1057 1057 1057 1057 1057 1057 1057 1057 1057 1057 1057 1057 1057 1057 1056 1056 1056 1056 1055 1055 1055 1055 1054 1054 1054 1054 1054 1054 1053 1053 1053 1053 1053 1053 1053 1053 1053 1052 1052 1052 1052 1052 1051 1051 1051 1051 1051 1051 1051 1051 1050 1050 1050 1050 1050 1049 1049 1049 1049 1048 1048 1048 1048 1047 1047 1047 1046 1046 1046 1045 1045 1045 1044 1044 1044 1044 1043 1043 1043 1043 1042 1041 1041 1041 1041 1041 1041 1041 1041 1041 1041 1041 1041 1041 1041 1041 1040 1040 1040 1039 1039 1039 1039 1039 1039 1038 1038 1038 1038 1037 1037 1037 1036 1036 1036 1036 1036 1036 1036 1035 1035 1035 1035 1035 1034 1034 1033 1033 1032 1032 1032 1031 1031 1031 1031 1031 1031 1031 1030 1030 1030 1030 1030 1030 1029 1029 1029 1028 1028 1027 1027 1027 1027 1027 1026 1026 1026 1025 1025 1025 1025 1025 1025 1025 1025 1025 1023 1023 1023 1023 1023 1023 1023 1023 1023 1023 1023 1023 1023 1022 1022 1022 1022 1021 1021 1021 1021 1021 1021 1021 1021 1021 1021 1021 1021 1021 1021 1022 1022 1023 1023 1023 1023 1024 1024 1024 1023 1023 1023 1023 1023 1023 1022 1022 1021 1021 1021 1021 1021 1021 1021 1021 1021 1021 1021 1021 1020 1019 1019 1019 1019 1019 1018 1018 1018 1017 1017 1017 1016 1016 1016 1015 1015 1015 1015 1015 1014 1014 1014 1014 1014 1014 1014 1013 1013 1013 1013 1012 1012 1011 1011 1011 1010 1010 1010 1010 1010 1010 1010 1011 1011 1012 1012 1014 1014 1015 1016 1017 1019 1019 1020 1021 1022 1022 1022 1023 1023 1023 1023 1022 1021 1021 1021 1021 1020 1020 1019 1019 1019 1019 1019 1019 1019 1019 1019 1019 1018 1018 1018 1019 1019 1020 1021 1021 1021 1022 1024 1026 1026 1029 1033 1037 1039 1056 0 0 0 0 0 0 0 1439 1457 1468 1468 1468 1468 1468 1468 1469 1469 1469 1469 1470 1470 1470 1469 1469 1468 1467 1465 1463 1462 1460 1459 1457 1457 1456 1453 1451 1450 1449 1448 1447 1445 1442 1441 1439 1438 1437 1435 1434 1432 1429 1426 1424 1421 1418 1416 1414 1412 1410 1409 1408 1406 1403 1401 1396 1386 1380 1373 1367 1351 1329 1306 1295 1282 1268 1244 1238 1231 1226 1217 1206 1195 1192 1192 1191 1191 1191 1191 1191 1195 1198 1198 1198 1196 1171 0 0 0
1010 1010 1016 1019 1024 1034 1047 1065 1080 1088 1092 1097 1103 1107 1112 1123 1134 1145 1156 1165 1177 1187 1197 1201 1207 1214 1217 1219 1222 1222 1222 1216 0 0 0 0 0 0 0 0 0 0 1321 1333 1337 1338 1339 1339 1341 1344 1345 1346 1346 1346 1335 0 0 0 0 0 0 1311 1309 1245 0 1087 1087 1084 1082 1082 1069 1062 1058 1058 1058 1059 1059 1059 1059 1060 1060 1061 1061 1062 1063 1063 1064 1064 1064 1065 1066 1066 1066 1066 1067 1067 1068 1068 1068 1069 1069 1069 1069 1069 1069 1069 1069 1069 1069 1069 1069 1069 1069 1070 1070 1070 1070 1070 1070 1070 1070 1070 1070 1070 1069 1069 1069 1069 1068 1067 1066 1065 1065 1065 1063 1062 1061 1061 1061 1061 1062 1062 1061 1061 1060 1060 1060 1060 1061 1061 1061 1061 1062 1063 1063 1063 1063 1063 1063 1063 1063 1063 1063 1063 1064 1064 1064 1064 1064 1065 1065 1065 1065 1065 1065 1064 1064 1064 1064 1064 1064 1064 1064 1064 1064 1064 1064 1064 1063 1063 1063 1063 1063 1063 1062 1062 1062 1062 1062 1061 1061 1061 1060 1060 1060 1059 1059 1059 1059 1059 1059 1059 1058 1058 1058 1058 1058 1057 1057 1057 1057 1057 1057 1057 1057 1057 1057 1057 1057 1057 1057 1057 1057 1056 1056 1056 1055 1055 1055 1054 1054 1053 1053 1053 1053 1053 1053 1053 1053 1053 1053 1053 1053 1052 1052 1052 1052 1052 1052 1052 1052 1051 1051 1051 1051 1051 1050 1050 1050 1050 1050 1050 1050 1050 1049 1049 1049 1048 1048 1048 1048 1047 1047 1047 1047 1046 1046 1046 1045 1045 1045 1045 1044 1044 1044 1043 1043 1043 1043 1042 1041 1041 1041 1041 1041 1041 1041 1041 1041 1041 1041 1041 1041 1041 1041 1040 1040 1040 1039 1039 1039 1039 1039 1039 1038 1038 1038 1038 1037 1037 1037 1036 1036 1036 1036 1036 1036 1036 1035 1035 1035 1035 1035 1034 1034 1033 1033 1032 1032 1032 1032 1031 1031 1031 1031 1031 1031 1031 1030 1030 1030 1030 1030 1029 1029 1029 1028 1028 1028 1027 1027 1027 1027 1027 1026 1026 1025 1025 1025 1025 1025 1025 1025 1025 1024 1023 1023 1023 1023 1023 1022 1022 1022 1023 1023 1023 1023 1022 1022 1022 1022 1022 1021 1021 1021 1021 1021 1022 1022 1022 1021 1021 1021 1021 1021 1021 1022 1024 1024 1024 1024 1025 1025 1025 1025 1024 1024 1024 1024 1024 1023 1023 1022 1021 1021 1021 1021 1020 1020 1020 1020 1020 1020 1020 1020 1020 1019 1019 1019 1019 1019 1018 1018 1018 1017 1017 1016 1016 1016 1015 1015 1015 1014 1014 1014 1014 1014 1014 1014 1014 1014 1013 1013 1013 1013 1012 1012 1011 1011 1011 1010 1010 1009 1009 1009 1009 1009 1009 1010 1010 1010 1011 1012 1012 1013 1014 1016 1017 1018 1018 1020 1020 1020 1021 1021 1021 1021 1021 1020 1020 1020 1020 1019 1018 1018 1018 1018 1018 1018 1018 1018 1018 1018 1018 1018 1018 1018 1018 1018 1019 1020 1021 1021 1021 1022 1024 1025 1026 1028 1038 1047 1050 1056 0 0 0 0 0 0 0 1447 1461 1468 1468 1468 1468 1467 1467 1467 1467 1467 1469 1469 1469 1469 1469 1469 1467 1466 1465 1463 1461 1460 1458 1457 1456 1455 1453 1450 1449 1448 1446 1446 1444 1442 1440 1438 1436 1435 1432 1431 1429 1427 1425 1421 1419 1416 1414 1411 1409 1407 1405 1405 1402 1400 1398 1394 1386 1377 1369 1363 1351 1329 1306 1295 1282 1268 1243 1236 1228 1226 1217 1206 1195 1191 1179 1179 1179 1185 1186 1187 1188 1190 1190 1190 1188 1171 1156 1105 1105
1009 1009 1016 1019 1024 1034 1046 1064 1079 1088 1092 1097 1103 1105 1112 1123 1134 1145 1156 1163 1171 1181 1193 1200 1206 1213 1215 1216 1218 1218 1218 1213 0 0 0 0 0 0 0 0 0 0 1315 1328 1334 1336 1337 1338 1341 1343 1345 1346 1346 1346 1339 1306 0 0 0 0 0 0 1308 1235 1157 1131 1121 1108 1097 1083 1073 1062 1058 1058 1058 1059 1059 1060 1060 1060 1060 1061 1061 1062 1062 1063 1063 1064 1064 1064 1066 1066 1066 1066 1067 1067 1067 1068 1068 1068 1068 1068 1068 1068 1068 1068 1069 1069 1069 1069 1069 1069 1069 1070 1070 1070 1070 1070 1070 1070 1070 1070 1070 1070 1070 1069 1069 1069 1068 1067 1066 1066 1065 1065 1064 1063 1062 1062 1062 1063 1063 1063 1062 1062 1061 1061 1061 1061 1061 1062 1062 1063 1063 1063 1064 1064 1064 1064 1064 1064 1064 1064 1064 1064 1064 1064 1064 1064 1064 1065 1065 1065 1064 1064 1064 1064 1064 1064 1064 1064 1064 1064 1064 1064 1064 1064 1063 1063 1063 1063 1063 1063 1063 1063 1062 1062 1062 1062 1062 1061 1061 1061 1060 1060 1060 1060 1059 1059 1059 1059 1059 1059 1059 1058 1058 1058 1058 1058 1058 1057 1057 1057 1057 1057 1057 1057 1057 1057 1057 1057 1057 1057 1056 1055 1055 1055 1055 1055 1054 1054 1053 1053 1053 1053 1053 1053 1053 1053 1053 1052 1052 1052 1052 1052 1052 1052 1052 1052 1052 1052 1051 1051 1051 1051 1051 1051 1050 1050 1050 1050 1050 1050 1049 1049 1049 1049 1048 1048 1048 1048 1048 1047 1047 1047 1047 1046 1046 1046 1045 1045 1045 1045 1044 1044 1044 1043 1043 1043 1043 1042 1042 1042 1041 1041 1041 1041 1041 1041 1041 1041 1041 1041 1041 1041 1041 1040 1040 1040 1039 1039 1039 1039 1039 1039 1038 1038 1038 1038 1038 1037 1037 1036 1036 1036 1036 1036 1036 1036 1036 1035 1035 1035 1035 1034 1034 1033 1033 1033 1032 1032 1032 1032 1031 1031 1031 1031 1031 1031 1031 1031 1030 1030 1030 1030 1029 1029 1029 1028 1028 1028 1027 1027 1027 1027 1027 1026 1026 1026 1025 1025 1025 1025 1025 1025 1024 1023 1023 1023 1023 1023 1022 1022 1022 1022 1023 1023 1023 1023 1022 1022 1022 1022 1022 1022 1022 1022 1022 1022 1022 1022 1021 1021 1021 1021 1022 1023 1024 1025 1025 1025 1026 1026 1026 1026 1025 1025 1025 1025 1024 1024 1023 1023 1022 1022 1021 1021 1020 1020 1020 1020 1020 1020 1020 1020 1020 1020 1019 1019 1019 1019 1018 1018 1018 1018 1017 1017 1016 1016 1016 1015 1015 1015 1014 1014 1014 1014 1014 1014 1013 1013 1013 1013 1012 1012 1012 1012 1011 1011 1011 1010 1010 1009 1009 1008 1008 1008 1008 1008 1009 1009 1009 1009 1011 1011 1012 1013 1015 1016 1017 1018 1018 1018 1018 1018 1018 1018 1018 1018 1018 1018 1018 1017 1017 1017 1017 1017 1016 1016 1017 1017 1017 1017 1017 1017 1018 1018 1018 1018 1018 1019 1019 1020 1021 1021 1022 1023 1024 1024 1027 1038 1050 1055 0 0 0 0 0 0 0 1431 1453 1461 1466 1466 1466 1466 1466 1465 1465 1465 1467 1468 1468 1468 1468 1468 1467 1466 1465 1464 1462 1461 1459 1457 1455 1455 1452 1450 1448 1447 1446 1445 1444 1442 1439 1437 1436 1434 1432 1429 1427 1426 1425 1424 1421 1418 1415 1411 1409 1406 1404 1403 1401 1399 1398 1397 1394 1384 1376 1367 1359 1348 1329 1306 1294 1279 1263 1243 1236 1228 1226 1225 1214 1195 1190 1178 1163 1163 1163 1164 1167 1168 1174 1177 1177 1174 1171 1156 1119 1119
997 997 1010 1017 1025 1034 1046 1063 1078 1088 1092 1095 1101 1105 1112 1123 1134 1146 1155 1163 1171 1181 1188 1198 1201 1208 1212 1215 1216 1216 1216 1211 0 0 0 0 0 0 0 0 0 0 1309 1318 1326 1332 1336 1338 1340 1343 1345 1346 1346 1346 1346 1343 1343 1343 1344 1344 1344 0 0 0 1164 1154 1138 1136 1105 1083 1073 1064 1059 1059 1059 1060 1060 1060 1060 1060 1060 1061 1062 1063 1063 1063 1063 1064 1064 1064 1065 1065 1066 1066 1067 1067 1067 1068 1068 1068 1068 1068 1068 1068 1068 1068 1068 1069 1069 1069 1069 1069 1069 1070 1070 1070 1070 1070 1070 1070 1070 1070 1070 1070 1070 1069 1069 1069 1068 1067 1067 1067 1066 1066 1064 1064 1063 1063 1063 1063 1063 1063 1063 1062 1062 1061 1061 1061 1062 1063 1063 1063 1064 1064 1064 1064 1065 1065 1065 1065 1065 1065 1065 1065 1064 1064 1064 1064 1064 1064 1064 1064 1064 1064 1064 1064 1064 1064 1064 1064 1064 1064 1064 1063 1063 1063 1063 1063 1063 1063 1063 1063 1063 1062 1062 1062 1062 1062 1061 1061 1061 1061 1060 1060 1060 1060 1059 1059 1059 1059 1059 1059 1059 1058 1058 1058 1058 1058 1058 1057 1057 1057 1057 1057 1057 1057 1057 1057 1057 1057 1057 1056 1056 1055 1055 1054 1054 1054 1053 1052 1052 1052 1052 1053 1053 1053 1053 1053 1052 1052 1052 1052 1052 1052 1052 1052 1052 1052 1051 1051 1051 1051 1051 1051 1051 1051 1050 1050 1050 1050 1050 1050 1049 1049 1049 1049 1048 1048 1048 1048 1047 1047 1047 1047 1047 1046 1046 1046 1046 1045 1045 1045 1045 1044 1044 1044 1043 1043 1043 1042 1042 1042 1041 1041 1041 1041 1041 1041 1041 1041 1041 1041 1041 1041 1041 1040 1040 1040 1040 1040 1039 1039 1039 1039 1038 1038 1038 1038 1038 1038 1037 1037 1037 1037 1037 1036 1036 1036 1036 1036 1035 1035 1035 1034 1034 1034 1034 1033 1033 1032 1032 1032 1032 1032 1032 1032 1032 1032 1031 1031 1031 1031 1031 1031 1031 1030 1030 1030 1029 1029 1028 1028 1028 1028 1027 1027 1026 1026 1026 1026 1026 1026 1026 1025 1024 1024 1024 1024 1024 1024 1022 1022 1022 1022 1023 1023 1023 1023 1022 1022 1022 1022 1022 1022 1022 1022 1022 1022 1022 1022 1022 1022 1022 1022 1023 1024 1025 1025 1025 1026 1026 1026 1026 1026 1026 1025 1025 1025 1025 1024 1023 1023 1022 1022 1021 1020 1020 1020 1020 1019 1019 1019 1020 1020 1020 1020 1019 1019 1019 1018 1018 1018 1017 1017 1017 1017 1016 1016 1016 1015 1015 1014 1014 1014 1014 1014 1013 1013 1013 1013 1013 1012 1012 1011 1011 1011 1010 1010 1010 1009 1009 1008 1008 1007 1007 1007 1007 1007 1007 1007 1008 1008 1009 1010 1011 1012 1013 1013 1015 1015 1016 1016 1016 1016 1016 1017 1017 1017 1016 1016 1016 1015 1015 1015 1015 1015 1015 1015 1015 1016 1016 1016 1017 1017 1017 1017 1017 1018 1018 1019 1019 1020 1021 1022 1024 1024 1025 1025 1029 1039 1054 0 0 0 0 0 0 0 0 1447 1461 1463 1466 1466 1466 1465 1464 1464 1464 1465 1466 1466 1466 1466 1466 1466 1465 1464 1462 1461 1460 1458 1456 1455 1454 1452 1449 1447 1446 1445 1443 1443 1441 1440 1437 1435 1433 1432 1429 1425 1424 1423 1422 1422 1418 1416 1412 1409 1406 1405 1402 1400 1397 1396 1395 1394 1391 1384 1374 1365 1358 1344 1326 1300 1284 1269 1254 1243 1238 1228 1228 1225 1214 1195 1182 1176 1155 1138 1127 1127 1127 1136 1138 1156 1166 1166 1166 1156 1122 1122
996 996 1006 1016 1024 1034 1046 1061 1074 1084 1090 1092 1099 1104 1112 1123 1134 1146 1155 1163 1171 1181 1187 1192 1199 1201 1206 1210 1215 1215 1215 1202 0 0 0 0 0 0 0 0 0 0 1303 1313 1321 1328 1335 1337 1340 1342 1344 1345 1346 1346 1346 1347 1347 1347 1347 1347 1344 1329 0 0 1174 1165 1158 1146 1112 1084 1073 1065 1059 1059 1059 1060 1060 1060 1061 1061 1061 1061 1062 1063 1063 1063 1064 1064 1064 1064 1065 1065 1066 1066 1067 1067 1067 1068 1068 1068 1068 1068 1068 1068 1068 1068 1069 1069 1069 1069 1069 1069 1069 1070 1070 1070 1070 1070 1070 1070 1070 1070 1070 1070 1070 1070 1069 1069 1068 1067 1067 1067 1067 1066 1065 1065 1064 1064 1064 1064 1063 1063 1063 1063 1063 1062 1062 1062 1063 1063 1064 1064 1064 1064 1064 1064 1065 1065 1065 1065 1065 1065 1065 1065 1064 1064 1064 1064 1064 1064 1064 1064 1064 1064 1064 1064 1064 1064 1064 1064 1064 1063 1063 1063 1063 1063 1063 1063 1063 1063 1063 1062 1062 1062 1062 1062 1061 1061 1061 1061 1061 1060 1060 1060 1060 1059 1059 1059 1059 1059 1059 1059 1059 1058 1058 1058 1058 1057 1057 1057 1057 1057 1057 1057 1057 1057 1057 1057 1056 1056 1056 1056 1056 1055 1055 1054 1054 1053 1053 1052 1052 1052 1052 1052 1052 1052 1052 1052 1052 1052 1052 1052 1052 1052 1052 1051 1051 1051 1051 1051 1051 1051 1051 1051 1051 1051 1050 1050 1050 1050 1050 1050 1049 1049 1049 1048 1048 1048 1048 1048 1047 1047 1047 1047 1047 1046 1046 1046 1046 1045 1045 1045 1045 1044 1044 1044 1043 1043 1043 1043 1042 1042 1042 1042 1042 1042 1042 1041 1041 1041 1041 1041 1041 1041 1041 1041 1041 1041 1041 1041 1041 1040 1040 1040 1039 1039 1039 1038 1038 1038 1038 1037 1037 1037 1037 1037 1037 1036 1036 1036 1036 1036 1036 1035 1034 1034 1034 1034 1034 1034 1033 1033 1032 1032 1032 1032 1032 1032 1032 1032 1032 1032 1032 1031 1031 1030 1030 1030 1030 1030 1029 1028 1028 1028 1027 1027 1027 1027 1027 1027 1027 1026 1026 1025 1025 1024 1024 1024 1025 1025 1025 1024 1024 1023 1023 1023 1023 1023 1023 1023 1023 1023 1022 1022 1022 1022 1022 1022 1022 1022 1022 1022 1022 1022 1023 1024 1025 1026 1027 1027 1027 1027 1027 1026 1026 1026 1025 1025 1025 1024 1023 1023 1022 1021 1021 1020 1020 1020 1019 1019 1019 1019 1019 1019 1019 1019 1019 1019 1019 1018 1018 1018 1017 1017 1017 1016 1016 1016 1015 1015 1015 1014 1014 1013 1013 1013 1013 1013 1012 1012 1012 1012 1011 1011 1011 1011 1010 1010 1009 1008 1008 1008 1007 1007 1007 1007 1007 1007 1007 1007 1007 1008 1008 1009 1010 1011 1012 1012 1013 1013 1013 1013 1014 1014 1014 1014 1014 1014 1014 1014 1014 1014 1013 1013 1013 1014 1014 1014 1014 1015 1015 1016 1016 1016 1017 1017 1017 1018 1018 1019 1019 1019 1021 1024 1025 1025 1025 1026 1029 1042 1062 0 0 0 0 0 0 0 1438 1455 1461 1463 1466 1466 1466 1464 1463 1463 1463 1464 1465 1465 1465 1465 1464 1463 1463 1461 1460 1458 1457 1456 1455 1453 1451 1450 1447 1445 1443 1442 1441 1440 1439 1437 1435 1433 1430 1428 1426 1424 1422 1421 1420 1418 1417 1413 1410 1407 1404 1402 1399 1397 1394 1392 1391 1389 1385 1377 1371 1360 1354 1339 1321 1298 1277 1261 1250 1241 1236 1229 1228 1225 1214 1195 1182 1172 1154 1125 1104 1098 1094 1094 1098 1125 1154 1154 1154 1143 1122 1122
994 994 1005 1015 1024 1032 1043 1055 1067 1076 1081 1085 1097 1101 1112 1124 1134 1146 1152 1163 1172 1180 1187 1191 1194 1200 1202 1208 1211 1211 1211 1202 0 0 0 0 0 0 0 0 0 0 1301 1312 1319 1325 1328 1332 1338 1341 1343 1345 1346 1347 1347 1347 1348 1348 1347 1347 1341 1327 0 0 1176 1176 1174 1155 1115 1083 1068 1065 1060 1060 1060 1060 1061 1061 1061 1061 1061 1062 1062 1063 1063 1063 1064 1064 1064 1065 1065 1065 1066 1066 1067 1067 1068 1068 1068 1068 1068 1068 1068 1069 1069 1069 1069 1069 1069 1069 1069 1069 1070 1070 1070 1070 1070 1070 1070 1070 1070 1070 1070 1070 1070 1070 1070 1069 1068 1068 1068 1068 1067 1067 1066 1065 1065 1065 1064 1064 1064 1064 1063 1063 1063 1063 1063 1063 1064 1064 1064 1064 1065 1065 1065 1065 1065 1065 1065 1065 1065 1065 1065 1065 1064 1064 1064 1064 1064 1064 1064 1064 1064 1064 1064 1063 1063 1063 1063 1063 1063 1063 1063 1063 1063 1063 1063 1063 1062 1062 1062 1062 1062 1062 1062 1061 1061 1061 1061 1061 1061 1060 1060 1060 1060 1059 1059 1059 1058 1058 1058 1058 1058 1058 1058 1057 1057 1057 1057 1057 1057 1057 1056 1056 1056 1056 1056 1056 1056 1056 1056 1055 1055 1055 1054 1054 1053 1053 1052 1052 1052 1052 1052 1052 1052 1052 1052 1052 1052 1052 1052 1052 1052 1052 1052 1052 1051 1051 1051 1051 1051 1051 1051 1051 1051 1051 1050 1050 1050 1050 1050 1050 1049 1049 1049 1049 1048 1048 1048 1048 1047 1047 1047 1047 1047 1046 1046 1046 1046 1046 1045 1045 1045 1045 1045 1044 1044 1044 1043 1043 1043 1043 1043 1042 1042 1042 1042 1042 1042 1042 1042 1041 1041 1041 1041 1041 1041 1041 1041 1041 1041 1041 1040 1040 1040 1039 1039 1038 1038 1038 1038 1038 1038 1038 1038 1037 1037 1037 1037 1037 1036 1036 1036 1036 1035 1035 1035 1035 1035 1034 1034 1033 1033 1033 1033 1033 1033 1033 1032 1032 1032 1032 1032 1032 1031 1030 1030 1030 1030 1030 1029 1028 1028 1028 1028 1028 1028 1028 1028 1028 1028 1027 1026 1025 1025 1024 1024 1024 1025 1025 1025 1025 1024 1024 1024 1024 1024 1024 1024 1024 1024 1023 1023 1023 1023 1023 1023 1022 1022 1022 1022 1022 1022 1023 1024 1025 1025 1026 1028 1028 1028 1028 1028 1028 1026 1026 1026 1025 1025 1022 1022 1021 1021 1021 1021 1020 1020 1019 1019 1019 1019 1019 1019 1019 1019 1019 1019 1019 1018 1018 1018 1018 1017 1017 1016 1016 1016 1015 1015 1014 1014 1014 1014 1013 1013 1013 1013 1013 1012 1011 1011 1011 1011 1010 1010 1009 1009 1009 1008 1008 1007 1007 1007 1006 1006 1006 1006 1005 1005 1005 1006 1007 1007 1007 1008 1009 1010 1011 1012 1012 1012 1012 1013 1013 1013 1013 1013 1013 1013 1013 1013 1012 1012 1012 1012 1012 1012 1013 1013 1014 1014 1015 1015 1015 1016 1017 1017 1018 1018 1018 1019 1019 1021 1024 1025 1026 1026 1026 1031 1045 0 0 0 0 0 0 0 1442 1454 1456 1461 1463 1463 1463 1463 1462 1462 1462 1462 1462 1462 1462 1462 1462 1461 1460 1459 1459 1458 1457 1454 1454 1452 1451 1449 1448 1445 1444 1441 1438 1438 1437 1436 1435 1432 1430 1428 1426 1424 1422 1420 1419 1418 1416 1414 1412 1409 1405 1402 1399 1397 1394 1391 1388 1386 1383 1379 1371 1364 1356 1345 1328 1312 1292 1270 1258 1248 1237 1231 1229 1228 1224 1211 1195 1181 1172 1153 1125 1104 1090 1083 1083 1083 1088 1120 1124 1124 1124 1122 1122
992 992 1002 1011 1019 1030 1040 1051 1060 1069 1077 1085 1097 1101 1113 1124 1132 1141 1152 1161 1172 1180 1186 1191 1194 1200 1202 1208 1211 1211 1211 1200 0 0 0 0 0 0 0 0 0 0 1300 1312 1319 1324 1328 1332 1338 1341 1343 1345 1347 1347 1347 1348 1349 1349 1348 1347 1341 1325 1276 1216 1210 1195 1195 0 0 1083 1068 1065 1061 1061 1061 1061 1061 1061 1062 1062 1062 1062 1062 1063 1063 1064 1064 1064 1064 1065 1065 1066 1066 1066 1067 1067 1068 1068 1068 1068 1068 1069 1069 1069 1069 1069 1069 1069 1069 1069 1069 1070 1070 1070 1070 1070 1070 1070 1070 1070 1070 1070 1070 1070 1070 1070 1070 1069 1069 1068 1068 1068 1068 1067 1067 1066 1065 1065 1065 1064 1064 1064 1064 1064 1063 1063 1063 1063 1064 1064 1065 1065 1065 1065 1065 1065 1066 1066 1066 1065 1065 1065 1065 1065 1064 1064 1064 1064 1064 1064 1064 1064 1063 1063 1063 1063 1063 1063 1063 1063 1063 1063 1063 1063 1063 1063 1063 1062 1062 1062 1062 1062 1062 1061 1061 1061 1061 1061 1060 1060 1060 1060 1059 1059 1059 1059 1059 1058 1058 1058 1058 1057 1057 1057 1057 1057 1057 1057 1057 1057 1056 1056 1056 1056 1056 1056 1056 1056 1056 1056 1055 1055 1055 1054 1053 1053 1053 1052 1052 1052 1052 1052 1052 1052 1052 1052 1052 1052 1052 1052 1052 1052 1052 1052 1052 1052 1052 1052 1052 1051 1051 1051 1051 1051 1051 1051 1050 1050 1050 1050 1050 1050 1049 1049 1049 1049 1048 1048 1048 1048 1048 1048 1047 1047 1047 1047 1047 1046 1046 1046 1046 1046 1045 1045 1045 1045 1045 1045 1045 1045 1045 1044 1044 1043 1043 1043 1042 1042 1042 1042 1042 1042 1042 1042 1042 1042 1041 1041 1041 1041 1041 1041 1041 1040 1040 1039 1039 1039 1039 1039 1038 1038 1038 1038 1038 1038 1037 1037 1037 1037 1037 1036 1036 1036 1036 1035 1035 1035 1035 1035 1035 1034 1034 1033 1033 1033 1033 1033 1032 1032 1032 1032 1032 1032 1031 1031 1031 1030 1030 1030 1029 1028 1028 1027 1027 1027 1029 1029 1029 1029 1029 1028 1027 1026 1025 1024 1024 1024 1024 1025 1025 1025 1026 1026 1026 1026 1026 1026 1026 1025 1025 1024 1024 1024 1024 1024 1024 1022 1022 1022 1023 1025 1026 1026 1026 1026 1026 1028 1029 1030 1030 1030 1030 1030 1028 1026 1026 1025 1025 1022 1022 1021 1021 1020 1020 1020 1019 1019 1019 1019 1019 1019 1019 1019 1019 1019 1019 1018 1018 1018 1017 1017 1017 1017 1016 1016 1016 1015 1014 1014 1014 1014 1013 1013 1013 1012 1012 1012 1012 1011 1011 1010 1010 1010 1009 1009 1008 1007 1007 1007 1006 1006 1006 1006 1005 1005 1005 1005 1005 1005 1005 1006 1006 1006 1007 1008 1009 1010 1011 1011 1011 1011 1011 1011 1011 1011 1011 1011 1011 1011 1010 1010 1010 1010 1011 1011 1012 1012 1013 1013 1014 1015 1015 1015 1016 1016 1016 1017 1018 1019 1019 1020 1021 1024 1026 1027 1030 1030 1035 0 0 0 0 0 0 0 0 1455 1456 1457 1457 1459 1459 1459 1459 1459 1459 1460 1460 1460 1460 1460 1460 1458 1458 1458 1456 1456 1454 1453 1453 1451 1450 1448 1447 1446 1444 1440 1437 1436 1435 1435 1434 1432 1430 1428 1426 1423 1421 1419 1418 1417 1416 1413 1412 1408 1405 1401 1399 1396 1393 1391 1387 1384 1381 1379 1374 1366 1358 1349 1332 1319 1307 1292 1266 1251 1245 1237 1231 1229 1225 1214 1200 1184 1174 1164 1149 1125 1104 1090 1083 1083 1083 1083 1090 1107 1107 1107 1106 1106
992 992 1002 1011 1019 1030 1040 1050 1057 1067 1077 1085 1097 1101 1114 1124 1132 1139 1151 1161 1172 1180 1186 1191 1194 1200 1202 1208 1211 1211 1211 1198 0 0 0 0 0 0 0 0 0 0 1300 1312 1319 1324 1328 1332 1338 1341 1343 1345 1347 1348 1349 1349 1349 1348 1347 1346 1340 1321 1266 1246 1226 1217 1211 0 0 1082 1068 1064 1063 1062 1062 1062 1062 1062 1062 1062 1062 1062 1063 1063 1063 1064 1064 1064 1064 1065 1065 1065 1066 1066 1067 1067 1068 1068 1068 1068 1069 1069 1069 1069 1069 1069 1069 1069 1069 1069 1070 1070 1070 1070 1070 1070 1070 1070 1070 1070 1070 1070 1070 1070 1070 1070 1069 1069 1069 1069 1068 1068 1068 1067 1067 1066 1066 1066 1065 1064 1064 1064 1064 1064 1063 1063 1063 1063 1064 1064 1065 1065 1065 1065 1065 1065 1066 1066 1066 1065 1065 1065 1065 1064 1064 1064 1064 1064 1063 1063 1063 1063 1063 1063 1063 1063 1063 1063 1063 1062 1062 1062 1062 1062 1062 1062 1062 1062 1061 1061 1061 1061 1061 1061 1061 1061 1060 1060 1060 1060 1060 1059 1059 1059 1059 1058 1058 1058 1058 1058 1057 1057 1057 1057 1057 1057 1057 1057 1056 1056 1056 1056 1056 1056 1056 1056 1056 1056 1056 1055 1055 1054 1054 1053 1053 1053 1053 1052 1052 1052 1052 1052 1052 1052 1052 1052 1052 1052 1052 1052 1052 1052 1052 1052 1052 1052 1052 1052 1052 1052 1052 1051 1051 1051 1051 1051 1051 1050 1050 1050 1050 1050 1050 1049 1049 1049 1049 1049 1049 1049 1049 1049 1048 1048 1048 1048 1048 1048 1047 1046 1046 1046 1046 1046 1046 1046 1046 1045 1045 1045 1045 1045 1045 1044 1043 1043 1043 1042 1042 1042 1042 1042 1042 1042 1042 1042 1042 1042 1042 1043 1043 1043 1042 1040 1040 1040 1040 1039 1039 1039 1039 1039 1039 1039 1039 1038 1037 1037 1037 1037 1037 1037 1036 1036 1036 1036 1036 1035 1035 1035 1035 1035 1034 1034 1033 1033 1033 1033 1033 1033 1033 1033 1032 1032 1032 1031 1031 1031 1031 1030 1029 1028 1028 1027 1027 1027 1029 1029 1029 1029 1029 1028 1028 1026 1025 1025 1025 1025 1025 1025 1026 1027 1027 1028 1028 1029 1029 1029 1029 1028 1026 1024 1024 1024 1025 1026 1026 1026 1025 1025 1025 1027 1027 1027 1027 1028 1028 1028 1030 1032 1032 1031 1031 1031 1031 1027 1026 1025 1025 1022 1021 1021 1021 1020 1020 1020 1019 1019 1019 1019 1019 1018 1018 1018 1018 1018 1018 1018 1018 1018 1017 1017 1017 1016 1016 1016 1015 1015 1014 1014 1014 1014 1013 1013 1013 1012 1012 1011 1011 1011 1010 1009 1009 1008 1008 1007 1007 1007 1006 1005 1005 1005 1005 1004 1004 1004 1004 1004 1004 1004 1004 1004 1005 1005 1006 1007 1008 1009 1009 1009 1009 1009 1010 1010 1010 1010 1010 1010 1010 1010 1009 1010 1010 1010 1010 1011 1011 1012 1012 1013 1014 1015 1015 1015 1016 1016 1016 1017 1018 1019 1019 1022 1023 1024 1026 1027 1031 1039 1057 0 0 0 0 0 0 0 1450 1457 1457 1458 1458 1458 1458 1458 1458 1458 1458 1458 1458 1458 1458 1458 1457 1456 1456 1455 1455 1454 1453 1452 1451 1449 1448 1447 1445 1445 1442 1440 1436 1435 1434 1433 1431 1428 1426 1424 1422 1420 1419 1417 1415 1414 1412 1410 1407 1405 1401 1399 1396 1393 1390 1386 1383 1380 1378 1373 1365 1359 1353 1341 1328 1319 1307 1292 1266 1251 1245 1236 1228 1220 1214 1204 1190 1178 1166 1157 1144 1127 1114 1103 1087 1083 1071 1071 1071 1104 1106 1106 1106 1106
992 992 1002 1011 1019 1030 1040 1050 1057 1067 1077 1088 1102 1106 1119 1127 1132 1139 1151 1161 1172 1180 1186 1191 1195 1202 1204 1210 1210 1210 1209 1198 0 0 0 0 0 0 0 0 0 0 1300 1312 1319 1324 1328 1334 1339 1343 1345 1345 1347 1348 1349 1349 1349 1348 1347 1346 1334 1302 1251 1251 1240 1232 1232 0 0 1080 1068 1064 1064 1062 1062 1062 1062 1062 1062 1062 1062 1063 1063 1063 1064 1064 1064 1064 1064 1065 1065 1065 1066 1066 1067 1067 1068 1068 1068 1068 1069 1069 1069 1069 1069 1069 1069 1069 1070 1070 1070 1070 1070 1070 1070 1070 1070 1070 1070 1070 1070 1070 1070 1070 1070 1070 1069 1069 1069 1069 1069 1068 1068 1067 1067 1066 1066 1066 1065 1064 1064 1064 1064 1064 1063 1063 1063 1063 1064 1064 1064 1065 1065 1065 1065 1065 1065 1065 1065 1065 1065 1065 1064 1064 1064 1064 1064 1064 1063 1063 1063 1063 1062 1062 1062 1062 1062 1062 1062 1062 1062 1062 1062 1062 1061 1061 1061 1061 1061 1061 1061 1061 1061 1061 1060 1060 1060 1060 1060 1059 1059 1059 1059 1058 1058 1058 1058 1058 1058 1057 1057 1057 1057 1057 1056 1056 1056 1056 1056 1056 1056 1056 1056 1056 1055 1055 1055 1055 1055 1054 1054 1054 1054 1053 1053 1052 1052 1052 1051 1051 1051 1051 1051 1051 1051 1051 1051 1051 1051 1052 1052 1052 1052 1052 1052 1052 1052 1052 1052 1052 1052 1052 1051 1051 1051 1051 1051 1050 1050 1050 1050 1050 1050 1050 1050 1050 1050 1049 1049 1049 1050 1050 1050 1050 1049 1049 1049 1049 1049 1048 1047 1047 1047 1047 1047 1047 1047 1047 1046 1046 1046 1046 1046 1046 1045 1044 1044 1044 1043 1043 1043 1043 1043 1043 1043 1043 1043 1043 1044 1045 1045 1045 1044 1043 1041 1041 1041 1040 1040 1040 1040 1040 1041 1041 1041 1040 1037 1037 1037 1037 1037 1037 1037 1037 1037 1037 1036 1036 1036 1036 1036 1036 1034 1034 1034 1033 1033 1034 1034 1034 1034 1033 1033 1033 1032 1031 1031 1031 1031 1031 1029 1028 1028 1027 1027 1027 1029 1029 1029 1029 1029 1028 1028 1027 1027 1026 1026 1026 1026 1026 1026 1028 1032 1032 1032 1031 1031 1031 1031 1033 1033 1033 1032 1032 1032 1034 1035 1035 1035 1034 1033 1033 1033 1033 1033 1033 1032 1032 1032 1032 1034 1039 1042 1042 1042 1030 1026 1025 1024 1024 1023 1021 1021 1020 1020 1019 1019 1019 1018 1018 1018 1018 1018 1018 1018 1018 1018 1018 1018 1018 1017 1017 1017 1016 1016 1016 1015 1015 1014 1014 1014 1013 1013 1013 1013 1012 1011 1011 1010 1010 1009 1009 1008 1008 1008 1007 1006 1006 1005 1004 1004 1004 1003 1003 1003 1003 1003 1003 1003 1003 1003 1003 1004 1005 1006 1007 1007 1007 1007 1007 1007 1008 1008 1008 1009 1009 1009 1009 1009 1009 1009 1009 1009 1009 1010 1010 1011 1012 1012 1013 1014 1015 1015 1015 1016 1016 1016 1017 1018 1019 1021 1022 1023 1024 1028 1031 1032 1049 0 0 0 0 0 0 0 1442 1454 1458 1458 1458 1458 1458 1458 1458 1457 1457 1456 1456 1456 1456 1456 1456 1456 1455 1454 1454 1453 1452 1452 1450 1449 1448 1446 1445 1445 1444 1441 1439 1436 1434 1433 1431 1429 1427 1424 1421 1419 1417 1416 1415 1412 1409 1408 1406 1403 1402 1398 1395 1392 1391 1387 1385 1383 1379 1375 1369 1362 1356 1351 1341 1328 1319 1307 1295 1266 1251 1245 1236 1228 1220 1213 1198 1186 1172 1161 1150 1137 1127 1115 1107 1103 1085 1071 1071 1071 1083 1094 1103 1105 1105
994 994 1004 1013 1023 1032 1044 1050 1057 1067 1079 1092 1103 1108 1120 1129 1132 1139 1151 1161 1172 1180 1186 1191 1197 1202 1206 1210 1210 1210 1207 1197 0 0 0 0 0 0 0 0 0 0 1300 1313 1319 1324 1329 1336 1341 1344 1345 1346 1347 1348 1348 1348 1348 1347 1347 1340 1322 1278 1263 1263 1238 1238 0 0 0 1080 1068 1064 1064 1062 1062 1062 1062 1062 1062 1062 1062 1063 1063 1063 1064 1064 1064 1064 1064 1065 1065 1065 1066 1066 1067 1067 1068 1068 1068 1069 1069 1069 1069 1069 1069 1069 1069 1070 1070 1070 1070 1070 1069 1069 1069 1070 1070 1070 1070 1070 1070 1070 1070 1070 1070 1069 1069 1069 1069 1069 1069 1068 1068 1067 1067 1066 1066 1066 1065 1064 1064 1064 1064 1063 1063 1063 1063 1063 1064 1064 1064 1064 1065 1065 1065 1065 1065 1065 1065 1065 1065 1064 1064 1064 1064 1064 1064 1063 1063 1063 1063 1063 1062 1062 1062 1062 1062 1062 1061 1061 1061 1061 1061 1061 1061 1061 1061 1061 1061 1061 1061 1061 1060 1060 1060 1060 1060 1059 1059 1059 1059 1058 1058 1058 1058 1058 1058 1058 1057 1057 1057 1057 1057 1056 1056 1056 1056 1056 1056 1056 1056 1056 1056 1055 1055 1055 1054 1054 1054 1053 1053 1053 1053 1053 1052 1052 1051 1051 1051 1051 1051 1051 1051 1051 1051 1051 1051 1051 1051 1052 1052 1052 1052 1052 1052 1053 1053 1053 1052 1052 1052 1052 1052 1051 1051 1051 1051 1051 1051 1051 1050 1050 1050 1051 1051 1051 1051 1051 1050 1050 1050 1050 1050 1050 1050 1050 1050 1050 1050 1049 1049 1049 1048 1048 1048 1048 1047 1047 1047 1047 1047 1046 1047 1047 1047 1047 1047 1046 1046 1046 1046 1046 1045 1045 1045 1045 1045 1045 1046 1046 1046 1045 1045 1045 1045 1045 1044 1043 1042 1042 1041 1041 1041 1042 1042 1042 1039 1038 1038 1038 1038 1038 1038 1038 1038 1038 1038 1038 1038 1038 1038 1037 1037 1036 1035 1035 1035 1037 1037 1037 1039 1039 1038 1038 1038 1036 1036 1036 1035 1035 1034 1033 1032 1032 1032 1032 1032 1032 1030 1030 1030 1030 1030 1028 1028 1028 1030 1030 1030 1031 1031 1034 1040 1040 1040 1040 1040 1040 1043 1046 1047 1047 1048 1051 1051 1051 1052 0 0 0 0 0 0 0 0 0 0 0 0 0 0 0 0 0 0 1045 1038 1029 1024 1024 1023 1022 1021 1020 1020 1019 1019 1018 1018 1018 1018 1018 1018 1018 1018 1018 1018 1018 1018 1018 1017 1017 1017 1016 1016 1016 1015 1015 1014 1014 1014 1013 1013 1013 1013 1012 1011 1011 1010 1009 1009 1008 1008 1007 1007 1006 1005 1005 1004 1004 1004 1003 1003 1003 1002 1002 1002 1002 1002 1002 1002 1003 1004 1004 1004 1005 1006 1006 1006 1006 1007 1007 1007 1008 1008 1008 1008 1008 1008 1008 1008 1009 1009 1009 1010 1010 1011 1012 1012 1013 1014 1015 1015 1016 1016 1016 1016 1017 1018 1020 1021 1023 1024 1025 1028 1032 1034 0 0 0 0 0 0 0 0 1447 1456 1458 1458 1458 1458 1458 1458 1457 1457 1456 1456 1455 1455 1455 1455 1455 1454 1454 1453 1452 1452 1452 1450 1450 1448 1446 1446 1444 1444 1442 1440 1437 1434 1433 1432 1429 1427 1425 1422 1419 1416 1414 1414 1413 1410 1407 1404 1402 1402 1399 1396 1393 1391 1388 1386 1384 1381 1376 1371 1365 1360 1356 1351 1341 1328 1319 1310 1296 1282 1275 1240 1230 1224 1220 1212 1198 1186 1172 1160 1145 1134 1127 1115 1107 1103 1086 1071 1064 1064 1064 1080 1096 1103 1103
997 997 1006 1017 1027 1038 1049 1057 1062 1071 1082 1093 1104 1114 1120 1129 1137 1145 1155 1163 1173 1181 1187 1192 1197 1202 1206 1209 1209 1209 1203 1196 1176 0 0 0 0 0 0 0 0 1256 1300 1313 1320 1327 1331 1337 1342 1344 1345 1346 1347 1347 1347 1347 1347 1345 1344 1339 1313 1267 1263 1263 1252 1252 0 0 0 1080 1068 1064 1064 1062 1062 1062 1062 1062 1062 1062 1062 1063 1063 1063 1064 1064 1064 1064 1064 1065 1065 1065 1065 1066 1067 1067 1068 1068 1068 1068 1069 1069 1069 1069 1069 1069 1069 1069 1070 1070 1070 1070 1069 1069 1069 1069 1070 1070 1070 1070 1071 1071 1071 1070 1070 1069 1069 1069 1069 1069 1069 1068 1068 1067 1067 1066 1066 1066 1065 1064 1064 1064 1064 1063 1063 1063 1063 1063 1064 1064 1064 1064 1064 1064 1064 1065 1065 1065 1064 1064 1064 1064 1064 1064 1064 1064 1064 1063 1063 1063 1062 1062 1062 1062 1062 1062 1062 1061 1061 1061 1061 1061 1061 1061 1061 1061 1061 1060 1060 1060 1060 1060 1059 1059 1059 1059 1059 1059 1059 1059 1058 1058 1058 1058 1058 1058 1058 1058 1057 1057 1057 1057 1056 1056 1056 1056 1056 1056 1056 1056 1056 1056 1056 1055 1055 1055 1054 1054 1053 1053 1053 1052 1052 1052 1052 1051 1051 1051 1051 1051 1051 1051 1051 1051 1051 1051 1051 1051 1051 1052 1052 1052 1053 1053 1053 1053 1053 1053 1053 1053 1053 1052 1052 1052 1052 1052 1051 1051 1051 1051 1051 1051 1051 1051 1052 1052 1052 1052 1052 1052 1052 1052 1052 1052 1052 1052 1051 1051 1050 1050 1050 1049 1049 1048 1048 1048 1048 1048 1048 1048 1048 1048 1048 1048 1048 1049 1049 1049 1048 1048 1048 1048 1047 1047 1047 1047 1048 1049 1050 1050 1050 1049 1049 1049 1049 1049 1048 1046 1045 1043 1043 1043 1044 1045 1045 1045 1043 1042 1041 1041 1041 1041 1041 1041 1040 1039 1039 1039 1039 1039 1041 1041 1044 1045 1045 1045 1045 1044 1043 1043 1040 1039 1039 1039 1039 1039 1039 1039 1039 1039 1039 1037 1036 1036 1036 1043 1043 1043 1038 1038 1037 1037 1037 1040 1042 1042 1044 0 0 0 0 0 0 0 0 0 0 0 0 0 0 0 0 0 0 0 0 0 0 0 0 0 0 0 0 0 0 0 0 0 0 0 0 0 0 0 1049 1029 1026 1024 1024 1022 1021 1020 1020 1019 1019 1018 1018 1018 1018 1018 1018 1018 1018 1018 1018 1018 1018 1018 1018 1017 1017 1016 1016 1016 1016 1016 1015 1015 1014 1014 1013 1013 1013 1012 1011 1010 1010 1009 1009 1007 1007 1007 1006 1005 1005 1005 1004 1003 1003 1002 1002 1002 1001 1001 1001 1001 1001 1001 1001 1002 1002 1003 1004 1004 1004 1005 1006 1006 1006 1007 1007 1007 1007 1007 1007 1007 1007 1008 1008 1008 1008 1009 1010 1010 1011 1011 1012 1013 1014 1015 1015 1016 1017 1017 1018 1018 1018 1021 1022 1024 1024 1025 1030 1040 1048 0 0 0 0 0 0 0 1439 1453 1456 1460 1460 1460 1460 1458 1458 1456 1456 1455 1454 1454 1453 1453 1453 1452 1452 1451 1451 1451 1450 1450 1449 1447 1446 1446 1445 1443 1443 1441 1438 1436 1434 1432 1430 1429 1426 1424 1420 1417 1414 1413 1412 1411 1408 1404 1403 1400 1399 1397 1394 1390 1389 1386 1384 1383 1378 1372 1365 1362 1359 1355 1351 1339 1328 1320 1312 1304 1283 1277 1244 1229 1224 1219 1211 1198 1186 1172 1159 1145 1134 1124 1115 1107 1103 1086 1069 1054 1054 1054 1056 1072 1087 1087
999 999 1006 1017 1030 1043 1051 1059 1067 1078 1087 1096 1106 1114 1121 1129 1139 1148 1157 1163 1173 1181 1187 1193 1197 1202 1206 1207 1207 1207 1201 1196 1181 0 0 0 0 0 0 0 0 1274 1288 1313 1322 1329 1333 1337 1342 1344 1345 1346 1347 1347 1347 1345 1344 1344 1341 1331 1312 1265 1265 1265 1252 1252 0 0 0 1080 1067 1063 1062 1062 1062 1061 1061 1061 1061 1061 1062 1062 1063 1063 1063 1064 1064 1064 1065 1065 1065 1065 1065 1066 1067 1067 1068 1068 1069 1069 1069 1069 1069 1069 1069 1069 1069 1069 1069 1069 1069 1069 1069 1069 1069 1069 1069 1070 1070 1070 1071 1071 1071 1070 1070 1069 1069 1069 1069 1068 1068 1068 1068 1067 1067 1066 1066 1066 1065 1064 1064 1064 1063 1063 1063 1063 1063 1063 1063 1064 1064 1064 1064 1064 1064 1064 1064 1064 1064 1064 1064 1064 1064 1064 1064 1063 1063 1063 1063 1063 1063 1062 1062 1062 1062 1062 1062 1061 1061 1061 1061 1061 1061 1060 1060 1060 1060 1060 1060 1059 1059 1059 1059 1059 1059 1059 1059 1059 1059 1059 1058 1058 1058 1058 1058 1058 1058 1058 1057 1057 1057 1057 1057 1056 1056 1056 1056 1056 1056 1056 1056 1056 1056 1055 1055 1054 1054 1053 1052 1052 1052 1051 1051 1051 1050 1050 1050 1050 1051 1051 1051 1051 1051 1051 1051 1051 1051 1052 1052 1052 1053 1053 1053 1053 1053 1054 1054 1054 1054 1054 1053 1053 1053 1053 1052 1052 1052 1052 1052 1051 1051 1051 1052 1052 1053 1054 1054 1054 1054 1054 1054 1054 1054 1053 1053 1053 1053 1053 1053 1051 1051 1051 1050 1048 1048 1048 1049 1049 1049 1049 1049 1049 1049 1049 1049 1050 1050 1050 1050 1049 1049 1049 1048 1048 1048 1049 1050 1051 1051 1052 1052 1052 1053 1053 1053 1052 1050 1047 1047 1047 1047 1049 1051 1053 1053 1053 1051 1048 1048 1046 1045 1045 1045 1045 1045 1043 1043 1041 1041 1043 1045 1045 1046 1051 1052 1052 1052 1052 1052 1053 1053 1053 1053 1053 1053 1052 1051 1052 1052 0 0 0 0 0 0 0 0 0 0 0 0 0 0 0 0 0 0 0 0 0 0 0 0 0 0 0 0 0 0 0 0 0 0 0 0 0 0 0 0 0 0 0 0 0 0 0 0 0 0 0 0 0 0 0 0 0 1057 1035 1028 1024 1024 1022 1021 1020 1020 1019 1019 1019 1019 1019 1019 1019 1019 1019 1018 1018 1018 1018 1018 1018 1018 1018 1018 1017 1017 1017 1016 1016 1016 1015 1015 1014 1014 1013 1013 1012 1011 1010 1010 1009 1008 1007 1006 1006 1005 1004 1004 1003 1002 1002 1002 1001 1001 1001 1001 1001 1000 1000 1000 1000 1000 1001 1001 1001 1003 1003 1004 1004 1005 1005 1005 1005 1006 1006 1006 1006 1006 1007 1007 1007 1008 1008 1008 1009 1010 1010 1011 1011 1012 1013 1014 1015 1016 1016 1017 1019 1019 1019 1021 1022 1024 1025 1025 1027 1034 1052 0 0 0 0 0 0 0 0 1454 1454 1458 1459 1460 1460 1460 1459 1458 1456 1455 1455 1454 1453 1453 1453 1452 1452 1451 1449 1449 1449 1448 1448 1448 1446 1445 1445 1444 1443 1441 1439 1437 1435 1432 1431 1429 1428 1425 1423 1419 1416 1413 1412 1411 1409 1405 1402 1400 1398 1395 1393 1392 1390 1387 1385 1383 1380 1374 1367 1361 1359 1357 1354 1348 1338 1329 1321 1316 1306 1298 1280 1249 1226 1221 1219 1209 1202 1191 1173 1159 1145 1133 1121 1112 1107 1100 1085 1067 1050 1035 1029 1029 1029 1034 1034
999 999 1006 1017 1030 1043 1051 1059 1068 1082 1091 1099 1109 1118 1123 1134 1142 1148 1157 1163 1173 1181 1187 1193 1197 1201 1204 1205 1205 1205 1201 1196 1185 0 0 0 0 0 0 0 0 1274 1288 1313 1327 1332 1337 1341 1342 1344 1344 1345 1345 1345 1345 1344 1343 1342 1338 1328 1306 1253 1253 1253 1252 1252 0 0 0 1079 1065 1062 1061 1061 1061 1061 1061 1061 1061 1061 1061 1062 1063 1063 1063 1063 1064 1064 1064 1065 1065 1065 1065 1066 1067 1067 1068 1068 1069 1069 1069 1069 1069 1069 1069 1069 1069 1069 1069 1069 1069 1069 1069 1069 1069 1069 1069 1070 1070 1070 1070 1070 1070 1070 1070 1069 1069 1069 1069 1068 1068 1068 1067 1067 1066 1066 1066 1065 1065 1064 1064 1063 1063 1063 1063 1063 1063 1063 1063 1063 1063 1063 1064 1064 1064 1064 1064 1064 1064 1064 1064 1064 1064 1063 1063 1063 1063 1063 1063 1063 1063 1062 1062 1062 1062 1061 1061 1061 1061 1061 1060 1060 1060 1060 1060 1060 1059 1059 1059 1059 1059 1059 1059 1059 1059 1059 1059 1059 1059 1059 1058 1058 1058 1058 1058 1058 1058 1058 1057 1057 1057 1057 1057 1057 1056 1056 1056 1056 1056 1056 1056 1056 1056 1055 1055 1054 1054 1053 1052 1052 1051 1051 1050 1050 1050 1050 1050 1050 1050 1050 1050 1051 1051 1051 1051 1051 1052 1052 1053 1053 1053 1054 1054 1054 1055 1055 1055 1055 1055 1055 1054 1053 1053 1053 1052 1052 1052 1052 1052 1051 1051 1051 1052 1052 1053 1055 1055 1055 1056 1056 1056 1056 1056 1054 1053 1053 1053 1054 1054 1054 1052 1052 1050 1049 1049 1049 1050 1050 1052 1052 1052 1052 1051 1051 1050 1050 1050 1051 1052 1052 1051 1051 1049 1049 1049 1050 1052 1054 1054 1054 1053 1053 1053 1058 1058 1058 1058 1051 1048 1048 1048 1050 1052 1054 1054 1054 1053 1053 1053 1053 1053 1053 1053 1050 1048 1048 1048 1051 1058 1058 1058 1058 1058 0 0 0 0 0 0 0 0 0 0 0 0 0 0 0 0 0 0 0 0 0 0 0 0 0 0 0 0 0 0 0 0 0 0 0 0 0 0 0 0 0 0 0 0 0 0 0 0 0 0 0 0 0 0 0 0 0 0 0 0 0 0 0 0 0 0 0 0 0 0 0 0 0 0 1035 1029 1024 1024 1022 1021 1020 1020 1020 1019 1019 1019 1019 1019 1019 1019 1019 1019 1018 1018 1018 1018 1018 1018 1018 1018 1018 1018 1018 1017 1017 1016 1016 1016 1015 1014 1013 1013 1012 1011 1010 1009 1009 1007 1007 1005 1005 1004 1004 1003 1002 1002 1002 1002 1001 1001 1001 1001 1000 999 999 999 999 1000 1000 1000 1000 1002 1002 1002 1003 1004 1005 1005 1005 1005 1006 1006 1006 1006 1006 1007 1007 1008 1008 1008 1009 1010 1010 1011 1012 1012 1013 1014 1016 1016 1016 1018 1020 1023 1026 1026 1026 1026 1026 1027 1031 0 0 0 0 0 0 0 0 0 1447 1457 1457 1458 1459 1460 1460 1460 1460 1458 1456 1455 1454 1453 1452 1452 1451 1451 1450 1449 1449 1448 1448 1447 1446 1445 1444 1444 1444 1443 1441 1439 1438 1435 1433 1431 1430 1429 1426 1425 1423 1419 1416 1413 1411 1410 1408 1405 1401 1398 1396 1393 1392 1389 1388 1386 1385 1382 1379 1374 1367 1361 1357 1355 1352 1346 1338 1329 1325 1317 1308 1298 1280 1248 1226 1214 1211 1208 1202 1191 1173 1158 1142 1132 1119 1110 1105 1096 1085 1067 1048 1030 1017 1012 1012 1012 1012
999 999 1005 1016 1030 1043 1051 1059 1068 1082 1091 1102 1114 1122 1131 1136 1142 1148 1157 1163 1171 1180 1187 1193 1197 1200 1204 1205 1205 1205 1201 1197 1185 0 0 0 0 0 0 0 0 0 1288 1313 1327 1332 1337 1341 1342 1343 1343 1343 1343 1343 1343 1342 1341 1337 1336 1322 1296 1247 1247 1247 1244 1244 0 0 0 1074 1061 1060 1060 1060 1060 1060 1060 1060 1060 1060 1061 1062 1062 1063 1063 1063 1064 1064 1064 1064 1065 1065 1065 1066 1066 1067 1067 1068 1068 1069 1069 1069 1069 1069 1069 1069 1069 1069 1069 1069 1069 1068 1068 1068 1069 1069 1069 1069 1069 1070 1070 1070 1070 1070 1070 1069 1069 1069 1069 1068 1068 1067 1067 1066 1066 1065 1065 1064 1064 1063 1063 1063 1062 1062 1062 1062 1062 1062 1063 1063 1063 1063 1063 1064 1064 1064 1064 1064 1064 1064 1063 1063 1064 1063 1063 1064 1063 1063 1063 1063 1063 1062 1062 1061 1061 1061 1061 1061 1061 1060 1060 1060 1060 1060 1059 1059 1059 1059 1058 1058 1058 1058 1059 1059 1059 1059 1059 1059 1059 1058 1058 1058 1058 1058 1058 1058 1058 1058 1057 1057 1057 1057 1057 1057 1057 1057 1057 1057 1056 1056 1056 1056 1056 1056 1055 1054 1054 1053 1052 1052 1050 1050 1050 1050 1050 1050 1050 1050 1050 1050 1050 1051 1051 1051 1051 1051 1052 1052 1053 1053 1054 1055 1055 1055 1055 1056 1057 1057 1057 1055 1055 1054 1053 1053 1053 1052 1052 1052 1052 1051 1051 1051 1052 1052 1054 1057 1058 1058 1058 1058 1057 1057 1057 1055 1055 1055 1054 1055 1054 1054 1053 1053 1050 1050 1050 1050 1050 1052 1054 1055 1056 1057 1057 1056 1055 1054 1054 1054 1054 1056 1056 1056 1056 1054 1054 1054 1058 1066 1066 1067 1067 1067 1067 1068 1068 1068 1068 1068 1067 1067 1067 1067 1067 1068 1068 1068 0 0 0 0 0 0 0 0 0 0 0 0 0 0 0 0 0 0 0 0 0 0 0 0 0 0 0 0 0 0 0 0 0 0 0 0 0 0 0 0 0 0 0 0 0 0 0 0 0 0 0 0 0 0 0 0 0 0 0 0 0 0 0 0 0 0 0 0 0 0 0 0 0 0 0 0 0 0 0 0 1453 1453 1453 1451 1444 0 0 0 0 0 0 1037 1029 1026 1025 1024 1023 1023 1022 1021 1020 1020 1019 1019 1019 1019 1019 1019 1019 1019 1019 1019 1019 1019 1019 1019 1019 1019 1019 1019 1019 1018 1017 1017 1016 1016 1016 1015 1013 1012 1011 1010 1009 1009 1007 1005 1005 1004 1003 1003 1003 1002 1002 1002 1001 1001 1001 1001 1000 1000 999 999 999 999 999 999 999 1000 1000 1001 1002 1003 1003 1003 1004 1005 1005 1006 1006 1006 1006 1006 1007 1007 1007 1008 1008 1009 1010 1010 1011 1012 1013 1013 1014 1017 1017 1018 1021 1025 1028 1028 1028 1027 1027 1027 1031 1044 0 0 0 0 0 0 0 0 1438 1454 1457 1457 1459 1459 1460 1460 1460 1460 1457 1456 1455 1454 1453 1452 1451 1451 1450 1449 1449 1448 1447 1447 1446 1445 1444 1443 1443 1443 1441 1439 1438 1436 1434 1433 1431 1430 1428 1426 1423 1422 1419 1415 1413 1411 1408 1406 1402 1399 1397 1394 1392 1390 1389 1388 1386 1384 1381 1377 1371 1366 1360 1355 1352 1348 1341 1335 1329 1325 1317 1310 1298 1280 1248 1226 1214 1207 1206 1202 1191 1173 1148 1140 1129 1116 1106 1100 1090 1078 1065 1047 1030 1016 998 994 990 990
1002 1002 1005 1013 1025 1036 1045 1055 1068 1082 1091 1102 1114 1122 1131 1136 1142 1148 1154 1161 1167 1175 1184 1191 1195 1198 1200 1201 1201 1201 1200 1197 1185 0 0 0 0 0 0 0 0 0 1300 1311 1327 1332 1337 1341 1342 1342 1342 1342 1341 1341 1341 1341 1339 1333 1333 1314 1285 1243 1243 1243 1243 1243 0 0 0 1070 1056 1056 1056 1060 1060 1060 1059 1059 1059 1059 1060 1061 1062 1062 1062 1063 1063 1063 1064 1064 1064 1064 1065 1065 1066 1066 1067 1067 1067 1068 1069 1069 1069 1069 1069 1069 1069 1069 1069 1069 1068 1068 1068 1068 1068 1068 1069 1069 1069 1069 1069 1069 1069 1069 1069 1069 1068 1068 1068 1067 1067 1066 1066 1066 1066 1065 1064 1064 1063 1063 1062 1062 1062 1062 1062 1062 1062 1062 1062 1063 1063 1063 1063 1063 1063 1063 1064 1063 1063 1063 1063 1063 1063 1063 1063 1063 1063 1063 1063 1063 1063 1062 1062 1061 1061 1061 1061 1061 1061 1060 1060 1059 1059 1058 1058 1058 1058 1058 1058 1058 1058 1058 1059 1059 1059 1059 1059 1059 1059 1059 1059 1059 1059 1059 1059 1059 1058 1058 1058 1058 1058 1057 1057 1057 1057 1057 1057 1057 1057 1057 1057 1057 1056 1056 1056 1055 1054 1053 1052 1052 1050 1050 1050 1050 1050 1050 1050 1050 1050 1050 1050 1050 1050 1051 1051 1051 1051 1052 1053 1053 1054 1055 1055 1056 1056 1057 1057 1057 1057 1056 1055 1054 1054 1053 1052 1052 1051 1051 1051 1051 1051 1051 1051 1053 1055 1057 1058 1058 1058 1058 1058 1058 1058 1058 1058 1057 1057 1056 1056 1055 1054 1054 1051 1050 1050 1050 1052 1053 1054 1058 1060 1063 1063 1063 1061 1061 1061 1062 1068 1068 1068 1067 1066 1063 0 0 0 0 0 0 0 0 0 0 0 0 0 0 0 0 0 0 0 0 0 0 0 0 0 0 0 0 0 0 0 0 0 0 0 0 0 0 0 0 0 0 0 0 0 0 0 0 0 0 0 0 0 0 0 0 0 0 0 0 0 0 0 0 0 0 0 0 0 0 0 0 0 0 0 0 0 0 0 0 0 0 0 0 1463 1463 1466 1472 1472 1472 1471 1469 1466 1466 1466 1466 1470 1470 1471 1471 1471 1470 1468 1465 1462 1460 1445 1433 0 0 0 0 0 1039 1029 1026 1026 1025 1025 1024 1023 1022 1021 1020 1020 1020 1020 1019 1019 1019 1019 1019 1019 1019 1020 1020 1020 1020 1020 1020 1020 1019 1019 1019 1019 1018 1017 1017 1017 1016 1014 1012 1011 1010 1009 1008 1007 1005 1004 1004 1003 1003 1003 1002 1002 1002 1001 1001 1001 1000 1000 1000 999 998 998 998 998 999 999 999 999 1000 1001 1001 1003 1003 1004 1004 1005 1005 1005 1006 1006 1006 1007 1007 1008 1008 1008 1010 1010 1010 1011 1012 1013 1015 1018 1018 1019 1020 1024 1029 1030 1030 1030 1030 1030 1035 1043 0 0 0 0 0 0 0 1417 1437 1453 1457 1457 1457 1459 1459 1459 1459 1459 1459 1457 1456 1454 1453 1453 1452 1451 1451 1449 1449 1448 1447 1447 1446 1446 1445 1443 1443 1442 1442 1441 1439 1437 1435 1434 1432 1430 1429 1427 1426 1423 1421 1418 1415 1412 1410 1407 1404 1400 1397 1396 1392 1389 1388 1387 1384 1384 1382 1378 1373 1368 1360 1355 1350 1345 1340 1336 1331 1329 1325 1317 1310 1296 1280 1248 1228 1214 1204 1199 1194 1175 1172 1147 1132 1120 1110 1105 1089 1075 1067 1059 1046 1029 1014 996 977 965 965
1002 1002 1005 1012 1019 1028 1038 1050 1064 1078 1091 1102 1114 1122 1131 1136 1139 1144 1149 1157 1163 1172 1179 1189 1193 1194 1196 1198 1199 1199 1199 1197 1185 0 0 0 0 0 0 0 0 0 1300 1311 1320 1331 1336 1340 1340 1340 1340 1339 1339 1339 1338 1338 1336 1329 1314 1313 1279 1244 1244 1244 1244 1244 0 0 0 1068 1055 1055 1055 1058 1058 1058 1058 1058 1058 1058 1059 1059 1061 1061 1061 1062 1062 1063 1063 1063 1064 1064 1064 1065 1066 1066 1067 1067 1067 1067 1067 1068 1068 1068 1068 1068 1068 1068 1068 1068 1068 1068 1068 1068 1068 1068 1069 1069 1069 1069 1069 1069 1069 1069 1068 1068 1068 1067 1067 1067 1066 1066 1065 1065 1065 1064 1063 1063 1063 1063 1062 1062 1062 1062 1062 1062 1062 1062 1062 1062 1062 1062 1062 1063 1063 1063 1063 1063 1063 1063 1063 1063 1063 1063 1063 1063 1063 1063 1063 1063 1063 1062 1062 1061 1061 1061 1061 1061 1061 1060 1060 1059 1059 1058 1057 1057 1057 1057 1058 1058 1058 1058 1058 1059 1059 1059 1059 1059 1059 1059 1059 1059 1059 1059 1059 1059 1059 1059 1059 1059 1059 1059 1059 1059 1059 1059 1059 1059 1057 1057 1057 1057 1056 1056 1056 1055 1054 1053 1052 1051 1050 1050 1050 1050 1050 1050 1050 1050 1050 1050 1050 1050 1050 1050 1051 1051 1051 1051 1052 1052 1054 1055 1055 1056 1058 1058 1058 1058 1057 1056 1055 1054 1054 1053 1052 1052 1051 1050 1049 1049 1050 1050 1051 1054 1057 1058 1059 1059 1059 1059 1059 1060 1060 1061 1061 1061 1058 1058 1058 1058 1057 1056 1051 1051 1051 1052 1052 1053 1054 1058 1067 1069 1069 1070 1070 1071 1072 0 0 0 0 0 0 0 0 0 0 0 0 0 0 0 0 0 0 0 0 0 0 0 0 0 0 0 0 0 0 0 0 0 0 0 0 0 0 0 0 0 0 0 0 0 0 0 0 0 0 0 0 0 0 0 0 0 0 0 0 0 0 0 0 0 0 0 0 0 0 0 0 0 0 0 0 1485 1487 1493 1493 1493 1490 1489 1489 1489 1489 1489 1487 1487 1485 1485 1484 1483 1483 1482 1480 1477 1475 1472 1472 1472 1472 1472 1474 1474 1474 1472 1472 1472 1471 1466 1463 1460 1451 1433 0 0 0 0 0 1040 1030 1027 1026 1025 1025 1024 1024 1023 1022 1021 1021 1020 1020 1020 1020 1020 1020 1020 1020 1020 1020 1021 1021 1021 1021 1021 1021 1020 1020 1020 1020 1019 1018 1017 1017 1017 1015 1013 1011 1010 1009 1008 1007 1005 1004 1003 1003 1003 1002 1002 1002 1001 1001 1001 1001 1000 1000 1000 999 998 998 998 998 998 998 998 998 999 1000 1001 1002 1003 1004 1004 1005 1005 1005 1006 1006 1007 1007 1008 1008 1009 1012 1015 1015 1015 1016 1018 1020 1020 1020 1020 1021 1022 1029 1032 1032 1032 1032 1032 1038 0 0 0 0 0 0 0 0 1411 1429 1444 1453 1457 1457 1457 1457 1457 1457 1458 1458 1458 1456 1455 1454 1453 1452 1452 1451 1450 1449 1448 1447 1447 1446 1445 1444 1444 1442 1441 1441 1441 1441 1439 1436 1434 1434 1431 1430 1428 1426 1425 1423 1421 1418 1415 1410 1408 1405 1402 1399 1397 1394 1390 1388 1385 1384 1382 1380 1377 1371 1364 1356 1351 1347 1343 1340 1336 1333 1329 1329 1325 1317 1310 1296 1277 1256 1229 1215 1203 1193 1191 1173 1151 1134 1113 1104 1094 1088 1073 1062 1053 1048 1043 1025 1006 985 967 954 954
1002 1002 1005 1010 1016 1025 1034 1045 1060 1074 1087 1100 1114 1122 1128 1132 1138 1141 1147 1153 1160 1169 1178 1186 1191 1192 1194 1197 1199 1199 1199 1196 1185 0 0 0 0 0 0 0 0 0 1300 1310 1315 1320 1323 1332 1335 1335 1335 1335 1335 1335 1335 1333 1330 1323 1311 1310 1269 1257 1257 1257 1257 1257 0 0 0 1065 1054 1054 1054 1056 1057 1057 1056 1056 1056 1056 1057 1059 1060 1060 1060 1061 1061 1062 1062 1062 1063 1063 1063 1064 1065 1065 1065 1066 1066 1066 1066 1066 1067 1067 1067 1067 1067 1067 1067 1067 1067 1067 1067 1067 1067 1067 1067 1067 1067 1067 1068 1068 1068 1068 1068 1068 1067 1067 1066 1066 1066 1065 1065 1064 1063 1063 1063 1062 1062 1062 1061 1061 1061 1061 1061 1061 1061 1061 1061 1061 1062 1062 1062 1062 1062 1063 1063 1063 1063 1063 1063 1063 1063 1063 1063 1063 1063 1063 1063 1063 1063 1062 1062 1062 1062 1062 1062 1061 1060 1060 1058 1057 1057 1057 1057 1057 1057 1057 1057 1058 1058 1058 1058 1058 1059 1059 1059 1059 1060 1060 1060 1060 1059 1059 1059 1059 1059 1059 1060 1061 1061 1061 1061 1061 1061 1061 1061 1061 1058 1058 1058 1058 1058 1057 1056 1055 1054 1053 1052 1051 1049 1049 1049 1049 1049 1049 1049 1049 1049 1049 1049 1049 1050 1050 1050 1050 1049 1049 1051 1051 1051 1053 1055 1057 1059 1059 1059 1058 1057 1056 1055 1054 1054 1053 1052 1051 1051 1049 1048 1048 1048 1050 1051 1055 1058 1062 1063 1064 1064 1064 1064 1068 1069 1069 1069 1066 1060 1058 1058 1058 1058 1058 1058 1053 1052 1052 1052 1053 1053 1058 1073 1077 1079 1086 1086 0 0 0 0 0 0 0 0 0 0 0 0 0 0 0 0 0 0 0 0 0 0 0 0 0 0 0 0 0 0 0 0 0 0 0 0 0 0 0 0 0 0 0 0 0 0 0 0 0 0 0 0 0 0 0 0 0 0 0 0 0 0 1495 1495 1495 1492 1491 1490 1490 1489 1489 1489 1489 1489 1489 1489 1489 1489 1489 1493 1496 1496 1496 1496 1495 1494 1492 1491 1489 1488 1487 1487 1487 1488 1488 1488 1484 1482 1478 1477 1476 1476 1477 1477 1477 1477 1477 1475 1474 1473 1473 1472 1468 1465 1461 1454 1437 0 0 0 0 0 1039 1030 1027 1026 1026 1026 1024 1024 1023 1023 1022 1022 1022 1021 1021 1020 1020 1020 1020 1020 1021 1022 1022 1023 1023 1023 1022 1022 1022 1022 1021 1021 1021 1019 1018 1018 1017 1015 1015 1015 1011 1010 1008 1007 1005 1004 1003 1002 1002 1002 1002 1001 1001 1001 1001 1000 1000 1000 1000 999 999 998 998 998 998 998 998 998 999 1000 1000 1002 1003 1004 1004 1004 1005 1005 1006 1007 1008 1008 1008 1009 1012 1018 1018 1018 1019 1019 1019 1021 1022 1025 1027 1027 1030 1033 1034 1040 1047 1049 1055 0 0 0 0 0 0 0 0 1414 1430 1445 1450 1453 1457 1457 1457 1457 1457 1457 1456 1456 1456 1455 1454 1453 1453 1452 1451 1450 1449 1449 1447 1446 1446 1445 1445 1444 1442 1441 1441 1441 1441 1440 1438 1436 1434 1432 1430 1429 1427 1425 1424 1421 1419 1417 1414 1410 1406 1403 1400 1397 1395 1392 1389 1385 1383 1380 1377 1373 1369 1363 1356 1351 1348 1343 1340 1339 1336 1333 1329 1328 1325 1317 1309 1292 1273 1255 1235 1215 1196 1190 1176 1156 1142 1119 1090 1082 1077 1071 1061 1048 1027 1020 1013 1003 993 979 962 952 952
1002 1002 1005 1010 1016 1024 1034 1045 1058 1071 1085 1099 1112 1121 1126 1132 1138 1141 1147 1153 1159 1167 1177 1185 1190 1191 1194 1197 1199 1199 1199 1195 1185 0 0 0 0 0 0 0 0 0 0 1309 1314 1318 1321 1324 1333 1333 1333 1332 1331 1331 1330 1328 1325 1320 1307 1306 1244 1244 1244 1259 1259 1259 0 0 0 1064 1052 1052 1052 1052 1054 1054 1055 1055 1055 1055 1056 1058 1058 1058 1059 1059 1060 1061 1061 1061 1062 1062 1062 1063 1063 1064 1064 1064 1065 1065 1065 1065 1065 1066 1066 1066 1066 1066 1066 1066 1066 1066 1066 1066 1066 1066 1066 1066 1066 1067 1067 1067 1067 1067 1066 1066 1065 1065 1065 1065 1065 1064 1064 1063 1063 1063 1062 1062 1061 1061 1061 1061 1060 1060 1060 1060 1061 1061 1061 1061 1061 1061 1061 1061 1062 1062 1062 1063 1063 1063 1063 1063 1064 1064 1064 1064 1064 1064 1064 1064 1063 1063 1063 1063 1063 1063 1063 1061 1059 1058 1057 1057 1056 1056 1056 1057 1057 1057 1057 1058 1058 1058 1058 1058 1059 1059 1059 1059 1059 1059 1060 1060 1060 1060 1060 1060 1060 1060 1061 1063 1063 1063 1063 1063 1063 1063 1063 1063 1061 1060 1059 1059 1059 1058 1056 1055 1054 1053 1052 1051 1049 1047 1046 1046 1046 1046 1047 1049 1049 1049 1049 1049 1049 1049 1049 1049 1048 1049 1049 1049 1050 1053 1056 1057 1060 1060 1060 1059 1058 1058 1057 1055 1054 1053 1050 1049 1049 1048 1048 1048 1048 1049 1051 1055 1065 1074 1084 1089 0 0 0 0 0 0 0 0 1080 1068 1068 1068 1072 1083 1083 1083 1076 1065 1052 1052 1052 1054 1073 1108 1108 0 0 0 0 0 0 0 0 0 0 0 0 0 0 0 0 0 0 0 0 0 0 0 0 0 0 0 0 0 0 0 0 0 0 0 0 0 0 0 0 0 0 0 0 0 0 1512 1512 1512 1512 1511 1511 1509 1502 1502 1502 1499 1499 1498 1498 1497 1497 1497 1497 1497 1496 1496 1494 1492 1492 1492 1492 1491 1492 1492 1492 1492 1492 1490 1490 1490 1493 1496 1497 1497 1497 1495 1494 1492 1491 1490 1489 1489 1490 1490 1492 1492 1492 1489 1485 1481 1481 1480 1479 1479 1479 1478 1477 1477 1476 1475 1474 1473 1473 1470 1466 1463 1456 1442 0 0 0 0 0 1039 1030 1027 1027 1027 1026 1025 1025 1024 1024 1022 1022 1022 1021 1021 1021 1021 1022 1022 1023 1023 1024 1024 1025 1025 1025 1025 1025 1025 1025 1025 1024 1024 1023 1021 1020 1017 1016 1016 1015 1013 1011 1010 1008 1006 1004 1003 1002 1002 1002 1002 1001 1001 1001 1001 1000 1000 1000 1000 1000 999 998 998 998 998 998 998 998 999 999 1000 1002 1003 1003 1004 1004 1005 1005 1006 1007 1008 1008 1008 1010 1016 1020 1020 1020 1021 1021 1021 1023 1027 1033 1042 1046 1051 1056 1056 0 0 0 0 0 0 0 0 0 0 0 1426 1448 1451 1451 1453 1453 1457 1457 1457 1457 1457 1456 1456 1456 1454 1454 1453 1453 1452 1451 1450 1450 1448 1447 1446 1445 1445 1445 1444 1442 1441 1440 1440 1440 1439 1438 1437 1435 1433 1431 1429 1427 1425 1424 1423 1421 1418 1417 1413 1409 1405 1402 1399 1396 1392 1390 1386 1384 1379 1376 1373 1368 1366 1362 1356 1351 1347 1342 1339 1338 1336 1332 1328 1326 1322 1315 1307 1290 1271 1255 1235 1215 1193 1179 1166 1152 1132 1094 1073 1069 1064 1063 1052 1028 1007 994 984 974 968 959 953 947 947
1002 1002 1005 1010 1016 1024 1034 1044 1054 1067 1083 1096 1110 1120 1125 1132 1138 1141 1147 1153 1159 1166 1176 1184 1189 1190 1194 1196 1197 1197 1197 1194 1183 1170 0 0 0 0 0 0 0 0 0 1309 1312 1315 1315 1319 1325 1326 1326 1326 1326 1325 1325 1325 1320 1316 1300 1244 1243 1243 1243 1263 1263 1263 0 0 1067 1056 1052 1051 1051 1051 1051 1051 1052 1052 1052 1054 1055 1056 1056 1056 1057 1058 1059 1059 1060 1060 1060 1061 1062 1062 1062 1062 1062 1063 1063 1064 1064 1064 1064 1064 1064 1064 1064 1064 1064 1064 1065 1065 1065 1065 1065 1065 1065 1065 1065 1065 1065 1065 1065 1065 1065 1064 1064 1064 1064 1064 1063 1063 1062 1061 1061 1061 1061 1060 1060 1060 1060 1059 1059 1059 1059 1060 1060 1060 1060 1060 1060 1060 1060 1060 1062 1062 1062 1062 1062 1063 1063 1063 1064 1064 1064 1064 1065 1065 1065 1064 1064 1064 1064 1066 1066 1066 1063 1061 1059 1058 1057 1057 1057 1057 1057 1057 1057 1057 1057 1057 1058 1058 1058 1058 1058 1059 1059 1060 1060 1060 1060 1060 1061 1061 1061 1063 1064 1064 1065 1066 1065 1065 1064 1064 1064 1064 1064 1064 1064 1063 1062 1059 1059 1056 1055 1055 1054 1051 1048 1048 1046 1045 1043 1043 1041 1041 1041 1042 1047 1047 1047 1047 1047 1044 1043 1043 1043 1047 1048 1048 1050 1053 1058 1062 1063 1063 1063 1062 1060 1058 1057 1055 1054 1052 1049 1049 1048 1045 1045 1045 1045 1049 1057 1064 1071 1093 1103 0 0 0 0 0 0 0 0 0 0 1084 1084 1084 0 0 0 0 0 0 1052 1040 1040 1040 1073 0 0 0 0 0 0 0 0 0 0 0 0 0 0 0 0 0 0 0 0 0 0 0 0 0 0 0 0 0 0 0 0 1525 1523 1523 1523 1518 1515 1515 1515 1514 1514 1509 1509 1508 1508 1509 1511 1516 1516 1516 1516 1515 1515 1515 1513 1510 1508 1507 1506 1505 1504 1504 1502 1500 1498 1497 1496 1496 1494 1493 1493 1492 1492 1492 1492 1492 1493 1493 1493 1494 1495 1496 1496 1498 1498 1498 1498 1495 1494 1493 1491 1491 1490 1490 1491 1493 1494 1494 1494 1491 1487 1483 1483 1483 1481 1481 1480 1478 1478 1477 1477 1476 1476 1475 1475 1471 1469 1467 1462 1450 0 0 0 0 0 1040 1037 1032 1029 1027 1027 1025 1025 1025 1024 1024 1024 1023 1023 1021 1021 1021 1023 1024 1025 1025 1026 1026 1026 1027 1027 1028 1028 1028 1028 1028 1028 1028 1028 1026 1021 1017 1017 1016 1015 1013 1013 1011 1008 1006 1005 1003 1002 1002 1002 1001 1001 1001 1001 1001 1000 1000 1000 1000 1000 999 998 998 998 998 998 998 999 999 999 1000 1002 1003 1003 1004 1004 1005 1006 1006 1008 1008 1008 1009 1012 1016 1021 1021 1022 1022 1023 1028 1028 1029 1034 1051 1062 0 0 0 0 0 0 0 0 0 0 0 0 0 1449 1450 1455 1455 1455 1455 1455 1455 1456 1456 1456 1456 1456 1456 1454 1453 1452 1452 1451 1450 1449 1449 1448 1447 1446 1445 1444 1444 1443 1442 1442 1441 1440 1439 1439 1437 1436 1435 1433 1431 1429 1427 1424 1423 1423 1421 1418 1417 1414 1411 1407 1404 1401 1398 1394 1390 1387 1384 1382 1378 1375 1370 1367 1365 1362 1356 1350 1345 1341 1337 1336 1334 1331 1325 1319 1315 1312 1303 1286 1262 1255 1235 1215 1189 1172 1159 1148 1124 1089 1069 1063 1057 1049 1040 1023 998 988 963 949 945 943 942 941 941
998 998 1005 1012 1015 1024 1034 1044 1051 1064 1079 1093 1108 1117 1125 1133 1140 1144 1150 1152 1158 1165 1173 1182 1186 1188 1192 1194 1194 1194 1189 1188 1180 1171 0 0 0 0 0 0 0 0 0 1297 1306 1307 1310 1313 1317 1317 1317 1314 1305 1305 1305 1312 1312 0 0 1212 1212 1212 1245 1259 1259 1259 0 0 1051 1051 1049 1048 1051 1050 1048 1049 1050 1050 1050 1051 1053 1054 1055 1055 1055 1055 1057 1058 1059 1059 1060 1060 1060 1061 1061 1061 1061 1061 1061 1061 1062 1063 1063 1063 1063 1063 1063 1063 1063 1063 1063 1063 1063 1064 1064 1064 1064 1063 1063 1063 1063 1063 1063 1062 1062 1061 1061 1061 1062 1062 1062 1061 1060 1060 1059 1059 1059 1059 1059 1059 1059 1059 1058 1058 1058 1058 1058 1059 1059 1059 1059 1059 1059 1059 1060 1060 1061 1061 1062 1062 1064 1064 1064 1064 1064 1064 1067 1067 1067 1067 1067 1068 1070 1071 1071 1071 1066 1061 1060 1058 1057 1056 1056 1056 1056 1058 1058 1058 1058 1058 1058 1058 1058 1058 1058 1060 1060 1060 1060 1059 1059 1060 1063 1065 1066 1067 1068 1070 1070 1070 1069 1068 1068 1067 1067 1067 1068 1067 1067 1065 1064 1059 1058 1052 1050 1047 1047 1047 1047 1047 1045 1043 1042 1042 1040 1040 1037 1037 1037 1041 1043 1043 1043 1039 1039 1039 1039 1044 1045 1047 1049 1051 1059 1063 1079 1080 1080 1080 1074 1067 1063 1061 1054 1052 1048 1048 1048 1044 1044 1044 1044 1048 1057 1070 1076 0 0 0 0 0 0 0 0 0 0 0 0 0 0 0 0 0 0 0 0 0 0 0 0 0 0 0 0 0 0 0 0 0 0 0 0 0 1558 1563 1563 1563 1559 1551 1547 1546 1544 1542 1541 1541 1539 1539 1539 1541 1541 1541 1536 1530 1530 1530 1530 1530 1530 1526 1526 1524 1524 1523 1523 1521 1520 1517 1517 1517 1517 1517 1517 1517 1516 1516 1516 1515 1513 1510 1508 1507 1507 1507 1507 1507 1505 1501 1498 1497 1496 1496 1496 1496 1496 1494 1494 1493 1493 1493 1493 1494 1495 1496 1496 1497 1498 1499 1499 1499 1498 1496 1494 1493 1493 1493 1493 1494 1494 1494 1494 1494 1494 1492 1489 1485 1484 1483 1483 1481 1481 1479 1479 1478 1478 1478 1477 1477 1476 1476 1476 1473 1467 1458 0 0 0 0 0 1044 1043 1037 1033 1033 1031 1028 1028 1028 1026 1025 1024 1024 1024 1023 1023 1023 1024 1027 1027 1027 1027 1027 1027 1028 1029 1031 1031 1031 1031 1032 1032 1032 1032 1031 1023 1018 1018 1018 1017 1014 1013 1011 1008 1008 1005 1003 1003 1002 1002 1001 1001 1001 1001 1001 1001 1001 1001 1001 1000 999 997 997 997 998 998 998 999 999 999 1000 1002 1003 1003 1004 1004 1005 1007 1008 1008 1008 1009 1011 1014 1018 1024 1025 1025 1027 1030 1035 1038 0 0 0 0 0 0 0 0 0 0 0 0 0 0 0 1445 1453 1454 1455 1455 1455 1455 1455 1455 1454 1455 1455 1455 1455 1455 1455 1453 1452 1451 1450 1450 1449 1448 1448 1447 1445 1445 1444 1443 1442 1442 1441 1439 1439 1439 1438 1437 1436 1434 1432 1430 1429 1427 1424 1423 1421 1420 1419 1417 1415 1412 1409 1405 1401 1398 1396 1391 1387 1384 1382 1381 1377 1375 1369 1367 1365 1361 1354 1349 1344 1340 1336 1332 1328 1324 1320 1315 1311 1307 1297 1279 1260 1242 1230 1215 1189 1171 1155 1141 1117 1088 1069 1062 1045 1029 1019 1012 998 986 962 948 945 943 942 941 941
998 998 1005 1013 1016 1024 1034 1042 1051 1063 1076 1090 1102 1113 1122 1133 1140 1144 1150 1152 1157 1164 1171 1177 1183 1187 1192 1192 1192 1192 1185 1185 1178 1171 0 0 0 0 0 0 0 0 0 1282 1296 1298 1301 1305 1305 1305 1302 1290 1266 1266 1266 1266 1266 0 0 0 1207 1212 1254 1254 1254 0 0 0 1050 1050 1047 1048 1050 1049 1048 1048 1048 1048 1048 1049 1050 1051 1052 1053 1053 1054 1054 1056 1057 1058 1058 1058 1058 1058 1058 1058 1058 1059 1059 1059 1059 1060 1060 1060 1060 1060 1061 1061 1061 1061 1061 1061 1062 1062 1062 1061 1061 1061 1060 1060 1060 1060 1060 1060 1060 1060 1059 1059 1059 1059 1059 1059 1058 1057 1057 1057 1057 1057 1057 1057 1057 1057 1057 1057 1057 1057 1057 1058 1057 1058 1058 1058 1058 1058 1059 1060 1061 1061 1062 1062 1064 1064 1064 1064 1064 1068 1075 1075 1075 1078 1078 1079 1081 1081 1081 1081 1078 1077 1065 1058 1057 1057 1057 1057 1057 1058 1058 1058 1058 1058 1058 1058 1058 1058 1058 1060 1060 1060 1060 1059 1059 1060 1065 1073 1073 1074 1075 1075 1081 1081 1081 1079 1079 1079 1079 1080 1081 1080 1078 1076 1072 1061 1051 1045 1042 1040 1040 1040 1044 1044 1044 1042 1040 1039 1032 1027 1027 1027 1030 1033 1039 1039 1039 1037 1032 1032 1032 1033 1034 1037 1043 1051 1060 1070 1081 1087 1089 1094 1094 1094 1079 1067 1054 1052 1048 1045 1044 1043 1043 1036 1036 1036 1057 1076 0 0 0 0 0 0 0 0 0 0 0 0 0 0 0 0 0 0 0 0 0 0 0 0 0 0 0 0 0 0 0 0 0 1570 1570 1566 1564 1564 1564 1564 1564 1564 1560 1556 1553 1551 1551 1549 1547 1544 1544 1544 1544 1544 1544 1543 1539 1535 1535 1535 1535 1535 1535 1533 1530 1528 1528 1528 1528 1526 1524 1524 1522 1522 1521 1521 1521 1518 1517 1517 1516 1516 1513 1510 1508 1508 1508 1508 1508 1508 1505 1503 1500 1498 1498 1498 1497 1497 1497 1495 1494 1493 1493 1493 1493 1494 1496 1496 1497 1497 1498 1499 1499 1499 1498 1496 1496 1496 1496 1496 1496 1497 1497 1497 1496 1495 1494 1492 1489 1486 1485 1484 1484 1484 1482 1482 1480 1479 1479 1479 1479 1479 1479 1479 1476 1474 1468 1458 0 0 0 0 0 1052 1050 1043 1042 1035 1035 1034 1033 1032 1029 1026 1026 1026 1030 1031 1031 1031 1031 1031 1030 1029 1029 1029 1030 1031 1031 1031 1032 1032 1032 1033 1033 1034 1034 1034 1033 1032 1022 1019 1017 1015 1014 1012 1009 1008 1005 1004 1004 1003 1002 1002 1002 1002 1002 1003 1003 1003 1002 1001 1000 998 997 997 997 998 998 999 999 999 999 1001 1003 1003 1004 1004 1007 1009 1009 1009 1009 1009 1009 1011 1017 1024 1026 1026 1027 1032 1050 0 0 0 0 0 0 0 0 0 0 0 0 0 0 0 1443 1452 1453 1455 1455 1456 1456 1456 1455 1453 1453 1453 1453 1453 1453 1453 1453 1453 1451 1451 1450 1449 1449 1447 1446 1446 1444 1444 1443 1443 1441 1441 1441 1439 1439 1438 1438 1437 1435 1434 1431 1430 1429 1427 1425 1423 1421 1419 1418 1418 1415 1414 1409 1406 1402 1399 1397 1393 1390 1387 1382 1380 1379 1376 1373 1368 1365 1363 1358 1352 1346 1341 1336 1332 1330 1326 1322 1317 1313 1308 1305 1295 1277 1254 1239 1230 1215 1189 1171 1155 1133 1113 1088 1069 1054 1029 1010 1000 999 996 982 961 948 945 943 942 941 941
998 998 1006 1013 1016 1024 1033 1041 1051 1063 1075 1086 1098 1109 1121 1133 1140 1144 1150 1152 1157 1164 1170 1175 1180 1187 1191 1192 1192 1192 1185 1180 1178 1171 1162 0 0 0 0 0 0 0 0 0 1284 1292 1297 1297 1297 1294 1285 1258 1258 1256 1255 1252 1228 1168 0 1168 1212 1213 1259 1259 0 0 0 0 1046 1046 1044 1045 1046 1046 1046 1046 1046 1046 1047 1048 1048 1050 1050 1050 1051 1051 1051 1054 1056 1056 1056 1056 1056 1056 1056 1056 1056 1056 1056 1056 1056 1056 1056 1057 1058 1058 1058 1059 1059 1059 1059 1060 1060 1060 1060 1059 1059 1058 1058 1058 1058 1058 1058 1058 1058 1057 1057 1057 1057 1057 1056 1056 1055 1055 1055 1055 1056 1056 1056 1056 1056 1056 1056 1056 1056 1056 1056 1056 1056 1057 1057 1057 1057 1057 1058 1059 1059 1059 1059 1062 1064 1065 1065 1065 1065 1075 1088 1088 1088 0 0 0 0 0 0 0 0 0 1082 1069 1061 1058 1058 1058 1058 1059 1059 1059 1058 1058 1058 1058 1058 1059 1060 1060 1060 1060 1060 1060 1060 1060 1079 0 0 0 0 0 0 0 0 0 0 0 0 0 0 0 1103 1103 1082 1061 1030 1028 1028 1028 1032 1038 1042 1042 1042 1042 1040 1025 1015 1014 1014 1015 1017 1020 1025 1029 1029 1029 1026 1026 1025 1025 1026 1028 1037 1050 1060 1075 1090 1105 1114 1114 1114 1094 1079 1068 1060 1056 1045 1036 1015 1010 1006 1006 1006 1016 0 0 0 0 0 0 0 1409 1409 1409 1395 0 0 0 0 0 0 0 0 0 0 0 0 0 0 0 0 0 0 0 0 0 0 0 1582 1582 1578 1567 1567 1567 1569 1569 1569 1564 1560 1558 1557 1557 1556 1551 1549 1547 1547 1546 1546 1546 1544 1543 1542 1538 1538 1538 1537 1537 1537 1534 1531 1531 1530 1529 1529 1529 1529 1529 1527 1526 1526 1525 1524 1520 1518 1518 1517 1516 1515 1510 1509 1509 1509 1510 1510 1510 1508 1506 1503 1500 1500 1500 1499 1499 1497 1495 1495 1495 1495 1495 1495 1495 1496 1496 1497 1497 1498 1499 1499 1499 1498 1498 1498 1498 1497 1497 1497 1497 1497 1497 1496 1495 1493 1492 1490 1489 1488 1487 1487 1486 1485 1484 1483 1482 1482 1482 1481 1481 1481 1479 1477 1474 1468 1459 0 0 0 0 0 0 1062 1045 1044 1042 1038 1038 1038 1038 1038 1035 1035 1035 1039 1039 1039 1039 1039 1037 1037 1036 1035 1034 1033 1032 1032 1032 1032 1033 1033 1034 1034 1034 1040 1040 1040 1040 1033 1027 1022 1017 1015 1014 1011 1010 1008 1006 1005 1003 1003 1003 1003 1004 1005 1006 1006 1006 1005 1003 1000 998 998 998 998 998 999 999 999 1000 1003 1006 1006 1007 1007 1007 1009 1013 1015 1016 1022 1025 1025 1026 1026 1029 1031 1032 0 0 0 0 0 0 0 0 0 0 0 0 0 0 0 1447 1447 1449 1451 1452 1453 1455 1455 1456 1456 1456 1455 1452 1452 1452 1452 1452 1452 1452 1451 1451 1450 1450 1449 1448 1447 1446 1445 1444 1443 1442 1441 1441 1440 1440 1440 1439 1438 1437 1437 1435 1433 1431 1429 1428 1426 1425 1424 1421 1420 1418 1416 1416 1414 1410 1407 1403 1400 1398 1396 1393 1389 1385 1382 1378 1375 1374 1370 1367 1364 1359 1354 1348 1342 1338 1334 1331 1328 1322 1320 1317 1312 1307 1302 1291 1273 1250 1238 1230 1216 1196 1171 1147 1121 1101 1084 1072 1054 1029 1010 1000 999 988 976 961 952 948 947 947 946 946
1002 1002 1011 1015 1019 1024 1033 1041 1050 1062 1073 1082 1094 1107 1119 1130 1139 1144 1148 1152 1157 1163 1169 1175 1180 1187 1191 1192 1192 1192 1185 1180 1177 1171 1163 0 0 0 0 0 0 0 0 0 1278 1289 1295 1295 1295 1289 1272 1256 1256 1255 1252 1250 1201 1168 1168 1168 1226 1266 1266 1266 0 0 0 0 1041 1040 1040 1040 1041 1041 1043 1044 1044 1044 1044 1045 1046 1047 1048 1048 1048 1049 1050 1052 1054 1054 1054 1054 1054 1053 1053 1053 1053 1053 1053 1053 1052 1052 1053 1053 1055 1055 1056 1056 1056 1057 1057 1057 1057 1057 1056 1056 1056 1054 1053 1053 1053 1053 1053 1053 1053 1053 1053 1053 1053 1052 1052 1052 1053 1053 1053 1053 1054 1054 1054 1054 1054 1054 1054 1054 1054 1054 1054 1054 1054 1054 1055 1056 1056 1057 1057 1058 1058 1058 1059 1061 1065 1065 1066 1067 1069 1077 1090 1111 0 0 0 0 0 0 0 0 0 0 0 0 1065 1060 1057 1057 1057 1060 1060 1060 1059 1059 1059 1059 1059 1060 1063 1066 1074 1075 1078 0 0 0 0 0 0 0 0 0 0 0 0 0 0 0 0 0 0 0 0 0 0 1061 1017 1017 1017 1021 1025 1038 1042 1042 1042 1042 1040 990 990 990 993 993 994 996 993 993 0 0 985 985 1003 1013 1021 1028 1034 1045 1060 1075 1090 1105 1114 1114 1114 1094 1079 1068 1060 1056 1045 1025 1014 1008 1002 1002 1002 1003 0 0 0 0 0 0 1414 1414 1414 1409 1398 1381 0 0 0 0 0 0 0 0 0 0 0 0 0 0 0 0 0 0 0 0 0 1597 1597 1597 1578 1568 1568 1568 1570 1570 1570 1565 1562 1561 1560 1559 1558 1554 1549 1547 1547 1547 1547 1546 1544 1543 1542 1540 1539 1539 1539 1539 1538 1535 1532 1531 1531 1531 1531 1531 1531 1530 1527 1526 1526 1525 1524 1521 1521 1520 1518 1516 1515 1510 1509 1509 1509 1510 1510 1510 1508 1507 1505 1503 1503 1503 1502 1501 1500 1497 1496 1496 1496 1496 1496 1496 1496 1496 1497 1497 1498 1499 1499 1499 1498 1498 1498 1498 1497 1497 1497 1497 1497 1497 1496 1495 1493 1492 1491 1490 1490 1488 1487 1487 1486 1485 1485 1484 1483 1483 1483 1482 1482 1480 1477 1475 1469 1461 0 0 0 0 0 0 0 0 1061 1053 1050 1050 1050 1053 1053 1053 1049 1049 1049 1051 1051 1051 1049 1046 1041 1038 1038 1038 1038 1038 1038 1040 1040 1040 1043 1044 1044 1045 1049 1049 1049 1049 1046 1044 1039 1027 1023 1016 1013 1013 1011 1009 1005 1005 1005 1009 1010 1010 1009 1009 1009 1007 1007 1004 1001 998 998 998 998 999 999 999 999 1003 1007 1008 1008 1008 1008 1008 1011 1014 1015 1021 1023 1029 1033 1038 1038 1042 0 0 0 0 0 0 0 0 0 0 0 0 0 0 1437 1441 1451 1453 1453 1453 1453 1453 1453 1454 1455 1456 1456 1456 1455 1452 1452 1451 1450 1450 1450 1450 1450 1450 1449 1448 1447 1446 1445 1444 1443 1442 1442 1441 1440 1439 1439 1439 1438 1437 1437 1437 1436 1433 1430 1428 1427 1425 1424 1422 1421 1420 1418 1416 1415 1414 1410 1408 1405 1401 1398 1397 1394 1392 1388 1384 1380 1376 1373 1369 1366 1363 1358 1354 1349 1344 1338 1334 1330 1328 1323 1320 1318 1315 1311 1305 1298 1286 1270 1250 1238 1229 1216 1196 1174 1147 1119 1098 1084 1078 1054 1029 1010 1000 999 985 968 966 963 961 958 958 958 958
1002 1002 1015 1022 1025 1029 1033 1041 1050 1062 1072 1082 1093 1105 1116 1127 1135 1140 1145 1150 1156 1163 1169 1175 1180 1186 1190 1194 1194 1194 1186 1180 1178 1172 1165 0 0 0 0 0 0 0 0 0 1275 1288 1295 1295 1295 1289 1270 1255 1255 1252 1251 1246 1199 1189 1189 1189 1254 1266 1266 1266 0 0 0 0 1034 1034 1037 1037 1038 1039 1041 1041 1041 1041 1042 1043 1044 1045 1045 1046 1048 1048 1048 1051 1052 1053 1053 1053 1051 1051 1051 1051 1051 1051 1050 1050 1050 1050 1050 1050 1050 1050 1051 1052 1052 1052 1053 1054 1054 1054 1053 1053 1052 1050 1050 1050 1050 1049 1047 1047 1047 1047 1047 1047 1047 1048 1048 1048 1049 1050 1050 1051 1051 1051 1051 1051 1052 1053 1053 1053 1053 1052 1052 1052 1052 1052 1054 1054 1055 1055 1055 1055 1056 1056 1057 1060 1062 1065 1067 1074 1083 1094 1112 0 0 0 0 0 0 0 0 0 0 0 0 0 1071 1060 1057 1057 1057 1060 1060 1060 1060 1059 1059 1060 1060 1060 1072 1080 1096 1101 0 0 0 0 0 0 0 0 0 0 0 0 0 0 0 0 0 0 0 0 0 0 0 0 0 990 990 990 1003 1031 1042 1058 1058 1058 0 0 962 960 957 956 957 960 959 959 959 959 959 966 991 1007 1016 1021 1031 1045 1060 1075 1090 1105 1105 1105 1094 1081 1074 1068 1060 1056 1037 1022 1012 1005 1002 995 995 995 0 0 0 0 0 0 1428 1428 1428 1410 1398 1383 1356 0 0 0 0 0 0 0 0 0 0 0 0 0 0 0 0 0 0 0 1611 1611 1611 1601 1579 1570 1570 1570 1570 1570 1570 1566 1564 1564 1562 1561 1559 1556 1552 1549 1548 1547 1547 1546 1544 1543 1542 1540 1539 1539 1539 1539 1538 1535 1533 1532 1532 1532 1532 1532 1531 1530 1527 1527 1526 1525 1525 1523 1522 1521 1519 1517 1515 1512 1512 1511 1511 1511 1511 1510 1508 1507 1505 1504 1504 1503 1503 1501 1500 1497 1496 1496 1496 1496 1496 1496 1496 1496 1496 1496 1496 1497 1497 1497 1497 1498 1498 1498 1497 1497 1496 1496 1496 1495 1495 1493 1493 1492 1491 1491 1490 1490 1488 1488 1487 1486 1485 1485 1484 1483 1483 1483 1483 1481 1479 1476 1471 1465 1456 0 0 0 0 0 0 0 0 0 0 0 0 0 0 0 0 0 0 0 0 0 0 0 0 0 0 0 0 1051 1051 1051 1053 1053 1055 1062 1069 1072 1072 1072 0 0 0 0 0 0 0 0 0 0 0 0 0 0 0 0 0 1018 1014 1013 1013 1009 1008 1004 1001 1001 1001 1001 1001 1001 1001 1001 1002 1005 1007 1008 1008 1008 1008 1008 1014 1017 1021 1021 1023 1029 1038 0 0 0 0 0 0 0 0 0 0 0 0 0 0 1435 1444 1445 1446 1449 1451 1453 1453 1453 1452 1452 1452 1453 1455 1455 1455 1454 1453 1452 1450 1450 1450 1450 1450 1449 1449 1449 1448 1447 1446 1445 1443 1442 1441 1441 1441 1440 1439 1438 1437 1436 1436 1436 1436 1436 1434 1430 1428 1426 1424 1423 1422 1420 1419 1418 1416 1414 1413 1412 1409 1406 1404 1400 1397 1395 1393 1391 1387 1383 1379 1376 1370 1363 1359 1356 1351 1346 1343 1339 1334 1327 1320 1317 1316 1315 1313 1312 1308 1302 1291 1279 1264 1249 1237 1229 1216 1196 1174 1147 1119 1098 1084 1078 1061 1033 1019 1012 1001 985 968 966 964 963 964 964 968 968
1002 1002 1015 1022 1025 1030 1033 1041 1050 1060 1070 1079 1091 1104 1115 1123 1131 1135 1141 1145 1153 1162 1169 1176 1181 1186 1190 1194 1194 1194 1189 1184 1179 1177 1168 0 0 0 0 0 0 0 0 0 1275 1288 1295 1295 1295 1287 1269 1249 1246 1246 1243 1230 1190 1190 1190 1211 1254 0 0 1266 0 0 0 1030 1030 1030 1033 1034 1034 1035 1038 1038 1038 1038 1039 1041 1041 1041 1043 1043 1044 1044 1045 1045 1047 1049 1049 1049 1048 1048 1048 1048 1048 1048 1047 1047 1047 1046 1045 1045 1045 1045 1045 1047 1048 1049 1049 1050 1050 1051 1051 1051 1049 1048 1047 1047 1047 1046 1044 1044 1043 1041 1041 1041 1041 1041 1043 1045 1045 1045 1046 1047 1047 1047 1047 1048 1049 1050 1050 1050 1050 1050 1049 1049 1049 1049 1049 1049 1049 1048 1048 1048 1049 1051 1055 1058 1062 1065 1069 1078 1085 0 0 0 0 0 0 0 0 0 0 0 0 0 0 0 0 1063 1059 1059 1059 1060 1060 1060 1060 1059 1059 1061 1062 1066 1072 1082 1107 0 0 0 0 0 0 0 0 0 0 0 0 0 0 0 0 0 0 0 0 0 0 0 0 0 0 0 0 0 984 1028 1058 1112 1112 0 0 0 962 956 955 951 938 933 933 930 928 930 935 952 987 1001 1002 1002 1008 1023 1057 1070 1071 1071 1071 1071 1064 1057 1048 1041 1030 1015 1005 999 997 995 994 994 994 994 0 0 0 0 0 1420 1428 1428 1428 1410 1398 1383 1355 0 0 0 0 0 0 0 0 0 0 0 0 0 0 0 0 0 0 0 1615 1615 1615 1603 1583 1574 1574 1574 1573 1573 1573 1569 1567 1564 1563 1562 1560 1557 1555 1551 1549 1549 1547 1546 1544 1543 1542 1540 1539 1539 1539 1539 1538 1537 1535 1533 1533 1533 1533 1533 1532 1530 1528 1527 1526 1525 1525 1525 1524 1522 1520 1518 1516 1514 1514 1513 1512 1512 1511 1511 1509 1507 1506 1505 1504 1503 1503 1502 1500 1498 1497 1497 1496 1496 1496 1496 1496 1496 1496 1496 1496 1496 1496 1497 1497 1497 1497 1497 1497 1496 1496 1495 1494 1494 1493 1493 1493 1492 1492 1491 1490 1490 1489 1489 1488 1487 1487 1485 1485 1485 1485 1485 1484 1483 1480 1476 1471 1465 1462 0 0 0 0 0 0 0 0 0 0 0 0 0 0 0 0 0 0 0 0 0 0 0 0 0 0 0 0 0 0 0 0 0 0 0 0 0 0 0 0 0 0 0 0 0 0 0 0 0 0 0 0 0 0 0 0 0 0 0 1041 1012 1011 1011 1011 1012 1012 1012 1008 1004 1004 1004 1005 1006 1011 1011 1011 1008 1008 1008 1014 1017 1021 0 0 0 0 0 0 0 0 0 0 0 0 0 0 1428 1432 1436 1439 1441 1444 1445 1446 1449 1451 1453 1453 1453 1452 1452 1452 1452 1451 1451 1451 1450 1450 1450 1450 1449 1449 1449 1449 1449 1447 1446 1446 1446 1444 1443 1441 1440 1440 1439 1439 1438 1437 1437 1436 1435 1435 1435 1435 1434 1430 1427 1425 1424 1421 1420 1420 1418 1417 1415 1413 1412 1411 1410 1407 1404 1402 1398 1394 1392 1390 1388 1384 1382 1376 1372 1367 1361 1356 1351 1346 1341 1339 1335 1330 1321 1315 1311 1310 1309 1308 1306 1303 1299 1287 1274 1264 1247 1234 1224 1212 1191 1174 1145 1119 1098 1089 1073 1061 1048 1038 1026 1009 985 968 966 964 964 966 970 973 973
1002 1002 1015 1022 1025 1030 1034 1041 1050 1060 1069 1078 1091 1102 1114 1119 1125 1131 1138 1145 1150 1160 1169 1176 1181 1186 1190 1193 1193 1193 1192 1189 1183 1183 1176 1161 0 0 0 0 0 0 0 0 0 1287 1293 1293 1293 1282 1259 1246 1243 1242 1242 1218 1178 1178 1178 1211 1243 1243 0 0 0 0 0 1022 1022 1022 1030 1032 1034 1034 1034 1034 1034 1034 1034 1036 1036 1037 1038 1038 1037 1037 1037 1037 1039 1040 1041 1042 1042 1042 1042 1042 1042 1042 1042 1042 1042 1042 1042 1042 1042 1042 1043 1043 1045 1046 1046 1047 1047 1046 1047 1047 1046 1046 1044 1044 1043 1042 1037 1037 1037 1036 1036 1035 1035 1035 1036 1038 1040 1040 1041 1043 1043 1044 1044 1044 1045 1045 1045 1045 1045 1047 1047 1047 1047 1047 1046 1045 1045 1045 1046 1046 1047 1048 1050 1055 1061 1065 1071 1079 0 0 0 0 0 0 0 0 0 0 0 0 0 0 0 0 0 1063 1061 1060 1060 1060 1060 1060 1060 1060 1062 1065 1066 1070 1072 1092 0 0 0 0 0 0 0 0 0 0 0 0 0 0 0 0 0 0 0 0 0 0 0 0 0 0 0 0 0 0 0 0 0 0 0 0 0 0 0 956 955 951 938 933 933 930 928 930 932 932 961 978 987 993 1001 1015 1028 1053 1053 1053 1051 1049 1049 1045 1040 1034 1018 996 987 983 983 983 983 985 986 0 0 0 0 0 1392 1421 1428 1428 1428 1410 1398 1383 1355 0 0 0 0 0 0 0 0 0 0 0 0 0 0 0 0 0 0 1623 1623 1623 1615 1603 1583 1578 1576 1575 1575 1575 1573 1571 1569 1567 1565 1563 1562 1560 1556 1554 1552 1549 1547 1546 1544 1543 1542 1540 1540 1539 1539 1538 1538 1537 1535 1534 1534 1533 1533 1533 1532 1530 1529 1527 1526 1526 1525 1525 1524 1522 1520 1518 1516 1516 1515 1514 1513 1512 1512 1511 1510 1508 1506 1505 1505 1504 1503 1502 1500 1499 1498 1497 1497 1497 1496 1496 1496 1496 1496 1496 1496 1496 1496 1496 1497 1497 1497 1497 1497 1496 1495 1495 1494 1494 1493 1492 1492 1492 1492 1491 1490 1490 1489 1489 1488 1488 1487 1487 1486 1486 1486 1485 1484 1484 1481 1478 1472 1468 1465 1465 0 0 0 0 0 0 0 0 0 0 0 0 0 0 0 0 0 0 0 0 0 0 0 0 0 0 0 0 0 0 0 0 0 0 0 0 0 0 0 0 0 0 0 0 0 0 0 0 0 0 0 0 0 0 0 0 0 0 0 0 1023 1023 1021 1019 1018 1014 1009 1009 1009 1009 1009 1014 1016 1016 1016 1016 1016 1021 0 0 0 0 0 0 0 0 0 0 0 0 0 0 0 1434 1437 1437 1438 1438 1441 1443 1444 1446 1447 1449 1449 1450 1450 1452 1452 1452 1451 1450 1450 1448 1448 1448 1448 1448 1448 1448 1448 1448 1447 1446 1446 1445 1444 1444 1443 1441 1440 1438 1438 1437 1437 1436 1436 1436 1435 1434 1433 1433 1432 1430 1427 1425 1422 1420 1419 1418 1417 1416 1414 1412 1411 1410 1409 1408 1405 1403 1400 1396 1391 1388 1387 1383 1381 1376 1373 1369 1365 1359 1354 1348 1342 1337 1333 1331 1325 1318 1312 1308 1304 1301 1297 1297 1297 1294 1281 1271 1259 1247 1231 1218 1202 1181 1165 1145 1119 1101 1089 1073 1061 1048 1038 1026 1009 994 971 965 964 964 964 969 973 973
993 993 1005 1016 1021 1030 1034 1041 1050 1059 1068 1078 1090 1101 1111 1118 1124 1128 1136 1144 1150 1160 1169 1176 1181 1186 1189 1192 1193 1193 1193 1191 1188 1184 1183 1169 0 0 0 0 0 0 0 0 0 1278 1287 1287 1287 1280 1246 1244 1243 1239 1239 1212 1165 1165 1165 1212 1216 1216 0 0 0 0 1037 1020 1020 1020 1023 1026 1028 1028 1029 1029 1029 1030 1031 1031 1032 1032 1032 1032 1029 1029 1029 1028 1028 1029 1029 1032 1037 1037 1037 1037 1036 1036 1032 1031 1031 1031 1034 1037 1038 1039 1039 1040 1042 1043 1043 1043 1043 1041 1040 1039 1039 1039 1039 1036 1035 1034 1033 1027 1027 1027 1027 1027 1028 1028 1029 1030 1032 1034 1036 1036 1038 1040 1041 1041 1041 1041 1041 1042 1043 1043 1043 1043 1042 1041 1041 1040 1040 1040 1043 1044 1045 1045 1046 1052 1061 1065 1077 1099 0 0 0 0 0 0 0 0 0 0 0 0 0 0 0 0 0 1063 1062 1060 1060 1060 1061 1061 1062 1065 1065 1070 1071 1072 0 0 0 0 0 0 0 0 0 0 0 0 0 0 0 0 0 0 0 0 0 0 0 0 0 0 0 0 0 0 0 0 0 0 0 0 0 0 0 0 0 0 956 951 938 933 933 930 928 930 932 932 947 961 973 983 995 1006 1016 1035 1035 1035 1034 1034 1034 1033 1032 1020 1003 990 987 983 976 976 976 983 983 0 0 0 0 0 1417 1428 1428 1428 1426 1410 1398 1383 0 0 0 0 0 0 0 0 0 0 0 0 0 0 0 0 0 0 1608 1624 1624 1624 1615 1603 1583 1578 1576 1576 1576 1575 1573 1571 1570 1569 1566 1564 1562 1560 1558 1554 1553 1550 1548 1546 1545 1543 1542 1540 1540 1539 1538 1538 1537 1537 1535 1534 1534 1534 1533 1533 1532 1530 1529 1528 1527 1526 1526 1525 1525 1522 1521 1518 1518 1517 1516 1514 1513 1513 1512 1511 1510 1508 1507 1506 1505 1504 1503 1502 1501 1499 1498 1498 1498 1497 1497 1497 1496 1496 1496 1496 1496 1496 1496 1496 1496 1496 1496 1496 1496 1496 1494 1494 1493 1493 1492 1492 1492 1491 1491 1491 1490 1490 1489 1489 1489 1488 1487 1487 1486 1486 1486 1486 1484 1484 1482 1480 1477 1472 1471 1470 1465 1454 1450 0 0 0 0 0 0 0 0 0 0 0 0 0 0 0 0 0 0 0 0 0 0 0 0 0 0 0 0 0 0 0 0 0 0 0 0 0 0 0 0 0 0 0 0 0 0 0 0 0 0 0 0 0 0 0 0 0 0 0 0 1024 1024 1024 1028 1030 1030 1030 1026 1025 0 0 0 0 0 0 0 0 0 0 0 0 0 0 0 0 1404 1419 1422 1423 1429 1438 1440 1440 1440 1440 1443 1446 1447 1447 1448 1449 1449 1449 1449 1449 1450 1450 1450 1450 1448 1447 1447 1447 1447 1447 1447 1447 1447 1446 1445 1445 1444 1443 1443 1442 1441 1439 1439 1438 1436 1436 1436 1436 1435 1435 1434 1433 1432 1431 1429 1428 1426 1423 1421 1419 1418 1416 1414 1413 1411 1410 1407 1407 1406 1404 1403 1401 1398 1394 1388 1385 1381 1378 1375 1373 1369 1365 1360 1356 1351 1344 1337 1332 1328 1327 1323 1315 1309 1304 1298 1293 1290 1289 1289 1283 1273 1257 1251 1241 1227 1211 1194 1173 1157 1141 1119 1106 1089 1068 1052 1048 1038 1026 1009 994 972 963 958 958 958 968 973 973
987 987 999 1009 1017 1028 1034 1041 1050 1057 1066 1076 1089 1100 1110 1115 1120 1126 1135 1142 1149 1157 1165 1173 1179 1184 1188 1190 1190 1193 1193 1193 1193 1192 1190 1179 0 0 0 0 0 0 0 0 0 1255 1271 1271 1271 1271 1245 1242 1241 1238 1237 1210 1166 1166 1166 1213 1213 1213 0 0 0 0 1015 1011 1011 1011 1012 1013 1018 1020 1021 1021 1023 1024 1024 1024 1024 1024 1024 1024 1024 1021 1012 1008 1007 1007 1007 1015 1021 1021 1021 1020 1019 1019 1020 1021 1023 1024 1025 1027 1031 1034 1037 1038 1038 1038 1038 1038 1038 1037 1035 1034 1033 1033 1031 1026 1023 1023 1023 1022 1022 1022 1022 1022 1022 1023 1023 1023 1026 1029 1032 1033 1033 1035 1037 1037 1038 1038 1038 1039 1040 1040 1040 1040 1040 1039 1039 1038 1037 1037 1037 1038 1039 1042 1044 1049 1061 1076 1091 1115 0 0 0 0 0 0 1656 1656 1656 1645 0 0 0 0 0 0 0 1073 1069 1064 1064 1064 1064 1064 1068 1071 1071 1073 1074 1075 0 0 0 0 0 0 0 0 0 0 1761 1766 1783 1798 1798 1798 1798 1771 1770 1770 0 0 0 0 0 0 0 0 0 0 0 0 0 0 0 0 0 0 0 0 0 0 0 0 964 953 946 946 943 939 939 939 947 955 968 978 986 996 1012 1021 1021 1021 1017 1013 1012 1009 1009 1004 994 989 987 983 974 974 974 980 996 0 0 0 0 0 1426 1428 1428 1428 1415 1402 1391 1382 0 0 0 0 0 0 0 0 0 0 0 0 0 0 0 0 0 1596 1614 1622 1622 1622 1614 1595 1583 1580 1577 1576 1576 1576 1573 1571 1570 1569 1567 1565 1562 1560 1558 1556 1553 1551 1549 1547 1545 1544 1543 1542 1540 1538 1538 1538 1537 1536 1535 1534 1534 1533 1533 1532 1532 1531 1530 1529 1528 1528 1527 1526 1525 1523 1521 1519 1518 1517 1517 1515 1513 1513 1512 1511 1510 1509 1508 1506 1506 1504 1503 1502 1501 1500 1499 1499 1498 1498 1497 1497 1496 1496 1496 1495 1495 1495 1495 1495 1495 1495 1495 1494 1494 1493 1493 1493 1492 1492 1491 1491 1491 1491 1490 1490 1490 1490 1490 1489 1489 1488 1488 1487 1486 1486 1486 1486 1484 1484 1482 1480 1479 1476 1474 1474 1471 1470 1466 1462 1458 1456 1433 1430 1430 1430 0 0 0 0 1441 1441 1443 1443 1445 1445 1445 1439 1428 1416 0 0 0 0 0 0 0 0 0 0 0 0 0 0 0 0 0 0 1431 1431 1429 1426 0 0 0 0 0 0 0 0 0 0 0 0 0 0 0 0 0 0 0 0 0 0 0 0 0 0 0 0 0 0 0 0 0 0 0 0 0 0 0 0 0 0 1421 1422 1426 1427 1430 1438 1441 1442 1442 1443 1446 1447 1448 1448 1448 1449 1449 1449 1449 1449 1449 1449 1449 1449 1447 1446 1446 1446 1446 1446 1446 1446 1445 1445 1445 1443 1443 1443 1441 1441 1439 1439 1437 1436 1436 1435 1434 1434 1434 1433 1432 1431 1431 1430 1429 1427 1424 1422 1419 1417 1415 1414 1412 1411 1409 1407 1405 1403 1401 1401 1400 1399 1396 1392 1388 1383 1380 1376 1371 1367 1364 1359 1355 1351 1347 1339 1333 1326 1325 1324 1319 1313 1306 1300 1292 1286 1282 1281 1281 1273 1259 1249 1242 1234 1218 1206 1184 1165 1148 1135 1119 1108 1081 1064 1051 1043 1034 1023 1009 994 972 962 956 953 953 953 960 960
