524 524 533 535 549 556 563 585 612 0 0 0 0 0 0 0 0 0 0 0 0 1115 1145 1170 1192 1203 1221 1242 1267 1289 1293 1317 1343 1369 1392 1410 1426 1440 1459 1475 1491 1503 1505 1505 0 0 0 0 0 0 0 0 0 0 0 0 0 0 0 0 0 0 0 0 1933 1938 1957 1979 1997 2016 2034 2050 2066 2084 2098 2111 2125 2141 2154 2166 2174 2184 2194 2202 2211 2220 2230 2243 2255 2261 2274 2283 2292 2301 2309 2318 2324 2329 2335 2343 2353 2362 2362 2362 2361 2350 2330 0 0 2160 2150 2150 2150 2165 2178 2181 2189 2197 2206 2217 2231 2245 2253 2258 2263 2267 2271 2275 2279 2289 2298 2310 2313 2313 2313 2276 2251 0 0 0 0 0 0 0 2525 2620 2684 2692 2692 2692 2685 2682 2678 2666 2643 2605 2556 0 0 0 0 0 1981 1972 1972 1972 1974 1976 1979 1980 1983 1983 1983 1981 1977 1975 1973 1970 1967 1964 1960 1955 1951 1949 1949 1948 1948 1942 1937 1933 1932 1927 1920 1912 1912 1890 1886 1872 1834 0 0 0 0 0 0 1053 1047 1047 1047 1046 1046 1047 1047 1047 1047 1048 1048 1049 1049 1050 1050 1050 1050 1050 1047 1045 1044 1041 1038 1032 1023 1017 1014 1013 1012 1011 1010 1010 1010 1010 1012 1014 1017 1021 1025 1029 1029 1030 1032 1033 1034 1036 1039 1044 1050 1055 1062 1070 1081 1092 1097 1101 1106 1108 1111 1114 1115 1117 1119 1120 1122 1123 1125 1126 1128 1129 1130 1131 1133 1134 1134 1135 1135 1136 1136 1136 1136 1136 1133 1130 1129 1128 1124 1115 1111 1111 1111 1112 1116 1118 1119 1120 1120 1121 1124 1130 1134 1136 1138 1138 1139 1139 1142 1153 1164 1166 1170 1172 1172 1172 1170 1165 1164 1162 1161 1159 1157 1155 1154 1153 1149 1141 1141 1141 1142 1142 1144 1146 1154 1159 1163 1164 1165 1169 1182 1199 1212 1223 1228 1231 1232 1236 1239 1241 1243 1246 1248 1250 1252 1254 1256 1257 1258 1259 1259 1259 1258 1257 1256 1254 1253 1251 1240 1221 1201 1190 1180 1172 1170 1168 1167 1167 1167 1170 1174 1174 1174 1175 1175 1177 1192 1212 1230 1247 1273 1294 1308 1316 1323 1324 1324 1325 1325 1328 1331 1333 1335 1336 1338 1338 1338 1338 1338 1339 1342 1344 1346 1348 1354 1360 1365 1367 1367 1368 1370 1371 1374 1376 1377 1378 1379 1380 1381 1382 1394 1395 0 0 0 1628 1649 1668 1681 1690 1694 1695 1696 1699 1700 1701 1701 1701 1698 1698 1698 1697 1699 1699 1699 1705 1712 1712 1715 1715 1715 1713 1710 1707 1704 1698 1691 1686 1683 1681 1680 1680 1680 1680 1681 1682 1683 1684 1686 1688 1688 1688 1688 1687 1683 1681 1680 1680 1677 1673 1668 1668 1667 1665 1661 1659 1655 1653 1651 1648 1647 1647 1646 1646 1646 1647 1647 1647 1645 1644 1643 1640 1638 1636 1633 1629 1626 1623 1621 1621 1621 1623 1623 1623 1619 1611 1596 1583 1577 1567 1556 1537 0 0 0 1430 1399 1381 1375 1372 1368 1357 1345 1335 1334 1334 1333 1329 1322 1315 1312 1311 1310 1310 1307 1303 1298 1293 1289 1286 1284 1283 1281 1278 1272 1271 1269 1267 1262 1258 1257 1257 1256 1256 1256 1253 1252 1249 1244 1242 1238 1238 1234 1232 1229 1225 1219 1215 1212 1207 1198 1192 1189 1184 1178 1170 1164 1160 1157 1151 1145 1141 1141 1141 1143 1144 1154 1154 1154 1152 1150 1150 1150 1152 1152 1155 1157 1157 1157 1157 1135 1132 1095 1095 1095 1095 1095 1090 1059 1054 1054 1054 1054 0 0 0
524 524 531 533 541 550 558 578 0 0 0 0 0 0 0 0 0 0 0 0 0 1115 1145 1167 1182 1201 1219 1240 1263 1285 1289 1313 1341 1369 1392 1410 1425 1437 1452 1461 1463 1463 1461 1457 0 0 0 1398 1399 1412 1413 0 0 0 1431 1444 1459 1478 0 0 0 0 0 0 0 0 0 1964 1984 2007 2029 2048 2065 2083 2095 2108 2118 2130 2142 2154 2167 2179 2194 2202 2211 2221 2235 2246 2253 2261 2271 2280 2290 2300 2306 2312 2318 2323 2331 2342 2351 2360 2360 2360 2355 2339 2312 0 0 2136 2136 2136 2150 2168 2178 2181 2184 2191 2203 2217 2231 2245 2255 2262 2264 2268 2271 2275 2279 2289 2298 2308 2308 2308 2298 2255 2235 0 0 0 0 0 0 0 2582 2670 2685 2685 2685 2684 2681 2678 2676 2659 2619 2572 2505 0 0 0 0 1993 1969 1969 1969 1974 1977 1978 1979 1979 1979 1978 1978 1975 1972 1970 1970 1968 1966 1962 1958 1954 1951 1950 1949 1949 1949 1942 1937 1932 1925 1919 1913 1912 1899 1890 1876 1872 0 0 0 0 0 0 0 1053 1048 1047 1046 1046 1046 1046 1046 1047 1047 1047 1048 1048 1049 1050 1050 1050 1049 1049 1047 1045 1044 1040 1037 1031 1025 1019 1015 1015 1014 1014 1013 1011 1011 1011 1012 1015 1018 1021 1024 1026 1029 1030 1032 1033 1034 1036 1039 1044 1050 1055 1062 1069 1081 1093 1097 1101 1105 1107 1110 1112 1115 1117 1119 1120 1122 1123 1125 1126 1128 1128 1130 1131 1132 1134 1134 1135 1135 1135 1135 1135 1135 1134 1133 1129 1128 1127 1121 1111 1106 1106 1106 1107 1111 1114 1114 1114 1115 1117 1120 1123 1123 1123 1123 1119 1119 1119 1127 1137 1148 1159 1168 1172 1172 1172 1172 1172 1175 1177 1178 1178 1178 1177 1174 1171 1163 1160 1159 1158 1157 1156 1156 1156 1156 1160 1165 1165 1166 1169 1182 1199 1215 1223 1228 1232 1232 1236 1239 1240 1243 1246 1248 1250 1252 1254 1255 1257 1258 1259 1259 1259 1258 1257 1256 1254 1251 1246 1240 1222 1203 1190 1180 1172 1170 1168 1167 1165 1164 1164 1165 1170 1174 1174 1174 1180 1192 1212 1232 1244 1264 1288 1309 1318 1324 1324 1324 1325 1327 1328 1331 1334 1335 1336 1338 1339 1341 1343 1344 1346 1349 1351 1351 1354 1359 1361 1364 1366 1367 1368 1370 1371 1373 1374 1377 1377 1379 1380 1381 1382 1395 1404 0 0 0 1628 1645 1659 1675 1690 1691 1695 1696 1699 1700 1701 1701 1701 1701 1701 1703 1708 1712 1712 1712 1712 1712 1712 1713 1713 1713 1712 1711 1709 1705 1698 1692 1686 1683 1682 1682 1682 1683 1685 1685 1686 1687 1687 1688 1692 1692 1692 1691 1688 1688 1685 1682 1680 1676 1673 1668 1666 1664 1663 1660 1658 1655 1652 1650 1646 1645 1645 1645 1645 1646 1646 1646 1646 1645 1644 1643 1640 1638 1634 1631 1623 1619 1619 1619 1619 1621 1623 1623 1623 1619 1611 1600 1594 1591 1587 1578 1564 1535 0 0 0 0 1407 1394 1390 1381 1367 1352 1341 1337 1335 1333 1329 1323 1319 1316 1315 1314 1310 1307 1303 1298 1293 1289 1286 1284 1282 1278 1271 1271 1270 1268 1267 1262 1258 1257 1257 1257 1258 1258 1258 1254 1250 1247 1242 1240 1240 1236 1232 1229 1226 1222 1218 1215 1208 1201 1194 1189 1184 1176 1169 1164 1160 1157 1151 1148 1144 1144 1144 1145 1146 1152 1156 1157 1157 1162 1163 1163 1163 1163 1162 1161 1161 1157 1157 1135 1132 1111 1111 1111 1110 1110 1110 1080 1054 1054 1054 1044 0 0 0
524 524 531 533 537 544 556 0 0 0 0 0 0 0 0 0 0 0 0 0 1081 1115 1145 1167 1182 1200 1219 1240 1263 1284 1288 1313 1340 1368 1392 1409 1422 1436 1439 1439 1439 1434 1425 1412 1392 1384 1383 1379 1379 1379 1388 1391 1391 1394 1403 1410 1426 1446 1463 0 0 0 0 0 0 0 0 0 1972 2000 2024 2044 2063 2077 2091 2104 2114 2123 2138 2154 2167 2179 2194 2202 2212 2223 2235 2246 2252 2261 2268 2278 2289 2299 2306 2310 2316 2323 2331 2342 2350 2358 2358 2358 2351 2324 2297 0 0 2136 2136 2136 2152 2170 2177 2178 2180 2190 2203 2217 2234 2246 2255 2262 2264 2269 2271 2275 2279 2289 2298 2308 2308 2308 2290 2245 0 0 0 0 0 0 0 0 2625 2685 2687 2687 2687 2682 2673 2669 2664 2636 2597 2536 0 0 0 0 0 1959 1959 1959 1968 1974 1978 1978 1978 1978 1977 1976 1973 1971 1969 1967 1967 1965 1961 1960 1958 1954 1951 1951 1949 1949 1949 1942 1931 1922 1911 1905 1901 1898 1882 1876 1874 1858 0 0 0 0 0 0 0 1053 1048 1047 1046 1046 1046 1046 1046 1046 1046 1046 1047 1048 1049 1049 1049 1049 1049 1048 1046 1045 1043 1039 1035 1031 1025 1022 1016 1015 1015 1015 1014 1013 1013 1013 1014 1015 1018 1021 1024 1026 1029 1030 1032 1033 1034 1036 1041 1045 1050 1055 1063 1069 1080 1093 1096 1101 1105 1107 1110 1112 1115 1117 1118 1120 1121 1123 1124 1126 1128 1128 1130 1131 1132 1134 1134 1135 1135 1135 1135 1135 1135 1134 1133 1129 1126 1124 1119 1111 1101 1101 1101 1102 1106 1108 1108 1110 1110 1113 1113 1116 1116 1116 1113 1113 1113 1114 1117 1120 1128 1140 1156 1168 1171 1174 1174 1176 1181 1181 1182 1182 1182 1179 1179 1175 1173 1173 1171 1170 1169 1168 1167 1167 1166 1166 1166 1166 1166 1172 1183 1203 1215 1223 1228 1232 1232 1236 1238 1240 1243 1245 1247 1250 1252 1254 1255 1257 1258 1259 1259 1259 1259 1257 1256 1253 1250 1245 1238 1221 1203 1188 1179 1172 1170 1170 1167 1165 1165 1163 1163 1163 1170 1174 1174 1180 1192 1212 1232 1241 1256 1286 1309 1323 1324 1324 1325 1327 1328 1330 1332 1334 1336 1336 1338 1340 1342 1343 1344 1347 1349 1352 1354 1356 1360 1362 1364 1366 1367 1368 1369 1371 1372 1374 1375 1376 1377 1378 1378 1380 1395 1403 0 0 1628 1635 1640 1652 1660 1673 1690 1698 1698 1699 1702 1702 1702 1701 1701 1701 1703 1708 1713 1713 1713 1713 1712 1712 1712 1712 1711 1711 1711 1709 1705 1698 1692 1687 1683 1683 1683 1686 1686 1687 1688 1689 1689 1690 1692 1692 1695 1695 1695 1694 1689 1685 1682 1679 1675 1671 1667 1664 1661 1657 1655 1654 1652 1651 1648 1645 1644 1644 1644 1644 1644 1644 1644 1644 1644 1644 1641 1638 1635 1632 1627 1621 1616 1616 1616 1619 1621 1622 1622 1622 1619 1611 1605 1604 1604 1601 1592 1580 1561 1537 1510 0 0 0 1418 1409 1396 1378 1360 1345 1340 1336 1333 1329 1327 1324 1324 1323 1320 1315 1309 1303 1298 1293 1289 1286 1285 1282 1278 1271 1271 1270 1268 1267 1263 1261 1259 1259 1259 1258 1258 1258 1254 1250 1247 1242 1238 1238 1236 1232 1229 1226 1222 1218 1215 1208 1201 1194 1189 1184 1176 1169 1164 1160 1157 1151 1149 1148 1148 1148 1149 1150 1152 1157 1157 1164 1170 1170 1170 1167 1167 1167 1163 1162 1153 1148 1135 1132 1115 1115 1115 1113 1113 1111 1082 1061 1049 1043 1036 0 0 0
524 524 529 530 534 538 553 0 0 0 0 0 0 0 0 0 0 0 0 0 1085 1115 1142 1167 1181 1197 1219 1240 1263 1284 1287 1312 1339 1366 1392 1409 1422 1434 1434 1434 1430 1414 1409 1408 1392 1384 1383 1379 1379 1379 1379 1379 1377 1377 1377 1382 1398 1412 1425 0 0 0 0 0 0 0 0 0 0 1989 2018 2039 2054 2070 2085 2097 2111 2123 2136 2154 2167 2179 2195 2205 2212 2223 2235 2246 2251 2258 2266 2276 2288 2297 2304 2309 2316 2323 2331 2342 2349 2354 2354 2354 2333 2309 2272 0 2145 2145 2145 2148 2161 2170 2176 2176 2179 2188 2203 2217 2235 2248 2255 2262 2264 2269 2272 2275 2282 2291 2300 2306 2306 2306 2284 0 0 0 0 0 0 0 0 2543 2651 2694 2694 2694 2688 2681 2670 2660 2648 2621 2565 2527 0 0 0 0 1950 1950 1952 1956 1968 1974 1978 1978 1978 1978 1976 1973 1971 1968 1965 1964 1961 1960 1960 1960 1958 1954 1951 1951 1951 1949 1944 1933 1919 1900 1888 1883 1881 1880 1874 1864 1851 1834 0 0 0 0 0 0 1069 1051 1048 1046 1046 1046 1045 1046 1046 1046 1046 1046 1047 1048 1049 1049 1049 1049 1048 1047 1046 1043 1042 1039 1035 1030 1025 1023 1018 1018 1017 1017 1017 1015 1015 1015 1015 1016 1018 1021 1024 1026 1029 1032 1035 1035 1037 1040 1042 1046 1051 1056 1063 1068 1078 1089 1096 1101 1105 1107 1110 1112 1114 1116 1118 1120 1121 1123 1124 1126 1127 1128 1130 1131 1132 1133 1133 1134 1135 1135 1135 1135 1134 1134 1132 1128 1124 1121 1118 1111 1098 1092 1092 1092 1100 1101 1101 1102 1102 1104 1107 1107 1107 1108 1108 1108 1111 1114 1114 1117 1125 1140 1155 1160 1170 1174 1176 1178 1183 1183 1183 1183 1183 1182 1183 1184 1184 1184 1184 1181 1181 1181 1180 1176 1176 1175 1170 1170 1170 1172 1184 1204 1215 1223 1228 1232 1232 1236 1237 1240 1241 1244 1246 1249 1251 1254 1255 1256 1258 1259 1259 1259 1259 1257 1256 1253 1250 1245 1234 1221 1203 1188 1179 1174 1172 1170 1167 1166 1165 1162 1162 1162 1167 1171 1174 1180 1190 1211 1232 1241 1255 1286 1310 1323 1323 1324 1325 1327 1330 1332 1333 1335 1336 1336 1338 1340 1343 1344 1346 1347 1350 1352 1354 1357 1360 1362 1364 1365 1367 1368 1369 1371 1372 1374 1375 1376 1377 1378 1378 1379 1395 1404 0 0 1628 1635 1640 1647 1655 1673 1688 1698 1701 1703 1704 1704 1704 1702 1702 1702 1703 1708 1713 1713 1713 1713 1712 1711 1711 1711 1711 1711 1711 1709 1705 1698 1692 1688 1687 1687 1687 1688 1689 1689 1689 1689 1690 1692 1693 1693 1695 1695 1695 1695 1691 1685 1682 1678 1673 1668 1665 1662 1658 1654 1651 1650 1648 1648 1645 1644 1643 1643 1643 1643 1643 1641 1641 1641 1641 1640 1638 1635 1632 1629 1626 1621 1616 1616 1616 1618 1619 1619 1618 1616 1612 1611 1611 1611 1610 1608 1601 1594 1580 1563 1550 1546 0 0 0 1431 1411 1391 1370 1351 1344 1336 1333 1329 1328 1328 1328 1328 1328 1321 1312 1304 1298 1294 1289 1287 1285 1282 1278 1271 1271 1270 1268 1266 1263 1261 1260 1259 1259 1258 1258 1258 1254 1250 1247 1241 1237 1236 1235 1232 1229 1226 1222 1218 1215 1208 1201 1198 1193 1184 1176 1169 1167 1162 1159 1158 1156 1155 1153 1153 1152 1152 1152 1157 1159 1169 1173 1173 1173 1173 1172 1168 1163 1160 1150 1142 1131 1127 1124 1124 1124 1124 1124 1113 1085 1065 1058 1043 1036 0 0 0
524 524 529 530 533 537 553 0 0 0 0 0 0 0 0 0 0 0 0 0 1085 1115 1142 1167 1180 1197 1220 1242 1263 1284 1287 1310 1338 1365 1388 1405 1417 1432 1432 1432 1430 1414 1409 1408 1392 1384 1383 1379 1379 1377 1377 1377 1367 1366 1361 1361 1361 1368 1386 0 0 0 0 0 0 0 0 0 0 0 0 2029 2048 2063 2076 2092 2109 2122 2134 2146 2160 2177 2195 2205 2212 2223 2232 2243 2248 2258 2264 2271 2282 2292 2302 2309 2316 2322 2331 2342 2349 2349 2349 2343 2315 2283 0 0 2133 2133 2133 2148 2161 2170 2174 2174 2177 2186 2206 2222 2238 2248 2255 2261 2264 2269 2273 2280 2287 2296 2306 2306 2306 2306 2269 0 0 0 0 0 0 0 0 2569 2654 2704 2704 2704 2693 2680 2666 2649 2623 2577 2559 2511 0 0 0 1951 1950 1950 1952 1956 1968 1975 1978 1978 1978 1978 1975 1972 1968 1964 1961 1959 1959 1959 1959 1959 1959 1957 1956 1954 1951 1947 1938 1924 1903 1882 1866 1857 1849 1849 1849 1846 1835 1831 0 0 0 0 0 0 1056 1048 1046 1045 1045 1045 1045 1045 1045 1045 1045 1046 1047 1048 1048 1048 1048 1048 1048 1047 1045 1043 1042 1039 1035 1030 1025 1024 1022 1021 1020 1019 1018 1017 1017 1017 1017 1019 1022 1024 1027 1029 1030 1032 1036 1037 1039 1041 1043 1046 1051 1057 1063 1068 1076 1089 1096 1101 1105 1107 1109 1112 1114 1116 1118 1120 1121 1123 1124 1125 1127 1128 1130 1131 1132 1133 1133 1134 1135 1135 1135 1134 1134 1133 1131 1127 1120 1117 1116 1109 1096 1091 1091 1091 1094 1095 1095 1096 1096 1099 1102 1104 1104 1105 1106 1108 1110 1113 1113 1117 1125 1140 1150 1159 1168 1174 1177 1183 1186 1186 1186 1188 1188 1188 1188 1188 1188 1188 1188 1188 1187 1186 1184 1184 1181 1178 1175 1175 1175 1175 1184 1206 1215 1221 1226 1228 1230 1234 1236 1239 1240 1242 1245 1247 1250 1253 1254 1256 1258 1259 1259 1259 1259 1257 1255 1252 1249 1244 1231 1221 1203 1187 1179 1174 1172 1170 1168 1167 1166 1162 1162 1162 1167 1168 1169 1169 1172 1172 1218 1236 1255 1286 1312 1323 1323 1324 1325 1327 1330 1332 1334 1336 1337 1338 1339 1340 1344 1345 1347 1348 1350 1353 1355 1357 1360 1362 1364 1365 1367 1368 1370 1371 1372 1374 1375 1375 1376 1378 1378 1379 1401 0 0 0 1628 1635 1635 1642 1652 1670 1688 1698 1701 1703 1704 1704 1704 1702 1701 1701 1701 1705 1710 1712 1712 1712 1711 1710 1709 1709 1709 1709 1709 1709 1705 1698 1692 1688 1688 1688 1690 1690 1691 1691 1691 1692 1692 1693 1693 1693 1695 1695 1695 1695 1691 1685 1681 1677 1671 1661 1660 1658 1654 1649 1647 1645 1644 1642 1642 1642 1642 1642 1642 1642 1641 1639 1637 1636 1636 1634 1632 1631 1630 1627 1626 1621 1616 1616 1616 1618 1618 1618 1615 1611 1611 1611 1611 1611 1611 1609 1607 1602 1594 1587 1573 1570 1547 1519 0 0 0 1416 1389 1366 1346 1337 1333 1331 1331 1331 1330 1330 1330 1321 1312 1305 1299 1296 1292 1289 1287 1284 1278 1276 1273 1270 1268 1265 1263 1261 1260 1258 1258 1257 1257 1255 1254 1249 1243 1239 1237 1236 1235 1229 1225 1223 1220 1217 1214 1208 1204 1203 1199 1187 1177 1169 1168 1167 1162 1161 1161 1159 1159 1159 1159 1160 1160 1161 1163 1170 1173 1173 1173 1173 1172 1168 1162 1152 1142 1136 1131 1127 1124 1124 1124 1124 1124 1111 1094 1077 1070 1053 1036 0 0 0
521 521 529 530 533 535 556 0 0 0 0 0 0 0 0 0 0 0 0 1053 1085 1112 1142 1167 1180 1197 1220 1242 1263 1283 1285 1302 1325 1343 1368 1392 1409 1424 1430 1430 1430 1414 1411 1409 1408 1407 1406 1397 1387 1382 1379 1377 1367 1366 1352 1338 1333 1333 1333 1343 1352 1361 1385 1401 0 0 0 0 0 0 0 0 2036 2055 2069 2085 2100 2116 2133 2143 2160 2177 2195 2205 2212 2218 2229 2241 2247 2257 2262 2267 2277 2287 2297 2306 2316 2322 2331 2342 2342 2342 2337 2327 2294 2256 0 2152 2133 2133 2133 2148 2161 2169 2170 2171 2175 2187 2208 2229 2241 2249 2255 2261 2264 2269 2273 2280 2289 2301 2309 2309 2309 2295 2261 0 0 0 0 0 0 0 2552 2639 2671 2705 2705 2705 2693 2680 2659 2632 2623 2547 2521 0 0 0 0 1951 1951 1952 1956 1967 1970 1975 1975 1976 1976 1976 1975 1972 1965 1961 1958 1957 1957 1957 1959 1959 1959 1958 1956 1954 1951 1945 1933 1917 1897 1882 1866 1857 1849 1849 1849 1840 1835 1816 0 0 0 0 0 0 1054 1044 1044 1044 1044 1044 1044 1044 1044 1044 1044 1046 1047 1047 1047 1048 1048 1048 1047 1046 1045 1043 1042 1039 1035 1030 1025 1024 1022 1022 1022 1021 1020 1019 1019 1019 1020 1022 1024 1027 1028 1029 1031 1033 1037 1038 1040 1041 1044 1047 1052 1057 1063 1068 1074 1087 1096 1101 1105 1107 1109 1112 1114 1116 1118 1119 1121 1123 1124 1125 1127 1128 1129 1131 1131 1132 1133 1134 1134 1134 1134 1134 1133 1132 1130 1126 1120 1116 1112 1108 1094 1091 1090 1090 1091 1091 1091 1091 1093 1096 1099 1099 1101 1104 1106 1108 1110 1112 1113 1117 1125 1142 1150 1159 1167 1173 1179 1183 1186 1187 1189 1190 1190 1191 1191 1193 1194 1195 1195 1195 1195 1193 1190 1190 1190 1192 1192 1192 1194 1194 1195 1210 1215 1218 1224 1227 1230 1234 1235 1236 1237 1241 1243 1245 1249 1251 1253 1254 1257 1258 1258 1258 1258 1257 1255 1251 1247 1242 1231 1221 1203 1187 1177 1174 1172 1170 1168 1168 1168 1165 1165 1165 1167 1168 1169 1169 1172 1172 1218 1236 1255 1287 1312 1323 1323 1324 1325 1328 1330 1333 1334 1336 1338 1339 1341 1342 1344 1345 1347 1348 1350 1353 1355 1357 1360 1362 1363 1364 1366 1368 1369 1371 1372 1375 1375 1376 1376 1378 1379 1388 1401 0 0 0 1623 1631 1634 1642 1652 1670 1684 1697 1701 1703 1703 1703 1703 1702 1701 1701 1701 1704 1705 1706 1707 1709 1709 1709 1709 1709 1709 1709 1709 1708 1705 1698 1692 1689 1689 1689 1692 1692 1692 1692 1692 1694 1694 1694 1693 1693 1693 1694 1694 1694 1691 1684 1678 1676 1668 1661 1658 1654 1649 1646 1645 1643 1641 1639 1639 1639 1641 1641 1641 1641 1639 1638 1635 1632 1631 1631 1630 1629 1628 1626 1624 1621 1618 1618 1618 1618 1618 1617 1613 1610 1610 1610 1611 1611 1611 1609 1607 1605 1601 1598 1588 1585 1565 1557 1537 1510 0 0 1412 1384 1361 1356 1350 1346 1337 1335 1332 1331 1330 1321 1312 1305 1302 1299 1296 1291 1287 1284 1279 1276 1273 1271 1269 1265 1263 1261 1261 1258 1257 1257 1256 1255 1254 1249 1243 1239 1237 1234 1230 1229 1225 1223 1220 1217 1214 1208 1206 1205 1202 1193 1182 1172 1171 1168 1163 1163 1162 1162 1163 1163 1165 1168 1168 1168 1169 1171 1173 1173 1173 1173 1172 1168 1158 1148 1142 1136 1131 1127 1125 1125 1125 1125 1125 1110 1094 1080 1070 1053 1037 0 0 0
516 516 525 526 527 533 0 0 0 0 0 0 0 0 0 0 0 0 1020 1055 1085 1108 1131 1155 1171 1193 1220 1242 1260 1275 1278 1291 1308 1326 1344 1370 1396 1416 1429 1429 1429 1427 1423 1423 1422 1421 1417 1406 1396 1391 1383 1377 1367 1366 1351 1332 1310 1310 1310 1316 1326 1339 1357 1379 1383 0 0 0 0 0 0 0 0 2035 2053 2071 2087 2106 2124 2143 2160 2176 2188 2198 2207 2213 2226 2240 2244 2255 2262 2267 2274 2284 2294 2304 2314 2322 2331 2333 2333 2333 2326 2305 2277 2242 0 2131 2131 2131 2133 2147 2158 2164 2168 2171 2175 2188 2209 2231 2244 2249 2254 2260 2263 2269 2273 2280 2291 2302 2305 2305 2305 2287 2250 0 0 0 0 0 0 0 2579 2684 2708 2708 2708 2705 2693 2677 2652 2613 2594 2525 0 0 0 0 1956 1956 1962 1965 1969 1973 1975 1975 1975 1975 1975 1974 1974 1970 1965 1961 1958 1956 1956 1956 1959 1959 1959 1958 1956 1954 1951 1942 1929 1913 1897 1882 1866 1857 1849 1848 1848 1840 1835 0 0 0 0 0 0 0 1045 1043 1043 1043 1043 1043 1043 1043 1043 1043 1044 1045 1046 1046 1047 1048 1048 1048 1047 1046 1045 1045 1042 1039 1035 1030 1025 1025 1023 1023 1023 1023 1023 1022 1021 1021 1021 1022 1024 1027 1028 1029 1031 1033 1037 1039 1041 1044 1046 1049 1055 1057 1063 1065 1074 1087 1096 1098 1104 1107 1109 1111 1114 1115 1117 1119 1121 1122 1124 1125 1126 1128 1129 1130 1131 1132 1132 1133 1134 1134 1134 1133 1132 1130 1127 1124 1119 1116 1112 1107 1094 1090 1090 1090 1089 1089 1089 1089 1091 1094 1095 1098 1099 1103 1106 1108 1109 1111 1113 1118 1129 1143 1150 1152 1163 1173 1180 1183 1186 1188 1190 1192 1193 1193 1193 1196 1197 1198 1199 1199 1199 1199 1198 1198 1198 1199 1201 1202 1203 1204 1206 1210 1215 1217 1223 1226 1230 1232 1234 1235 1237 1238 1241 1243 1246 1249 1251 1253 1256 1257 1257 1257 1256 1255 1253 1250 1245 1244 1234 1220 1203 1183 1177 1172 1170 1170 1170 1170 1169 1169 1167 1167 1167 1168 1169 1169 1172 1172 1218 1236 1263 1294 1312 1320 1323 1323 1325 1328 1330 1334 1335 1337 1339 1340 1342 1343 1345 1346 1348 1349 1351 1353 1355 1357 1359 1361 1363 1364 1366 1367 1369 1371 1373 1375 1375 1375 1375 1376 1383 1399 1405 0 0 0 1621 1631 1634 1642 1652 1672 1684 1696 1700 1701 1701 1701 1701 1700 1700 1701 1701 1704 1705 1705 1705 1706 1706 1706 1706 1706 1706 1706 1706 1706 1702 1697 1692 1692 1692 1692 1692 1692 1692 1692 1692 1694 1694 1694 1693 1691 1690 1689 1689 1689 1685 1681 1675 1673 1667 1659 1657 1653 1646 1644 1642 1640 1638 1638 1638 1638 1638 1638 1638 1637 1635 1633 1630 1628 1627 1627 1627 1627 1627 1625 1624 1621 1618 1618 1618 1617 1617 1616 1613 1610 1610 1610 1611 1611 1611 1609 1607 1605 1601 1598 1595 1593 1589 1578 1565 1542 1515 1485 0 0 1389 1383 1377 1364 1344 1336 1329 1328 1313 1313 1309 1306 1303 1300 1297 1293 1288 1284 1280 1276 1274 1271 1269 1265 1263 1262 1261 1259 1257 1257 1256 1255 1254 1249 1243 1239 1237 1234 1230 1229 1225 1223 1220 1217 1214 1211 1210 1208 1203 1196 1191 1185 1180 1172 1170 1166 1165 1165 1165 1167 1173 1175 1175 1175 1173 1173 1173 1173 1169 1166 1164 1161 1154 1147 1141 1136 1133 1129 1127 1125 1123 1120 1112 1107 1094 1080 1070 1053 1037 0 0 0
513 513 519 521 521 537 0 0 0 0 0 0 0 0 0 0 0 0 1020 1055 1084 1103 1121 1142 1163 1191 1215 1236 1253 1267 1271 1284 1298 1313 1323 0 0 0 0 0 1427 1430 1430 1430 1430 1430 1421 1407 1399 1397 1397 1394 1382 1368 1351 1332 1310 1302 1302 1302 1313 1324 1343 1369 1370 1403 0 0 0 0 0 0 0 0 0 2052 2076 2096 2112 2126 2144 2162 2179 2192 2201 2210 2223 2238 2243 2255 2262 2267 2274 2284 2294 2304 2314 2320 2325 2325 2325 2325 2315 2288 2264 0 0 2131 2127 2127 2127 2137 2145 2154 2168 2171 2175 2188 2209 2231 2244 2249 2254 2259 2263 2266 2270 2279 2291 2303 2305 2305 2305 2281 0 0 0 0 0 0 0 0 2597 2695 2708 2708 2708 2695 2682 2664 2633 2592 2573 2504 0 0 0 1952 1952 1960 1965 1966 1969 1973 1974 1974 1974 1972 1971 1971 1970 1965 1962 1960 1957 1956 1956 1956 1958 1959 1959 1959 1956 1952 1945 1936 1926 1913 1897 1888 1877 1870 1869 1864 1846 1840 1826 0 0 0 0 0 0 0 1043 1043 1042 1042 1042 1041 1041 1042 1042 1043 1043 1045 1045 1046 1047 1048 1048 1048 1047 1046 1046 1045 1045 1043 1040 1035 1028 1025 1025 1025 1024 1023 1023 1023 1023 1022 1022 1022 1024 1027 1029 1030 1031 1034 1037 1039 1044 1046 1050 1054 1056 1058 1063 1065 1074 1087 1093 1098 1103 1105 1108 1110 1112 1115 1116 1118 1120 1121 1123 1124 1126 1128 1129 1129 1131 1131 1132 1133 1133 1133 1133 1132 1132 1129 1126 1123 1118 1114 1111 1107 1094 1091 1090 1090 1089 1089 1089 1089 1091 1091 1094 1098 1099 1103 1106 1108 1109 1111 1114 1123 1131 1143 1150 1152 1163 1173 1181 1185 1187 1190 1192 1194 1194 1195 1195 1196 1198 1199 1201 1201 1201 1201 1201 1203 1204 1204 1204 1204 1204 1204 1206 1210 1212 1213 1215 1222 1229 1232 1233 1234 1236 1237 1239 1240 1244 1247 1249 1252 1253 1256 1256 1256 1255 1252 1250 1247 1244 1241 1233 1220 1200 1181 1175 1171 1170 1170 1170 1173 1174 1174 1174 1174 1174 1174 1175 1176 1177 1192 1218 1251 1281 1294 1310 1320 1323 1324 1327 1328 1331 1334 1335 1337 1339 1340 1343 1344 1345 1347 1348 1350 1352 1353 1355 1357 1359 1361 1363 1364 1366 1367 1368 1371 1373 1375 1375 1375 1375 1375 1384 1412 1412 0 0 0 1621 1631 1634 1643 1654 1672 1682 1693 1695 1696 1696 1698 1700 1700 1700 1700 1703 1704 1704 1704 1704 1704 1703 1703 1701 1701 1701 1703 1703 1703 1701 1697 1692 1692 1692 1692 1692 1692 1692 1692 1692 1694 1694 1694 1693 1690 1688 1685 1685 1685 1681 1676 1670 1665 1662 1659 1653 1648 1645 1641 1639 1638 1637 1637 1635 1635 1634 1634 1634 1632 1630 1627 1626 1624 1624 1623 1623 1623 1624 1624 1624 1621 1618 1618 1618 1617 1617 1615 1612 1610 1610 1610 1609 1609 1609 1607 1607 1605 1601 1598 1595 1593 1590 1583 1573 1554 1531 1510 1487 1462 1438 1417 1398 1370 1353 1341 1332 1328 1313 1309 1307 1306 1306 1302 1298 1293 1289 1285 1280 1276 1275 1272 1269 1265 1264 1262 1262 1259 1257 1257 1257 1257 1257 1253 1247 1242 1236 1233 1230 1227 1226 1226 1224 1223 1220 1214 1212 1209 1203 1200 1196 1191 1185 1179 1170 1170 1170 1170 1170 1175 1178 1179 1179 1179 1177 1174 1173 1173 1167 1161 1158 1155 1149 1144 1140 1136 1133 1129 1125 1124 1123 1118 1111 1099 1091 1080 1063 1052 1037 0 0 0
506 506 511 513 521 537 0 0 0 0 0 0 0 0 0 0 0 0 1020 1053 1078 1098 1115 1134 1159 1186 1208 1227 1242 1245 1259 1274 1281 1281 0 0 0 0 0 0 0 1424 1427 1430 1430 1430 1423 1410 1405 1405 1401 1400 1398 1376 1352 1332 1310 1302 1302 1302 1308 1322 1339 1363 1364 1392 1420 0 0 0 0 0 0 0 0 0 0 2087 2103 2116 2130 2155 2173 2187 2197 2209 2223 2238 2242 2255 2261 2266 2274 2284 2294 2304 2314 2318 2322 2322 2322 2316 2298 2275 0 0 2139 2120 2120 2120 2127 2136 2143 2154 2167 2171 2178 2190 2211 2231 2244 2248 2251 2255 2259 2264 2270 2279 2291 2307 2307 2307 2292 0 0 0 0 0 0 0 0 2546 2672 2709 2709 2709 2703 2688 2666 2637 2592 2591 2543 0 0 0 1954 1954 1954 1965 1965 1966 1969 1973 1974 1974 1974 1971 1969 1967 1965 1961 1958 1958 1957 1955 1955 1955 1958 1959 1959 1959 1955 1948 1938 1933 1926 1913 1901 1894 1888 1877 1869 1864 1843 1840 1788 0 0 0 0 0 0 0 1043 1042 1042 1042 1042 1041 1041 1042 1042 1043 1043 1044 1045 1045 1046 1047 1047 1047 1047 1047 1046 1046 1046 1045 1044 1040 1033 1028 1028 1028 1028 1028 1027 1027 1027 1026 1024 1024 1024 1027 1030 1031 1032 1035 1038 1041 1045 1050 1054 1059 1059 1059 1063 1065 1081 1089 1093 1098 1103 1105 1107 1109 1112 1114 1116 1117 1120 1121 1122 1124 1125 1127 1128 1129 1130 1131 1131 1132 1132 1132 1132 1132 1131 1128 1124 1120 1116 1112 1109 1103 1092 1091 1091 1091 1089 1089 1089 1089 1091 1091 1094 1098 1100 1104 1106 1108 1109 1111 1114 1124 1131 1143 1150 1152 1163 1175 1181 1186 1188 1190 1193 1194 1195 1196 1196 1198 1199 1201 1203 1204 1204 1204 1205 1205 1205 1205 1205 1204 1204 1205 1206 1209 1209 1213 1213 1214 1226 1231 1232 1233 1234 1236 1239 1240 1241 1242 1246 1249 1252 1253 1254 1254 1254 1250 1247 1242 1242 1239 1233 1220 1200 1181 1175 1171 1169 1169 1169 1173 1178 1181 1181 1182 1182 1181 1182 1182 1182 1201 1229 1262 1285 1296 1309 1319 1323 1324 1327 1328 1331 1334 1335 1337 1339 1340 1343 1344 1345 1347 1348 1350 1353 1353 1355 1357 1359 1361 1362 1364 1365 1367 1368 1370 1373 1374 1374 1374 1374 1374 1388 1412 1413 0 0 0 1621 1633 1640 1648 1661 1672 1682 1690 1692 1693 1693 1694 1697 1700 1701 1702 1703 1704 1704 1704 1704 1703 1701 1701 1701 1701 1701 1703 1703 1703 1701 1697 1692 1692 1692 1692 1692 1692 1692 1692 1692 1694 1694 1694 1693 1690 1687 1684 1682 1679 1676 1669 1661 1656 1652 1652 1649 1646 1641 1639 1637 1637 1637 1635 1634 1632 1630 1628 1628 1627 1625 1624 1622 1622 1621 1620 1620 1619 1619 1619 1619 1618 1618 1618 1618 1618 1617 1615 1612 1610 1609 1609 1609 1609 1609 1607 1604 1603 1600 1595 1595 1593 1590 1583 1573 1560 1544 1531 1515 1497 1471 1443 1415 1388 1358 1342 1332 1328 1313 1309 1309 1307 1306 1306 1300 1295 1289 1285 1281 1281 1278 1274 1272 1268 1266 1264 1263 1261 1261 1261 1261 1261 1260 1254 1249 1245 1236 1233 1230 1227 1227 1226 1226 1223 1221 1217 1214 1209 1204 1200 1196 1192 1186 1183 1181 1178 1176 1176 1176 1178 1180 1182 1182 1183 1182 1182 1178 1173 1167 1160 1154 1150 1146 1144 1140 1136 1133 1129 1125 1124 1123 1117 1109 1094 1079 1056 1042 1035 1033 0 0 0
496 496 501 503 521 543 0 0 0 0 0 0 0 0 0 0 0 0 1018 1048 1071 1091 1111 1129 1153 1181 1200 1217 1229 1232 1246 1253 0 0 0 0 0 0 0 0 0 0 1423 1430 1439 1439 1439 1425 1413 1413 1413 1413 1413 1393 1368 1348 1322 1302 1302 1302 1308 1320 1336 1355 1357 1377 1402 1430 0 0 0 0 0 0 0 0 0 0 2094 2108 2125 2143 2164 2182 2197 2208 2222 2237 2240 2252 2261 2266 2276 2286 2298 2307 2314 2317 2317 2317 2315 2302 2278 2253 0 0 2105 2105 2105 2116 2126 2134 2143 2154 2167 2175 2183 2194 2211 2230 2241 2245 2248 2251 2257 2264 2270 2279 2298 2302 2302 2302 0 0 0 0 0 0 0 0 0 2587 2681 2709 2709 2709 2698 2681 2650 2602 2538 0 0 0 0 1952 1952 1952 1954 1965 1965 1966 1966 1971 1973 1973 1973 1969 1966 1964 1961 1957 1953 1953 1953 1953 1953 1955 1958 1960 1960 1960 1955 1945 1937 1933 1926 1917 1909 1902 1890 1877 1869 1864 1846 1838 1788 0 0 0 0 0 0 0 1042 1040 1040 1040 1040 1040 1040 1041 1042 1042 1043 1043 1044 1045 1046 1047 1048 1048 1048 1047 1047 1047 1046 1046 1045 1042 1037 1035 1035 1035 1035 1035 1036 1036 1036 1035 1028 1027 1027 1027 1032 1035 1036 1039 1042 1044 1048 1052 1057 1062 1063 1064 1065 1075 1086 1091 1094 1098 1103 1105 1107 1109 1112 1113 1115 1117 1118 1120 1122 1123 1124 1127 1127 1129 1130 1130 1131 1131 1131 1131 1131 1130 1130 1128 1123 1120 1115 1109 1104 1098 1091 1091 1091 1091 1091 1092 1092 1092 1092 1092 1094 1098 1101 1104 1105 1106 1107 1108 1114 1124 1134 1143 1151 1157 1165 1177 1182 1186 1189 1191 1193 1194 1196 1197 1198 1199 1200 1203 1204 1205 1205 1206 1206 1206 1206 1206 1205 1205 1204 1204 1204 1204 1205 1205 1205 1206 1208 1216 1221 1227 1229 1233 1234 1235 1235 1236 1239 1244 1246 1249 1251 1251 1251 1249 1246 1241 1239 1237 1233 1208 1181 1175 1173 1171 1169 1169 1169 1173 1178 1182 1184 1184 1184 1184 1189 1189 1196 1212 1238 1272 1285 1296 1309 1319 1321 1324 1327 1328 1331 1333 1334 1337 1339 1340 1343 1344 1346 1348 1349 1350 1353 1354 1356 1357 1359 1361 1362 1363 1365 1366 1368 1370 1372 1372 1373 1374 1374 1374 1390 1402 1412 0 0 1602 1627 1637 1641 1649 1661 1672 1682 1689 1692 1692 1693 1694 1697 1700 1701 1702 1703 1704 1704 1704 1702 1701 1700 1700 1700 1701 1701 1701 1701 1701 1700 1697 1694 1692 1692 1692 1692 1692 1692 1692 1692 1693 1693 1693 1691 1688 1685 1682 1677 1673 1669 1662 1655 1648 1644 1643 1643 1641 1639 1636 1636 1635 1635 1634 1633 1630 1628 1626 1625 1625 1624 1623 1622 1621 1620 1619 1619 1619 1619 1618 1617 1617 1617 1618 1618 1618 1617 1615 1613 1611 1610 1610 1609 1609 1608 1607 1604 1602 1600 1595 1595 1592 1590 1583 1573 1567 1561 1555 1543 1529 1497 1475 1445 1409 1373 1356 1343 1328 1317 1316 1316 1316 1316 1316 1308 1300 1294 1291 1289 1285 1282 1279 1277 1277 1275 1272 1266 1261 1261 1261 1261 1261 1260 1256 1252 1246 1237 1233 1230 1227 1227 1226 1226 1224 1222 1218 1214 1209 1205 1201 1197 1195 1193 1190 1190 1188 1187 1186 1183 1183 1183 1190 1191 1191 1190 1186 1181 1174 1167 1160 1153 1148 1146 1143 1138 1133 1129 1125 1124 1124 1123 1117 1103 1091 1079 1056 1039 1019 1019 0 0 0
491 491 491 500 524 549 0 0 0 0 0 0 0 0 0 0 942 975 1013 1039 1057 1081 1106 1127 1150 1175 1191 1204 1213 1216 1216 0 0 0 0 0 0 0 0 0 0 0 0 1430 1452 1453 1453 1453 1441 1434 1434 1434 1442 1442 1442 0 0 0 1308 1308 1308 1316 1331 1347 1348 1363 1380 1405 1426 0 0 0 0 0 0 0 0 0 0 2102 2119 2136 2154 2173 2192 2207 2221 2234 2237 2247 2258 2266 2276 2286 2298 2307 2314 2314 2314 2314 2307 2286 2262 2228 0 2091 2091 2091 2104 2116 2126 2134 2143 2159 2167 2176 2184 2194 2211 2227 2236 2242 2246 2249 2257 2264 2276 2288 2301 2301 2301 2278 0 0 0 0 0 0 0 0 2506 2626 2681 2708 2708 2708 2692 2674 2643 2586 2533 0 0 0 0 1943 1943 1943 1954 1965 1965 1966 1967 1967 1972 1972 1972 1969 1966 1962 1957 1953 1948 1948 1948 1948 1950 1955 1959 1961 1961 1961 1954 1945 1937 1933 1927 1922 1912 1904 1890 1877 1868 1851 1846 1812 1788 0 0 0 0 0 0 0 1042 1040 1040 1040 1040 1040 1040 1041 1041 1041 1042 1043 1044 1045 1046 1047 1048 1048 1048 1048 1048 1048 1048 1048 1047 1047 1046 1045 1045 1043 1043 1043 1042 1041 1041 1041 1040 1040 1041 1039 1039 1040 1040 1040 1043 1046 1050 1055 1060 1065 1068 1068 1071 1079 1087 1091 1095 1098 1103 1104 1106 1108 1110 1112 1114 1116 1118 1119 1121 1123 1124 1126 1127 1128 1129 1130 1131 1131 1131 1131 1130 1130 1129 1126 1122 1119 1114 1109 1103 1096 1093 1093 1093 1093 1094 1095 1095 1095 1095 1095 1097 1100 1103 1103 1104 1105 1105 1108 1114 1125 1134 1143 1152 1159 1170 1178 1183 1187 1189 1191 1193 1195 1196 1198 1198 1199 1201 1203 1204 1206 1206 1206 1207 1207 1207 1207 1206 1204 1204 1204 1204 1203 1196 1186 1183 1183 1183 1189 1205 1218 1222 1223 1225 1228 1232 1234 1236 1238 1239 1241 1243 1245 1246 1246 1246 1240 1236 1231 1220 1207 1181 1175 1173 1171 1164 1164 1164 1171 1178 1182 1184 1184 1189 1189 1190 1192 1198 1215 1242 1272 1286 1300 1309 1319 1320 1324 1327 1328 1330 1332 1334 1336 1338 1340 1343 1344 1346 1348 1349 1350 1353 1354 1355 1357 1358 1361 1362 1363 1365 1366 1367 1369 1372 1372 1372 1374 1374 1374 1384 1392 1416 0 0 1627 1636 1640 1642 1649 1661 1672 1682 1689 1692 1692 1693 1694 1697 1700 1701 1702 1703 1703 1703 1703 1702 1700 1699 1699 1700 1701 1702 1702 1702 1701 1700 1697 1695 1695 1694 1694 1694 1694 1692 1691 1691 1691 1691 1691 1689 1687 1682 1677 1670 1666 1662 1657 1650 1644 1640 1639 1639 1639 1637 1635 1634 1634 1633 1633 1632 1629 1627 1625 1624 1624 1623 1623 1622 1621 1620 1619 1619 1619 1618 1617 1617 1617 1617 1618 1618 1618 1618 1617 1616 1614 1612 1610 1609 1609 1608 1607 1604 1602 1598 1595 1592 1589 1585 1578 1574 1570 1568 1568 1565 1545 1530 1510 1474 0 1395 1374 1366 1356 1338 1328 1328 1328 1328 1328 1314 1306 1301 1298 1294 1288 1285 1283 1281 1278 1275 1272 1269 1263 1263 1263 1263 1263 1260 1256 1255 1247 1240 1230 1225 1225 1225 1224 1224 1224 1222 1218 1214 1209 1205 1201 1201 1201 1201 1201 1201 1199 1199 1198 1199 1198 1198 1196 1196 1194 1191 1186 1181 1175 1167 1159 1153 1148 1146 1143 1137 1129 1125 1124 1120 1117 1115 1106 1095 1091 1079 1054 1033 1019 1014 0 0 0
491 491 491 500 524 549 0 0 0 0 0 0 0 0 0 901 942 974 1004 1029 1050 1076 1101 1124 1149 1167 1181 1188 1188 0 0 0 0 0 0 0 0 0 0 0 0 0 0 0 1472 1473 1502 1502 1502 1475 1463 1463 1463 1463 1463 0 0 0 0 1321 1321 1321 1331 1341 1342 1356 1370 1383 1403 1424 0 0 0 0 0 0 0 0 0 0 2107 2124 2139 2159 2182 2200 2214 2227 2230 2242 2253 2263 2276 2286 2298 2307 2314 2314 2314 2310 2296 2277 2246 0 0 2090 2090 2090 2104 2116 2126 2136 2147 2160 2168 2176 2186 2194 2209 2221 2232 2238 2246 2248 2257 2270 2281 2293 2301 2301 2301 0 0 0 0 0 0 0 0 0 2530 2626 2681 2697 2697 2697 2681 2656 2606 2568 2520 0 0 0 0 1936 1936 1943 1955 1964 1965 1965 1966 1966 1967 1967 1967 1966 1962 1959 1954 1947 1942 1942 1942 1945 1950 1955 1960 1961 1961 1961 1954 1944 1937 1934 1931 1924 1915 1905 1890 1874 1862 1846 1839 1836 1798 0 0 0 0 0 0 0 1042 1039 1039 1039 1039 1040 1040 1040 1040 1041 1042 1043 1044 1045 1046 1047 1047 1048 1049 1049 1049 1050 1050 1050 1050 1050 1050 1050 1050 1049 1049 1049 1050 1049 1050 1050 1050 1052 1052 1052 1049 1049 1049 1049 1049 1051 1054 1059 1063 1066 1068 1069 1074 1079 1087 1091 1094 1098 1102 1104 1106 1107 1109 1112 1113 1115 1117 1118 1120 1122 1123 1125 1126 1127 1128 1130 1130 1130 1130 1130 1130 1129 1127 1124 1121 1119 1114 1109 1103 1096 1093 1093 1093 1095 1095 1096 1097 1098 1098 1098 1100 1103 1103 1104 1104 1104 1105 1108 1117 1127 1135 1145 1154 1164 1176 1181 1183 1187 1190 1192 1193 1195 1196 1198 1199 1200 1201 1203 1205 1206 1206 1207 1207 1208 1208 1208 1207 1205 1204 1203 1202 1199 1194 1176 1164 1162 1162 1162 1182 1184 1189 1193 1200 1218 1231 1232 1235 1235 1236 1236 1237 1243 1244 1244 1244 1239 1236 1231 1220 1207 1181 1175 1173 1173 1164 1164 1164 1169 1175 1179 1183 1185 1190 1192 1194 1194 1201 1218 1243 1272 1286 1300 1313 1319 1320 1323 1326 1328 1329 1331 1334 1335 1338 1340 1342 1344 1346 1348 1349 1350 1352 1354 1355 1357 1358 1360 1362 1363 1364 1366 1367 1368 1370 1371 1371 1372 1372 1374 1384 1390 1412 0 0 1632 1642 1644 1644 1649 1657 1666 1676 1686 1691 1692 1694 1696 1698 1700 1701 1702 1703 1703 1703 1703 1701 1700 1699 1699 1700 1702 1702 1702 1702 1701 1700 1699 1698 1696 1694 1694 1694 1694 1692 1688 1687 1687 1687 1687 1685 1683 1679 1672 1666 1661 1657 1651 1647 1643 1640 1639 1639 1637 1636 1633 1632 1632 1632 1632 1630 1628 1626 1625 1624 1623 1623 1622 1622 1621 1619 1619 1619 1619 1618 1617 1617 1617 1619 1619 1619 1619 1619 1617 1616 1615 1612 1610 1610 1609 1608 1606 1604 1602 1598 1595 1592 1586 1583 1578 1574 1574 1574 1572 1572 1558 1543 1532 1511 1473 1435 1411 1395 1379 1362 1344 1340 1339 1338 1329 1318 1307 1305 1305 1298 1291 1287 1283 1281 1278 1275 1272 1269 1269 1269 1269 1269 1266 1259 1256 1255 1253 1242 1230 1223 1223 1223 1224 1224 1224 1222 1218 1213 1209 1205 1201 1201 1201 1208 1209 1209 1209 1204 1202 1202 1201 1201 1201 1200 1195 1191 1186 1182 1175 1167 1159 1153 1148 1146 1143 1133 1126 1124 1120 1117 1115 1111 1100 1092 1089 1073 1052 1033 1019 1014 0 0 0
491 491 491 500 525 0 0 0 0 0 0 0 0 0 900 903 942 973 997 1021 1041 1067 1094 1121 1143 1158 1158 0 0 0 0 0 0 0 0 0 0 0 0 0 0 0 0 0 1499 1500 1527 1527 1527 1514 1493 1487 1487 1483 1483 1483 0 0 0 1361 1331 1331 1331 1341 1342 1356 1364 1375 1388 1402 1426 0 0 0 0 0 0 0 0 0 0 0 2129 2148 2172 2189 2206 2215 2217 2224 2236 2251 2272 2284 2296 2307 2313 2313 2313 2301 2286 2262 0 0 2117 2090 2090 2090 2104 2116 2131 2143 2153 2162 2169 2178 2186 2195 2205 2220 2229 2236 2245 2247 2257 2270 2282 2294 2294 2294 2286 0 0 0 0 0 0 0 0 0 2534 2635 2678 2682 2682 2682 2664 2629 2582 2543 0 0 0 0 1935 1935 1936 1943 1955 1964 1965 1965 1965 1965 1964 1961 1959 1958 1956 1953 1948 1941 1938 1938 1938 1945 1950 1955 1960 1961 1961 1961 1953 1943 1937 1937 1936 1928 1918 1905 1889 1874 1861 1842 1836 1835 1786 0 0 0 0 0 0 0 1041 1039 1039 1039 1039 1039 1039 1040 1040 1040 1042 1043 1044 1045 1046 1047 1048 1048 1049 1049 1050 1050 1051 1052 1053 1053 1053 1053 1054 1054 1053 1053 1054 1054 1056 1056 1056 1056 1055 1055 1055 1055 1055 1056 1057 1057 1058 1060 1064 1066 1069 1071 1075 1080 1087 1090 1094 1098 1101 1104 1105 1106 1108 1110 1112 1114 1116 1118 1119 1121 1122 1124 1125 1126 1127 1129 1129 1130 1130 1130 1130 1129 1126 1123 1119 1117 1114 1111 1103 1096 1095 1095 1095 1095 1097 1097 1098 1098 1098 1100 1103 1103 1103 1104 1104 1104 1105 1110 1117 1127 1135 1145 1158 1168 1176 1181 1183 1187 1190 1192 1193 1195 1196 1198 1199 1200 1202 1203 1205 1206 1206 1207 1207 1208 1208 1208 1208 1206 1204 1200 1199 1187 1175 1163 1150 1146 1146 1146 1148 1148 1158 1159 1159 1191 1208 1212 1216 1218 1227 1234 1236 1237 1238 1238 1238 1237 1236 1231 1220 1207 1192 1187 1186 1181 1177 1169 1169 1169 1175 1179 1183 1184 1190 1192 1194 1194 1201 1218 1245 1272 1286 1300 1313 1319 1319 1321 1324 1327 1329 1330 1333 1335 1338 1340 1342 1344 1346 1348 1349 1350 1352 1354 1355 1357 1358 1360 1362 1363 1364 1366 1366 1368 1369 1371 1371 1371 1371 1373 1384 1390 0 0 0 1633 1644 1646 1646 1647 1653 1659 1667 1676 1688 1692 1694 1696 1698 1700 1701 1702 1703 1703 1703 1703 1700 1700 1699 1699 1700 1702 1702 1703 1703 1703 1703 1702 1699 1696 1694 1694 1694 1692 1689 1686 1685 1685 1684 1684 1683 1679 1675 1670 1663 1658 1652 1647 1643 1641 1639 1639 1638 1636 1634 1632 1631 1630 1630 1629 1627 1627 1626 1625 1624 1623 1623 1622 1622 1621 1619 1619 1619 1619 1618 1617 1617 1617 1620 1621 1621 1621 1619 1618 1616 1615 1612 1611 1610 1609 1608 1606 1604 1601 1598 1595 1591 1586 1583 1578 1578 1578 1575 1575 1573 1558 1549 1542 1529 1503 1480 1453 1426 1404 1376 1358 1350 1346 1342 1335 1323 1314 1310 1305 1301 1294 1288 1283 1281 1278 1272 1269 1269 1269 1269 1269 1269 1266 1259 1256 1255 1253 1242 1230 1223 1223 1223 1222 1222 1221 1219 1217 1213 1209 1206 1203 1203 1203 1213 1214 1214 1214 1204 1204 1204 1203 1203 1203 1201 1195 1191 1186 1182 1175 1167 1159 1153 1150 1148 1143 1128 1120 1120 1120 1116 1115 1111 1100 1087 1077 1073 1052 1033 1023 1014 0 0 0
493 493 494 502 526 0 0 0 0 0 0 0 0 0 903 905 942 968 992 1015 1034 1058 1087 1110 1127 1127 0 0 0 0 0 0 0 0 0 0 0 0 0 0 0 0 0 0 0 1513 1548 1557 1557 1557 1525 1501 1501 1501 1501 1501 1492 0 0 0 1370 1341 1341 1341 1342 1356 1364 1375 1388 1402 1409 1432 0 0 0 0 0 0 0 0 0 0 0 2139 2160 2180 2195 2205 2208 2216 2224 2240 2261 2278 2293 2306 2307 2307 2307 2291 2275 2248 0 0 2076 2076 2076 2090 2105 2122 2136 2150 2160 2166 2174 2181 2186 2195 2205 2220 2229 2234 2242 2245 2257 2270 2282 2293 2293 2293 2266 0 0 0 0 0 0 0 0 0 2596 2656 2678 2678 2678 2667 2643 2590 2562 2512 0 0 0 1930 1930 1930 1936 1943 1952 1963 1965 1965 1965 1961 1956 1952 1950 1950 1949 1945 1939 1931 1931 1931 1938 1945 1951 1957 1960 1960 1960 1957 1950 1943 1937 1937 1936 1930 1918 1905 1889 1874 1861 1841 1837 1835 1786 0 0 0 0 0 0 0 1041 1038 1038 1038 1038 1039 1039 1039 1040 1040 1041 1043 1044 1045 1046 1047 1048 1049 1049 1050 1051 1051 1051 1053 1053 1054 1055 1058 1058 1058 1058 1059 1060 1060 1060 1060 1060 1059 1059 1059 1061 1061 1063 1064 1064 1064 1064 1064 1067 1070 1073 1073 1076 1082 1088 1090 1094 1098 1099 1102 1103 1106 1107 1109 1110 1113 1114 1116 1118 1119 1121 1122 1124 1126 1127 1127 1129 1129 1129 1129 1129 1127 1124 1121 1119 1117 1114 1111 1105 1098 1097 1097 1097 1097 1097 1097 1098 1099 1100 1101 1104 1104 1104 1104 1104 1104 1107 1111 1117 1127 1135 1145 1158 1168 1176 1181 1183 1187 1189 1192 1193 1195 1196 1198 1199 1200 1202 1203 1205 1206 1206 1207 1207 1208 1208 1208 1208 1207 1204 1199 1195 1185 1173 1158 1146 1144 1141 1141 1141 1142 1143 1143 1143 1155 1164 1175 1186 1192 1210 1228 1235 1235 1235 1233 1233 1231 1233 1233 1231 1214 1194 1194 1194 1193 1190 1179 1175 1175 1175 1179 1183 1184 1188 1192 1194 1194 1201 1218 1246 1271 1285 1300 1313 1318 1319 1321 1323 1325 1327 1330 1333 1335 1338 1339 1342 1343 1344 1347 1348 1350 1352 1353 1355 1356 1358 1360 1362 1363 1364 1365 1366 1368 1369 1371 1371 1371 1371 1372 1392 1402 0 0 0 1635 1647 1647 1648 1650 1650 1653 1662 1672 1683 1690 1694 1696 1698 1700 1701 1702 1703 1703 1703 1702 1700 1700 1699 1699 1700 1701 1701 1703 1703 1703 1703 1703 1699 1696 1694 1692 1690 1688 1686 1684 1684 1684 1684 1683 1682 1679 1674 1668 1662 1657 1652 1646 1642 1640 1639 1636 1636 1634 1632 1630 1630 1629 1628 1628 1627 1627 1626 1625 1624 1623 1623 1623 1622 1621 1620 1620 1619 1619 1617 1617 1617 1618 1620 1621 1621 1621 1619 1618 1616 1615 1612 1611 1610 1609 1608 1606 1602 1597 1595 1592 1590 1586 1583 1582 1582 1582 1580 1579 1575 1562 1554 1547 1539 1526 1505 1482 1454 1419 1391 1368 1351 1347 1345 1340 1328 1317 1310 1307 1304 1297 1290 1283 1281 1278 1272 1269 1269 1269 1269 1269 1269 1266 1259 1256 1256 1253 1243 1231 1223 1223 1223 1222 1222 1221 1219 1217 1213 1211 1206 1204 1204 1204 1213 1214 1214 1214 1209 1207 1207 1206 1206 1206 1203 1197 1191 1186 1183 1175 1167 1159 1153 1150 1149 1143 1128 1120 1119 1118 1115 1114 1111 1100 1087 1066 1054 1040 1033 1027 1016 0 0 0
494 494 494 508 534 0 0 0 0 0 0 0 0 0 897 901 932 953 984 1004 1025 1049 1074 1092 0 0 0 0 0 0 0 0 0 0 0 0 0 0 0 0 0 0 0 0 0 0 1565 1603 0 0 0 1534 1515 1514 1511 1510 1505 1474 0 0 0 0 1352 1352 1352 1357 1364 1375 1388 1402 1408 1417 1438 0 0 0 0 0 0 0 0 0 0 0 2150 2166 2182 2192 2196 2208 2216 2229 2253 2274 2293 2305 2305 2305 2302 2285 2265 2233 0 2110 2076 2076 2076 2090 2108 2127 2145 2159 2167 2171 2176 2181 2188 2195 2205 2220 2229 2234 2240 2242 2253 2268 2282 2285 2285 2285 0 0 0 0 0 0 0 0 0 2544 2617 2667 2667 2667 2667 2645 2594 2552 2508 0 0 0 1936 1930 1930 1930 1936 1943 1952 1960 1962 1962 1962 1954 1948 1945 1943 1943 1943 1939 1937 1931 1931 1931 1938 1948 1954 1957 1957 1957 1956 1950 1945 1942 1937 1937 1936 1930 1918 1905 1889 1877 1861 1838 1837 1835 1787 0 0 0 0 0 0 0 1041 1038 1038 1038 1038 1039 1039 1039 1039 1040 1041 1043 1044 1045 1046 1047 1048 1049 1050 1051 1052 1053 1053 1054 1054 1056 1058 1058 1060 1061 1061 1061 1061 1061 1062 1065 1065 1065 1066 1066 1066 1066 1068 1069 1069 1069 1069 1069 1070 1071 1079 1082 1082 1083 1086 1090 1094 1096 1099 1100 1103 1104 1106 1107 1110 1111 1113 1114 1115 1118 1119 1121 1123 1125 1125 1127 1128 1128 1128 1128 1128 1126 1124 1121 1119 1116 1114 1111 1105 1099 1098 1098 1098 1097 1097 1097 1098 1099 1100 1103 1104 1104 1104 1104 1104 1104 1107 1111 1114 1122 1133 1145 1158 1168 1174 1177 1183 1186 1189 1192 1193 1194 1196 1197 1199 1200 1202 1203 1205 1206 1206 1207 1208 1208 1208 1208 1208 1207 1204 1198 1193 1182 1172 1157 1146 1140 1140 1140 1141 1141 1142 1142 1142 1149 1155 1168 1180 1184 1189 1196 1206 1219 1227 1227 1228 1228 1232 1234 1234 1234 1225 1224 1212 1201 1195 1185 1185 1185 1185 1185 1187 1188 1188 1187 1188 1191 1194 1214 1246 1271 1286 1300 1312 1318 1319 1320 1321 1324 1326 1329 1332 1334 1337 1339 1342 1342 1343 1346 1347 1349 1351 1353 1355 1356 1358 1360 1362 1363 1364 1365 1367 1368 1369 1370 1370 1371 1372 1374 1392 1408 0 0 0 1639 1653 1653 1653 1653 1653 1653 1662 1672 1681 1688 1692 1695 1698 1701 1703 1703 1703 1703 1703 1702 1700 1698 1697 1697 1697 1699 1700 1700 1703 1703 1703 1703 1699 1696 1693 1689 1688 1685 1684 1684 1683 1683 1683 1683 1682 1678 1674 1668 1661 1657 1651 1645 1642 1640 1639 1636 1635 1633 1631 1630 1629 1629 1628 1628 1627 1627 1626 1626 1625 1625 1624 1623 1623 1621 1621 1620 1619 1619 1617 1617 1617 1619 1621 1621 1621 1621 1619 1618 1616 1614 1612 1611 1610 1608 1605 1601 1595 1592 1589 1589 1587 1587 1585 1585 1583 1582 1582 1582 1575 1567 1562 1554 1545 1540 1530 1506 1474 1438 1406 1378 1360 1351 1345 1345 1331 1320 1310 1308 1305 1302 1295 1283 1281 1278 1272 1269 1269 1269 1269 1269 1269 1266 1261 1257 1256 1252 1244 1233 1231 1230 1228 1226 1223 1221 1219 1217 1215 1214 1211 1207 1207 1207 1214 1220 1223 1223 1223 1213 1212 1210 1209 1209 1207 1200 1194 1189 1185 1179 1167 1159 1153 1151 1149 1144 1128 1120 1118 1117 1115 1112 1107 1099 1086 1066 1049 1036 1032 1027 1016 0 0 0
496 496 498 517 541 0 0 0 0 0 0 0 0 874 897 900 924 945 966 993 1013 1033 1049 0 0 0 0 0 0 0 0 885 881 881 881 0 0 0 0 0 0 0 0 0 0 0 0 0 0 0 0 0 1549 1525 1520 1518 1515 1509 1502 1476 0 0 0 1366 1366 1366 1371 1381 1393 1398 1407 1412 1424 1447 0 0 0 0 0 0 0 0 0 0 0 2145 2162 2176 2180 2195 2210 2224 2244 2268 2290 2304 2304 2304 2299 2279 2250 2215 0 2104 2076 2076 2076 2093 2109 2127 2145 2163 2172 2174 2176 2182 2190 2202 2216 2227 2232 2234 2240 2242 2249 2265 2278 2278 0 0 0 0 0 0 0 0 0 0 0 2565 2646 2667 2667 2667 2648 2619 2573 2521 0 0 0 0 1928 1922 1922 1922 1932 1941 1950 1958 1958 1958 1954 1947 1941 1939 1939 1939 1939 1939 1937 1935 1935 1935 1943 1949 1956 1957 1957 1957 1956 1948 1945 1942 1937 1936 1935 1930 1918 1904 1889 1882 1862 1860 1847 1838 1796 0 0 0 0 0 0 0 1039 1035 1035 1035 1037 1038 1039 1039 1039 1040 1041 1042 1044 1045 1046 1047 1048 1050 1051 1052 1053 1054 1055 1055 1057 1057 1060 1060 1061 1062 1062 1063 1064 1064 1066 1067 1069 1069 1070 1070 1070 1070 1070 1070 1070 1070 1070 1074 1079 1080 1081 1082 1083 1083 1085 1090 1092 1094 1097 1098 1100 1101 1104 1106 1108 1109 1110 1112 1114 1116 1118 1120 1121 1124 1125 1126 1126 1127 1127 1127 1127 1126 1124 1121 1119 1116 1113 1111 1105 1099 1098 1098 1098 1097 1097 1097 1098 1099 1100 1103 1104 1104 1104 1104 1104 1106 1108 1111 1114 1121 1128 1140 1156 1166 1170 1175 1182 1186 1188 1191 1193 1194 1196 1197 1199 1200 1202 1203 1204 1206 1206 1207 1208 1208 1208 1208 1208 1207 1204 1198 1193 1181 1170 1157 1146 1138 1138 1138 1139 1141 1141 1142 1142 1144 1149 1155 1161 1164 1169 1181 1196 1199 1201 1214 1217 1223 1230 1237 1238 1245 1245 1245 1235 1226 1220 1207 1198 1198 1196 1196 1196 1191 1188 1188 1188 1191 1194 1214 1252 1271 1285 1296 1309 1316 1317 1318 1321 1322 1325 1328 1331 1334 1336 1339 1340 1341 1343 1345 1347 1348 1350 1352 1354 1355 1358 1359 1361 1362 1364 1365 1367 1368 1369 1369 1371 1372 1372 1374 1390 1409 0 0 0 1644 1655 1655 1655 1653 1653 1653 1662 1672 1680 1687 1691 1695 1700 1706 1706 1706 1705 1704 1703 1702 1700 1698 1697 1697 1697 1697 1697 1697 1701 1703 1703 1703 1699 1696 1693 1689 1685 1684 1682 1682 1682 1682 1682 1682 1681 1677 1673 1666 1661 1657 1651 1644 1641 1640 1639 1636 1635 1633 1631 1630 1629 1629 1628 1628 1627 1627 1627 1626 1626 1625 1624 1623 1623 1622 1622 1621 1621 1620 1618 1618 1618 1620 1620 1620 1619 1618 1616 1614 1613 1612 1612 1611 1606 1600 1594 1592 1587 1585 1585 1585 1585 1585 1585 1585 1583 1582 1582 1582 1579 1573 1567 1558 1551 1548 1543 1521 1492 1460 1428 1399 1374 1360 1349 1345 1337 1326 1314 1308 1308 1307 1302 1290 1281 1279 1275 1273 1270 1270 1270 1270 1270 1270 1265 1260 1256 1252 1245 1236 1233 1232 1231 1231 1228 1225 1223 1223 1220 1218 1215 1212 1212 1212 1214 1220 1224 1224 1224 1222 1215 1212 1212 1212 1210 1205 1199 1193 1185 1179 1172 1165 1157 1153 1151 1150 1134 1120 1116 1115 1113 1111 1107 1101 1087 1066 1049 1036 1030 1027 1016 0 0 0
500 500 500 523 0 0 0 0 0 0 0 0 0 874 897 900 916 935 957 982 998 1015 0 0 0 0 0 0 0 0 857 859 863 867 870 895 0 0 0 0 0 0 0 0 0 0 0 0 1649 1649 1649 0 0 0 1529 1526 1525 1524 1519 1508 1481 0 0 0 1398 1389 1389 1389 1393 1398 1404 1407 1416 1430 1450 0 0 0 0 0 0 0 0 0 0 0 2141 2162 2165 2187 2201 2218 2235 2256 2281 2300 2300 2300 2290 2265 2231 0 2133 2084 2084 2084 2084 2096 2111 2127 2145 2163 2174 2180 2180 2184 2194 2207 2219 2230 2235 2236 2240 2242 2249 2265 2265 2265 0 0 0 0 0 0 0 0 0 0 2522 2606 2652 2659 2659 2659 2627 2590 2568 0 0 0 0 1934 1920 1918 1918 1918 1925 1936 1947 1949 1949 1949 1944 1939 1935 1935 1935 1936 1937 1937 1938 1937 1937 1939 1943 1950 1956 1956 1956 1955 1947 1941 1938 1936 1933 1933 1930 1923 1916 1903 1890 1890 1884 1866 1866 1838 1836 0 0 0 0 0 0 0 1036 1035 1035 1035 1037 1038 1038 1039 1039 1040 1041 1042 1044 1045 1046 1047 1049 1050 1051 1052 1053 1054 1055 1056 1058 1059 1060 1061 1062 1063 1065 1065 1067 1067 1068 1069 1070 1071 1072 1073 1073 1074 1074 1075 1075 1076 1076 1077 1080 1081 1081 1083 1083 1084 1085 1087 1089 1093 1095 1096 1097 1100 1102 1104 1107 1107 1107 1109 1112 1114 1116 1118 1119 1122 1124 1125 1125 1126 1126 1126 1126 1126 1124 1120 1118 1115 1113 1111 1105 1099 1098 1098 1098 1097 1096 1096 1096 1098 1100 1103 1104 1104 1104 1104 1105 1106 1108 1111 1114 1121 1128 1140 1156 1166 1170 1175 1181 1186 1187 1189 1192 1194 1195 1196 1198 1200 1201 1203 1204 1205 1206 1207 1207 1207 1207 1207 1207 1206 1204 1198 1192 1181 1168 1157 1145 1135 1135 1135 1138 1141 1142 1142 1143 1144 1148 1149 1152 1154 1155 1162 1181 1186 1199 1212 1216 1216 1228 1239 1242 1249 1249 1249 1249 1245 1239 1226 1222 1221 1218 1216 1216 1212 1197 1191 1191 1191 1194 1214 1252 1271 1285 1296 1305 1311 1314 1316 1319 1322 1324 1327 1330 1333 1335 1337 1339 1340 1342 1344 1346 1348 1350 1352 1354 1355 1357 1359 1361 1362 1364 1365 1367 1367 1368 1369 1372 1372 1374 1377 1394 1412 0 0 0 1653 1661 1661 1661 1655 1655 1655 1665 1674 1680 1687 1690 1695 1700 1706 1708 1708 1708 1706 1705 1703 1701 1698 1697 1697 1697 1695 1693 1693 1693 1698 1699 1699 1699 1695 1693 1689 1683 1682 1680 1678 1678 1678 1680 1680 1680 1677 1670 1663 1658 1654 1649 1644 1641 1640 1639 1637 1635 1633 1631 1630 1629 1629 1629 1629 1628 1628 1628 1627 1627 1626 1625 1624 1623 1622 1622 1622 1622 1621 1620 1620 1620 1620 1620 1620 1619 1616 1614 1609 1609 1608 1608 1606 1600 1594 1589 1585 1585 1585 1585 1585 1585 1585 1585 1585 1583 1582 1582 1582 1579 1576 1569 1561 1556 1555 1552 1536 1511 1484 1454 1424 1395 1374 1358 1346 1340 1330 1319 1314 1312 1311 1311 1301 1291 1288 1282 1278 1274 1271 1271 1270 1270 1270 1267 1263 1257 1252 1245 1238 1233 1233 1232 1232 1232 1230 1227 1226 1223 1221 1220 1216 1215 1215 1215 1221 1224 1224 1224 1222 1215 1212 1212 1212 1210 1207 1200 1193 1185 1179 1172 1169 1157 1153 1151 1150 1134 1120 1111 1109 1107 1107 1105 1101 1091 1071 1049 1036 1030 1017 1008 0 0 0
501 501 502 526 0 0 0 0 0 0 0 0 0 874 893 895 911 931 947 968 978 978 0 0 0 0 0 0 0 824 835 847 856 859 867 885 0 0 0 0 0 0 0 0 0 0 0 1638 1669 1671 1671 1671 0 0 0 1540 1536 1534 1528 1521 1511 1489 1465 1429 1429 1411 1398 1395 1395 1395 1395 1396 1405 1417 1431 1458 0 0 0 0 0 0 0 0 0 0 0 2122 2151 2177 2196 2212 2229 2249 2273 2290 2290 2290 2274 2246 0 0 2104 2081 2081 2081 2091 2104 2113 2127 2144 2163 2174 2183 2185 2189 2197 2207 2219 2230 2238 2238 2240 2242 2249 2265 2265 2265 0 0 0 0 0 0 0 0 0 0 2565 2646 2652 2652 2652 2622 2587 2534 0 0 0 0 0 1928 1919 1918 1918 1918 1923 1931 1943 1943 1943 1942 1936 1933 1933 1933 1933 1934 1937 1937 1938 1939 1939 1943 1948 1954 1954 1954 1951 1946 1939 1936 1934 1931 1928 1926 1924 1919 1911 1898 1892 1892 1890 1892 1897 1897 1858 0 0 0 0 0 0 1041 1036 1035 1035 1035 1037 1037 1038 1038 1039 1040 1041 1042 1043 1045 1046 1047 1049 1050 1051 1053 1054 1056 1056 1058 1059 1059 1061 1062 1063 1064 1065 1067 1068 1068 1070 1071 1072 1073 1074 1075 1076 1076 1077 1079 1080 1080 1080 1080 1080 1081 1082 1083 1083 1083 1083 1083 1086 1089 1092 1093 1094 1096 1098 1101 1102 1104 1104 1106 1109 1112 1114 1116 1118 1121 1122 1124 1124 1124 1124 1124 1124 1124 1124 1120 1117 1115 1113 1108 1100 1098 1098 1097 1097 1097 1095 1095 1095 1095 1098 1102 1103 1104 1106 1106 1107 1108 1109 1111 1114 1121 1128 1140 1156 1166 1170 1175 1182 1185 1186 1189 1191 1193 1195 1196 1198 1199 1201 1202 1204 1205 1206 1207 1207 1207 1207 1207 1207 1206 1203 1197 1189 1178 1165 1157 1144 1135 1135 1135 1138 1141 1142 1142 1143 1144 1146 1146 1146 1146 1146 1149 1157 1176 1193 1209 1211 1211 1228 1240 1247 1253 1255 1255 1255 1251 1241 1236 1236 1236 1236 1239 1239 1239 1220 1208 1200 1200 1200 1215 1253 1274 1285 1296 1302 1307 1313 1315 1317 1320 1323 1326 1328 1331 1334 1335 1337 1339 1341 1343 1344 1347 1349 1351 1353 1355 1357 1359 1360 1361 1363 1365 1367 1367 1368 1369 1372 1372 1374 1378 1395 1416 0 0 0 1657 1666 1666 1666 1658 1658 1658 1666 1674 1680 1685 1689 1694 1700 1706 1709 1709 1709 1709 1707 1705 1704 1701 1701 1698 1697 1694 1692 1692 1692 1693 1695 1695 1695 1695 1693 1689 1683 1677 1675 1674 1674 1674 1676 1676 1676 1671 1665 1659 1655 1650 1645 1641 1641 1640 1639 1638 1636 1634 1632 1630 1629 1629 1629 1629 1629 1629 1629 1629 1628 1627 1626 1625 1623 1623 1623 1622 1622 1622 1621 1621 1621 1621 1620 1620 1619 1616 1613 1609 1608 1608 1606 1603 1600 1593 1587 1585 1585 1585 1585 1585 1584 1584 1582 1582 1581 1581 1581 1581 1579 1576 1571 1561 1558 1558 1555 1547 1538 1525 1482 1446 1419 1389 1367 1353 1348 1343 1330 1322 1321 1319 1318 1312 1301 1296 1288 1281 1276 1273 1271 1271 1271 1271 1268 1264 1258 1252 1246 1240 1235 1234 1234 1233 1233 1232 1228 1226 1224 1224 1223 1219 1219 1219 1223 1223 1224 1224 1224 1222 1215 1212 1212 1210 1210 1207 1200 1193 1184 1178 1172 1169 1157 1153 1151 1150 1134 1112 1108 1104 1102 1102 1102 1100 1091 1086 1068 1044 1030 1017 1008 0 0 0
502 502 503 0 0 0 0 0 0 0 0 0 0 868 887 889 906 924 936 948 948 0 0 0 0 0 0 794 794 794 815 835 852 859 867 882 912 0 0 0 0 0 0 0 0 0 0 0 1669 1689 1705 1705 1705 0 0 0 1551 1543 1533 1525 1524 1523 1512 1492 1492 1457 1410 1395 1393 1386 1386 1386 1391 1405 1420 1442 1470 1498 0 0 0 0 0 0 0 0 0 0 0 2168 2191 2203 2217 2235 2260 2276 2276 2276 2254 2217 0 2118 2075 2075 2075 2081 2091 2104 2114 2126 2141 2159 2174 2187 2191 2195 2199 2208 2219 2232 2239 2244 2251 2253 2260 2266 2266 2266 0 0 0 0 0 0 0 0 0 0 2596 2646 2646 2646 2632 2584 2556 0 0 0 0 0 1942 1928 1919 1918 1918 1918 1923 1931 1942 1942 1942 1940 1935 1931 1931 1931 1931 1934 1938 1942 1942 1943 1945 1948 1951 1952 1952 1952 1947 1940 1935 1932 1930 1926 1925 1921 1918 1913 1906 1893 1893 1893 1892 1905 1923 1923 1876 0 0 0 0 0 0 1039 1035 1034 1034 1034 1034 1035 1036 1037 1038 1039 1041 1042 1043 1045 1046 1047 1049 1050 1052 1053 1054 1056 1057 1058 1059 1060 1061 1063 1064 1066 1067 1068 1069 1069 1071 1072 1073 1073 1075 1076 1078 1079 1079 1080 1081 1081 1082 1082 1082 1082 1082 1083 1083 1083 1081 1081 1081 1085 1087 1087 1087 1090 1091 1095 1098 1101 1101 1103 1106 1109 1111 1113 1116 1119 1121 1121 1122 1123 1123 1124 1124 1124 1124 1120 1117 1115 1113 1107 1100 1098 1098 1097 1097 1097 1095 1095 1095 1095 1098 1102 1103 1104 1108 1109 1110 1111 1116 1120 1124 1130 1139 1150 1161 1167 1172 1176 1181 1184 1186 1188 1190 1192 1194 1196 1198 1199 1201 1202 1204 1205 1206 1207 1207 1207 1206 1206 1206 1206 1203 1197 1189 1178 1165 1156 1144 1135 1135 1135 1138 1140 1141 1143 1146 1147 1147 1147 1146 1142 1142 1142 1144 1150 1157 1186 1204 1211 1230 1240 1250 1255 1256 1256 1256 1256 1253 1252 1250 1250 1250 1253 1253 1253 1248 1246 1237 1230 1230 1230 1256 1278 1287 1296 1301 1307 1310 1313 1316 1319 1322 1324 1326 1329 1332 1334 1336 1338 1340 1341 1344 1346 1348 1350 1352 1354 1356 1358 1360 1361 1362 1365 1366 1367 1368 1369 1372 1372 1374 1380 1404 1428 0 0 1629 1661 1666 1666 1666 1660 1660 1660 1666 1674 1680 1684 1688 1694 1700 1705 1709 1710 1710 1710 1709 1707 1704 1703 1702 1698 1697 1694 1692 1692 1692 1693 1695 1695 1695 1695 1693 1689 1683 1673 1669 1668 1668 1668 1667 1667 1667 1663 1659 1655 1649 1643 1640 1640 1639 1639 1639 1638 1636 1635 1633 1631 1630 1630 1629 1629 1630 1630 1629 1629 1628 1628 1627 1626 1625 1623 1623 1623 1623 1622 1622 1621 1621 1621 1621 1621 1619 1616 1612 1608 1607 1606 1605 1603 1599 1592 1587 1587 1587 1587 1587 1587 1586 1583 1581 1580 1579 1579 1578 1578 1577 1576 1571 1566 1563 1559 1557 1555 1550 1546 1525 0 1438 1407 1382 1360 1349 1349 1340 1330 1324 1322 1318 1312 1301 1296 1288 1282 1277 1275 1273 1272 1272 1272 1268 1264 1259 1254 1246 1240 1233 1233 1233 1232 1232 1232 1228 1228 1228 1227 1227 1227 1227 1227 1227 1226 1225 1223 1221 1218 1214 1211 1211 1210 1207 1207 1200 1189 1184 1175 1172 1169 1157 1146 1144 1144 1138 1112 1107 1104 1101 1101 1101 1099 1086 1086 1074 1062 1035 1017 1008 0 0 0
504 504 505 0 0 0 0 0 0 0 0 804 836 859 879 880 904 918 925 0 0 0 0 0 0 0 783 783 789 791 805 828 850 863 867 882 904 934 0 0 0 0 0 0 0 0 0 0 0 1689 1715 1716 1716 1716 0 0 1573 1551 1539 1539 1539 1537 1537 1513 1511 1486 0 1403 1393 1386 1384 1384 1384 1393 1411 1429 1449 1469 1496 0 0 0 0 0 0 0 0 0 0 0 0 2195 2207 2222 2236 2255 2255 2255 2234 2194 0 2093 2065 2065 2065 2081 2091 2104 2114 2126 2137 2154 2177 2190 2196 2199 2200 2208 2219 2231 2242 2250 2256 2258 2260 2264 2264 2264 0 0 0 0 0 0 0 0 0 2540 2612 2628 2628 2628 2598 2544 2526 0 0 0 0 1953 1942 1928 1919 1918 1918 1918 1923 1931 1939 1939 1939 1934 1930 1929 1929 1929 1930 1933 1938 1942 1945 1948 1949 1952 1953 1953 1953 1950 1944 1937 1933 1928 1925 1921 1919 1918 1916 1912 1899 1898 1898 1898 1912 1925 1951 1951 0 0 0 0 0 0 0 1037 1035 1033 1033 1033 1033 1035 1036 1037 1038 1039 1040 1042 1043 1045 1046 1047 1049 1050 1052 1053 1054 1056 1057 1058 1059 1061 1062 1063 1065 1066 1067 1068 1070 1070 1072 1073 1074 1075 1075 1076 1078 1079 1080 1080 1081 1082 1082 1082 1082 1082 1082 1082 1082 1082 1079 1076 1076 1076 1077 1079 1081 1086 1088 1091 1095 1099 1101 1102 1105 1107 1107 1109 1113 1116 1118 1119 1120 1122 1123 1123 1124 1124 1124 1120 1117 1115 1114 1107 1100 1098 1098 1098 1098 1098 1096 1095 1095 1095 1098 1102 1103 1106 1109 1109 1110 1111 1116 1120 1125 1132 1141 1152 1162 1168 1172 1176 1180 1184 1185 1188 1190 1192 1194 1196 1198 1199 1201 1202 1204 1205 1206 1206 1206 1206 1206 1206 1206 1205 1202 1197 1189 1177 1165 1156 1145 1140 1138 1138 1138 1139 1141 1143 1146 1147 1147 1147 1145 1141 1141 1141 1142 1149 1157 1186 1204 1216 1231 1250 1259 1259 1261 1261 1261 1262 1266 1267 1267 1267 1266 1263 1263 1263 1267 1267 1267 1266 1266 1266 1270 1282 1286 1296 1297 1304 1307 1308 1310 1315 1320 1321 1325 1327 1329 1332 1335 1337 1338 1341 1343 1344 1347 1348 1350 1354 1355 1357 1359 1360 1362 1364 1365 1366 1367 1369 1372 1372 1374 1381 1405 1427 0 0 1626 1662 1666 1666 1666 1660 1660 1660 1666 1672 1679 1683 1688 1694 1697 1703 1707 1710 1710 1710 1710 1707 1705 1704 1702 1699 1698 1694 1692 1692 1692 1693 1695 1695 1695 1692 1690 1687 1682 1672 1667 1664 1663 1661 1661 1661 1660 1658 1657 1652 1646 1643 1640 1640 1639 1639 1639 1638 1637 1635 1634 1633 1631 1631 1630 1630 1630 1630 1630 1629 1628 1628 1628 1627 1627 1626 1624 1624 1624 1623 1623 1622 1622 1622 1621 1621 1619 1616 1612 1608 1606 1605 1604 1602 1597 1592 1587 1587 1587 1587 1587 1587 1586 1583 1581 1578 1577 1576 1576 1576 1576 1575 1573 1570 1568 1566 1563 1562 1559 1559 1545 1510 1458 1424 1394 1368 1352 1350 1344 1337 1328 1323 1319 1312 1301 1296 1288 1283 1279 1276 1276 1275 1273 1272 1270 1267 1263 1258 1250 1240 1233 1233 1233 1236 1237 1237 1237 1237 1236 1235 1234 1233 1230 1230 1230 1228 1227 1222 1215 1211 1209 1207 1207 1206 1204 1202 1195 1189 1184 1175 1165 1156 1147 1144 1139 1138 1138 1112 1097 1094 1094 1092 1080 1080 1076 1074 1074 1063 1050 1036 1021 0 0 0
516 516 518 0 0 0 0 0 0 0 779 805 832 850 866 868 895 895 0 0 0 0 0 0 0 767 767 777 788 791 804 826 850 863 867 882 899 922 0 0 0 0 0 0 0 0 0 0 0 0 1724 1733 1733 0 0 0 0 1557 1545 1545 1545 1545 1545 1532 1531 1508 0 0 1396 1386 1384 1384 1384 1391 1401 1415 1429 1446 1469 1499 0 0 0 0 0 0 0 0 0 0 0 2185 2200 2212 2224 2227 2227 2227 2211 2167 2118 2053 2051 2051 2051 2072 2088 2104 2114 2123 2133 2154 2177 2191 2196 2199 2202 2208 2219 2231 2242 2250 2256 2259 2260 2260 2260 2235 0 0 0 0 0 0 0 0 0 2587 2622 2622 2622 2597 2592 2544 0 0 0 0 1961 1952 1942 1932 1923 1921 1921 1921 1924 1932 1932 1932 1932 1930 1928 1926 1926 1926 1927 1932 1938 1942 1945 1949 1952 1952 1952 1952 1952 1949 1943 1935 1929 1923 1918 1917 1916 1915 1915 1909 1896 1896 1896 1900 0 0 0 0 0 0 0 0 0 0 0 1037 1035 1034 1032 1032 1032 1035 1036 1037 1038 1039 1040 1042 1043 1045 1046 1047 1049 1050 1052 1053 1054 1056 1057 1058 1059 1061 1062 1064 1065 1066 1068 1069 1070 1071 1072 1073 1075 1075 1077 1078 1079 1080 1081 1081 1081 1083 1083 1083 1083 1082 1082 1082 1080 1078 1076 1075 1075 1075 1076 1077 1078 1082 1084 1088 1090 1092 1094 1097 1101 1103 1103 1105 1110 1113 1115 1116 1117 1120 1122 1123 1123 1123 1123 1123 1119 1117 1114 1107 1100 1100 1100 1101 1101 1101 1100 1096 1096 1096 1100 1103 1106 1108 1109 1110 1110 1114 1116 1120 1126 1132 1141 1152 1163 1168 1172 1176 1180 1182 1185 1188 1190 1192 1194 1196 1198 1199 1200 1202 1204 1204 1206 1206 1206 1206 1205 1205 1205 1204 1201 1197 1188 1177 1164 1156 1147 1142 1138 1138 1138 1138 1140 1143 1146 1147 1147 1147 1143 1138 1138 1138 1142 1147 1157 1186 1204 1219 1242 1257 1260 1260 1263 1264 1264 1265 1268 1271 1273 1273 1273 1273 1270 1270 1270 1270 1274 1277 1277 1278 1281 1282 1286 1295 1296 1299 1301 1303 1304 1315 1317 1320 1322 1326 1328 1331 1335 1335 1337 1339 1341 1342 1345 1347 1349 1351 1354 1356 1358 1360 1361 1363 1364 1364 1366 1369 1370 1371 1372 1386 1405 1427 0 0 1622 1662 1666 1666 1666 1661 1661 1661 1664 1670 1677 1682 1685 1689 1696 1701 1706 1710 1710 1710 1710 1707 1705 1704 1702 1699 1699 1697 1696 1696 1696 1695 1695 1695 1694 1692 1689 1685 1680 1672 1667 1663 1658 1656 1656 1656 1656 1656 1655 1651 1645 1643 1640 1640 1639 1639 1639 1639 1638 1637 1636 1634 1633 1633 1632 1632 1631 1631 1630 1629 1629 1629 1628 1628 1628 1626 1626 1626 1626 1625 1623 1623 1623 1622 1622 1621 1618 1615 1611 1608 1605 1604 1604 1602 1597 1592 1589 1589 1589 1589 1589 1589 1587 1583 1581 1578 1576 1576 1575 1575 1575 1575 1573 1572 1570 1570 1570 1573 1573 1573 1556 1527 1487 1450 1414 1387 1373 1360 1348 1340 1332 1324 1319 1313 1304 1300 1290 1283 1279 1276 1276 1275 1274 1273 1273 1271 1267 1262 1254 1243 1235 1235 1235 1239 1242 1243 1243 1243 1241 1237 1235 1235 1234 1233 1233 1233 1229 1222 1212 1205 1202 1202 1202 1202 1201 1199 1193 1188 1184 1175 1165 1156 1147 1144 1139 1138 1138 1122 1100 1088 1084 1071 1071 1071 1074 1074 1074 1064 1060 1059 1045 0 0 0
531 531 532 0 0 0 0 0 0 771 787 809 827 843 855 857 860 0 0 0 0 0 752 757 758 758 766 777 788 791 803 821 844 863 867 880 894 914 940 0 0 0 0 0 0 0 0 0 0 0 0 0 0 0 0 0 0 0 1556 1556 1556 1556 1556 1548 1547 1523 0 0 1414 1409 1402 1389 1389 1389 1396 1406 1417 1429 1445 1468 0 0 0 0 0 0 0 0 0 0 0 0 2189 2200 2206 2208 2208 2208 2168 2132 2088 2043 2043 2043 2051 2065 2082 2099 2110 2122 2133 2154 2181 2191 2196 2199 2204 2211 2220 2231 2242 2250 2256 2256 2256 2256 2248 2212 0 0 0 0 0 0 0 0 0 2587 2620 2620 2620 2592 2550 0 0 0 0 0 1956 1952 1942 1933 1928 1928 1928 1929 1932 1932 1932 1931 1927 1925 1924 1923 1923 1923 1925 1931 1936 1943 1947 1950 1953 1953 1953 1953 1952 1947 1941 1934 1928 1922 1912 1911 1911 1910 1910 1905 1893 1893 1893 1926 0 0 0 0 0 0 0 0 0 0 0 1035 1034 1034 1032 1032 1032 1034 1036 1036 1037 1038 1040 1041 1043 1044 1046 1047 1049 1050 1051 1053 1054 1055 1057 1058 1059 1061 1062 1064 1065 1066 1068 1069 1070 1072 1073 1074 1075 1077 1077 1078 1079 1081 1082 1082 1082 1083 1084 1084 1084 1083 1082 1081 1080 1078 1075 1074 1073 1073 1073 1073 1076 1080 1083 1083 1083 1084 1085 1088 1094 1101 1103 1104 1110 1110 1111 1111 1115 1118 1121 1121 1121 1122 1122 1122 1121 1119 1115 1107 1105 1105 1105 1108 1108 1108 1103 1101 1101 1101 1104 1106 1109 1109 1110 1110 1112 1114 1117 1121 1126 1133 1143 1152 1162 1168 1173 1175 1179 1182 1185 1188 1189 1192 1193 1195 1197 1198 1200 1202 1203 1204 1205 1205 1205 1205 1205 1205 1205 1203 1201 1197 1188 1177 1164 1155 1148 1143 1138 1137 1137 1137 1138 1140 1141 1142 1142 1142 1141 1138 1138 1138 1142 1147 1164 1187 1204 1222 1247 1259 1260 1260 1263 1265 1266 1266 1268 1271 1273 1276 1276 1276 1276 1276 1276 1278 1283 1283 1283 1282 1282 1282 1286 1292 1294 1294 1294 1295 1303 1312 1317 1317 1320 1325 1328 1330 1334 1334 1336 1338 1340 1342 1344 1345 1347 1350 1352 1355 1357 1359 1360 1362 1364 1364 1366 1369 1369 1371 1372 1386 1405 1427 0 0 1618 1662 1665 1665 1665 1660 1660 1660 1664 1669 1675 1681 1685 1689 1696 1701 1706 1709 1710 1710 1710 1707 1705 1704 1703 1701 1699 1698 1698 1698 1697 1696 1696 1695 1692 1689 1686 1684 1679 1672 1667 1663 1656 1655 1655 1655 1655 1655 1653 1648 1645 1642 1641 1641 1641 1641 1640 1639 1639 1639 1638 1636 1635 1634 1633 1632 1632 1632 1632 1631 1631 1631 1631 1630 1629 1629 1629 1629 1629 1628 1625 1623 1623 1622 1621 1619 1618 1615 1610 1606 1604 1603 1603 1601 1597 1593 1591 1590 1590 1590 1590 1590 1588 1584 1583 1578 1576 1575 1575 1575 1575 1575 1574 1574 1574 1574 1574 1576 1576 1576 1567 1546 1516 1476 1446 1423 1397 1377 1362 1353 1344 1330 1319 1313 1304 1300 1290 1283 1279 1276 1276 1275 1274 1274 1273 1273 1270 1264 1255 1245 1237 1237 1237 1241 1245 1248 1248 1248 1242 1239 1237 1236 1236 1236 1236 1236 1232 1222 1212 1205 1201 1200 1198 1198 1198 1198 1193 1188 1184 1175 1165 1156 1147 1145 1145 1139 1138 1123 1101 1088 1084 1071 1071 1071 1071 1069 1072 1072 1072 1072 1072 0 0 0
546 546 0 0 0 0 0 0 0 792 799 810 823 835 839 839 0 0 0 0 0 732 732 745 751 756 766 777 789 791 803 818 835 851 862 875 887 903 926 0 0 0 0 0 0 0 0 0 0 0 0 0 0 0 0 0 0 0 0 0 1582 1572 1570 1569 1567 1536 1520 0 0 1426 1417 1395 1395 1395 1396 1402 1407 1413 1425 1445 1471 0 0 0 0 0 0 0 0 0 0 0 0 2182 2187 2187 2187 2167 2135 2100 2064 2037 2037 2037 2051 2065 2079 2096 2107 2121 2133 2158 2181 2191 2196 2199 2205 2212 2221 2231 2240 2250 2255 2256 2256 2256 2248 2210 0 0 0 0 0 0 0 0 2508 2629 2629 2629 2604 2568 2525 0 0 0 0 1965 1952 1945 1942 1933 1929 1929 1929 1929 1929 1929 1929 1926 1922 1922 1921 1921 1921 1922 1925 1931 1936 1943 1947 1951 1952 1952 1952 1951 1947 1942 1937 1932 1927 1922 1912 1908 1905 1904 1904 1903 1903 1904 1926 1990 0 0 0 0 0 0 0 0 0 0 1038 1034 1034 1032 1033 1033 1033 1034 1035 1036 1036 1038 1040 1041 1043 1044 1045 1047 1049 1050 1051 1053 1054 1055 1056 1058 1059 1061 1062 1064 1065 1066 1068 1069 1070 1072 1073 1074 1076 1077 1078 1079 1080 1081 1082 1082 1083 1083 1084 1084 1084 1083 1082 1080 1080 1078 1074 1073 1069 1069 1069 1069 1069 1071 1075 1076 1077 1078 1080 1084 1087 1093 1095 1100 1106 1106 1107 1108 1112 1116 1119 1121 1121 1122 1123 1123 1123 1120 1119 1113 1109 1109 1109 1112 1112 1112 1104 1104 1104 1106 1110 1110 1110 1110 1110 1110 1112 1114 1117 1121 1127 1135 1145 1152 1161 1168 1173 1175 1179 1182 1185 1187 1189 1191 1193 1195 1197 1198 1200 1202 1203 1204 1205 1205 1205 1205 1204 1203 1203 1202 1200 1195 1187 1173 1159 1151 1149 1145 1137 1136 1136 1136 1137 1138 1138 1138 1138 1138 1138 1138 1138 1138 1142 1147 1164 1187 1204 1229 1251 1259 1260 1261 1263 1265 1266 1267 1268 1271 1273 1276 1279 1279 1279 1281 1282 1285 1286 1286 1286 1282 1277 1276 1276 1276 1280 1283 1288 1293 1300 1306 1311 1311 1317 1324 1325 1326 1330 1330 1332 1336 1338 1341 1343 1344 1346 1349 1351 1353 1356 1358 1360 1362 1363 1364 1366 1369 1370 1371 1372 1386 1405 1427 0 0 1618 1653 1660 1660 1660 1660 1660 1660 1664 1669 1675 1681 1685 1689 1696 1701 1706 1709 1710 1710 1710 1707 1705 1704 1703 1701 1700 1699 1699 1698 1697 1696 1696 1693 1690 1688 1685 1681 1677 1672 1668 1663 1656 1652 1652 1652 1652 1652 1650 1647 1645 1643 1643 1642 1642 1642 1640 1639 1639 1639 1639 1638 1636 1635 1634 1634 1633 1633 1633 1633 1633 1633 1632 1632 1631 1631 1631 1631 1631 1628 1627 1625 1624 1622 1621 1619 1616 1613 1609 1605 1604 1603 1603 1601 1597 1593 1591 1590 1590 1590 1590 1590 1588 1585 1583 1579 1576 1575 1575 1574 1574 1574 1574 1574 1574 1574 1574 1576 1576 1576 1568 1547 1518 1478 1474 1445 1422 1393 1375 1366 1355 1337 1326 1315 1304 1300 1290 1283 1277 1274 1273 1273 1273 1274 1274 1274 1272 1266 1258 1248 1248 1248 1248 1249 1252 1252 1252 1251 1245 1241 1237 1236 1236 1236 1236 1236 1232 1224 1212 1205 1200 1196 1196 1196 1195 1195 1192 1188 1186 1182 1179 1177 1171 1163 1160 1159 1155 1123 1107 1088 1084 1077 1072 1071 1071 1071 1071 1071 1072 1072 1072 0 0 0
560 560 0 0 0 0 0 0 0 814 816 818 818 818 814 0 0 0 0 0 718 718 718 732 742 754 766 778 789 792 802 813 825 837 847 859 872 890 913 0 0 0 0 0 0 0 0 0 0 0 0 0 0 0 0 0 0 0 0 0 0 1593 1592 1592 1581 1562 1537 1520 0 0 1427 1405 1396 1396 1396 1400 1403 1405 1411 1423 1443 1465 1498 1528 0 0 0 0 0 0 0 0 0 2161 2161 2161 2155 2133 2107 2068 2032 2032 2032 2041 2053 2065 2079 2094 2107 2121 2138 2158 2181 2190 2196 2199 2205 2213 2221 2231 2240 2250 2255 2256 2256 2256 2232 2185 0 0 0 0 0 0 0 0 2547 2630 2630 2630 2599 2561 0 0 0 0 1981 1963 1952 1945 1939 1936 1930 1929 1929 1929 1929 1929 1926 1923 1920 1918 1918 1918 1919 1920 1925 1931 1936 1943 1947 1952 1952 1952 1952 1947 1939 1937 1934 1932 1927 1921 1912 1908 1905 1904 1904 1904 1904 0 0 0 0 0 0 0 0 0 0 0 0 0 1038 1034 1032 1031 1031 1033 1033 1034 1035 1035 1036 1038 1039 1041 1042 1044 1045 1046 1048 1050 1051 1053 1054 1055 1056 1057 1059 1060 1062 1064 1065 1066 1068 1069 1070 1072 1073 1074 1076 1077 1078 1079 1080 1081 1082 1082 1083 1083 1084 1084 1084 1083 1082 1080 1078 1075 1074 1072 1068 1066 1066 1066 1067 1069 1071 1072 1072 1074 1074 1077 1083 1089 1089 1090 1094 1099 1104 1104 1108 1112 1115 1118 1121 1121 1121 1123 1123 1123 1121 1118 1112 1112 1112 1115 1115 1115 1111 1111 1111 1113 1113 1113 1112 1112 1112 1113 1115 1119 1122 1126 1132 1140 1149 1152 1160 1168 1173 1175 1178 1182 1185 1187 1189 1191 1193 1194 1196 1198 1200 1201 1203 1203 1204 1205 1205 1205 1203 1202 1202 1201 1199 1194 1181 1169 1158 1151 1151 1145 1137 1136 1136 1136 1137 1137 1138 1138 1138 1138 1138 1138 1138 1138 1142 1149 1164 1187 1207 1229 1251 1259 1261 1261 1264 1265 1267 1268 1270 1273 1274 1277 1279 1281 1281 1281 1283 1285 1286 1286 1286 1283 1277 1268 1265 1263 1262 1262 1262 1274 1287 1294 1296 1297 1305 1317 1319 1320 1322 1324 1328 1332 1335 1338 1340 1344 1346 1348 1350 1353 1355 1357 1359 1361 1361 1364 1366 1369 1370 1371 1372 1386 1405 0 0 0 1622 1649 1654 1659 1659 1659 1660 1660 1664 1669 1675 1681 1686 1693 1698 1703 1707 1709 1710 1710 1710 1709 1708 1706 1703 1701 1700 1699 1699 1699 1697 1696 1695 1692 1690 1688 1685 1680 1676 1672 1668 1665 1656 1652 1652 1652 1652 1652 1650 1647 1645 1644 1644 1644 1644 1644 1641 1640 1640 1640 1639 1639 1638 1636 1635 1635 1634 1634 1634 1634 1634 1634 1633 1633 1632 1632 1632 1631 1631 1629 1627 1625 1624 1622 1621 1618 1615 1611 1608 1605 1603 1603 1603 1601 1597 1593 1592 1590 1590 1590 1590 1590 1588 1585 1583 1579 1576 1575 1575 1574 1574 1574 1574 1574 1574 1574 1575 1576 1576 1576 1568 1559 1544 1506 1477 1449 1425 1396 1377 1367 1357 1339 1327 1319 1316 1315 1297 1281 1274 1273 1273 1273 1273 1273 1273 1273 1273 1271 1263 1257 1257 1257 1259 1261 1261 1261 1257 1255 1248 1243 1237 1236 1236 1236 1236 1236 1232 1224 1213 1203 1196 1196 1196 1195 1195 1193 1191 1188 1186 1186 1186 1186 1184 1174 1174 1170 1163 1142 1136 1127 1123 1106 1097 1086 1076 1069 1069 1069 1072 1072 1072 0 0 0
575 0 0 0 0 0 0 0 838 838 838 827 817 0 0 0 0 0 695 695 695 701 706 716 733 751 766 778 789 792 801 809 818 825 830 839 853 875 0 0 0 0 0 0 0 0 0 0 0 0 0 0 0 0 0 0 0 0 0 0 0 0 1601 1601 1589 1576 1563 1542 1520 0 0 1416 1398 1398 1398 1398 1399 1400 1404 1412 1421 1438 1462 1497 1522 1545 0 0 0 0 0 0 0 2147 2147 2147 2132 2130 2105 2067 2032 2032 2032 2042 2053 2065 2079 2094 2107 2122 2138 2158 2167 2184 2192 2198 2207 2215 2222 2231 2240 2250 2255 2255 2255 2254 2223 2161 0 0 0 0 0 0 0 0 2605 2619 2619 2619 2589 2537 0 0 0 0 1979 1963 1952 1945 1939 1936 1932 1929 1929 1928 1927 1923 1920 1919 1917 1915 1915 1915 1916 1919 1925 1933 1941 1947 1952 1957 1957 1957 1952 1947 1939 1935 1932 1929 1924 1921 1917 1912 1905 1904 1904 1905 1927 0 0 0 0 0 0 0 0 0 0 0 0 0 1037 1031 1031 1031 1031 1031 1033 1034 1034 1035 1036 1037 1039 1040 1042 1043 1045 1046 1048 1049 1050 1052 1053 1054 1055 1057 1059 1059 1062 1063 1065 1066 1067 1068 1070 1072 1073 1074 1076 1077 1078 1079 1080 1081 1082 1082 1083 1083 1083 1083 1083 1082 1081 1080 1078 1075 1073 1069 1065 1065 1065 1065 1066 1068 1068 1069 1069 1070 1070 1074 1076 1080 1085 1085 1088 1089 1091 1095 1095 1098 1106 1117 1119 1120 1121 1123 1123 1124 1124 1124 1120 1120 1120 1122 1122 1122 1120 1118 1118 1118 1118 1118 1116 1116 1116 1116 1119 1124 1127 1129 1134 1142 1151 1154 1159 1168 1174 1175 1178 1181 1184 1186 1188 1191 1192 1194 1196 1198 1199 1201 1202 1203 1204 1204 1204 1204 1203 1202 1201 1200 1198 1191 1177 1166 1158 1153 1151 1146 1137 1136 1136 1136 1137 1137 1137 1138 1138 1138 1138 1138 1138 1138 1142 1149 1163 1188 1209 1230 1251 1259 1261 1261 1264 1266 1268 1269 1271 1273 1275 1277 1279 1281 1281 1282 1283 1285 1286 1286 1286 1283 1277 1267 1252 1239 1232 1232 1232 1252 1255 1258 1272 1281 1287 1298 1310 1316 1320 1322 1328 1331 1334 1336 1340 1341 1344 1348 1350 1352 1354 1356 1358 1359 1361 1363 1366 1368 1370 1371 1373 1386 1405 0 0 0 1622 1647 1652 1654 1655 1656 1656 1660 1664 1669 1675 1682 1689 1695 1701 1705 1708 1709 1710 1710 1710 1710 1710 1707 1704 1701 1700 1700 1699 1699 1697 1696 1694 1692 1689 1688 1683 1680 1676 1672 1668 1665 1659 1655 1653 1653 1652 1652 1650 1647 1645 1645 1645 1645 1645 1645 1642 1641 1641 1641 1640 1640 1639 1637 1637 1636 1636 1636 1636 1634 1634 1634 1634 1634 1634 1634 1633 1632 1631 1629 1628 1627 1626 1625 1621 1617 1613 1610 1607 1605 1604 1603 1603 1600 1597 1594 1592 1591 1591 1590 1590 1590 1588 1585 1583 1579 1576 1574 1574 1574 1574 1574 1573 1573 1573 1574 1575 1575 1575 1572 1568 1560 1556 1536 1507 1475 1449 1418 1394 1378 1364 1350 1338 1320 1319 1315 1297 1281 1274 1273 1273 1273 1273 1273 1274 1275 1275 1275 1271 1265 1265 1264 1264 1264 1264 1263 1261 1259 1254 1246 1239 1236 1236 1235 1235 1234 1230 1224 1214 1203 1196 1196 1194 1193 1193 1190 1187 1187 1186 1186 1186 1186 1186 1185 1184 1183 1168 1143 1138 1137 1134 1129 1120 1096 1079 1069 1062 1062 1062 1062 1062 0 0 0
0 0 0 0 0 0 0 842 842 842 840 827 0 0 0 0 0 690 690 690 695 701 706 716 726 745 763 778 789 792 799 806 812 815 817 822 837 863 0 0 0 0 0 0 0 0 0 0 0 0 0 0 0 0 0 1842 1853 1853 0 0 0 0 1624 1624 1604 1590 1578 1562 1541 1524 0 1432 1416 1406 1403 1400 1400 1400 1400 1406 1420 1437 1462 1496 1522 1545 1566 0 0 0 0 0 0 0 2147 2147 2130 2106 2072 2034 2032 2032 2032 2045 2056 2069 2081 2094 2109 2125 2138 2148 2160 2173 2188 2198 2207 2216 2222 2231 2241 2250 2257 2257 2257 2253 2186 2141 0 0 0 0 0 0 0 2566 2609 2609 2609 2591 2571 2501 0 0 0 1978 1972 1963 1956 1946 1939 1936 1935 1934 1929 1924 1920 1914 1912 1911 1911 1910 1910 1910 1913 1919 1928 1940 1950 1954 1957 1961 1961 1961 1954 1947 1939 1935 1932 1927 1924 1922 1917 1914 1910 1910 1910 1934 0 0 0 0 0 0 0 0 0 0 0 0 0 0 1037 1029 1029 1029 1031 1031 1033 1033 1034 1034 1036 1037 1038 1040 1041 1043 1045 1046 1047 1049 1050 1051 1053 1054 1055 1056 1057 1059 1061 1062 1064 1066 1066 1068 1070 1071 1073 1074 1076 1077 1078 1079 1080 1081 1082 1082 1083 1083 1083 1083 1083 1082 1081 1080 1078 1074 1070 1066 1064 1064 1064 1065 1066 1066 1066 1066 1067 1067 1069 1071 1072 1075 1075 1077 1077 1078 1082 1088 1089 1091 1098 1112 1116 1116 1120 1123 1125 1126 1126 1126 1128 1127 1127 1127 1129 1128 1128 1128 1128 1128 1127 1119 1119 1119 1120 1121 1125 1128 1130 1132 1136 1143 1153 1154 1159 1168 1174 1175 1177 1181 1183 1185 1187 1189 1192 1194 1195 1197 1199 1201 1201 1202 1203 1203 1203 1203 1202 1201 1199 1197 1194 1189 1177 1164 1157 1153 1151 1147 1138 1135 1135 1135 1137 1137 1137 1138 1139 1139 1139 1138 1138 1138 1144 1152 1163 1188 1209 1230 1251 1259 1260 1262 1264 1266 1268 1271 1273 1274 1276 1278 1279 1281 1281 1282 1283 1285 1285 1285 1285 1283 1277 1266 1251 1232 1214 1212 1211 1207 1211 1212 1226 1249 1266 1271 1280 1294 1303 1305 1316 1329 1332 1332 1337 1340 1344 1348 1350 1352 1353 1356 1358 1359 1360 1362 1364 1367 1370 1370 1373 1386 1406 0 0 0 1624 1645 1651 1651 1652 1654 1656 1660 1664 1669 1674 1682 1692 1698 1705 1709 1712 1712 1712 1712 1711 1711 1711 1709 1705 1702 1700 1700 1700 1699 1697 1695 1693 1691 1689 1688 1683 1678 1673 1671 1668 1665 1659 1656 1655 1653 1653 1652 1650 1648 1647 1647 1647 1646 1646 1645 1645 1644 1643 1643 1643 1643 1641 1640 1640 1640 1640 1640 1639 1637 1635 1635 1635 1635 1635 1634 1633 1632 1631 1630 1629 1629 1628 1625 1621 1617 1610 1607 1606 1605 1604 1603 1603 1600 1597 1594 1592 1592 1592 1591 1591 1589 1585 1582 1581 1579 1573 1573 1573 1574 1574 1574 1573 1573 1573 1574 1575 1575 1575 1569 1563 1560 1556 1544 1522 1503 1473 1442 1416 1390 1372 1361 1346 1322 1319 1315 1297 1281 1274 1273 1273 1273 1273 1273 1274 1276 1276 1276 1273 1268 1268 1267 1267 1267 1266 1265 1263 1261 1255 1248 1239 1236 1235 1234 1231 1226 1224 1221 1214 1203 1196 1196 1193 1192 1188 1186 1186 1186 1186 1186 1186 1186 1186 1185 1184 1183 1173 1144 1139 1138 1134 1131 1123 1103 1086 1072 1061 1051 1051 1051 1050 0 0 0
629 0 0 0 0 0 0 846 846 846 840 827 0 0 0 0 676 677 678 689 695 701 706 716 725 741 761 775 784 787 796 802 810 813 814 817 832 857 0 0 0 0 0 0 0 0 0 0 0 0 0 0 0 0 1827 1846 1862 1862 1862 0 0 0 0 1626 1607 1592 1580 1564 1543 1527 0 1433 1417 1407 1404 1400 1399 1399 1399 1406 1420 1433 1444 1466 1489 1514 1538 1541 0 0 0 0 0 0 2130 2130 2111 2087 2041 2026 2026 2026 2035 2045 2058 2069 2081 2095 2109 2125 2137 2144 2154 2165 2182 2196 2207 2216 2221 2231 2241 2250 2257 2257 2257 2242 0 0 0 0 0 0 0 0 0 2566 2589 2589 2589 2533 2510 0 0 0 0 1968 1967 1963 1959 1954 1949 1947 1945 1941 1930 1918 1907 1898 1898 1898 1900 1900 1902 1905 1913 1919 1930 1947 1961 1963 1965 1965 1965 1965 1958 1950 1942 1935 1932 1927 1924 1921 1918 1918 1918 1920 1929 0 0 0 0 0 0 0 0 0 0 0 0 0 0 1042 1035 1028 1028 1028 1031 1031 1032 1032 1033 1034 1035 1037 1038 1040 1041 1042 1043 1045 1047 1048 1050 1051 1052 1054 1055 1055 1057 1058 1060 1062 1063 1065 1066 1068 1069 1071 1073 1074 1075 1076 1078 1079 1080 1081 1081 1082 1082 1083 1083 1083 1083 1082 1081 1079 1076 1072 1068 1065 1062 1062 1062 1063 1063 1064 1064 1064 1064 1066 1066 1068 1071 1072 1073 1073 1074 1075 1079 1083 1088 1091 1097 1106 1111 1116 1120 1123 1125 1126 1130 1131 1131 1132 1132 1132 1132 1131 1131 1131 1132 1132 1132 1127 1127 1126 1127 1129 1131 1134 1137 1137 1137 1146 1153 1155 1159 1167 1173 1175 1177 1179 1182 1184 1187 1188 1191 1193 1195 1197 1198 1200 1201 1202 1203 1203 1203 1202 1201 1200 1199 1197 1192 1187 1177 1164 1155 1153 1151 1147 1141 1135 1135 1135 1137 1137 1137 1138 1139 1141 1141 1141 1141 1141 1148 1156 1163 1188 1210 1230 1250 1258 1260 1262 1264 1267 1269 1271 1273 1275 1276 1279 1279 1281 1282 1282 1283 1285 1285 1285 1284 1283 1277 1265 1250 1232 1209 1204 1202 1201 1201 1201 1201 1203 1218 1233 1235 1249 0 0 1287 1305 1322 1329 1336 1336 1343 1348 1350 1351 1353 1356 1357 1359 1360 1362 1363 1364 1367 1370 1373 1392 1414 0 0 0 1628 1645 1645 1648 1651 1654 1656 1660 1664 1669 1674 1682 1692 1698 1705 1709 1712 1713 1713 1713 1713 1713 1712 1710 1705 1702 1700 1700 1700 1699 1697 1695 1691 1691 1689 1688 1683 1678 1673 1669 1666 1663 1659 1656 1655 1653 1653 1653 1652 1650 1649 1649 1649 1647 1646 1646 1646 1646 1644 1644 1644 1644 1644 1643 1643 1643 1643 1643 1641 1640 1637 1636 1636 1635 1635 1634 1633 1632 1632 1631 1631 1631 1629 1625 1622 1617 1610 1606 1606 1605 1605 1603 1602 1600 1597 1595 1594 1593 1593 1593 1592 1588 1585 1582 1580 1575 1572 1572 1572 1573 1573 1573 1571 1571 1571 1573 1574 1574 1574 1569 1561 1559 1557 1546 1529 1510 1489 1463 1428 1398 1382 1366 1351 1324 1307 1304 1294 1287 1286 1283 1281 1280 1280 1279 1279 1279 1279 1279 1278 1271 1271 1271 1271 1271 1270 1268 1265 1262 1255 1250 1241 1236 1236 1235 1231 1225 1223 1221 1213 1203 1196 1195 1193 1191 1187 1185 1185 1185 1185 1185 1185 1185 1185 1185 1184 1183 1173 1160 1142 1139 1134 1131 1123 1103 1086 1076 1064 1051 1044 1044 1041 0 0 0
650 650 0 0 0 0 0 0 839 839 820 0 0 0 0 651 651 659 673 689 699 707 714 717 725 735 751 766 776 779 794 802 810 813 814 817 832 856 0 0 0 0 0 0 0 0 0 0 0 0 0 0 0 0 1827 1846 1863 1863 1863 1852 0 0 0 0 1628 1607 1592 1573 1554 1545 0 0 1445 1427 1415 1406 1399 1399 1399 1406 1421 1433 1444 1449 1462 1478 1500 1503 0 0 0 0 0 0 0 2089 2089 2064 2029 2029 2029 2032 2042 2052 2059 2070 2082 2095 2109 2125 2136 2138 2148 2164 2179 2193 2207 2216 2221 2231 2241 2250 2254 2254 2254 0 0 0 0 0 0 0 0 0 0 2578 2578 2578 2555 0 0 0 0 0 1973 1968 1967 1963 1962 1960 1958 1958 1958 1948 1931 1918 1907 1896 1896 1896 1898 1899 1902 1905 1913 1923 1940 1960 1972 1972 1972 1972 1972 1969 1964 1955 1947 1939 1932 1927 1925 1921 1921 1921 1921 1931 1946 0 0 0 0 0 2551 0 0 0 0 0 0 0 0 1042 1027 1027 1027 1028 1030 1031 1031 1032 1033 1034 1035 1036 1038 1039 1041 1042 1043 1045 1046 1047 1049 1050 1051 1052 1053 1054 1056 1058 1060 1061 1062 1064 1065 1067 1069 1071 1072 1074 1075 1076 1078 1078 1079 1080 1081 1082 1082 1082 1082 1082 1082 1082 1080 1079 1075 1072 1068 1063 1061 1061 1061 1061 1061 1062 1062 1062 1063 1063 1063 1065 1069 1071 1072 1073 1073 1075 1077 1082 1086 1090 1097 1105 1110 1116 1120 1123 1126 1129 1133 1133 1134 1136 1138 1138 1138 1137 1137 1137 1138 1138 1138 1139 1138 1138 1139 1140 1144 1144 1146 1147 1147 1147 1153 1156 1160 1167 1172 1174 1176 1179 1182 1183 1185 1187 1189 1191 1194 1196 1198 1200 1201 1201 1202 1202 1202 1202 1201 1199 1199 1197 1191 1186 1177 1164 1152 1151 1147 1144 1141 1137 1137 1137 1136 1137 1137 1137 1139 1141 1143 1147 1148 1148 1152 1163 1175 1194 1214 1234 1249 1255 1259 1263 1264 1267 1269 1271 1273 1275 1277 1279 1280 1281 1282 1282 1283 1284 1284 1284 1284 1283 1277 1265 1249 1231 1209 1201 1200 1195 1195 1191 1191 1191 1197 1201 1203 1206 1224 1227 1233 1269 1300 1315 1325 1333 1342 1347 1349 1351 1353 1355 1357 1358 1360 1361 1361 1362 1366 1369 1372 1394 1420 0 0 0 1634 1645 1645 1648 1651 1655 1658 1660 1664 1668 1673 1682 1692 1698 1705 1709 1712 1713 1714 1714 1715 1715 1715 1714 1711 1704 1703 1701 1700 1699 1697 1695 1691 1691 1689 1687 1683 1678 1673 1669 1666 1662 1659 1656 1655 1653 1653 1653 1652 1650 1649 1649 1649 1649 1648 1648 1648 1647 1646 1645 1645 1645 1644 1644 1644 1643 1643 1643 1643 1641 1639 1638 1637 1636 1636 1634 1633 1631 1631 1631 1631 1631 1629 1626 1622 1617 1610 1606 1606 1605 1605 1603 1602 1600 1598 1596 1595 1594 1594 1593 1591 1588 1585 1582 1580 1575 1571 1571 1571 1571 1570 1570 1570 1570 1570 1570 1570 1570 1569 1564 1560 1558 1556 1549 1535 1520 1506 1475 1430 1402 1391 1373 1353 1324 1307 1304 1294 1290 1290 1289 1288 1287 1287 1288 1288 1288 1288 1288 1281 1276 1276 1275 1275 1275 1272 1271 1266 1263 1256 1250 1245 1243 1240 1236 1231 1225 1221 1219 1213 1203 1196 1195 1193 1191 1187 1185 1183 1182 1182 1182 1182 1182 1182 1182 1181 1180 1173 1160 1142 1139 1134 1131 1123 1103 1086 1076 1064 1051 1042 1042 1041 0 0 0
650 650 0 0 0 0 0 0 0 0 0 0 0 0 648 648 648 657 673 688 699 708 715 718 725 735 750 764 775 778 788 801 810 813 814 817 831 850 0 0 0 0 0 0 0 0 0 0 0 0 0 0 0 0 0 1846 1863 1874 1874 1874 0 0 0 0 0 0 1601 1583 1565 1556 1552 0 0 1446 1424 1410 1402 1402 1402 1409 1422 1433 1444 1445 1447 1451 1467 1470 0 0 0 0 0 0 0 0 2044 2044 2026 2026 2026 2032 2042 2052 2060 2073 2084 2095 2107 2119 2126 2136 2148 2164 2178 2192 2200 2210 2213 2222 2232 2241 2246 2246 2246 0 0 0 0 0 0 0 0 0 2556 2569 2569 2569 2531 0 0 0 0 1982 1973 1968 1968 1968 1968 1968 1967 1967 1959 1948 1931 1918 1907 1896 1896 1896 1898 1899 1902 1905 1916 1932 1955 1976 1976 1976 1976 1974 1972 1969 1964 1955 1949 1942 1938 1933 1929 1922 1922 1922 1928 1941 0 0 0 0 0 2611 2611 2611 0 0 0 0 0 0 0 1040 1027 1027 1027 1028 1030 1031 1031 1031 1033 1033 1035 1035 1037 1039 1040 1042 1043 1045 1046 1046 1048 1050 1050 1052 1053 1054 1056 1057 1059 1061 1062 1064 1065 1067 1069 1070 1072 1074 1074 1076 1077 1078 1079 1080 1081 1082 1082 1082 1082 1082 1082 1082 1080 1078 1074 1071 1068 1063 1059 1059 1058 1059 1059 1059 1059 1061 1061 1061 1061 1063 1066 1069 1071 1072 1072 1074 1077 1080 1086 1090 1095 1100 1108 1116 1120 1124 1126 1130 1133 1134 1135 1137 1138 1139 1140 1141 1141 1142 1144 1144 1144 1143 1141 1141 1141 1142 1148 1150 1150 1150 1151 1153 1154 1157 1160 1167 1171 1173 1176 1177 1179 1181 1183 1185 1187 1190 1192 1195 1196 1198 1198 1200 1201 1201 1201 1201 1201 1199 1199 1197 1191 1186 1177 1161 1148 1147 1146 1143 1141 1137 1137 1137 1136 1136 1137 1137 1138 1141 1143 1147 1149 1154 1157 1163 1178 1202 1214 1236 1249 1255 1259 1263 1265 1267 1269 1271 1273 1275 1277 1279 1280 1281 1282 1283 1283 1283 1283 1283 1283 1282 1277 1263 1249 1231 1206 1197 1197 1190 1190 1189 1189 1189 1194 1194 1195 1195 1195 1203 1216 1235 1274 1292 1315 1329 1340 1347 1349 1349 1352 1355 1356 1358 1358 1360 1360 1360 1363 1364 1372 1399 1420 0 0 0 1638 1645 1645 1648 1656 1660 1661 1663 1664 1668 1670 1677 1686 1694 1702 1708 1712 1713 1714 1714 1717 1718 1718 1718 1715 1708 1706 1704 1701 1699 1697 1695 1691 1689 1687 1682 1682 1678 1673 1669 1666 1662 1659 1656 1655 1653 1653 1653 1652 1651 1650 1650 1650 1650 1650 1650 1649 1647 1647 1647 1647 1646 1645 1645 1645 1645 1645 1644 1643 1641 1640 1638 1637 1636 1636 1634 1631 1631 1631 1631 1631 1631 1629 1625 1622 1620 1610 1607 1606 1605 1605 1603 1602 1601 1599 1598 1596 1595 1594 1594 1591 1588 1585 1582 1580 1575 1571 1570 1569 1569 1568 1567 1567 1567 1567 1567 1567 1567 1562 1556 1556 1555 1554 1550 1541 1529 1518 1493 1459 1422 1401 1374 1354 1324 1307 1304 1294 1293 1292 1292 1292 1292 1293 1297 1300 1300 1300 1294 1284 1280 1277 1276 1276 1276 1273 1271 1266 1263 1257 1251 1248 1247 1247 1244 1238 1226 1220 1215 1212 1208 1203 1195 1193 1191 1187 1185 1181 1181 1181 1178 1175 1175 1175 1175 1175 1175 1169 1160 1142 1139 1134 1127 1114 1098 1086 1076 1064 1051 1033 1033 1030 0 0 0
680 680 0 0 0 0 0 0 0 0 0 0 0 0 635 635 635 647 666 684 699 708 715 720 725 734 746 758 769 772 785 799 810 815 820 821 831 850 0 0 0 0 0 0 0 0 0 0 0 0 0 0 0 0 0 0 1863 1880 1884 1884 1884 0 0 0 0 0 0 1612 1596 1574 1564 1545 0 0 1459 1425 1411 1411 1411 1419 1435 1445 1445 1445 1446 1446 1446 1447 1469 0 0 0 0 0 0 0 0 2021 2023 2024 2026 2032 2042 2052 2062 2074 2085 2095 2103 2112 2125 2136 2148 2163 2177 2188 2192 2196 2202 2214 2224 2233 2233 2233 0 0 0 0 0 0 0 0 0 2522 2572 2572 2572 2552 2503 0 0 0 1995 1981 1975 1974 1974 1975 1975 1975 1975 1970 1959 1948 1931 1920 1911 1896 1896 1896 1898 1899 1902 1910 1926 1946 1978 1980 1980 1980 1976 1974 1972 1969 1964 1955 1949 1948 1947 1943 1936 1928 1928 1928 1934 0 0 0 0 0 2643 2663 2663 2663 0 0 0 0 0 0 0 1040 1027 1027 1027 1029 1030 1031 1031 1031 1032 1033 1035 1035 1037 1038 1040 1042 1043 1044 1045 1046 1048 1049 1050 1051 1052 1054 1055 1057 1058 1060 1061 1063 1065 1066 1068 1070 1072 1073 1074 1075 1076 1078 1079 1080 1081 1081 1082 1082 1082 1082 1081 1081 1079 1077 1073 1068 1062 1059 1056 1056 1056 1056 1057 1057 1057 1058 1058 1059 1059 1060 1063 1066 1068 1069 1071 1072 1075 1079 1084 1090 1094 1097 1107 1116 1121 1124 1127 1130 1133 1136 1137 1139 1139 1140 1142 1143 1144 1144 1146 1147 1147 1147 1146 1145 1145 1145 1149 1151 1152 1152 1153 1154 1154 1157 1160 1164 1167 1171 1174 1176 1178 1179 1180 1184 1185 1187 1190 1193 1195 1196 1197 1197 1199 1199 1200 1200 1200 1199 1199 1197 1190 1185 1177 1160 1148 1143 1141 1141 1138 1137 1137 1137 1136 1136 1136 1136 1136 1136 1143 1147 1149 1154 1159 1163 1179 1207 1225 1240 1250 1255 1259 1263 1265 1267 1269 1271 1273 1275 1278 1279 1280 1282 1282 1283 1283 1283 1283 1283 1282 1282 1277 1257 1241 1227 1206 1190 1190 1188 1188 1189 1189 1189 1194 1194 1195 1195 1195 1203 1216 1235 1252 1285 1313 1326 1338 1345 1347 1347 1350 1354 1355 1357 1357 1358 1358 1359 1362 1363 1372 1402 1420 0 0 0 1651 1655 1658 1659 1660 1661 1662 1663 1665 1668 1670 1673 1678 1684 1691 1699 1705 1709 1710 1714 1717 1719 1719 1719 1719 1718 1711 1705 1701 1699 1699 1696 1693 1689 1687 1682 1680 1678 1673 1670 1666 1662 1659 1656 1655 1653 1653 1653 1652 1652 1650 1650 1650 1651 1651 1651 1649 1649 1649 1648 1648 1648 1648 1648 1648 1647 1647 1646 1643 1642 1641 1639 1639 1636 1636 1634 1631 1631 1631 1630 1629 1629 1628 1625 1624 1621 1617 1612 1610 1609 1607 1605 1603 1602 1601 1599 1597 1596 1595 1594 1591 1589 1587 1584 1582 1576 1572 1569 1568 1566 1564 1564 1564 1565 1566 1566 1566 1562 1558 1555 1555 1554 1554 1550 1543 1535 1521 1500 1482 1460 1435 1385 1354 1331 1314 1310 1302 1299 1299 1299 1302 1305 1313 1313 1313 1308 1307 1300 1290 1288 1286 1284 1282 1278 1275 1272 1266 1263 1257 1252 1251 1251 1251 1247 1242 1226 1220 1215 1212 1210 1208 1205 1199 1194 1189 1186 1181 1180 1177 1174 1173 1171 1171 1171 1170 1170 1168 1160 1142 1137 1133 1117 1107 1093 1083 1076 1064 1042 1015 1015 1013 0 0 0
702 702 702 0 0 0 0 0 0 0 0 0 0 624 624 624 624 636 657 675 692 707 714 720 725 734 743 752 766 769 785 797 809 815 820 822 831 850 881 912 0 0 0 0 0 0 0 0 0 0 0 0 0 0 0 0 0 1880 1896 1896 1896 1886 1867 1866 0 0 0 0 1608 1596 1584 1576 1543 0 0 1464 1432 1430 1430 1430 1438 1445 1445 1445 1446 1446 1446 1447 1456 1481 1500 1512 0 0 0 0 0 2008 2019 2021 2026 2033 2042 2052 2062 2074 2085 2095 2103 2112 2125 2136 2150 2163 2176 2184 2185 2191 2195 2202 2202 2202 2198 2197 0 0 0 0 0 0 0 0 0 2550 2568 2568 2568 2523 0 0 0 0 1986 1979 1979 1979 1979 1981 1981 1981 1980 1971 1959 1946 1931 1923 1919 1916 1906 1906 1906 1906 1909 1916 1931 1967 1981 1981 1981 1980 1976 1974 1971 1968 1961 1955 1951 1951 1950 1948 1946 1938 1938 1938 1952 0 0 0 0 2621 2698 2698 2698 2675 0 0 0 0 0 0 0 1038 1028 1028 1028 1029 1031 1031 1031 1031 1032 1033 1034 1035 1037 1038 1040 1041 1043 1043 1044 1046 1048 1049 1049 1051 1052 1053 1055 1056 1058 1059 1061 1062 1064 1066 1068 1070 1071 1072 1074 1075 1076 1077 1079 1079 1080 1081 1081 1082 1082 1082 1081 1080 1079 1075 1073 1068 1061 1056 1055 1054 1054 1054 1054 1054 1055 1055 1056 1056 1058 1059 1061 1062 1064 1066 1067 1068 1072 1076 1080 1088 1091 1092 1106 1117 1121 1124 1128 1131 1133 1136 1138 1140 1141 1142 1143 1145 1146 1146 1147 1149 1149 1149 1149 1150 1150 1152 1153 1154 1157 1157 1157 1158 1158 1158 1159 1161 1165 1170 1174 1175 1178 1179 1180 1183 1185 1186 1188 1191 1192 1194 1194 1195 1196 1198 1198 1198 1199 1199 1198 1196 1190 1185 1174 1159 1152 1143 1141 1139 1135 1135 1135 1135 1136 1136 1136 1133 1133 1133 1138 1143 1149 1155 1160 1166 1180 1207 1229 1241 1250 1255 1259 1263 1265 1267 1269 1271 1273 1275 1277 1279 1280 1282 1282 1283 1283 1283 1282 1281 1281 1276 1267 1257 1240 1222 1206 1185 1185 1185 1185 1185 1186 1189 1192 1192 1195 1195 1195 1203 1216 1235 1252 1285 1311 1324 1338 1343 1345 1347 1349 1352 1354 1356 1356 1357 1357 1359 1362 1363 1374 1402 1410 0 0 0 1660 1670 1670 1670 1666 1663 1663 1663 1667 1669 1670 1673 1677 1682 1689 1696 1703 1705 1708 1713 1717 1719 1722 1723 1723 1723 1716 1707 1703 1702 1701 1699 1695 1689 1687 1682 1680 1678 1673 1670 1668 1664 1660 1657 1655 1653 1653 1653 1653 1652 1651 1651 1651 1651 1651 1651 1651 1650 1650 1650 1650 1650 1650 1650 1650 1649 1648 1647 1645 1643 1642 1640 1640 1638 1637 1634 1631 1631 1631 1630 1629 1627 1627 1625 1624 1622 1618 1614 1612 1609 1607 1607 1606 1604 1603 1600 1599 1597 1595 1593 1591 1590 1589 1587 1584 1578 1572 1569 1566 1561 1559 1559 1559 1563 1566 1566 1566 1562 1558 1554 1554 1554 1553 1550 1543 1535 1521 1500 1482 1460 1435 1405 1358 1337 1320 1318 1307 1303 1303 1303 1308 1318 1322 1322 1322 1317 1313 1305 1296 1296 1294 1293 1287 1280 1276 1273 1268 1265 1259 1254 1251 1251 1251 1247 1242 1230 1220 1215 1213 1211 1211 1209 1205 1198 1191 1188 1183 1177 1175 1173 1172 1170 1168 1168 1165 1163 1162 1157 1141 1127 1122 1106 1096 1088 1079 1068 1053 1042 1015 1009 1007 0 0 0
702 702 702 0 0 0 0 0 0 0 0 610 607 607 607 607 607 620 643 663 683 701 712 721 727 734 743 752 766 769 785 797 806 815 821 826 834 852 886 911 938 0 0 0 0 0 0 0 0 0 0 0 0 0 0 0 0 0 1898 1909 1909 1909 1892 1892 0 0 0 0 1622 1612 1606 1597 1591 1556 0 0 1455 1449 1439 1439 1439 1445 1445 1445 1446 1446 1446 1447 1456 1477 1482 1494 1506 0 0 0 0 0 2007 2018 2026 2033 2042 2052 2062 2076 2086 2095 2103 2112 2125 2141 2153 2163 2172 2180 2185 2191 2195 2202 2202 2202 2178 2177 0 0 0 0 0 0 0 0 0 0 2550 2550 2547 0 0 0 0 1979 1979 1979 1979 1980 1980 1983 1983 1983 1983 1972 1958 1944 1931 1924 1924 1918 1914 1912 1912 1912 1916 1927 1956 1972 1979 1979 1979 1975 1970 1970 1969 1966 1961 1955 1952 1952 1952 1952 1952 1954 1954 1955 0 0 0 0 0 2668 2700 2700 2700 2630 0 0 0 0 0 0 0 1038 1028 1028 1028 1029 1031 1031 1031 1031 1032 1033 1034 1035 1036 1038 1039 1040 1042 1043 1044 1046 1047 1049 1049 1050 1052 1053 1054 1056 1057 1059 1060 1062 1063 1065 1067 1069 1070 1072 1074 1075 1076 1077 1078 1079 1080 1081 1081 1081 1081 1081 1081 1080 1076 1073 1072 1067 1061 1056 1053 1053 1053 1053 1053 1053 1053 1053 1055 1055 1055 1057 1059 1061 1061 1063 1064 1066 1068 1072 1078 1087 1091 1092 1106 1118 1121 1124 1129 1131 1134 1136 1139 1141 1141 1143 1144 1146 1146 1148 1148 1150 1151 1151 1152 1152 1153 1155 1155 1156 1158 1158 1158 1158 1158 1158 1158 1160 1165 1167 1168 1170 1174 1177 1179 1182 1185 1186 1188 1188 1190 1191 1191 1193 1194 1196 1196 1197 1197 1197 1197 1195 1190 1183 1171 1156 1152 1143 1141 1139 1135 1133 1133 1133 1134 1134 1134 1133 1133 1133 1137 1141 1148 1156 1163 1169 1181 1211 1230 1245 1253 1255 1259 1263 1265 1268 1269 1271 1273 1275 1277 1279 1280 1282 1282 1282 1282 1282 1282 1281 1280 1274 1265 1253 1239 1214 1191 1185 1184 1184 1184 1184 1184 1185 1191 1192 1192 1194 1195 1204 1224 1241 1252 1283 1307 1322 1336 1343 1345 1347 1349 1351 1354 1356 1356 1357 1357 1359 1360 1363 1374 1402 1410 0 0 1622 1662 1672 1672 1672 1666 1664 1664 1664 1668 1670 1671 1673 1677 1682 1689 1696 1702 1705 1708 1712 1717 1719 1722 1724 1724 1724 1722 1713 1708 1706 1706 1705 1701 1694 1687 1682 1679 1676 1673 1670 1668 1666 1665 1661 1658 1657 1655 1654 1653 1653 1653 1653 1653 1653 1653 1653 1653 1653 1653 1651 1651 1651 1651 1651 1650 1649 1648 1648 1647 1646 1644 1644 1642 1641 1640 1636 1635 1634 1634 1631 1629 1627 1627 1625 1624 1622 1620 1617 1614 1613 1609 1608 1608 1607 1605 1602 1602 1600 1598 1593 1591 1590 1589 1587 1584 1578 1574 1569 1566 1561 1559 1559 1559 1561 1566 1566 1566 1562 1558 1553 1553 1551 1548 1543 1542 1535 1521 1500 1482 1460 1435 1407 1377 1342 1327 1325 1313 1313 1313 1313 1324 1326 1326 1326 1322 1318 1315 1311 1310 1306 1304 1296 1289 1283 1278 1275 1273 1269 1265 1258 1251 1251 1251 1247 1242 1233 1226 1220 1216 1215 1214 1214 1208 1203 1195 1192 1183 1177 1175 1172 1171 1168 1165 1164 1163 1163 1155 1134 1118 1096 1090 1082 1078 1076 1073 1062 1053 1042 1015 1007 1005 0 0 0
