837 837 838 855 870 895 913 933 956 976 992 1013 1040 1063 1066 1090 1113 1134 1154 1172 1189 1203 1218 1230 1244 1258 1269 1278 1282 1292 1303 1314 1322 1328 1333 1339 1347 1357 1368 1375 1381 1387 1396 1399 1405 1407 1407 1407 1390 0 0 0 0 0 0 1391 1416 1447 1457 1462 1466 1473 1487 1491 1491 1493 1496 1499 1501 1501 1501 1501 1501 1500 1481 1437 1420 1409 1376 1376 1376 1385 1417 1450 1460 1460 1460 1432 1400 1400 0 0 0 0 0 0 0 0 0 0 0 0 0 0 0 0 0 0 0 1578 1578 1578 1559 0 0 0 0 0 0 1336 1332 1332 1331 1331 1331 1326 1293 1246 1246 1246 1255 1283 0 1373 1393 1415 1430 1442 1461 0 0 0 0 0 0 0 0 0 1058 1058 1071 1057 1057 1057 1048 1048 1048 1077 1086 1101 1131 1131 1131 1116 1100 1080 1051 1041 1041 1041 0 0 0 0 0 0 0 0 0 0 0 0 0 0 0 0 0 0 0 0 0 0 1261 1237 1236 1232 1232 1231 1231 1231 1230 1230 1229 1228 1227 1226 1225 1224 1222 1221 1220 1219 1217 1213 1210 1209 1203 1195 1179 1141 1104 1073 1066 1062 1062 1060 1058 1055 1054 1053 1053 1052 1052 1052 1052 1053 1060 1075 1083 1095 1118 1133 1146 1154 1156 1156 1156 1157 1157 1157 1157 1156 1155 1154 1151 1150 1148 1146 1145 1143 1140 1138 1135 1131 1127 1119 1103 1087 1075 1069 1065 1061 1060 1057 1054 1052 1051 1050 1049 1049 1048 1048 1048 1048 1049 1050 1053 1055 1058 1060 1062 1067 1070 1073 1077 1078 1078 1079 1079 1079 1078 1077 1076 1074 1073 1071 1069 1068 1066 1065 1062 1061 1059 1057 1055 1052 1050 1047 1044 1040 1034 1028 1021 1016 1011 1006 1002 1000 997 995 994 992 991 989 987 986 984 983 982 980 979 979 979 980 981 982 984 986 988 990 992 994 995 996 997 997 997 997 996 995 995 994 993 991 990 988 987 986 986 984 981 980 979 978 978 978 976 973 971 969 965 962 961 960 957 950 945 942 937 935 931 929 927 925 923 921 920 919 918 917 916 915 914 913 912 911 911 910 910 910 910 910 909 909 909 909 909 909 910 912 912 0 0 0 0 0 0 0 0 0 0 0 0 0 0 0 0 0 0 0 0 0 0 0 0 0 0 0 0 0 0 0 0 0 0 0 0 0 0 0 0 878 878 877 872 871 870 870 870 869 869 868 867 866 864 863 863 863 863 862 861 861 860 860 860 860 859 859 859 858 858 857 857 855 855 854 854 853 852 852 852 852 851 0 0 0 0 0 0 0 0 0 0 0 0 0 0 0 0 0 0 0 0 0 0 0 0 0 0 0 0 0 0 0 0 0 0 0 0 0 0 0 0 0 0 0 0 0 0 0 0 0 0 0 807 807 807 807 807 806 805 804 804 803 802 801 800 799 799 798 797 796 795 794 794 793 792 791 790 790 789 788 787 786 786 785 784 783 782 781 780 780 779 778 777 775 774 773 773 772 772 772 772 772 773 774 775 778 782 789 800 816 819 826 828 830 830 831 831 831 829 826 824 822 821 820 820 819 819 819 819 818 816 813 811 811 811 811 816 0
839 839 840 860 880 904 922 944 961 979 997 1018 1045 1069 1089 1094 1113 1135 1154 1176 1193 1210 1222 1232 1244 1259 1269 1278 1282 1290 1300 1311 1321 1327 1334 1340 1350 1359 1368 1375 1381 1388 1397 1400 1406 1407 1407 1407 1392 0 0 0 0 0 0 0 1418 1447 1457 1462 1466 1473 1487 1494 1494 1494 1498 1502 1504 1504 1504 1503 1501 1500 1481 1437 1420 1409 1376 1376 1376 1388 1429 1459 1460 1460 1460 1455 1455 1455 0 0 0 0 0 0 0 0 0 0 0 0 0 0 0 0 0 0 0 0 0 0 0 0 0 0 0 1357 1349 1336 1332 1332 1330 1329 1327 1303 1261 1219 1219 1219 1261 1306 1347 1377 1399 1421 1437 1448 0 0 0 0 0 0 0 0 0 1084 1058 1058 1071 1057 1057 1057 1048 1048 1048 1085 1099 1119 1147 1147 1147 1116 1100 1055 1043 1041 1041 0 0 0 0 0 0 0 0 0 0 0 0 0 0 0 0 0 0 0 0 0 0 0 1261 1244 1237 1233 1232 1231 1231 1231 1230 1229 1229 1228 1227 1226 1225 1224 1222 1221 1219 1219 1217 1213 1210 1209 1204 1196 1179 1145 1104 1073 1066 1064 1062 1061 1059 1056 1055 1055 1055 1055 1056 1056 1056 1057 1064 1079 1088 1099 1118 1135 1147 1155 1156 1156 1156 1156 1156 1156 1156 1155 1153 1152 1151 1148 1147 1145 1143 1141 1138 1136 1133 1131 1125 1116 1103 1087 1077 1073 1067 1062 1060 1057 1055 1053 1052 1051 1050 1050 1050 1050 1050 1050 1050 1052 1054 1055 1059 1060 1062 1067 1070 1074 1076 1077 1078 1078 1078 1078 1077 1076 1076 1074 1072 1070 1068 1067 1065 1064 1062 1060 1058 1056 1054 1052 1049 1047 1044 1039 1034 1028 1021 1015 1010 1006 1002 1000 997 995 993 992 991 991 989 987 986 984 982 981 980 980 980 980 981 982 984 986 988 990 992 994 995 996 997 997 997 996 996 995 995 993 992 991 990 988 987 986 985 984 981 979 979 978 977 976 975 973 971 969 965 959 959 958 955 949 944 941 938 935 931 929 927 925 923 922 920 919 918 917 917 916 915 913 913 911 911 911 911 911 911 910 910 909 909 909 909 909 910 912 912 0 0 0 0 0 0 0 0 0 0 0 0 0 0 0 0 0 0 0 0 0 0 0 0 0 0 0 0 0 0 0 0 0 0 0 0 0 0 0 0 874 874 871 870 870 870 870 870 869 868 867 866 865 864 863 863 862 861 861 861 860 860 860 860 860 859 859 858 858 858 857 856 855 854 854 854 853 852 852 852 851 851 0 0 0 0 0 0 0 0 0 0 0 0 0 0 0 0 0 0 0 0 0 0 0 0 0 0 0 0 0 0 0 0 0 0 0 0 0 0 0 0 0 0 0 0 0 0 0 0 0 0 807 806 806 806 806 806 806 805 804 803 803 802 801 800 799 799 797 797 796 795 794 793 793 792 791 790 789 788 787 787 786 785 784 784 783 782 781 780 779 778 777 776 775 774 773 772 772 772 772 772 772 773 774 775 778 781 786 799 815 818 823 826 827 827 827 827 826 825 825 823 822 821 819 819 819 818 818 818 818 816 813 808 808 808 807 816 0
842 842 844 864 886 910 934 953 970 986 1006 1026 1049 1070 1091 1096 1117 1139 1159 1179 1195 1211 1224 1235 1246 1259 1269 1278 1282 1290 1298 1307 1317 1326 1334 1341 1350 1363 1370 1376 1382 1388 1397 1400 1406 1411 1411 1411 1403 0 0 0 0 0 0 0 1418 1450 1454 1465 1469 1474 1487 1495 1495 1498 1499 1503 1506 1508 1508 1508 1503 1502 1501 1501 1483 0 0 0 0 1455 1472 1472 1472 1467 1467 1467 1478 1503 0 0 0 0 0 0 0 0 0 0 0 0 0 0 0 0 0 0 0 0 0 0 0 0 0 0 1346 1346 1340 1336 1332 1332 1330 1330 1327 1298 1236 1234 1234 1234 1288 1323 1356 1382 1408 1428 1443 1454 0 0 0 0 0 0 0 0 0 1058 1050 1050 1050 1057 1057 1057 1045 1045 1045 1101 1123 1144 1147 1147 1147 1127 1100 1055 1043 1043 1043 0 0 0 0 0 0 0 0 0 0 0 0 0 0 0 0 0 0 0 0 0 0 0 1259 1258 1243 1233 1233 1232 1232 1231 1230 1229 1228 1228 1227 1225 1225 1224 1222 1221 1219 1217 1216 1213 1210 1209 1204 1197 1181 1146 1104 1073 1066 1064 1063 1062 1061 1060 1058 1058 1058 1058 1059 1059 1059 1060 1068 1081 1095 1114 1128 1138 1148 1156 1157 1157 1157 1156 1156 1155 1155 1153 1153 1150 1149 1147 1145 1143 1141 1138 1136 1133 1131 1128 1123 1116 1103 1087 1079 1073 1068 1065 1062 1059 1055 1053 1052 1052 1052 1052 1052 1052 1052 1052 1052 1052 1054 1056 1059 1061 1062 1068 1071 1074 1076 1077 1078 1078 1078 1078 1076 1076 1075 1073 1072 1069 1067 1066 1064 1062 1061 1059 1057 1055 1053 1051 1048 1046 1042 1038 1032 1027 1021 1015 1009 1006 1002 1000 997 995 993 992 992 991 990 988 987 985 985 982 981 980 980 980 981 982 983 986 988 990 992 994 995 996 996 996 996 996 996 994 994 993 992 990 989 987 986 985 984 982 981 979 978 977 976 974 973 971 971 969 965 958 955 955 952 949 944 941 938 936 931 929 927 926 924 922 920 920 919 918 917 916 915 914 913 912 912 911 911 911 911 911 911 909 909 909 909 910 910 912 912 0 0 0 0 0 0 0 0 0 0 0 0 0 0 0 0 0 0 0 0 0 0 0 0 0 0 0 0 0 0 0 0 0 0 0 0 0 0 0 0 871 871 871 870 870 869 869 869 869 868 867 866 864 863 863 861 861 860 860 860 860 859 859 859 859 858 858 858 857 856 856 855 854 854 854 854 853 852 851 850 849 849 0 0 0 0 0 0 0 0 0 0 0 0 0 0 0 0 0 0 0 0 0 0 0 0 0 0 0 0 0 0 0 0 0 0 0 0 0 0 0 0 0 0 0 0 0 0 0 0 0 807 807 806 806 806 806 805 805 805 804 804 803 802 801 800 799 798 797 796 796 795 794 793 792 791 791 790 789 788 787 786 785 785 784 784 783 781 781 780 779 778 777 776 775 774 773 772 772 772 772 772 772 773 774 775 777 780 786 797 812 815 821 824 824 824 824 824 823 823 823 823 822 821 819 818 818 818 818 817 817 816 813 808 808 808 807 809 0
850 850 868 869 893 920 944 961 977 996 1015 1034 1054 1074 1096 1101 1121 1142 1163 1179 1196 1212 1224 1236 1250 1261 1269 1278 1284 1290 1298 1307 1317 1326 1335 1344 1356 1364 1371 1377 1382 1388 1397 1402 1406 1411 1411 1411 1407 0 0 0 0 0 0 0 1418 1452 1453 1465 1473 1474 1489 1496 1498 1499 1500 1505 1508 1510 1510 1510 1510 1509 1509 1509 1508 0 0 0 0 1476 1472 1472 1472 1467 1467 1467 1478 1505 0 0 0 0 0 0 0 0 0 0 0 0 0 0 0 0 0 0 0 0 0 0 0 0 0 1325 1336 1343 1343 1343 1338 1336 1332 1332 1319 1275 1228 1228 1228 1251 1297 1331 1364 1390 1414 1437 1453 1472 0 0 0 0 0 0 0 0 0 1055 1050 1050 1050 1057 1057 1057 1057 1057 1057 1104 1123 1144 1147 1147 1147 1129 1114 1055 1045 1045 1045 0 0 0 0 0 0 0 0 0 0 0 0 0 0 0 0 0 0 0 0 0 0 0 1259 1254 1243 1235 1235 1233 1232 1230 1230 1229 1228 1227 1226 1225 1224 1223 1222 1221 1219 1217 1216 1213 1210 1209 1207 1198 1181 1146 1108 1077 1069 1065 1065 1064 1064 1063 1062 1062 1062 1063 1063 1063 1063 1064 1068 1082 1100 1117 1130 1143 1152 1156 1156 1156 1156 1155 1155 1154 1153 1152 1151 1149 1148 1145 1144 1142 1140 1137 1134 1131 1130 1126 1122 1115 1103 1088 1080 1073 1069 1067 1065 1061 1058 1055 1054 1053 1053 1053 1053 1053 1054 1054 1054 1055 1055 1056 1061 1063 1066 1069 1072 1074 1076 1077 1077 1077 1077 1077 1076 1075 1074 1072 1070 1068 1067 1064 1063 1062 1060 1058 1056 1054 1052 1050 1047 1045 1041 1037 1032 1027 1021 1015 1009 1006 1003 1000 998 996 993 992 992 991 990 989 988 987 985 983 982 981 981 981 981 981 983 985 988 991 992 994 995 996 996 996 996 996 995 994 994 992 991 990 988 987 986 985 983 982 981 979 978 975 974 974 972 971 968 965 962 958 955 955 951 947 944 941 938 936 933 929 927 926 924 922 921 920 919 919 918 918 916 916 914 914 913 913 912 912 912 911 911 910 909 909 909 910 910 912 912 0 0 0 0 0 0 0 0 0 0 0 0 0 0 0 0 0 0 0 0 0 0 0 0 0 0 0 0 0 0 0 0 0 0 0 0 0 0 0 0 871 871 871 870 869 869 868 867 867 867 866 865 863 863 862 861 860 859 859 859 859 859 859 859 859 858 858 857 857 856 856 855 854 854 854 854 853 851 850 849 849 848 0 0 0 0 0 0 0 0 0 0 0 0 0 0 0 0 0 0 0 0 0 0 0 0 0 0 0 0 0 0 0 0 0 0 0 0 0 0 0 0 0 0 0 0 0 0 0 0 0 807 807 807 806 805 805 805 805 805 804 804 803 802 801 800 799 798 797 796 796 795 794 793 792 791 790 790 789 788 787 786 785 785 784 783 782 781 780 779 779 778 777 776 775 774 773 772 771 771 771 771 772 773 774 775 777 780 786 795 799 811 819 822 823 823 823 823 823 823 822 822 822 820 819 818 818 818 817 817 817 815 814 810 809 809 807 809 0
862 862 879 881 901 927 952 971 989 1008 1025 1044 1062 1082 1101 1106 1125 1146 1166 1183 1199 1214 1228 1240 1251 1263 1271 1279 1286 1290 1298 1307 1317 1326 1341 1351 1360 1367 1373 1378 1382 1388 1397 1403 1407 1411 1411 1411 1408 1395 0 0 0 0 0 0 0 1449 1458 1462 1473 1473 1490 1496 1499 1500 1502 1506 1508 1511 1513 1513 1513 1513 1513 1513 1510 1510 1506 1477 1476 1476 1470 1470 1470 1467 1467 1467 1478 0 0 0 0 0 0 0 0 0 0 0 0 0 0 0 0 0 0 0 0 0 0 1285 1285 1285 1296 1319 1332 1345 1345 1345 1340 1336 1332 1331 0 1269 1227 1227 0 0 0 1344 1382 1402 1423 1444 1460 1482 0 0 0 0 0 0 0 0 0 1038 1038 1038 1050 1057 1057 1057 1044 0 0 0 0 0 0 1144 1133 1129 1119 1084 1069 1069 1069 0 0 0 0 0 0 0 0 0 0 0 0 0 0 1706 1730 1735 1735 1735 0 0 0 0 1259 1252 1243 1235 1235 1233 1232 1230 1230 1228 1228 1227 1226 1225 1224 1223 1222 1221 1219 1217 1216 1214 1211 1209 1207 1199 1181 1146 1114 1088 1075 1071 1068 1065 1065 1065 1066 1066 1067 1068 1068 1069 1069 1069 1072 1084 1101 1118 1132 1146 1154 1155 1155 1155 1154 1153 1153 1152 1151 1150 1149 1148 1146 1144 1142 1141 1137 1134 1132 1130 1129 1125 1119 1113 1103 1088 1081 1074 1070 1069 1068 1065 1063 1060 1059 1057 1057 1057 1057 1057 1057 1057 1057 1057 1057 1059 1062 1065 1067 1069 1073 1075 1076 1077 1077 1077 1076 1075 1074 1073 1073 1071 1069 1067 1065 1064 1062 1060 1059 1057 1055 1054 1051 1049 1046 1043 1041 1037 1032 1026 1021 1015 1010 1007 1003 1002 999 996 994 993 992 991 990 989 988 987 986 984 983 982 981 981 981 981 983 986 988 991 993 994 995 995 995 995 995 995 995 994 992 991 991 989 988 987 986 985 983 982 982 979 978 975 974 974 0 0 0 963 962 958 955 955 951 947 943 939 938 936 933 930 929 927 925 923 922 921 920 920 919 919 918 916 916 914 914 914 913 913 913 913 911 911 911 910 910 910 914 915 915 0 0 0 0 0 0 0 0 0 0 0 0 0 0 0 0 0 0 0 0 0 0 0 0 0 0 0 0 0 0 0 0 0 0 0 0 0 0 0 0 871 871 871 870 868 867 867 867 866 866 865 864 863 862 861 860 859 858 858 858 858 858 858 858 858 858 857 856 856 856 855 854 854 854 853 853 851 851 849 849 848 843 0 0 0 0 0 0 0 0 0 0 0 0 0 0 0 0 0 0 0 0 0 0 0 0 0 0 0 0 0 0 0 0 0 0 0 0 0 0 0 0 0 0 0 0 0 0 0 0 0 807 807 807 806 805 805 804 804 804 804 804 803 802 801 800 799 798 797 796 796 795 794 793 792 791 790 789 789 788 787 786 785 785 784 783 782 781 780 779 779 777 777 776 775 774 773 772 771 771 771 771 772 773 774 775 776 778 785 794 798 809 815 820 822 822 822 823 823 823 822 821 821 820 819 818 817 817 817 817 816 815 814 811 809 808 807 807 0
871 871 887 889 911 939 962 979 997 1015 1035 1052 1071 1089 1107 1124 1129 1149 1169 1188 1206 1220 1235 1247 1259 1267 1275 1281 1288 1293 1300 1308 1318 1336 1346 1355 1362 1369 1374 1380 1384 1388 1397 1405 1407 1411 1411 1411 1409 1402 0 0 0 0 0 0 0 1449 1458 1462 1473 1476 1490 1496 1499 1502 1504 1506 1508 1511 1514 1516 1518 1518 1519 1519 1519 1516 1506 1477 1458 1457 1457 1457 1457 1456 1456 1456 0 0 0 0 0 0 0 0 0 2058 2061 2061 2061 0 0 0 0 0 0 0 0 0 0 1280 1280 1285 1291 1304 1320 1338 1340 1340 1340 1336 1332 1322 0 1238 1225 1225 0 0 0 1365 1395 1420 1437 1453 1463 0 0 0 0 0 0 0 0 0 0 1000 1019 1034 1044 1044 1044 1043 0 0 0 0 0 0 0 0 1130 1127 1126 1100 1097 1097 1097 1131 0 0 0 0 0 0 0 0 0 0 0 0 0 0 1742 1742 1742 0 0 0 0 0 1256 1252 1243 1235 1235 1233 1231 1230 1230 1228 1228 1227 1226 1225 1224 1223 1222 1220 1219 1217 1216 1214 1211 1209 1207 1200 1180 1147 1115 1097 1085 1077 1074 1072 1072 1072 1072 1072 1072 1075 1076 1077 1078 1078 1079 1087 1103 1123 1142 1149 1154 1155 1155 1155 1154 1152 1152 1150 1150 1148 1147 1146 1144 1142 1141 1138 1136 1132 1131 1130 1128 1124 1117 1111 1103 1089 1083 1076 1074 1073 1071 1069 1066 1065 1064 1063 1062 1062 1062 1061 1061 1061 1060 1060 1060 1062 1064 1066 1068 1071 1074 1075 1076 1076 1076 1076 1075 1075 1074 1073 1070 1069 1067 1065 1064 1062 1061 1059 1058 1055 1054 1052 1050 1048 1045 1043 1040 1037 1032 1026 1023 1017 1011 1007 1005 1003 1000 998 995 994 994 992 991 990 989 987 987 986 984 983 982 982 982 982 983 986 989 991 993 994 995 995 995 995 995 994 994 993 992 991 990 989 988 987 986 985 983 982 982 979 978 975 974 0 0 0 0 0 961 958 955 955 951 947 943 939 938 937 934 931 929 928 925 924 923 922 922 921 920 920 919 918 917 916 915 915 915 914 914 914 914 913 913 912 912 912 914 916 916 0 0 0 0 0 0 0 0 0 0 0 0 0 0 0 0 0 0 0 0 0 0 0 0 0 0 0 0 0 0 0 0 0 0 0 0 0 0 0 0 873 873 873 870 868 867 867 866 866 866 864 863 862 861 860 859 858 857 857 857 857 857 857 857 857 857 856 856 856 855 854 853 853 852 851 851 849 847 847 847 844 842 0 0 0 0 0 0 0 0 0 0 0 0 0 0 0 0 0 0 0 0 0 0 0 0 0 0 0 0 0 0 0 0 0 0 0 0 0 0 0 0 0 0 0 0 0 0 0 0 809 809 809 807 806 805 805 804 804 804 804 803 803 802 801 800 799 798 797 796 796 795 794 793 792 791 790 789 788 788 787 786 785 784 783 783 782 781 780 779 778 777 776 775 775 774 773 772 771 771 771 771 772 773 773 774 776 778 783 792 796 807 813 819 820 821 821 822 822 822 821 821 820 820 818 818 817 817 816 814 814 814 813 811 809 805 805 800 0
876 876 897 899 922 950 970 987 1005 1026 1044 1060 1076 1094 1110 1127 1132 1153 1175 1195 1214 1228 1243 1254 1265 1272 1278 1285 1293 1297 1306 1316 1326 1340 1350 1358 1366 1370 1377 1382 1386 1392 1397 1405 1407 1412 1416 1416 1416 1409 0 0 0 0 0 0 0 1444 1455 1458 1468 1478 1490 1497 1500 1504 1505 1507 1508 1511 1514 1516 1519 1519 1519 1519 1519 1516 1488 1446 1443 1443 1443 1443 1443 1443 1431 1431 1431 0 0 0 0 0 0 0 2070 2077 2078 2077 2077 2077 0 0 0 0 0 0 0 0 0 0 1263 1277 1289 1300 1311 1330 1340 1340 1340 1335 1327 1302 0 1223 1223 1223 0 0 0 1382 1411 1432 1445 1453 1463 0 0 0 0 0 0 0 0 0 0 980 1004 1017 1033 1033 1033 0 0 0 0 0 0 0 0 0 0 1121 1121 1121 1118 1118 1118 1156 1182 1211 0 0 0 0 0 0 0 0 0 0 0 0 0 0 0 0 0 0 0 0 1252 1245 1236 1235 1234 1233 1231 1231 1230 1228 1228 1227 1226 1225 1224 1223 1221 1220 1218 1217 1215 1214 1211 1207 1207 1200 1177 1147 1123 1102 1093 1088 1083 1082 1080 1080 1080 1080 1082 1085 1088 1088 1088 1088 1088 1090 1110 1132 1142 1149 1153 1153 1153 1153 1153 1150 1150 1149 1147 1147 1145 1145 1142 1141 1139 1137 1134 1132 1130 1129 1126 1121 1116 1111 1103 1093 1085 1082 1080 1076 1074 1070 1068 1068 1068 1068 1068 1065 1064 1064 1064 1063 1062 1062 1062 1063 1065 1067 1070 1073 1074 1075 1076 1076 1076 1076 1075 1074 1072 1070 1069 1068 1066 1064 1063 1061 1060 1058 1056 1054 1053 1051 1049 1046 1043 1043 1040 1037 1032 1027 1023 1019 1014 1011 1007 1004 1001 998 997 996 995 994 992 992 990 989 989 987 987 986 984 984 984 984 984 986 989 992 993 994 994 995 995 995 995 994 994 993 992 991 990 989 988 986 986 985 983 982 982 979 978 974 973 0 0 0 0 0 960 960 958 955 954 950 944 938 937 937 934 933 930 929 927 926 924 923 923 922 921 920 919 919 918 917 916 916 916 915 915 915 915 915 914 914 914 914 914 916 916 0 0 0 0 0 0 0 0 0 0 0 0 0 0 0 0 0 0 0 0 0 0 0 0 0 0 0 0 0 0 0 0 0 0 0 0 0 0 0 0 875 875 873 870 868 867 867 866 865 865 864 863 861 861 860 859 858 857 857 857 857 857 857 857 856 856 856 855 855 854 853 852 851 851 851 850 848 846 846 846 844 842 0 0 0 0 0 0 0 0 0 0 0 0 0 0 0 0 0 0 0 0 0 0 0 0 0 0 0 0 0 0 0 0 0 0 0 0 0 0 0 0 0 0 0 0 0 0 0 809 809 809 809 808 806 806 805 805 805 804 804 803 803 802 801 800 799 798 797 796 796 794 794 793 792 791 790 789 788 788 787 786 785 784 783 783 782 781 780 779 778 777 776 776 775 774 773 772 772 771 771 771 772 772 772 774 776 777 782 787 790 802 810 815 816 816 816 818 820 820 820 820 819 819 818 818 817 817 816 814 813 811 810 810 809 805 803 800 800
880 880 908 910 935 958 976 994 1016 1037 1053 1065 1081 1099 1117 1135 1140 1161 1182 1200 1218 1234 1246 1258 1267 1274 1282 1289 1297 1306 1311 1321 1331 1342 1352 1360 1367 1373 1378 1384 1389 1395 1400 1405 1411 1413 1417 1417 1417 1409 0 0 0 0 0 0 0 1444 1455 1460 1468 1480 1487 1497 1499 1504 1505 1507 1509 1511 1514 1517 1519 1519 1520 1520 1520 1508 1476 1442 1434 1434 1434 1436 1436 1436 1405 1405 1405 0 0 0 0 0 0 0 2078 2091 2094 2095 2095 2095 2094 0 0 0 0 0 0 0 0 0 0 1277 1287 1292 1303 1313 1324 1330 1330 1330 1321 1293 1239 0 1206 1206 0 0 0 1399 1427 1432 1445 1453 1463 0 0 0 0 0 0 0 0 0 0 974 976 1007 1015 1015 1015 0 0 0 0 0 0 0 0 0 0 1121 1121 1121 1121 1121 1139 1172 1189 1190 1190 0 0 0 0 0 0 0 0 0 0 0 0 0 0 0 0 0 0 0 1252 1237 1234 1233 1233 1233 1231 1231 1230 1228 1228 1227 1226 1225 1224 1222 1221 1220 1218 1217 1215 1212 1210 1207 1207 1200 1177 1149 1127 1111 1106 1095 1091 1087 1084 1084 1084 1085 1092 1095 1095 1095 1093 1093 1093 1093 1114 1133 1143 1149 1150 1151 1151 1150 1149 1148 1148 1147 1147 1145 1145 1143 1141 1138 1137 1135 1133 1132 1130 1128 1125 1120 1116 1111 1102 1093 1088 1084 1081 1079 1076 1072 1070 1070 1070 1070 1070 1069 1067 1067 1067 1065 1065 1065 1065 1066 1068 1070 1072 1074 1074 1075 1075 1075 1075 1075 1073 1072 1070 1069 1067 1065 1063 1062 1060 1059 1057 1056 1054 1052 1051 1050 1048 1046 1043 1042 1040 1037 1032 1028 1024 1021 1017 1013 1009 1005 1002 1000 999 999 998 996 995 993 991 991 991 990 989 988 986 986 986 986 986 988 989 992 993 994 994 995 995 995 994 994 993 992 991 991 990 988 987 986 986 985 983 983 981 979 978 974 973 0 0 0 0 0 960 960 958 955 954 951 944 937 937 937 935 934 931 930 928 927 926 925 924 923 922 922 921 920 920 919 919 918 918 916 916 916 916 916 916 915 915 915 914 916 916 0 0 0 0 0 0 0 0 0 0 0 0 0 0 0 0 0 0 0 0 0 0 0 0 0 0 0 0 0 0 0 0 0 0 0 0 0 0 0 0 878 878 873 870 868 868 867 865 864 864 863 862 861 860 859 858 858 857 857 856 856 856 855 855 855 855 855 854 853 853 852 852 850 850 850 850 848 846 845 845 844 842 0 0 0 0 0 0 0 0 0 0 0 0 0 0 0 0 0 0 0 0 0 0 0 0 0 0 0 0 0 0 0 0 0 0 0 0 0 0 0 0 0 0 0 0 0 0 809 809 809 809 809 808 806 806 805 805 804 804 803 803 803 802 801 800 799 798 797 797 796 795 794 793 792 791 790 789 788 788 787 786 785 784 783 783 782 781 780 779 778 777 776 775 775 774 773 772 772 771 771 771 771 772 772 774 775 776 776 779 785 798 807 813 816 816 816 818 819 819 819 819 819 819 818 818 818 817 816 814 813 810 810 809 808 805 803 800 800
892 892 917 941 943 964 983 1001 1026 1042 1056 1069 1087 1107 1127 1146 1151 1170 1188 1205 1218 1234 1249 1259 1269 1278 1288 1296 1303 1311 1315 1322 1332 1344 1354 1363 1370 1375 1381 1386 1391 1398 1402 1408 1411 1414 1417 1417 1417 1409 0 0 0 0 0 0 0 1444 1455 1456 1468 1483 1487 1497 1500 1504 1505 1507 1509 1511 1514 1517 1519 1520 1520 1520 1520 1506 1475 1427 1427 1427 1428 1429 1429 1428 1381 1381 1381 0 0 0 0 0 0 0 2078 2091 2094 2096 2096 2096 2094 0 0 0 0 0 0 0 0 0 0 0 1273 1280 1289 1297 1300 1315 1315 1315 1309 1280 1238 1199 1199 1199 0 0 0 1412 1432 1434 1445 1450 1451 0 0 0 0 0 0 0 0 0 0 961 976 1007 1007 1007 0 0 924 924 924 949 962 974 0 0 0 0 1102 1115 1133 1135 1151 1179 1199 1199 1199 0 0 0 0 0 0 0 0 0 0 0 0 0 0 0 0 0 0 0 1252 1235 1234 1234 1234 1233 1232 1232 1230 1229 1228 1227 1226 1224 1224 1222 1221 1220 1218 1217 1215 1212 1210 1207 1206 1200 1177 1154 1134 1127 1125 1120 1105 1092 1090 1090 1090 1095 1101 1101 1101 1101 1096 1096 1096 1096 1118 1134 1144 1149 1149 1149 1149 1148 1146 1145 1145 1144 1143 1142 1139 1137 1135 1134 1132 1131 1130 1130 1128 1125 1122 1117 1116 1111 1101 1093 1089 1087 1083 1080 1077 1074 1073 1072 1072 1071 1071 1070 1070 1069 1069 1068 1068 1068 1068 1070 1071 1071 1073 1074 1074 1074 1074 1074 1074 1073 1071 1070 1068 1067 1065 1064 1062 1060 1059 1057 1056 1054 1053 1051 1049 1047 1046 1045 1043 1040 1038 1035 1032 1028 1025 1022 1019 1015 1011 1008 1005 1002 1002 1001 999 998 997 994 993 993 992 992 991 990 988 988 988 989 989 990 991 992 993 994 994 994 994 994 994 993 992 991 990 990 989 988 986 985 983 983 982 982 981 978 976 973 972 0 0 0 0 0 963 961 958 955 954 951 944 937 937 937 935 934 932 932 930 929 927 927 926 924 923 923 922 922 921 920 920 920 919 918 918 917 917 917 917 916 914 914 914 914 914 0 0 0 0 0 0 0 0 0 0 0 0 0 0 0 0 0 0 0 0 0 0 0 0 0 0 0 0 0 0 0 0 0 0 0 0 0 0 0 0 874 874 873 870 869 868 867 865 864 864 863 862 861 860 859 857 857 857 856 855 855 855 854 854 854 853 853 853 853 851 851 850 850 849 849 849 848 846 843 842 842 842 842 0 0 0 0 0 0 0 0 0 0 0 0 0 0 0 0 0 0 0 0 0 0 0 0 0 0 0 0 0 0 0 0 0 0 0 0 0 0 0 0 0 0 0 0 0 809 809 809 809 809 808 807 806 805 804 804 804 803 803 802 802 801 800 799 798 797 797 796 794 793 793 792 791 790 789 788 788 787 786 786 784 783 783 782 781 780 779 778 777 776 775 775 774 773 772 772 771 771 771 771 772 772 773 775 775 776 778 785 796 807 812 815 816 816 818 819 819 819 819 819 819 819 818 818 817 816 814 813 810 810 808 807 805 803 802 802
901 901 925 947 950 971 988 1012 1029 1045 1059 1074 1093 1114 1135 1155 1172 1177 1194 1206 1219 1235 1250 1260 1270 1283 1293 1303 1309 1314 1319 1327 1335 1347 1357 1365 1371 1379 1385 1389 1395 1401 1406 1411 1414 1417 1418 1418 1418 1406 0 0 0 0 0 0 0 1446 1451 1455 1469 1483 1487 1498 1500 1504 1506 1508 1510 1512 1514 1517 1519 1520 1520 1520 1515 1503 1474 1423 1423 1423 1428 1428 1428 1421 1374 1374 1374 0 0 0 0 0 0 0 2076 2091 2094 2096 2096 2096 2094 0 0 0 0 0 0 0 0 0 0 1190 1257 1261 1278 1285 1287 1292 1292 1292 1280 1248 1223 1213 1213 1213 0 0 0 1421 1432 1434 1434 1432 0 0 0 0 0 0 0 0 0 0 933 961 976 1007 1007 1007 0 917 910 910 910 914 939 949 953 0 0 0 0 1117 1123 1135 1158 1189 1193 1193 1193 0 0 0 0 0 0 0 0 0 1720 1741 1741 0 0 0 0 0 0 0 1246 1234 1233 1233 1234 1233 1233 1232 1231 1229 1228 1227 1226 1224 1223 1222 1221 1220 1218 1217 1215 1212 1209 1206 1206 1200 1183 1158 1141 1141 1140 1135 1116 1104 1103 1103 1103 1111 1114 1114 1114 1112 1112 1108 1108 1108 1123 1137 1145 1149 1149 1149 1146 1145 1141 1139 1139 1138 1138 1137 1134 1133 1131 1129 1127 1127 1125 1125 1125 1121 1117 1114 1114 1110 1098 1093 1090 1090 1088 1085 1082 1079 1075 1073 1073 1073 1073 1073 1072 1072 1072 1071 1071 1071 1071 1071 1071 1072 1074 1074 1074 1074 1074 1074 1072 1070 1068 1068 1066 1064 1062 1061 1059 1057 1056 1055 1053 1053 1051 1050 1048 1046 1045 1043 1041 1039 1037 1035 1031 1028 1025 1022 1019 1017 1013 1010 1008 1006 1004 1002 1001 999 998 996 994 994 994 993 992 990 990 990 990 991 992 992 992 993 993 994 994 994 994 993 992 991 990 990 990 989 987 985 985 983 982 982 982 981 980 978 975 972 971 971 0 0 0 963 962 961 957 954 953 951 944 937 937 936 935 934 933 932 931 930 929 928 926 924 923 923 923 922 921 920 920 920 919 919 919 919 919 919 918 916 914 914 914 915 915 0 0 0 0 0 0 0 0 0 0 0 0 0 0 0 0 0 0 0 0 0 0 0 0 0 0 0 0 0 0 0 0 0 0 0 0 0 0 0 0 870 870 870 869 868 868 867 865 864 864 862 861 861 860 859 857 857 856 856 855 854 854 854 853 853 853 852 852 851 851 850 850 849 848 848 847 847 846 843 842 842 842 842 0 0 0 0 0 0 0 0 0 0 0 0 0 0 0 0 0 0 0 0 0 0 0 0 0 0 0 0 0 0 0 0 0 0 0 0 0 0 0 0 0 0 0 0 0 808 809 809 809 809 808 807 806 805 804 804 804 803 803 802 801 800 800 799 798 797 797 796 794 793 793 792 791 790 789 788 788 787 786 786 784 783 783 782 781 780 779 778 777 777 776 775 774 773 772 772 771 771 771 771 772 772 773 774 775 776 778 784 794 807 812 814 816 819 819 819 819 820 820 820 820 819 819 818 817 816 814 813 810 809 808 807 807 807 806 806
910 910 931 952 955 974 994 1015 1034 1050 1063 1082 1101 1123 1141 1159 1176 1182 1196 1208 1220 1236 1251 1263 1274 1287 1300 1307 1313 1318 1326 1331 1340 1350 1358 1366 1373 1380 1386 1392 1399 1404 1410 1413 1416 1417 1419 1419 1419 1406 0 0 0 0 0 0 0 1447 1447 1455 1470 1483 1496 1498 1501 1504 1506 1509 1511 1514 1515 1517 1519 1520 1520 1520 1514 1494 1466 1418 1418 1418 1424 1424 1424 1416 1372 1372 1372 0 0 0 0 0 0 0 0 2076 2077 2077 2071 2070 2064 0 0 0 0 0 0 0 0 1164 1166 1183 1204 1247 1254 1270 1275 1276 1276 1276 1270 1242 1202 1202 1202 1240 0 0 1400 1424 1424 1424 1408 0 0 0 0 0 0 0 0 0 0 895 933 953 965 979 979 979 935 916 891 883 883 883 909 922 922 0 0 0 0 1141 1151 1160 1162 1194 1194 1194 1174 0 0 0 0 0 0 0 0 1711 1739 1740 1740 1740 0 0 0 0 0 0 1246 1235 1234 1234 1234 1234 1234 1232 1231 1229 1229 1227 1226 1224 1223 1222 1221 1220 1218 1217 1214 1212 1210 1207 1206 1200 1185 1167 1152 1145 1145 1142 1140 1134 1127 1121 1121 1121 1125 1125 1125 1125 1124 1124 1124 1124 1128 1144 1148 1149 1149 1149 1143 1138 1138 1138 1138 1138 1137 1134 1130 1128 1127 1124 1124 1124 1121 1121 1121 1118 1115 1114 1111 1101 1098 1093 1093 1091 1090 1089 1088 1084 1082 1080 1078 1077 1077 1077 1077 1077 1077 1075 1074 1074 1074 1074 1074 1074 1075 1075 1075 1074 1074 1072 1069 1067 1066 1065 1063 1062 1060 1057 1056 1055 1053 1052 1050 1050 1048 1047 1046 1045 1042 1041 1039 1037 1036 1034 1031 1028 1025 1023 1020 1019 1016 1014 1011 1008 1005 1003 1002 1000 1000 998 997 996 995 994 994 992 991 991 991 991 992 992 993 993 994 994 994 994 993 992 991 990 989 989 988 988 986 985 984 982 981 981 980 978 0 0 0 968 968 967 961 961 961 961 961 961 955 953 953 950 944 937 937 936 935 934 934 933 932 930 929 929 927 926 924 924 923 922 921 920 920 920 920 919 919 919 919 919 918 916 915 915 915 915 915 0 0 0 0 0 0 0 0 0 0 0 0 0 0 0 0 0 0 0 0 0 0 0 0 0 0 0 0 0 0 0 0 0 0 0 0 0 0 0 0 867 868 868 868 868 868 867 865 864 864 862 861 860 860 858 857 857 856 855 855 854 853 853 853 853 852 852 851 851 850 850 849 848 848 847 847 846 845 840 840 840 841 841 0 0 0 0 0 0 0 0 0 0 0 0 0 0 0 0 0 0 0 0 0 0 0 0 0 0 0 0 0 0 0 0 0 0 0 0 0 0 0 0 0 0 0 0 0 808 808 808 808 808 808 807 806 805 804 804 804 803 802 802 801 800 799 798 798 797 796 796 794 793 793 792 791 790 789 788 788 787 786 786 784 784 783 782 781 780 780 779 777 777 776 775 774 773 773 772 772 771 771 771 772 772 773 774 774 775 778 784 794 808 812 814 816 819 820 821 821 821 821 821 821 820 820 819 817 816 814 813 811 810 809 808 807 807 806 806
920 920 941 959 961 979 999 1021 1042 1058 1072 1089 1109 1129 1147 1164 1178 1183 1197 1210 1223 1237 1253 1266 1278 1291 1301 1308 1315 1321 1330 1335 1344 1352 1359 1368 1375 1381 1387 1395 1400 1405 1410 1413 1416 1417 1419 1419 1419 1406 0 0 0 0 0 0 0 0 1447 1460 1471 1483 1497 1499 1501 1505 1507 1510 1513 1514 1516 1517 1520 1520 1520 1520 1513 1491 1442 1416 1416 1416 1419 1419 1419 1408 1372 1372 1372 0 0 0 0 0 0 0 0 0 2018 2035 2035 2035 0 0 0 0 0 0 0 0 1164 1164 1166 1175 1201 1223 1242 1248 1268 1269 1269 1269 1258 1234 1193 1193 1193 1268 0 0 0 1419 1419 1419 0 0 0 0 0 0 0 0 0 0 907 921 933 953 965 979 979 979 935 916 891 875 875 875 877 894 905 905 0 0 0 0 1162 1162 1166 1199 1199 1199 0 0 0 0 0 0 0 0 1695 1733 1754 1754 1754 0 0 0 0 0 0 1254 1246 1237 1236 1235 1235 1235 1235 1232 1231 1229 1229 1227 1226 1225 1224 1222 1221 1220 1218 1217 1215 1212 1210 1207 1205 1200 1195 1190 1181 1168 1160 1158 1158 1156 1154 1154 1149 1149 1149 1146 1146 1146 1143 1137 1137 1137 1142 1146 1148 1148 1148 1144 1137 1131 1131 1130 1130 1130 1129 1127 1123 1120 1119 1119 1118 1118 1117 1115 1115 1114 1113 1110 1103 1101 1098 1094 1093 1091 1090 1090 1089 1089 1088 1087 1084 1083 1082 1080 1080 1080 1080 1078 1078 1077 1076 1076 1076 1076 1076 1076 1074 1074 1072 1070 1067 1064 1062 1062 1060 1059 1057 1055 1053 1051 1050 1048 1048 1047 1045 1044 1043 1041 1040 1039 1038 1035 1035 1033 1031 1028 1025 1023 1022 1021 1019 1017 1013 1010 1008 1006 1004 1003 1002 1001 1000 998 997 995 995 994 994 993 993 993 993 994 994 994 993 993 993 993 992 991 989 989 988 986 986 985 984 983 982 980 980 980 978 975 0 0 0 965 965 965 961 961 961 961 961 959 955 953 952 948 942 937 937 936 935 935 934 933 932 931 930 929 928 927 926 925 925 923 922 921 920 920 920 919 919 919 920 920 920 917 915 915 915 915 915 0 0 0 0 0 0 0 0 0 0 0 0 0 0 0 0 0 0 0 0 0 0 0 0 0 0 0 0 0 0 0 0 0 0 0 0 0 0 0 0 867 867 867 867 867 867 867 865 863 863 862 861 860 859 858 857 856 856 854 853 852 852 852 852 852 852 852 851 850 850 850 849 847 847 847 846 844 842 840 840 840 842 842 0 0 0 0 0 0 0 0 0 0 0 0 0 0 0 0 0 0 0 0 0 0 0 0 0 0 0 0 0 0 0 0 0 0 0 0 0 0 0 0 0 0 0 0 0 0 809 808 808 808 808 807 806 805 804 803 803 802 802 801 800 800 799 798 797 796 796 795 794 793 792 792 791 790 789 788 788 787 786 786 785 784 784 783 782 781 780 779 778 777 776 776 774 774 773 772 772 771 771 771 772 772 773 774 774 775 778 784 794 808 811 811 816 819 821 822 822 822 822 822 821 821 820 819 817 816 814 813 812 811 809 808 808 807 807 807
928 928 952 970 989 991 1009 1030 1050 1065 1078 1098 1117 1135 1151 1165 1181 1187 1201 1217 1230 1244 1256 1268 1281 1292 1302 1309 1316 1323 1331 1336 1344 1352 1359 1368 1375 1382 1388 1395 1401 1406 1410 1413 1416 1417 1419 1419 1419 1411 0 0 0 0 0 0 0 0 1450 1460 1473 1484 1497 1500 1501 1505 1508 1511 1513 1515 1517 1519 1520 1520 1520 1519 1509 1480 1440 1418 1418 1413 1413 1413 1412 1381 1372 1372 1372 1407 1446 1491 0 0 0 0 0 0 0 0 0 0 0 0 0 0 0 0 0 0 0 1166 1166 1166 1180 1221 1229 1238 1248 1256 1256 1256 1230 1217 1202 1202 1202 1275 0 1387 0 0 0 0 0 0 0 0 0 0 0 0 0 0 907 921 933 953 965 970 970 970 955 916 891 875 875 875 877 883 888 905 0 0 0 0 1162 1169 1171 1188 1188 1188 0 0 0 0 0 0 0 0 1727 1751 1760 1760 1760 0 0 0 0 0 1256 1250 1249 1245 1239 1237 1235 1235 1234 1232 1231 1229 1228 1227 1226 1225 1224 1222 1221 1220 1218 1216 1215 1212 1210 1207 1205 1204 1198 1194 1193 1192 1180 1178 1178 1176 1175 1174 1172 1172 1170 1168 1165 1164 1163 1163 1160 1155 1151 1148 1148 1146 1145 1135 1126 1118 1115 1111 1111 1111 1110 1109 1109 1109 1109 1110 1110 1109 1108 1108 1108 1107 1107 1103 1102 1101 1101 1101 1100 1100 1097 1097 1097 1095 1095 1095 1091 1089 1088 1087 1085 1084 1082 1080 1078 1078 1077 1077 1077 1076 1076 1076 1074 1073 1070 1068 1065 1061 1057 1055 1054 1053 1050 1048 1047 1046 1045 1044 1044 1043 1042 1040 1039 1039 1037 1037 1035 1034 1033 1031 1031 1028 1027 1025 1024 1023 1020 1018 1015 1012 1010 1009 1007 1005 1004 1002 1001 1000 998 998 997 996 995 995 995 995 995 995 995 994 994 993 993 992 992 990 989 987 986 985 984 983 982 981 980 978 977 975 974 974 966 965 964 961 961 960 960 960 960 960 959 957 955 953 952 948 942 938 937 937 937 936 936 934 932 931 930 930 929 928 927 926 925 924 923 923 922 922 922 920 920 920 920 920 920 918 916 916 916 916 916 0 0 0 0 0 0 0 0 0 0 0 0 0 0 0 0 0 0 0 0 0 0 0 0 0 0 0 0 0 0 0 0 0 0 0 0 0 0 0 0 867 867 867 867 867 867 867 864 863 863 862 861 860 858 858 856 853 851 851 851 851 851 851 852 852 852 850 850 850 849 849 847 847 847 846 846 844 842 840 840 840 842 842 0 0 0 0 0 0 0 0 0 0 0 0 0 0 0 0 0 0 0 0 0 0 0 0 0 0 0 0 0 0 0 0 0 0 0 0 0 0 0 0 0 0 0 0 0 0 808 808 808 807 807 807 806 805 804 803 803 802 801 801 800 799 799 797 797 796 796 795 794 793 792 792 791 790 789 788 788 787 787 786 785 784 784 783 782 781 781 779 778 777 776 776 775 774 773 773 772 771 771 771 772 772 773 774 774 775 778 784 794 808 811 811 815 819 821 822 823 824 824 824 823 821 820 819 817 816 814 813 812 811 810 809 808 808 808 807
928 928 959 978 996 998 1017 1039 1056 1071 1087 1106 1124 1137 1151 1166 1181 1200 1205 1220 1233 1245 1256 1271 1282 1293 1303 1309 1316 1324 1331 1337 1344 1352 1359 1368 1375 1382 1389 1397 1403 1406 1410 1412 1417 1417 1420 1421 1421 1421 1402 0 0 0 0 0 0 0 1450 1456 1473 1486 1498 1501 1502 1505 1508 1511 1513 1515 1517 1519 1520 1520 1520 1513 1502 1480 1440 1418 1418 1415 1415 1411 1410 1381 1381 1381 1394 1407 1440 1472 1511 1529 0 0 0 0 0 0 0 0 0 0 0 0 0 0 0 0 0 0 1172 1172 1172 1193 1225 1226 1236 1236 1226 1207 1203 1193 1193 1193 0 0 1359 1396 1420 0 0 0 0 0 0 0 0 0 0 0 0 0 0 921 921 930 950 970 972 972 972 939 903 875 875 875 877 883 888 892 0 0 0 0 1162 1172 1174 1174 1174 1148 0 0 0 0 0 0 0 1725 1748 1765 1765 1765 1761 0 0 0 0 0 1254 1250 1248 1247 1239 1238 1235 1234 1234 1232 1231 1229 1227 1227 1225 1225 1223 1222 1221 1220 1218 1216 1214 1212 1211 1208 1206 1205 1203 1201 1199 1195 1193 1188 1186 1184 1183 1181 1181 1180 1177 1174 1170 1169 1168 1168 1167 1163 1159 1148 1148 1138 1130 1119 1109 1104 1099 1096 1094 1094 1094 1093 1093 1093 1093 1097 1100 1100 1100 1100 1100 1102 1102 1103 1103 1104 1107 1108 1108 1108 1105 1103 1102 1102 1102 1101 1100 1096 1094 1093 1092 1090 1088 1086 1085 1083 1083 1081 1077 1077 1076 1076 1073 1070 1065 1062 1058 1056 1052 1051 1050 1048 1046 1044 1042 1042 1042 1040 1040 1039 1038 1037 1036 1036 1035 1035 1034 1033 1031 1031 1031 1028 1028 1025 1025 1024 1023 1019 1017 1015 1013 1012 1010 1009 1006 1003 1003 1002 1001 1000 1000 999 998 996 996 996 996 996 995 995 994 993 992 991 990 989 988 986 984 983 981 979 977 977 977 976 975 973 973 971 966 964 961 960 958 957 957 956 956 956 956 955 955 953 952 948 942 942 941 941 941 939 936 935 935 934 934 933 929 928 927 926 926 926 926 926 926 925 922 920 920 920 920 920 920 920 919 919 918 919 917 0 0 0 0 0 0 0 0 0 0 0 0 0 0 0 0 0 0 0 0 0 0 0 0 0 0 0 0 0 0 0 0 0 0 0 0 0 0 0 0 872 872 869 869 866 866 865 864 863 863 862 861 860 858 858 856 853 851 851 851 851 851 851 848 848 848 848 848 848 848 848 847 846 845 845 845 844 842 840 840 840 841 841 0 0 0 0 0 0 0 0 0 0 0 0 0 0 0 0 0 0 0 0 0 0 0 0 0 0 0 0 0 0 0 0 0 0 0 0 0 0 0 0 0 0 0 0 806 807 808 808 808 807 807 807 806 805 804 803 802 802 801 800 800 799 798 797 796 796 796 794 794 793 792 792 791 790 789 788 788 787 787 786 785 785 784 783 782 781 781 780 779 778 777 776 775 775 774 773 772 772 772 772 772 773 773 774 774 775 778 785 795 807 810 811 815 820 822 823 824 826 826 826 825 825 821 819 818 816 815 815 815 814 812 812 810 808 808 808
939 939 959 978 1001 1003 1023 1041 1058 1076 1094 1111 1128 1141 1154 1169 1184 1202 1206 1220 1235 1246 1258 1272 1287 1299 1307 1312 1317 1324 1332 1337 1343 1350 1358 1366 1374 1382 1389 1397 1403 1406 1409 1412 1416 1420 1429 1430 1430 1430 1421 0 0 0 0 0 0 0 1450 1456 1473 1484 1498 1501 1502 1505 1508 1511 1514 1515 1517 1519 1519 1519 1518 1511 1501 1480 1440 1424 1419 1417 1416 1407 1403 1382 1382 1382 1396 1407 1438 1470 1496 1514 1524 0 0 0 0 0 0 0 0 0 0 0 0 0 0 0 0 0 0 1156 1156 1156 1205 1205 1205 1204 1191 1183 1175 1175 1175 0 0 0 1377 1413 0 0 0 0 0 0 0 0 0 0 0 0 0 0 0 0 893 914 940 969 971 971 971 939 903 903 891 891 891 891 891 892 0 0 0 0 1159 1172 1172 1172 1154 1120 0 0 0 0 0 0 0 1731 1753 1770 1770 1770 1768 0 0 0 0 0 1254 1250 1248 1247 1239 1238 1235 1235 1235 1233 1232 1229 1227 1225 1225 1225 1223 1222 1221 1219 1218 1216 1214 1213 1212 1210 1208 1207 1205 1203 1199 1197 1194 1192 1189 1187 1186 1185 1182 1181 1179 1176 1172 1170 1170 1170 1168 1166 1162 1151 1139 1120 1107 1096 1088 1086 1086 1084 1084 1083 1083 1083 1083 1083 1085 1085 1088 1088 1089 1090 1093 1098 1099 1100 1102 1104 1108 1111 1111 1111 1110 1108 1107 1104 1103 1101 1101 1100 1098 1097 1096 1093 1092 1090 1089 1088 1085 1081 1078 1078 1076 1073 1070 1065 1060 1059 1057 1054 1050 1048 1047 1046 1044 1042 1040 1039 1039 1038 1036 1035 1035 1034 1034 1034 1033 1033 1031 1031 1031 1031 1031 1030 1029 1027 1027 1025 1024 1022 1021 1020 1018 1015 1012 1011 1009 1008 1007 1004 1004 1003 1002 1001 999 998 997 997 996 996 995 995 994 993 992 991 989 987 985 983 981 979 978 976 974 974 973 973 973 971 969 968 966 964 961 959 958 954 953 953 953 954 954 954 954 953 952 949 945 943 943 943 942 939 936 936 936 935 935 933 933 932 930 927 927 927 926 926 926 925 922 919 919 919 920 920 920 920 920 920 919 921 917 0 0 0 0 0 0 0 0 0 0 0 0 0 0 0 0 0 0 0 0 0 0 0 0 0 0 0 0 0 0 0 0 0 0 0 0 0 0 0 0 872 872 869 866 865 864 864 863 862 862 862 861 860 858 857 856 852 851 851 851 851 851 851 848 845 845 845 846 848 848 848 846 845 845 844 844 843 842 840 840 838 838 838 0 0 0 0 0 0 0 0 0 0 0 0 0 0 0 0 0 0 0 0 0 0 0 0 0 0 0 0 0 0 0 0 0 0 0 0 0 0 0 0 0 0 0 0 808 808 808 808 807 807 807 806 805 804 803 803 802 802 801 800 799 798 798 797 796 796 795 794 793 793 792 792 790 790 789 788 788 787 787 786 786 785 784 783 783 782 781 780 779 778 777 776 775 775 774 773 772 772 772 772 772 773 774 774 775 777 779 785 795 804 810 811 815 820 822 823 824 827 827 827 827 826 823 820 818 816 816 816 816 815 815 813 811 810 810 810
945 945 965 984 1001 1007 1025 1042 1059 1078 1098 1114 1130 1144 1159 1175 1188 1203 1207 1221 1235 1247 1260 1273 1287 1299 1307 1314 1321 1326 1332 1338 1343 1350 1357 1364 1374 1382 1389 1397 1403 1406 1409 1412 1415 1421 1429 1431 1431 1431 1430 0 0 0 0 0 0 0 1450 1456 1473 1483 1498 1502 1504 1506 1507 1511 1513 1515 1517 1518 1518 1518 1514 1510 1500 1480 1440 1424 1417 1416 1415 1403 1391 1388 1388 1388 1396 1407 1438 1467 1488 1502 1509 1522 0 0 0 0 0 0 0 0 0 0 0 1358 1348 1333 1286 0 0 1155 1148 1148 1148 1161 1170 1170 1170 1153 1153 1153 1175 0 0 0 1402 1425 1425 0 0 0 0 0 0 0 0 0 781 781 782 0 0 0 893 914 940 968 970 970 970 939 903 903 903 891 891 892 892 892 910 0 0 0 1159 1164 1164 1164 1152 1119 1119 0 0 0 0 0 0 1738 1767 1777 1777 1777 1774 0 0 0 0 0 1256 1250 1248 1244 1240 1239 1236 1235 1235 1234 1232 1230 1227 1225 1224 1224 1223 1221 1220 1219 1218 1216 1214 1213 1212 1210 1208 1207 1206 1203 1200 1197 1194 1192 1191 1188 1187 1185 1185 1183 1182 1181 1177 1175 1172 1172 1170 1169 1164 1152 1133 1118 1104 1090 1082 1079 1075 1073 1073 1073 1073 1074 1075 1078 1081 1081 1082 1082 1082 1082 1082 1091 1094 1098 1104 1106 1111 1111 1112 1112 1112 1111 1110 1107 1106 1104 1102 1101 1100 1099 1097 1095 1094 1092 1091 1089 1086 1083 1081 1079 1076 1073 1067 1062 1056 1054 1051 1044 1041 1040 1040 1040 1040 1037 1035 1033 1033 1032 1032 1032 1032 1031 1029 1029 1029 1029 1029 1030 1030 1030 1030 1030 1029 1029 1028 1027 1026 1025 1024 1023 1021 1019 1016 1015 1013 1013 1013 1010 1009 1007 1006 1004 1004 1003 1001 1001 999 998 997 995 994 993 991 989 987 985 982 981 977 976 976 974 971 969 968 965 963 963 963 963 963 962 959 958 957 952 952 952 952 952 952 952 952 952 952 951 949 949 949 947 944 943 943 939 939 938 938 938 935 934 933 932 931 931 927 927 926 926 925 921 921 921 922 922 922 921 921 921 920 921 919 0 0 0 0 0 0 0 0 0 0 0 0 0 0 0 0 0 0 0 0 0 0 0 0 0 0 0 0 0 0 0 0 0 0 0 0 0 0 0 0 875 875 873 867 864 864 863 862 862 862 862 862 861 857 855 854 852 851 851 851 851 851 851 848 845 845 845 846 846 846 846 845 845 845 844 844 843 842 840 838 838 838 836 0 0 0 0 0 0 0 0 0 0 0 0 0 0 0 0 0 0 0 0 0 0 0 0 0 0 0 0 0 0 0 0 0 0 0 0 0 0 0 0 0 0 0 0 808 808 807 807 807 806 806 806 805 804 803 803 802 801 801 800 799 798 797 797 796 795 795 794 793 792 791 791 790 790 789 788 788 787 787 786 786 785 785 784 783 782 781 780 779 778 777 776 775 775 774 773 772 772 772 772 772 773 774 775 776 777 779 785 794 804 810 813 816 820 822 823 826 828 829 829 829 828 825 822 819 818 818 817 817 816 815 813 812 811 811 811
951 951 968 986 1006 1022 1026 1045 1063 1080 1099 1118 1135 1149 1164 1179 1193 1207 1219 1225 1236 1248 1261 1273 1287 1299 1307 1314 1322 1328 1334 1339 1343 1350 1357 1364 1373 1380 1388 1396 1403 1407 1410 1412 1416 1422 1429 1433 1433 1433 1430 0 0 0 0 0 0 0 1451 1455 1457 1481 1498 1504 1504 1506 1507 1511 1513 1515 1516 1517 1517 1517 1513 1506 1499 1480 1440 1424 1417 1413 1411 1407 1391 1388 1388 1388 1394 1407 1434 1466 1486 1495 1497 1507 1529 0 0 0 0 0 0 0 0 0 1360 1352 1348 1333 1301 1288 0 0 1148 1128 1128 1148 1154 1154 1154 1147 1147 1147 0 0 0 0 1417 1437 1437 1437 0 0 0 0 0 0 0 779 778 778 779 789 0 0 893 914 940 940 940 0 0 904 891 891 891 913 913 913 910 910 910 0 0 0 1159 1162 1162 1162 1144 1110 1110 0 0 0 0 0 0 1766 1785 1785 1785 1783 1775 0 0 0 0 0 1258 1250 1249 1247 1242 1239 1238 1238 1236 1235 1232 1230 1227 1225 1224 1224 1223 1221 1220 1219 1218 1216 1214 1213 1212 1210 1208 1207 1206 1203 1201 1198 1197 1194 1192 1189 1187 1187 1186 1184 1183 1181 1177 1175 1172 1172 1171 1169 1164 1148 1131 1113 1093 1076 1072 1071 1070 1069 1069 1069 1068 1069 1069 1070 1071 1075 1078 1078 1078 1080 1081 1087 1092 1098 1105 1111 1111 1112 1112 1112 1112 1111 1110 1109 1107 1106 1104 1103 1101 1099 1098 1097 1096 1094 1091 1089 1087 1085 1082 1079 1076 1073 1061 1059 1050 1045 1041 1035 1034 1034 1033 1033 1033 1031 1029 1028 1028 1028 1028 1028 1028 1028 1028 1028 1028 1028 1029 1030 1030 1030 1030 1030 1030 1030 1030 1029 1027 1027 1025 1025 1024 1022 1020 1019 1016 1014 1013 1012 1010 1009 1008 1007 1005 1005 1003 1002 1001 999 997 996 993 993 991 988 984 982 980 978 976 974 974 970 968 966 966 964 960 959 958 955 953 952 952 952 950 949 949 949 949 951 952 952 952 951 951 951 950 950 949 947 945 944 943 942 941 941 941 940 938 936 934 933 932 931 927 927 927 926 926 926 925 925 924 923 923 921 921 921 920 921 919 918 0 0 0 0 0 0 0 0 0 0 0 0 0 0 0 0 0 0 0 0 0 0 0 0 0 0 0 0 0 0 0 0 0 0 0 0 0 0 0 875 875 873 867 864 864 864 863 863 863 863 861 861 857 856 855 854 852 852 852 852 852 852 848 845 845 845 844 844 844 844 844 844 844 844 843 842 842 839 835 835 835 835 0 0 0 0 0 0 0 0 0 0 0 0 0 0 0 0 0 0 0 0 0 0 0 0 0 0 0 0 0 0 0 0 0 0 0 0 0 0 0 0 0 0 0 810 807 807 807 807 806 806 806 805 805 804 803 802 802 801 800 800 799 798 797 797 796 795 795 793 793 792 791 791 790 790 789 788 788 787 787 786 786 785 785 784 783 782 781 780 779 778 777 777 775 775 774 773 773 773 773 773 773 773 774 775 777 778 780 784 794 804 810 816 820 826 827 829 830 832 833 833 833 830 827 824 821 820 819 818 818 817 815 814 812 812 811 811
953 953 971 992 1009 1027 1029 1045 1066 1084 1100 1118 1136 1150 1166 1182 1198 1211 1222 1227 1238 1249 1261 1273 1286 1298 1306 1314 1323 1329 1335 1340 1347 1352 1357 1364 1372 1380 1388 1396 1403 1407 1411 1412 1417 1423 1428 1433 1433 1433 1430 0 0 0 0 0 0 0 1451 1453 1457 1476 1497 1504 1504 1506 1507 1509 1513 1515 1516 1516 1516 1516 1513 1506 1486 1455 1412 1412 1411 1405 1405 1405 1388 1388 1388 1388 1394 1407 1434 1462 1476 1480 1482 1491 1521 1542 1558 1565 0 0 0 0 0 1377 1355 1352 1348 1333 1308 1301 0 0 0 1136 1136 1136 1136 1126 1126 1126 1126 0 0 0 0 0 1435 1439 1439 1439 0 0 0 0 0 0 0 778 778 778 778 787 0 0 897 919 921 921 919 0 0 0 854 854 878 902 915 915 919 919 926 0 0 0 1159 1159 1159 1158 1131 1095 1095 0 0 0 0 0 1748 1780 1788 1788 1788 1786 1779 0 0 0 0 0 1264 1252 1250 1249 1242 1240 1238 1238 1237 1236 1232 1231 1228 1225 1224 1224 1223 1221 1220 1219 1218 1216 1214 1213 1212 1210 1208 1207 1205 1203 1201 1200 1197 1195 1193 1191 1188 1187 1186 1185 1183 1181 1178 1175 1173 1172 1171 1169 1164 1148 1126 1106 1087 1074 1066 1066 1066 1064 1063 1063 1063 1064 1066 1066 1068 1070 1072 1076 1077 1078 1078 1084 1091 1098 1107 1111 1111 1112 1112 1112 1112 1112 1111 1110 1108 1107 1106 1104 1102 1101 1099 1098 1096 1094 1092 1089 1088 1085 1083 1080 1076 1073 1061 1052 1044 1040 1036 1033 1032 1032 1032 1032 1030 1029 1026 1025 1025 1025 1025 1025 1025 1026 1026 1026 1027 1027 1027 1028 1030 1030 1030 1031 1031 1030 1030 1029 1028 1027 1026 1025 1025 1023 1022 1020 1018 1016 1014 1013 1011 1011 1010 1008 1008 1005 1004 1003 1001 1000 998 996 993 990 988 984 981 979 977 977 975 973 970 965 962 960 960 959 958 957 956 953 947 946 946 945 945 945 945 945 947 950 950 950 950 950 950 950 950 950 950 948 946 946 945 944 945 946 944 944 938 936 936 934 934 934 926 926 926 926 926 926 925 925 925 925 922 922 922 920 924 924 922 919 919 0 0 0 0 0 0 0 0 0 0 0 0 0 0 0 0 0 0 0 0 0 0 0 0 0 0 0 0 0 0 0 0 0 0 0 0 0 0 875 875 874 867 866 866 866 865 865 863 863 861 861 858 858 857 855 853 853 853 853 853 853 851 849 846 846 845 844 844 844 843 843 843 843 843 842 842 838 835 835 835 835 0 0 0 0 0 0 0 0 0 0 0 0 0 0 0 0 0 0 0 0 0 0 0 0 0 0 0 0 0 0 0 0 0 0 0 0 0 0 0 0 0 0 811 810 808 806 806 806 806 806 806 805 804 804 803 802 802 801 800 799 799 798 797 796 795 795 794 793 793 792 791 791 790 789 789 788 788 787 787 786 786 785 785 784 783 782 781 780 779 779 777 777 776 776 774 774 773 773 773 773 773 774 774 775 777 779 780 784 793 804 810 816 822 828 831 832 833 834 834 834 834 832 829 826 823 821 820 820 819 818 816 814 814 813 813 813
960 960 977 998 1017 1034 1036 1051 1067 1084 1101 1119 1137 1153 1167 1184 1199 1211 1222 1228 1239 1249 1261 1271 1284 1294 1303 1313 1323 1330 1336 1342 1350 1354 1359 1364 1372 1380 1388 1396 1405 1408 1412 1414 1419 1423 1428 1432 1432 1432 1425 0 0 0 0 0 0 0 1449 1452 1457 1476 1496 1503 1504 1505 1506 1509 1512 1515 1516 1516 1516 1516 1513 1505 1469 1397 1394 1394 1394 1403 1403 1403 1387 1372 1372 1372 1390 1402 1434 1451 1461 1465 1465 1468 1490 1528 1543 1543 1543 0 0 0 0 1365 1349 1343 1341 1332 1313 1304 1288 0 0 0 1107 1107 1101 1106 1107 1110 1110 0 0 0 0 0 1438 1438 1438 1432 0 0 0 0 0 0 0 781 778 778 781 789 0 0 0 945 945 919 0 0 0 823 823 842 860 891 908 915 919 930 943 0 0 0 1159 1159 1159 1147 1120 1120 0 0 0 0 0 1738 1768 1783 1793 1793 1793 1790 1781 0 0 0 0 0 1282 1275 1273 1272 1266 1247 1242 1241 1237 1236 1232 1231 1229 1226 1224 1224 1222 1221 1219 1218 1217 1215 1213 1212 1210 1209 1208 1206 1205 1203 1201 1200 1198 1196 1193 1191 1189 1187 1186 1185 1183 1181 1178 1175 1174 1172 1171 1168 1160 1143 1116 1104 1085 1074 1066 1063 1061 1061 1060 1060 1060 1061 1062 1063 1065 1067 1068 1071 1073 1074 1078 1083 1089 1097 1107 1111 1111 1112 1112 1112 1112 1112 1112 1111 1110 1108 1106 1105 1104 1101 1100 1098 1097 1094 1092 1090 1088 1086 1084 1080 1076 1073 1061 1051 1043 1039 1035 1031 1029 1029 1028 1027 1027 1024 1022 1021 1021 1021 1022 1022 1022 1023 1023 1023 1025 1026 1027 1028 1028 1030 1030 1030 1030 1030 1030 1029 1028 1027 1026 1025 1025 1024 1022 1021 1019 1018 1016 1014 1013 1013 1012 1010 1008 1007 1005 1003 1003 1001 999 996 993 989 987 983 979 976 974 971 970 968 964 959 956 954 954 952 951 949 948 944 944 944 944 944 944 944 943 943 943 946 947 948 948 948 949 950 951 951 951 948 947 945 945 944 944 944 944 0 0 0 0 0 0 0 0 0 0 0 0 0 923 923 923 0 0 0 0 0 921 922 922 921 919 919 918 913 909 908 907 907 907 907 0 0 0 0 0 0 0 0 0 0 0 0 0 0 0 0 0 0 0 0 0 0 0 0 0 0 0 0 0 0 875 873 867 866 866 866 864 864 863 861 859 858 857 856 854 854 853 852 852 853 852 852 851 849 845 845 844 844 844 843 843 843 840 840 840 839 839 834 834 834 835 0 0 0 0 0 0 0 0 0 0 0 0 0 0 0 0 0 0 0 0 0 0 0 0 0 0 0 0 0 0 0 0 0 0 0 0 0 0 808 0 0 0 812 812 811 809 807 806 806 806 805 805 805 804 804 802 802 801 801 800 799 798 797 797 796 795 794 794 793 792 792 791 791 790 789 789 788 788 787 787 786 786 785 785 784 783 782 781 780 780 779 778 777 776 776 775 774 774 773 773 773 773 774 774 776 777 779 781 784 793 804 810 816 822 828 831 833 836 836 836 836 835 832 829 826 823 821 821 820 820 819 817 816 815 814 814 814
967 967 982 1001 1019 1037 1052 1056 1071 1087 1101 1121 1140 1157 1170 1186 1200 1213 1223 1228 1239 1250 1261 1271 1280 1292 1302 1313 1323 1332 1338 1345 1352 1356 1361 1366 1372 1380 1390 1398 1405 1410 1414 1416 1420 1423 1428 1432 1432 1432 1423 0 0 0 0 0 0 0 1452 1453 1461 1475 1496 1503 1504 1504 1506 1508 1510 1512 1514 1514 1514 1514 1513 1501 0 1394 1390 1390 1394 1403 1403 1403 1362 1362 1362 1370 1390 1402 1428 1441 1443 1446 1448 1468 1490 1518 1530 1530 1530 1509 0 0 1382 1360 1349 1343 1341 1332 1317 1309 1289 0 0 0 1082 1082 1082 1083 1087 1106 1118 0 0 0 0 1436 1444 1444 1444 1428 0 0 0 0 0 0 0 0 802 799 799 0 0 0 0 0 0 0 0 0 809 809 809 810 817 0 0 912 919 930 0 0 0 0 1150 1150 1150 1138 1109 1109 0 0 0 0 0 1757 1782 1789 1793 1793 1793 1792 1785 0 0 0 0 0 0 1294 1286 1282 1276 1249 1244 1244 1242 1238 1235 1232 1231 1226 1224 1224 1222 1221 1219 1218 1216 1215 1213 1212 1210 1209 1207 1206 1204 1203 1201 1200 1198 1196 1194 1192 1190 1188 1187 1185 1183 1181 1178 1175 1174 1172 1168 1165 1156 1139 1116 1098 1084 1072 1066 1063 1059 1059 1057 1057 1057 1059 1060 1062 1062 1064 1066 1068 1070 1073 1078 1083 1087 1098 1107 1111 1111 1112 1113 1113 1113 1113 1112 1112 1110 1108 1107 1106 1104 1102 1100 1099 1097 1095 1092 1090 1088 1086 1084 1080 1076 1073 1059 1051 1043 1039 1035 1031 1028 1026 1026 1026 1025 1022 1020 1020 1020 1020 1020 1022 1022 1022 1022 1022 1024 1025 1027 1027 1028 1029 1030 1030 1031 1031 1031 1030 1029 1028 1027 1026 1025 1024 1023 1021 1019 1018 1016 1016 1015 1014 1012 1011 1010 1007 1006 1005 1003 1001 999 997 993 988 985 982 978 976 972 970 968 964 961 957 953 951 950 949 947 946 945 944 943 942 942 942 941 941 941 941 942 942 942 943 944 947 948 950 951 951 951 949 948 948 0 0 0 0 0 0 0 0 0 0 0 0 0 0 0 0 0 0 0 0 0 0 0 0 0 0 0 922 922 922 919 919 918 913 909 908 908 908 907 907 907 906 905 903 901 900 900 900 900 900 897 892 891 890 888 888 887 885 884 883 883 881 879 877 877 877 877 0 0 0 0 0 0 0 0 0 0 0 0 0 0 0 0 0 0 0 0 0 0 0 0 0 0 0 0 0 0 0 0 0 0 0 0 0 0 0 0 0 0 0 0 0 0 0 0 0 0 0 0 0 0 0 0 0 0 0 0 0 0 0 0 0 0 0 0 0 0 0 0 0 0 0 0 0 0 0 0 0 812 811 808 808 808 810 810 810 809 807 806 806 806 805 805 804 804 803 802 802 801 800 800 799 798 797 796 796 795 794 793 792 792 792 791 791 790 789 789 788 788 787 787 787 786 785 785 784 783 782 781 780 780 779 778 777 776 776 775 774 774 773 773 773 773 774 774 776 777 779 781 784 793 804 809 814 822 828 831 834 836 837 837 837 835 832 829 826 824 822 821 821 821 820 818 817 816 815 814 814
971 971 986 1002 1020 1038 1056 1059 1075 1088 1105 1123 1140 1160 1172 1187 1203 1215 1226 1236 1241 1250 1261 1269 1278 1289 1301 1313 1323 1332 1340 1347 1353 1358 1363 1368 1373 1381 1391 1399 1405 1410 1414 1417 1420 1425 1428 1432 1432 1432 1423 0 0 0 0 0 0 0 1453 1453 1461 1475 1494 1503 1503 1504 1504 1507 1509 1510 1510 1512 1512 1512 1511 1497 1454 1394 1394 1394 1403 1403 1403 1374 1361 1361 1361 1367 1390 1396 1421 1441 1443 1446 1448 1468 1490 1518 1518 1518 1512 1492 1438 1406 1379 1356 1349 1343 1341 1332 1318 1310 1302 1285 0 0 0 1077 1077 1081 1083 1106 0 0 0 0 1406 1436 1443 1443 1443 1428 0 0 0 0 0 0 0 0 0 0 0 0 0 0 0 0 0 0 0 820 807 804 803 802 802 0 0 0 0 0 0 0 0 0 1119 1130 1130 1130 1130 1130 0 0 0 0 1748 1776 1786 1791 1796 1798 1798 1798 1794 0 0 0 0 0 0 0 0 0 0 0 0 1246 1242 1238 1235 1232 1231 1226 1224 1224 1222 1220 1219 1217 1215 1214 1213 1211 1209 1208 1206 1205 1204 1203 1201 1200 1198 1196 1194 1193 1190 1189 1187 1186 1183 1182 1180 1178 1175 1172 1167 1160 1153 1139 1114 1094 1080 1072 1066 1063 1059 1055 1055 1055 1055 1057 1059 1060 1061 1063 1065 1066 1068 1073 1078 1083 1087 1099 1107 1111 1111 1112 1113 1113 1113 1113 1113 1112 1111 1109 1108 1106 1104 1102 1101 1099 1097 1095 1092 1090 1088 1086 1084 1080 1076 1073 1059 1051 1043 1039 1035 1031 1027 1025 1024 1024 1022 1020 1019 1019 1019 1019 1020 1021 1021 1021 1021 1022 1023 1025 1026 1027 1028 1029 1030 1030 1030 1030 1030 1030 1029 1028 1028 1026 1025 1024 1023 1021 1020 1018 1017 1016 1015 1014 1013 1012 1010 1009 1007 1005 1003 1001 999 997 992 986 982 981 977 974 972 969 966 963 959 956 953 951 949 948 947 945 945 944 943 942 942 942 941 941 941 941 942 942 942 942 944 947 948 950 951 951 951 949 948 0 0 0 0 0 0 0 0 0 0 0 0 0 0 0 0 0 0 0 0 0 0 0 0 0 0 0 0 0 923 923 919 917 915 909 908 908 908 908 907 907 907 906 905 903 902 901 901 900 900 900 897 893 892 891 891 888 887 885 884 883 883 881 879 877 877 877 877 872 0 0 0 0 0 0 0 0 0 0 0 0 0 0 0 0 0 0 0 0 0 0 0 0 0 0 0 0 0 0 0 0 0 0 0 0 0 0 0 0 0 0 0 0 0 837 833 832 832 832 831 830 826 823 821 821 818 818 818 817 815 0 0 0 0 0 0 0 0 0 0 0 0 811 811 811 813 813 813 813 812 812 808 808 808 810 810 810 809 808 806 805 805 805 804 804 804 803 802 802 801 800 799 799 798 797 796 795 795 794 793 792 792 792 791 791 790 789 789 788 788 787 787 787 786 785 784 783 783 782 781 780 780 779 778 777 776 776 775 774 774 773 773 773 773 774 774 775 777 778 781 784 791 801 806 812 819 825 830 834 836 837 837 837 835 832 829 826 825 824 823 822 822 820 819 818 818 817 814 814
976 976 991 1006 1024 1041 1060 1063 1081 1097 1111 1127 1145 1160 1172 1188 1204 1217 1229 1240 1245 1253 1261 1269 1278 1288 1300 1311 1323 1332 1340 1347 1354 1359 1364 1368 1374 1382 1392 1399 1405 1410 1414 1419 1421 1426 1430 1432 1432 1432 1423 0 0 0 0 0 0 0 1453 1460 1461 1474 1494 1501 1502 1502 1503 1505 1507 1509 1509 1510 1510 1509 1509 1485 1437 1406 1406 1406 1407 1407 1407 1374 1361 1361 1361 1367 1388 1396 1421 1439 1443 1446 1448 1468 1496 1518 1518 1518 1500 1450 1416 1390 1370 1356 1349 1344 1343 1340 1326 1315 1302 1289 0 0 0 0 1077 1080 1083 0 0 0 0 0 1406 1433 1442 1442 1442 1442 1436 0 0 0 0 0 0 0 0 0 0 0 0 0 0 0 0 0 0 816 803 803 802 798 798 798 0 0 0 0 0 0 0 0 1117 1128 1128 1128 1128 0 0 0 0 0 1784 1785 1786 1791 1796 1799 1800 1800 1800 1795 0 0 0 0 0 0 0 0 0 0 0 0 1242 1239 1238 1232 1231 1227 1224 1223 1221 1220 1218 1217 1215 1213 1212 1210 1209 1208 1206 1205 1204 1203 1201 1200 1198 1196 1194 1193 1191 1189 1187 1187 1184 1182 1180 1178 1175 1172 1166 1159 1152 1138 1110 1094 1078 1069 1065 1063 1059 1055 1055 1055 1055 1056 1058 1059 1061 1062 1062 1065 1067 1072 1078 1083 1087 1099 1107 1111 1111 1112 1113 1113 1113 1113 1113 1112 1111 1109 1108 1106 1104 1102 1101 1099 1097 1095 1093 1091 1088 1086 1082 1077 1070 1065 1059 1051 1045 1039 1034 1031 1027 1025 1023 1021 1021 1019 1019 1019 1018 1018 1018 1019 1019 1020 1020 1020 1022 1024 1025 1027 1027 1029 1030 1030 1030 1030 1030 1030 1030 1028 1028 1027 1026 1024 1023 1022 1020 1018 1017 1016 1015 1014 1013 1012 1011 1009 1007 1005 1003 1001 1000 998 992 986 982 979 975 972 969 966 963 961 958 955 952 950 949 948 947 945 944 943 943 942 941 941 941 940 940 941 941 941 941 941 944 946 948 949 950 950 950 0 0 0 0 0 0 0 0 0 0 0 0 0 0 0 0 0 0 0 0 0 0 0 0 0 0 0 0 0 0 0 922 922 920 916 912 909 908 908 908 908 907 907 907 906 904 903 902 901 900 900 900 900 897 893 892 891 891 888 887 885 883 883 881 880 878 875 874 874 874 872 0 0 0 0 0 0 0 0 0 0 0 0 0 0 0 0 0 0 0 0 0 0 0 0 0 0 0 0 0 0 0 0 0 0 0 0 0 0 0 0 0 0 0 0 837 837 833 833 833 833 833 830 826 823 823 822 819 819 818 817 817 816 815 813 813 813 813 816 816 816 813 813 812 811 812 812 813 813 813 813 813 809 808 808 807 807 807 808 808 808 806 805 805 804 804 804 804 803 802 801 801 800 799 798 797 797 796 795 794 794 793 792 792 792 791 790 790 789 789 788 788 787 787 786 786 785 784 783 783 782 781 780 780 779 778 777 776 776 775 774 774 773 773 773 773 774 774 775 776 778 781 784 790 801 806 812 818 825 830 834 836 837 837 837 835 833 829 826 826 825 824 823 822 820 819 818 818 817 815 815
985 985 999 1014 1032 1051 1070 1073 1091 1104 1117 1130 1145 1160 1174 1188 1205 1218 1232 1243 1248 1254 1261 1269 1278 1288 1299 1310 1320 1331 1340 1347 1354 1359 1364 1369 1374 1382 1392 1399 1405 1410 1414 1419 1423 1427 1430 1432 1432 1432 1424 0 0 0 0 0 0 0 1452 1460 1462 1474 1494 1498 1500 1501 1501 1502 1505 1507 1508 1508 1508 1508 1499 1471 1423 1406 1406 1406 1406 1406 1405 1374 1362 1362 1362 1367 1388 1396 1411 1437 1450 1456 1474 1506 1522 1522 1522 1519 1481 1449 1412 1382 1361 1356 1351 1348 1346 1346 1341 1331 1314 1300 1274 0 0 0 0 0 0 0 0 0 0 1366 1405 1433 1442 1442 1446 1447 1449 1476 0 0 0 0 0 0 0 0 0 0 932 936 936 0 0 0 0 811 801 798 796 796 796 796 803 0 0 0 0 0 0 0 1117 1127 1127 1127 1127 0 0 0 0 0 1787 1787 1789 1793 1797 1799 1801 1801 1801 1797 0 0 0 0 0 0 0 0 0 0 0 0 0 1241 1240 1232 1231 1227 1224 1223 1221 1220 1218 1216 1215 1213 1212 1210 1208 1208 1206 1205 1204 1202 1201 1200 1198 1196 1194 1193 1191 1189 1188 1187 1185 1183 1180 1178 1175 1171 1166 1158 1151 1136 1109 1093 1077 1069 1065 1062 1058 1055 1055 1055 1055 1056 1057 1059 1061 1062 1062 1063 1064 1070 1078 1084 1090 1099 1107 1111 1111 1113 1113 1114 1114 1114 1113 1112 1111 1109 1108 1106 1104 1102 1101 1099 1097 1095 1093 1091 1088 1085 1082 1077 1070 1062 1058 1051 1046 1040 1034 1029 1026 1024 1021 1020 1019 1018 1018 1018 1017 1017 1017 1018 1018 1018 1019 1019 1021 1023 1023 1025 1027 1029 1030 1030 1031 1031 1031 1030 1030 1029 1028 1027 1026 1024 1023 1022 1020 1019 1018 1017 1016 1015 1013 1012 1011 1009 1007 1005 1004 1002 1000 998 992 986 981 978 974 970 968 964 961 959 958 955 952 950 949 947 945 945 944 943 943 942 941 941 941 940 940 940 940 940 941 941 943 946 948 948 949 949 948 0 0 0 0 0 0 0 0 0 0 0 0 0 0 0 0 0 0 0 0 0 0 0 0 0 0 0 0 0 0 0 919 919 919 915 911 910 910 910 910 910 909 909 907 906 904 903 902 901 900 900 900 899 896 893 892 891 891 888 887 885 883 883 881 878 878 874 874 874 874 873 0 0 0 0 0 0 0 0 0 0 0 0 0 0 0 0 0 0 0 0 0 0 0 0 0 0 0 0 0 0 0 0 0 0 0 0 0 0 0 0 0 0 0 0 837 837 833 833 833 833 832 829 825 823 822 822 821 820 819 818 817 816 815 813 813 813 813 814 814 814 813 811 811 811 811 811 813 813 813 813 813 809 808 807 807 807 807 808 808 808 807 805 805 804 804 804 803 803 802 801 801 800 799 798 797 797 796 794 794 793 792 792 792 791 791 790 790 789 789 788 788 787 787 786 786 785 784 783 783 782 781 781 780 779 778 777 776 776 775 774 774 773 773 773 773 773 774 775 776 777 780 782 790 801 806 812 818 823 829 833 835 835 835 835 835 833 829 827 827 827 825 824 822 820 819 818 818 817 815 815
992 992 1009 1025 1041 1058 1077 1095 1097 1111 1123 1133 1145 1160 1174 1189 1206 1223 1235 1243 1251 1256 1263 1270 1279 1288 1299 1310 1320 1330 1341 1348 1354 1361 1365 1371 1376 1383 1392 1399 1404 1409 1414 1419 1424 1428 1430 1434 1434 1434 1433 0 0 0 0 0 0 0 1452 1460 1462 1474 1492 1497 1498 1499 1499 1500 1503 1506 1507 1507 1507 1506 1493 1466 1414 1406 1406 1406 1406 1406 1403 1376 1371 1371 1371 1386 1388 1393 1411 1437 1459 1480 1504 1526 1548 1548 1548 1518 1480 1433 1406 1377 1361 1356 1352 1348 1347 1346 1341 1332 1325 1305 1277 0 0 0 0 0 0 0 0 0 1357 1375 1405 1433 1443 1448 1458 1463 1475 1503 1503 0 0 0 0 0 0 0 0 923 933 936 936 936 0 0 826 802 798 796 792 792 796 796 797 812 0 0 0 0 0 0 0 1127 1127 1128 0 0 0 0 0 1773 1787 1789 1789 1796 1798 1801 1803 1806 1806 1806 1798 1795 1793 1792 1792 1791 1788 0 0 0 0 0 0 1247 1244 1232 1231 1227 1226 1223 1221 1220 1218 1216 1214 1213 1211 1210 1208 1207 1206 1205 1203 1202 1201 1199 1198 1196 1194 1193 1191 1189 1188 1187 1185 1183 1180 1177 1174 1171 1165 1158 1149 1132 1107 1088 1077 1067 1065 1061 1058 1056 1055 1055 1055 1056 1057 1059 1061 1062 1062 1063 1064 1070 1078 1084 1094 1101 1107 1109 1111 1113 1113 1113 1113 1113 1113 1112 1111 1109 1108 1106 1104 1102 1101 1098 1097 1095 1093 1091 1088 1085 1082 1077 1068 1062 1057 1051 1046 1040 1034 1028 1025 1024 1021 1019 1018 1016 1016 1016 1015 1015 1016 1016 1017 1017 1017 1018 1018 1021 1023 1024 1026 1028 1029 1030 1030 1030 1030 1030 1030 1029 1028 1027 1026 1024 1023 1022 1021 1019 1018 1017 1016 1015 1013 1012 1011 1009 1008 1006 1004 1002 1000 998 992 986 981 977 972 970 966 963 961 958 955 954 951 949 947 946 944 943 943 943 943 942 941 941 941 940 940 940 940 939 939 939 942 944 947 947 948 948 948 0 0 0 0 0 0 0 0 0 0 0 0 0 0 0 0 0 0 0 0 0 0 0 0 0 0 0 0 0 0 0 0 917 917 915 912 912 912 913 913 913 911 909 908 907 904 903 902 901 900 899 899 898 896 893 893 892 891 888 887 885 884 883 881 878 876 874 874 874 874 873 0 0 0 0 0 0 0 0 0 0 0 0 0 0 0 0 0 0 0 0 0 0 0 0 0 0 0 0 0 0 0 0 0 0 0 0 0 0 0 0 0 0 0 0 838 838 833 833 833 833 833 829 825 822 822 822 821 820 819 818 817 815 815 813 812 812 812 813 813 813 813 811 811 811 809 809 809 811 813 813 813 809 808 807 807 807 807 808 808 808 807 805 805 805 804 804 803 803 802 801 800 800 798 798 797 796 796 794 794 793 792 792 792 791 791 790 789 789 789 788 787 787 786 785 785 785 784 783 783 782 781 780 780 779 778 777 776 776 775 774 773 773 773 773 773 773 774 775 775 777 779 781 790 802 809 815 818 823 828 829 832 832 834 834 834 833 831 829 828 827 826 824 822 820 819 818 818 817 815 815
1002 1002 1019 1035 1049 1067 1085 1102 1104 1119 1128 1139 1150 1163 1176 1192 1208 1224 1235 1245 1254 1258 1267 1274 1282 1290 1299 1309 1320 1330 1341 1349 1355 1362 1369 1373 1378 1384 1393 1399 1404 1409 1414 1419 1424 1429 1432 1432 1433 1433 1432 0 0 0 0 0 0 0 1449 1458 1462 1474 1491 1495 1496 1497 1497 1499 1501 1506 1507 1507 1507 1503 1488 1460 1410 1394 1394 1394 1402 1402 1402 1386 1386 1386 1387 1388 1388 1393 1411 1438 1462 1500 1530 1549 1549 1549 1548 1518 1471 1417 1391 1366 1360 1358 1353 1351 1348 1346 1341 1335 1325 1309 1291 0 0 0 0 0 0 0 0 0 1363 1385 1406 1433 1445 1448 1459 1463 1509 1509 1509 1504 0 0 0 0 0 0 0 936 933 922 918 913 0 863 826 802 788 788 788 788 790 790 790 790 813 0 0 0 0 0 0 0 0 0 0 0 0 0 0 1785 1789 1791 1792 1798 1800 1802 1804 1806 1806 1806 1806 1804 1804 1804 1803 1803 1802 1790 0 0 0 0 0 1259 1249 1236 1232 1227 1226 1222 1220 1219 1218 1216 1214 1212 1211 1209 1208 1207 1206 1204 1203 1202 1200 1199 1198 1196 1194 1193 1191 1189 1188 1186 1185 1183 1180 1177 1174 1170 1164 1155 1143 1121 1102 1084 1067 1061 1060 1060 1058 1056 1056 1056 1056 1056 1057 1059 1061 1063 1063 1064 1064 1070 1078 1085 1094 1101 1107 1109 1111 1113 1113 1113 1113 1113 1113 1112 1111 1109 1107 1106 1104 1102 1100 1098 1097 1095 1093 1091 1088 1084 1081 1076 1067 1060 1055 1051 1046 1040 1032 1026 1023 1020 1019 1018 1016 1015 1015 1015 1015 1014 1014 1014 1014 1015 1015 1017 1018 1019 1022 1024 1026 1028 1029 1029 1030 1030 1030 1030 1030 1029 1028 1027 1026 1024 1023 1022 1021 1019 1018 1017 1016 1015 1014 1012 1011 1009 1008 1006 1004 1002 1000 998 992 986 979 975 971 968 966 962 959 957 954 952 950 948 946 945 944 942 942 942 942 941 940 940 940 940 940 939 939 939 939 939 942 944 946 947 947 949 949 0 0 0 0 0 0 0 0 0 0 0 0 0 0 0 0 0 0 0 0 0 0 0 0 0 0 0 0 0 0 0 0 915 915 915 913 913 913 913 913 913 911 910 908 907 905 904 902 901 900 899 898 896 896 894 894 893 891 889 887 886 884 883 881 878 876 874 874 874 874 873 0 0 0 0 0 0 0 0 0 0 0 0 0 0 0 0 0 0 0 0 0 0 0 0 0 0 0 0 0 0 0 0 0 0 0 0 0 0 0 0 0 0 0 0 838 838 836 835 833 832 832 829 825 822 822 822 820 820 819 819 818 815 815 813 812 812 812 812 811 811 811 811 811 808 807 807 807 808 811 811 811 809 808 807 807 807 807 808 808 808 807 805 805 805 804 804 803 803 802 801 800 799 798 797 797 796 796 794 794 793 792 792 791 791 791 790 789 789 789 788 788 787 786 785 785 784 784 783 783 782 781 780 779 779 778 777 776 776 775 774 773 773 773 773 773 773 773 774 775 777 779 781 790 802 809 816 819 825 827 829 829 830 831 833 833 833 831 829 828 827 826 824 822 819 819 817 817 816 815 815
1016 1016 1032 1045 1058 1075 1094 1111 1113 1124 1133 1145 1159 1171 1184 1196 1211 1224 1236 1246 1257 1261 1270 1278 1285 1291 1299 1309 1319 1330 1340 1349 1358 1365 1371 1376 1379 1386 1393 1399 1405 1409 1414 1419 1424 1429 1432 1432 1433 1433 1431 0 0 0 0 0 0 0 1434 1443 1461 1473 1489 1494 1495 1496 1496 1499 1501 1505 1506 1506 1506 1494 1469 1448 1410 1385 1382 1382 1385 1392 1403 1407 1407 1407 1407 1390 1390 1390 1394 1438 1479 1524 1544 1566 1566 1566 1548 0 0 1403 1372 1366 1360 1359 1355 1351 1348 1347 1343 1338 1326 1310 1295 1275 0 0 0 0 0 0 0 1325 1363 1385 1405 1441 1457 1462 1471 1491 1509 1509 1509 1504 1483 0 0 0 0 0 0 937 932 914 901 901 0 855 827 802 788 784 784 784 784 785 789 790 802 815 0 0 0 0 0 0 0 0 0 0 0 0 1776 1793 1794 1795 1801 1801 1801 1802 1804 1806 1806 1806 1806 1804 1804 1804 1803 1803 1803 1794 0 0 0 0 0 1259 1251 1245 1232 1227 1226 1222 1219 1219 1218 1216 1214 1212 1210 1209 1208 1207 1206 1204 1203 1202 1200 1199 1197 1196 1194 1193 1191 1189 1188 1186 1184 1182 1180 1177 1174 1170 1164 1154 1138 1113 1099 1077 1066 1061 1060 1060 1058 1057 1056 1056 1056 1056 1057 1058 1061 1063 1063 1064 1068 1074 1082 1085 1094 1101 1106 1108 1111 1112 1113 1113 1113 1113 1113 1111 1110 1109 1107 1105 1104 1102 1100 1098 1097 1094 1092 1090 1087 1084 1081 1075 1067 1057 1050 1045 1043 1037 1032 1026 1022 1020 1019 1017 1015 1014 1014 1014 1013 1012 1012 1012 1013 1013 1014 1015 1018 1019 1022 1023 1025 1028 1029 1029 1030 1031 1031 1031 1030 1029 1028 1027 1026 1024 1023 1022 1021 1019 1018 1017 1016 1015 1014 1012 1011 1009 1008 1006 1004 1002 1000 998 993 986 979 975 971 967 964 961 958 955 952 950 948 947 945 945 943 942 942 941 941 940 940 939 939 939 939 939 938 938 938 939 942 943 945 946 948 949 949 0 0 0 0 0 0 0 0 0 0 0 0 0 0 0 0 0 0 0 0 0 0 0 0 0 0 0 0 0 0 0 0 911 911 911 911 911 913 913 913 913 911 910 908 907 905 904 903 902 901 899 897 896 895 894 894 893 891 889 887 886 884 883 881 877 876 875 874 874 874 873 0 0 0 0 0 0 0 0 0 0 0 0 0 0 0 0 0 0 0 0 0 0 0 0 0 0 0 0 0 0 0 0 0 0 0 0 0 0 0 0 0 0 0 0 0 839 839 838 833 830 830 828 824 822 821 820 820 819 819 818 818 815 815 812 812 812 812 811 811 811 810 810 808 807 807 807 807 807 808 809 809 809 808 807 807 807 807 807 807 807 807 805 805 804 804 803 803 802 801 801 800 799 798 797 797 796 795 794 794 793 793 792 791 791 790 790 789 789 789 788 787 787 786 785 785 784 783 783 782 781 781 780 779 779 778 777 776 776 775 774 773 773 772 772 772 773 773 774 775 777 778 780 790 802 809 816 822 825 827 829 829 829 830 831 831 831 831 829 828 827 826 824 821 819 817 816 816 815 815 815
1028 1028 1043 1055 1069 1086 1102 1116 1119 1129 1138 1152 1168 1181 1191 1203 1216 1230 1239 1247 1257 1261 1272 1279 1285 1291 1298 1309 1319 1330 1340 1349 1358 1365 1372 1376 1382 1388 1394 1400 1406 1409 1414 1417 1423 1429 1429 1429 1426 1420 1401 0 0 0 0 0 0 0 1426 1434 1450 1468 1489 1492 1493 1495 1495 1499 1501 1505 1505 1505 1498 1484 1457 1436 1410 1382 1377 1377 1382 1392 1403 1407 1407 1407 1407 1388 1388 1388 1394 1438 0 1533 1555 1566 1566 1566 0 0 0 1389 1372 1366 1362 1359 1355 1351 1348 1346 1343 1338 1328 1315 1295 1273 0 0 0 0 0 0 0 1325 1363 1385 1405 1454 1469 1470 1484 1496 1508 1508 1508 1494 1476 1460 0 0 0 0 0 959 932 914 901 901 0 855 831 813 793 785 783 783 783 785 789 790 802 815 0 0 0 0 0 0 0 0 0 0 0 0 1789 1794 1795 1797 1801 1801 1802 1802 1804 1805 1806 1806 1806 1804 1804 1804 1803 1803 1803 1795 1770 0 0 0 0 1259 1251 1245 1232 1227 1226 1223 1220 1219 1218 1216 1214 1212 1210 1209 1208 1206 1205 1203 1202 1201 1200 1198 1196 1195 1194 1192 1190 1189 1187 1186 1184 1182 1180 1177 1173 1169 1164 1154 1137 1110 1089 1073 1066 1061 1060 1060 1058 1057 1056 1056 1056 1056 1057 1058 1061 1063 1064 1065 1069 1074 1082 1089 1094 1099 1106 1108 1111 1112 1112 1112 1112 1112 1112 1110 1109 1108 1107 1105 1104 1102 1100 1098 1096 1094 1092 1090 1086 1083 1080 1075 1065 1056 1050 1044 1040 1035 1029 1024 1022 1020 1019 1016 1015 1014 1013 1013 1013 1012 1012 1012 1013 1013 1013 1014 1017 1019 1022 1023 1025 1028 1029 1029 1030 1030 1030 1030 1030 1029 1028 1027 1025 1024 1023 1022 1021 1019 1018 1017 1016 1015 1013 1012 1011 1009 1008 1005 1004 1002 999 997 993 986 979 975 971 966 963 959 956 953 952 950 948 946 945 944 943 942 941 941 940 940 939 939 939 939 939 938 938 938 938 939 941 943 944 946 949 949 949 0 0 0 0 0 0 0 0 0 0 0 0 0 0 0 0 0 0 0 0 0 0 0 0 0 0 0 0 0 0 0 0 909 909 909 909 910 913 913 913 913 911 910 908 907 905 904 903 902 901 899 897 896 895 894 894 892 890 889 887 886 884 883 881 877 876 875 875 875 875 874 0 0 0 0 0 0 0 0 0 0 0 0 0 0 0 0 0 0 0 0 0 0 0 0 0 0 0 0 0 0 0 0 0 0 0 0 0 0 0 0 0 0 0 0 0 838 838 838 833 828 826 825 824 821 821 820 820 819 819 818 817 815 814 812 812 812 812 811 810 810 810 810 808 807 807 807 807 807 807 808 808 808 808 807 806 806 806 806 806 806 806 806 805 804 804 803 803 802 801 801 799 799 798 797 797 796 795 795 794 793 793 792 791 791 790 790 789 789 788 788 787 787 786 785 784 784 783 783 782 781 780 779 779 778 778 777 776 776 775 774 773 772 772 772 772 773 773 773 775 777 777 780 790 802 808 817 823 826 827 829 829 829 830 831 831 831 830 828 827 826 826 823 820 817 815 815 815 815 815 815
1036 1036 1051 1066 1078 1093 1107 1121 1131 1135 1147 1161 1175 1191 1202 1215 1228 1239 1245 1251 1259 1269 1272 1280 1285 1291 1298 1305 1317 1329 1341 1349 1358 1365 1372 1378 1383 1389 1395 1401 1407 1410 1414 1417 1422 1426 1426 1426 1426 1419 1399 0 0 0 0 0 0 0 1426 1434 1450 1464 1485 1491 1491 1493 1494 1499 1501 1501 1501 1491 1477 1465 1449 1433 1408 1372 1371 1371 1372 1388 1403 1407 1407 1407 1407 1387 1387 1387 1394 0 0 1544 1568 1568 1568 1556 0 0 1392 1373 1365 1363 1362 1358 1355 1351 1348 1347 1343 1340 1336 1333 1306 1273 0 0 0 0 0 0 0 0 1325 1361 1406 1455 1477 1483 1490 1496 1506 1506 1506 1493 1476 1460 0 0 0 0 0 0 933 914 901 0 0 855 835 816 801 788 783 783 783 785 786 790 802 815 0 0 0 0 0 0 0 0 0 0 0 1766 1796 1796 1799 1800 1801 1801 1802 1802 1804 1804 1805 1805 1805 1804 1804 1804 1803 1803 1803 1795 1778 0 0 0 0 1251 1249 1245 1232 1227 1226 1223 1221 1220 1218 1216 1214 1212 1210 1209 1207 1206 1205 1203 1202 1200 1199 1197 1196 1194 1193 1191 1190 1188 1186 1185 1183 1181 1179 1177 1173 1168 1164 1153 1136 1105 1084 1071 1066 1062 1061 1060 1058 1057 1056 1056 1056 1056 1057 1059 1061 1063 1064 1066 1069 1074 1083 1089 1094 1099 1106 1108 1110 1111 1112 1112 1112 1112 1111 1110 1109 1107 1107 1105 1103 1102 1100 1098 1096 1094 1091 1089 1086 1082 1079 1073 1062 1055 1049 1043 1037 1032 1027 1024 1022 1020 1018 1016 1015 1013 1012 1012 1012 1011 1011 1012 1012 1012 1013 1013 1016 1019 1021 1023 1025 1028 1029 1029 1030 1030 1030 1030 1030 1029 1028 1026 1025 1024 1023 1022 1021 1019 1018 1017 1016 1015 1013 1012 1010 1009 1007 1005 1004 1002 999 996 993 986 979 975 970 966 962 958 955 953 951 950 947 946 945 944 943 942 941 941 940 940 939 939 939 939 938 938 937 937 937 937 939 943 944 946 949 949 0 0 0 0 0 0 0 0 0 0 0 0 0 0 0 0 0 0 0 0 0 0 0 0 0 0 0 0 0 0 0 0 909 909 909 909 909 909 912 912 912 911 911 909 908 906 905 904 903 902 901 899 897 896 895 894 894 892 890 889 887 886 884 883 881 877 876 876 876 875 875 875 0 0 0 0 0 0 0 0 0 0 0 0 0 0 0 0 0 0 0 0 0 0 0 0 0 0 0 0 0 0 0 0 0 0 0 0 0 0 0 0 0 0 0 0 0 838 838 838 833 827 824 823 822 821 820 820 819 818 818 818 817 815 813 812 812 812 811 811 810 810 810 809 807 807 807 807 807 807 807 808 808 808 807 807 806 806 806 806 806 806 806 805 805 804 804 803 802 802 801 800 799 799 798 797 797 796 796 795 794 793 793 792 791 791 790 790 789 789 788 787 787 787 785 785 784 784 783 783 782 781 780 779 779 778 778 777 776 775 775 774 773 772 772 772 772 772 773 773 775 777 777 781 789 802 808 817 823 827 828 829 829 830 830 831 831 831 829 828 826 826 825 823 819 817 814 814 814 813 814 814
1043 1043 1057 1071 1084 1098 1112 1125 1137 1139 1150 1163 1181 1199 1212 1224 1233 1242 1247 1254 1262 1270 1274 1280 1286 1291 1298 1305 1317 1329 1341 1349 1356 1365 1372 1378 1383 1389 1395 1401 1407 1411 1414 1417 1421 1423 1425 1425 1425 1417 1395 0 0 0 0 0 0 0 1426 1442 1450 1464 1483 1489 1490 1491 1493 1496 1500 1500 1500 1490 1455 1448 1446 1432 1402 1371 1368 1368 1368 1384 1397 1397 1397 1393 1392 1387 1387 0 0 0 0 1569 1576 1576 1576 0 0 0 1381 1365 1363 1362 1362 1359 1355 1351 1348 1347 1343 1342 1342 1341 1323 0 0 0 0 0 0 0 0 0 0 0 1406 1458 1488 1490 1493 1496 1498 1498 1498 1479 1471 1459 0 0 0 0 0 0 0 0 0 0 0 0 836 817 803 788 781 781 781 785 786 792 810 811 0 0 0 0 0 0 0 0 0 0 1737 1775 1797 1798 1799 1800 1801 1801 1801 1802 1803 1804 1804 1804 1804 1803 1803 1803 1802 1802 1801 1794 1778 0 0 0 0 1249 1248 1241 1231 1227 1225 1222 1220 1220 1218 1216 1214 1212 1210 1209 1207 1206 1204 1203 1201 1200 1198 1197 1195 1194 1193 1191 1189 1187 1185 1185 1183 1181 1179 1175 1172 1168 1162 1153 1136 1100 1077 1071 1066 1064 1063 1060 1058 1057 1057 1057 1057 1057 1058 1059 1061 1063 1064 1066 1069 1075 1083 1091 1097 1099 1105 1108 1110 1111 1111 1111 1111 1111 1111 1110 1109 1107 1105 1105 1103 1101 1099 1097 1095 1094 1091 1089 1085 1082 1077 1069 1061 1055 1049 1043 1037 1031 1027 1023 1022 1020 1018 1015 1014 1013 1012 1011 1011 1011 1011 1011 1012 1012 1012 1012 1015 1019 1021 1023 1025 1028 1029 1029 1030 1030 1030 1030 1029 1028 1027 1026 1025 1024 1022 1021 1020 1019 1018 1017 1016 1014 1013 1011 1010 1009 1007 1005 1003 1002 998 995 991 986 979 975 970 965 961 958 955 952 950 949 947 946 945 944 943 942 941 941 940 940 939 939 939 939 938 938 937 937 937 937 939 943 945 946 949 0 0 0 0 0 0 0 0 0 0 0 0 0 0 0 0 0 0 0 0 0 0 0 0 0 0 0 0 0 0 0 0 0 911 911 910 908 908 908 910 911 911 911 910 909 908 906 905 904 903 902 901 899 897 896 895 894 893 891 889 888 886 884 883 883 881 880 878 877 876 876 875 875 0 0 0 0 0 0 0 0 0 0 0 0 0 0 0 0 0 0 0 0 0 0 0 0 0 0 0 0 0 0 0 0 0 0 0 0 0 0 0 0 0 0 0 0 0 836 836 836 832 826 822 822 821 820 820 820 819 818 818 818 816 815 813 812 812 812 811 811 810 810 810 809 807 807 807 807 807 807 807 807 807 807 807 806 806 806 805 805 805 805 805 805 805 804 804 803 802 802 801 800 799 799 798 797 797 796 796 795 794 793 793 792 791 791 790 790 789 789 788 787 787 786 785 785 784 783 783 782 781 781 780 779 779 778 777 776 776 775 774 773 773 772 772 772 772 772 772 773 774 777 778 781 789 802 808 818 823 827 828 829 830 830 831 831 831 830 829 827 826 826 824 822 818 816 813 813 812 812 812 812
1045 1045 1061 1075 1089 1100 1117 1129 1139 1143 1153 1166 1183 1203 1214 1226 1237 1244 1249 1256 1264 1272 1276 1281 1288 1291 1300 1305 1317 1329 1341 1348 1355 1361 1369 1378 1383 1389 1395 1401 1407 1411 1414 1417 1421 1423 1425 1425 1425 1419 1399 0 0 0 0 0 0 0 1432 1444 1453 1464 1482 1489 1489 1490 1492 1495 1495 1495 1485 1474 1455 1448 1446 1427 1397 1375 1358 1354 1354 1354 1367 1374 1378 1382 1384 0 0 0 0 0 1566 1582 1582 1582 1570 0 0 1401 1364 1364 1362 1360 1360 1359 1355 1351 1348 1347 1347 1347 1346 1345 1333 0 0 0 0 0 0 0 0 0 0 0 0 0 1488 1488 1490 1490 1490 1490 1490 1474 1468 0 0 0 0 0 0 0 0 0 0 0 0 0 0 0 806 796 781 781 781 790 792 806 812 825 0 0 0 0 0 0 0 0 0 0 1752 1781 1799 1799 1799 1801 1801 1801 1801 1802 1803 1803 1804 1804 1803 1803 1803 1802 1802 1801 1797 1791 1777 0 0 0 0 1249 1243 1237 1230 1229 1225 1222 1220 1220 1218 1216 1214 1212 1210 1208 1207 1205 1204 1203 1201 1200 1198 1197 1195 1194 1193 1190 1189 1186 1185 1184 1182 1181 1179 1175 1171 1168 1161 1150 1121 1093 1077 1069 1066 1064 1064 1062 1058 1058 1057 1057 1057 1058 1059 1060 1061 1063 1064 1066 1070 1075 1083 1092 1098 1102 1105 1109 1109 1110 1111 1111 1111 1111 1110 1109 1108 1106 1105 1103 1102 1101 1099 1096 1095 1093 1091 1088 1085 1082 1077 1068 1061 1055 1049 1043 1036 1030 1026 1023 1022 1020 1018 1015 1013 1013 1012 1011 1011 1011 1011 1011 1011 1011 1012 1012 1015 1018 1021 1023 1025 1028 1029 1029 1030 1030 1030 1029 1029 1028 1027 1026 1025 1024 1022 1021 1020 1019 1017 1017 1016 1014 1013 1011 1010 1008 1006 1004 1002 1001 998 994 989 985 979 975 970 965 961 958 954 952 950 948 947 946 945 944 943 942 941 941 940 940 940 939 939 939 939 938 937 937 937 937 939 943 945 947 0 0 0 0 0 0 0 0 0 0 0 0 0 0 0 0 0 0 0 0 0 0 0 0 0 0 0 0 0 0 0 0 0 0 912 912 910 908 908 908 909 911 911 911 909 908 907 906 905 903 903 902 901 899 897 896 895 894 892 891 889 887 885 884 883 883 881 880 879 879 878 877 875 875 0 0 0 0 0 0 0 0 0 0 0 0 0 0 0 0 0 0 0 0 0 0 0 0 0 0 0 0 0 0 0 0 0 0 0 0 0 0 0 0 0 0 0 0 0 0 836 832 825 824 822 822 821 820 820 820 819 818 818 817 816 815 814 812 811 811 810 810 810 810 809 808 807 807 807 807 807 807 807 807 807 807 807 806 806 805 805 805 805 805 805 805 804 804 803 803 802 801 800 800 799 798 798 797 796 796 795 795 794 793 793 792 791 791 790 789 789 789 788 787 787 786 785 785 783 783 782 781 781 780 780 779 779 778 777 776 776 775 774 773 773 772 772 772 772 772 772 773 774 777 779 781 789 803 811 818 823 827 828 829 830 831 831 831 830 829 828 827 826 825 824 821 818 815 813 810 810 810 810 810
1045 1045 1061 1076 1091 1104 1119 1130 1139 1152 1155 1168 1186 1204 1214 1226 1237 1248 1253 1260 1267 1274 1282 1285 1292 1295 1300 1311 1320 1330 1341 1348 1354 1359 1367 1377 1384 1389 1396 1401 1407 1411 1415 1418 1421 1423 1425 1425 1425 1420 1399 0 0 0 0 0 0 0 1442 1446 1453 1464 1481 1489 1489 1489 1491 1494 1494 1494 1485 1474 1455 1449 1448 1427 1393 1375 1358 1354 1354 1352 1354 1354 1355 1355 0 0 0 0 1545 1556 1582 1582 1582 1580 0 0 0 1383 1359 1359 1359 1360 1360 1360 1358 1354 1352 1349 1349 1348 1347 1347 1340 0 0 0 0 0 0 0 0 0 0 0 0 0 1486 1486 1486 1486 1486 1482 1482 0 0 0 0 0 0 0 0 1031 1031 1031 1041 0 0 0 0 0 0 0 0 0 0 0 811 811 817 0 0 0 0 0 0 0 0 0 0 1742 1776 1794 1799 1801 1801 1801 1801 1801 1802 1802 1803 1803 1803 1803 1803 1803 1803 1801 1801 1800 1796 1788 1767 0 0 0 0 1261 1243 1237 1230 1229 1225 1222 1220 1220 1217 1216 1214 1212 1210 1208 1207 1205 1204 1202 1201 1200 1198 1196 1195 1193 1192 1190 1189 1186 1184 1183 1181 1179 1177 1174 1170 1164 1158 1148 1121 1093 1077 1069 1065 1064 1064 1064 1061 1060 1058 1058 1058 1059 1060 1061 1062 1063 1065 1066 1070 1077 1085 1093 1099 1102 1106 1109 1109 1110 1110 1110 1110 1110 1109 1108 1107 1106 1105 1103 1101 1100 1099 1096 1094 1093 1090 1088 1085 1082 1077 1068 1059 1055 1046 1040 1034 1029 1024 1023 1022 1020 1017 1015 1013 1012 1011 1010 1010 1010 1011 1011 1011 1011 1011 1012 1015 1018 1021 1023 1025 1027 1028 1029 1030 1030 1030 1029 1029 1028 1027 1026 1025 1024 1022 1021 1020 1019 1017 1016 1015 1014 1013 1011 1009 1008 1006 1004 1002 1000 998 993 988 985 977 973 969 965 961 958 954 952 950 948 947 946 945 943 943 942 942 941 941 941 940 940 940 940 940 939 939 939 939 939 945 948 950 950 0 0 0 0 0 0 0 0 0 0 0 0 0 0 0 0 0 0 0 0 0 0 0 0 0 0 0 0 0 0 0 0 0 0 916 912 911 908 908 908 909 910 910 910 909 908 906 905 905 903 903 901 900 899 897 895 894 892 892 890 889 886 885 884 883 883 880 880 879 879 878 877 877 875 0 0 0 0 0 0 0 0 0 0 0 0 0 0 0 0 0 0 0 0 0 0 0 0 0 0 0 0 0 0 0 0 0 0 0 0 0 0 0 0 0 0 0 0 0 0 829 829 824 822 821 821 821 820 820 820 818 818 818 816 816 815 814 813 811 811 810 810 810 809 809 808 807 807 807 807 807 806 806 806 806 806 806 806 805 805 805 805 805 804 804 804 804 804 803 803 802 801 800 800 799 798 798 797 796 796 795 795 794 793 792 792 791 790 790 789 789 788 788 786 786 785 785 784 783 782 782 781 781 780 780 779 778 778 777 776 776 775 774 773 772 772 772 772 772 772 772 772 774 776 779 783 789 803 811 818 822 825 827 829 829 831 831 831 830 829 828 827 825 825 824 820 818 815 812 810 809 809 809 809
1045 1045 1062 1078 1093 1108 1119 1130 1139 1152 1155 1171 1188 1204 1216 1227 1237 1248 1255 1261 1270 1278 1286 1290 1295 1300 1303 1311 1321 1332 1341 1347 1353 1359 1367 1377 1384 1389 1396 1401 1407 1411 1417 1421 1423 1426 1426 1426 1425 1423 0 0 0 0 0 0 0 0 0 1446 1453 1464 1481 1489 1489 1490 1491 1493 1493 1493 1485 1474 1470 1467 1465 1427 1393 1375 1358 1340 1340 1340 1340 1340 1345 1345 0 0 0 1540 1563 1564 1582 1582 1582 1568 0 0 0 1363 1357 1357 1357 1360 1361 1361 1361 1359 1354 1349 1349 1349 1348 1347 1341 0 0 0 0 0 0 0 0 0 0 0 0 0 1480 1480 1480 1471 1458 0 0 0 0 0 0 0 0 0 1057 1057 1057 1052 1057 1052 0 0 0 0 0 0 0 0 0 0 0 0 0 0 0 0 0 0 0 0 0 0 0 1763 1791 1797 1799 1801 1801 1802 1802 1803 1803 1803 1803 1803 1803 1803 1802 1802 1802 1802 1800 1800 1796 1785 1751 0 0 0 0 1261 1243 1237 1229 1229 1224 1220 1219 1218 1217 1215 1213 1212 1210 1208 1206 1205 1203 1202 1200 1199 1197 1195 1194 1193 1191 1189 1188 1185 1184 1181 1180 1178 1175 1173 1170 1164 1158 1147 1121 1093 1080 1069 1065 1064 1064 1064 1063 1062 1060 1060 1060 1060 1062 1063 1064 1066 1066 1067 1072 1079 1086 1093 1100 1104 1107 1109 1109 1109 1110 1110 1110 1109 1109 1107 1107 1105 1104 1102 1101 1099 1098 1096 1094 1093 1090 1088 1084 1082 1077 1068 1059 1051 1043 1037 1029 1025 1023 1022 1022 1020 1017 1015 1013 1012 1011 1010 1010 1010 1011 1011 1011 1011 1011 1013 1015 1018 1021 1023 1025 1027 1028 1029 1030 1030 1030 1029 1029 1028 1027 1026 1025 1024 1022 1021 1020 1018 1017 1016 1015 1013 1012 1011 1009 1007 1006 1004 1002 999 998 993 987 983 976 972 969 965 961 957 954 951 949 948 947 945 945 943 943 942 942 941 941 941 940 940 940 940 940 939 939 939 939 939 945 951 956 956 0 0 0 0 0 0 0 0 0 0 0 0 0 0 0 0 0 0 0 0 0 0 0 0 0 0 0 0 0 0 0 0 0 916 916 916 911 908 908 908 909 909 909 909 909 908 906 905 904 903 903 901 899 898 897 895 894 892 891 890 888 886 885 883 882 882 880 880 879 879 878 877 877 875 0 0 0 0 0 0 0 0 0 0 0 0 0 0 0 0 0 0 0 0 0 0 0 0 0 0 0 0 0 0 0 0 0 0 0 0 0 0 0 0 0 0 0 0 0 0 828 828 824 822 821 821 821 821 820 820 818 818 817 816 815 814 813 813 811 810 810 810 810 809 809 808 807 807 807 806 806 806 806 806 806 805 805 805 805 805 805 804 804 804 804 804 803 803 803 802 802 801 800 799 799 798 798 797 796 796 795 795 794 793 792 791 791 790 790 789 788 788 787 786 786 785 785 783 783 782 781 781 780 780 780 779 778 777 777 776 776 775 774 773 772 772 771 771 771 771 771 772 774 777 779 783 790 803 811 817 819 823 825 827 829 830 830 830 830 829 828 827 825 823 822 820 817 814 811 810 809 809 808 808
1043 1043 1062 1080 1094 1108 1119 1130 1139 1152 1156 1171 1188 1204 1214 1227 1239 1250 1256 1263 1271 1282 1289 1292 1298 1302 1307 1314 1323 1332 1341 1346 1353 1359 1367 1377 1384 1389 1396 1401 1407 1412 1418 1422 1425 1427 1429 1429 1429 1424 0 0 0 0 0 0 0 0 0 1446 1453 1464 1481 1490 1490 1490 1491 1492 1493 1493 1493 1491 1491 1489 1465 1405 1393 1375 1358 1334 1334 1332 1332 1331 1331 1331 0 0 1542 1548 1574 1575 1575 1575 1572 0 0 0 1369 1354 1354 1354 1357 1359 1361 1361 1361 1359 1355 1350 1350 1350 1348 1347 1346 0 0 0 0 0 0 0 0 0 0 0 0 0 1457 1457 1457 0 0 0 0 0 0 0 0 0 0 0 1067 1067 1067 1057 1057 1052 1052 0 0 0 0 0 0 0 0 0 0 0 0 0 0 0 0 0 0 0 0 0 0 1783 1798 1800 1801 1801 1802 1803 1803 1803 1803 1804 1804 1804 1803 1802 1801 1801 1801 1800 1800 1800 1794 1779 0 0 0 0 0 1261 1244 1237 1229 1228 1223 1220 1219 1218 1217 1215 1213 1211 1210 1208 1206 1205 1203 1201 1200 1199 1196 1194 1193 1192 1190 1188 1187 1185 1182 1181 1179 1176 1174 1173 1169 1164 1158 1147 1121 1095 1084 1071 1065 1064 1064 1064 1063 1062 1062 1062 1062 1062 1063 1064 1066 1067 1067 1068 1073 1080 1086 1093 1100 1104 1107 1109 1109 1109 1110 1110 1110 1109 1108 1107 1106 1105 1103 1102 1101 1099 1098 1096 1094 1092 1089 1086 1083 1079 1077 1068 1058 1047 1038 1032 1027 1025 1023 1022 1021 1019 1017 1015 1013 1011 1011 1010 1010 1010 1010 1010 1010 1011 1011 1014 1015 1018 1021 1023 1025 1027 1028 1029 1030 1030 1030 1029 1029 1027 1027 1026 1025 1024 1022 1021 1020 1018 1017 1016 1014 1013 1012 1011 1009 1007 1005 1004 1001 999 997 993 986 981 976 972 968 963 959 956 953 951 948 947 947 945 944 943 943 942 942 942 941 941 940 940 940 940 940 939 939 939 939 939 945 951 956 956 0 0 0 0 0 0 0 0 0 0 0 0 0 0 0 0 0 0 0 0 0 0 0 0 0 0 0 0 0 0 0 0 0 916 916 916 911 909 909 909 909 909 909 909 908 907 906 905 904 903 903 901 899 898 896 894 893 891 890 889 888 886 885 882 881 881 880 880 880 879 878 876 876 876 0 0 0 0 0 0 0 0 0 0 0 0 0 0 0 0 0 0 0 0 0 0 0 0 0 0 0 0 0 0 0 0 0 0 0 0 0 0 0 0 0 0 0 0 0 0 828 828 824 822 822 821 821 821 820 819 818 818 817 816 815 814 813 813 811 810 810 809 809 809 808 808 807 807 806 806 806 806 806 805 805 805 805 805 805 804 804 804 804 804 804 803 803 803 803 802 802 801 800 799 799 798 797 797 796 796 795 794 794 793 792 791 791 790 789 789 788 788 787 786 785 785 784 783 782 782 781 781 780 779 779 779 778 777 777 776 776 775 774 773 772 772 771 771 771 771 771 772 774 777 779 783 790 800 809 814 819 823 825 827 828 830 830 830 830 829 827 826 824 822 821 818 816 814 811 809 809 809 808 808
1043 1043 1062 1080 1095 1108 1119 1127 1135 1152 1157 1171 1188 1203 1214 1227 1240 1251 1258 1266 1273 1282 1289 1295 1299 1303 1308 1314 1323 1333 1341 1346 1353 1362 1372 1379 1387 1393 1397 1403 1408 1413 1418 1422 1425 1429 1430 1430 1430 1425 0 0 0 0 0 0 0 0 0 1445 1454 1462 1480 1490 1490 1491 1491 1492 1493 1494 1496 1496 1496 1491 1465 1399 1393 1375 1358 1334 1332 1331 1321 1315 1315 1315 0 0 1557 1558 1575 1575 1575 1575 0 0 0 0 1353 1353 1353 1355 1357 1359 1360 1360 1360 1360 1355 1351 1351 1351 1351 1351 1349 0 0 0 0 0 0 0 0 0 0 0 0 0 0 0 0 0 0 0 0 0 0 0 0 0 0 0 0 1084 1067 1057 1052 1037 995 0 0 0 0 0 0 0 0 0 0 0 0 0 0 0 0 0 0 0 0 0 1764 1793 1800 1800 1801 1802 1803 1803 1803 1803 1803 1804 1804 1804 1803 1802 1801 1801 1801 1800 1799 1798 1793 1777 0 0 0 0 0 1254 1244 1236 1228 1227 1222 1220 1219 1218 1216 1214 1213 1211 1209 1208 1206 1205 1203 1201 1200 1198 1196 1194 1192 1190 1189 1187 1186 1184 1181 1180 1177 1175 1173 1171 1169 1164 1157 1146 1121 1102 1086 1075 1067 1065 1065 1064 1063 1063 1063 1063 1063 1063 1064 1066 1067 1067 1068 1068 1073 1081 1086 1093 1100 1104 1108 1109 1109 1109 1109 1109 1109 1109 1108 1107 1106 1104 1103 1101 1100 1099 1097 1095 1093 1091 1088 1085 1082 1079 1075 1068 1058 1047 1038 1032 1027 1025 1023 1022 1021 1019 1017 1015 1013 1011 1011 1010 1009 1009 1009 1010 1010 1010 1012 1014 1017 1019 1021 1023 1025 1027 1028 1029 1029 1029 1029 1029 1028 1027 1027 1026 1025 1023 1022 1021 1020 1018 1017 1016 1014 1013 1012 1010 1009 1006 1005 1003 1001 998 996 992 985 980 976 972 967 963 959 956 953 951 948 947 946 945 944 943 943 942 942 942 942 941 940 940 940 940 940 939 939 938 938 939 942 951 955 955 955 0 0 0 0 0 0 0 0 0 0 0 0 0 0 0 0 0 0 0 0 0 0 0 0 0 0 0 0 0 0 0 0 915 915 913 913 909 909 909 909 909 909 908 908 907 906 904 904 903 902 901 899 898 896 894 892 891 890 889 887 886 884 882 881 881 880 880 879 878 876 875 875 874 0 0 0 0 0 0 0 0 0 0 0 0 0 0 0 0 0 0 0 0 0 0 0 0 0 0 0 0 0 0 0 0 0 0 0 0 0 0 0 0 0 0 0 0 0 0 827 827 824 824 822 821 821 821 820 819 818 817 817 816 815 814 813 813 811 810 810 809 809 809 808 808 807 806 806 806 806 806 805 805 805 805 805 805 805 804 804 804 804 804 804 803 803 803 802 802 801 800 800 799 798 798 797 797 796 796 795 794 793 793 792 791 791 790 789 788 788 788 786 786 785 785 783 783 782 782 780 780 779 779 779 778 778 777 777 776 776 774 774 773 772 771 771 771 771 771 771 772 774 776 779 783 790 798 807 814 819 822 825 827 828 830 830 830 829 828 827 826 823 822 820 817 815 813 811 809 808 808 808 808
