866 866 858 858 0 0 0 738 732 724 723 721 721 723 730 730 732 732 734 734 734 735 735 735 736 738 738 739 739 740 741 741 743 744 744 744 747 747 748 749 749 749 750 750 751 751 750 751 751 751 751 751 752 752 752 752 752 752 753 753 753 753 753 753 754 754 754 754 754 754 754 754 754 753 753 753 753 753 752 752 751 751 750 749 747 746 744 743 741 738 734 731 730 726 723 720 715 713 712 712 710 709 708 707 707 707 706 706 706 706 705 705 704 704 704 704 704 706 706 707 707 707 708 709 710 710 711 711 711 712 713 714 716 718 719 721 723 724 726 727 729 730 731 732 733 733 734 735 735 735 736 736 736 737 737 737 737 0 0 0 0 0 0 0 0 0 0 0 744 744 744 0 0 0 0 0 0 0 733 732 733 731 731 731 730 726 726 725 724 724 723 723 723 722 721 720 719 718 718 718 718 719 719 719 720 720 720 720 720 720 720 719 719 718 718 718 718 718 718 718 718 718 718 719 719 719 718 717 717 717 718 718 718 0 0 0 0 0 0 0 0 0 0 0 0 0 0 0 0 0 0 0 0 0 0 0 0 0 0 0 0 0 0 0 0 0 0 0 0 0 0 0 0 0 0 0 0 0 0 0 0 0 0 0 0 0 716 716 716 715 710 710 705 705 705 705 707 707 707 706 706 706 707 708 708 708 708 708 708 708 708 708 708 707 707 706 706 706 707 707 707 707 707 707 706 706 706 706 707 707 707 707 706 706 706 707 707 707 707 0 0 0 0 0 0 0 0 0 0 0 0 0 0 0 0 0 0 0 0 0 0 0 0 0 0 0 0 0 0 0 0 0 0 0 0 0 0 0 0 0 0 0 0 0 0 0 0 0 0 0 0 0 0 0 0 0 0 0 691 691 691 692 692 693 694 694 695 695 695 695 695 694 694 693 692 692 691 691 690 690 690 690 689 689 689 688 688 688 688 687 687 687 686 685 685 683 683 682 682 681 681 680 680 679 679 679 678 677 677 676 676 674 674 674 670 0 0 0 0 0 0 0 0 0 0 0 0 0 0 0 0 0 0 0 0 0 0 0 0 0 0 0 0 0 0 0 0 0 0 0 0 0 0 0 0 0 0 0 0 0 0 0 0 0 0 0 0 0 0 0 0 0 0 0 658 658 658 659 660 660 660 660 659 659 658 657 657 656 655 655 655 655 654 653 652 652 652 651 651 651 650 650 648 647 646 645 645 645 643 643 643 642 641 640 639 639 637 636 635 634 632 630 628 626 626 626 626 626 626 626 626 625 624 624 624 624 624 624 624 625 627 629 630 631 631 631 632 632 633 634 634 635 636 636 636 636 636 636 637 637 637 637 637 637 637 637 637 637 637 637 637 637 637 637 636 636 636 635 635 635 636 636 636 636 637 637 639 639 639 639 639 640 640 640 640 640 640 639 639 639
862 862 843 0 0 0 734 730 726 719 714 714 714 718 730 730 731 732 733 733 733 734 734 734 736 737 738 738 738 738 739 740 742 743 743 744 746 746 747 748 748 748 749 749 749 749 749 749 750 750 750 750 750 750 751 751 751 751 751 751 752 752 752 753 753 753 753 753 753 753 753 753 753 753 752 752 752 752 751 751 750 750 748 748 746 745 744 741 739 737 734 731 730 726 723 720 715 713 712 712 711 710 710 709 707 707 707 707 707 707 707 707 707 707 707 708 708 708 708 709 709 709 710 710 711 711 712 712 712 712 714 715 716 719 720 721 723 724 726 727 729 730 731 731 732 733 733 733 734 735 736 736 736 737 737 737 737 0 0 0 0 0 0 0 0 0 736 736 741 741 741 740 0 0 0 0 0 736 736 735 733 733 732 731 730 726 725 724 724 724 723 723 723 722 721 720 719 719 719 719 719 719 719 719 720 720 720 720 720 720 720 720 719 718 718 718 718 718 718 718 718 718 718 719 719 719 719 719 719 719 720 720 719 0 0 0 0 0 0 0 0 0 0 0 0 0 0 0 0 0 0 0 0 0 0 0 0 0 0 0 0 0 0 0 0 0 0 0 0 0 0 0 0 0 0 0 0 0 0 0 0 0 0 0 0 0 712 712 712 712 710 710 705 705 705 705 707 707 707 706 706 706 707 708 708 708 708 709 709 709 708 708 708 707 707 706 706 706 707 708 708 708 708 707 706 706 706 706 707 707 707 707 707 707 707 707 707 706 704 0 0 0 0 0 0 0 0 0 0 0 0 0 0 0 0 0 0 0 0 0 0 0 0 0 0 0 0 0 0 0 0 0 0 0 0 0 0 0 0 0 0 0 0 0 0 0 0 0 0 0 0 0 0 0 0 0 0 0 696 696 693 693 693 693 693 694 694 694 694 694 694 694 693 692 692 690 690 690 690 690 690 690 689 689 688 688 688 688 688 687 687 687 687 686 685 683 683 682 682 682 681 680 680 679 679 679 679 678 678 677 677 677 680 680 680 0 0 0 0 0 0 0 0 0 0 0 0 0 0 0 0 0 0 0 0 0 0 0 0 0 0 0 0 0 0 0 0 0 0 0 0 0 0 0 0 0 0 0 0 0 0 0 0 0 0 0 0 0 0 0 0 0 0 0 657 657 657 658 660 660 660 660 658 658 658 657 657 656 655 655 655 655 654 653 652 652 651 650 649 649 649 648 647 645 645 645 644 644 643 643 643 642 641 640 639 638 637 636 635 634 631 629 627 626 624 624 624 624 624 624 624 624 624 623 623 622 622 622 623 624 625 627 627 627 628 628 629 630 631 633 633 633 634 635 635 635 635 636 636 636 636 636 636 636 636 636 636 636 636 636 635 635 635 635 634 634 633 633 633 633 633 633 634 634 634 635 637 637 637 637 637 637 638 639 639 639 639 638 637 637
844 844 0 0 0 0 730 726 719 714 711 711 714 722 727 730 730 732 732 733 733 733 733 734 735 736 736 737 737 737 738 739 740 742 742 744 744 745 745 746 747 748 748 748 748 748 748 748 749 749 749 749 750 750 750 750 750 750 750 750 751 751 751 752 752 752 752 752 752 752 752 752 752 752 751 751 751 751 750 750 749 748 748 746 745 745 743 741 739 737 734 732 730 728 726 724 722 719 716 713 712 711 710 710 709 708 708 709 709 709 710 710 710 710 710 711 712 712 712 712 712 712 712 712 713 713 713 713 713 715 716 716 716 719 720 722 724 725 726 727 729 730 731 731 732 732 732 732 732 734 735 736 736 736 737 737 737 737 0 0 0 0 0 0 0 735 737 738 739 739 739 737 0 0 0 0 0 736 736 736 735 734 734 732 731 727 725 724 723 723 723 723 723 723 722 721 720 719 719 719 719 719 720 720 720 720 720 720 720 720 720 720 719 718 718 717 717 717 717 718 718 718 718 718 719 719 719 719 719 726 726 726 721 0 0 0 0 0 0 0 0 0 0 0 0 0 0 0 0 0 0 0 0 0 0 0 0 0 0 0 0 0 0 0 0 0 0 0 0 0 0 0 0 0 0 0 0 0 0 0 0 0 0 0 0 0 712 712 712 711 711 711 706 705 705 705 708 708 708 708 707 707 707 708 708 708 709 710 710 710 709 708 708 707 707 706 706 706 707 708 708 708 708 708 706 705 705 705 706 707 707 708 710 710 710 707 707 706 705 0 0 0 0 0 0 0 0 0 0 0 0 0 0 0 0 0 0 0 0 0 0 0 0 0 0 0 0 0 0 0 0 0 0 0 0 0 0 0 0 0 0 0 0 0 0 0 0 0 0 0 0 0 0 0 0 0 0 0 696 696 693 693 693 693 693 694 693 692 692 693 693 692 692 692 691 689 688 688 688 689 689 689 689 689 688 688 688 688 687 687 687 687 687 686 685 683 683 683 682 682 681 680 679 679 679 679 679 678 678 677 677 677 681 681 681 0 0 0 0 0 0 0 0 0 0 0 0 0 0 0 0 0 0 0 0 0 0 0 0 0 0 0 0 0 0 0 0 0 0 0 0 0 0 0 0 0 0 0 0 0 0 0 0 0 0 0 0 0 0 0 0 0 0 0 656 657 658 658 659 660 660 659 658 658 658 657 657 655 655 655 655 654 654 653 652 652 651 650 649 649 649 648 646 645 645 644 644 644 643 643 642 642 640 639 639 638 637 635 634 632 630 628 625 624 623 623 623 622 622 622 622 622 622 622 622 621 621 621 621 621 622 624 625 625 625 626 628 629 631 631 632 632 632 634 634 634 634 635 635 635 635 634 634 634 634 634 634 634 634 634 633 633 633 633 632 632 632 632 632 632 632 632 632 632 633 634 634 635 635 635 636 636 636 637 637 637 637 637 636 636
0 0 0 0 0 728 722 721 708 708 708 711 714 722 725 727 729 729 731 731 733 733 733 734 734 735 735 736 736 737 737 739 740 741 742 742 743 744 745 745 746 746 747 747 747 747 748 748 748 748 748 748 748 749 749 748 749 749 750 750 750 750 750 750 750 751 751 751 751 751 751 751 750 750 750 750 750 750 749 748 748 748 746 745 744 744 742 741 739 737 735 732 730 730 729 728 726 724 721 717 715 715 714 714 713 713 713 713 714 714 714 714 713 713 713 713 714 714 714 714 715 716 716 716 716 716 716 716 716 716 717 717 719 720 722 723 724 725 726 727 728 729 730 731 731 732 732 732 732 734 734 734 734 735 735 736 736 736 0 0 0 0 0 0 0 737 737 739 739 739 738 737 0 0 0 0 0 737 737 736 736 735 735 733 730 727 726 724 723 723 723 723 723 723 723 723 721 720 719 719 719 719 720 720 720 720 720 720 720 720 720 720 719 718 718 717 717 717 717 717 717 717 718 718 719 720 721 721 723 726 726 726 725 0 0 0 0 0 0 0 0 0 0 0 0 0 0 0 0 0 0 0 0 0 0 0 0 0 0 0 0 0 0 0 0 0 0 0 0 0 0 0 0 0 0 0 0 0 0 0 0 0 0 0 0 713 713 712 711 711 711 711 708 705 705 705 709 710 710 709 709 708 708 708 709 710 710 710 710 710 709 709 709 708 707 707 706 706 706 708 708 708 708 708 706 705 705 705 706 706 706 708 711 711 711 707 706 706 706 0 0 0 0 0 0 0 0 0 0 0 0 0 0 0 0 0 0 0 0 0 0 0 0 0 0 0 0 0 0 0 0 0 0 0 0 0 0 0 0 0 0 0 0 0 0 0 0 0 0 0 0 0 0 0 0 0 0 0 700 700 700 697 697 695 694 694 693 692 692 693 692 692 692 692 690 688 686 686 686 688 688 688 688 687 687 687 686 686 686 687 687 687 687 686 685 683 683 683 682 682 681 680 679 679 679 679 679 678 678 678 678 681 681 681 681 0 0 0 0 0 0 0 0 0 0 0 0 0 0 0 0 0 0 0 0 0 0 0 0 0 0 0 0 0 0 0 0 0 0 0 0 0 0 0 0 0 0 0 0 0 0 0 0 0 0 0 0 0 0 0 0 0 0 0 656 657 658 657 658 658 658 658 658 658 658 657 656 655 655 654 654 654 654 653 652 652 651 650 649 649 648 647 646 645 645 644 644 644 644 643 642 641 640 639 638 637 635 634 631 630 630 626 624 624 623 623 622 621 621 621 621 621 621 621 621 621 620 620 620 620 620 623 623 625 625 626 627 629 630 631 631 631 631 631 633 633 634 634 634 634 634 633 633 633 633 633 633 633 633 632 632 631 631 631 631 630 630 629 629 629 630 630 630 630 631 632 632 632 634 634 634 634 634 635 635 635 635 634 632 632
0 0 0 0 724 723 711 707 707 707 707 713 713 722 724 725 726 728 728 730 732 733 733 733 733 734 734 735 735 736 737 738 739 740 741 741 743 743 744 745 745 745 745 746 746 746 746 747 747 747 747 747 747 747 747 747 747 748 748 749 749 749 749 749 750 750 750 750 750 750 750 750 750 749 749 749 749 748 748 748 747 747 746 745 744 743 742 741 739 737 735 734 733 731 731 730 729 726 726 723 722 722 721 719 719 719 718 718 719 718 718 718 717 717 717 717 717 717 717 717 718 719 719 719 719 719 719 718 718 718 719 720 720 721 722 724 725 726 727 728 728 729 730 731 731 731 731 732 732 733 733 733 733 733 733 734 736 736 736 0 0 0 0 0 0 737 737 739 739 739 738 737 0 0 0 0 0 736 736 736 736 735 735 733 730 728 726 724 723 723 723 723 724 724 724 724 724 722 719 719 719 723 723 723 723 722 721 720 720 720 720 720 719 718 718 717 717 717 717 717 717 717 718 718 719 721 721 723 725 726 726 726 0 0 0 0 0 0 0 0 0 0 0 0 0 0 0 0 0 0 0 0 0 0 0 0 0 0 0 0 0 0 0 0 0 0 0 0 0 0 0 0 0 0 0 0 0 0 0 0 0 0 0 0 0 713 713 712 712 712 711 710 708 708 708 709 709 710 710 709 709 708 708 708 710 711 712 712 712 711 710 709 709 709 709 708 708 707 706 706 707 707 707 707 706 705 705 705 705 706 706 708 711 711 711 709 706 706 706 0 0 0 0 0 0 0 0 0 0 0 0 0 0 0 0 0 0 0 0 0 0 0 0 0 0 0 0 0 0 0 0 0 0 0 0 0 0 0 0 0 0 0 0 0 0 0 0 0 0 0 0 0 0 0 0 0 0 0 700 700 700 698 697 696 696 692 692 692 692 692 692 692 692 691 690 688 684 684 684 687 687 687 687 687 686 686 686 686 686 687 687 687 687 686 684 682 682 682 682 682 681 681 679 679 679 679 679 678 678 678 679 682 682 682 681 0 0 0 0 0 0 0 0 0 0 0 0 0 0 0 0 0 0 0 0 0 0 0 0 0 0 0 0 0 0 0 0 0 0 0 0 0 0 0 0 0 0 0 0 0 0 0 0 0 0 0 0 0 0 0 0 0 0 0 658 658 659 659 659 659 660 659 659 658 658 657 656 655 655 654 654 654 653 653 652 651 650 650 649 648 648 647 646 645 645 644 644 644 644 643 642 641 640 639 638 635 634 632 631 630 627 625 624 624 623 623 622 620 620 620 619 619 619 619 620 620 620 620 620 620 620 621 623 624 625 626 627 628 629 630 630 630 630 631 631 632 632 632 632 632 632 632 632 632 632 632 631 631 631 630 630 629 629 629 628 628 628 628 628 628 628 628 628 629 629 629 630 631 632 632 632 633 633 634 634 634 633 631 629 629
724 724 724 724 724 723 703 703 703 705 709 713 717 719 724 725 725 725 726 728 730 732 732 732 733 733 734 734 735 735 736 737 738 740 740 740 742 742 743 743 744 744 745 745 745 745 745 746 746 746 746 746 746 746 746 747 747 747 747 747 747 747 748 748 748 748 748 749 749 749 749 749 748 748 748 748 747 747 747 747 746 745 745 745 744 743 742 741 739 738 737 735 735 734 733 732 731 729 728 727 727 726 726 726 725 724 723 723 722 722 722 722 721 721 721 721 721 721 721 721 721 721 721 721 721 721 721 720 720 720 722 722 723 723 724 724 725 726 727 728 728 729 730 730 730 731 731 731 732 733 733 733 732 732 732 733 734 735 735 735 0 0 0 0 0 736 737 738 738 0 0 0 0 0 0 0 0 732 733 733 733 733 733 733 732 728 726 725 725 724 724 724 724 724 724 724 724 723 721 721 721 723 724 724 724 723 721 721 721 720 720 720 720 720 719 719 717 717 717 717 717 717 718 718 719 721 721 724 725 726 730 730 0 0 0 0 0 0 0 0 0 0 0 0 0 0 0 0 0 0 0 0 0 0 0 0 0 0 0 0 0 0 0 0 0 0 0 0 0 0 0 0 0 0 0 0 0 0 0 0 0 0 0 0 0 711 711 710 710 710 710 710 710 710 710 710 711 711 711 710 709 708 708 708 710 711 714 714 714 714 711 710 710 710 710 710 710 709 707 707 707 707 707 707 707 707 705 705 705 705 705 705 705 709 709 709 706 705 705 0 0 0 0 0 0 0 0 0 0 0 0 0 0 0 0 0 0 0 0 0 0 0 0 0 0 0 0 0 0 0 0 0 0 0 0 0 0 0 0 0 0 0 0 0 0 0 0 0 0 0 0 0 0 0 0 0 0 0 702 702 702 698 697 696 696 692 692 692 692 692 692 692 692 691 690 688 684 684 684 687 687 687 687 687 686 686 686 686 686 686 687 687 687 685 682 681 681 681 682 682 682 682 681 680 679 679 679 678 678 678 678 678 678 675 674 674 0 0 0 0 0 0 0 0 0 0 0 0 0 0 0 0 0 0 0 0 0 0 0 0 0 0 0 0 0 0 0 0 0 0 0 0 0 0 0 0 0 0 0 0 0 0 0 0 0 0 0 0 0 0 0 0 0 0 658 659 659 659 659 659 659 659 659 659 658 657 656 655 655 654 654 654 653 653 652 651 650 650 649 648 648 647 646 646 645 645 645 645 645 643 642 641 640 639 638 635 634 632 630 630 627 625 624 624 623 623 622 620 619 619 619 619 619 619 619 619 619 619 619 619 619 621 623 623 625 625 626 627 628 629 629 629 629 630 630 631 631 631 631 631 631 631 631 631 630 630 630 630 629 629 628 628 628 627 627 626 626 626 626 627 627 627 627 627 627 627 627 629 630 630 630 630 632 632 632 632 631 631 628 628
724 724 723 723 720 720 703 703 703 709 713 715 717 719 722 723 723 724 725 727 728 730 731 731 731 733 733 734 734 734 735 736 737 738 739 739 739 740 741 742 743 743 744 744 744 744 744 744 745 745 745 745 745 745 745 745 745 745 746 746 746 746 747 747 747 747 747 748 748 747 747 748 747 747 747 747 747 746 746 746 745 745 745 744 743 742 741 740 739 738 737 737 737 736 736 734 732 732 732 731 730 730 729 729 728 728 727 727 726 726 725 725 725 724 724 724 724 724 724 724 724 723 723 723 723 722 722 722 722 722 723 723 723 724 724 724 725 727 727 728 728 729 730 730 730 731 731 731 731 732 732 732 732 732 732 733 734 735 735 735 0 0 0 0 0 736 736 736 735 0 0 0 0 0 0 0 0 732 733 733 733 733 733 733 732 727 727 727 728 728 728 727 727 726 725 725 724 724 724 724 724 724 724 725 725 725 723 722 721 721 721 721 723 723 723 722 718 718 718 720 721 721 721 721 721 722 724 724 725 726 730 0 0 0 0 0 0 0 0 0 0 0 0 0 0 0 0 0 0 0 0 0 0 0 0 0 0 0 0 0 0 0 0 0 0 0 0 0 0 0 0 0 0 0 0 0 0 0 0 0 0 0 0 0 0 708 708 708 708 710 711 712 712 712 713 713 713 713 712 710 710 710 710 710 710 712 714 714 714 714 711 710 710 710 710 710 710 709 708 707 706 706 706 706 706 706 706 705 705 704 704 704 704 705 706 706 706 703 0 0 0 0 0 0 0 0 0 0 0 0 0 0 0 0 0 0 0 0 0 0 0 0 0 0 0 0 0 0 0 0 0 0 0 0 0 0 0 0 0 0 0 0 0 0 0 0 0 0 0 0 0 0 0 0 0 0 0 0 702 702 702 698 697 696 696 695 694 694 694 693 692 691 689 688 688 687 684 684 684 686 686 686 686 686 685 685 685 685 685 685 685 685 684 684 682 681 681 681 683 683 683 682 682 681 681 680 680 680 680 680 680 680 678 675 674 674 0 0 0 0 0 0 0 0 0 0 0 0 0 0 0 0 0 0 0 0 0 0 0 0 0 0 0 0 0 0 0 0 0 0 0 0 0 0 0 0 0 0 0 0 0 0 0 0 0 0 0 0 0 0 0 0 0 0 0 663 663 661 659 659 659 659 659 659 658 657 656 655 655 655 655 654 653 653 652 651 651 650 649 648 648 647 647 646 645 645 645 645 645 644 642 641 640 639 638 635 634 632 630 630 627 625 624 624 623 623 622 620 619 619 619 619 618 618 618 618 618 619 619 619 619 620 622 623 624 624 625 626 628 628 629 629 629 629 630 630 630 630 631 631 631 631 630 629 629 629 628 628 628 627 626 626 626 626 625 625 624 624 624 625 625 625 625 625 625 625 625 626 627 627 628 628 629 630 630 630 629 629 626 626
711 711 720 720 720 699 699 699 703 712 713 713 715 716 720 721 721 722 723 726 728 730 730 730 730 731 731 732 733 734 734 735 736 737 738 738 739 739 740 741 741 742 742 743 743 743 743 743 743 744 744 744 744 744 744 744 745 745 745 745 745 745 745 746 746 747 747 747 747 747 747 747 746 746 746 746 746 745 745 745 745 744 744 743 742 741 741 740 739 739 738 737 737 736 736 735 734 733 733 733 733 732 732 732 731 731 731 731 730 730 729 728 728 727 727 727 727 727 727 726 725 725 725 725 725 724 724 724 723 723 723 724 725 725 726 726 726 727 727 728 728 729 729 730 730 731 731 731 731 731 732 731 731 731 732 733 733 734 734 734 0 0 0 0 0 735 736 736 733 733 733 733 0 0 0 0 0 732 733 733 733 733 733 733 731 730 730 730 729 729 729 728 728 728 726 726 725 725 725 725 725 725 725 725 725 725 725 724 724 723 723 723 724 724 724 722 719 719 719 721 721 722 722 722 722 723 723 723 724 0 0 0 0 0 0 0 0 0 0 0 0 0 0 0 0 0 0 0 0 0 0 0 0 0 0 0 0 0 0 0 0 0 0 0 0 0 0 0 0 0 0 0 0 0 0 0 0 0 0 0 0 0 0 0 0 709 709 709 710 711 714 714 714 714 714 714 714 714 713 711 710 710 710 711 711 713 714 714 714 714 711 710 709 709 709 709 709 709 709 707 706 706 706 706 708 708 708 708 706 703 703 703 704 704 705 705 705 0 0 0 0 0 0 0 0 0 0 0 0 0 0 0 0 0 0 0 0 0 0 0 0 0 0 0 0 0 0 0 0 0 0 0 0 0 0 0 0 0 0 0 0 0 0 0 0 0 0 0 0 0 0 0 0 0 0 0 0 0 0 697 697 696 696 694 695 694 694 694 694 693 692 688 688 687 687 687 682 682 682 685 685 685 686 686 685 685 685 685 685 684 684 684 684 682 681 681 681 681 682 683 683 683 682 681 681 680 680 680 680 680 680 680 677 675 674 674 0 0 0 0 0 0 0 0 0 0 0 0 0 0 0 0 0 0 0 0 0 0 0 0 0 0 0 0 0 0 0 0 0 0 0 0 0 0 0 0 0 0 0 0 0 0 0 0 0 0 0 0 0 0 0 0 0 0 0 663 663 661 660 660 659 659 659 659 658 657 657 656 656 656 655 654 653 653 652 651 651 651 650 650 649 648 647 646 646 646 646 646 646 644 643 642 640 639 639 637 634 632 630 630 629 625 625 624 624 624 623 622 620 619 619 619 618 618 618 618 618 618 618 619 619 620 623 623 623 623 624 626 627 627 627 628 628 629 629 629 629 629 629 629 629 629 629 628 628 627 627 627 626 626 626 625 625 625 625 624 623 623 623 623 624 624 623 622 622 622 622 623 625 625 625 625 626 627 627 627 626 626 625 625
711 711 711 711 709 699 699 699 703 710 711 713 713 715 717 718 719 721 722 724 726 727 729 730 730 730 731 732 732 733 733 734 735 736 736 737 738 738 738 739 739 740 741 741 741 742 742 742 742 742 743 743 743 743 743 743 743 743 743 744 744 744 745 745 745 745 746 746 746 745 745 745 745 745 745 745 745 745 745 744 744 744 743 743 742 741 741 740 739 739 738 738 737 736 736 735 735 735 735 734 734 734 734 733 733 733 733 732 731 731 730 730 730 730 729 729 729 728 728 728 728 728 727 727 726 726 725 725 725 725 725 725 726 726 726 726 727 727 728 728 728 729 730 730 730 730 731 731 731 731 731 731 731 731 731 732 732 732 732 732 731 731 731 731 733 733 734 733 733 733 733 733 732 730 730 730 732 732 733 733 732 733 733 732 732 730 730 730 730 729 729 729 729 729 727 727 727 727 726 726 726 726 726 726 726 726 726 726 726 725 724 724 724 724 724 722 721 721 721 723 723 723 723 722 721 721 721 721 721 0 0 0 0 0 0 0 0 0 0 0 0 0 0 0 0 0 0 0 0 0 0 0 0 0 0 0 0 0 0 0 0 0 0 0 0 0 0 0 0 0 0 0 0 0 0 0 0 0 0 0 0 0 0 0 0 0 706 708 709 710 711 713 714 714 714 714 714 714 713 711 710 710 710 711 711 713 713 713 712 710 709 706 706 706 706 709 709 709 709 707 704 704 704 705 708 708 708 708 703 702 702 702 703 704 704 704 0 0 0 0 0 0 0 0 0 0 0 0 0 0 0 0 0 0 0 0 0 0 0 0 0 0 0 0 0 0 0 0 0 0 0 0 0 0 0 0 0 0 0 0 0 0 0 0 0 0 0 0 0 0 0 0 0 0 0 0 0 0 0 0 690 692 690 690 690 691 691 692 692 692 692 686 682 682 682 682 680 680 680 683 684 684 684 686 685 685 685 684 684 684 682 681 681 681 681 677 677 677 682 683 683 683 682 681 680 680 680 680 680 680 680 680 677 675 674 674 0 0 0 0 0 0 0 0 0 0 0 0 0 0 0 0 0 0 0 0 0 0 0 0 0 0 0 0 0 0 0 0 0 0 0 0 0 0 0 0 0 0 0 0 0 0 0 0 0 0 0 0 0 0 0 0 0 0 0 663 663 662 660 660 660 660 660 659 659 659 658 658 657 656 655 655 654 653 652 652 651 651 650 650 650 649 648 648 648 647 647 646 646 646 644 642 641 641 639 637 635 633 631 630 630 629 629 628 627 627 626 624 621 619 619 619 619 619 619 619 618 618 619 619 619 621 623 623 623 623 624 625 626 627 627 627 628 628 628 628 629 629 629 628 628 628 627 626 626 626 626 626 625 624 624 624 624 624 624 623 621 621 621 622 622 622 622 621 620 620 620 620 622 622 622 622 623 622 622 622 622 620 620 620
702 702 702 702 695 695 695 697 699 704 709 710 710 711 712 715 717 720 722 723 725 727 727 728 729 729 730 730 731 731 732 733 734 734 735 736 736 737 737 738 738 739 740 740 741 741 741 741 741 741 741 741 741 742 742 742 742 742 742 743 743 743 744 744 744 744 744 744 744 744 744 744 743 743 743 743 743 743 743 743 743 743 742 742 741 741 740 740 739 739 738 738 738 737 737 737 736 736 736 736 735 735 734 734 734 734 733 733 732 732 732 732 732 732 731 731 731 731 730 730 730 730 729 728 728 727 727 727 727 727 727 727 727 727 727 727 728 728 728 729 729 729 729 730 730 730 730 731 731 731 731 731 731 731 731 731 731 731 731 731 731 731 731 731 732 732 733 733 733 733 733 732 732 731 731 731 732 732 733 732 732 732 732 731 731 730 730 730 730 729 729 729 729 729 728 728 728 727 727 727 727 726 726 726 726 726 726 726 726 726 724 724 724 724 724 722 721 721 721 723 723 723 723 722 721 721 721 721 0 0 0 0 0 0 0 0 0 0 0 0 0 0 0 0 0 0 0 0 0 0 0 0 0 0 0 0 0 0 0 0 0 0 0 0 0 0 0 0 0 0 0 0 0 0 0 0 0 0 0 0 0 0 0 0 0 0 0 0 0 0 0 0 0 0 0 0 0 0 0 0 0 0 0 0 0 0 0 0 0 0 0 0 0 0 0 0 0 0 0 0 0 0 0 0 0 0 0 0 0 0 0 0 0 0 0 0 0 0 0 0 0 0 0 0 0 0 0 0 0 0 0 0 0 0 0 0 0 0 0 0 0 0 0 0 0 0 0 0 0 0 0 0 0 0 0 0 0 0 0 0 0 0 0 0 0 0 0 0 0 0 0 0 0 0 0 0 0 0 0 0 0 0 0 0 0 0 0 0 0 0 0 0 0 0 0 0 0 0 0 0 0 0 0 0 684 684 684 683 682 679 679 678 678 676 676 675 675 675 680 683 683 683 681 679 679 677 677 677 675 675 675 675 675 675 674 0 0 0 0 0 0 0 0 0 0 0 0 0 0 0 0 0 0 0 0 0 0 0 0 0 0 0 0 0 0 0 0 0 0 0 0 0 0 0 0 0 0 0 0 0 0 0 0 0 0 0 0 0 0 0 0 0 0 0 0 661 661 661 660 660 659 660 660 659 659 659 659 658 658 657 655 655 654 654 653 652 652 651 650 650 650 650 650 649 649 648 648 648 648 647 646 644 643 642 640 639 638 637 634 633 632 632 631 631 630 628 626 625 624 624 624 623 623 622 620 619 619 619 619 619 620 621 623 623 623 623 624 625 626 626 627 627 627 628 628 628 628 628 628 628 627 627 626 625 625 625 625 624 624 623 623 623 623 622 622 622 621 620 620 620 620 620 620 620 619 619 619 619 619 619 618 618 618 618 618 617 615 615 615 615
696 696 688 688 688 688 695 697 698 703 707 709 709 710 712 713 717 718 720 722 723 725 726 727 727 728 729 729 730 730 730 731 732 733 734 734 735 735 736 736 737 738 738 739 739 739 739 740 740 740 740 740 740 740 740 741 741 741 741 742 742 742 742 742 742 743 743 743 743 743 742 742 742 742 742 742 742 742 742 742 742 742 742 741 741 741 740 739 739 739 738 738 738 737 737 737 737 737 737 737 736 736 736 736 735 735 735 733 733 733 733 733 732 732 732 732 732 732 732 732 731 731 730 730 730 729 729 729 728 727 727 727 727 728 728 728 728 728 729 729 729 729 729 730 730 730 730 730 731 731 731 731 731 731 731 731 731 731 731 731 730 730 730 731 731 732 732 732 732 732 732 732 732 731 731 731 732 732 732 732 732 732 731 731 731 729 729 729 729 729 729 729 728 728 728 728 728 728 728 728 728 727 727 727 726 725 725 725 0 0 0 0 0 0 0 0 0 0 0 0 0 0 0 0 0 0 0 0 0 0 0 0 0 0 0 0 0 0 0 0 0 0 0 0 0 0 0 0 0 0 0 0 0 0 0 0 0 0 0 0 0 0 0 0 0 0 0 0 0 0 0 0 0 0 0 0 0 0 0 0 0 0 0 0 0 0 0 0 0 0 0 0 0 0 0 0 0 0 0 0 0 0 0 0 0 0 0 0 0 0 0 0 0 0 0 0 0 0 0 0 0 0 0 0 0 0 0 0 0 0 0 0 0 0 0 0 0 0 0 0 0 0 0 0 0 0 0 0 0 0 0 0 0 0 0 0 0 0 0 0 0 0 0 0 0 0 0 0 0 0 0 0 0 0 0 0 0 0 0 0 0 0 0 0 0 0 0 0 0 0 0 0 0 0 0 0 0 0 0 0 0 0 0 0 0 0 0 0 0 0 0 0 0 0 0 0 0 0 0 0 0 0 0 0 0 0 0 0 0 0 0 0 0 0 0 0 0 0 0 0 0 0 0 0 0 0 0 0 0 0 0 0 0 0 0 0 0 0 0 0 0 0 0 0 0 0 0 0 0 0 0 0 0 0 0 0 0 0 0 0 0 0 0 0 0 0 0 0 0 0 0 0 0 0 0 0 0 0 0 0 0 0 0 0 0 0 0 0 0 0 0 0 0 0 0 661 661 661 659 659 659 659 659 659 659 659 659 658 658 657 657 655 655 655 654 654 653 652 652 651 650 650 650 650 650 649 649 649 649 648 647 647 645 643 641 641 640 640 639 637 636 636 634 633 632 630 629 628 628 628 628 628 627 626 624 622 621 621 621 622 622 622 625 625 625 625 625 625 626 626 627 627 627 628 628 628 628 628 627 627 626 626 625 625 624 624 623 623 623 623 622 622 621 621 621 620 619 618 618 618 619 619 619 619 618 617 616 616 616 615 614 614 614 614 613 613 613 613 612 612
692 692 688 692 692 693 697 698 698 700 704 706 707 708 710 712 715 717 719 720 722 723 725 725 726 727 727 728 728 729 729 730 730 731 732 732 733 733 734 735 735 736 737 737 738 738 738 738 739 739 739 739 739 739 739 739 739 739 740 740 740 741 741 741 741 741 742 742 742 741 741 741 741 741 741 741 741 741 740 740 740 740 740 740 740 739 739 739 739 739 738 738 738 737 737 737 737 737 737 737 737 736 736 736 736 735 735 735 735 734 734 734 733 733 733 733 733 733 733 733 732 732 731 731 731 730 730 730 729 729 729 728 729 729 729 729 729 729 729 729 729 729 730 730 730 730 730 730 730 730 730 730 730 730 730 730 730 730 730 730 729 729 729 730 731 731 731 732 732 732 732 732 732 731 731 731 731 731 731 731 730 730 730 729 729 729 729 729 729 0 0 0 728 728 728 728 728 728 728 728 728 728 727 727 0 0 0 0 0 0 0 0 0 0 0 0 0 0 0 0 0 0 0 0 0 0 0 0 0 0 0 0 0 0 0 0 0 0 0 0 0 0 0 0 0 0 0 0 0 0 0 0 0 0 0 0 0 0 0 0 0 0 0 0 0 0 0 0 0 0 0 0 0 0 0 0 0 0 0 0 0 0 0 0 0 0 0 0 0 0 0 0 0 0 0 0 0 0 0 0 0 0 0 0 0 0 0 0 0 0 0 0 0 0 0 0 0 0 0 0 0 0 0 0 0 0 0 0 0 0 0 0 0 0 0 0 0 0 0 0 0 0 0 0 0 0 0 0 0 0 0 0 0 0 0 0 0 0 0 0 0 0 0 0 0 0 0 0 0 0 0 0 0 0 0 0 0 0 0 0 0 0 0 0 0 0 0 0 0 0 0 0 0 0 0 0 0 0 0 0 0 0 0 0 0 0 0 0 0 0 0 0 0 0 0 0 0 0 0 0 0 0 0 0 0 0 0 0 0 0 0 0 0 0 0 0 0 0 0 0 0 0 0 0 0 0 0 0 0 0 0 0 0 0 0 0 0 0 0 0 0 0 0 0 0 0 0 0 0 0 0 0 0 0 0 0 0 0 0 0 0 0 0 0 0 0 0 0 0 0 0 0 0 0 0 0 0 0 0 0 0 0 0 0 0 0 0 0 0 0 0 0 0 0 0 660 660 660 660 660 660 660 660 660 659 659 659 659 658 657 657 656 656 655 655 654 654 653 653 652 652 652 651 651 651 651 651 650 650 649 648 648 647 645 644 642 642 641 641 639 639 637 637 635 634 633 632 631 630 629 629 629 628 627 625 623 623 623 625 626 626 626 626 626 625 625 625 625 626 627 627 627 627 627 627 627 627 627 627 626 626 625 624 623 623 622 622 621 621 621 620 620 620 619 619 619 618 617 617 617 618 618 618 617 616 615 614 613 613 613 612 611 611 611 611 611 610 610 610 610
692 692 692 694 695 695 696 698 698 698 699 701 706 708 710 710 712 713 715 718 719 721 722 723 724 725 726 726 727 728 728 728 729 729 731 731 731 732 732 733 734 735 735 735 736 736 737 737 737 738 738 738 738 738 738 738 738 738 738 738 740 740 740 740 740 740 740 740 740 740 740 740 739 739 739 739 739 739 739 740 740 740 740 740 740 739 739 739 738 738 738 738 738 737 737 737 737 737 737 737 737 736 736 736 736 735 735 735 735 735 734 734 734 734 734 734 733 733 733 733 733 732 732 732 731 731 730 730 730 730 730 729 729 729 729 729 729 729 729 729 730 730 730 730 730 730 730 730 730 730 730 730 730 730 730 730 730 730 730 728 728 728 729 730 730 731 731 731 731 731 731 731 731 731 731 730 730 730 730 729 729 729 729 729 728 728 728 728 728 0 0 0 728 728 728 728 728 728 728 728 728 728 728 727 0 0 0 0 0 0 0 0 0 0 0 0 0 0 0 0 0 0 0 0 0 0 0 0 0 0 0 0 0 0 0 0 0 0 0 0 0 0 0 0 0 0 0 0 0 0 0 0 0 0 0 0 0 0 0 0 0 0 0 0 0 0 0 0 0 0 0 0 0 0 0 0 0 0 0 0 0 0 0 0 0 0 0 0 0 0 0 0 0 0 0 0 0 0 0 0 0 0 0 0 0 0 0 0 0 0 0 0 0 0 0 0 0 0 0 0 0 0 0 0 0 0 0 0 0 0 0 0 0 0 0 0 0 0 0 0 0 0 0 0 0 0 0 0 0 0 0 0 0 0 0 0 0 0 0 0 0 0 0 0 0 0 0 0 0 0 0 0 0 0 0 0 0 0 0 0 0 0 0 0 0 0 0 0 0 0 0 0 0 0 0 0 0 0 0 0 0 0 0 0 0 0 0 0 0 0 0 0 0 0 0 0 0 0 0 0 0 0 0 0 0 0 0 0 0 0 0 0 0 0 0 0 0 0 0 0 0 0 0 0 0 0 0 0 0 0 0 0 0 0 0 0 0 0 0 0 0 0 0 0 0 0 0 0 0 0 0 0 0 0 0 0 0 0 0 0 0 0 0 0 0 0 0 0 0 0 0 0 0 0 0 0 0 0 0 0 0 0 0 0 0 0 0 0 0 0 0 0 0 0 0 660 660 660 660 660 660 660 660 660 659 659 659 659 658 658 657 657 656 656 655 655 654 654 654 654 654 653 653 652 652 652 651 651 650 650 649 649 648 647 645 644 643 642 642 642 641 640 640 639 638 637 636 635 633 633 633 632 632 631 629 629 629 629 629 629 629 629 629 629 629 626 626 626 627 627 627 627 627 627 627 627 627 627 626 625 625 624 623 623 622 621 620 620 620 620 619 619 619 618 618 617 617 616 616 616 617 617 617 614 613 612 611 611 610 610 608 607 607 607 607 608 608 608 606 606
690 690 690 692 694 694 694 694 694 694 696 697 703 706 707 707 709 710 712 715 718 719 721 721 722 724 724 725 725 726 726 727 727 729 729 729 729 730 730 731 732 733 734 734 735 735 735 735 736 736 736 736 736 736 736 736 737 737 738 738 738 738 739 739 739 739 739 739 739 739 738 738 738 737 737 738 738 738 738 739 739 739 739 738 738 738 738 738 738 738 738 737 737 737 737 737 737 737 737 737 737 736 736 736 736 735 735 735 735 735 734 734 734 734 734 734 733 733 733 733 733 732 732 732 731 731 731 730 730 730 730 730 730 730 730 730 730 730 730 730 730 730 730 730 730 730 730 730 730 730 730 730 730 730 730 730 730 729 728 728 728 728 729 730 730 731 731 731 731 731 731 731 731 731 731 730 730 730 729 729 728 728 728 728 728 727 727 727 726 726 726 726 727 727 727 727 727 727 728 728 728 728 728 727 722 722 722 0 0 0 0 0 0 0 0 0 0 0 0 0 0 0 0 0 0 0 0 0 0 0 0 0 0 0 0 0 0 0 0 0 0 0 0 0 0 0 0 0 0 0 0 0 0 0 0 0 0 0 0 0 0 0 0 0 0 0 0 0 0 0 0 0 0 0 0 0 0 0 0 0 0 0 0 0 0 0 0 0 0 0 0 0 0 0 0 0 0 0 0 0 0 0 0 0 0 0 0 0 0 0 0 0 0 0 0 0 0 0 0 0 0 0 0 0 0 0 0 0 0 0 0 0 0 0 0 0 0 0 0 0 0 0 0 0 0 0 0 0 0 0 0 0 0 0 0 0 0 0 0 0 0 0 0 0 0 0 0 0 0 0 0 0 0 0 0 0 0 0 0 0 0 0 0 0 0 0 0 0 0 0 0 0 0 0 0 0 0 0 0 0 0 0 0 0 0 0 0 0 0 0 0 0 0 0 0 0 0 0 0 0 0 0 0 0 0 0 0 0 0 0 0 0 0 0 0 0 0 0 0 0 0 0 0 0 0 0 0 0 0 0 0 0 0 0 0 0 0 0 0 0 0 0 0 0 0 0 0 0 0 0 0 0 0 0 0 0 0 0 0 0 0 0 0 0 0 0 0 0 0 0 0 0 0 0 0 0 0 0 0 0 0 0 0 0 0 0 0 0 0 0 0 0 0 0 0 660 660 660 660 660 660 660 660 660 659 659 659 659 658 658 658 657 657 656 655 655 654 654 654 654 654 653 653 653 652 652 652 651 650 650 650 649 649 647 646 645 644 643 643 643 643 643 641 640 639 638 637 637 637 637 637 637 636 634 634 634 633 633 631 631 630 630 630 630 630 629 628 628 628 628 628 627 627 627 627 627 627 626 626 625 624 623 623 622 621 621 620 620 619 619 619 618 618 618 617 616 615 615 615 615 615 615 614 612 610 608 607 607 607 606 605 603 603 603 603 605 605 605 604 604
690 690 690 690 691 693 693 693 693 693 696 697 702 704 704 705 707 708 711 714 716 717 719 720 721 722 723 724 724 724 725 725 725 727 727 728 728 728 729 730 730 731 732 732 733 733 733 733 734 734 734 734 734 734 735 735 735 736 736 736 736 737 737 737 738 738 738 738 738 737 737 736 736 736 736 736 737 737 737 737 737 737 737 738 738 738 737 737 737 737 737 737 737 736 737 736 736 736 737 736 736 736 736 736 736 735 735 735 735 735 734 734 734 734 734 734 733 733 733 733 733 732 732 732 731 731 731 731 730 730 730 730 730 730 730 730 730 730 730 730 730 730 730 729 730 730 730 730 730 730 730 730 730 730 729 729 729 729 728 728 728 728 729 729 730 730 731 731 731 731 731 731 731 731 731 730 730 729 729 728 727 727 727 727 727 727 727 727 726 726 726 726 726 727 727 727 727 727 728 728 727 727 727 727 723 723 723 0 0 0 0 0 0 0 0 0 0 0 0 0 0 0 0 0 0 0 0 0 0 0 0 0 0 0 0 0 0 0 0 0 0 0 0 0 0 0 0 0 0 0 0 0 0 0 0 0 0 0 0 0 0 0 0 0 0 0 0 0 0 0 0 0 0 0 0 0 0 0 0 0 0 0 0 0 0 0 0 0 0 0 0 0 0 0 0 0 0 0 0 0 0 0 0 0 0 0 0 0 0 0 0 0 0 0 0 0 0 0 0 0 0 0 0 0 0 0 0 0 0 0 0 0 0 0 0 0 0 0 0 0 0 0 0 0 0 0 0 0 0 0 0 0 0 0 0 0 0 0 0 0 0 0 0 0 0 0 0 0 0 0 0 0 0 0 0 0 0 0 0 0 0 0 0 0 0 0 0 0 0 0 0 0 0 0 0 0 0 0 0 0 0 0 0 0 0 0 0 0 0 0 0 0 0 0 0 0 0 0 0 0 0 0 0 0 0 0 0 0 0 0 0 0 0 0 0 0 0 0 0 0 0 0 0 0 0 0 0 0 0 0 0 0 0 0 0 0 0 0 0 0 0 0 0 0 0 0 0 0 0 0 0 0 0 0 0 0 0 0 0 0 0 0 0 0 0 0 0 0 0 0 0 0 0 0 0 0 0 0 0 0 0 0 0 0 0 0 0 0 0 0 0 0 0 0 0 660 660 659 659 659 659 660 660 660 659 659 659 659 658 658 658 657 657 656 656 656 655 655 654 654 654 653 653 653 653 652 652 651 650 650 650 649 649 647 646 646 645 645 645 645 644 643 642 642 641 640 640 639 639 639 639 639 639 637 637 636 635 633 633 633 632 632 632 632 632 631 630 630 630 630 628 628 627 627 627 627 626 626 625 625 624 623 622 622 620 620 620 619 619 619 618 618 617 617 616 616 615 614 613 613 613 613 611 609 605 604 604 603 602 602 601 600 600 600 600 600 600 600 600 600
690 690 687 688 688 688 691 691 692 693 696 697 701 703 703 704 706 708 711 713 714 716 718 718 720 721 721 722 722 723 723 724 724 725 725 726 726 727 728 728 729 729 730 731 731 731 731 732 732 732 733 733 733 733 734 734 734 734 734 735 735 736 736 736 736 736 736 736 736 736 736 735 735 735 735 735 735 735 735 736 736 736 736 736 736 736 736 736 736 736 736 736 736 736 736 736 735 735 736 736 736 736 736 736 735 735 735 735 735 735 734 734 734 734 734 734 733 733 733 733 733 732 732 732 731 731 731 731 730 730 730 730 730 730 730 730 730 730 730 730 730 730 730 730 730 730 730 729 730 730 729 729 729 729 729 729 729 729 729 728 728 729 729 729 729 730 730 730 730 730 731 731 731 731 730 729 729 728 728 728 727 727 727 727 727 727 726 726 726 726 726 726 726 726 726 726 727 727 727 726 727 726 726 726 724 724 723 0 0 0 0 0 0 0 0 0 0 0 0 0 0 0 0 0 0 0 0 0 0 0 0 0 0 0 0 0 0 0 0 0 0 0 0 0 0 0 0 0 0 0 0 0 0 0 0 0 0 0 0 0 0 0 0 0 0 0 0 0 0 0 0 0 0 0 0 0 0 0 0 0 0 0 0 0 0 0 0 0 0 0 0 0 0 0 0 0 0 0 0 0 0 0 0 0 0 0 0 0 0 0 0 0 0 0 0 0 0 0 0 0 0 0 0 0 0 0 0 0 0 0 0 0 0 0 0 0 0 0 0 0 0 0 0 0 0 0 0 0 0 0 0 0 0 0 0 0 0 0 0 0 0 0 0 0 0 0 0 0 0 0 0 0 0 0 0 0 0 0 0 0 0 0 0 0 0 0 0 0 0 0 0 0 0 0 0 0 0 0 0 0 0 0 0 0 0 0 0 0 0 0 0 0 0 0 0 0 0 0 0 0 0 0 0 0 0 0 0 0 0 0 0 0 0 0 0 0 0 0 0 0 0 0 0 0 0 0 0 0 0 0 0 0 0 0 0 0 0 0 0 0 0 0 0 0 0 0 0 0 0 0 0 0 0 0 0 0 0 0 0 0 0 0 0 0 0 0 0 0 0 0 0 0 0 0 0 0 0 0 0 0 0 0 0 0 0 0 0 0 0 0 0 0 0 0 0 660 660 659 659 659 659 659 659 659 659 659 659 659 658 658 658 657 657 656 656 656 655 655 655 654 654 653 653 653 653 653 652 651 651 650 650 649 649 647 647 646 646 645 645 645 645 644 643 643 642 642 642 641 641 641 641 640 639 639 638 638 637 636 634 634 633 633 633 633 633 633 631 631 631 630 630 628 628 627 627 626 626 626 625 624 623 622 622 621 620 620 620 619 619 618 617 617 617 616 615 614 614 613 612 611 611 610 610 607 603 602 602 600 600 599 597 597 596 595 595 595 595 595 595 595
690 690 690 690 690 688 688 688 690 690 696 697 701 702 703 703 705 707 710 712 714 716 717 717 718 719 720 720 721 721 721 721 723 723 724 725 725 726 726 727 727 728 728 729 729 729 729 730 730 731 731 731 732 732 732 732 733 733 734 734 734 734 734 735 735 735 735 735 735 734 734 734 734 734 734 734 734 734 734 735 735 735 735 735 735 735 735 736 735 735 735 735 735 735 735 735 735 735 735 735 735 735 735 735 735 735 735 735 734 734 734 734 734 734 734 733 733 733 733 732 732 732 731 731 731 731 731 730 730 730 730 730 730 730 730 730 730 730 730 730 730 730 730 730 730 730 729 729 729 729 729 729 729 729 729 729 729 728 728 728 728 729 729 729 729 730 730 730 730 730 730 730 730 729 729 729 729 728 728 727 727 727 727 727 726 726 726 726 726 726 725 725 725 725 726 726 726 726 725 724 724 724 724 724 724 723 723 0 0 0 0 0 0 0 0 0 0 0 0 0 0 0 0 0 0 0 0 0 0 0 0 0 0 0 0 0 0 0 0 0 0 0 0 0 0 0 0 0 0 0 0 0 0 0 0 0 0 0 0 0 0 0 0 0 0 0 0 0 0 0 0 0 0 0 0 0 0 0 0 0 0 0 0 0 0 0 0 0 0 0 0 0 0 0 0 0 0 0 0 0 0 0 0 0 0 0 0 0 0 0 0 0 0 0 0 0 0 0 0 0 0 0 0 0 0 0 0 0 0 0 0 0 0 0 0 0 0 0 0 0 0 0 0 0 0 0 0 0 0 0 0 0 0 0 0 0 0 0 0 0 0 0 0 0 0 0 0 0 0 0 0 0 0 0 0 0 0 0 0 0 0 0 0 0 0 0 0 0 0 0 0 0 0 0 0 0 0 0 0 0 0 0 0 0 0 0 0 0 0 0 0 0 0 0 0 0 0 0 0 0 0 0 0 0 0 0 0 0 0 0 0 0 0 0 0 0 0 0 0 0 0 0 0 0 0 0 0 0 0 0 0 0 0 0 0 0 0 0 0 0 0 0 0 0 0 0 0 0 0 0 0 0 0 0 0 0 0 0 0 0 0 0 0 0 0 0 0 0 0 0 0 0 0 0 0 0 0 0 0 0 0 0 0 0 0 0 0 0 0 0 0 0 0 0 0 659 659 659 659 659 659 659 659 659 659 659 658 658 658 658 658 657 657 656 656 655 655 655 655 654 654 653 653 653 653 653 652 651 651 650 650 649 649 648 647 647 647 646 646 646 645 645 645 644 643 643 642 642 642 642 642 641 641 639 638 638 638 637 637 635 635 635 635 634 634 633 632 632 631 631 631 629 628 627 627 626 626 625 625 624 623 622 621 621 620 619 619 619 619 618 617 617 616 615 614 613 612 612 611 610 609 608 608 606 603 601 600 598 598 596 595 594 593 590 590 590 590 590 590 590
690 690 690 690 690 688 687 688 690 691 696 697 699 700 700 702 705 707 709 711 713 714 716 716 717 717 719 720 720 720 720 720 720 722 723 724 724 724 725 726 726 727 727 727 728 728 728 728 729 729 730 730 730 731 731 731 732 732 732 733 733 733 733 734 734 734 734 734 734 734 733 733 733 732 733 732 733 733 733 733 733 734 734 734 734 734 735 735 734 734 734 734 734 734 734 734 734 734 734 734 734 734 734 734 734 734 734 734 734 734 733 733 733 733 732 732 732 732 732 732 731 731 731 731 731 731 730 730 730 730 730 730 730 729 729 729 729 729 729 729 729 729 729 729 729 729 729 729 729 729 729 728 728 728 728 728 728 728 728 728 728 728 729 729 729 729 729 729 729 729 729 729 729 729 729 729 728 728 728 727 726 726 726 726 726 726 726 726 725 725 724 724 725 725 725 725 725 725 723 723 723 723 723 723 723 723 723 0 0 0 0 0 0 0 0 0 0 0 0 0 0 0 0 0 0 0 0 0 0 0 0 0 0 0 0 0 0 0 0 0 0 0 0 0 0 0 0 0 0 0 0 0 0 0 0 0 0 0 0 0 0 0 0 0 0 0 0 0 0 0 0 0 0 0 0 0 0 0 0 0 0 0 0 0 0 0 0 0 0 0 0 0 0 0 0 0 0 0 0 0 0 0 0 0 0 0 0 0 0 0 0 0 0 0 0 0 0 0 0 0 0 0 0 0 0 0 0 0 0 0 0 0 0 0 0 0 0 0 0 0 0 0 0 0 0 0 0 0 0 0 0 0 0 0 0 0 0 0 0 0 0 0 0 0 0 0 0 0 0 0 0 0 0 0 0 0 0 0 0 0 0 0 0 0 0 0 0 0 0 0 0 0 0 0 0 0 0 0 0 0 0 0 0 0 0 0 0 0 0 0 0 0 0 0 0 0 0 0 0 0 0 0 0 0 0 0 0 0 0 0 0 0 0 0 0 0 0 0 0 0 0 0 0 0 0 0 0 0 0 0 0 0 0 0 0 0 0 0 0 0 0 0 0 0 0 0 0 0 0 0 0 0 0 0 0 0 0 0 0 0 0 0 0 0 0 0 0 0 0 0 0 0 0 0 0 0 0 0 0 0 0 0 0 0 0 0 0 0 0 0 0 0 656 657 657 658 658 658 658 658 658 658 658 658 658 658 658 658 658 657 657 657 656 656 655 655 655 655 655 654 654 653 653 653 653 653 652 651 651 650 650 649 648 648 647 647 647 647 646 646 646 645 645 645 645 644 644 643 643 643 643 642 642 640 640 640 639 638 638 637 637 636 636 635 635 634 633 633 632 631 631 630 629 628 627 626 626 625 624 624 622 622 621 620 619 619 619 619 618 618 617 616 616 615 614 613 612 611 611 610 608 607 607 605 603 600 598 597 594 594 594 591 589 585 585 585 585 586 586 586
697 697 690 690 686 684 684 686 687 691 694 696 697 697 699 701 704 706 708 710 711 713 714 715 715 716 717 717 718 718 719 719 719 721 722 722 722 723 724 725 725 726 726 726 726 726 727 727 728 728 729 729 729 729 730 730 730 731 731 732 732 732 732 732 733 733 733 733 733 732 732 732 732 732 732 732 732 732 732 732 732 733 733 733 733 733 733 734 734 734 734 734 733 733 733 733 733 733 733 733 733 733 733 733 733 734 734 734 734 734 733 733 733 732 732 732 731 731 731 731 731 730 730 730 730 730 730 729 729 729 729 729 729 729 729 729 729 729 729 729 729 729 729 729 729 729 729 729 728 728 728 728 728 728 728 728 728 728 727 728 727 728 728 728 728 729 729 729 729 728 728 728 728 728 728 728 728 727 727 727 726 726 725 725 725 725 725 725 724 724 724 724 724 725 725 725 725 725 723 722 722 722 723 723 723 723 723 0 0 0 0 0 0 0 0 0 0 0 0 0 0 0 0 0 0 0 0 0 0 0 0 0 0 0 0 0 0 0 0 0 0 0 0 0 0 0 0 0 0 0 0 0 0 0 0 0 0 0 0 0 0 0 0 0 0 0 0 0 0 0 0 0 0 0 0 0 0 0 0 0 0 0 0 0 0 0 0 0 0 0 0 0 0 0 0 0 0 0 0 0 0 0 0 0 0 0 0 0 0 0 0 0 0 0 0 0 0 0 0 0 0 0 0 0 0 0 0 0 0 0 0 0 0 0 0 0 0 0 0 0 0 0 0 0 0 0 0 0 0 0 0 0 0 0 0 0 0 0 0 0 0 0 0 0 0 0 0 0 0 0 0 0 0 0 0 0 0 0 0 0 0 0 0 0 0 0 0 0 0 0 0 0 0 0 0 0 0 0 0 0 0 0 0 0 0 0 0 0 0 0 0 0 0 0 0 0 0 0 0 0 0 0 0 0 0 0 0 0 0 0 0 0 0 0 0 0 0 0 0 0 0 0 0 0 0 0 0 0 0 0 0 0 0 0 0 0 0 0 0 0 0 0 0 0 0 0 0 0 0 0 0 0 0 0 0 0 0 0 0 0 0 0 0 0 0 0 0 0 0 0 0 0 0 0 0 0 0 0 0 0 0 0 0 0 0 0 0 0 0 0 0 0 656 656 657 657 657 657 658 658 658 658 658 658 657 657 657 657 657 657 657 656 656 656 655 655 655 655 655 654 653 653 653 653 653 653 651 651 651 650 649 649 648 648 647 647 647 647 646 646 646 646 645 645 645 645 644 644 644 643 643 643 642 641 641 640 640 639 639 638 637 637 636 636 636 635 633 633 633 632 631 631 629 628 628 626 626 625 624 624 622 622 620 620 619 619 619 619 618 618 617 616 615 615 614 613 612 611 610 609 608 606 605 604 601 600 597 593 593 592 591 588 584 583 583 582 583 583 583 583
697 697 690 690 685 684 684 685 688 691 694 695 695 697 698 701 704 706 708 710 711 712 713 713 714 714 715 716 716 717 717 717 717 719 720 721 722 723 723 724 724 724 725 725 725 726 726 726 726 727 727 728 728 729 729 729 729 730 730 730 731 731 732 732 732 732 732 732 732 732 731 731 731 731 731 731 731 731 731 731 731 732 732 732 732 733 733 733 733 733 733 733 733 733 732 732 732 732 732 732 732 732 732 732 732 733 732 733 733 733 732 732 732 732 731 731 731 730 730 730 730 730 730 730 730 729 729 729 729 729 729 729 729 729 728 728 728 728 728 728 728 728 728 728 728 728 728 728 728 728 728 728 728 727 727 727 727 727 727 727 727 727 727 727 727 727 728 728 728 728 728 728 728 728 728 727 727 726 726 726 726 726 725 724 724 724 724 724 724 724 724 724 724 725 725 725 725 724 723 722 721 721 721 722 722 722 722 0 0 0 0 0 719 719 719 0 0 0 0 0 715 715 714 0 0 0 0 0 0 0 0 0 0 0 0 0 0 0 0 0 0 0 0 0 0 0 0 0 0 0 0 0 0 0 0 0 0 0 0 0 0 0 0 0 0 0 0 0 0 0 0 0 0 0 0 0 0 0 0 0 0 0 0 0 0 0 0 0 0 0 0 0 0 0 0 0 0 0 0 0 0 0 0 0 0 0 0 0 0 0 0 0 0 0 0 0 0 0 0 0 0 0 0 0 0 0 0 0 0 0 0 0 0 0 0 0 0 0 0 0 0 0 0 0 0 0 0 0 0 0 0 0 0 0 0 0 0 0 0 0 0 0 0 0 0 0 0 0 0 0 0 0 0 0 0 0 0 0 0 0 0 0 0 0 0 0 0 0 0 0 0 0 0 0 0 0 0 0 0 0 0 0 0 0 0 0 0 0 0 0 0 0 0 0 0 0 0 0 0 0 0 0 0 0 0 0 0 0 0 0 0 0 0 0 0 0 0 0 0 0 0 0 0 0 0 0 0 0 0 0 0 0 0 0 0 0 0 0 0 0 0 0 0 0 0 0 0 0 0 0 0 0 0 0 0 0 0 0 0 0 0 0 0 0 0 0 0 0 0 0 0 0 0 0 0 0 0 0 0 0 0 0 0 0 0 0 0 0 0 0 657 657 655 655 656 656 657 657 656 657 656 656 656 656 656 656 656 656 656 656 656 656 656 655 655 655 654 654 654 654 653 653 653 653 652 651 651 651 650 649 649 649 648 648 647 647 647 647 646 646 646 646 645 645 645 645 644 644 644 643 643 643 642 641 641 640 640 639 639 638 638 638 637 636 636 635 634 634 633 633 632 631 630 629 628 627 626 625 624 624 622 622 620 620 618 618 618 618 618 617 617 616 615 614 613 613 612 611 610 609 608 606 605 603 601 599 597 593 592 590 588 584 582 582 582 582 582 582 582 582
697 697 690 690 685 684 684 685 688 691 693 694 694 696 698 700 703 705 707 709 709 711 712 712 712 713 714 714 715 715 715 715 717 717 719 721 721 722 722 723 724 724 724 724 724 725 725 726 726 726 726 726 727 727 727 728 728 729 729 729 730 730 730 730 731 731 731 731 731 731 730 730 730 730 730 730 730 730 730 730 730 730 731 731 732 732 732 732 732 732 732 732 732 732 732 732 732 732 731 731 731 731 732 732 732 732 732 732 732 732 732 732 731 731 731 730 730 730 730 730 729 729 729 729 728 728 728 728 728 728 728 728 728 728 728 727 728 727 727 727 727 727 727 727 727 727 727 727 727 727 727 727 727 727 727 727 726 726 726 726 726 726 726 726 726 726 727 727 727 727 727 727 727 726 726 726 726 726 725 725 725 725 725 724 724 723 723 723 723 723 723 724 724 724 724 724 724 724 723 721 721 721 721 721 722 722 722 721 718 718 718 718 718 718 718 718 716 715 715 715 715 715 714 715 715 715 716 717 717 0 0 0 0 0 0 0 0 0 0 0 0 0 0 0 0 0 0 0 0 0 0 0 0 0 0 0 0 0 0 0 0 0 0 0 0 0 0 0 0 0 0 0 0 0 0 0 0 0 0 0 0 0 0 0 0 0 0 0 0 0 0 0 0 0 0 0 0 0 0 0 0 0 0 0 0 0 0 0 0 0 0 0 0 0 0 0 0 0 0 0 0 0 0 0 0 0 0 0 0 0 0 0 0 0 0 0 0 0 0 0 0 0 0 0 0 0 0 0 0 0 0 0 0 0 0 0 0 0 0 0 0 0 0 0 0 0 0 0 0 0 0 0 0 0 0 0 0 0 0 0 0 0 0 0 0 0 0 0 0 0 0 0 0 0 0 0 0 0 0 0 0 0 0 0 0 0 0 0 0 0 0 0 0 0 0 0 0 0 0 0 0 0 0 0 0 0 0 0 0 0 0 0 0 0 0 0 0 0 0 0 0 0 0 0 0 0 0 0 0 0 0 0 0 0 0 0 0 0 0 0 0 0 0 0 0 0 0 0 0 0 0 0 0 0 0 0 0 0 0 0 0 0 0 0 0 0 0 0 0 0 0 0 0 0 0 0 0 0 0 0 0 0 0 0 0 0 0 0 0 657 657 656 656 656 656 656 656 656 656 655 655 655 655 655 655 655 655 655 655 655 655 655 655 655 655 654 654 653 653 653 653 652 652 651 651 651 651 650 649 649 648 648 648 648 647 647 647 647 646 646 646 646 645 645 645 645 644 644 644 643 643 643 642 641 641 640 640 639 639 638 638 638 637 636 636 635 634 634 633 633 632 631 630 629 628 627 626 625 624 623 622 621 620 619 618 617 617 617 617 617 616 616 615 614 613 613 612 610 610 609 607 606 605 603 601 598 596 593 591 590 588 584 582 582 581 581 581 582 582 582
692 692 689 689 685 685 685 686 689 691 693 693 694 694 696 699 700 704 705 707 708 709 710 710 711 712 712 713 714 714 714 715 716 717 718 720 721 721 721 722 722 722 723 723 723 724 724 725 725 725 725 726 726 727 727 727 728 728 728 729 729 729 729 730 730 730 730 730 730 730 729 729 729 729 729 729 729 729 729 729 729 730 730 730 731 731 731 731 731 732 732 732 732 731 731 731 731 731 731 731 731 731 731 731 731 731 731 731 731 731 731 731 731 730 730 730 729 729 729 729 728 728 728 727 727 727 727 727 727 727 727 727 727 727 727 727 727 727 727 727 727 727 727 727 726 726 727 727 727 727 727 726 726 726 726 726 726 725 725 726 725 726 726 726 726 726 726 726 726 726 726 726 726 726 725 725 725 725 725 725 725 724 724 724 723 723 723 722 722 722 722 722 722 723 723 723 723 723 722 721 721 721 721 721 721 721 720 718 717 717 717 717 717 717 717 717 716 716 715 715 715 715 715 716 716 716 716 718 718 718 0 0 0 0 0 0 0 0 0 0 0 0 0 0 0 0 0 0 0 0 0 0 0 0 0 0 0 0 0 0 0 0 0 0 0 0 0 0 0 0 0 0 0 0 0 0 0 0 0 0 0 0 0 0 0 0 0 0 0 0 0 0 0 0 0 0 0 0 0 0 0 0 0 0 0 0 0 0 0 0 0 0 0 0 0 0 0 0 0 0 0 0 0 0 0 0 0 0 0 0 0 0 0 0 0 0 0 0 0 0 0 0 0 0 0 0 0 0 0 0 0 0 0 0 0 0 0 0 0 0 0 0 0 0 0 0 0 0 0 0 0 0 0 0 0 0 0 0 0 0 0 0 0 0 0 0 0 0 0 0 0 0 0 0 0 0 0 0 0 0 0 0 0 0 0 0 0 0 0 0 0 0 0 0 0 0 0 0 0 0 0 0 0 0 0 0 0 0 0 0 0 0 0 0 0 0 0 0 0 0 0 0 0 0 0 0 0 0 0 0 0 0 0 0 0 0 0 0 0 0 0 0 0 0 0 0 0 0 0 0 0 0 0 0 0 0 0 0 0 0 0 0 0 0 0 0 0 0 0 0 0 0 0 0 0 0 0 0 0 0 0 653 653 652 652 652 655 657 657 657 656 656 655 655 655 655 655 654 654 654 654 654 654 654 654 654 654 654 654 654 654 654 654 653 653 653 653 652 652 652 651 651 651 650 650 650 650 649 649 648 648 647 647 647 647 647 646 646 646 646 646 645 645 645 645 645 644 643 643 643 642 642 642 641 641 640 640 639 639 638 638 638 637 636 636 635 634 634 633 633 632 631 630 629 628 627 625 625 624 623 622 621 620 619 617 617 617 617 617 616 616 615 615 614 613 612 611 610 610 608 607 606 605 603 601 598 595 593 591 590 588 584 582 582 582 581 582 582 582 582
685 685 683 685 683 683 685 686 690 691 692 693 694 694 695 697 699 701 703 704 706 707 707 709 710 711 711 712 713 713 713 714 715 716 718 719 720 721 721 721 721 721 722 722 722 723 723 723 724 724 725 725 725 726 726 726 726 727 728 728 728 728 729 729 729 729 729 729 729 729 729 728 728 728 728 728 728 728 728 728 729 729 729 729 729 730 730 730 730 730 730 730 730 730 730 730 730 730 730 730 730 730 730 730 730 730 730 730 730 730 730 730 729 729 729 729 728 728 728 728 728 727 727 727 727 726 726 726 726 726 726 726 726 726 726 726 726 726 726 726 726 726 726 726 726 726 726 725 726 725 725 725 725 725 725 725 724 724 725 724 724 725 725 725 725 725 725 725 725 725 725 725 725 725 725 725 725 724 724 724 724 724 724 723 723 723 723 722 721 721 720 720 720 720 721 721 721 721 721 721 720 720 720 720 720 720 717 716 716 715 715 715 715 715 715 715 715 715 715 714 714 714 716 716 716 716 717 718 718 718 715 0 0 0 0 0 0 0 0 0 0 0 0 0 0 0 0 0 0 0 0 0 0 0 0 0 0 0 0 0 0 0 0 0 0 0 0 0 0 0 0 0 0 0 0 0 0 0 0 0 0 0 0 0 0 0 0 0 0 0 0 0 0 0 0 0 0 0 0 0 0 0 0 0 0 0 0 0 0 0 0 0 0 0 0 0 0 0 0 0 0 0 0 0 0 0 0 0 0 0 0 0 0 0 0 0 0 0 0 0 0 0 0 0 0 0 0 0 0 0 0 0 0 0 0 0 0 0 0 0 0 0 0 0 0 0 0 0 0 0 0 0 0 0 0 0 0 0 0 0 0 0 0 0 0 0 0 0 0 0 0 0 0 0 0 0 0 0 0 0 0 0 0 0 0 0 0 0 0 0 0 0 0 0 0 0 0 0 0 0 0 0 0 0 0 0 0 0 0 0 0 0 0 0 0 0 0 0 0 0 0 0 0 0 0 0 0 0 0 0 0 0 0 0 0 0 0 0 0 0 0 0 0 0 0 0 0 0 0 0 0 0 0 0 0 0 0 0 0 0 0 0 0 0 0 0 0 0 0 0 0 0 0 0 0 0 0 0 0 0 655 655 654 654 654 654 655 655 655 655 655 655 655 655 655 655 654 654 654 653 653 653 653 653 653 653 653 653 653 653 653 653 653 653 652 652 652 652 651 651 650 650 649 649 649 648 648 648 648 647 647 647 646 646 646 646 646 646 646 645 645 645 644 644 644 643 643 643 642 642 642 642 641 641 640 640 640 639 638 638 637 637 636 636 636 634 634 633 633 633 632 631 630 629 628 627 625 625 624 623 622 620 619 619 617 616 616 616 616 616 615 615 614 613 612 611 610 610 608 608 607 606 604 602 600 598 595 593 591 590 588 586 583 582 582 582 582 582 582 582
681 683 681 683 683 685 689 690 692 692 692 692 693 694 695 697 699 701 702 703 705 706 706 708 708 710 710 711 712 712 712 714 715 715 717 718 719 720 721 721 721 721 721 722 722 722 722 723 723 723 724 724 724 725 726 726 726 726 727 727 728 728 728 728 729 729 729 729 729 728 728 728 728 727 727 727 727 727 727 727 728 728 728 729 729 729 729 729 730 730 730 730 730 730 729 729 729 729 729 729 729 729 729 729 729 729 729 729 729 729 729 729 729 729 729 728 728 728 727 727 726 726 726 726 725 725 725 725 725 725 725 725 725 724 724 724 724 725 725 725 725 724 724 725 725 725 725 725 725 725 724 724 724 724 724 724 724 723 723 723 723 723 723 723 724 724 724 724 724 724 724 724 724 724 723 723 723 723 723 723 723 723 723 723 723 722 722 722 721 720 720 720 720 720 720 720 720 720 720 720 720 719 719 719 719 716 716 715 715 715 714 712 712 712 713 714 714 714 714 714 714 714 716 716 716 716 717 717 717 717 715 715 0 0 0 0 0 0 0 0 0 0 0 0 0 0 0 0 0 0 0 0 0 0 0 0 0 0 0 0 0 0 0 0 0 0 0 0 0 0 0 0 0 0 0 0 0 0 0 0 0 0 0 0 0 0 0 0 0 0 0 0 0 0 0 0 0 0 0 0 0 0 0 0 0 0 0 0 0 0 0 0 0 0 0 0 0 0 0 0 0 0 0 0 0 0 0 0 0 0 0 0 0 0 0 0 0 0 0 0 0 0 0 0 0 0 0 0 0 0 0 0 0 0 0 0 0 0 0 0 0 0 0 0 0 0 0 0 0 0 0 0 0 0 0 0 0 0 0 0 0 0 0 0 0 0 0 0 0 0 0 0 0 0 0 0 0 0 0 0 0 0 0 0 0 0 0 0 0 0 0 0 0 0 0 0 0 0 0 0 0 0 0 0 0 0 0 0 0 0 0 0 0 0 0 0 0 0 0 0 0 0 0 0 0 0 0 0 0 0 0 0 0 0 0 0 0 0 0 0 0 0 0 0 0 0 0 0 0 0 0 0 0 0 0 0 0 0 0 0 0 0 0 0 0 0 0 0 0 0 0 0 0 0 0 0 0 0 0 655 655 655 655 654 654 654 654 654 654 654 654 654 654 654 654 654 654 653 653 653 652 652 652 652 653 653 653 653 653 653 652 652 652 652 651 651 651 650 650 650 650 649 649 649 648 647 647 647 647 647 646 646 646 646 645 645 645 645 644 644 644 644 644 643 643 643 642 642 641 641 641 641 640 639 639 639 639 638 637 636 636 636 635 635 635 634 634 633 633 632 632 631 630 629 627 626 625 624 624 622 621 620 619 618 617 616 616 616 615 615 615 614 613 613 611 611 610 609 608 606 606 604 603 601 600 597 595 593 591 590 588 587 585 583 582 582 582 582 582 582
681 682 681 682 682 687 689 690 692 692 692 692 693 694 695 697 698 699 701 702 703 704 705 706 706 708 709 710 710 711 712 712 714 715 716 717 719 719 720 720 720 720 720 720 720 721 721 722 722 723 723 723 724 724 725 725 725 725 726 726 727 727 727 727 727 727 727 727 727 727 727 727 727 727 727 727 727 727 727 727 727 727 727 728 728 728 728 728 728 728 728 729 729 729 729 729 729 728 728 728 728 728 728 728 728 729 729 729 729 729 729 729 729 728 728 727 727 727 727 726 726 726 725 725 725 724 724 724 724 724 724 723 724 724 724 724 724 724 723 723 723 723 723 723 723 723 723 723 723 723 723 723 723 723 723 723 722 722 722 722 722 722 722 722 722 722 723 723 723 723 723 723 723 723 723 723 722 722 722 722 722 722 722 722 722 722 722 721 720 720 720 719 719 719 719 719 718 718 718 718 717 717 716 716 715 715 715 714 714 714 714 711 711 711 712 713 713 713 713 713 713 714 716 716 716 716 717 716 716 716 714 713 713 0 0 0 0 0 0 0 0 0 0 0 0 0 0 0 0 0 0 0 0 0 0 0 0 0 0 0 0 0 0 0 0 0 0 0 0 0 0 0 0 0 0 0 0 0 0 0 0 0 0 0 0 0 0 0 0 0 0 0 0 0 0 0 0 0 0 0 0 0 0 0 0 0 0 0 0 0 0 0 0 0 0 0 0 0 0 0 0 0 0 0 0 0 0 0 0 0 0 0 0 0 0 0 0 0 0 0 0 0 0 0 0 0 0 0 0 0 0 0 0 0 0 0 0 0 0 0 0 0 0 0 0 0 0 0 0 0 0 0 0 0 0 0 0 0 0 0 0 0 0 0 0 0 0 0 0 0 0 0 0 0 0 0 0 0 0 0 0 0 0 0 0 0 0 0 0 0 0 0 0 0 0 0 0 0 0 0 0 0 0 0 0 0 0 0 0 0 0 0 0 0 0 0 0 0 0 0 0 0 0 0 0 0 0 0 0 0 0 0 0 0 0 0 0 0 0 0 0 0 0 0 0 0 0 0 0 0 0 0 0 0 0 0 0 0 0 0 0 0 0 0 0 0 0 0 0 0 0 0 0 0 0 0 0 0 656 655 655 655 655 655 654 654 654 654 653 653 653 653 652 652 652 652 652 652 652 651 651 651 651 651 651 651 651 651 651 651 651 651 651 650 650 650 649 649 649 649 648 648 648 647 647 647 646 646 646 646 645 645 645 644 644 644 644 644 644 644 643 643 643 642 642 642 641 641 640 640 640 639 639 639 638 638 637 637 636 636 635 635 635 634 634 633 633 632 631 631 630 630 629 628 626 625 625 624 622 622 621 620 619 618 617 616 616 615 615 614 613 613 612 612 611 610 610 609 607 606 605 603 602 601 598 597 595 593 591 589 588 587 585 583 582 582 582 582 582 582
681 681 679 681 681 687 689 690 692 692 692 692 693 694 695 696 698 699 700 701 701 703 704 704 706 706 708 710 710 710 711 712 713 714 715 716 717 719 719 719 719 720 720 720 720 720 721 721 721 721 722 723 723 724 724 724 725 725 725 725 726 726 726 727 727 727 727 727 727 727 727 727 727 727 727 727 726 726 726 726 727 727 727 727 727 727 727 727 727 728 728 728 728 728 728 728 728 727 727 727 727 727 727 728 728 728 728 728 728 728 728 727 727 727 727 726 726 726 725 725 725 725 725 724 724 724 723 723 723 723 723 723 722 722 722 722 722 722 722 722 722 722 722 722 722 722 722 722 722 722 722 722 722 722 722 721 721 721 721 721 721 721 721 721 721 721 722 722 722 722 722 721 721 722 721 721 721 722 721 721 721 721 721 721 721 721 721 721 720 719 719 719 719 717 717 717 717 716 716 716 715 715 714 713 713 711 711 711 711 711 711 710 710 710 711 712 712 712 712 712 712 713 713 714 715 715 716 715 715 715 713 711 710 709 0 0 0 0 0 0 0 0 0 0 0 0 0 0 0 0 0 0 0 0 0 0 0 0 0 0 0 0 0 0 0 0 0 0 0 0 0 0 0 0 0 0 0 0 0 0 0 0 0 0 0 0 0 0 0 0 0 0 0 0 0 0 0 0 0 0 0 0 0 0 0 0 0 0 0 0 0 0 0 0 0 0 0 0 0 0 0 0 0 0 0 0 0 0 0 0 0 0 0 0 0 0 0 0 0 0 0 0 0 0 0 0 0 0 0 0 0 0 0 0 0 0 0 0 0 0 0 0 0 0 0 0 0 0 0 0 0 0 0 0 0 0 0 0 0 0 0 0 0 0 0 0 0 0 0 0 0 0 0 0 0 0 0 0 0 0 0 0 0 0 0 0 0 0 0 0 0 0 0 0 0 0 0 0 0 0 0 0 0 0 0 0 0 0 0 0 0 0 0 0 0 0 0 0 0 0 0 0 0 0 0 0 0 0 0 0 0 0 0 0 0 0 0 0 0 0 0 0 0 0 0 0 0 0 0 0 0 0 0 0 0 0 0 0 0 0 0 0 0 0 0 0 0 0 0 0 0 0 0 0 0 0 0 656 655 655 655 655 655 655 654 654 654 653 653 652 652 652 652 651 651 651 651 651 651 651 650 650 650 651 651 651 651 651 650 650 650 649 649 649 649 649 648 648 648 648 647 647 646 646 646 646 645 645 645 645 645 644 644 644 644 643 643 643 643 643 642 642 642 641 641 640 640 640 640 639 639 638 637 637 636 636 636 636 636 635 635 634 633 633 633 632 632 631 631 630 630 629 629 627 626 625 625 623 622 621 620 620 618 618 617 615 615 614 614 613 613 613 612 612 611 610 609 608 607 605 604 602 601 599 597 596 593 592 591 589 588 587 585 583 582 582 582 582 582 582
680 680 679 680 680 685 687 688 689 690 690 690 692 694 695 696 697 698 699 699 700 701 702 703 704 705 706 708 708 710 711 711 712 714 714 715 716 718 718 719 719 719 719 720 720 720 720 720 721 721 721 722 722 723 723 723 723 724 725 725 725 725 725 725 725 726 726 726 726 726 726 726 726 726 726 726 726 726 726 726 726 726 726 726 726 726 726 727 727 727 727 727 727 727 727 727 727 726 726 726 726 726 726 726 727 726 726 726 726 726 727 727 727 727 726 726 726 725 725 725 724 724 724 724 722 722 722 722 722 722 721 721 721 721 721 720 720 720 720 721 721 721 721 721 721 721 721 721 721 721 721 720 720 720 720 720 720 720 720 720 720 720 720 720 720 720 720 720 721 721 721 721 721 720 720 720 721 720 721 721 720 719 719 719 720 720 720 720 718 718 718 718 718 717 715 715 715 714 714 714 714 0 0 0 0 0 0 0 0 0 0 0 0 0 0 0 0 0 0 0 0 0 0 0 0 0 0 0 0 0 0 0 0 0 0 0 0 0 0 0 0 0 0 0 0 0 0 0 0 0 0 0 0 0 0 0 0 0 0 0 0 0 0 0 0 0 0 0 0 0 0 0 0 0 0 0 0 0 0 0 0 0 0 0 0 0 0 0 0 0 0 0 0 0 0 0 0 0 0 0 0 0 0 0 0 0 0 0 0 0 0 0 0 0 0 0 0 0 0 0 0 0 0 0 0 0 0 0 0 0 0 0 0 0 0 0 0 0 0 0 0 0 0 0 0 0 0 0 0 0 0 0 0 0 0 0 0 0 0 0 0 0 0 0 0 0 0 0 0 0 0 0 0 0 0 0 0 0 0 0 0 0 0 0 0 0 0 0 0 0 0 0 0 0 0 0 0 0 0 0 0 0 0 0 0 0 0 0 0 0 0 0 0 0 0 0 0 0 0 0 0 0 0 0 0 0 0 0 0 0 0 0 0 0 0 0 0 0 0 0 0 0 0 0 0 0 0 0 0 0 0 0 0 0 0 0 0 0 0 0 0 0 0 0 0 0 0 0 0 0 0 0 0 0 0 0 0 0 0 0 0 0 0 655 656 656 656 656 656 656 656 657 657 657 657 656 656 656 655 655 655 655 655 655 653 653 653 653 653 652 651 651 651 651 651 650 650 650 650 650 650 649 649 649 649 650 650 650 649 649 649 649 648 648 648 648 647 647 647 646 646 646 646 645 645 645 645 645 644 644 644 644 643 643 643 643 642 642 642 642 642 641 641 640 640 639 639 639 638 637 637 636 636 635 635 635 635 634 634 634 633 633 633 632 632 631 631 631 630 629 629 629 628 627 626 625 624 623 622 621 620 620 618 618 616 615 614 614 613 613 612 612 612 612 611 610 608 607 605 603 603 602 600 598 596 594 593 591 589 589 588 586 585 583 582 582 582 582 582 582
681 681 679 681 681 685 687 687 687 688 689 689 690 692 694 694 695 695 696 698 698 699 701 701 703 704 706 707 707 709 710 711 711 712 713 714 716 717 717 718 718 719 719 719 719 719 719 719 720 721 721 721 722 722 722 722 723 723 724 724 724 724 724 724 724 724 725 725 725 725 725 725 725 725 725 726 726 725 725 725 725 725 725 725 725 726 726 726 726 726 726 726 726 726 726 726 726 726 726 726 726 726 726 726 726 726 726 726 726 726 726 726 726 726 725 725 725 724 724 724 724 723 723 722 722 722 721 721 721 720 720 720 720 720 720 720 720 720 720 720 719 719 719 719 720 720 720 720 720 720 720 719 719 719 719 719 719 719 719 719 719 719 719 719 719 719 719 719 719 719 719 719 719 719 719 718 718 719 718 718 718 718 718 718 720 720 720 716 716 715 715 714 713 713 711 711 711 712 712 712 712 0 0 0 0 0 0 0 0 0 0 0 0 0 0 0 0 0 0 0 0 0 0 0 0 0 0 0 0 0 0 0 0 0 0 0 0 0 0 0 0 0 0 0 0 0 0 0 0 0 0 0 0 0 0 0 0 0 0 0 0 0 0 0 0 0 0 0 0 0 0 0 0 0 0 0 0 0 0 0 0 0 0 0 0 0 0 0 0 0 0 0 0 0 0 0 0 0 0 0 0 0 0 0 0 0 0 0 0 0 0 0 0 0 0 0 0 0 0 0 0 0 0 0 0 0 0 0 0 0 0 0 0 0 0 0 0 0 0 0 0 0 0 0 0 0 0 0 0 0 0 0 0 0 0 0 0 0 0 0 0 0 0 0 0 0 0 0 0 0 0 0 0 0 0 0 0 0 0 0 0 0 0 0 0 0 0 0 0 0 0 0 0 0 0 0 0 0 0 0 0 0 0 0 0 0 0 0 0 0 0 0 0 0 0 0 0 0 0 0 0 0 0 0 0 0 0 0 0 0 0 0 0 0 0 0 0 0 0 0 0 0 0 0 0 0 0 0 0 0 0 0 0 0 0 0 0 0 0 0 0 0 0 0 0 0 0 0 0 0 0 0 0 0 0 0 0 0 0 0 0 655 655 655 656 656 656 656 654 654 654 655 655 656 656 656 655 655 655 655 655 655 655 653 653 652 651 651 651 651 651 650 650 650 650 650 649 649 649 649 649 649 649 649 649 649 649 649 649 648 648 648 648 647 647 647 646 646 646 645 645 644 644 644 644 644 644 643 643 643 643 643 643 642 642 642 642 642 641 641 641 640 640 639 639 638 638 638 637 637 636 636 635 634 634 634 633 633 633 632 632 632 632 631 631 631 630 630 629 628 627 627 626 626 625 624 623 623 622 621 620 619 618 617 615 615 614 614 612 612 612 611 611 611 610 609 608 607 604 603 601 600 599 598 596 592 591 590 589 589 586 585 584 583 582 582 582 582 581 581
682 682 679 682 682 685 687 687 687 687 687 687 688 690 692 693 693 694 694 696 697 698 699 700 701 703 704 705 707 708 709 710 710 712 713 714 715 716 717 717 717 718 718 718 718 718 719 719 719 720 720 720 721 721 722 722 722 722 723 723 723 723 723 723 723 723 724 724 724 724 724 724 724 724 724 724 724 724 724 724 725 725 724 725 725 725 725 725 725 725 725 726 726 726 725 725 725 725 725 725 725 725 725 725 725 725 725 725 725 725 725 725 725 724 724 724 724 724 723 723 723 723 722 721 721 721 720 720 719 719 719 719 719 718 718 718 718 719 719 719 719 719 719 719 719 719 719 719 719 719 718 718 718 718 717 717 717 717 717 717 717 717 717 717 717 717 717 718 718 718 718 718 717 717 717 717 717 717 717 716 716 716 716 717 717 717 716 715 714 713 713 713 713 712 711 710 710 710 710 710 0 0 0 0 0 0 0 0 0 0 0 0 0 0 0 0 0 0 0 0 0 0 0 0 0 0 0 0 0 0 0 0 0 0 0 0 0 0 0 0 0 0 0 0 0 0 0 0 0 0 0 0 0 0 0 0 0 0 0 0 0 0 0 0 0 0 0 0 0 0 0 0 0 0 0 0 0 0 0 0 0 0 0 0 0 0 0 0 0 0 0 0 0 0 0 0 0 0 0 0 0 0 0 0 0 0 0 0 0 0 0 0 0 0 0 0 0 0 0 0 0 0 0 0 0 0 0 0 0 0 0 0 0 0 0 0 0 0 0 0 0 0 0 0 0 0 0 0 0 0 0 0 0 0 0 0 0 0 0 0 0 0 0 0 0 0 0 0 0 0 0 0 0 0 0 0 0 0 0 0 0 0 0 0 0 0 0 0 0 0 0 0 0 0 0 0 0 0 0 0 0 0 0 0 0 0 0 0 0 0 0 0 0 0 0 0 0 0 0 0 0 0 0 0 0 0 0 0 0 0 0 0 0 0 0 0 0 0 0 0 0 0 0 0 0 0 0 0 0 0 0 0 0 0 657 657 656 656 0 0 0 0 0 0 0 0 0 0 0 0 0 0 0 0 0 0 0 0 0 0 656 655 655 655 656 656 656 656 654 654 654 654 654 655 655 655 655 655 654 654 654 654 653 653 651 651 651 651 651 651 651 650 650 650 649 649 649 649 649 648 648 648 648 648 648 648 648 648 648 647 647 647 646 646 645 645 645 645 644 644 644 644 643 643 643 643 643 643 643 642 642 642 641 641 641 641 641 641 641 640 640 639 639 638 638 638 637 636 636 635 635 634 634 633 633 633 632 632 632 632 631 631 631 631 630 630 630 628 628 627 626 626 626 625 624 623 623 622 621 620 619 619 617 616 615 614 614 613 612 612 612 611 611 610 608 608 607 605 604 601 600 599 598 596 594 592 590 588 588 586 586 584 583 582 581 581 581 581 581 581
683 683 679 683 683 686 687 687 687 687 687 687 687 688 690 691 692 692 694 695 696 697 698 700 700 702 704 704 705 706 708 709 710 711 711 712 713 714 715 716 716 717 717 717 718 718 718 718 719 719 719 720 720 720 721 721 721 721 721 722 722 722 722 722 722 722 722 723 723 723 724 724 724 724 724 724 724 724 724 724 724 724 724 724 724 724 724 724 724 724 724 724 724 724 724 724 724 724 724 724 724 724 723 723 724 724 724 724 724 724 724 724 724 723 723 723 723 723 722 722 722 722 722 721 720 720 719 718 718 718 718 718 717 717 717 717 717 717 717 717 717 717 717 717 717 717 717 717 717 717 717 717 716 716 716 716 716 715 715 715 715 715 716 716 716 716 716 716 716 716 716 716 716 716 716 716 716 715 715 715 714 714 714 715 715 715 714 0 706 706 709 710 710 710 709 0 0 0 709 709 0 0 0 0 0 0 0 0 0 0 0 0 0 0 0 0 0 0 0 0 0 0 0 0 0 0 0 0 0 0 0 0 0 0 0 0 0 0 0 0 0 0 0 0 0 0 0 0 0 0 0 0 0 0 0 0 0 0 0 0 0 0 0 0 0 0 0 0 0 0 0 0 0 0 0 0 0 0 0 0 0 0 0 0 0 0 0 0 0 0 0 0 0 0 0 0 0 0 0 0 0 0 0 0 0 0 0 0 0 0 0 0 0 0 0 0 0 0 0 0 0 0 0 0 0 0 0 0 0 0 0 0 0 0 0 0 0 0 0 0 0 0 0 0 0 0 0 0 0 0 0 0 0 0 0 0 0 0 0 0 0 0 0 0 0 0 0 0 0 0 0 0 0 0 0 0 0 0 0 0 0 0 0 0 0 0 0 0 0 0 0 0 0 0 0 0 0 0 0 0 0 0 0 0 0 0 0 0 0 0 0 0 0 0 0 0 0 0 0 0 0 0 0 0 0 0 0 0 0 0 0 0 0 0 0 0 0 0 0 0 0 0 0 0 0 0 0 0 0 0 0 0 0 659 659 659 659 659 659 0 0 0 0 0 0 0 0 0 660 658 657 656 656 656 656 656 656 656 656 656 656 654 654 654 655 655 655 655 653 653 653 653 654 654 654 654 654 654 654 654 654 652 652 652 651 651 650 650 650 650 649 649 649 649 649 649 648 648 648 648 648 647 647 647 647 647 647 647 647 647 647 646 646 645 645 645 644 644 644 644 643 643 643 642 642 642 642 642 642 642 642 641 641 641 641 641 641 640 640 639 639 639 638 637 637 637 636 635 635 634 634 633 633 633 632 632 631 631 631 631 631 631 630 630 630 630 628 628 628 627 626 625 625 624 623 623 623 622 621 620 619 618 617 616 615 614 614 613 612 612 611 610 610 609 608 607 606 605 603 601 599 597 597 595 593 591 589 588 587 585 584 584 583 582 581 581 581 581 580 580
683 683 681 683 683 686 687 687 687 687 687 687 687 688 689 690 691 692 693 694 695 696 697 698 699 701 703 703 705 705 706 707 708 709 710 711 712 713 714 715 715 715 716 716 716 717 717 717 718 718 718 719 719 720 720 720 720 720 720 721 721 721 721 721 721 721 721 721 721 722 722 722 722 723 723 723 723 723 723 723 723 723 723 723 723 723 723 723 724 724 724 724 724 724 724 724 723 723 723 723 723 723 722 722 722 722 723 723 723 723 723 723 723 723 723 722 722 722 722 721 721 721 720 720 719 718 718 718 718 717 717 717 717 717 716 716 716 716 716 716 716 716 716 716 716 716 716 716 716 716 716 715 715 715 715 715 715 715 714 715 715 715 714 714 714 714 714 715 715 715 715 715 715 715 715 715 714 714 714 714 711 710 709 709 708 0 0 0 706 705 705 705 706 706 707 0 0 0 706 706 0 0 0 0 0 0 0 0 0 0 0 0 0 0 0 0 0 0 0 0 0 0 0 0 0 0 0 0 0 0 0 0 0 0 0 0 0 0 0 0 0 0 0 0 0 0 0 0 0 0 0 0 0 0 0 0 0 0 0 0 0 0 0 0 0 0 0 0 0 0 0 0 0 0 0 0 0 0 0 0 0 0 0 0 0 0 0 0 0 0 0 0 0 0 0 0 0 0 0 0 0 0 0 0 0 0 0 0 0 0 0 0 0 0 0 0 0 0 0 0 0 0 0 0 0 0 0 0 0 0 0 0 0 0 0 0 0 0 0 0 0 0 0 0 0 0 0 0 0 0 0 0 0 0 0 0 0 0 0 0 0 0 0 0 0 0 0 0 0 0 0 0 0 0 0 0 0 0 0 0 0 0 0 0 0 0 0 0 0 0 0 0 0 0 0 0 0 0 0 0 0 0 0 0 0 0 0 0 0 0 0 0 0 0 0 0 0 0 0 0 0 0 0 0 0 0 0 0 663 663 663 662 662 0 0 0 0 0 0 0 0 0 662 663 663 663 663 663 662 660 660 659 659 658 658 658 658 658 658 658 658 658 659 660 660 661 661 660 658 657 657 657 656 656 656 656 656 656 656 655 652 651 651 651 651 652 653 653 653 653 653 653 652 652 652 652 652 652 652 652 651 651 651 651 651 651 650 650 650 650 649 649 648 648 648 648 648 647 647 647 647 647 647 647 647 647 647 646 646 646 646 645 645 645 644 644 643 643 643 642 642 642 642 642 642 642 642 642 642 641 641 641 641 641 640 640 640 639 639 639 639 638 637 637 636 636 635 635 634 633 633 633 632 632 631 631 631 631 630 630 630 630 630 629 629 629 628 628 627 627 626 625 624 623 623 622 622 622 620 620 619 617 617 615 615 614 614 613 612 612 611 610 609 608 607 606 604 604 602 599 598 597 595 594 591 590 588 588 586 584 583 583 582 581 581 581 581 580 580 580
683 683 681 683 683 686 686 686 686 686 686 686 686 686 688 689 689 691 692 692 693 694 695 697 698 700 701 702 703 705 705 706 707 708 708 710 711 712 712 713 713 714 714 714 715 715 715 716 716 717 717 718 718 719 719 719 719 719 719 719 720 720 720 720 720 720 720 720 721 721 721 721 721 722 722 722 722 722 722 722 721 721 721 721 721 721 722 722 722 722 722 722 723 723 722 722 722 722 722 722 722 722 722 722 722 722 721 721 721 722 722 722 722 722 722 722 722 722 721 721 720 720 720 719 719 718 717 717 717 716 716 716 716 715 715 715 715 715 715 715 715 715 715 715 715 715 715 715 714 714 714 714 714 714 714 714 713 713 713 713 713 713 713 713 713 713 713 713 714 714 714 714 713 713 713 713 713 712 712 710 710 709 708 707 707 0 0 0 705 704 704 704 705 706 706 706 706 706 706 705 0 0 0 0 0 0 0 0 0 0 0 0 0 0 0 0 0 0 0 0 0 0 0 0 0 0 0 0 0 0 0 0 0 0 0 0 0 0 0 0 0 0 0 0 0 0 0 0 0 0 0 0 0 0 0 0 0 0 0 0 0 0 0 0 0 0 0 0 0 0 0 0 0 0 0 0 0 0 0 0 0 0 0 0 0 0 0 0 0 0 0 0 0 0 0 0 0 0 0 0 0 0 0 0 0 0 0 0 0 0 0 0 0 0 0 0 0 0 0 0 0 0 0 0 0 0 0 0 0 0 0 0 0 0 0 0 0 0 0 0 0 0 0 0 0 0 0 0 0 0 0 0 0 0 0 0 0 0 0 0 0 0 0 0 0 0 0 0 0 0 0 0 0 0 0 0 0 0 0 0 0 0 0 0 0 0 0 0 0 0 0 0 0 0 0 0 0 0 0 0 0 0 0 0 0 0 0 0 0 0 0 0 0 0 0 0 0 0 0 0 0 0 0 0 0 0 0 665 665 663 663 662 662 662 0 0 0 0 0 0 0 662 662 663 663 663 663 663 663 663 661 660 660 658 658 658 658 658 658 658 658 658 660 660 660 660 660 658 658 657 657 657 656 657 657 657 657 657 656 655 652 651 651 651 651 651 651 652 652 652 652 652 652 652 652 652 651 651 651 651 651 651 651 650 650 650 650 650 650 649 649 649 648 648 648 647 647 647 647 646 646 646 646 646 646 646 646 646 646 645 645 645 644 644 644 643 643 642 642 642 642 642 642 642 642 641 641 641 641 640 640 640 640 639 639 639 639 639 639 638 638 637 637 636 636 636 635 634 633 633 632 632 631 631 631 630 630 630 630 629 629 629 629 628 628 628 627 627 627 626 625 625 624 623 623 622 621 621 620 619 618 617 617 615 615 614 614 613 612 611 610 610 609 608 606 606 604 603 601 599 597 595 594 592 591 589 587 586 585 584 583 582 582 581 581 581 580 580 579 579
684 684 681 681 681 681 684 684 684 684 684 684 685 686 686 687 689 689 691 691 692 692 694 695 697 698 700 701 702 703 704 704 705 706 708 708 710 710 711 711 712 712 712 713 713 714 714 715 715 716 716 717 717 717 717 717 717 718 718 718 718 718 719 719 719 719 719 719 720 720 720 720 720 720 720 720 720 720 721 721 720 720 720 720 721 721 721 721 721 721 721 721 722 722 721 721 721 721 721 721 721 721 721 721 721 721 720 720 720 721 721 721 721 721 721 721 721 721 721 720 719 719 719 719 718 717 717 716 716 716 715 715 715 715 715 715 715 715 715 715 714 714 714 714 714 714 714 714 714 714 713 713 713 713 712 712 712 712 712 712 712 712 712 712 712 712 712 713 713 713 713 713 713 713 712 712 712 711 710 710 709 709 708 707 707 706 706 706 705 704 704 704 704 704 705 706 706 706 705 704 0 0 0 0 0 0 0 0 0 0 0 0 0 0 0 0 0 0 0 0 0 0 0 0 0 0 0 0 0 0 0 0 0 0 0 0 0 0 0 0 0 0 0 0 0 0 0 0 0 0 0 0 0 0 0 0 0 0 0 0 0 0 0 0 0 0 0 0 0 0 0 0 0 0 0 0 0 0 0 0 0 0 0 0 0 0 0 0 0 0 0 0 0 0 0 0 0 0 0 0 0 0 0 0 0 0 0 0 0 0 0 0 0 0 0 0 0 0 0 0 0 0 0 0 0 0 0 0 0 0 0 0 0 0 0 0 0 0 0 0 0 0 0 0 0 0 0 0 0 0 0 0 0 0 0 0 0 0 0 0 0 0 0 0 0 0 0 0 0 0 0 0 0 0 0 0 0 0 0 0 0 0 0 0 0 0 0 0 0 0 0 0 0 0 0 0 0 0 0 0 0 0 0 0 0 0 0 0 0 0 0 0 0 0 0 0 0 0 0 0 0 0 0 0 0 662 665 665 665 663 663 663 663 664 664 664 664 664 663 663 662 663 663 663 663 663 663 663 663 663 661 660 660 658 658 658 658 659 660 660 660 660 660 660 660 659 659 658 657 657 657 657 657 657 657 657 657 657 656 653 652 651 651 651 651 651 651 651 652 652 652 652 652 652 652 652 651 651 651 651 651 650 650 650 650 649 649 649 649 649 648 648 648 648 647 647 647 647 646 646 646 646 646 646 646 646 646 645 645 645 645 644 644 644 643 642 642 642 642 642 642 641 641 641 641 641 641 640 640 640 640 640 639 639 639 639 639 639 638 637 637 636 636 636 635 635 634 634 633 632 632 631 631 630 630 629 629 629 629 629 629 628 628 628 628 628 626 626 626 625 625 624 624 623 622 622 621 620 620 619 618 617 617 616 615 614 614 613 612 611 610 609 608 607 606 605 604 602 600 598 596 594 593 591 589 588 587 585 585 584 582 582 582 581 580 580 580 579 579 579
684 684 680 680 680 680 680 680 680 680 681 682 684 685 685 686 687 688 690 690 691 691 693 695 695 697 698 700 701 701 703 703 704 704 706 707 708 709 709 710 711 711 711 711 713 713 714 714 715 715 715 715 716 716 716 716 716 716 716 717 717 717 717 717 718 718 718 718 719 719 719 719 719 719 719 720 720 719 719 719 719 719 719 719 720 720 720 720 720 720 721 721 721 721 721 721 721 721 720 720 720 720 720 720 720 720 720 720 720 720 720 720 720 720 720 720 720 720 719 719 719 718 718 718 718 717 716 716 716 715 715 715 715 714 714 714 714 714 714 714 714 714 713 713 713 713 713 713 713 712 712 712 712 712 712 712 711 711 711 711 711 711 711 711 711 711 711 711 712 712 712 711 711 711 711 711 711 711 710 709 709 708 707 707 707 707 707 706 706 705 705 704 704 704 705 706 706 706 704 704 0 0 0 0 0 0 0 0 0 0 0 0 0 0 0 0 0 0 0 0 0 0 0 0 0 0 0 0 0 0 0 0 0 0 0 0 0 0 0 0 0 0 0 0 0 0 0 0 0 0 0 0 0 0 0 0 0 0 0 0 0 0 0 0 0 0 0 0 0 0 0 0 0 0 0 0 0 0 0 0 0 0 0 0 0 0 0 0 0 0 0 0 0 0 0 0 0 0 0 0 0 0 0 0 0 0 0 0 0 0 0 0 0 0 0 0 0 0 0 0 0 0 0 0 0 0 0 0 0 0 0 0 0 0 0 0 0 0 0 0 0 0 0 0 0 0 0 0 0 0 0 0 0 0 0 0 0 0 0 0 0 0 0 0 0 0 0 0 0 0 0 0 0 0 0 0 0 0 0 0 0 0 0 0 0 0 0 0 0 0 0 0 0 0 0 0 0 0 0 0 0 0 0 0 0 0 0 0 0 0 0 0 0 0 0 0 0 0 0 0 0 0 0 0 663 663 664 664 664 663 663 663 663 664 664 664 664 664 664 663 663 662 662 662 663 663 663 663 663 662 661 660 660 658 658 658 658 660 660 660 660 660 660 658 658 657 657 657 657 657 657 658 657 657 657 657 655 655 654 653 653 652 651 651 651 651 651 651 651 652 652 652 652 652 652 652 651 651 651 651 650 650 650 650 649 649 649 649 648 648 648 647 647 647 647 646 646 646 646 646 646 645 645 645 645 645 645 645 644 644 644 643 643 643 642 642 641 641 641 641 641 641 641 641 641 641 640 640 640 640 639 639 639 639 639 639 638 638 637 637 636 636 635 635 635 635 634 633 632 632 632 630 630 630 630 629 629 629 629 628 628 628 628 628 627 627 626 626 625 624 624 624 623 622 621 621 621 620 619 619 618 617 617 616 615 614 614 613 612 611 610 609 608 607 605 604 603 601 600 598 596 594 592 591 588 587 586 584 583 583 582 582 582 581 580 580 579 579 579 579
683 683 680 680 678 678 677 677 677 677 679 680 682 683 684 685 687 687 688 689 690 690 692 693 694 695 697 698 699 700 701 701 702 703 705 705 706 707 708 708 709 709 709 710 711 712 712 713 713 713 714 714 715 715 715 715 715 715 715 715 716 716 716 716 716 716 717 717 717 718 718 718 718 718 718 718 718 718 718 718 718 718 718 718 718 718 719 720 720 719 719 720 720 720 720 720 720 720 720 719 719 719 719 719 719 719 719 719 719 719 719 719 720 720 720 719 719 719 718 718 718 717 717 717 717 716 716 715 715 715 715 714 714 714 714 714 714 714 714 714 713 713 713 713 713 713 713 712 712 712 712 712 712 711 711 711 711 711 711 711 711 711 711 711 711 711 711 711 711 711 711 711 711 711 710 710 710 710 709 709 708 707 707 707 707 707 707 707 706 705 705 704 704 704 705 706 706 706 704 704 703 701 701 701 701 701 700 700 700 700 700 700 700 700 700 700 700 701 701 701 701 702 700 700 700 700 700 700 700 700 0 0 0 0 0 0 0 0 0 0 0 0 0 0 0 0 0 0 0 0 0 0 0 0 0 0 0 0 0 0 0 0 0 0 0 0 0 0 0 0 0 0 0 0 0 0 0 0 0 0 0 0 0 0 0 0 0 0 0 0 0 0 0 0 0 0 0 0 0 0 0 0 0 0 0 0 0 0 0 0 0 0 0 0 0 0 0 0 0 0 0 0 0 0 0 0 0 0 0 0 0 0 0 0 0 0 0 0 0 0 0 0 0 0 0 0 0 0 0 0 0 0 0 0 0 0 0 0 0 0 0 0 0 0 0 0 0 0 0 0 0 0 0 0 0 0 0 0 0 0 0 0 0 0 0 0 0 0 0 0 0 0 0 0 0 0 0 0 0 0 0 0 0 0 0 0 0 0 0 0 0 0 0 0 0 0 0 0 0 0 0 0 0 0 663 663 663 663 662 662 662 662 662 662 663 664 664 664 664 663 663 662 662 662 662 662 662 662 662 661 661 661 660 658 658 658 658 659 660 660 660 659 658 656 656 656 656 657 657 658 658 658 658 658 657 657 655 655 654 654 653 653 652 652 652 652 651 651 651 652 652 652 652 652 652 652 651 651 651 651 650 650 650 649 649 649 648 648 648 647 647 647 647 647 646 646 646 646 645 645 645 645 645 645 645 645 644 644 644 644 643 643 642 642 641 641 641 641 641 641 641 640 640 640 640 640 640 640 640 639 639 638 638 638 638 637 637 637 637 636 636 636 635 635 635 634 633 632 632 631 631 630 630 629 629 629 628 628 628 628 628 628 628 627 627 627 626 625 625 624 624 624 622 622 621 621 621 620 619 619 618 617 617 616 616 614 614 613 612 611 610 609 608 606 605 603 602 600 599 597 596 594 592 590 588 585 585 583 583 583 582 582 581 581 580 580 579 579 579 579
683 683 679 679 678 677 675 675 675 675 677 679 680 682 683 684 685 685 687 688 688 689 691 692 693 694 695 697 698 699 700 700 701 701 703 703 704 705 706 706 707 707 708 708 710 711 711 711 712 712 713 713 713 713 713 713 714 714 714 714 714 714 715 715 715 715 715 716 716 716 716 717 717 717 717 717 717 717 717 717 717 717 717 717 717 717 718 718 718 719 719 719 719 719 719 718 718 718 718 718 718 719 719 719 718 718 718 718 719 719 719 719 719 719 719 719 719 719 718 718 717 717 716 716 716 715 715 715 715 715 714 714 714 714 714 714 713 713 713 713 713 713 713 713 712 712 712 712 712 712 711 711 711 711 711 711 711 710 710 710 710 710 710 710 710 710 710 710 710 710 710 710 710 710 710 710 710 709 709 709 707 707 707 707 707 707 707 707 706 705 705 704 704 704 705 705 705 705 704 704 702 702 702 702 702 702 702 701 701 701 701 700 700 700 700 700 700 701 701 701 702 703 703 703 701 701 701 700 701 701 700 0 0 0 0 0 0 0 0 0 0 0 0 0 0 0 0 0 0 0 0 0 0 0 0 0 0 0 0 0 0 0 0 0 0 0 0 0 0 0 0 0 0 0 0 0 0 0 0 0 0 0 0 0 0 0 0 0 0 0 0 0 0 0 0 0 0 0 0 0 0 0 0 0 0 0 0 0 0 0 0 0 0 0 0 0 0 0 0 0 0 0 0 0 0 0 0 0 0 0 0 0 0 0 0 0 0 0 0 0 0 0 0 0 0 0 0 0 0 0 0 0 0 0 0 0 0 0 0 0 0 0 0 0 0 0 0 0 0 0 0 0 0 0 0 0 0 0 0 0 0 0 0 0 0 0 0 0 0 0 0 0 0 0 0 0 0 0 0 0 0 0 0 0 0 0 0 0 0 0 0 0 0 0 0 0 0 0 0 0 0 0 0 0 663 663 662 661 662 662 661 661 661 661 661 662 662 663 663 663 662 661 661 661 661 661 661 659 659 659 659 660 660 660 658 658 658 659 659 659 659 658 656 656 655 655 656 657 657 658 658 658 658 658 655 654 654 654 653 653 653 653 653 652 652 652 651 651 651 652 652 652 652 652 652 651 651 650 650 650 650 649 649 649 648 648 648 648 648 647 647 647 647 646 646 646 645 645 645 645 644 644 644 644 644 644 644 643 643 643 643 642 642 641 641 640 640 640 640 640 640 640 640 640 640 640 639 639 639 639 639 638 638 637 637 637 637 637 636 636 636 635 635 635 634 634 633 632 632 631 630 630 629 629 629 628 628 628 628 628 628 628 627 627 627 626 626 625 625 624 624 623 622 622 621 621 621 620 619 619 618 617 617 616 616 615 614 613 612 611 610 609 608 606 604 603 602 600 599 597 595 593 592 590 586 585 584 583 582 582 582 582 581 581 580 580 579 579 579 579
