0 0 0 0 0 0 0 0 0 0 0 0 866 892 919 920 948 971 990 1006 1024 1045 1079 1104 1124 1144 1165 1180 1184 1184 0 0 0 0 0 0 0 976 976 996 1000 1018 1035 1059 1087 1088 1104 1118 1138 1154 1170 1182 1195 1208 1218 1230 1240 1246 1253 1258 1269 1281 1291 1297 1301 1303 1306 1311 1312 1315 1319 1322 1322 1324 1326 1327 1327 1327 1327 1327 1327 1327 1327 1327 1327 1324 1322 1321 1319 1316 1309 1302 1298 1290 1278 1263 0 0 0 0 0 0 0 0 0 0 0 0 0 0 0 0 0 0 0 0 0 0 0 0 0 0 0 0 0 0 0 0 0 0 0 0 0 0 0 0 0 0 0 0 0 0 0 0 0 0 0 0 0 0 0 0 0 0 0 0 0 0 0 0 0 0 0 0 0 0 0 0 0 0 0 0 0 0 0 0 0 0 0 0 0 0 0 842 844 844 844 846 846 847 848 848 848 848 846 846 846 846 848 851 853 855 856 856 856 856 856 856 856 856 856 859 868 868 870 871 870 867 867 867 867 877 882 882 0 0 0 884 883 881 880 878 877 876 875 873 873 873 875 877 877 878 878 878 878 881 884 886 891 894 895 896 897 897 898 899 900 900 901 901 902 905 913 915 915 915 915 0 0 0 0 0 0 0 0 0 0 0 0 0 0 0 0 0 0 0 0 0 0 0 0 0 0 0 0 0 0 0 0 0 0 0 0 0 0 944 933 926 918 916 916 916 917 917 918 918 918 919 919 920 922 922 923 923 923 925 927 928 930 931 932 934 936 940 944 946 947 950 955 962 972 978 981 985 987 987 987 986 982 980 980 980 979 979 977 972 972 972 972 972 959 956 953 953 953 954 956 956 957 958 958 964 973 981 994 1004 1011 1019 1023 1025 1027 1028 1031 1032 1034 1035 1037 1038 1039 1040 1042 1043 1045 1046 1047 1048 1049 1050 1051 1052 1053 1054 1055 1056 1056 1057 1057 1058 1059 1060 1061 1061 1062 1063 1064 1064 1065 1067 1067 1068 1068 1070 1071 1072 1072 1072 1073 1075 1075 1078 1078 1080 0 0 0 0 1431 1452 1455 1456 1460 1460 1462 1462 1463 1464 1466 1468 1470 1473 1476 1479 1479 1479 1478 1476 1472 1470 1467 1464 1463 1461 1461 1461 1462 1463 1463 1464 1465 1465 1465 1467 1470 1472 1475 1477 1479 1481 1482 1485 1488 1489 1492 1493 1496 1497 1498 1500 1501 1502 1502 1501 1502 1503 1503 1506 1513 1519 1519 1519 1517 1516 1515 1513 1511 1510 1510 1509 1508 1506 1501 1495 1492 1490 1490 1486 1483 1479 1475 1470 1465 1463 1462 1461 1458 1455 1450 1439 1434 1430 1426 1424 1421 1418 1416 1415 1415 1411 1405 1402 1400 1399 1399 1398 1397 1395 1394 1393 1392 1391 1389 1388 1385 1384 1382 1379 1375 1373 1371 1367 1364 1357 1346 1339 1337 1336 1336 1330 1321 1309 1298 1293 1280 1264 1246 1231 1223 1222 1219 1213 1208 1201 1199 1199 1196 1188 1181 1175 1172 1169 1166 1163 1159 1155 1150 1144 1137 1134 1134 1132 1127 1121 1115 1110 1104 1101 1100 1097 1091 1083 1078 1070 1065 1058 1051 1040 1033 1031 1030 1029 1025 1015 1001 985 979 976 971 958 937 912 899 897 896 890 888 877 870 0 0 0
0 0 0 0 0 0 0 0 0 0 0 0 0 878 908 910 937 963 981 997 1018 1042 1068 1093 1121 1144 1165 1181 1192 1195 1197 1197 0 0 0 0 0 996 996 996 1000 1014 1021 1041 1071 1075 1099 1118 1136 1154 1170 1183 1196 1209 1218 1228 1235 1242 1247 1254 1265 1279 1291 1297 1301 1303 1306 1311 1312 1315 1319 1322 1324 1326 1328 1329 1329 1329 1329 1328 1328 1328 1328 1328 1327 1324 1322 1321 1321 1318 1311 1305 1299 1290 1278 1262 0 0 0 0 0 0 0 0 0 0 0 0 0 0 0 0 0 0 0 0 0 0 0 0 0 0 0 0 0 0 0 0 0 0 0 0 0 0 0 0 0 0 0 0 0 0 0 0 0 0 0 0 0 0 0 0 0 0 0 0 0 0 0 0 0 0 0 0 0 0 0 0 0 0 0 0 0 0 0 0 0 0 0 0 0 0 0 841 844 844 844 844 844 845 845 846 847 847 847 847 847 847 848 848 851 853 854 856 856 856 855 855 855 856 856 858 862 863 863 863 860 860 860 862 867 877 882 884 884 884 881 881 881 882 882 884 884 882 881 878 875 875 875 878 879 879 879 879 879 881 884 886 891 894 895 897 897 897 898 899 899 899 899 901 902 905 913 915 917 917 917 0 0 0 0 0 0 0 0 0 0 0 0 0 0 0 0 0 0 0 0 0 0 0 0 0 0 0 0 0 0 0 0 0 0 0 0 0 947 941 928 922 916 916 916 916 917 917 917 917 917 917 918 919 920 920 920 921 922 922 924 927 929 931 932 932 935 939 942 944 947 950 961 972 975 980 982 987 990 990 990 988 988 988 988 988 989 989 989 986 985 985 984 979 972 964 957 956 956 956 959 961 961 962 965 969 976 984 996 1004 1011 1019 1022 1025 1027 1028 1030 1032 1033 1035 1036 1038 1039 1040 1042 1043 1045 1045 1047 1048 1049 1050 1051 1052 1053 1054 1055 1056 1056 1057 1058 1058 1059 1060 1060 1061 1062 1063 1064 1064 1065 1066 1067 1068 1068 1070 1071 1072 1072 1072 1072 1073 1073 1073 1074 1096 0 0 0 0 1449 1454 1462 1464 1465 1465 1465 1464 1464 1464 1466 1469 1470 1473 1476 1476 1476 1476 1474 1472 1468 1465 1464 1464 1464 1464 1464 1465 1465 1465 1465 1465 1465 1465 1465 1466 1469 1472 1476 1479 1481 1482 1483 1486 1489 1492 1494 1497 1499 1500 1502 1505 1506 1507 1507 1508 1508 1508 1510 1513 1517 1520 1520 1520 1519 1517 1515 1513 1509 1508 1506 1505 1502 1500 1497 1492 1489 1488 1485 1483 1481 1478 1473 1468 1465 1460 1458 1455 1453 1449 1442 1439 1434 1430 1426 1424 1421 1418 1416 1415 1415 1412 1407 1402 1400 1400 1400 1398 1397 1395 1395 1395 1394 1392 1390 1388 1385 1384 1381 1378 1374 1372 1369 1367 1364 1357 1351 1345 1344 1343 1342 1338 1327 1317 1309 1306 1295 1281 1262 1246 1234 1228 1223 1216 1209 1206 1204 1202 1196 1190 1182 1178 1175 1174 1173 1169 1163 1160 1153 1146 1141 1138 1136 1132 1127 1121 1115 1110 1104 1101 1101 1097 1091 1083 1078 1070 1065 1058 1049 1040 1034 1031 1031 1031 1027 1015 1001 990 988 986 982 967 938 912 896 890 890 885 876 871 868 0 0 0
0 0 0 0 0 0 0 0 0 0 0 0 0 863 894 897 926 952 975 995 1016 1042 1068 1093 1118 1143 1165 1181 1195 1197 1204 1209 1217 0 0 0 0 1056 1009 1009 1009 1014 1021 1035 1053 1056 1077 1099 1127 1154 1172 1188 1199 1209 1218 1228 1234 1237 1243 1253 1265 1279 1291 1298 1301 1305 1309 1311 1312 1315 1320 1323 1326 1328 1330 1331 1331 1331 1331 1330 1330 1329 1329 1328 1327 1324 1323 1322 1322 1320 1314 1308 1300 1291 1278 1258 0 0 0 0 0 0 0 0 0 0 0 0 0 0 0 0 0 0 0 0 0 0 0 0 0 0 0 0 0 0 0 0 0 0 0 0 0 0 0 0 0 0 0 0 0 0 0 0 0 0 0 0 0 0 0 0 0 0 0 0 0 0 0 0 0 0 0 0 0 0 0 0 0 0 0 0 0 0 0 0 0 0 0 0 0 0 0 843 841 841 841 843 843 843 843 844 846 847 847 847 847 847 847 848 849 851 852 854 855 855 855 854 854 854 855 858 858 858 858 858 858 858 859 862 865 871 882 884 884 884 881 881 881 882 885 886 891 891 891 891 888 882 881 881 880 880 880 880 880 881 884 886 891 894 895 897 897 898 899 899 899 899 899 901 902 912 919 919 920 919 917 0 0 0 0 0 0 0 0 0 0 0 0 0 0 0 0 0 0 0 0 0 0 0 0 0 0 0 0 0 0 0 0 0 0 0 0 948 948 937 924 914 914 914 916 916 916 916 916 916 916 916 917 917 918 919 919 920 920 921 923 925 927 930 932 932 935 937 941 944 947 950 961 972 975 980 986 988 990 990 990 991 991 991 992 993 993 992 993 993 993 992 991 989 986 979 969 968 968 966 963 963 963 965 969 972 977 984 996 1005 1013 1017 1022 1024 1026 1027 1029 1030 1032 1034 1036 1037 1038 1040 1041 1042 1044 1045 1046 1048 1049 1050 1051 1052 1053 1054 1055 1056 1057 1057 1058 1058 1059 1060 1060 1061 1062 1063 1064 1064 1065 1066 1067 1068 1069 1070 1071 1071 1071 1071 1071 1071 1071 1071 1074 1097 0 0 0 0 1449 1454 1462 1465 1468 1468 1468 1466 1466 1466 1467 1469 1471 1473 1473 1473 1473 1471 1467 1464 1464 1464 1464 1464 1464 1466 1466 1466 1466 1465 1465 1465 1465 1465 1465 1466 1469 1473 1476 1479 1482 1483 1485 1487 1490 1494 1497 1499 1502 1503 1506 1508 1509 1510 1510 1511 1512 1513 1514 1516 1518 1522 1522 1522 1521 1519 1516 1513 1509 1506 1503 1499 1498 1496 1494 1490 1486 1484 1482 1481 1479 1477 1473 1466 1462 1458 1454 1454 1450 1447 1442 1439 1434 1430 1426 1424 1422 1419 1417 1416 1415 1412 1409 1406 1405 1403 1401 1399 1397 1396 1395 1395 1394 1393 1390 1388 1385 1382 1379 1377 1374 1371 1367 1365 1364 1357 1352 1348 1347 1347 1345 1339 1327 1317 1311 1307 1302 1297 1287 1270 1254 1243 1230 1223 1217 1215 1213 1208 1202 1192 1186 1180 1179 1178 1178 1174 1167 1164 1157 1150 1145 1142 1139 1133 1127 1121 1115 1110 1104 1101 1101 1100 1094 1084 1081 1070 1066 1058 1049 1041 1034 1033 1033 1033 1027 1015 1006 1001 998 993 988 988 973 933 896 890 889 875 859 859 855 0 0 0
403 403 404 413 0 0 0 0 0 0 0 0 0 0 0 0 0 0 0 994 1015 1038 1062 1091 1116 1139 1163 1182 1197 1199 1209 1218 1226 1242 1256 1256 0 0 0 0 0 0 0 1035 1053 1056 1065 1083 1114 1151 1178 1196 1206 1215 1221 1228 1234 1237 1243 1253 1265 1279 1294 1302 1305 1310 1312 1314 1316 1318 1322 1324 1328 1332 1333 1333 1334 1334 1333 1333 1332 1331 1329 1328 1327 1324 1323 1322 1322 1320 1317 1309 1300 1292 1278 0 0 0 0 0 0 0 0 0 0 0 0 0 0 0 0 0 0 0 0 0 0 0 0 0 0 0 0 0 0 0 0 0 0 0 0 0 0 0 0 0 0 0 0 0 0 0 0 0 0 0 0 0 0 0 0 0 0 0 0 0 0 0 0 0 0 0 0 0 0 0 0 0 0 0 0 0 0 0 0 0 0 0 0 0 0 845 845 843 841 841 841 842 843 843 843 844 845 845 846 846 847 847 847 848 849 849 850 851 852 852 854 854 854 854 855 857 857 857 857 857 857 858 859 862 865 871 882 0 0 0 0 0 0 0 0 0 0 0 0 895 895 895 888 884 884 882 882 882 882 883 885 887 891 893 894 897 898 898 899 899 899 899 899 901 905 917 919 919 919 0 0 0 0 0 0 0 0 0 0 0 0 0 0 0 0 0 0 0 0 0 0 0 0 0 0 0 0 0 0 0 0 0 0 0 0 0 0 948 948 936 923 912 912 912 916 916 916 916 915 915 915 915 916 916 916 917 918 918 919 921 922 924 925 927 930 932 934 937 940 944 947 951 961 972 975 981 986 990 990 990 991 993 993 993 994 995 995 995 994 994 994 994 994 992 990 986 983 983 982 980 978 972 972 972 973 976 982 990 996 1007 1013 1017 1022 1023 1025 1026 1028 1030 1031 1033 1035 1036 1038 1039 1040 1042 1043 1045 1046 1048 1049 1050 1051 1052 1053 1054 1055 1056 1056 1057 1058 1058 1059 1060 1060 1061 1062 1063 1064 1064 1065 1066 1067 1068 1069 1070 1070 1071 1071 1071 1071 1071 1071 1071 1074 0 0 0 0 1430 1450 1457 1462 1465 1468 1468 1468 1466 1466 1466 1467 1469 1471 1473 1473 1473 1471 1468 1463 1463 1463 1463 1464 1467 1467 1467 1467 1467 1466 1465 1465 1465 1465 1465 1465 1466 1469 1473 1476 1480 1482 1483 1487 1489 1494 1496 1499 1501 1503 1507 1510 1513 1513 1513 1513 1514 1515 1516 1516 1519 1522 1523 1523 1523 1522 1519 1516 1512 1509 1506 1502 1497 1495 1494 1492 1489 1486 1483 1480 1479 1478 1476 1472 1466 1459 1454 1452 1451 1448 1445 1442 1439 1435 1431 1426 1424 1422 1420 1418 1418 1417 1416 1413 1410 1408 1404 1402 1400 1397 1396 1396 1395 1394 1393 1390 1387 1383 1380 1378 1376 1374 1371 1367 1363 1360 1355 1352 1349 1349 1347 1346 1339 1328 1318 1312 1308 1304 1297 1294 1285 1271 1255 1243 1233 1225 1223 1219 1212 1204 1198 1188 1184 1184 1183 1183 1179 1171 1168 1161 1156 1151 1145 1140 1133 1127 1121 1119 1113 1107 1105 1104 1103 1097 1085 1082 1073 1067 1060 1049 1041 1034 1033 1033 1033 1030 1019 1012 1010 1007 997 994 992 985 958 936 912 882 859 855 855 852 0 0 0
391 391 391 393 403 0 0 0 0 0 0 0 0 0 0 0 0 0 0 0 1015 1037 1062 1091 1115 1138 1163 1182 1199 1201 1216 1227 1237 1252 1271 1287 1287 0 0 0 0 0 0 0 1053 1056 1065 1083 1114 1151 1184 1210 1221 1228 1231 1234 1234 1237 1243 1253 1268 1283 1295 1304 1308 1312 1315 1315 1316 1318 1322 1325 1329 1333 1336 1336 1336 1336 1336 1336 1334 1333 1331 1330 1329 1326 1325 1323 1323 1321 1318 1309 1300 1292 0 0 0 0 0 0 0 0 0 0 0 0 0 0 0 0 0 0 0 0 0 0 0 0 0 0 0 0 0 0 0 0 0 0 0 0 0 0 0 0 0 0 0 0 0 0 0 0 0 0 0 0 0 0 0 0 0 0 0 0 0 0 0 0 0 0 0 0 0 0 0 0 0 0 0 0 0 0 0 0 0 0 0 0 0 0 0 841 841 840 840 840 840 842 842 843 843 843 844 844 845 845 846 846 847 848 848 849 850 851 851 852 852 853 853 853 854 855 855 855 856 856 856 858 860 863 865 871 874 0 0 0 0 0 0 0 0 0 0 0 0 0 895 895 893 893 893 893 893 891 889 889 889 889 892 893 894 898 898 898 899 899 900 900 901 904 906 917 926 926 926 0 0 0 0 0 0 0 0 0 0 0 0 0 0 0 0 0 0 0 0 0 0 0 0 0 0 0 0 0 0 0 0 0 0 0 0 0 0 946 946 935 920 914 914 914 915 915 915 914 914 914 914 915 915 915 916 917 917 918 919 919 921 922 924 925 928 931 933 936 939 943 947 952 961 970 975 981 987 990 990 991 994 995 996 996 996 997 997 997 997 997 997 997 997 996 996 996 996 996 993 993 993 989 984 980 980 980 986 993 999 1007 1013 1017 1021 1022 1023 1026 1027 1030 1030 1032 1034 1036 1037 1039 1040 1042 1043 1045 1046 1048 1048 1049 1050 1052 1053 1054 1055 1056 1056 1057 1058 1058 1059 1060 1060 1061 1062 1063 1064 1064 1065 1066 1067 1068 1068 1069 1070 1070 1071 1071 1071 1071 1071 1071 1075 0 0 0 0 1431 1452 1457 1460 1464 1467 1467 1467 1466 1466 1466 1467 1469 1471 1472 1472 1472 1470 1466 1460 1460 1460 1463 1467 1467 1468 1468 1468 1468 1466 1466 1466 1466 1466 1466 1467 1468 1471 1474 1477 1480 1482 1484 1487 1492 1496 1500 1502 1504 1508 1513 1517 1517 1517 1518 1518 1519 1519 1520 1521 1522 1523 1523 1523 1523 1522 1519 1516 1512 1509 1505 1500 1495 1491 1491 1490 1488 1486 1481 1478 1475 1474 1472 1468 1461 1453 1451 1449 1448 1447 1445 1442 1439 1435 1431 1426 1424 1422 1420 1418 1418 1417 1416 1413 1410 1409 1407 1403 1400 1398 1397 1396 1395 1393 1392 1389 1386 1382 1379 1378 1376 1374 1371 1367 1363 1360 1355 1354 1350 1350 1350 1346 1339 1328 1319 1313 1310 1306 1304 1298 1291 1281 1268 1253 1244 1238 1234 1224 1214 1208 1200 1196 1193 1192 1191 1189 1184 1176 1172 1166 1161 1156 1150 1141 1134 1127 1122 1120 1114 1107 1105 1104 1104 1098 1086 1083 1074 1069 1063 1055 1046 1039 1037 1036 1036 1032 1025 1020 1018 1017 1011 1007 993 985 966 944 915 875 852 852 852 852 0 0 0
385 385 385 387 387 396 0 0 0 0 0 0 0 0 0 0 0 0 0 0 0 0 0 1088 1110 1136 1160 1181 1199 1201 1216 1227 1243 1258 1275 1290 1298 1305 0 0 0 0 0 0 0 0 0 0 1114 1151 1194 1222 1236 1244 1244 1244 1246 1246 1248 1258 1272 1285 1295 1305 1308 1314 1315 1316 1317 1319 1323 1327 1331 1335 1338 1340 1341 1341 1341 1340 1338 1337 1336 1334 1332 1329 1326 1323 1323 1322 1318 1313 1305 1291 0 0 0 0 0 0 0 0 0 0 0 0 0 0 0 0 0 0 0 0 0 0 0 0 0 0 0 0 0 0 0 0 0 0 0 0 0 0 0 0 0 0 0 0 0 0 0 0 0 0 0 0 0 0 0 0 0 0 0 0 0 0 0 0 0 0 0 0 0 0 0 0 0 0 0 0 0 0 0 0 0 0 0 0 0 0 0 841 841 840 840 840 840 842 842 842 842 842 843 844 845 845 845 846 847 847 848 848 849 850 851 852 852 853 853 853 853 854 854 854 854 854 856 858 861 865 872 873 873 0 0 0 0 0 0 0 0 0 0 0 0 0 0 0 0 0 0 893 893 893 894 895 897 897 897 897 897 898 898 898 899 899 900 900 901 905 907 917 926 926 926 0 0 0 0 0 0 0 0 0 0 0 0 0 0 0 0 0 0 0 0 0 0 0 0 0 0 0 0 0 0 0 0 0 0 0 0 0 0 945 945 929 915 915 915 915 915 915 915 914 914 914 914 915 915 915 915 916 917 918 918 919 920 921 922 924 927 930 931 934 937 942 945 952 961 970 975 982 988 990 991 993 995 996 997 998 998 998 998 999 999 1000 1000 1000 1000 1000 1000 999 999 999 999 998 998 996 991 987 986 986 986 997 1001 1007 1013 1017 1019 1021 1023 1025 1026 1028 1030 1032 1034 1034 1036 1038 1039 1041 1041 1044 1045 1047 1048 1049 1050 1052 1053 1054 1054 1056 1056 1057 1058 1058 1059 1060 1060 1061 1062 1063 1064 1064 1065 1066 1067 1068 1069 1069 1070 1070 1071 1071 1073 1073 1074 1075 1084 0 0 0 0 1436 1452 1457 1459 1463 1465 1465 1465 1465 1465 1465 1467 1468 1470 1471 1471 1471 1467 1460 1460 1460 1460 1463 1467 1468 1468 1469 1469 1469 1466 1466 1466 1467 1467 1467 1468 1471 1473 1476 1479 1481 1483 1484 1488 1494 1499 1503 1506 1508 1512 1515 1517 1517 1518 1521 1522 1524 1524 1524 1524 1524 1524 1524 1523 1523 1522 1518 1512 1508 1504 1499 1492 1489 1489 1488 1488 1485 1480 1474 1471 1470 1470 1468 1461 1456 1450 1449 1448 1447 1445 1445 1442 1439 1435 1431 1425 1424 1422 1420 1418 1418 1418 1417 1414 1411 1409 1407 1404 1401 1399 1397 1396 1395 1393 1391 1389 1386 1381 1379 1378 1376 1374 1371 1367 1363 1360 1355 1354 1352 1352 1350 1346 1339 1328 1320 1318 1315 1314 1311 1307 1299 1287 1273 1260 1254 1252 1247 1241 1221 1213 1203 1200 1199 1199 1197 1195 1188 1184 1175 1171 1166 1159 1151 1142 1134 1128 1124 1120 1116 1108 1105 1105 1104 1100 1093 1089 1081 1074 1066 1058 1051 1041 1040 1039 1037 1032 1025 1020 1018 1017 1011 1007 993 985 966 948 0 875 852 852 852 842 0 0 0
384 384 381 384 384 386 393 0 0 0 0 0 0 0 0 0 0 0 0 0 0 0 0 0 0 0 1157 1181 1199 1201 1216 1227 1243 1258 1275 1290 1298 1308 1323 1323 0 0 0 0 0 0 0 0 0 0 1206 1231 1247 1254 1254 1254 1250 1250 1250 1263 1272 1285 1295 1307 1309 1316 1317 1317 1318 1323 1327 1329 1333 1338 1341 1343 1344 1344 1344 1343 1342 1341 1340 1339 1337 1333 1328 1325 1323 1321 1318 1313 1307 1291 0 0 0 0 0 0 0 0 0 0 0 0 0 0 0 0 0 0 0 0 0 0 0 0 0 0 0 0 0 0 0 0 0 0 0 0 0 0 0 0 0 0 0 0 0 0 0 0 0 0 0 0 0 0 0 0 0 0 0 0 0 0 0 0 0 0 0 0 0 0 0 0 0 0 0 0 0 0 0 0 0 0 0 0 0 0 0 840 840 840 840 840 840 842 842 842 842 842 842 843 844 844 844 845 846 847 847 848 849 850 850 851 851 852 853 853 853 854 854 854 854 854 855 857 861 870 872 873 873 0 0 0 0 0 0 0 0 0 0 0 0 0 0 0 0 0 0 0 0 0 894 895 907 907 907 906 899 898 898 899 899 900 901 902 903 906 910 914 927 927 927 0 0 0 0 0 0 0 0 0 0 0 0 0 0 0 0 0 0 0 0 0 0 0 0 0 0 0 0 0 0 0 0 0 0 0 0 0 0 940 936 920 915 915 915 916 916 916 915 914 914 914 914 915 915 915 915 916 917 917 918 919 920 921 922 923 926 929 931 933 936 940 945 955 966 970 977 984 988 991 992 994 995 997 998 998 999 999 1000 1001 1001 1001 1001 1001 1002 1003 1003 1003 1003 1003 1003 1004 1004 1004 1002 1000 999 998 998 998 1002 1008 1013 1017 1017 1020 1022 1024 1025 1026 1028 1030 1032 1033 1035 1037 1038 1039 1041 1043 1045 1046 1047 1048 1049 1051 1051 1053 1054 1055 1056 1057 1057 1058 1059 1060 1060 1061 1062 1063 1063 1064 1065 1066 1066 1067 1068 1069 1070 1070 1070 1072 1073 1073 1074 1075 0 0 0 0 0 1457 1457 1459 1460 1462 1463 1464 1464 1465 1465 1465 1465 1466 1468 1468 1468 1466 1462 1460 1460 1460 1460 1464 1467 1468 1468 1469 1470 1470 1470 1468 1468 1468 1468 1469 1472 1473 1476 1479 1481 1482 1484 1488 1492 1496 1500 1504 1507 1511 1513 1515 1518 1519 1519 1521 1525 1525 1525 1525 1525 1525 1524 1523 1522 1520 1519 1513 1509 1504 1499 1494 1489 1486 1484 1481 1478 1473 1470 1467 1463 1463 1462 1461 1458 1453 1449 1448 1447 1446 1444 1442 1438 1436 1432 1428 1425 1424 1422 1420 1418 1418 1418 1417 1414 1411 1409 1407 1404 1401 1399 1397 1395 1394 1392 1390 1388 1384 1381 1379 1378 1377 1375 1372 1369 1365 1361 1359 1355 1354 1352 1350 1346 1339 1331 1326 1324 1321 1320 1319 1315 1307 1295 1281 1267 1264 1263 1260 1254 1246 1220 1209 1203 1203 1203 1201 1195 1188 1184 1176 1171 1167 1165 1155 1145 1136 1132 1131 1127 1119 1109 1107 1106 1105 1104 1098 1094 1087 1079 1071 1063 1052 1044 1042 1040 1037 1032 1025 1020 1018 1017 1011 1007 993 983 966 949 0 0 852 852 852 0 0 0 0
378 378 378 378 381 383 386 395 402 402 412 0 0 0 0 0 0 0 0 0 0 0 0 0 0 0 0 1172 1190 1193 1209 1225 1243 1258 1275 1290 1298 1308 1323 1338 1346 1346 0 0 0 0 0 0 0 0 1216 1235 1252 1260 1260 1260 1256 1256 1256 1265 1272 1285 1295 1307 1309 1317 1321 1321 1322 1327 1332 1336 1337 1340 1344 1347 1347 1347 1347 1346 1345 1345 1344 1342 1338 1335 1331 1326 1326 1321 1317 1313 1307 1289 0 0 0 0 0 0 0 0 0 0 0 0 0 0 0 0 0 0 0 0 0 0 0 0 0 0 0 0 0 0 0 0 0 0 0 0 0 0 0 0 0 0 0 0 0 0 0 0 0 0 0 0 0 0 0 0 0 0 0 0 0 0 0 0 0 0 0 0 0 0 0 0 0 0 0 0 0 0 0 0 0 0 0 0 0 0 0 840 840 840 840 840 840 841 841 841 841 841 841 842 842 843 843 844 844 845 847 847 848 849 850 850 851 851 852 853 853 854 854 854 854 854 855 856 861 870 873 874 874 0 0 0 0 0 0 0 0 0 0 0 0 0 0 0 0 0 0 0 0 0 0 0 0 909 909 907 906 902 899 899 899 901 901 903 904 906 910 914 923 926 926 0 0 0 0 0 0 0 0 0 0 0 0 0 0 0 0 0 0 0 0 0 0 0 0 0 0 0 0 0 0 0 0 0 0 0 0 0 944 944 935 914 914 914 915 916 916 916 916 916 915 915 915 915 915 915 916 916 917 917 918 919 920 921 922 923 926 927 930 933 936 940 945 958 966 971 980 985 989 991 992 994 996 997 999 1000 1000 1001 1001 1002 1002 1003 1003 1004 1004 1004 1005 1005 1005 1005 1005 1005 1005 1005 1005 1005 1004 1002 1002 1002 1002 1008 1013 1016 1017 1019 1020 1021 1024 1026 1027 1028 1029 1032 1033 1035 1037 1039 1041 1043 1044 1045 1046 1047 1049 1050 1051 1052 1054 1054 1056 1057 1057 1058 1059 1060 1060 1061 1062 1062 1063 1064 1065 1066 1066 1067 1068 1069 1069 1070 1070 1071 1073 1073 1074 1075 0 0 0 0 0 1457 1459 1459 1460 1460 1460 1462 1463 1463 1464 1464 1464 1466 1466 1466 1466 1464 1462 1460 1460 1460 1461 1465 1467 1468 1468 1469 1470 1470 1470 1470 1470 1471 1473 1473 1475 1477 1479 1481 1482 1483 1486 1490 1496 1499 1502 1504 1508 1511 1514 1516 1518 1519 1520 1522 1525 1526 1526 1526 1526 1525 1524 1522 1520 1519 1514 1510 1507 1503 1497 1492 1487 1483 1481 1476 1471 1469 1465 1462 1459 1458 1458 1457 1455 1450 1446 1446 1444 1443 1439 1438 1436 1435 1431 1427 1425 1424 1422 1419 1418 1418 1418 1417 1414 1412 1410 1407 1404 1402 1399 1397 1395 1393 1392 1390 1387 1384 1381 1380 1380 1376 1375 1372 1369 1366 1362 1359 1357 1354 1353 1350 1346 1339 1331 1328 1325 1322 1320 1319 1315 1309 1302 1289 1278 1272 1270 1268 1264 1258 1244 1220 1209 1208 1206 1204 1199 1190 1186 1178 1172 1170 1167 1161 1153 1147 1146 1144 1140 1127 1113 1109 1109 1108 1107 1101 1097 1091 1082 1074 1067 1058 1051 1044 1041 1037 1029 1022 1018 1017 1013 998 995 984 974 967 954 0 0 0 0 0 0 0 0 0
371 371 372 374 376 380 383 387 390 392 400 414 423 0 0 0 0 0 0 0 0 0 0 0 0 0 0 0 0 1176 1200 1221 1239 1255 1270 1282 1293 1308 1324 1341 1356 1367 1377 0 0 0 0 0 0 0 0 1237 1253 1263 1263 1263 1260 1260 1260 1265 1272 1280 1291 1307 1309 1317 1321 1324 1327 1333 1338 1340 1343 1345 1348 1350 1350 1350 1349 1348 1347 1346 1345 1343 1339 1336 1331 1326 1326 1321 1315 1313 1307 0 0 0 0 0 0 0 0 0 0 0 0 0 0 0 0 0 0 0 0 0 0 0 0 0 0 0 0 0 0 0 0 0 0 0 0 0 0 0 0 0 0 0 0 0 0 0 0 0 0 0 0 0 0 0 0 0 0 0 0 0 0 0 0 0 0 0 0 0 0 0 0 0 0 0 0 0 0 0 0 0 0 0 0 0 0 0 0 840 840 840 839 839 839 839 840 840 840 840 840 841 841 841 841 843 843 844 845 846 847 848 848 849 850 850 851 852 853 855 855 855 855 855 855 856 861 873 874 876 876 0 0 0 0 0 0 0 0 0 0 0 0 0 0 0 0 0 0 0 0 0 0 0 0 0 0 0 907 907 907 907 906 906 904 904 904 906 911 914 921 926 926 0 0 0 0 0 0 0 0 0 0 0 0 0 0 0 0 0 0 0 0 0 0 0 0 0 0 0 0 0 0 0 0 0 0 0 0 0 943 943 934 914 914 914 915 917 917 917 917 916 916 915 915 915 915 916 916 916 917 918 918 919 920 921 922 923 926 927 930 933 936 940 945 959 969 974 982 986 989 991 993 995 996 997 999 1000 1000 1001 1002 1002 1003 1004 1004 1004 1004 1005 1006 1006 1006 1006 1007 1007 1007 1007 1006 1005 1005 1003 1003 1003 1003 1008 1012 1015 1015 1015 1015 1017 1021 1024 1026 1026 1028 1030 1032 1033 1035 1037 1040 1041 1042 1043 1045 1047 1047 1049 1050 1052 1053 1054 1056 1057 1057 1058 1059 1059 1060 1061 1061 1062 1063 1064 1064 1065 1066 1067 1068 1069 1069 1069 1069 1071 1073 1073 1074 1075 0 0 0 0 0 1457 1459 1460 1460 1460 1461 1461 1461 1463 1463 1463 1464 1464 1464 1464 1464 1464 1464 1464 1466 1466 1467 1468 1469 1469 1469 1469 1470 1470 1470 1470 1470 1471 1473 1476 1479 1479 1480 1481 1482 1484 1487 1493 1499 1503 1505 1507 1508 1511 1515 1516 1518 1519 1520 1523 1526 1526 1527 1527 1527 1526 1523 1520 1519 1516 1512 1508 1504 1501 1495 1490 1484 1480 1477 1474 1469 1466 1462 1460 1456 1455 1454 1453 1452 1446 1442 1440 1439 1438 1438 1437 1436 1434 1430 1426 1423 1422 1420 1419 1418 1418 1417 1417 1414 1412 1410 1407 1404 1402 1400 1397 1395 1392 1392 1390 1387 1384 1381 1380 1380 1376 1375 1372 1369 1366 1363 1360 1358 1356 1354 1350 1346 1339 1334 1328 1326 1322 1322 1319 1316 1310 1303 1290 1280 1276 1275 1273 1269 1264 1258 1245 1223 1215 1209 1204 1199 1191 1187 1179 1172 1171 1168 1163 1161 1159 1159 1159 1153 1136 1118 1112 1112 1111 1107 1103 1100 1096 1090 1082 1074 1067 1058 1049 1042 1037 1029 1022 1017 1011 1007 994 990 977 974 967 954 941 0 0 0 0 0 0 0 0
365 365 366 367 370 371 377 382 386 387 395 404 406 410 416 418 0 0 0 0 0 0 0 0 0 0 0 0 0 0 0 0 1230 1247 1265 1279 1292 1308 1325 1343 1365 1383 1397 1402 1402 1402 0 0 0 0 0 0 1266 1265 1265 1265 1263 1263 1263 1266 1272 1277 1281 1302 1304 1317 1321 1324 1331 1338 1344 1350 1353 1353 1353 1353 1352 1352 1351 1349 1348 1347 1346 1343 1341 1337 1332 1326 1326 1317 1311 1307 1297 0 0 0 0 0 0 0 0 0 0 0 0 0 0 0 0 0 0 0 0 0 0 0 0 0 0 0 0 0 0 0 0 0 0 0 0 0 0 0 0 0 0 0 0 0 0 0 0 0 0 0 0 0 0 0 0 0 0 0 0 0 0 0 0 0 0 0 0 0 0 0 0 0 0 0 0 0 0 0 0 0 0 0 0 0 0 0 836 838 838 838 838 838 838 838 838 838 838 838 838 838 838 838 839 841 842 843 844 845 846 847 848 849 849 850 851 851 853 854 855 855 855 855 855 856 863 873 874 878 0 0 0 0 0 0 0 0 0 0 0 0 0 0 0 0 0 0 0 0 0 0 0 0 0 0 0 0 0 910 912 911 913 916 913 911 911 911 911 919 921 925 925 0 0 0 0 0 0 0 0 0 0 0 0 0 0 0 0 0 0 0 0 0 0 0 0 0 0 0 0 0 0 0 0 0 0 0 0 0 940 940 931 914 914 914 915 917 917 917 917 917 916 916 916 916 916 916 916 916 917 918 918 919 921 921 923 924 926 927 930 934 938 943 948 961 969 975 982 986 989 991 994 995 997 998 999 1000 1002 1002 1003 1003 1004 1004 1005 1005 1006 1006 1006 1007 1007 1008 1009 1009 1009 1008 1007 1007 1005 1004 1003 1003 1001 1001 1001 1004 1010 1013 1014 1016 1019 1023 1024 1024 1025 1028 1030 1032 1033 1036 1038 1040 1041 1042 1043 1045 1047 1048 1050 1052 1053 1054 1055 1056 1057 1058 1059 1059 1060 1061 1061 1062 1063 1064 1064 1065 1066 1067 1067 1068 1069 1069 1069 1069 1072 1073 1074 1074 0 0 0 0 1433 1452 1457 1459 1460 1460 1461 1461 1461 1463 1463 1463 1462 1462 1462 1463 1463 1464 1464 1466 1467 1469 1469 1469 1469 1469 1469 1469 1470 1470 1470 1470 1470 1471 1473 1477 1479 1480 1480 1481 1483 1484 1487 1494 1499 1505 1509 1511 1514 1515 1517 1520 1521 1521 1522 1524 1526 1526 1527 1527 1527 1526 1522 1519 1518 1516 1510 1505 1502 1499 1494 1487 1482 1477 1475 1473 1468 1464 1462 1458 1454 1452 1452 1451 1446 1438 1435 1435 1435 1435 1436 1436 1436 1433 1428 1425 1423 1421 1418 1418 1418 1418 1417 1416 1414 1412 1410 1406 1404 1403 1401 1397 1395 1392 1391 1390 1387 1383 1381 1380 1380 1376 1373 1370 1369 1366 1364 1363 1360 1358 1355 1350 1346 1342 1338 1331 1327 1324 1322 1319 1316 1311 1304 1297 1289 1285 1282 1280 1274 1273 1268 1259 1246 1228 1216 1204 1199 1192 1187 1179 1174 1172 1169 1167 1165 1165 1164 1159 1158 1141 1120 1115 1112 1111 1107 1103 1100 1096 1090 1086 1083 1077 1067 1056 1045 1037 1029 1022 1017 1011 1001 994 990 977 974 967 964 956 940 913 0 0 0 0 0 0
361 361 362 363 366 371 372 376 381 386 391 397 398 400 407 408 420 433 0 0 0 0 0 0 0 0 0 0 0 0 0 0 0 0 0 1277 1292 1306 1325 1344 1366 1388 1404 1412 1419 1419 1419 1410 0 0 0 0 0 0 0 1273 1272 1270 1270 1270 1272 1277 1281 1289 1292 1308 1320 1324 1332 1340 1349 1357 1358 1358 1358 1355 1355 1355 1354 1351 1348 1348 1347 1345 1343 1341 1338 1327 1326 1315 1306 1301 1290 0 0 0 0 0 0 0 0 0 0 0 0 0 0 0 0 0 0 0 0 0 0 0 0 0 0 0 0 0 0 0 0 0 0 0 0 0 0 0 0 0 0 0 0 0 0 0 0 0 0 0 0 0 0 0 0 0 0 0 0 0 0 0 0 0 0 0 0 0 0 0 0 0 0 0 0 0 0 0 0 0 0 0 0 0 0 0 834 836 836 836 836 836 836 836 836 836 836 837 837 837 837 837 838 839 840 842 842 844 845 846 847 847 848 849 850 851 853 854 855 855 855 855 856 857 863 873 877 877 0 0 0 0 0 0 0 0 0 0 0 0 0 0 0 0 0 0 0 0 0 0 0 0 0 0 0 0 0 0 0 0 916 917 917 918 921 922 922 922 923 923 923 0 0 0 0 0 0 0 0 0 0 0 0 0 0 0 0 0 0 0 0 0 0 0 0 0 0 0 0 0 0 0 0 0 0 0 0 0 940 940 931 913 913 913 914 916 917 917 917 917 917 916 916 916 916 917 917 917 917 918 918 919 921 923 924 926 926 927 931 937 941 945 954 964 971 976 982 986 989 991 994 995 997 998 999 1001 1002 1003 1003 1004 1004 1005 1006 1007 1007 1008 1008 1008 1008 1010 1010 1010 1010 1009 1008 1008 1007 1006 1003 1003 998 988 988 988 999 1007 1008 1010 1014 1020 1020 1022 1022 1022 1024 1029 1030 1033 1037 1039 1039 1041 1043 1045 1046 1047 1049 1051 1053 1054 1054 1055 1057 1057 1058 1059 1060 1061 1061 1062 1063 1064 1064 1065 1066 1067 1067 1067 1068 1068 1069 1069 1069 1071 1074 1074 0 0 0 0 1433 1451 1455 1459 1459 1459 1460 1460 1460 1460 1460 1461 1461 1461 1461 1462 1463 1463 1465 1466 1468 1469 1469 1469 1469 1469 1469 1469 1469 1469 1470 1470 1471 1471 1473 1477 1479 1480 1481 1482 1484 1486 1489 1495 1501 1505 1509 1512 1515 1517 1519 1523 1524 1525 1525 1525 1526 1526 1526 1526 1526 1525 1519 1517 1517 1512 1506 1503 1502 1498 1492 1484 1478 1475 1474 1471 1468 1464 1459 1455 1450 1449 1448 1446 1440 1434 1433 1433 1433 1433 1433 1433 1433 1431 1428 1424 1421 1420 1418 1418 1417 1417 1417 1414 1412 1411 1409 1406 1404 1403 1401 1397 1394 1392 1389 1387 1384 1382 1381 1380 1379 1376 1373 1370 1368 1366 1364 1363 1363 1360 1356 1351 1348 1346 1341 1335 1331 1325 1322 1319 1316 1311 1306 1297 1290 1289 1287 1284 1280 1276 1270 1263 1256 1250 1241 1227 1212 1202 1198 1185 1180 1177 1176 1173 1169 1165 1165 1162 1158 1141 1121 1116 1112 1111 1108 1104 1101 1097 1091 1086 1083 1077 1067 1057 1051 1046 1041 1029 1019 1011 1001 994 990 979 979 977 977 977 955 926 907 894 0 0 0 0
357 357 361 362 366 371 372 376 379 379 384 389 392 397 406 407 417 425 431 438 448 0 0 0 0 0 0 0 0 0 0 0 0 0 0 0 1288 1306 1325 1344 1366 1389 1404 1412 1427 1429 1431 1433 1433 0 0 0 0 0 0 0 0 1280 1276 1276 1276 1277 1281 1289 1292 1298 1313 1324 1332 1340 1349 1357 1359 1359 1359 1358 1358 1357 1356 1354 1351 1350 1350 1349 1349 1346 1338 1326 1326 1313 1304 1298 1284 0 0 0 0 0 0 0 0 0 0 0 0 0 0 0 0 0 0 0 0 0 0 0 0 0 0 0 0 0 0 0 0 0 0 0 0 0 0 0 0 0 0 0 0 0 0 0 0 0 0 0 0 0 0 0 0 0 0 0 0 0 0 0 0 0 0 0 0 0 0 0 0 0 0 0 0 0 0 0 0 0 0 0 0 0 0 0 837 835 834 833 833 832 832 832 834 834 835 836 836 836 836 837 837 837 839 840 842 843 844 845 846 847 848 849 850 851 852 854 854 855 855 856 856 857 866 875 878 878 0 0 0 0 0 0 0 0 0 0 0 0 0 0 0 0 0 0 0 0 0 0 0 0 0 0 0 0 0 0 0 0 0 0 917 918 921 922 922 923 923 922 0 0 0 0 0 0 0 0 0 0 0 0 0 0 0 0 0 0 0 0 0 0 0 0 0 0 0 0 0 0 0 0 0 0 0 0 0 0 940 936 928 913 913 913 914 916 917 917 917 917 917 916 916 916 916 917 917 917 917 918 918 919 921 923 925 926 927 928 933 938 946 946 954 966 974 980 984 988 990 992 994 996 998 998 1000 1001 1002 1003 1004 1004 1005 1006 1006 1007 1008 1008 1009 1010 1010 1011 1011 1011 1010 1010 1009 1008 1008 1006 1003 1001 996 980 978 978 978 984 988 994 1002 1011 1015 1016 1017 1019 1021 1026 1029 1031 1035 1037 1038 1039 1041 1043 1045 1046 1048 1050 1052 1052 1053 1054 1056 1057 1058 1059 1060 1061 1061 1062 1063 1064 1064 1065 1066 1067 1067 1067 1067 1068 1069 1069 1071 1072 1074 0 0 0 0 0 1432 1447 1454 1457 1457 1457 1457 1457 1457 1457 1457 1458 1458 1458 1460 1461 1463 1463 1465 1466 1468 1469 1469 1469 1469 1469 1469 1469 1469 1469 1470 1470 1471 1471 1473 1478 1480 1480 1482 1485 1486 1488 1491 1495 1501 1506 1509 1513 1516 1519 1521 1523 1525 1525 1525 1525 1525 1525 1525 1525 1525 1520 1515 1514 1513 1508 1502 1500 1498 1495 1485 1476 1472 1471 1471 1469 1466 1462 1455 1451 1447 1444 1440 1438 1437 1433 1431 1430 1429 1429 1429 1428 1427 1426 1423 1423 1421 1419 1418 1418 1417 1416 1414 1411 1409 1407 1405 1404 1403 1403 1401 1397 1394 1388 1386 1384 1381 1379 1378 1378 1377 1374 1371 1369 1368 1366 1364 1363 1363 1360 1356 1353 1351 1348 1344 1340 1335 1329 1325 1321 1316 1310 1306 1297 1290 1289 1287 1286 1282 1279 1273 1269 1266 1261 1253 1241 1227 1211 1206 1191 1186 1184 1183 1181 1177 1171 1167 1165 1158 1141 1124 1116 1111 1111 1110 1106 1103 1099 1092 1086 1083 1077 1067 1057 1051 1048 1042 1036 1027 1015 1001 997 990 990 990 987 986 978 955 926 907 894 879 0 0 0
357 357 361 362 366 371 372 376 379 379 384 385 390 397 405 406 415 423 425 428 433 443 453 462 0 0 0 0 0 0 0 0 0 0 0 0 0 0 0 0 1366 1389 1404 1412 1427 1429 1439 1452 1464 1473 0 0 0 0 0 0 0 0 0 1287 1287 1287 1287 1289 1292 1298 1313 1322 1332 1340 1349 1357 1359 1359 1359 1359 1359 1358 1358 1356 1355 1354 1353 1352 1349 1346 1338 1326 1325 1313 1303 1298 0 0 0 0 0 0 0 0 0 0 0 0 0 0 0 0 0 0 0 0 0 0 0 0 0 0 0 0 0 0 0 0 0 0 0 0 0 0 0 0 0 0 0 0 0 0 0 0 0 0 0 0 0 0 0 0 0 0 0 0 0 0 0 0 0 0 0 0 0 0 0 0 0 0 0 0 0 0 0 0 0 0 0 0 0 0 0 845 833 833 832 832 831 831 831 832 833 833 834 834 834 835 836 836 836 836 837 839 840 841 843 844 845 846 847 849 849 851 852 853 854 854 855 855 856 857 867 880 880 0 0 0 0 0 0 0 0 0 0 0 0 0 0 0 0 0 0 0 0 0 0 0 0 0 0 0 0 0 0 0 0 0 0 0 0 0 0 0 0 0 0 0 0 0 0 0 0 0 0 0 0 0 0 0 0 0 0 0 0 0 0 0 0 0 0 0 0 0 0 0 0 0 0 0 0 0 0 0 0 940 940 935 928 913 913 913 914 916 917 917 917 916 916 916 916 916 916 917 917 917 917 918 918 920 921 923 925 926 927 928 933 939 947 949 955 966 975 980 986 989 991 993 994 996 998 999 1000 1001 1002 1004 1004 1005 1005 1006 1007 1008 1008 1009 1009 1010 1010 1011 1011 1011 1011 1010 1009 1008 1008 1006 1003 998 989 975 975 975 977 978 978 978 991 1000 1002 1003 1007 1013 1018 1025 1027 1029 1031 1034 1035 1035 1038 1042 1043 1046 1047 1048 1049 1051 1053 1054 1056 1057 1058 1059 1059 1060 1061 1062 1062 1063 1064 1064 1066 1066 1067 1067 1067 1068 1071 1071 1073 1076 1077 0 0 0 0 0 1432 1446 1446 1447 1448 1450 1451 1452 1453 1453 1453 1453 1453 1456 1460 1461 1463 1465 1466 1466 1467 1469 1469 1469 1469 1469 1469 1469 1469 1469 1470 1470 1471 1472 1475 1478 1481 1485 1487 1489 1490 1492 1494 1498 1502 1506 1509 1513 1517 1522 1524 1525 1525 1525 1525 1525 1522 1522 1522 1522 1522 1516 1508 1507 1505 1500 1494 1489 1485 1479 1473 1469 1468 1468 1466 1464 1460 1453 1447 1445 1442 1440 1436 1435 1434 1432 1429 1427 1426 1424 1424 1423 1423 1423 1421 1420 1419 1418 1418 1417 1415 1413 1411 1408 1406 1403 1401 1400 1400 1399 1398 1393 1386 1383 1379 1378 1377 1377 1376 1375 1373 1372 1370 1369 1367 1365 1364 1363 1363 1360 1357 1354 1353 1351 1349 1346 1343 1336 1328 1323 1316 1309 1306 1297 1293 1289 1288 1287 1283 1281 1281 1278 1273 1262 1256 1246 1232 1219 1215 1208 1197 1186 1183 1182 1181 1177 1174 1167 1159 1142 1126 1117 1111 1111 1111 1110 1109 1103 1093 1086 1081 1072 1064 1057 1051 1048 1042 1036 1029 1024 1012 1008 1003 997 997 994 990 979 963 929 913 896 884 0 0 0
357 357 361 362 370 374 377 377 379 379 384 385 389 395 404 406 414 421 421 423 433 443 449 451 452 455 462 0 0 0 0 0 0 0 0 0 0 0 0 0 0 1389 1400 1411 1427 1429 1439 1463 1475 1489 1508 0 0 0 0 0 0 0 0 0 0 1297 1293 1293 1293 1298 1313 1321 1327 1334 1342 1348 1354 1357 1358 1358 1359 1358 1358 1358 1357 1357 1355 1352 1349 1346 1336 1325 1325 1312 1303 1294 0 0 0 0 0 0 0 0 0 0 0 0 0 0 0 0 0 0 0 0 0 0 0 0 0 0 0 0 0 0 0 0 0 0 0 0 0 0 0 0 0 0 0 0 0 0 0 0 0 0 0 0 0 0 0 0 0 0 0 0 0 0 0 0 0 0 0 0 0 0 0 0 0 0 0 0 0 0 0 0 0 0 0 0 0 0 831 831 831 831 831 831 830 830 830 831 832 832 832 833 833 834 835 835 835 836 836 838 839 840 842 843 845 845 847 848 849 850 851 852 853 853 854 855 856 858 867 880 880 0 0 0 0 0 0 0 0 0 0 0 0 0 0 0 0 0 0 0 0 0 0 0 0 0 0 0 0 0 0 0 0 0 0 0 0 0 0 0 0 0 0 923 919 919 915 0 0 0 0 0 0 0 0 0 0 0 0 0 0 0 0 0 0 0 0 0 0 0 0 0 0 0 0 0 0 0 0 0 0 938 938 927 926 917 914 914 914 916 917 917 917 917 916 916 916 916 916 917 917 917 917 918 919 920 921 923 925 927 927 928 934 941 948 952 955 966 975 980 986 990 991 993 995 996 998 999 1000 1001 1002 1004 1004 1005 1005 1007 1007 1009 1009 1010 1010 1011 1012 1012 1012 1012 1011 1010 1009 1008 1008 1006 1002 998 988 974 974 974 975 975 976 976 976 980 985 986 986 995 1002 1013 1023 1025 1026 1030 1033 1035 1038 1040 1042 1044 1045 1047 1049 1050 1052 1054 1055 1057 1058 1059 1059 1060 1061 1062 1062 1063 1063 1064 1066 1066 1067 1067 1067 1068 1071 1076 1077 1078 1087 0 0 0 0 0 1427 1434 1439 1445 1446 1447 1448 1448 1448 1448 1448 1450 1452 1455 1459 1461 1463 1465 1466 1466 1467 1469 1469 1469 1469 1470 1470 1470 1471 1471 1472 1472 1472 1472 1475 1480 1482 1485 1489 1491 1493 1495 1498 1501 1505 1508 1511 1515 1520 1523 1525 1525 1525 1524 1522 1521 1519 1518 1518 1518 1518 1515 1503 1498 1494 1484 1479 1477 1474 1469 1467 1465 1465 1464 1462 1458 1453 1447 1443 1441 1440 1437 1435 1433 1431 1428 1426 1424 1423 1423 1422 1422 1422 1419 1418 1417 1416 1416 1416 1415 1414 1411 1408 1405 1402 1400 1398 1395 1394 1392 1391 1389 1386 1382 1377 1377 1375 1375 1374 1372 1370 1370 1368 1367 1365 1364 1363 1362 1362 1360 1358 1355 1353 1351 1349 1346 1343 1338 1333 1324 1316 1309 1306 1297 1293 1289 1289 1287 1286 1283 1283 1278 1273 1262 1257 1250 1242 1231 1227 1219 1211 1202 1188 1184 1183 1179 1175 1174 1161 1142 1129 1120 1120 1120 1124 1124 1124 1111 1094 1086 1081 1072 1064 1057 1051 1048 1042 1036 1031 1024 1012 1008 1005 1003 1000 994 990 986 965 929 914 899 894 0 0 0
367 367 368 370 376 378 381 383 387 387 387 387 389 393 398 407 411 418 420 423 433 442 448 449 449 451 459 470 488 0 0 0 0 0 0 0 0 0 0 0 0 0 0 0 0 1417 1439 1463 1475 1491 0 0 0 0 0 0 0 0 0 0 0 0 0 1304 1304 1304 1313 1321 1327 1334 1342 1348 1348 1352 1355 1356 1357 1358 1358 1358 1358 1358 1355 1352 1347 1341 1329 1318 1318 1307 1300 1279 0 0 0 0 0 0 0 0 0 0 0 0 0 0 0 0 0 0 0 0 0 0 0 0 0 0 0 0 0 0 0 0 0 0 0 0 0 0 0 0 0 0 0 0 0 0 0 0 0 0 0 0 0 0 0 0 0 0 0 0 0 0 0 0 0 0 0 0 0 0 0 0 0 0 0 0 0 0 0 0 0 0 0 0 0 0 831 831 830 829 829 829 829 829 829 830 830 831 832 832 832 833 834 834 835 836 836 838 838 840 842 842 844 845 846 848 849 850 851 852 852 853 854 855 857 858 871 880 880 0 0 0 0 0 0 0 0 0 0 0 0 0 0 0 0 0 0 0 0 0 0 0 0 0 0 0 0 0 0 0 0 0 0 0 0 0 0 0 0 0 922 922 919 916 916 916 917 917 0 0 0 0 0 0 0 0 0 0 0 0 0 0 0 0 0 0 0 0 0 0 0 0 0 0 0 0 0 0 0 946 938 926 923 918 916 916 916 916 917 917 917 917 917 916 916 916 916 917 917 917 917 918 919 920 921 922 925 927 927 929 934 941 948 955 960 971 978 984 989 990 992 994 996 997 998 1000 1000 1001 1002 1004 1005 1006 1006 1007 1008 1009 1009 1010 1011 1011 1012 1012 1012 1012 1012 1010 1009 1008 1007 1005 1002 998 988 973 973 973 973 973 974 974 974 974 976 979 984 986 988 996 1006 1014 1019 1026 1033 1034 1035 1036 1038 1038 1041 1046 1049 1050 1052 1054 1055 1056 1057 1058 1059 1060 1060 1061 1062 1063 1063 1064 1065 1066 1067 1067 1068 1068 1072 1078 1079 1080 1087 0 0 0 0 1410 1424 1432 1439 1445 1446 1447 1447 1447 1448 1448 1448 1450 1452 1455 1459 1462 1464 1465 1466 1467 1467 1469 1469 1470 1470 1470 1470 1470 1471 1472 1474 1475 1475 1476 1480 1482 1484 1487 1489 1491 1494 1498 1501 1505 1508 1510 1514 1519 1522 1525 1526 1526 1526 1524 1519 1516 1513 1513 1512 1512 1512 1505 1492 1483 1478 1474 1473 1471 1470 1467 1464 1462 1461 1460 1458 1453 1448 1445 1442 1439 1438 1435 1432 1430 1428 1427 1424 1421 1421 1421 1421 1421 1421 1418 1415 1412 1412 1412 1412 1412 1410 1408 1405 1404 1401 1400 1398 1395 1394 1389 1386 1386 1385 1381 1376 1375 1374 1373 1373 1371 1369 1369 1366 1365 1364 1363 1363 1362 1361 1360 1358 1355 1353 1351 1349 1346 1343 1338 1333 1324 1316 1309 1306 1297 1293 1290 1289 1288 1288 1286 1284 1279 1273 1262 1257 1250 1242 1238 1234 1226 1218 1209 1199 1189 1187 1182 1175 1175 1161 1146 1133 1124 1124 1124 1124 1124 1124 1115 1098 1088 1081 1072 1064 1057 1050 1046 1041 1036 1031 1024 1012 1008 1005 1003 1000 994 989 986 965 929 914 911 903 0 0 0
375 375 376 378 384 386 386 390 392 392 392 392 392 393 398 407 411 418 420 423 433 442 445 446 447 448 451 464 476 490 491 0 0 0 0 0 0 0 0 0 0 0 0 0 0 0 0 0 0 0 0 0 0 0 0 0 0 0 0 0 0 0 0 0 1336 1322 1322 1322 1327 1334 1342 1347 1347 1350 1351 1352 1353 1356 1358 1358 1358 1358 1355 1350 1344 1335 1322 1308 1307 1297 1282 0 0 0 0 0 0 0 0 0 0 0 0 0 0 0 0 0 0 0 0 0 0 0 0 0 0 0 0 0 0 0 0 0 0 0 0 0 0 0 0 0 0 0 0 0 0 0 0 0 0 0 0 0 0 0 0 0 0 0 0 0 0 0 0 0 0 0 0 0 0 0 0 0 0 0 0 0 0 0 0 0 0 0 0 0 0 0 829 829 829 828 828 828 828 828 828 829 829 830 831 832 832 833 833 833 834 835 836 837 838 839 840 842 843 845 846 847 848 849 851 851 851 852 853 855 856 860 871 880 0 0 0 0 0 0 0 0 0 0 0 0 0 0 0 0 0 0 0 0 0 0 0 0 0 0 0 0 0 0 0 0 0 0 0 0 0 0 0 0 0 0 919 919 919 917 917 917 917 917 926 932 932 0 0 0 0 0 0 0 0 0 0 0 0 0 0 0 0 0 0 0 0 0 0 0 0 0 0 0 946 946 935 926 920 920 919 917 917 917 917 917 917 917 917 917 917 917 917 917 917 917 918 919 919 920 921 922 925 927 928 930 935 942 948 956 962 971 980 984 989 990 992 994 996 997 999 1000 1000 1001 1002 1004 1005 1006 1006 1007 1008 1009 1010 1011 1011 1012 1012 1012 1012 1012 1012 1010 1009 1008 1006 1001 999 995 983 971 971 971 971 972 972 972 972 973 974 976 977 978 979 982 984 990 997 1013 1026 1028 1029 1031 1035 1037 1039 1046 1048 1049 1050 1053 1055 1056 1057 1057 1059 1060 1060 1061 1062 1063 1063 1064 1065 1066 1066 1067 1068 1070 1073 1079 1079 1080 1092 0 0 0 0 1410 1422 1432 1439 1445 1446 1446 1446 1447 1447 1447 1448 1450 1452 1455 1458 1462 1464 1465 1466 1467 1467 1469 1469 1470 1470 1470 1470 1470 1471 1474 1474 1475 1475 1478 1481 1483 1484 1487 1489 1491 1494 1498 1501 1505 1508 1513 1518 1521 1523 1525 1526 1526 1526 1523 1519 1514 1509 1506 1504 1503 1502 1498 1492 1476 1473 1470 1469 1468 1466 1462 1459 1457 1455 1454 1450 1446 1444 1443 1439 1436 1435 1433 1430 1428 1427 1424 1422 1420 1420 1420 1419 1419 1417 1413 1410 1409 1409 1409 1409 1409 1408 1406 1404 1403 1401 1400 1398 1395 1394 1389 1386 1385 1383 1379 1376 1374 1373 1372 1371 1369 1368 1367 1366 1365 1363 1363 1362 1362 1361 1359 1358 1355 1353 1349 1347 1344 1340 1338 1333 1326 1318 1309 1306 1302 1296 1292 1291 1290 1290 1288 1284 1278 1268 1262 1256 1250 1242 1238 1235 1228 1222 1213 1207 1201 1192 1186 1179 1175 1161 1146 1134 1125 1125 1125 1124 1124 1124 1115 1102 1093 1088 1080 1069 1057 1050 1046 1041 1035 1031 1006 1006 1005 1003 1002 1000 993 988 979 969 963 949 934 910 0 0 0
378 378 380 380 387 389 392 396 396 396 396 395 395 395 398 409 411 418 420 424 433 442 443 443 443 443 443 453 463 477 478 492 0 0 0 0 0 0 0 0 0 0 0 0 0 0 0 0 0 0 0 0 0 0 0 0 0 0 0 0 0 0 0 0 0 0 0 0 1336 1336 1343 1346 1347 1347 1347 1348 1348 1350 1350 1354 1355 1355 1355 1350 1342 1330 1316 1298 1298 1279 0 0 0 0 0 0 0 0 0 0 0 0 0 0 0 0 0 0 0 0 0 0 0 0 0 0 0 0 0 0 0 0 0 0 0 0 0 0 0 0 0 0 0 0 0 0 0 0 0 0 0 0 0 0 0 0 0 0 0 0 0 0 0 0 0 0 0 0 0 0 0 0 0 0 0 0 0 0 0 0 0 0 0 0 0 0 0 0 829 829 827 826 827 827 827 828 828 829 829 830 830 831 832 832 832 833 833 834 835 836 837 839 840 841 843 844 845 847 848 849 851 851 851 852 853 854 855 862 871 871 0 0 0 0 0 0 0 0 0 0 0 0 0 0 0 0 0 0 0 0 0 0 0 0 0 0 0 0 0 0 0 0 0 0 0 0 0 0 0 0 0 0 916 916 916 915 915 914 915 915 925 932 932 932 927 926 925 925 0 0 0 0 0 0 0 0 0 0 0 0 0 0 0 0 0 0 0 0 0 0 943 943 932 926 921 921 920 918 917 917 917 917 917 918 917 917 917 917 917 917 917 918 918 919 919 920 921 922 925 927 929 931 936 942 948 956 968 973 981 985 989 990 993 994 996 997 999 1000 1001 1002 1003 1004 1005 1006 1006 1007 1009 1009 1010 1011 1012 1012 1012 1013 1013 1012 1012 1010 1009 1008 1006 1001 997 993 979 971 970 970 970 970 970 971 971 971 973 974 975 975 975 977 980 980 980 983 999 1012 1018 1019 1026 1033 1036 1042 1045 1046 1050 1051 1054 1056 1057 1057 1058 1060 1060 1061 1062 1062 1063 1064 1065 1066 1066 1067 1068 1068 1072 1078 1079 1080 0 0 0 0 0 1410 1421 1431 1439 1445 1446 1446 1446 1446 1446 1449 1450 1451 1452 1455 1458 1462 1464 1465 1466 1467 1467 1468 1469 1470 1470 1470 1470 1470 1473 1474 1474 1475 1476 1479 1481 1485 1486 1488 1489 1490 1494 1498 1501 1505 1508 1513 1518 1521 1523 1525 1526 1526 1526 1523 1516 1512 1507 1502 1501 1500 1500 1497 1490 1476 1472 1468 1465 1464 1461 1457 1452 1449 1447 1444 1443 1441 1441 1440 1436 1434 1432 1430 1428 1425 1425 1423 1421 1418 1415 1413 1413 1413 1411 1410 1408 1407 1407 1407 1407 1405 1404 1403 1402 1402 1401 1399 1398 1395 1392 1389 1386 1384 1380 1377 1375 1373 1371 1370 1369 1368 1367 1366 1364 1364 1363 1362 1362 1362 1361 1358 1356 1354 1351 1348 1345 1343 1340 1337 1333 1326 1318 1309 1306 1302 1296 1292 1291 1290 1290 1290 1284 1277 1261 1252 1250 1249 1246 1239 1235 1230 1224 1217 1213 1210 1202 1192 1183 1176 1169 1146 1135 1127 1125 1125 1124 1124 1120 1115 1107 1102 1095 1087 1072 1062 1050 1046 1041 1035 1023 1006 1006 1003 1003 1002 999 989 988 979 969 964 963 960 923 0 0 0
378 378 380 380 387 393 399 400 400 400 400 400 400 400 405 414 416 422 425 429 437 442 442 442 441 441 441 444 459 471 472 482 494 505 514 0 0 0 0 0 0 0 0 0 0 0 0 0 0 0 0 0 0 0 0 0 0 0 0 0 0 0 0 0 0 0 0 0 0 1347 1346 1343 1343 1343 1343 1341 1341 1341 1341 1343 1349 1349 1349 1348 1339 1323 1304 1277 1276 0 0 0 0 0 0 0 0 0 0 0 0 0 0 0 0 0 0 0 0 0 0 0 0 0 0 0 0 0 0 0 0 0 0 0 0 0 0 0 0 0 0 0 0 0 0 0 0 0 0 0 0 0 0 0 0 0 0 0 0 0 0 0 0 0 0 0 0 0 0 0 0 0 0 0 0 0 0 0 0 0 0 0 0 0 0 0 0 0 831 829 827 826 827 827 828 828 828 829 829 829 829 831 831 831 832 832 832 833 834 836 837 838 840 840 842 843 845 846 848 849 851 851 851 852 853 854 857 865 871 871 0 0 0 0 0 0 0 0 0 0 0 0 0 0 0 0 0 0 0 0 0 0 0 0 0 0 0 0 0 0 0 0 0 0 0 0 0 0 0 0 0 0 915 919 919 919 919 914 912 911 911 911 922 923 926 926 925 925 926 926 931 931 931 0 0 0 0 0 0 0 0 0 0 0 0 0 0 0 0 0 947 936 929 926 921 921 920 919 919 918 918 918 918 918 918 917 918 918 917 917 918 918 918 919 920 920 921 923 926 929 931 932 938 944 948 957 968 976 981 985 989 991 993 995 996 998 999 1000 1001 1002 1003 1004 1005 1006 1006 1008 1009 1009 1011 1011 1012 1012 1012 1013 1013 1012 1011 1010 1009 1008 1006 1001 995 989 978 971 970 969 969 969 970 970 970 970 970 972 974 974 974 975 977 978 979 981 985 995 1000 1002 1010 1022 1027 1037 1042 1046 1048 1051 1054 1055 1057 1057 1058 1059 1060 1061 1062 1062 1063 1064 1065 1066 1066 1067 1067 1068 1071 1076 1077 1078 0 0 0 0 1397 1408 1419 1430 1439 1445 1445 1445 1446 1446 1447 1449 1450 1451 1452 1455 1456 1460 1461 1461 1461 1462 1462 1465 1467 1469 1469 1469 1469 1469 1473 1475 1476 1476 1476 1480 1484 1487 1488 1489 1490 1490 1492 1495 1499 1502 1508 1513 1518 1521 1523 1524 1526 1526 1526 1522 1516 1511 1507 1500 1498 1498 1496 1495 1483 1474 1470 1464 1460 1457 1455 1449 1446 1443 1441 1441 1440 1439 1438 1435 1431 1429 1429 1428 1427 1423 1421 1420 1420 1416 1414 1412 1412 1411 1410 1408 1408 1407 1407 1406 1406 1405 1403 1401 1401 1401 1401 1399 1398 1395 1392 1390 1386 1384 1379 1376 1374 1371 1370 1370 1368 1367 1366 1365 1363 1363 1362 1362 1361 1361 1358 1356 1355 1353 1351 1348 1345 1343 1340 1336 1332 1324 1317 1310 1306 1302 1296 1292 1291 1290 1290 1290 1284 1276 1260 1252 1250 1249 1247 1239 1236 1231 1226 1223 1218 1214 1208 1201 1192 1176 1169 1156 1136 1130 1126 1125 1125 1124 1120 1115 1108 1103 1096 1093 1084 1070 1060 1049 1042 1035 1023 1006 1006 1003 1003 1002 995 978 973 971 969 969 966 964 964 0 0 0
378 378 380 380 387 395 407 407 407 405 405 405 408 412 417 421 423 427 431 434 437 442 442 442 441 441 441 441 454 465 466 479 488 497 504 509 511 512 512 0 0 0 0 0 0 0 0 0 0 0 0 0 0 0 0 0 0 0 0 0 0 0 0 0 0 0 0 0 0 0 0 1348 1347 1343 1339 1338 1333 1332 1332 1332 1337 1343 1343 1343 1330 1308 1271 0 0 0 0 0 0 0 0 0 0 0 0 0 0 0 0 0 0 0 0 0 0 0 0 0 0 0 0 0 0 0 0 0 0 0 0 0 0 0 0 0 0 0 0 0 0 0 0 0 0 0 0 0 0 0 0 0 0 0 0 0 0 0 0 0 0 0 0 0 0 0 0 0 0 0 0 0 0 0 0 0 0 0 0 0 0 0 0 0 0 825 825 823 823 823 826 827 828 828 828 828 828 829 829 830 831 831 831 831 832 832 833 835 836 838 839 840 841 842 844 846 848 849 851 851 852 852 853 855 857 866 871 871 0 0 0 0 0 0 0 0 0 0 0 0 0 0 0 0 0 0 0 0 0 0 0 0 0 0 0 0 0 0 0 0 0 0 0 0 0 0 0 0 0 0 914 916 919 919 919 914 912 909 909 909 912 912 914 916 916 920 921 926 931 931 931 931 0 0 0 0 0 0 0 0 0 0 0 0 0 0 0 939 939 932 924 922 921 921 920 919 919 918 918 918 918 918 918 918 918 918 918 918 918 918 919 919 920 920 921 924 927 930 932 934 939 946 948 960 970 976 981 985 989 991 993 995 996 998 999 1000 1001 1002 1003 1004 1005 1006 1008 1008 1009 1009 1011 1011 1012 1012 1012 1012 1012 1012 1011 1010 1008 1008 1006 1000 993 985 977 971 970 969 969 968 969 969 968 968 969 969 971 972 973 973 974 975 976 980 983 989 994 997 1003 1013 1020 1035 1042 1044 1048 1050 1053 1055 1056 1057 1058 1059 1060 1061 1062 1062 1063 1063 1065 1065 1066 1067 1067 1068 1070 1071 1074 1077 0 0 0 0 1397 1402 1407 1421 1437 1439 1440 1441 1443 1446 1447 1449 1450 1451 1452 1452 1455 1456 1456 1456 1458 1458 1458 1460 1460 1463 1465 1466 1468 1469 1473 1476 1479 1482 1484 1487 1489 1491 1491 1491 1491 1491 1492 1495 1497 1498 1499 1504 1511 1514 1517 1517 1517 1517 1516 1515 1512 1509 1501 1497 1495 1495 1493 1493 1483 1471 1466 1460 1454 1450 1447 1444 1441 1439 1438 1437 1437 1436 1434 1428 1427 1426 1426 1426 1425 1422 1420 1419 1418 1416 1414 1412 1411 1410 1410 1408 1408 1406 1406 1406 1406 1404 1402 1401 1399 1399 1398 1397 1396 1395 1392 1390 1386 1384 1379 1375 1372 1370 1369 1368 1366 1366 1365 1364 1363 1362 1362 1361 1360 1357 1354 1353 1353 1352 1351 1347 1343 1338 1335 1333 1329 1323 1317 1310 1305 1298 1293 1288 1288 1288 1288 1288 1284 1266 1259 1252 1250 1249 1247 1243 1241 1233 1233 1228 1220 1215 1209 1206 1197 1184 1171 1160 1153 1142 1134 1128 1125 1124 1120 1115 1109 1103 1097 1093 1089 1083 1067 1054 1042 1035 1023 1017 1016 1012 1009 1003 995 978 969 963 963 963 965 965 965 0 0 0
373 373 375 376 385 395 407 408 408 409 409 413 417 425 429 429 433 436 439 442 442 442 442 442 441 441 441 441 447 458 458 468 476 483 489 494 499 501 507 516 0 0 0 0 0 0 0 0 0 0 0 0 0 0 0 0 0 0 0 0 0 0 0 0 0 0 0 0 0 0 0 0 0 1343 1339 1338 1333 1330 1325 1325 1325 1325 1325 1320 1305 1266 1231 1211 1193 0 0 0 0 0 0 0 0 0 0 0 0 0 0 0 0 0 0 0 0 0 0 0 0 0 0 0 0 0 0 0 0 0 0 0 0 0 0 0 0 0 0 0 0 0 0 0 0 0 0 0 0 0 0 0 0 0 0 0 0 0 0 0 0 0 0 0 0 0 0 0 0 0 0 0 0 0 0 0 0 0 0 0 0 0 0 0 0 822 822 822 822 823 826 827 828 828 828 828 828 829 829 829 830 830 831 831 832 832 833 835 835 837 838 839 841 842 843 846 848 850 851 853 853 855 855 856 857 866 871 871 0 0 0 0 0 0 0 0 0 0 0 0 0 0 0 0 0 0 0 0 0 0 0 0 0 0 0 0 0 0 0 0 0 0 0 0 0 0 0 0 0 0 913 913 919 919 919 914 909 904 904 904 905 908 910 910 912 917 918 924 925 926 928 929 930 931 933 0 0 0 0 0 0 0 0 0 0 0 0 937 937 931 924 923 921 921 920 919 919 919 919 919 917 917 917 918 918 918 918 918 918 918 919 920 921 922 923 925 927 932 934 937 939 946 953 961 970 976 982 985 989 992 994 995 997 998 999 1000 1001 1003 1003 1004 1005 1006 1008 1009 1009 1010 1011 1012 1012 1012 1012 1012 1012 1012 1011 1010 1008 1007 1005 1000 993 983 973 971 970 968 968 968 968 968 968 968 969 969 969 970 971 972 974 975 976 980 982 986 991 996 1000 1002 1015 1035 1042 1044 1047 1050 1052 1055 1056 1057 1058 1059 1060 1061 1061 1062 1063 1063 1064 1065 1066 1067 1068 1068 1068 1070 1070 1077 0 0 0 0 1384 1399 1405 1416 1422 1428 1434 1438 1442 1446 1447 1448 1450 1450 1451 1452 1454 1454 1456 1456 1456 1457 1458 1460 1460 1463 1465 1466 1468 1472 1476 1479 1482 1485 1488 1491 1492 1493 1493 1493 1492 1492 1492 1495 1497 1498 1499 1499 1501 1507 1508 1508 1508 1508 1506 1502 1499 1496 1494 1492 1488 1487 1487 1487 1478 1464 1457 1453 1450 1444 1439 1438 1436 1435 1432 1430 1429 1429 1427 1424 1424 1424 1424 1423 1421 1420 1419 1418 1416 1415 1414 1412 1411 1410 1410 1407 1406 1405 1405 1405 1403 1402 1401 1400 1398 1396 1396 1395 1395 1393 1391 1390 1386 1383 1379 1375 1372 1369 1368 1366 1366 1365 1365 1364 1363 1362 1361 1359 1357 1355 1352 1350 1350 1350 1349 1344 1336 1332 1328 1325 1324 1323 1317 1311 1303 1291 1286 1284 1284 1283 1282 1282 1275 1264 1257 1255 1253 1252 1251 1250 1249 1247 1242 1234 1225 1217 1213 1210 1203 1194 1183 1173 1167 1159 1150 1141 1134 1130 1126 1120 1111 1103 1098 1094 1093 1088 1075 1056 1046 1036 1027 1026 1024 1019 1014 1005 995 978 969 963 963 963 965 965 965 0 0 0
367 367 370 372 381 395 407 408 408 409 409 415 424 435 438 440 441 445 452 452 452 450 448 447 443 441 441 441 447 458 458 460 463 468 474 481 488 498 507 516 525 534 552 0 0 0 0 0 0 0 0 0 0 0 0 0 0 0 0 0 0 0 0 0 0 0 0 0 0 0 0 0 0 0 0 1338 1333 1330 1324 1320 1315 1310 1293 1281 1262 1239 1220 1205 1184 1183 0 0 0 0 0 0 0 0 0 0 0 0 0 0 0 0 0 0 0 0 0 0 0 0 0 0 0 0 0 0 0 0 0 0 0 0 0 0 0 0 0 0 0 0 0 0 0 0 0 0 0 0 0 0 0 0 0 0 0 0 0 0 0 0 0 0 0 0 0 0 0 0 0 0 0 0 0 0 0 0 0 0 0 0 0 0 0 829 822 822 822 822 825 827 828 828 828 828 828 829 829 829 830 830 831 831 832 832 833 834 835 836 837 839 840 841 843 845 848 850 851 853 853 855 856 859 860 871 873 0 0 0 0 0 0 0 0 0 0 0 0 0 0 0 0 0 0 0 0 0 0 0 0 0 0 0 0 0 0 0 0 0 0 0 0 0 0 0 0 0 0 913 913 913 916 916 916 911 904 904 904 904 905 908 909 910 911 912 914 914 915 916 922 922 927 931 933 935 935 935 939 939 0 0 0 0 0 0 0 944 935 931 924 924 923 921 921 919 919 919 919 919 917 917 917 918 919 919 919 919 919 919 919 921 923 924 926 927 929 932 934 937 940 946 955 963 972 980 985 987 990 992 994 995 997 998 999 1000 1001 1003 1004 1005 1005 1007 1008 1009 1009 1010 1011 1012 1012 1012 1012 1012 1012 1012 1011 1009 1008 1007 1003 1000 992 980 972 971 970 968 968 968 968 968 967 967 967 969 969 970 970 972 974 975 976 980 982 986 991 996 999 1002 1014 1033 1041 1044 1047 1050 1052 1054 1056 1057 1058 1059 1060 1061 1061 1062 1063 1063 1064 1065 1066 1067 1068 1068 1068 1070 1070 1077 0 0 0 0 1384 1396 1405 1416 1422 1428 1434 1438 1442 1445 1447 1448 1449 1449 1451 1452 1453 1454 1455 1456 1456 1456 1458 1460 1460 1463 1465 1466 1471 1476 1479 1481 1484 1487 1489 1492 1494 1498 1498 1498 1498 1498 1498 1498 1498 1499 1498 1497 1497 1496 1496 1496 1496 1496 1496 1494 1490 1489 1487 1480 1478 1477 1476 1474 1469 1463 1456 1453 1448 1442 1437 1436 1435 1429 1428 1427 1425 1425 1423 1422 1421 1421 1420 1419 1418 1417 1416 1415 1414 1413 1413 1410 1410 1409 1407 1405 1403 1403 1403 1403 1401 1398 1397 1396 1393 1393 1392 1392 1392 1392 1391 1390 1386 1383 1380 1375 1372 1369 1368 1366 1366 1364 1364 1363 1362 1359 1357 1356 1356 1353 1352 1349 1348 1348 1347 1342 1335 1332 1326 1323 1321 1319 1317 1310 1303 1291 1286 1283 1281 1278 1278 1274 1269 1263 1257 1256 1253 1252 1252 1251 1249 1247 1244 1243 1233 1224 1219 1216 1212 1206 1196 1186 1176 1165 1160 1154 1147 1144 1137 1125 1115 1107 1101 1099 1097 1090 1079 1067 1052 1046 1039 1034 1030 1025 1022 1011 998 982 969 963 963 961 960 960 941 0 0 0
361 361 364 367 375 386 398 399 402 408 409 415 424 435 442 451 454 455 462 470 470 470 467 454 447 446 446 447 447 458 458 460 463 464 465 475 486 497 506 516 525 533 543 557 571 583 584 0 0 0 0 0 0 0 0 0 0 0 0 0 0 0 0 0 0 0 0 0 0 0 0 0 0 0 0 0 1336 1331 1324 1314 1304 1284 1263 1254 1245 1233 1219 1205 1178 1176 0 0 0 0 0 0 0 0 0 0 0 0 0 0 0 0 0 0 0 0 0 0 0 0 0 0 0 0 0 0 0 0 0 0 0 0 0 0 0 0 0 0 805 807 809 810 810 0 0 0 0 0 0 0 0 0 0 0 0 0 0 0 0 0 0 0 0 0 0 0 0 0 0 0 0 0 0 0 0 0 0 0 0 0 0 0 828 828 822 822 822 822 824 826 827 827 828 828 828 829 829 830 830 830 831 831 832 832 833 834 835 836 837 838 840 841 843 845 848 850 851 853 854 855 856 859 860 873 873 0 0 0 0 0 0 0 0 0 0 0 0 0 0 0 0 0 0 0 0 0 0 0 0 0 0 0 0 0 0 0 0 0 0 0 0 0 0 0 0 0 913 913 912 911 909 909 905 903 903 903 904 904 905 908 909 909 909 909 909 909 909 909 910 911 913 920 927 931 933 935 939 939 941 942 943 945 947 947 945 943 936 934 934 932 928 923 922 920 920 920 919 919 917 917 917 918 919 920 920 920 920 920 922 923 924 926 927 930 932 934 936 937 940 949 955 965 973 980 985 988 990 992 994 996 997 999 999 1001 1002 1003 1004 1005 1006 1007 1008 1009 1009 1010 1011 1012 1012 1012 1012 1012 1012 1011 1010 1008 1006 1003 1002 999 992 980 968 968 967 967 966 965 965 964 964 964 966 967 969 969 970 971 973 975 977 980 982 986 990 996 999 1002 1014 1030 1041 1044 1048 1050 1052 1054 1056 1057 1058 1059 1060 1061 1062 1062 1063 1063 1064 1065 1066 1068 1070 1070 1070 1071 1074 0 0 0 0 0 1384 1396 1405 1416 1422 1428 1434 1438 1442 1445 1447 1448 1448 1449 1450 1451 1453 1454 1455 1455 1455 1457 1458 1459 1459 1464 1467 1469 1473 1477 1481 1483 1485 1488 1490 1493 1496 1500 1503 1504 1504 1504 1504 1504 1504 1501 1499 1497 1496 1493 1491 1490 1490 1489 1483 1478 1475 1473 1470 1470 1469 1468 1468 1465 1461 1458 1456 1452 1445 1439 1435 1433 1431 1428 1426 1425 1424 1421 1420 1420 1419 1418 1417 1416 1415 1414 1414 1413 1412 1411 1410 1409 1409 1408 1407 1404 1401 1400 1400 1400 1397 1394 1393 1393 1392 1392 1392 1392 1392 1392 1391 1388 1385 1383 1381 1377 1372 1369 1368 1366 1366 1364 1362 1361 1359 1357 1356 1354 1354 1353 1351 1349 1348 1348 1347 1342 1335 1332 1324 1320 1317 1317 1317 1308 1301 1289 1282 1281 1281 1278 1277 1271 1264 1261 1257 1256 1255 1253 1253 1251 1249 1247 1244 1243 1234 1228 1223 1221 1221 1217 1213 1207 1194 1179 1165 1155 1150 1146 1146 1142 1132 1127 1124 1115 1106 1091 1082 1073 1066 1057 1047 1040 1036 1032 1026 1017 1006 994 986 985 984 983 971 953 937 0 0 0
361 361 364 367 373 380 387 390 396 401 408 415 424 435 442 451 454 456 469 478 483 483 483 473 0 0 459 459 460 460 460 461 463 464 465 475 485 495 507 517 525 532 540 549 561 572 573 585 0 0 0 0 0 0 0 0 0 0 0 0 0 0 0 0 0 0 0 0 0 0 0 0 0 0 0 0 0 0 1324 1314 1288 1259 1244 1239 1236 1229 1219 1205 1176 1175 0 0 0 0 0 0 0 0 0 0 0 0 0 0 0 0 0 0 0 0 0 0 0 0 0 0 0 0 0 0 0 0 0 0 0 0 0 0 0 0 0 805 805 807 809 810 810 810 812 809 0 0 0 0 0 0 0 0 0 0 0 0 0 0 0 0 0 0 0 0 0 0 0 0 0 0 0 0 0 0 0 0 0 0 0 0 828 828 822 821 821 821 824 826 826 827 828 828 828 829 829 830 830 830 831 831 832 833 833 834 835 836 837 838 840 841 843 845 847 849 851 854 854 855 856 859 862 876 876 0 0 0 0 0 0 0 0 0 0 0 0 0 0 0 0 0 0 0 0 0 0 0 0 0 0 0 0 0 0 0 0 0 0 0 0 0 0 0 0 0 913 913 907 906 905 902 902 902 903 903 903 904 905 908 909 909 909 909 908 908 908 909 909 910 911 912 913 916 924 925 926 930 934 938 943 945 947 947 945 943 936 936 934 933 931 925 923 921 921 921 921 921 921 918 918 918 920 921 921 921 921 922 923 924 925 927 930 933 935 938 938 939 940 949 963 967 975 981 985 988 990 992 994 996 997 999 999 1001 1002 1003 1004 1005 1006 1007 1008 1009 1009 1010 1011 1012 1012 1012 1012 1012 1011 1011 1009 1008 1005 1000 996 995 988 970 966 966 966 966 965 965 965 964 964 964 966 967 968 969 970 970 973 975 977 980 983 987 990 996 999 1005 1014 1029 1041 1045 1048 1050 1052 1054 1056 1057 1058 1059 1060 1061 1062 1062 1063 1063 1064 1065 1066 1068 1072 1072 1072 1073 1075 0 0 0 0 1380 1387 1396 1405 1426 1435 1435 1435 1438 1442 1445 1446 1446 1446 1446 1446 1448 1450 1453 1455 1455 1455 1457 1458 1459 1460 1465 1469 1472 1475 1478 1481 1483 1485 1489 1492 1494 1499 1501 1504 1508 1508 1508 1507 1506 1504 1501 1499 1497 1494 1489 1489 1489 1488 1484 1479 1473 1471 1466 1461 1460 1460 1459 1459 1459 1455 1450 1443 1440 1438 1437 1432 1430 1428 1426 1424 1422 1421 1419 1417 1416 1415 1415 1415 1415 1413 1412 1412 1410 1409 1409 1408 1408 1407 1407 1406 1403 1398 1398 1397 1397 1397 1394 1393 1393 1392 1392 1392 1392 1392 1391 1391 1388 1385 1383 1381 1377 1374 1370 1368 1368 1366 1364 1362 1361 1359 1357 1356 1354 1354 1353 1351 1349 1348 1348 1347 1342 1335 1332 1324 1320 1317 1317 1314 1307 1298 1287 1282 1280 1279 1277 1276 1270 1264 1259 1257 1256 1256 1254 1253 1250 1249 1247 1244 1243 1234 1228 1223 1221 1221 1218 1214 1209 1203 1188 1175 1165 1162 1158 1158 1155 1151 1147 1144 1131 1115 1098 1084 1078 1072 1066 1055 1044 1038 1032 1026 1017 1011 1002 1000 999 997 985 971 951 937 0 0 0
361 361 364 367 373 377 380 381 389 395 402 408 420 429 442 451 454 456 469 478 488 499 499 499 0 0 0 0 0 482 481 481 474 474 474 475 485 495 507 517 526 530 534 540 549 564 565 575 589 602 613 0 0 0 0 0 0 0 0 0 0 0 0 0 0 0 0 0 0 0 0 0 0 0 0 0 0 0 0 0 1288 1259 1244 1239 1234 1229 1219 1205 1172 1172 0 0 0 0 0 0 0 0 0 0 0 0 0 0 0 0 0 0 0 0 0 0 0 0 0 0 0 0 0 0 0 0 0 0 0 0 0 0 0 0 804 805 805 807 809 810 810 810 810 809 809 808 808 808 810 0 0 0 0 0 0 0 0 0 0 0 0 0 0 0 0 0 0 0 0 0 0 0 0 0 0 0 0 0 0 0 828 819 818 818 818 821 824 826 826 827 828 828 828 829 830 831 831 831 831 831 832 833 833 834 835 836 837 838 840 841 843 845 847 849 851 854 854 855 856 859 862 876 0 0 0 0 0 0 0 0 0 0 0 0 0 0 0 0 0 0 0 0 0 0 0 0 0 0 0 0 0 0 0 0 0 0 0 0 0 0 0 0 0 0 913 913 905 905 903 902 902 902 902 903 903 904 904 907 908 909 909 909 908 908 908 908 909 910 910 912 913 916 916 916 917 917 919 919 921 933 936 944 944 944 944 944 937 937 937 930 927 926 926 924 923 921 921 921 920 920 920 921 921 921 921 924 925 926 927 930 933 935 937 939 940 940 946 959 966 974 980 983 987 988 991 993 995 996 998 999 1000 1001 1002 1003 1004 1005 1006 1007 1008 1009 1009 1010 1011 1012 1012 1012 1012 1012 1011 1010 1009 1007 1005 1000 996 990 981 969 966 966 966 965 965 965 964 964 964 964 965 967 967 967 968 968 971 975 977 980 983 987 991 996 1002 1007 1014 1029 1041 1046 1048 1050 1052 1054 1056 1057 1058 1059 1060 1061 1062 1062 1063 1064 1064 1066 1066 1068 1072 1072 1072 1073 1078 0 0 0 0 1386 1391 1401 1414 1430 1435 1435 1435 1438 1442 1445 1445 1445 1443 1443 1443 1443 1447 1451 1453 1455 1455 1457 1458 1459 1462 1465 1471 1475 1477 1479 1481 1484 1486 1489 1492 1494 1499 1501 1504 1508 1508 1508 1507 1506 1504 1501 1499 1496 1492 1489 1487 1487 1487 1484 1477 1470 1467 1461 1455 1449 1448 1448 1448 1448 1447 1442 1438 1436 1433 1431 1429 1427 1426 1424 1420 1419 1418 1417 1415 1413 1413 1413 1413 1412 1411 1410 1409 1408 1408 1408 1408 1408 1407 1406 1404 1401 1397 1397 1397 1396 1396 1394 1394 1392 1392 1392 1392 1392 1391 1391 1391 1388 1385 1383 1382 1377 1375 1372 1370 1368 1368 1365 1362 1361 1359 1357 1356 1354 1354 1353 1352 1349 1349 1349 1348 1342 1335 1332 1324 1320 1317 1317 1314 1307 1292 1285 1282 1280 1278 1278 1275 1270 1263 1258 1257 1257 1256 1255 1253 1250 1250 1247 1244 1235 1234 1228 1223 1221 1221 1219 1216 1209 1203 1193 1186 1179 1178 1173 1170 1165 1159 1152 1145 1134 1117 1104 1091 1085 1080 1075 1061 1048 1039 1032 1026 1017 1012 1007 1006 1005 999 985 971 948 929 0 0 0
361 361 366 367 373 377 378 379 384 390 397 404 413 421 430 441 444 456 469 478 488 499 514 525 525 0 0 0 0 0 0 0 0 0 0 485 485 495 508 521 525 528 528 530 539 553 554 569 582 592 602 615 627 0 0 0 0 0 0 0 0 0 0 0 0 0 0 0 0 0 0 0 0 0 0 0 0 0 0 0 0 0 0 1239 1234 1229 1220 1206 1167 1164 0 0 0 0 0 0 0 0 0 0 0 0 0 0 0 0 0 0 0 0 0 0 0 0 0 0 0 0 0 0 0 0 0 0 0 0 0 0 0 0 805 806 807 808 808 808 808 808 808 808 807 807 810 810 811 812 812 813 0 0 0 0 0 0 0 0 0 0 0 0 0 0 0 0 0 0 0 0 0 0 0 0 0 0 0 828 828 819 818 818 818 821 824 826 826 827 828 828 828 828 830 831 831 831 831 831 832 833 833 834 835 836 837 838 840 841 843 845 847 849 851 855 855 855 856 859 867 867 0 0 0 0 0 0 0 0 0 0 0 0 0 0 0 0 0 0 0 0 0 0 0 0 0 0 0 0 0 0 0 0 0 0 0 0 0 0 0 0 0 0 913 913 905 903 902 901 901 901 901 902 903 903 903 906 908 908 908 908 908 908 907 907 907 909 910 912 913 914 914 916 916 917 917 917 920 924 935 945 945 948 950 953 953 953 943 940 937 934 934 934 930 930 923 923 923 923 923 923 923 923 923 925 927 928 929 932 934 936 938 940 941 942 948 962 971 977 981 986 988 989 992 994 995 997 998 999 1000 1001 1002 1003 1004 1005 1006 1007 1008 1009 1009 1010 1011 1012 1012 1012 1012 1012 1011 1010 1008 1007 1004 1000 995 989 979 969 966 966 966 965 965 964 964 964 963 963 963 964 965 965 967 968 969 973 976 980 983 987 990 1000 1005 1007 1016 1030 1041 1046 1048 1050 1052 1054 1056 1058 1058 1059 1060 1061 1062 1062 1063 1064 1064 1066 1067 1068 1072 1072 1072 1073 1079 0 0 0 0 1390 1402 1415 1423 1430 1435 1435 1435 1438 1442 1443 1443 1443 1443 1441 1441 1441 1443 1447 1452 1454 1455 1457 1458 1459 1463 1466 1472 1476 1478 1479 1481 1484 1486 1489 1492 1494 1499 1501 1504 1508 1508 1508 1506 1504 1500 1496 1494 1493 1489 1485 1483 1480 1479 1477 1473 1468 1463 1454 1443 1439 1439 1439 1442 1442 1442 1438 1433 1432 1430 1427 1425 1422 1420 1417 1416 1415 1415 1414 1412 1411 1411 1410 1410 1409 1409 1408 1408 1408 1408 1408 1408 1408 1407 1406 1404 1401 1396 1396 1396 1396 1396 1396 1396 1395 1394 1392 1392 1392 1392 1392 1392 1392 1390 1386 1382 1378 1375 1373 1371 1370 1368 1366 1364 1362 1360 1360 1359 1359 1359 1357 1355 1352 1351 1351 1348 1342 1335 1332 1324 1322 1322 1320 1314 1304 1290 1279 1278 1278 1277 1277 1275 1270 1263 1258 1257 1257 1256 1256 1254 1252 1250 1247 1244 1235 1229 1226 1224 1224 1223 1222 1218 1213 1203 1198 1194 1191 1185 1181 1175 1173 1164 1155 1146 1138 1121 1105 1096 1094 1092 1085 1073 1054 1041 1032 1023 1014 1013 1010 1009 1006 999 984 964 948 929 0 0 0
369 369 374 375 376 377 378 379 381 387 393 400 403 408 417 428 431 446 461 475 488 499 514 525 533 550 552 0 0 0 0 0 0 0 0 0 508 508 518 528 528 529 530 530 539 548 549 561 573 584 597 611 624 632 640 650 0 0 0 0 0 0 0 0 0 0 0 0 0 0 0 0 0 0 0 0 0 0 0 0 0 0 0 0 1234 1231 1226 1207 1160 0 0 0 0 0 0 0 0 0 0 0 0 0 0 0 0 0 0 0 0 0 0 0 0 0 0 0 0 0 0 0 0 0 0 0 0 0 0 0 0 805 806 806 808 808 808 808 808 808 808 808 807 807 809 809 809 809 812 813 815 815 818 818 818 0 0 0 0 0 0 0 0 0 0 0 0 0 0 0 0 0 0 0 0 0 0 825 825 819 818 818 818 822 826 826 826 826 827 827 827 828 830 830 831 831 831 831 832 833 833 834 835 836 837 838 840 842 844 845 847 849 852 855 855 858 861 866 872 872 0 0 0 0 0 0 0 0 0 0 0 0 0 0 0 0 0 0 0 0 0 0 0 0 0 0 0 0 0 0 0 0 0 0 0 0 0 0 0 0 0 0 912 912 899 899 899 899 900 900 900 901 902 902 903 904 907 907 907 908 908 907 907 907 907 909 911 912 914 914 914 915 915 916 917 917 920 920 929 945 950 953 953 954 953 953 952 943 942 942 943 943 942 942 935 934 933 931 927 925 925 925 928 928 929 929 931 932 935 937 938 940 941 944 954 969 974 977 983 986 988 990 992 994 995 997 998 999 1000 1001 1002 1003 1004 1005 1006 1007 1008 1009 1009 1010 1011 1011 1011 1011 1011 1011 1009 1009 1008 1006 1003 999 995 986 977 969 966 966 966 965 964 964 963 963 962 962 962 962 964 964 965 968 969 973 976 979 983 987 990 1000 1006 1008 1019 1031 1041 1046 1048 1051 1052 1054 1056 1058 1059 1059 1060 1061 1062 1062 1063 1064 1064 1066 1067 1068 1069 1071 1072 1072 1080 0 0 0 0 1399 1412 1417 1423 1429 1430 1430 1430 1433 1437 1440 1441 1441 1441 1440 1440 1440 1442 1446 1450 1454 1455 1457 1458 1459 1463 1469 1475 1478 1480 1480 1482 1484 1487 1490 1492 1494 1498 1499 1501 1504 1504 1504 1503 1501 1495 1491 1489 1487 1484 1480 1476 1472 1472 1469 1464 1460 1455 1446 1439 1437 1437 1437 1437 1437 1435 1433 1428 1426 1423 1421 1420 1418 1417 1414 1412 1412 1412 1411 1411 1409 1409 1408 1408 1408 1407 1407 1407 1407 1407 1407 1407 1407 1407 1406 1404 1401 1396 1396 1396 1396 1396 1396 1396 1395 1394 1392 1392 1392 1392 1392 1392 1392 1392 1388 1384 1380 1376 1374 1373 1372 1371 1369 1366 1363 1361 1360 1360 1359 1359 1357 1355 1352 1351 1351 1348 1342 1335 1332 1324 1322 1322 1320 1314 1303 1290 1279 1278 1278 1277 1277 1275 1270 1264 1260 1259 1258 1258 1257 1256 1253 1253 1249 1244 1235 1229 1226 1225 1224 1223 1222 1218 1213 1207 1202 1195 1191 1185 1181 1175 1173 1164 1155 1148 1139 1124 1111 1101 1100 1100 1094 1076 1054 1047 1030 1019 1013 1013 1010 1009 1006 997 982 959 936 929 0 0 0
380 380 383 383 383 382 381 381 381 387 390 395 395 399 409 423 426 442 456 467 479 498 514 525 533 550 564 577 593 0 0 0 0 0 0 0 0 0 0 532 532 530 530 530 539 543 544 552 560 571 586 609 624 632 636 642 653 670 0 0 0 0 0 0 0 0 0 0 0 0 0 0 0 0 0 0 0 0 0 0 0 0 0 0 0 0 0 0 0 0 0 0 0 0 0 0 0 0 0 0 0 0 0 0 0 0 0 0 0 0 0 0 0 0 0 0 0 0 0 0 0 0 0 0 0 0 0 0 804 805 806 806 808 808 808 808 808 807 807 808 807 807 809 809 809 809 810 813 813 813 815 818 818 815 816 816 0 0 0 0 0 0 0 0 0 0 0 0 0 0 0 0 0 0 0 834 825 819 819 819 820 822 825 826 826 826 826 827 827 828 829 830 831 831 832 832 833 833 833 834 835 836 837 838 841 843 845 848 849 850 853 855 855 859 867 870 877 0 0 0 0 0 0 0 0 0 0 0 0 0 0 0 0 0 0 0 0 0 0 0 0 0 0 0 0 0 0 0 0 0 0 0 0 0 0 0 0 0 0 0 912 912 897 897 897 898 898 899 900 901 901 901 902 904 905 905 907 907 907 907 907 907 907 909 912 912 914 914 914 915 915 916 917 918 920 920 929 945 950 0 0 0 0 0 952 943 943 943 949 950 950 950 949 949 948 948 943 936 934 932 931 931 931 931 933 935 936 937 939 940 943 948 962 973 974 980 983 987 988 990 992 994 995 997 998 999 1000 1001 1002 1003 1004 1005 1006 1007 1008 1009 1009 1010 1010 1011 1011 1011 1011 1009 1009 1008 1008 1006 1003 998 993 986 974 968 966 966 965 963 963 961 961 961 961 961 962 962 964 964 965 968 969 973 976 979 982 984 990 1000 1007 1012 1022 1034 1041 1046 1048 1051 1053 1055 1056 1058 1059 1059 1060 1061 1062 1062 1063 1064 1064 1065 1067 1068 1068 1068 1069 1072 0 0 0 0 0 1406 1413 1417 1423 1423 1423 1424 1425 1429 1431 1435 1439 1440 1440 1440 1440 1440 1442 1445 1450 1454 1456 1457 1461 1465 1469 1474 1480 1483 1486 1488 1488 1488 1489 1490 1492 1493 1496 1497 1498 1499 1499 1499 1499 1494 1491 1489 1487 1483 1478 1473 1469 1466 1464 1463 1459 1452 1449 1441 1437 1436 1434 1434 1434 1430 1428 1426 1424 1422 1418 1417 1415 1414 1412 1411 1411 1410 1409 1408 1408 1408 1408 1408 1407 1407 1407 1407 1407 1407 1407 1407 1407 1407 1407 1407 1406 1401 1397 1396 1396 1396 1396 1396 1396 1395 1393 1392 1391 1391 1391 1392 1392 1392 1392 1390 1387 1382 1378 1375 1374 1374 1373 1371 1368 1365 1362 1360 1360 1359 1359 1357 1355 1352 1351 1351 1346 1339 1331 1327 1323 1322 1322 1320 1314 1303 1290 1279 1279 1279 1279 1279 1279 1274 1270 1266 1262 1262 1261 1261 1260 1259 1256 1252 1247 1237 1229 1226 1225 1225 1225 1225 1225 1222 1215 1206 1195 1191 1185 1181 1175 1173 1164 1155 1148 1139 1132 1124 1112 1105 1102 1095 1077 1054 1047 1028 1014 1012 1012 1011 1009 1006 992 975 952 936 929 0 0 0
393 393 397 397 397 395 386 386 386 387 390 391 392 397 406 423 426 442 456 467 479 498 509 511 527 550 564 577 593 599 620 621 621 0 0 0 0 0 0 0 0 0 0 539 539 543 544 552 554 558 573 594 614 621 622 629 642 658 670 675 0 0 0 0 0 0 0 0 0 0 0 0 0 0 0 0 0 0 0 0 0 0 0 0 0 0 0 0 0 0 0 0 0 0 0 0 0 0 0 0 0 0 0 0 0 0 0 0 0 0 0 0 0 0 0 0 0 0 0 0 0 0 0 0 0 0 0 0 804 805 806 806 807 808 808 808 808 808 809 809 809 810 810 810 809 809 809 809 809 810 810 811 811 815 816 816 816 818 818 0 0 0 0 0 0 0 0 0 0 0 0 0 0 0 0 834 825 824 821 821 821 822 825 825 825 825 825 825 827 828 829 829 831 831 832 832 833 833 833 834 834 836 837 838 841 844 846 848 850 852 853 854 855 859 869 871 871 0 0 0 0 0 0 0 0 0 0 0 0 0 0 0 0 0 0 0 0 0 0 0 0 0 0 0 0 0 0 0 0 0 0 0 0 0 0 0 0 0 0 0 904 899 896 896 896 897 898 898 900 900 900 900 901 902 904 905 905 905 905 905 905 905 907 909 912 912 914 914 914 914 915 915 916 918 920 920 929 948 0 0 0 0 0 0 0 0 0 0 0 950 950 954 954 954 953 952 949 941 940 939 937 935 935 936 936 936 936 937 939 942 946 951 963 973 978 982 985 987 988 990 992 994 995 997 998 999 1000 1001 1002 1003 1004 1005 1006 1007 1008 1009 1009 1010 1010 1011 1011 1011 1010 1009 1009 1007 1006 1005 1002 998 993 983 973 968 966 965 963 962 960 960 960 960 961 961 962 962 964 965 967 969 971 973 976 979 982 984 988 998 1007 1013 1025 1035 1042 1046 1048 1051 1053 1055 1056 1057 1059 1059 1060 1061 1061 1062 1063 1063 1064 1065 1066 1067 1067 1068 1069 1072 0 0 0 0 1397 1407 1413 1418 1423 1423 1423 1424 1425 1429 1430 1433 1437 1440 1440 1440 1440 1441 1442 1445 1450 1454 1459 1461 1466 1473 1477 1481 1484 1485 1487 1488 1488 1488 1489 1490 1491 1492 1495 1495 1495 1496 1496 1496 1495 1493 1490 1488 1485 1480 1474 1468 1463 1457 1455 1452 1448 1444 1438 1436 1435 1433 1432 1431 1428 1424 1422 1421 1420 1420 1418 1414 1412 1411 1410 1409 1409 1408 1407 1407 1407 1407 1407 1407 1407 1407 1407 1407 1406 1406 1406 1406 1406 1407 1407 1407 1406 1404 1403 1400 1396 1394 1394 1394 1394 1394 1393 1392 1391 1391 1391 1392 1392 1392 1392 1390 1387 1384 1380 1376 1376 1375 1375 1374 1372 1366 1363 1360 1359 1357 1354 1352 1349 1349 1347 1347 1342 1336 1328 1324 1319 1319 1318 1312 1302 1298 1290 1286 1286 1285 1284 1284 1281 1278 1274 1270 1268 1264 1263 1263 1263 1261 1256 1253 1249 1240 1235 1233 1233 1233 1232 1232 1229 1229 1220 1208 1198 1187 1180 1176 1175 1173 1164 1151 1148 1139 1132 1124 1117 1110 1106 1095 1077 1054 1048 1028 1014 1013 1012 1011 1009 1004 992 975 952 936 929 925 916 0
400 400 402 402 402 401 401 392 391 391 391 391 392 397 406 423 426 442 456 467 479 498 509 511 527 531 553 577 593 599 620 621 624 634 642 0 0 0 0 0 0 0 0 0 0 552 552 552 554 558 570 589 607 611 614 615 631 646 656 658 660 661 662 671 681 0 0 0 0 0 0 0 0 0 0 0 0 0 0 0 0 0 0 0 0 0 0 0 0 0 0 0 0 0 0 0 0 0 0 0 0 0 0 0 0 0 0 0 0 0 0 0 0 0 0 0 0 0 0 0 0 0 0 0 0 0 0 0 806 806 806 806 807 807 807 807 807 808 809 809 810 810 810 810 809 809 808 808 808 808 808 810 810 814 814 815 816 818 818 818 814 814 813 811 0 0 0 0 0 0 0 0 0 0 0 834 828 825 825 823 823 823 825 825 825 825 825 825 827 828 829 829 831 831 832 832 834 835 835 835 835 835 836 838 841 845 846 849 850 852 853 853 853 860 870 873 873 0 0 0 0 0 0 0 0 0 0 0 0 0 0 0 0 0 0 0 0 0 0 0 0 0 0 0 0 0 0 0 0 0 0 0 0 0 0 0 0 0 0 909 897 894 894 894 895 896 898 898 898 898 898 899 900 900 902 903 903 903 904 904 904 905 907 909 911 912 912 913 914 914 915 915 916 918 919 920 933 933 0 0 0 0 0 0 0 0 0 0 0 0 0 0 959 959 959 959 954 954 953 953 953 951 946 943 941 940 940 940 940 943 948 955 964 973 979 982 985 988 989 990 992 994 995 997 998 999 1000 1001 1002 1003 1004 1005 1006 1007 1008 1008 1009 1010 1010 1010 1010 1010 1010 1009 1008 1007 1005 1003 999 996 990 983 973 968 966 964 962 961 960 960 960 960 961 962 963 964 966 967 969 970 971 974 977 979 982 984 988 997 1007 1014 1029 1037 1042 1047 1048 1051 1053 1055 1056 1057 1059 1059 1060 1061 1061 1062 1063 1063 1064 1065 1066 1066 1066 1068 1069 1072 0 0 0 0 1397 1408 1413 1419 1423 1423 1423 1424 1425 1428 1430 1433 1434 1438 1438 1440 1441 1441 1443 1445 1450 1457 1459 1470 1476 1478 1480 1482 1485 1486 1487 1488 1488 1488 1489 1490 1491 1491 1491 1489 1487 1487 1487 1491 1491 1491 1487 1485 1484 1479 1471 1463 1460 1454 1448 1441 1435 1433 1432 1431 1430 1427 1424 1422 1421 1418 1417 1417 1416 1416 1415 1412 1410 1409 1408 1407 1407 1406 1406 1406 1406 1406 1407 1407 1407 1407 1406 1406 1406 1406 1405 1404 1404 1404 1406 1406 1406 1406 1405 1401 1396 1392 1391 1391 1391 1391 1391 1391 1389 1389 1389 1390 1391 1391 1391 1390 1388 1384 1381 1378 1377 1377 1377 1377 1374 1369 1364 1361 1359 1355 1352 1348 1346 1344 1343 1341 1338 1332 1328 1324 1319 1317 1317 1312 1302 1298 1295 1294 1294 1292 1288 1286 1281 1278 1276 1275 1272 1269 1265 1265 1264 1261 1256 1253 1249 1244 1238 1238 1238 1238 1238 1232 1229 1229 1223 1211 1198 1187 1180 1176 1175 1173 1164 1151 1148 1143 1135 1126 1120 1113 1107 1095 1077 1054 1048 1028 1014 1013 1011 1009 1009 1004 984 975 952 944 943 943 943 0
402 402 404 404 404 404 404 404 404 402 398 397 397 397 406 425 440 443 459 476 497 505 509 511 527 531 544 546 568 599 620 621 624 634 642 652 0 0 0 0 0 0 0 0 0 0 0 0 0 558 570 589 607 611 614 615 621 634 642 642 645 650 662 670 675 684 0 0 0 0 0 0 0 0 0 0 0 0 0 0 0 0 0 0 0 0 0 0 0 0 0 0 0 0 0 0 0 0 0 0 0 0 0 0 0 0 0 0 0 0 0 0 0 0 0 0 0 0 0 0 0 0 0 0 0 0 0 0 807 807 807 806 807 807 807 807 807 809 809 809 809 809 809 809 809 808 808 808 807 807 807 809 810 813 814 814 815 815 815 815 814 814 813 812 814 815 815 0 0 0 0 0 0 0 0 0 837 834 832 832 827 826 826 826 825 825 825 825 827 827 828 829 831 832 832 832 835 836 836 836 836 836 836 838 841 845 847 850 850 852 852 852 853 860 870 877 0 0 0 0 0 0 0 0 0 0 0 0 0 0 0 0 0 0 0 0 0 0 0 0 0 0 0 0 0 0 0 0 0 0 0 0 0 0 0 0 0 0 907 907 894 892 892 892 894 895 895 896 896 896 897 898 898 900 901 901 902 903 903 904 904 905 907 909 911 911 911 913 914 914 915 915 916 919 919 927 935 935 0 0 0 0 0 0 0 0 0 0 0 0 0 0 961 965 965 965 964 964 963 960 959 957 955 954 953 952 949 947 950 950 950 958 965 971 979 982 985 988 989 990 992 994 995 997 997 998 1000 1001 1002 1003 1004 1005 1006 1007 1008 1008 1009 1009 1010 1010 1010 1010 1009 1009 1008 1007 1004 1002 998 995 987 979 970 968 965 964 962 961 960 960 960 960 961 963 965 967 968 969 970 970 972 974 977 979 983 985 988 997 1007 1019 1029 1037 1043 1047 1048 1052 1053 1055 1056 1057 1059 1059 1060 1060 1061 1062 1062 1063 1064 1065 1066 1067 1067 1068 1070 1072 0 0 0 0 1401 1409 1416 1419 1423 1423 1423 1423 1426 1428 1430 1431 1434 1438 1440 1442 1444 1446 1447 1449 1453 1464 1466 1475 1479 1480 1482 1483 1485 1487 1488 1488 1488 1488 1488 1489 1489 1489 1487 1484 1482 1480 1479 1479 1478 1473 1470 1469 1464 1461 1461 1459 1455 1449 1436 1431 1429 1428 1424 1423 1421 1419 1415 1414 1413 1413 1412 1412 1411 1411 1410 1409 1408 1407 1407 1406 1405 1404 1404 1404 1404 1404 1405 1405 1405 1405 1405 1404 1404 1404 1403 1402 1402 1402 1405 1407 1407 1407 1406 1401 1396 1392 1391 1391 1390 1390 1390 1389 1389 1388 1388 1388 1388 1389 1389 1389 1388 1386 1383 1380 1379 1378 1378 1377 1374 1369 1364 1361 1359 1355 1352 1348 1346 1344 1342 1340 1335 1331 1327 1322 1318 1317 1313 1311 1302 1298 1298 1298 1298 1296 1294 1288 1282 1280 1279 1278 1277 1273 1269 1267 1264 1261 1257 1253 1250 1246 1239 1239 1238 1238 1238 1232 1229 1229 1224 1217 1207 1187 1180 1176 1176 1175 1166 1151 1148 1143 1135 1129 1124 1117 1108 1095 1081 1065 1059 1045 1032 1030 1018 1008 996 984 980 976 968 967 967 967 968 0
405 406 406 406 405 407 407 407 409 409 409 406 406 406 414 428 442 445 460 476 0 0 0 0 0 544 544 546 568 578 591 592 618 634 642 652 0 0 0 0 0 0 0 0 0 0 0 0 0 0 0 0 607 611 614 615 621 627 628 630 638 649 659 669 674 679 680 683 0 0 0 0 0 0 0 0 0 0 0 0 0 0 0 0 0 0 0 0 0 0 0 0 0 0 0 0 0 0 0 0 0 0 0 0 0 0 0 0 0 0 0 0 0 0 0 0 0 0 0 0 0 0 0 0 0 0 0 813 806 806 806 806 807 807 807 807 807 809 809 809 809 809 809 809 809 808 808 808 807 807 807 809 811 813 814 814 814 814 813 812 812 812 812 812 813 814 816 824 825 832 0 0 0 0 0 0 0 0 832 832 827 827 827 827 827 827 827 827 827 827 828 829 832 833 833 833 836 839 839 839 836 836 836 838 842 847 849 850 850 852 852 852 853 860 869 869 0 0 0 0 0 0 0 0 0 0 0 0 0 0 0 0 0 0 0 0 0 0 0 0 0 0 0 0 0 0 0 0 0 0 0 0 0 0 0 0 0 0 905 905 894 892 891 891 892 894 894 895 895 895 896 897 897 899 900 900 901 902 903 904 904 905 907 908 909 910 911 913 914 914 914 915 917 919 919 931 935 935 0 0 0 0 0 0 0 0 0 0 0 0 0 0 0 966 966 969 969 969 966 964 964 964 964 964 963 964 964 961 961 961 961 961 965 971 979 982 984 988 988 990 992 993 994 995 997 997 1000 1001 1001 1002 1003 1004 1005 1007 1008 1008 1009 1009 1010 1010 1010 1010 1009 1008 1007 1006 1004 1001 997 993 986 976 970 967 966 964 962 961 960 960 960 960 962 964 966 967 968 969 970 970 972 974 977 981 984 988 990 997 1007 1019 1030 1037 1044 1048 1050 1052 1054 1055 1056 1057 1058 1060 1060 1060 1061 1062 1062 1063 1064 1065 1066 1067 1067 1071 1071 0 0 0 0 0 1403 1413 1418 1422 1423 1423 1423 1423 1426 1429 1430 1431 1434 1438 1441 1446 1449 1452 1455 1457 1465 1467 1474 1479 1482 1482 1483 1484 1485 1487 1487 1487 1487 1486 1486 1486 1486 1485 1481 1477 1474 1472 1470 1469 1465 1459 1455 1450 1444 1438 1436 1432 1429 1425 1425 1424 1422 1419 1418 1415 1406 1406 1406 1407 1407 1407 1407 1407 1407 1407 1407 1406 1406 1405 1404 1403 1402 1402 1402 1402 1403 1403 1404 1404 1404 1404 1404 1404 1403 1402 1402 1402 1402 1402 1405 1407 1407 1407 1406 1402 1396 1392 1391 1391 1390 1390 1390 1389 1389 1388 1388 1388 1388 1389 1389 1389 1388 1388 1387 1383 1381 1379 1379 1378 1374 1369 1364 1361 1359 1355 1352 1348 1346 1344 1341 1337 1332 1326 1323 1318 1314 1312 1311 1311 1304 1301 1301 1299 1298 1298 1296 1294 1289 1286 1284 1283 1282 1278 1270 1268 1264 1261 1257 1253 1251 1249 1241 1241 1239 1238 1238 1232 1228 1228 1225 1224 1221 1211 1208 1196 1191 1185 1178 1164 1152 1143 1135 1133 1129 1122 1108 1095 1081 1076 1071 1059 1045 1030 1018 1005 985 980 979 978 976 970 970 968 970 0
416 416 410 410 410 410 411 414 415 422 423 423 423 423 423 429 443 445 460 476 0 0 0 0 0 0 0 0 0 578 591 592 606 610 630 652 679 0 0 0 0 0 0 0 0 0 0 0 0 0 0 0 0 0 622 622 622 627 628 630 638 645 659 665 671 678 679 679 681 687 700 0 0 0 0 0 0 0 0 0 0 0 0 0 0 0 0 0 0 0 0 0 0 0 0 0 0 0 0 0 0 0 0 0 0 0 0 0 0 0 0 0 0 0 0 0 0 0 0 0 0 0 0 0 0 0 807 807 806 806 806 806 806 806 806 806 806 808 808 808 808 809 809 809 809 809 809 809 807 807 807 810 812 813 814 814 814 813 812 811 811 811 811 812 813 814 816 819 825 832 838 0 0 0 0 0 0 0 0 0 0 0 0 828 829 829 829 830 829 829 830 831 834 834 836 836 836 839 839 839 838 838 838 840 845 848 850 850 850 850 850 851 852 860 869 869 0 0 0 0 0 0 0 0 0 0 0 0 0 0 0 0 0 0 0 0 0 0 0 0 0 0 0 0 0 0 0 0 0 0 0 0 0 0 0 0 0 0 904 904 896 892 891 891 891 891 891 894 894 895 895 896 897 898 899 899 901 902 903 904 904 905 906 908 908 909 911 912 913 914 914 915 919 922 925 931 937 937 0 0 0 0 0 0 0 0 0 0 0 0 0 0 0 0 0 970 970 971 972 972 970 970 970 970 971 971 971 971 971 969 965 965 965 971 978 982 983 986 987 989 990 992 993 994 995 996 998 999 1000 1001 1003 1004 1005 1006 1007 1007 1008 1009 1009 1009 1009 1009 1009 1008 1007 1006 1003 1001 996 990 983 975 969 967 965 964 962 961 960 960 960 960 962 964 966 967 969 969 970 971 973 975 979 982 986 989 991 997 1008 1025 1033 1039 1044 1048 1050 1052 1054 1055 1056 1057 1058 1059 1060 1060 1061 1061 1062 1063 1064 1065 1066 1066 1066 1071 1071 0 0 0 0 1392 1410 1418 1420 1422 1424 1424 1424 1424 1426 1428 1430 1431 1435 1442 1448 1452 1456 1460 1464 1470 1475 1477 1482 1484 1485 1485 1485 1485 1485 1487 1487 1487 1487 1484 1484 1483 1481 1481 1474 1472 1470 1469 1469 1467 1460 1455 1449 1441 1434 1428 1423 1419 1409 1409 1409 1409 1411 1411 1411 1405 1399 1399 1399 1403 1404 1404 1404 1405 1405 1405 1405 1405 1404 1404 1403 1401 1401 1401 1401 1401 1402 1402 1402 1403 1403 1404 1404 1404 1403 1402 1402 1402 1402 1402 1405 1407 1407 1407 1406 1403 1397 1394 1393 1393 1393 1392 1390 1389 1389 1389 1388 1388 1388 1389 1389 1389 1389 1388 1387 1385 1384 1381 1379 1378 1374 1370 1365 1363 1359 1356 1354 1352 1347 1344 1341 1337 1332 1326 1323 1318 1314 1312 1311 1311 1308 1304 1304 1300 1300 1300 1300 1300 1298 1294 1292 1292 1291 1280 1273 1269 1265 1262 1257 1253 1252 1249 1244 1242 1240 1240 1239 1232 1228 1228 1228 1228 1232 1232 1232 1213 1203 1196 1185 1172 1163 1157 1151 1145 1138 1129 1108 1091 1082 1077 1071 1064 1045 1032 1024 1005 985 980 979 978 975 974 974 968 974 0
0 0 0 0 0 0 0 0 0 0 440 440 440 439 439 439 447 449 460 476 0 0 0 0 0 0 0 0 0 0 0 592 606 607 610 616 0 0 0 0 0 0 0 0 0 0 0 0 0 0 0 0 0 0 0 0 0 629 629 630 638 645 646 657 663 667 668 673 680 681 683 692 710 726 0 0 0 0 0 0 0 0 0 0 0 0 0 0 0 0 0 0 0 0 0 0 0 0 0 0 0 0 0 0 0 0 0 0 0 0 0 0 0 0 0 0 0 0 0 0 0 0 0 0 0 0 803 803 803 803 805 805 805 805 805 805 806 806 807 807 807 808 809 809 809 809 809 809 809 809 810 811 812 812 813 813 812 812 812 811 811 811 811 813 814 815 817 819 825 830 837 0 0 0 0 0 0 0 0 0 0 0 0 0 0 0 829 830 830 830 831 834 837 837 837 837 837 838 838 838 838 838 838 842 846 850 850 850 849 849 849 851 854 861 871 0 0 0 0 0 0 0 0 0 0 0 0 0 0 0 0 0 0 0 0 0 0 0 0 0 0 0 0 0 0 0 0 0 0 0 0 0 0 0 0 0 0 0 901 901 897 895 895 893 891 891 891 893 894 894 895 896 897 898 898 899 900 901 902 904 904 905 905 906 907 909 910 911 911 912 913 915 919 922 925 933 943 0 0 0 0 0 0 0 0 0 0 0 0 0 0 0 0 0 0 970 972 974 975 975 975 971 971 971 974 974 974 974 974 974 972 971 971 972 975 981 983 984 985 987 988 989 990 992 994 996 997 998 1000 1001 1001 1002 1004 1005 1006 1007 1008 1008 1009 1009 1009 1009 1008 1008 1006 1005 1003 1000 995 987 979 972 969 967 965 964 962 961 960 960 960 961 962 965 966 968 969 970 971 972 974 978 981 984 987 991 994 998 1012 1027 1034 1040 1044 1048 1050 1052 1054 1055 1056 1057 1059 1059 1060 1060 1060 1061 1062 1063 1064 1065 1066 1066 1066 1071 1071 0 0 0 0 1399 1412 1420 1423 1423 1424 1424 1424 1425 1426 1428 1431 1433 1438 1444 1448 1452 1457 1462 1466 1471 1475 1478 1482 1484 1485 1485 1485 1485 1486 1486 1486 1486 1485 1481 1481 1479 1478 1477 1471 1468 1467 1467 1466 1462 1455 1451 1444 1435 1428 1421 1416 1412 1404 1401 1401 1401 1402 1402 1402 1401 1397 1397 1397 1401 1402 1402 1402 1404 1405 1405 1405 1404 1404 1403 1402 1401 1401 1401 1401 1401 1401 1401 1402 1402 1403 1404 1404 1404 1403 1402 1402 1402 1403 1405 1408 1409 1409 1409 1407 1403 1400 1397 1396 1395 1394 1392 1392 1390 1390 1389 1388 1388 1388 1389 1389 1389 1389 1389 1387 1385 1384 1383 1383 1378 1374 1370 1365 1363 1360 1358 1357 1355 1352 1344 1341 1337 1332 1326 1323 1318 1314 1313 1313 1313 1313 1313 1309 1302 1302 1302 1302 1302 1300 1294 1294 1293 1293 1288 1273 1270 1268 1266 1265 1258 1256 1253 1250 1246 1244 1242 1239 1232 1229 1229 1229 1231 1236 1236 1236 1225 1210 1202 1190 1176 1163 1163 1162 1157 1149 1133 1108 1091 1086 1078 1073 1065 1047 1037 1026 1005 985 980 979 978 978 978 977 977 977 0
0 0 0 0 0 0 0 0 0 0 0 0 0 454 454 454 454 456 460 0 0 0 0 0 0 0 0 0 0 0 0 0 0 0 0 0 0 0 0 0 0 0 0 0 0 0 0 0 0 0 0 0 0 0 0 0 0 0 0 648 646 645 645 646 646 649 649 661 668 669 669 673 685 708 720 726 732 0 0 0 0 0 0 0 0 0 0 0 0 0 0 0 0 0 0 0 0 0 0 0 0 0 0 0 0 0 0 0 0 0 0 0 0 0 0 0 0 0 0 0 0 0 0 0 0 0 800 801 801 801 802 804 804 804 804 804 804 805 806 806 807 807 807 808 809 809 809 810 810 810 810 811 812 812 812 813 813 813 812 812 812 812 813 814 814 815 819 819 825 830 830 0 0 0 0 0 0 0 0 0 0 0 0 0 0 0 0 0 0 827 828 838 838 838 838 838 838 838 838 838 838 838 839 844 847 848 848 848 847 847 847 850 854 865 865 0 0 0 0 0 0 0 0 0 0 0 0 0 0 0 0 0 0 0 0 0 0 0 0 0 0 0 0 0 0 0 0 0 0 0 0 0 0 0 0 0 0 0 897 897 897 895 895 893 891 891 891 893 894 894 895 896 897 897 898 899 899 900 901 902 903 903 904 905 906 907 908 908 908 909 909 910 919 922 925 934 934 0 0 0 0 0 0 0 0 0 0 0 0 0 0 0 0 0 0 970 972 976 978 978 978 975 975 975 975 975 975 975 976 976 975 974 975 975 975 979 981 981 982 984 987 987 989 990 993 994 996 997 998 998 1000 1001 1002 1004 1005 1006 1007 1007 1008 1008 1008 1008 1008 1007 1006 1003 999 997 991 983 976 972 969 967 966 964 963 962 962 962 962 962 963 965 967 968 969 970 971 974 977 980 983 986 990 992 996 1003 1015 1029 1035 1040 1046 1047 1050 1052 1054 1055 1056 1057 1059 1059 1059 1060 1060 1061 1061 1063 1064 1064 1065 1065 1066 1067 1067 0 0 0 0 1399 1412 1420 1423 1423 1424 1424 1424 1425 1427 1430 1433 1438 1441 1445 1450 1453 1457 1464 1468 1471 1475 1478 1482 1484 1485 1485 1485 1485 1485 1484 1484 1484 1482 1479 1477 1477 1476 1473 1470 1465 1461 1461 1460 1458 1453 1445 1437 1430 1425 1419 1414 1409 1402 1397 1396 1396 1396 1397 1397 1397 1397 1397 1397 1399 1401 1401 1401 1402 1403 1404 1404 1404 1402 1402 1401 1401 1401 1400 1400 1400 1401 1401 1402 1402 1403 1406 1406 1406 1404 1404 1404 1404 1405 1408 1411 1411 1411 1409 1407 1405 1403 1401 1398 1397 1395 1393 1392 1392 1390 1390 1390 1390 1389 1390 1389 1389 1389 1389 1388 1385 1385 1385 1384 1384 1381 1375 1368 1364 1363 1361 1358 1355 1353 1351 1344 1339 1334 1328 1326 1322 1319 1319 1319 1319 1319 1319 1315 1303 1303 1303 1303 1303 1300 1294 1294 1293 1293 1292 1287 1281 1278 1277 1273 1270 1265 1262 1260 1257 1253 1249 1246 1241 1236 1236 1236 1238 1238 1238 1237 1231 1222 1213 1200 1181 1163 1163 1162 1157 1150 1135 1108 1091 1086 1081 1076 1067 1051 1038 1026 1018 1014 985 985 980 980 977 977 977 977 0
0 0 0 0 0 0 0 0 0 0 0 0 0 0 0 0 0 0 0 0 0 0 0 0 0 0 0 0 0 0 0 0 0 0 0 0 607 607 607 0 0 0 0 0 0 0 0 0 0 0 0 0 0 0 0 0 0 0 0 0 0 649 646 646 646 649 649 649 649 649 649 655 669 698 709 713 714 722 0 0 0 0 0 0 0 0 0 0 0 0 0 0 0 0 0 0 0 0 0 0 0 0 0 0 0 0 0 0 0 0 0 0 0 0 0 0 0 0 0 0 0 0 0 0 0 0 799 799 799 801 801 802 802 803 803 803 804 805 805 806 806 807 807 808 808 809 809 810 810 810 810 812 812 812 812 813 813 813 813 813 813 813 813 815 815 816 819 822 827 830 830 0 0 0 0 0 0 0 0 0 0 0 0 0 0 0 0 0 0 0 0 0 838 838 841 840 838 838 840 840 840 842 845 845 848 848 848 848 846 846 846 850 855 865 865 0 0 0 0 0 0 0 0 0 0 0 0 0 0 0 0 0 0 0 0 0 0 0 0 0 0 0 0 0 0 0 0 0 0 0 0 0 0 0 0 0 0 0 895 897 895 895 895 893 892 892 892 893 894 894 894 895 896 897 897 898 898 900 901 902 902 902 904 905 906 906 907 907 908 908 908 909 916 924 929 938 938 0 0 0 0 0 0 0 0 0 0 0 0 0 0 0 0 0 0 0 972 976 978 978 978 975 975 975 975 976 976 976 976 976 975 975 975 975 975 976 977 978 978 979 982 984 988 988 990 992 994 996 997 997 999 999 1001 1002 1004 1006 1006 1007 1008 1008 1008 1008 1008 1006 1004 1001 998 994 989 983 976 972 969 967 966 965 965 964 964 963 963 964 965 966 967 969 971 972 974 976 978 981 984 988 991 994 998 1004 1016 1030 1037 1041 1046 1047 1050 1052 1054 1055 1057 1057 1058 1059 1060 1060 1060 1060 1061 1063 1063 1063 1064 1064 1065 1067 0 0 0 0 0 1401 1412 1420 1423 1423 1428 1429 1429 1429 1429 1430 1433 1440 1445 1448 1450 1454 1459 1464 1468 1471 1475 1478 1481 1483 1484 1485 1485 1485 1485 1482 1480 1480 1477 1476 1473 1472 1472 1471 1469 1462 1456 1449 1442 1439 1439 1436 1431 1425 1420 1416 1410 1405 1399 1394 1393 1393 1393 1393 1395 1395 1395 1396 1396 1398 1400 1400 1400 1401 1401 1402 1402 1402 1401 1401 1401 1401 1400 1400 1400 1400 1400 1401 1402 1403 1405 1407 1407 1407 1407 1407 1407 1407 1407 1411 1413 1413 1413 1411 1408 1407 1405 1404 1401 1398 1397 1395 1394 1392 1391 1391 1391 1391 1391 1391 1391 1390 1390 1390 1388 1385 1385 1385 1387 1387 1387 1382 1378 1373 1371 1368 1362 1355 1355 1354 1354 1349 1341 1334 1331 1326 1323 1323 1323 1323 1323 1322 1320 1310 1306 1305 1305 1304 1300 1297 1294 1293 1293 1292 1290 1289 1286 1282 1275 1270 1269 1268 1266 1266 1263 1257 1253 1248 1245 1243 1243 1242 1242 1242 1240 1237 1228 1217 1202 1182 1164 1164 1162 1158 1150 1135 1112 1101 1098 1090 1085 1077 1070 1055 1036 1036 1034 1031 1025 980 980 980 981 981 997 0
