537 537 550 569 587 589 607 627 651 677 696 718 739 765 792 823 856 887 891 0 0 0 1031 1066 1095 1117 1137 1155 1172 1192 1214 1238 1242 1262 1287 1319 1355 1385 1404 1422 1433 1448 1469 1493 1516 1537 1560 1582 1588 1607 1631 1652 1665 1676 1686 1698 1710 1724 1742 1760 1776 1791 1806 1818 1831 1844 1859 1863 1877 1889 1898 1905 1911 1917 1923 1930 1937 1944 1950 1957 1961 1967 1977 1987 1997 2006 2015 2026 2038 2047 2051 2054 2057 2062 2071 2079 2085 2090 2095 2101 2105 2108 2111 2115 2115 2115 2113 2107 2103 2102 2102 2100 0 0 0 0 0 0 0 0 0 0 0 0 0 938 935 935 931 927 924 924 924 926 926 926 926 926 926 926 926 925 925 925 925 925 925 925 925 925 925 925 926 926 926 926 926 926 926 926 926 926 926 925 924 924 921 920 917 914 913 912 904 895 887 886 886 885 885 885 883 881 880 880 880 881 881 882 882 882 882 884 888 890 895 897 901 905 909 912 920 922 924 928 930 931 932 934 935 935 0 0 0 0 0 0 0 0 0 0 0 0 0 0 0 0 0 0 0 0 0 932 936 937 937 937 936 934 932 932 932 932 932 932 931 931 931 931 933 935 938 943 945 945 946 946 0 0 0 0 0 0 0 0 0 0 0 0 0 0 0 0 0 0 0 0 0 0 0 0 0 0 0 0 0 0 0 0 0 0 0 0 0 0 0 940 940 940 937 932 932 932 933 933 933 932 932 932 932 938 939 942 942 942 0 0 0 0 0 0 0 0 0 0 0 0 0 0 0 0 0 0 0 0 0 0 0 0 0 0 0 0 0 928 932 932 932 931 930 926 923 922 922 922 923 923 923 923 923 923 923 923 924 924 924 924 925 926 926 926 926 926 925 925 926 927 930 932 932 933 933 936 941 941 0 0 0 0 0 0 0 931 927 927 926 926 926 926 926 926 924 924 923 922 921 919 919 917 917 917 916 916 915 914 914 914 914 914 914 914 914 914 914 915 916 916 918 918 919 921 924 925 926 928 932 935 939 941 945 945 951 953 953 953 950 949 947 946 945 945 945 939 933 928 927 918 917 915 915 914 915 915 915 916 916 916 915 913 912 912 912 913 914 915 917 918 919 922 925 929 932 935 938 943 945 948 951 952 953 954 956 957 958 959 959 959 960 960 960 961 961 961 961 961 961 962 962 962 963 963 963 963 963 964 963 963 963 963 963 963 963 963 963 963 963 964 964 964 964 964 964 963 963 963 983 988 1013 1020 0 0 0 0 1294 1303 1309 1312 1313 1314 1316 1320 1322 1322 1323 1323 1323 1324 1327 1327 1328 1330 1332 1333 1334 1334 1334 1333 1331 1329 1326 1324 1319 1316 1313 1313 1310 1307 1304 1303 1300 1300 1298 1297 1292 1286 1272 1249 1227 1199 1169 1163 1144 1117 1091 1080 1065 1048 1033 1023 1011 1003 997 994 989 986 982 972 961 958 949 942 935 931 922 919 910 896 884 868 852 852 852 855 855 855 845 835 829 822 814 809 803 786 765 752 751 751 739 737 727 0
537 537 553 572 587 589 607 627 651 676 695 717 739 765 791 822 851 883 887 0 0 0 1032 1066 1095 1118 1137 1155 1174 1195 1220 1243 1247 1265 1287 1319 1355 1385 1404 1417 1432 1448 1469 1493 1516 1537 1562 1583 1588 1611 1635 1653 1665 1676 1687 1698 1710 1727 1746 1763 1783 1798 1816 1826 1837 1848 1860 1863 1878 1889 1898 1905 1911 1917 1923 1929 1934 1941 1950 1957 1961 1965 1972 1980 1989 1999 2011 2026 2038 2047 2051 2054 2057 2059 2064 2074 2080 2089 2095 2100 2103 2104 2106 2111 2111 2111 2105 2098 2095 2092 2090 0 0 0 0 0 0 0 0 0 0 0 0 0 935 935 935 935 931 927 925 925 925 926 926 926 927 927 927 927 926 926 926 926 926 926 926 926 926 926 926 926 926 927 927 927 927 927 926 926 926 926 926 926 924 922 920 919 914 912 909 902 890 881 881 881 882 882 882 881 880 878 877 877 877 878 879 879 879 879 879 881 883 885 888 894 898 902 905 909 917 918 921 925 929 931 932 934 935 935 0 0 0 0 0 0 0 0 0 0 0 0 0 0 0 0 0 929 930 930 930 934 935 936 936 936 935 933 930 930 930 930 929 929 929 929 929 931 933 935 937 939 941 943 946 946 0 0 0 0 0 0 0 0 0 0 0 0 0 0 0 0 0 0 0 0 0 0 0 0 0 0 0 0 0 0 0 0 0 0 0 0 0 0 0 0 942 942 938 933 933 933 934 934 936 936 937 937 939 939 942 942 942 0 0 0 0 0 0 0 0 0 0 0 0 0 0 0 0 0 0 0 0 0 0 0 0 0 0 0 0 0 0 0 936 937 937 937 933 928 927 925 924 924 924 924 925 925 925 925 926 926 927 927 927 927 927 927 927 927 927 927 926 926 926 931 936 936 937 937 937 940 942 942 0 0 0 0 0 0 0 0 927 928 928 928 928 928 928 926 924 924 923 923 921 921 920 919 918 918 918 917 917 916 915 915 915 915 915 915 915 916 916 916 917 918 919 920 920 921 924 925 926 928 932 935 938 939 944 945 950 953 953 953 950 949 947 945 944 943 941 936 932 927 923 918 917 915 915 915 915 916 916 916 916 916 915 914 913 913 913 913 914 915 917 918 920 922 924 927 931 933 938 941 942 947 951 953 954 955 956 958 959 960 960 960 961 961 961 961 961 961 962 962 962 963 963 963 963 964 964 964 964 965 964 965 965 965 964 964 964 964 964 964 964 964 965 965 965 965 965 963 963 963 973 978 1002 1017 0 0 0 0 1281 1299 1309 1312 1313 1313 1316 1319 1320 1320 1321 1322 1323 1324 1327 1328 1328 1330 1332 1333 1334 1334 1334 1333 1331 1329 1328 1324 1322 1317 1317 1313 1311 1307 1304 1303 1301 1300 1298 1296 1288 1280 1271 1249 1225 1201 1172 1163 1147 1128 1101 1089 1081 1073 1051 1033 1027 1019 1010 1001 996 990 984 974 964 958 951 944 936 931 930 925 912 898 884 868 852 852 852 855 855 855 849 844 836 829 821 811 803 786 771 751 742 741 740 740 727 0
537 537 554 572 587 590 607 627 651 675 694 715 736 764 789 821 849 879 884 0 0 0 1035 1066 1095 1121 1141 1160 1180 1203 1226 1247 1251 1272 1291 1319 1355 1381 1400 1417 1432 1448 1469 1493 1515 1540 1566 1591 1595 1618 1639 1653 1664 1677 1687 1701 1711 1728 1747 1766 1783 1798 1816 1828 1838 1848 1860 1863 1877 1889 1899 1906 1912 1917 1922 1926 1932 1939 1949 1957 1961 1965 1968 1974 1981 1992 2008 2026 2038 2047 2051 2054 2057 2059 2064 2067 2074 2083 2091 2099 2101 2101 2101 2101 2101 2101 2095 2087 2084 2077 0 0 0 0 0 0 0 0 0 0 0 0 946 936 934 934 934 932 931 927 926 926 926 927 927 927 927 927 927 927 927 926 926 926 926 926 926 926 926 927 927 927 927 927 927 927 927 927 926 926 926 926 926 926 923 922 920 918 912 909 905 894 881 877 877 877 878 878 878 878 878 876 876 875 875 875 876 876 877 877 878 879 881 882 886 891 896 900 904 908 913 916 919 923 926 930 932 934 935 936 0 0 0 0 0 0 0 0 0 0 0 0 0 0 0 0 931 932 932 932 932 934 934 934 934 932 929 929 929 929 929 928 928 928 928 928 929 930 931 931 934 936 941 943 946 946 946 946 946 0 0 0 0 0 0 0 0 0 0 0 0 0 0 0 0 0 0 0 0 0 0 0 0 0 0 0 0 0 0 0 0 0 0 0 0 0 941 941 941 936 936 936 938 940 940 940 942 942 943 943 0 0 0 0 0 0 0 0 0 0 0 0 0 0 0 0 0 0 0 0 0 0 0 0 0 0 0 0 0 0 0 0 0 0 0 939 939 939 934 930 929 929 927 925 925 925 926 927 928 928 928 928 929 929 929 927 927 927 930 930 930 930 930 930 933 942 942 946 946 946 946 946 944 942 0 0 0 0 0 0 0 0 0 932 932 930 930 930 928 928 925 924 924 923 922 921 921 921 920 919 919 919 918 918 918 918 917 917 917 917 917 917 918 918 919 919 920 920 922 923 924 925 926 928 930 935 938 939 943 945 950 952 952 952 950 947 945 944 936 934 933 931 928 925 923 918 917 915 915 915 916 916 917 917 917 916 915 914 913 913 913 914 915 915 917 918 921 922 924 926 929 932 936 940 942 946 951 953 955 956 957 958 959 960 961 961 961 961 962 962 962 962 963 963 963 964 964 964 964 965 965 965 966 966 966 966 965 965 965 965 965 965 965 965 965 965 966 966 966 966 966 966 966 966 968 972 985 1003 0 0 0 0 0 1284 1305 1310 1313 1313 1315 1318 1318 1318 1320 1320 1323 1324 1327 1328 1328 1331 1332 1333 1333 1333 1333 1331 1331 1330 1328 1327 1324 1323 1319 1314 1311 1307 1304 1304 1302 1301 1298 1293 1287 1280 1271 1249 1225 1202 1173 1167 1148 1132 1103 1093 1090 1079 1060 1049 1041 1033 1023 1013 1004 996 987 979 966 960 954 947 942 941 937 930 913 900 884 869 858 856 856 855 855 855 852 846 838 830 822 811 803 786 771 751 742 741 740 740 730 0
537 537 554 572 574 590 607 626 651 677 694 715 736 764 791 821 849 854 884 0 0 999 1037 1066 1095 1124 1147 1169 1190 1212 1233 1254 1258 1280 1302 1325 1355 1381 1400 1417 1432 1449 1470 1492 1514 1540 1568 1591 1598 1620 1641 1653 1664 1677 1690 1703 1717 1733 1751 1766 1783 1798 1816 1829 1838 1848 1859 1863 1877 1889 1899 1906 1912 1917 1922 1923 1925 1932 1943 1951 1957 1959 1964 1967 1974 1985 2004 2026 2038 2046 2050 2053 2055 2059 2062 2064 2069 2079 2087 2094 2096 2096 2096 2094 2092 2088 2081 2076 2073 0 0 0 0 0 0 0 0 0 0 0 0 941 937 935 934 932 932 932 931 930 930 928 928 928 928 928 928 927 927 927 927 927 927 927 927 927 927 927 927 927 927 927 927 927 928 928 927 927 926 926 926 925 925 925 922 919 915 906 898 890 882 875 873 873 873 874 875 875 875 875 874 874 874 874 874 874 874 875 875 875 877 877 879 881 884 887 891 894 900 904 911 915 918 920 921 926 929 933 936 937 937 937 938 938 938 940 941 0 0 0 0 0 0 0 0 0 933 933 933 933 933 933 933 933 932 928 925 924 924 924 924 925 926 927 928 928 929 930 931 931 932 936 941 943 945 946 946 946 946 946 0 0 0 0 0 0 0 0 0 0 0 0 0 0 0 0 0 0 0 0 0 0 0 0 0 0 0 0 0 0 0 0 0 0 0 0 941 941 941 941 941 943 944 944 946 949 946 946 946 0 0 0 0 0 0 0 0 0 0 0 0 0 0 0 0 0 0 0 0 0 0 0 0 0 0 0 0 0 0 0 0 0 0 0 0 941 941 941 938 932 932 932 929 928 928 928 928 930 931 931 931 931 931 931 930 927 927 927 932 934 934 936 937 937 949 949 949 947 947 947 947 947 0 0 0 0 0 0 0 0 0 0 0 0 937 935 934 934 931 928 925 925 924 924 924 923 922 922 921 921 921 921 920 920 920 920 920 920 919 919 919 919 919 919 919 919 921 922 923 924 926 926 927 928 932 935 938 938 942 945 950 950 950 949 949 947 945 943 936 929 927 925 925 925 923 919 917 916 916 916 917 917 917 917 917 916 915 915 915 915 915 915 915 917 917 919 921 922 924 926 928 930 935 939 941 945 950 953 955 956 958 959 960 961 962 962 962 962 963 963 963 963 964 964 964 964 965 965 965 966 966 966 966 966 967 967 967 967 967 967 967 966 966 966 966 966 967 967 967 967 967 967 967 967 968 970 985 994 1019 0 0 0 0 0 1301 1310 1312 1312 1312 1312 1313 1315 1317 1320 1323 1325 1327 1328 1329 1331 1333 1333 1333 1332 1331 1330 1330 1330 1329 1328 1325 1324 1319 1314 1311 1307 1306 1305 1304 1302 1298 1293 1287 1280 1271 1249 1225 1202 1176 1167 1152 1135 1105 1095 1094 1087 1076 1064 1052 1038 1024 1013 1006 1001 991 981 972 963 960 952 949 947 944 937 927 903 886 873 859 859 859 859 859 859 854 848 839 830 823 814 804 796 775 751 742 741 740 740 736 0
537 537 558 572 574 590 605 623 649 677 694 715 736 763 793 821 849 854 884 0 0 1003 1037 1065 1095 1124 1147 1172 1199 1222 1241 1254 1266 1288 1310 1333 1358 1381 1400 1417 1432 1450 1470 1492 1514 1540 1568 1591 1598 1620 1641 1653 1664 1678 1692 1706 1723 1738 1751 1766 1780 1798 1820 1829 1838 1848 1852 1863 1877 1889 1899 1906 1912 1917 1917 1920 1920 1925 1932 1932 1932 0 0 0 0 0 2003 2021 2038 2045 2048 2051 2055 2058 2061 2061 2063 2072 2081 2086 2089 2089 2089 2089 2087 2079 2072 0 0 0 0 0 0 0 0 0 0 0 0 946 942 934 930 928 928 928 929 930 930 930 930 929 929 929 928 928 928 928 928 928 928 928 928 928 928 928 928 928 928 928 928 928 928 928 928 928 928 927 926 925 925 923 922 922 921 914 905 895 884 875 871 868 868 868 871 872 872 872 871 871 871 872 872 872 872 872 872 873 873 873 875 876 878 879 882 883 886 889 893 897 905 912 918 919 920 925 929 933 935 937 938 938 938 938 938 941 941 942 942 0 0 0 0 0 0 938 937 935 934 934 934 933 933 933 931 927 922 922 922 922 923 925 926 927 927 927 928 930 931 931 932 936 942 943 944 945 946 946 946 946 0 0 0 0 0 0 0 0 0 0 0 0 0 0 0 0 0 0 0 0 0 0 0 0 0 0 0 0 0 0 0 0 0 0 0 0 0 945 945 945 944 945 945 944 946 949 946 946 0 0 0 0 0 0 0 0 0 0 0 0 0 0 0 0 0 0 0 0 0 0 0 0 0 0 0 0 0 0 0 0 0 0 0 0 0 941 941 941 938 936 934 934 933 931 931 931 933 934 934 934 934 934 933 933 930 928 928 928 932 934 938 938 940 947 952 952 952 951 951 951 947 0 0 0 0 0 0 0 0 0 0 0 0 0 938 938 935 934 931 928 925 925 924 924 924 924 923 923 923 923 923 922 922 922 922 922 922 922 921 921 920 920 920 920 921 921 922 924 925 927 928 928 928 929 932 935 938 938 941 941 948 948 948 948 947 946 941 933 927 926 926 925 925 925 923 921 919 918 918 918 917 917 917 917 917 917 917 916 916 916 916 916 917 917 919 919 921 922 924 926 928 930 935 938 941 944 949 954 955 956 958 959 960 961 962 962 962 963 963 964 964 964 965 965 965 965 965 966 966 966 967 967 967 967 967 968 968 968 968 968 968 967 967 967 967 967 967 968 968 968 968 967 967 967 968 970 970 990 1008 0 0 0 0 0 1300 1309 1309 1309 1309 1309 1309 1312 1317 1320 1323 1325 1327 1328 1328 1331 1332 1332 1332 1330 1330 1330 1330 1330 1329 1328 1328 1325 1319 1315 1312 1310 1308 1307 1307 1305 1299 1293 1287 1285 1277 1255 1234 1215 1191 1170 1164 1145 1112 1096 1095 1091 1084 1072 1061 1045 1025 1014 1008 1002 998 992 984 973 969 961 958 949 944 937 929 914 894 874 862 862 862 863 863 863 857 849 843 837 825 815 804 796 778 752 752 752 756 756 756 0
540 540 559 572 574 590 605 622 0 678 698 716 736 763 794 825 850 854 887 0 0 1005 1037 1063 1094 1124 1147 1173 1200 1229 1251 1258 1276 1297 1316 1336 1358 1381 1400 1417 1432 1450 1472 1494 1515 1541 1568 1573 1598 1620 1641 1652 1664 1679 1692 1706 1724 1738 1751 1764 1780 1798 1820 1829 1838 1846 1849 1860 1870 1883 1883 1883 1876 1876 1876 1887 1887 1887 1887 1887 1865 0 0 0 0 0 0 0 0 0 0 0 2053 2055 2057 2058 2058 2066 2076 2081 2082 2085 2085 2085 2077 2065 0 0 0 0 0 0 0 0 0 0 0 0 946 940 935 931 929 928 928 928 929 930 930 930 930 929 929 929 929 929 928 928 928 928 929 929 929 929 929 929 929 929 929 929 928 928 928 928 928 928 928 927 926 924 923 922 919 917 917 909 896 882 876 873 869 868 868 868 869 871 871 871 869 869 869 870 870 871 871 871 871 871 872 873 874 874 876 877 881 881 882 885 889 895 901 907 914 918 919 924 928 931 935 937 939 939 939 939 939 941 942 942 942 943 943 943 943 941 939 939 937 937 934 934 934 933 931 929 929 926 921 918 918 918 921 924 926 926 927 927 928 929 931 932 934 936 942 942 944 945 946 947 947 947 0 0 0 0 0 0 0 0 0 0 0 0 0 0 0 0 0 0 0 0 0 0 0 0 0 0 0 0 0 0 0 0 0 0 0 0 0 946 946 946 945 945 945 947 949 951 949 0 0 0 0 0 0 0 0 0 0 0 0 0 0 0 0 0 0 0 0 0 0 0 0 0 0 0 0 0 0 0 0 0 0 0 0 0 0 0 942 942 940 940 938 936 936 936 935 935 935 935 936 937 938 938 938 935 932 932 932 932 933 934 939 949 951 952 953 953 952 0 0 0 0 0 0 0 0 0 0 0 0 0 0 0 0 0 940 940 939 934 931 929 926 925 925 924 924 924 924 924 924 924 924 924 924 924 923 923 923 923 923 923 922 922 922 922 922 923 924 926 928 929 929 929 929 929 931 935 938 940 941 941 946 946 946 946 944 941 936 929 927 926 926 925 925 925 923 921 920 918 918 918 918 918 918 918 918 918 917 917 917 917 917 918 918 919 919 920 921 923 924 926 928 930 933 938 941 944 948 953 955 956 958 959 960 962 962 963 963 964 964 964 965 965 965 966 966 966 966 967 967 967 967 968 968 968 968 969 969 969 969 969 969 969 969 968 968 968 968 968 968 968 968 968 968 968 970 970 970 973 993 1013 0 0 0 0 1297 1307 1309 1309 1309 1309 1309 1312 1317 1320 1323 1325 1326 1327 1328 1330 1330 1330 1329 1329 1329 1330 1331 1331 1331 1331 1330 1325 1320 1315 1313 1310 1310 1310 1308 1308 1305 1297 1293 1290 1285 1269 1251 1237 1214 1183 1179 1160 1123 1096 1096 1094 1086 1072 1066 1050 1027 1015 1009 1009 1005 1001 992 981 977 968 958 949 944 937 930 920 903 878 871 871 871 869 869 869 866 862 857 847 831 816 804 796 783 770 770 770 776 776 778 0
541 541 561 573 575 590 605 622 0 678 701 717 738 763 797 825 850 854 0 0 0 1005 1033 1059 1092 1119 1147 1173 1200 1229 1251 1258 1277 1297 1318 1336 1358 1381 1400 1417 1432 1450 1472 1494 1515 1541 1568 1572 1597 1618 1637 1650 1664 1680 1694 1709 1724 1738 1750 1763 1780 1802 1820 1830 1838 1843 1846 1851 1859 1859 1859 1854 1845 1845 1845 1861 1861 1861 1854 1851 1834 1782 1782 0 0 0 0 0 0 0 0 0 0 0 0 0 0 0 0 2071 2071 2071 2071 2070 0 0 0 0 0 0 0 0 0 0 0 0 0 936 934 934 932 931 929 928 928 928 929 930 930 930 930 929 929 929 929 929 929 929 929 929 929 929 930 930 930 930 930 930 930 930 930 929 929 929 929 928 928 927 925 924 923 922 918 915 909 900 887 875 873 869 868 868 868 868 868 868 868 868 868 868 868 868 869 869 869 870 870 871 871 872 872 873 874 876 879 880 881 884 889 894 900 905 911 916 918 923 927 929 932 937 939 939 939 939 940 941 942 942 942 943 943 943 943 941 939 939 937 937 934 934 933 931 930 929 925 915 913 913 913 917 920 922 924 925 925 927 927 928 931 932 934 936 942 942 942 944 945 947 947 947 0 0 0 0 0 0 0 0 0 0 0 0 0 0 0 0 0 0 0 0 0 0 0 0 0 0 0 0 0 0 0 0 0 0 0 0 0 947 948 947 946 948 948 947 949 951 949 0 0 0 0 0 0 0 0 0 0 0 0 0 0 0 0 0 0 0 0 0 0 0 0 0 0 0 0 0 0 0 0 0 0 0 0 0 0 0 943 946 943 942 943 942 942 940 939 938 938 938 938 939 940 940 940 938 936 935 934 934 934 936 939 950 952 952 0 0 0 0 0 0 0 0 0 0 0 0 0 0 0 0 0 0 0 0 946 946 945 936 932 930 926 925 925 925 925 925 926 926 926 925 925 925 925 924 924 924 924 924 924 923 923 923 924 924 924 925 926 929 931 931 931 931 931 931 931 935 938 941 942 942 946 946 946 946 940 938 936 929 927 926 926 925 925 925 923 921 920 920 919 919 919 919 918 918 918 918 918 918 918 918 918 918 918 920 920 920 921 923 925 926 928 930 933 936 941 943 948 952 955 956 958 960 961 962 962 963 964 965 965 965 965 966 966 966 967 967 967 968 968 968 969 969 969 970 970 970 970 970 970 970 970 969 969 969 969 969 969 969 969 969 969 969 969 970 971 971 972 973 991 1013 0 0 0 0 1284 1306 1308 1308 1308 1308 1308 1310 1316 1318 1319 1320 1320 1322 1326 1327 1327 1328 1328 1328 1329 1330 1331 1333 1333 1333 1333 1331 1321 1318 1315 1311 1311 1311 1311 1311 1311 1307 1303 1296 1286 1278 1266 1253 1235 1208 1203 1169 1135 1107 1103 1096 1088 1072 1066 1057 1041 1024 1022 1019 1016 1009 995 985 981 970 960 953 945 936 930 920 908 899 891 888 884 884 883 877 874 873 872 863 846 826 816 811 800 784 784 784 784 784 784 0
545 545 564 578 579 593 606 622 651 678 701 717 738 763 797 825 850 854 0 0 970 1005 1031 1058 1092 1118 1145 1173 1200 1229 1251 1254 1277 1297 1318 1336 1358 1379 1399 1416 1432 1450 1472 1495 1516 1541 1568 1572 1596 1616 1633 1648 1664 1681 1699 1712 1724 1738 1750 1763 1781 1804 1820 1830 1837 1840 1843 1844 1844 1844 1829 1805 1805 1805 1805 1823 1835 1836 1836 1836 1818 1756 1752 1730 1752 1730 0 0 0 0 0 0 0 0 0 0 0 0 0 0 0 0 0 0 0 0 0 0 0 0 0 0 0 0 0 946 938 933 932 932 931 931 929 929 929 930 930 930 930 930 930 930 930 930 929 930 930 930 930 930 930 930 931 930 930 930 930 930 930 930 930 930 930 929 929 929 928 927 925 924 921 918 913 902 893 884 873 872 870 869 867 867 867 867 867 866 866 866 866 866 867 867 868 869 869 869 870 870 870 870 871 871 873 875 877 879 880 882 887 892 897 900 905 911 912 917 925 928 932 935 938 939 939 939 940 941 942 942 942 942 942 942 940 939 939 939 937 934 934 932 931 931 929 925 918 912 912 912 913 915 918 921 923 924 925 926 927 928 931 932 934 936 942 942 942 943 945 947 950 950 0 0 0 0 0 0 0 0 0 0 0 0 0 0 0 0 0 0 0 0 0 0 0 0 0 0 0 0 0 0 0 0 0 0 0 0 0 948 949 948 948 949 949 947 949 951 949 0 0 0 0 0 0 0 0 0 0 0 0 0 0 0 0 0 0 0 0 0 0 0 0 0 0 0 0 0 0 0 0 0 0 0 0 0 0 0 943 949 949 948 950 950 948 947 944 943 941 941 941 941 942 943 943 943 940 939 936 936 936 936 942 950 950 0 0 0 0 0 0 0 0 0 0 0 0 0 0 0 0 0 0 0 0 0 0 945 945 937 935 934 927 925 925 925 925 926 926 926 926 926 926 926 925 925 925 925 925 924 924 924 924 924 924 925 926 928 929 930 932 932 932 931 931 931 932 935 938 942 942 944 946 946 946 943 940 938 936 929 928 927 926 926 926 925 923 921 921 920 920 920 920 919 919 919 919 919 919 919 919 919 919 919 919 920 920 921 922 923 925 927 928 930 933 935 939 943 948 952 955 956 959 960 961 962 963 964 964 966 966 966 966 966 967 967 967 968 968 969 969 969 970 970 970 971 971 971 971 971 971 971 971 971 971 971 970 970 970 970 970 970 970 970 971 971 971 971 972 973 981 1010 1027 0 0 0 1258 1301 1308 1308 1308 1307 1307 1307 1310 1311 1313 1314 1316 1318 1322 1326 1327 1327 1328 1329 1329 1330 1332 1333 1334 1334 1333 1333 1328 1323 1319 1316 1316 1316 1315 1315 1315 1310 1305 1298 1287 1279 1271 1259 1252 1231 1225 1189 1164 1125 1104 1100 1089 1079 1069 1062 1049 1039 1035 1034 1034 1025 1006 985 981 971 961 953 945 936 930 920 908 904 900 899 899 891 886 881 878 874 872 866 850 833 827 823 820 804 786 785 784 784 784 0
546 546 564 583 585 599 610 626 652 680 701 717 739 763 797 824 850 853 0 0 970 1000 1027 1058 1091 1116 1145 1172 1197 1224 1249 1252 1277 1299 1318 1336 1355 1376 1395 1415 1432 1452 1474 1498 1518 1543 1568 1572 1596 1614 1633 1648 1665 1689 1704 1715 1726 1738 1750 1763 1783 1806 1820 1830 1836 1836 1836 1836 1833 1822 1794 1781 1781 1781 1794 1807 1818 1824 1824 1824 1810 1756 1752 1730 1752 1730 1727 1730 0 0 0 0 0 0 0 0 0 0 0 0 0 0 0 0 0 0 0 0 0 0 0 0 0 0 947 942 932 931 931 931 931 931 931 930 930 930 930 930 930 930 930 930 930 930 930 930 931 931 931 931 931 931 931 931 932 932 932 932 932 931 931 931 931 930 929 929 928 927 926 924 921 916 908 900 892 879 873 870 870 869 866 866 866 865 864 864 864 865 865 866 866 867 867 867 868 868 868 869 869 870 870 870 872 874 875 878 880 882 886 889 894 897 903 908 911 914 921 926 931 933 937 937 938 939 940 941 942 942 942 942 942 942 939 939 937 936 935 932 932 932 925 918 915 912 912 911 912 912 913 915 917 920 922 922 924 926 927 928 930 932 934 935 939 941 941 943 945 946 950 950 950 0 0 0 0 0 0 0 0 0 0 0 0 0 0 0 0 0 0 0 0 0 0 0 0 0 0 0 0 0 0 0 0 0 0 0 950 950 950 951 950 951 951 951 951 955 955 0 0 0 0 0 0 0 0 0 0 0 0 0 0 0 0 0 0 0 0 0 0 0 0 0 0 0 0 0 0 0 0 0 0 0 0 0 0 0 0 949 949 953 953 953 950 947 945 944 942 942 942 943 943 943 943 943 945 945 945 946 946 947 950 953 0 0 0 0 0 0 0 0 0 0 0 0 0 0 0 0 0 0 0 0 0 0 0 0 0 938 935 934 929 926 926 926 926 927 929 929 929 927 927 926 926 925 925 925 925 925 925 925 925 925 927 927 928 928 930 931 933 933 933 932 932 932 935 938 945 945 947 948 947 947 947 943 940 938 936 930 929 927 926 926 926 925 923 922 921 921 920 920 920 920 920 920 920 920 920 920 920 919 919 920 920 920 920 921 922 924 925 927 928 930 933 934 938 942 948 952 955 956 959 961 962 963 965 965 966 966 967 967 967 967 968 968 969 969 969 969 970 971 971 972 972 972 972 973 973 973 973 972 972 972 972 972 971 971 971 971 971 971 971 971 971 971 971 972 972 973 979 1008 1023 0 0 0 0 1299 1308 1308 1308 1307 1307 1307 1310 1311 1313 1314 1315 1318 1322 1326 1327 1327 1328 1329 1330 1331 1332 1334 1334 1336 1336 1336 1331 1326 1324 1322 1321 1320 1320 1319 1317 1311 1306 1298 1288 1281 1277 1272 1262 1244 1237 1205 1177 1138 1122 1102 1092 1079 1070 1063 1056 1041 1041 1038 1036 1036 1017 1000 997 972 961 955 945 936 928 920 909 909 909 908 908 900 889 882 879 876 873 866 853 838 832 832 829 820 802 794 793 790 793 0
546 546 564 583 585 599 613 628 652 680 697 714 739 764 794 821 850 853 0 0 973 1000 1026 1058 1089 1116 1145 1172 1197 1223 1247 1250 1277 1299 1318 1336 1355 1376 1395 1415 1433 1455 1478 1499 1521 1543 1568 1572 1595 1614 1633 1648 1675 1691 1704 1715 1727 1739 1751 1767 1787 1806 1820 1827 1833 1833 1833 1830 1816 1780 1750 1750 1750 1758 1773 1789 1796 1796 1796 1791 1763 1756 1756 1756 1759 1760 1788 1789 1815 1815 1815 1787 1787 1770 0 0 0 0 0 0 0 0 0 0 0 0 0 0 0 0 0 0 0 943 938 934 930 930 930 931 931 931 931 931 931 931 931 930 930 930 930 930 931 931 931 931 931 931 931 931 932 932 932 932 932 932 932 932 932 932 932 932 931 931 931 930 929 928 926 923 921 916 908 900 892 879 873 870 870 869 866 866 864 862 862 862 863 864 864 865 865 866 866 867 867 868 868 869 869 869 869 870 871 873 875 877 879 882 884 887 891 895 900 905 907 913 918 924 927 930 934 937 938 939 940 941 941 941 942 942 942 941 939 935 935 935 935 927 925 919 912 909 909 909 911 911 912 912 913 915 916 918 920 921 922 923 927 927 930 931 933 934 938 941 941 943 945 946 950 950 950 950 0 0 0 0 0 0 0 0 0 0 0 0 0 0 0 0 0 0 0 0 0 0 0 0 0 0 0 0 0 0 0 948 948 948 949 951 951 952 952 952 954 954 954 955 955 0 0 0 0 0 0 0 0 0 0 0 0 0 0 0 0 0 0 0 0 0 0 0 0 0 0 0 0 0 0 0 0 0 0 0 0 0 0 0 0 0 0 0 953 953 950 947 945 944 942 942 942 944 944 945 945 946 946 949 955 956 958 956 956 956 0 0 0 0 0 0 0 0 0 0 0 0 0 0 0 0 0 0 0 0 0 0 0 0 0 940 940 938 932 930 928 928 928 929 930 930 930 929 928 927 927 927 927 926 926 926 926 926 926 928 929 930 930 930 931 932 933 934 934 934 943 947 948 951 954 954 954 949 948 947 947 943 940 938 937 932 929 928 927 927 926 925 923 922 922 922 921 921 921 921 921 921 921 921 921 921 920 920 920 920 920 921 921 922 923 924 925 927 928 930 932 934 936 942 947 950 954 956 959 961 962 964 965 966 967 968 968 968 968 969 969 969 969 970 970 971 971 972 972 972 972 973 973 973 973 974 973 973 973 973 973 973 972 972 972 971 971 971 971 971 972 972 972 972 972 973 978 1006 1009 0 0 0 0 0 1308 1308 1308 1307 1307 1307 1310 1311 1313 1314 1315 1318 1322 1326 1328 1328 1330 1332 1332 1332 1333 1334 1334 1338 1338 1338 1336 1331 1326 1326 1326 1326 1325 1325 1321 1314 1308 1302 1296 1291 1287 1281 1268 1250 1238 1222 1189 1152 1137 1118 1097 1082 1070 1063 1059 1048 1048 1046 1042 1042 1031 1018 1015 1002 990 973 955 936 928 920 914 914 914 914 914 907 895 885 883 877 875 868 855 838 838 837 837 837 826 826 826 820 835 0
546 546 563 583 585 599 613 630 652 680 697 714 739 764 792 820 850 853 0 0 974 1000 1026 1058 1089 1116 1145 1172 1197 1223 1247 1250 1277 1299 1319 1336 1355 1376 1395 1415 1438 1463 1485 1502 1521 1543 1566 1572 1593 1613 1634 1653 1675 1691 1704 1715 1727 1740 1755 1772 1787 1806 1819 1825 1827 1827 1825 1817 1777 1735 1706 1706 1706 1727 1739 1750 1758 1758 1758 1745 1745 1745 1757 1758 1759 1761 1788 1789 1815 1815 1815 1813 1813 1794 1793 0 0 0 0 0 0 0 0 0 0 0 0 0 0 0 0 0 942 932 931 929 929 929 930 931 931 931 931 931 931 931 931 931 931 931 931 931 932 932 932 932 932 932 932 933 933 933 933 933 933 933 933 933 933 933 933 933 933 932 932 931 930 929 926 923 921 916 908 900 892 879 873 871 870 869 866 866 864 862 862 862 863 863 864 864 864 865 865 866 866 867 867 868 868 869 869 870 871 872 873 875 878 880 884 886 889 892 897 901 904 908 915 920 924 926 932 937 938 939 940 941 941 941 941 941 940 940 934 934 934 930 925 915 905 905 905 905 905 906 910 911 911 912 912 913 915 916 917 918 921 923 926 927 930 931 932 934 936 939 939 941 944 946 949 950 950 950 0 0 0 0 0 0 0 0 0 0 0 0 0 0 0 0 0 0 0 0 0 0 952 952 952 0 0 0 948 947 948 948 947 948 948 951 951 952 952 952 954 954 955 957 958 0 0 0 0 0 0 0 0 0 0 0 0 0 0 0 0 0 0 0 0 0 0 0 0 0 0 0 0 0 0 0 0 0 0 0 0 0 0 0 0 0 0 0 0 953 950 946 945 944 942 942 942 944 945 946 946 949 950 950 955 956 958 956 956 0 0 0 0 0 0 0 0 0 0 0 0 0 0 0 0 0 0 0 0 0 0 0 0 0 0 948 948 944 940 936 932 930 930 930 931 931 931 930 929 929 928 928 927 927 927 927 927 927 927 929 932 932 932 932 932 932 933 934 934 941 947 948 948 952 955 955 955 949 948 947 947 944 943 938 937 934 931 929 929 928 926 925 924 922 922 922 922 923 923 922 922 922 922 922 921 921 921 921 921 921 921 921 921 922 923 924 925 927 928 930 932 933 936 941 946 950 954 956 959 961 963 966 966 967 968 968 969 969 969 970 970 970 970 970 971 972 972 972 972 973 974 974 974 975 975 975 975 975 975 975 974 974 974 973 973 973 973 972 972 972 972 972 972 973 973 975 978 986 1006 1017 0 0 0 0 0 1308 1308 1310 1312 1314 1315 1315 1315 1315 1315 1320 1324 1327 1330 1332 1334 1335 1335 1335 1335 1335 1338 1338 1338 1338 1337 1334 1333 1331 1330 1330 1330 1329 1327 1318 1315 1313 1310 1305 1296 1288 1275 1258 1243 1233 1206 1184 1153 1133 1113 1094 1080 1070 1063 1061 1061 1058 1057 1055 1043 1039 1037 1034 1021 993 969 942 928 926 923 918 918 918 914 913 904 893 890 883 879 868 856 847 847 847 852 852 852 843 841 836 835 0
541 541 559 583 584 601 614 630 655 680 697 714 739 763 792 820 850 856 0 0 974 1001 1026 1058 1089 1116 1144 1172 1198 1223 1247 1250 1278 1302 1323 1341 1360 1382 1401 1423 1445 1471 1490 1505 1521 1543 1564 1568 1591 1613 1634 1653 1675 1691 1703 1714 1727 1742 1757 1772 1787 1806 1817 1817 1819 1819 1817 1790 0 1694 1684 1684 1684 1695 1708 1720 1729 1733 1733 1733 1733 1745 1757 1758 1759 1761 1766 1788 1815 1815 1823 1823 1824 1823 1823 0 0 0 0 0 0 0 0 0 0 0 0 0 0 0 948 936 932 931 930 929 929 929 930 931 931 931 931 931 931 931 931 932 932 932 932 932 932 932 933 933 933 933 933 933 933 934 934 934 934 934 934 934 934 934 934 934 934 934 933 931 931 929 926 924 921 917 914 907 900 889 878 874 872 869 867 866 864 862 861 861 861 863 863 864 864 864 864 865 866 866 867 868 868 869 869 869 870 871 872 875 877 879 882 885 887 889 892 898 902 907 912 918 922 926 931 935 938 938 940 940 940 939 939 938 938 938 934 930 927 923 913 904 903 903 903 904 904 905 907 908 910 910 910 911 913 915 916 917 920 923 925 927 929 931 931 933 936 936 937 941 943 945 947 950 950 952 0 0 0 0 0 0 0 0 0 0 0 0 0 0 0 0 0 0 0 0 0 952 952 952 952 951 951 950 949 949 948 948 947 948 948 948 948 951 952 952 954 954 954 955 957 957 0 0 0 0 0 0 0 0 0 0 0 0 0 0 0 0 0 0 0 0 0 0 0 0 0 0 0 0 0 0 0 0 0 0 0 0 0 0 0 0 0 0 0 950 950 946 945 944 942 942 942 944 947 947 951 952 956 957 959 959 959 0 0 0 0 0 0 0 0 0 0 0 0 0 0 0 0 0 0 0 0 0 0 0 0 0 0 0 0 948 948 944 940 938 933 930 930 930 931 931 931 930 930 929 929 928 928 928 928 928 928 928 928 931 932 933 933 933 933 934 936 940 941 951 951 954 954 954 958 958 958 0 0 0 952 948 943 941 939 934 932 929 929 929 927 926 925 923 923 923 924 924 924 924 923 923 923 923 923 923 922 922 922 922 922 922 922 922 923 924 926 927 928 929 931 933 936 941 946 950 954 956 959 961 964 966 967 968 969 969 970 970 970 970 971 971 971 971 972 972 972 972 973 973 974 974 975 975 975 976 976 976 975 975 975 975 975 975 975 974 974 974 974 974 974 974 974 975 976 976 977 981 995 998 0 0 0 0 0 1305 1308 1309 1312 1315 1316 1316 1319 1320 1320 1323 1328 1330 1332 1334 1336 1336 1336 1336 1336 1336 1339 1339 1339 1339 1339 1338 1338 1336 1335 1334 1334 1333 1331 1325 1322 1322 1318 1312 1305 1296 1282 1263 1245 1236 1218 1202 1169 1143 1121 1100 1084 1076 1073 1068 1066 1065 1061 1055 1043 1039 1038 1034 1026 1014 994 980 971 950 929 925 923 923 921 919 909 893 890 884 881 871 859 859 859 861 876 876 876 843 841 836 835 0
541 541 559 581 583 601 617 632 655 680 698 717 741 763 791 820 850 860 0 0 981 1009 1033 1060 1091 1121 1144 1172 1198 1223 1247 1250 1278 1305 1327 1347 1366 1388 1409 1428 1449 1472 1490 1505 1522 1541 1561 1566 1588 1612 1634 1653 1672 1687 1700 1713 1727 1743 1757 1772 1786 1801 1808 1814 1814 1814 1805 1767 0 1669 1669 1669 1678 1687 1695 1703 1714 1725 1728 1728 1731 1752 1765 1765 1771 1772 1772 1780 1791 1791 1792 1793 1793 1790 1790 0 0 0 0 0 0 0 0 0 0 0 0 0 0 948 936 934 930 930 929 929 930 930 931 932 932 932 932 932 932 932 932 933 933 933 933 933 933 933 933 934 934 934 934 934 934 934 935 935 935 935 935 935 935 935 935 935 935 934 934 933 931 930 929 926 923 920 914 912 908 899 890 880 872 869 868 867 864 862 861 861 861 862 862 863 863 863 864 865 866 866 867 868 868 868 869 869 869 870 871 873 875 878 881 883 885 886 889 895 900 905 910 917 921 925 930 935 937 937 937 937 937 937 937 937 936 936 931 928 925 917 905 904 902 902 902 902 904 905 906 906 906 907 908 909 911 912 913 915 918 921 924 927 929 930 931 932 934 935 937 938 942 945 946 947 947 949 952 953 953 0 0 0 0 0 0 0 0 0 0 0 0 0 0 0 0 0 0 951 952 952 952 952 952 951 949 949 947 947 944 944 944 945 946 946 947 948 953 953 954 954 956 958 958 0 0 0 0 0 0 0 0 0 0 0 0 0 0 0 0 0 0 0 0 0 0 0 0 0 0 0 0 0 0 0 0 0 0 0 0 0 0 0 0 0 0 952 952 946 946 944 942 942 942 944 947 949 955 956 959 961 959 956 955 0 0 0 0 0 0 0 0 0 0 0 0 0 0 0 0 0 0 0 0 0 0 0 0 0 0 0 0 948 948 945 942 938 933 932 932 932 931 931 931 930 930 930 930 930 929 929 929 929 929 930 930 931 932 934 934 934 934 939 949 951 952 956 956 956 956 956 958 958 958 0 0 0 950 950 943 941 941 940 935 930 929 929 928 927 926 925 924 924 924 924 924 924 924 925 925 924 924 924 923 922 922 922 922 922 922 922 923 924 926 927 928 928 930 933 936 941 946 951 954 956 959 961 965 967 968 969 970 970 971 971 971 971 972 972 972 972 973 973 973 973 974 974 975 975 976 976 976 976 976 976 976 976 976 976 976 975 975 975 974 974 974 974 974 975 976 977 977 977 979 979 992 998 1017 0 0 0 0 1288 1305 1308 1313 1315 1316 1320 1320 1322 1323 1328 1331 1333 1334 1336 1337 1337 1337 1338 1339 1339 1339 1340 1343 1343 1343 1343 1343 1342 1339 1336 1335 1334 1331 1329 1328 1324 1319 1313 1308 1298 1284 1266 1252 1247 1230 1214 1188 1159 1130 1104 1087 1078 1078 1074 1071 1067 1061 1055 1043 1039 1038 1034 1029 1018 1007 1000 992 980 952 940 935 933 931 921 910 896 893 884 881 876 864 862 862 862 880 880 880 843 841 824 824 0
541 541 559 580 583 601 618 633 655 680 701 722 742 764 791 821 831 862 0 0 985 1014 1038 1063 1093 1121 1143 1172 1198 1223 1247 1250 1278 1305 1334 1356 1375 1393 1410 1428 1449 1472 1490 1506 1523 1541 1560 1566 1585 1606 1629 1648 1664 1680 1695 1713 1727 1743 1757 1770 1784 1794 1798 1801 1801 1801 1791 1761 0 1655 1655 1655 1674 1687 1693 1700 1710 1720 1725 1727 1736 1748 1761 1763 1766 1766 1769 1780 1790 1790 1792 1792 1792 1790 1790 0 0 0 0 0 0 0 0 0 0 0 0 0 936 930 930 929 929 929 930 930 931 932 932 932 932 932 933 933 933 933 933 933 933 934 934 934 934 935 935 935 935 935 935 935 935 936 936 936 936 936 936 936 936 936 936 936 936 935 935 934 933 933 932 929 927 922 917 914 913 911 901 889 877 872 871 869 866 862 861 861 861 862 862 863 863 863 864 865 865 866 867 868 868 868 869 869 869 869 870 872 873 876 878 879 881 883 886 890 895 900 907 916 917 921 926 932 935 936 937 937 937 936 934 932 931 931 925 918 917 910 904 903 902 902 902 902 903 903 903 903 903 903 904 906 908 909 910 913 916 920 923 926 928 930 931 931 932 934 936 937 940 942 946 946 947 947 949 953 954 954 0 0 0 0 0 0 0 0 0 0 0 0 0 0 0 0 0 952 952 952 952 952 951 951 949 948 947 946 944 944 944 944 944 945 946 946 947 950 950 952 953 956 956 0 0 0 0 0 0 0 0 0 0 0 0 0 0 0 0 0 0 0 0 0 0 0 0 0 0 0 0 0 0 0 0 0 0 0 0 0 0 0 0 0 0 953 953 950 947 947 947 951 952 952 953 954 956 960 960 960 959 957 953 0 0 0 0 0 0 0 0 0 0 0 0 0 0 0 0 0 0 0 0 0 0 0 0 0 0 0 0 951 949 948 944 936 936 932 932 932 932 932 932 931 930 930 930 930 930 930 930 930 930 931 932 933 934 934 934 943 949 952 953 954 956 957 957 957 958 958 959 959 959 959 959 961 961 961 951 944 942 941 937 930 930 930 929 927 927 925 924 924 924 924 925 925 925 925 925 925 924 924 924 924 923 923 923 922 922 922 923 924 926 927 928 928 930 933 936 941 946 951 954 956 959 962 966 968 969 970 971 972 972 972 972 972 973 973 973 973 974 974 974 974 975 975 975 976 976 976 977 977 977 977 978 978 977 977 977 976 976 976 975 975 976 976 976 976 977 977 977 978 979 979 984 998 1017 0 0 0 0 1245 1284 1311 1315 1317 1318 1321 1325 1328 1329 1330 1332 1334 1336 1338 1338 1338 1339 1339 1339 1339 1341 1341 1343 1345 1347 1347 1347 1345 1341 1337 1335 1334 1332 1330 1328 1324 1319 1313 1308 1299 1285 1272 1259 1254 1240 1225 1204 1181 1149 1115 1091 1081 1078 1076 1075 1067 1059 1049 1043 1041 1041 1037 1035 1019 1010 1005 999 991 972 955 952 944 939 927 910 897 895 888 884 879 864 862 862 862 880 880 880 863 841 824 798 0
541 541 560 566 584 601 618 634 657 681 703 724 745 764 791 0 0 0 0 0 0 1014 1038 1066 1098 1124 1143 1159 1186 1217 1220 1248 1276 1305 1334 1356 1375 1393 1410 1428 1449 1472 1489 1505 1523 1541 1551 1566 1584 1604 1622 1642 1658 1673 1691 1710 1727 1743 1755 1768 1779 1786 1788 1789 1789 1788 1776 0 1685 1651 1651 1651 1671 1686 1692 1699 1706 1715 1722 1725 1736 1748 1761 1763 1763 1766 1766 1780 1786 1786 1786 1783 0 0 0 0 0 0 0 0 0 0 1026 981 977 954 946 935 928 928 928 928 930 930 931 931 932 933 933 933 933 934 934 934 934 934 934 934 934 934 934 935 935 935 935 936 935 936 936 936 936 937 937 937 937 937 937 937 938 937 937 937 937 937 936 936 935 935 934 933 931 928 922 918 915 914 906 896 886 877 873 872 869 865 861 861 861 862 862 863 863 863 863 864 865 866 867 868 868 868 869 869 869 869 870 871 872 874 875 877 879 882 885 887 891 897 906 912 917 920 926 932 934 936 936 936 935 935 933 929 927 926 915 908 907 905 903 901 901 901 901 901 901 901 901 901 901 901 902 904 905 906 908 912 915 919 923 925 927 929 930 930 931 933 934 936 939 942 946 946 947 949 949 952 955 955 955 0 0 0 0 0 0 0 0 0 955 955 0 0 0 950 0 0 0 952 952 952 950 949 947 944 944 944 939 939 939 941 942 943 946 946 946 946 947 950 951 955 957 957 0 0 0 0 0 0 0 0 0 0 0 0 0 0 0 0 0 0 0 0 0 0 0 0 0 0 0 0 0 0 0 0 0 0 0 0 0 0 0 0 0 952 952 951 952 952 955 955 956 956 956 956 956 962 962 962 0 0 0 0 0 0 0 0 0 0 0 0 0 0 0 0 0 0 0 0 0 0 0 0 0 0 0 0 0 0 951 951 950 948 945 938 936 935 932 932 932 933 933 933 932 932 932 932 932 932 931 931 931 932 934 938 942 944 944 949 953 957 958 958 958 958 958 958 958 958 958 0 0 0 0 964 964 964 956 950 948 944 939 934 931 930 930 929 928 927 925 925 925 925 925 925 925 925 925 925 925 925 924 924 923 923 923 922 922 922 923 924 926 927 928 928 930 933 937 942 946 951 954 956 959 962 966 968 970 971 972 973 973 973 973 974 974 974 974 975 975 975 975 975 976 976 976 977 977 977 977 977 977 978 978 978 978 978 978 977 977 977 976 976 976 976 977 977 978 978 979 979 980 980 981 989 1006 1039 0 0 0 0 1282 1310 1316 1317 1318 1321 1326 1329 1332 1332 1334 1336 1338 1339 1340 1340 1340 1340 1340 1340 1341 1341 1344 1346 1347 1347 1347 1346 1342 1338 1335 1334 1332 1330 1328 1324 1319 1313 1308 1299 1286 1275 1263 1259 1246 1233 1214 1189 1160 1127 1098 1084 1081 1078 1078 1068 1059 1049 1043 1041 1041 1037 1035 1027 1019 1009 1004 996 987 978 963 954 948 933 910 900 896 890 890 880 867 867 867 869 877 877 877 863 841 0 0 0
544 544 564 566 586 606 621 637 660 683 703 727 747 767 795 0 0 0 0 0 0 1014 1039 1068 1102 1127 1143 1159 1181 1203 1206 1239 1270 1305 1334 1356 1375 1393 1409 1427 1446 1468 1488 1505 1524 1543 1549 1566 1584 1600 1619 1638 1654 1669 1685 1704 1721 1738 1752 1768 1778 1782 1782 1782 1777 1777 1757 0 1667 1644 1644 1644 1664 1679 1689 1694 1701 1710 1716 1724 1736 1748 1761 1763 1763 1766 1766 1774 1782 1782 1782 1781 0 0 0 0 0 0 0 0 0 0 982 960 948 944 934 930 928 928 928 928 931 931 931 932 933 933 934 934 934 934 934 934 934 934 934 934 935 936 936 936 936 936 936 936 937 937 937 937 937 938 938 938 938 938 938 939 938 939 938 938 938 938 938 938 937 937 935 934 933 931 927 920 917 916 910 902 893 883 879 877 874 869 864 863 863 863 863 863 863 863 863 864 865 865 866 867 868 868 868 869 869 869 870 871 872 872 874 876 879 882 885 887 891 896 905 911 916 920 926 931 934 936 936 936 934 933 933 929 923 913 902 901 900 900 899 898 898 898 898 899 900 900 900 900 900 901 902 904 905 906 908 912 915 919 921 924 926 928 929 930 930 931 933 936 939 942 945 946 948 949 950 951 955 955 955 953 953 953 952 952 0 0 0 0 957 957 0 0 0 954 0 0 0 952 952 952 949 943 943 941 940 935 935 935 936 939 941 943 945 945 946 946 946 947 950 955 957 957 0 0 0 0 0 0 0 0 0 0 0 0 0 0 0 0 0 0 0 0 0 0 0 0 0 0 0 0 0 0 0 0 0 0 0 0 0 0 0 0 0 0 954 956 956 956 956 956 956 956 957 958 958 960 960 960 0 0 0 0 0 0 0 0 0 0 0 0 0 0 0 0 0 0 0 0 0 0 0 0 0 0 0 0 0 0 0 950 949 947 945 939 939 939 939 935 935 934 934 934 934 934 933 933 933 933 933 933 933 933 937 941 945 948 951 952 955 959 959 960 960 960 960 960 959 959 958 0 0 0 0 967 967 964 959 953 948 947 941 938 935 934 932 930 929 928 927 926 926 926 926 926 926 926 926 926 925 925 925 924 923 923 923 923 923 923 924 924 926 927 928 928 930 934 939 944 947 951 955 957 960 963 967 969 970 972 973 974 974 974 975 975 975 975 975 975 976 976 976 977 977 977 977 978 978 978 978 978 979 979 979 979 979 979 979 978 978 978 978 978 978 978 978 978 979 979 981 981 981 982 983 984 990 1013 0 0 0 0 1278 1306 1317 1319 1320 1321 1326 1331 1333 1335 1336 1339 1339 1340 1341 1342 1342 1342 1342 1341 1341 1341 1344 1346 1347 1347 1347 1346 1343 1339 1336 1335 1332 1330 1328 1321 1317 1311 1305 1299 1292 1280 1266 1262 1253 1243 1228 1202 1172 1141 1116 1098 1092 1091 1086 1074 1059 1049 1044 1041 1041 1037 1035 1032 1026 1020 1011 1002 993 985 976 962 954 936 915 904 901 900 892 880 870 870 870 870 877 877 877 863 854 0 0 0
546 546 565 566 589 609 624 637 661 683 703 727 751 775 802 835 0 0 0 0 0 1016 1039 1073 1103 1127 1144 1159 1181 1203 1206 1233 1261 1296 1330 1352 1370 1390 1407 1426 1445 1466 1484 1504 1526 1544 1548 1566 1583 1600 1619 1636 1651 1667 1684 1698 1714 1732 1749 1765 1776 1778 1778 1778 1767 1766 1744 0 1642 1642 1642 1644 1660 1668 1683 1691 1699 1706 1713 1722 1734 1747 1754 1754 1755 1757 1760 1774 1774 1774 1773 0 0 0 0 0 0 0 0 0 0 0 946 939 939 934 932 930 928 928 928 932 932 932 933 933 934 934 934 934 935 935 935 935 935 935 936 936 936 936 937 937 937 937 937 938 938 938 938 938 939 939 939 939 939 939 939 940 940 940 940 940 940 939 939 939 938 937 936 936 935 933 930 924 919 917 915 908 901 892 888 881 877 872 868 866 865 865 864 864 863 863 863 864 864 864 865 867 867 868 868 869 869 870 870 871 872 872 873 874 879 882 885 887 891 896 901 909 915 920 927 932 934 935 935 935 934 932 927 921 913 904 901 899 897 896 896 896 896 896 896 897 898 899 899 899 900 901 902 904 905 906 908 912 915 919 920 923 925 926 928 929 930 931 933 935 938 941 944 945 947 950 951 951 955 955 955 953 953 953 954 954 955 956 957 957 957 957 956 955 955 954 954 951 951 951 951 951 946 940 937 932 932 932 933 935 936 939 941 943 944 944 944 944 944 945 950 956 959 963 0 0 0 0 0 0 0 0 0 0 0 0 0 0 0 0 0 0 0 0 0 0 0 0 0 0 0 0 0 0 0 0 0 0 0 0 0 0 0 0 0 0 955 956 957 957 956 956 957 958 959 960 960 960 960 960 0 0 0 0 0 0 0 0 0 0 0 0 0 0 0 0 0 0 0 0 0 0 0 0 0 0 0 0 0 0 0 0 0 0 0 948 943 941 940 940 939 935 935 935 935 935 935 936 936 935 935 935 935 937 941 943 945 949 953 953 957 962 964 965 965 964 963 963 0 0 0 0 0 966 968 968 968 964 961 960 954 951 947 942 940 937 935 931 931 929 929 928 928 928 928 928 927 927 926 926 926 925 925 925 924 924 924 924 924 924 925 925 926 929 929 930 932 936 942 945 947 952 955 957 962 967 968 970 971 973 974 975 975 975 976 976 976 976 976 977 977 977 977 977 978 978 978 978 979 979 979 979 980 980 980 980 980 980 980 980 980 980 979 979 979 979 979 979 980 981 982 984 984 984 984 984 990 1004 0 0 0 0 0 1305 1321 1325 1325 1327 1331 1333 1335 1339 1341 1341 1341 1342 1342 1342 1343 1343 1343 1341 1341 1341 1344 1346 1347 1347 1347 1346 1344 1341 1337 1335 1333 1332 1328 1319 1313 1307 1302 1299 1295 1289 1279 1275 1263 1254 1241 1221 1184 1149 1127 1110 1105 1101 1091 1075 1061 1055 1051 1047 1046 1043 1039 1036 1030 1025 1018 1006 995 991 988 981 964 944 926 909 909 909 913 913 0 0 0 893 892 883 883 892 883 0 0 0
551 551 569 571 589 609 624 639 664 684 706 727 753 780 811 843 0 0 0 0 0 1016 1044 1077 1105 1127 1144 1164 1181 1203 1206 1233 1261 1290 1323 1345 1365 1386 1402 1421 1445 1466 1484 1504 1526 1544 1548 1566 1582 1600 1619 1634 1649 1665 1679 1694 1709 1728 1745 1760 1769 1771 1771 1771 1760 1760 1733 0 1640 1640 1640 1644 1660 1668 1677 1686 1695 1704 1712 1720 1730 1740 1746 1747 1748 1750 1748 1747 1747 1747 0 0 0 0 0 0 0 0 0 0 0 946 939 937 933 932 932 930 930 930 933 933 933 933 933 934 934 935 935 935 935 935 936 936 936 937 937 937 937 937 937 938 938 938 938 938 938 939 939 939 939 939 940 940 940 940 940 940 940 940 940 940 940 940 940 940 940 939 938 938 937 936 933 931 925 919 918 917 908 900 896 891 883 874 869 867 866 865 865 864 864 864 864 864 864 864 865 867 867 868 868 869 869 870 870 871 872 872 873 874 879 883 887 890 893 896 901 908 915 920 927 932 934 934 934 934 931 929 921 913 907 902 901 899 897 896 895 895 895 895 896 896 898 899 899 899 900 901 902 904 906 908 909 912 915 918 920 922 924 926 927 929 930 931 932 934 937 939 944 945 947 950 951 952 956 956 956 956 956 956 956 958 959 959 959 958 958 958 957 957 956 955 954 951 951 951 951 951 946 939 936 932 932 932 933 935 936 939 941 943 943 943 943 943 944 945 950 956 961 965 965 0 0 0 0 0 0 0 0 0 0 0 0 0 0 0 0 0 0 0 0 0 0 0 0 0 0 0 0 961 961 961 0 0 0 0 0 0 0 0 0 951 955 956 957 957 956 956 957 959 962 963 963 0 0 0 0 0 0 0 0 0 0 0 0 0 0 0 0 0 0 0 0 0 0 0 0 0 0 0 0 0 0 0 0 0 0 0 0 0 0 944 944 943 942 941 940 937 936 936 936 936 938 938 938 938 938 940 943 946 947 948 950 954 957 958 959 964 965 966 967 967 967 967 0 0 0 0 0 966 967 0 0 0 963 960 958 954 948 942 940 938 936 933 931 930 930 930 930 929 930 929 929 928 928 927 926 926 925 925 924 924 924 924 925 925 926 927 929 930 931 931 933 939 944 946 949 957 961 962 966 969 971 972 973 973 975 975 976 976 976 977 977 977 977 977 978 978 978 978 979 979 979 979 979 979 980 980 981 981 981 981 981 981 981 981 981 981 980 980 980 980 980 980 981 981 983 984 984 984 984 985 990 1004 1022 0 0 0 0 1284 1321 1329 1332 1332 1334 1334 1339 1343 1345 1345 1345 1343 1343 1343 1343 1343 1343 1341 1341 1341 1343 1345 1345 1345 1345 1345 1344 1343 1340 1337 1335 1333 1328 1319 1313 1307 1302 1300 1296 1292 1283 1279 1270 1260 1251 1230 1191 1160 1133 1119 1110 1105 1091 1079 1067 1062 1058 1053 1049 1046 1042 1037 1033 1026 1018 1008 1001 996 991 988 975 945 936 933 933 936 946 946 946 946 946 945 923 903 903 903 903 0 0 0
553 553 569 571 589 609 624 642 666 684 706 729 756 785 815 844 847 0 0 0 0 1018 1052 1078 1105 1125 1145 1165 1186 1205 1210 1233 1261 1290 1319 1343 1363 1383 1400 1421 1445 1466 1484 1504 1527 1544 1548 1564 1580 1596 1615 1630 1642 1658 1674 1690 1707 1725 1741 1754 1765 1767 1767 1767 1754 1753 0 1669 1640 1640 1640 1651 1660 1667 1675 1680 1691 1700 1709 1715 1722 1728 1737 1741 1741 1741 1736 1730 0 0 0 0 0 0 0 0 0 0 0 945 942 940 938 935 933 932 932 932 932 934 934 934 934 934 934 934 934 935 935 935 936 936 936 937 937 937 938 938 938 938 938 939 939 939 939 939 940 940 940 940 940 940 940 941 941 941 941 941 941 941 942 942 942 942 942 941 941 941 940 939 938 938 936 934 932 926 921 920 914 907 905 896 884 878 871 868 867 867 866 865 865 865 865 864 864 864 865 867 867 868 868 869 869 870 871 872 873 873 873 874 879 884 887 891 894 896 901 908 916 920 929 933 935 935 935 933 929 925 921 913 907 902 901 899 897 896 895 895 895 895 896 896 898 898 899 900 901 902 903 905 906 908 909 912 915 918 920 921 922 924 926 927 929 930 932 934 937 937 938 941 947 950 952 953 956 957 957 957 957 957 957 958 959 959 959 959 958 958 957 957 956 955 954 951 950 948 945 941 938 936 936 932 932 932 934 936 938 939 941 943 943 943 943 943 944 945 950 955 961 965 965 965 0 0 0 0 0 0 0 0 0 0 0 0 0 0 0 0 0 0 0 0 0 0 0 0 0 0 962 961 961 961 962 0 0 0 0 0 0 0 0 954 954 955 955 955 955 956 956 961 962 963 963 0 0 0 0 0 0 0 0 0 0 0 0 0 0 0 966 966 965 0 0 0 0 0 0 0 0 0 0 0 0 0 0 0 0 0 0 0 0 0 949 948 946 943 940 940 938 938 938 938 939 940 940 941 943 945 947 949 952 955 956 959 962 962 964 964 967 968 968 968 969 969 969 969 969 969 969 968 967 0 0 0 963 961 961 956 949 943 941 938 938 935 933 931 931 931 930 931 930 930 930 930 929 927 927 927 926 925 925 925 925 926 927 927 927 928 930 931 932 933 936 941 950 953 955 960 965 966 968 970 972 974 974 975 976 976 977 977 977 977 978 978 978 978 978 978 979 979 979 980 980 980 980 980 981 981 981 982 982 982 982 982 982 982 982 982 981 981 981 981 981 981 982 983 983 985 985 985 985 985 988 1004 1019 1034 0 0 0 0 1321 1331 1335 1336 1337 1337 1341 1347 1348 1348 1348 1346 1343 1343 1343 1343 1343 1341 1340 1340 1340 1340 1341 1341 1342 1343 1343 1343 1340 1337 1336 1335 1330 1319 1313 1307 1302 1301 1298 1294 1287 1283 1274 1267 1258 1247 1221 1176 1145 1129 1119 1105 1095 1082 1068 1062 1058 1053 1049 1046 1043 1040 1033 1026 1021 1015 1008 1003 1000 996 991 985 980 978 975 973 965 957 955 954 953 947 925 909 909 909 909 0 0 0
555 555 571 572 589 607 623 642 667 688 706 731 760 791 817 844 847 0 0 0 0 1018 1055 1082 1105 1123 1144 1167 1192 1213 1217 1237 1262 1290 1314 1338 1357 1377 1397 1421 1444 1467 1489 1505 1527 1542 1547 1564 1580 1596 1611 1625 1639 1657 1674 1690 1707 1723 1739 1752 1761 1761 1761 1761 1747 1746 0 1647 1640 1640 1640 1653 1661 1667 1670 1677 1686 1695 1704 1709 1714 1716 1725 1729 1729 1729 1720 0 0 0 0 0 0 0 0 0 0 0 941 940 936 935 935 933 933 932 932 932 933 934 935 935 935 934 934 934 935 935 936 937 937 937 937 938 938 938 938 939 939 939 939 939 939 940 940 940 941 941 941 941 941 942 942 942 942 942 942 942 942 942 942 942 942 943 942 942 942 942 942 941 941 940 938 938 936 934 927 921 918 917 913 901 889 879 875 870 869 869 868 866 866 866 866 866 866 866 867 867 868 868 868 869 869 870 871 872 873 875 876 880 883 885 888 892 895 899 901 908 919 928 932 933 936 936 936 933 929 925 921 913 907 902 901 899 898 896 895 895 895 895 896 896 898 898 899 900 902 903 904 905 906 908 909 911 915 918 919 920 921 922 924 925 928 930 932 934 936 936 937 939 943 948 952 953 955 957 958 958 958 959 959 959 959 959 959 958 958 958 957 957 955 951 948 948 945 945 945 938 937 936 936 935 935 935 937 938 939 940 941 943 943 943 943 944 945 948 950 953 961 961 961 958 0 0 0 0 0 0 0 0 0 0 0 0 0 0 0 0 0 0 0 0 0 0 960 960 961 961 961 961 961 961 962 962 962 959 0 0 0 0 0 954 954 954 955 955 955 956 958 961 962 963 964 964 964 963 0 0 0 0 0 0 0 0 0 0 0 966 966 966 966 963 0 0 0 0 0 0 0 0 0 0 0 0 0 0 0 0 0 0 0 0 949 949 946 943 943 941 941 940 940 940 940 941 942 942 944 947 950 953 957 959 959 962 963 966 966 968 969 969 970 970 970 970 970 970 970 970 969 967 967 967 966 965 963 961 961 957 952 947 943 941 939 938 934 933 933 933 932 932 932 932 932 931 930 929 928 928 928 927 927 927 927 928 928 928 928 930 932 934 935 936 939 944 953 956 962 964 967 969 971 973 975 975 976 977 978 978 978 978 978 979 979 979 979 979 979 979 979 979 979 980 980 980 980 981 981 981 982 983 983 983 983 983 983 983 983 983 983 983 983 983 983 983 983 984 985 985 985 985 986 986 988 992 1006 1033 0 0 0 0 0 1331 1337 1338 1339 1339 1342 1348 1350 1350 1350 1347 1343 1342 1342 1341 1341 1339 1338 1338 1337 1337 1336 1336 1336 1340 1340 1340 1340 1337 1336 1335 1332 1329 1323 1316 1311 1307 1303 1299 1292 1288 1280 1275 1270 1264 1241 1203 1168 1145 1127 1107 1095 1082 1068 1062 1058 1053 1049 1046 1043 1040 1033 1026 1021 1017 1015 1011 1008 1006 1003 999 989 988 978 975 965 957 957 956 954 950 932 914 914 914 914 0 0 0
555 555 571 573 589 606 623 643 668 693 714 739 765 792 818 844 847 0 0 0 977 1018 1055 1082 1105 1123 1144 1168 1192 1215 1219 1242 1265 1290 1312 1329 1349 1370 1393 1418 1444 1467 1489 1505 1527 1540 1545 1561 1580 1595 1610 1624 1639 1655 1674 1690 1706 1723 1738 1751 1760 1760 1760 1753 1735 1735 0 1636 1636 1636 1640 1653 1661 1666 1668 1673 1681 1690 1697 1705 1708 1709 1713 1713 1713 1704 0 0 0 0 0 0 0 0 0 0 0 938 937 936 936 935 935 933 932 932 932 932 933 935 935 935 935 935 935 935 935 936 937 937 937 938 938 938 939 939 939 939 939 940 940 940 940 940 941 941 941 942 942 943 943 943 943 943 943 943 943 943 943 943 943 944 944 944 944 944 944 944 943 943 943 942 941 939 938 936 935 928 923 922 918 908 897 887 878 871 871 871 870 869 869 869 869 868 868 869 869 869 869 869 869 869 869 871 872 873 874 875 879 883 886 888 890 895 899 905 911 920 929 934 936 936 937 936 936 933 929 925 922 919 911 907 903 901 899 897 897 896 896 896 896 898 898 898 900 900 902 903 904 905 906 908 909 911 914 916 917 917 919 920 922 924 926 928 930 934 935 936 937 939 942 946 951 953 955 956 957 958 959 959 959 959 959 959 959 958 958 957 957 957 954 950 948 945 945 945 943 938 937 936 936 936 936 937 939 940 940 940 941 942 942 943 944 944 945 948 950 951 955 956 956 957 959 959 962 964 966 0 0 0 0 0 0 0 0 0 0 0 0 0 0 0 0 960 960 960 961 961 961 961 960 960 960 960 960 960 960 959 959 957 954 953 953 953 953 954 957 958 959 961 964 964 965 965 965 963 0 0 0 0 0 0 0 0 0 0 962 962 963 963 963 963 0 0 0 0 0 0 0 0 0 0 969 968 968 0 0 0 0 0 0 0 951 951 947 946 944 943 943 942 942 942 942 943 944 947 949 950 953 957 960 962 962 964 965 967 968 970 970 971 971 971 971 970 970 970 970 970 0 0 0 967 967 967 967 965 963 960 956 952 947 943 942 941 937 935 935 934 934 934 934 933 933 932 930 930 930 929 929 928 928 928 928 929 929 930 930 931 935 939 939 940 941 950 956 961 965 968 969 971 973 975 976 976 977 978 979 979 979 980 980 980 980 980 980 980 980 980 980 980 980 981 981 981 982 982 982 982 983 983 984 984 984 984 984 984 984 984 984 984 984 984 984 984 985 985 986 986 986 987 987 987 988 992 1003 1027 1052 0 0 0 0 1331 1337 1339 1341 1344 1347 1351 1351 1351 1350 1347 1343 1340 1339 1338 1338 1336 1334 1334 1334 1333 1333 1334 1334 1338 1339 1339 1339 1336 1335 1335 1332 1329 1325 1321 1315 1311 1311 1306 1299 1293 1290 1285 1282 1274 1255 1221 1192 1158 1129 1111 1095 1082 1068 1061 1059 1053 1049 1043 1042 1040 1033 1025 1022 1019 1015 1011 1008 1006 1003 999 991 988 978 975 965 959 959 958 958 951 933 918 918 918 918 0 0 0
558 558 572 573 589 606 623 643 669 697 723 749 770 793 819 843 847 0 0 946 980 1017 1055 1083 1105 1123 1145 1169 1192 1216 1219 1242 1267 1291 1312 1329 1348 1365 1388 1415 1442 1467 1489 1505 1520 1535 1539 1561 1580 1595 1610 1623 1639 1654 1671 1690 1706 1722 1738 1749 1757 1757 1757 1746 1726 1721 1678 1628 1628 1628 1639 1653 1661 1663 1665 1667 1673 1681 1692 1699 1699 1699 1699 1696 0 0 0 0 0 0 0 0 0 0 0 0 942 937 936 936 936 935 934 934 934 934 934 934 934 935 935 935 935 935 935 935 936 937 937 937 938 938 939 939 939 940 940 940 940 940 940 940 941 941 941 941 942 942 943 943 943 943 943 944 944 944 944 944 944 944 944 944 945 945 945 945 945 945 945 944 944 943 942 940 940 939 937 933 927 924 923 916 911 905 891 877 873 873 872 871 871 870 869 869 869 869 871 871 871 870 870 870 871 872 873 873 874 876 879 884 888 892 898 902 910 918 924 931 933 935 939 939 940 940 939 936 931 928 926 920 915 911 906 901 899 899 898 898 897 897 897 898 899 899 901 901 903 903 905 906 907 908 909 911 912 913 915 916 919 920 921 923 925 927 930 932 934 935 936 939 942 946 951 952 954 955 957 959 959 959 959 960 960 960 959 958 958 957 956 955 954 949 945 945 945 945 943 938 938 938 938 939 939 939 940 940 940 940 941 942 942 943 944 944 945 948 950 951 951 954 954 957 959 961 964 965 966 966 0 0 0 0 0 0 0 0 0 0 0 0 0 0 963 0 0 0 961 961 961 961 961 961 960 960 960 959 960 959 959 957 953 951 951 951 952 953 956 958 962 962 964 964 965 965 965 0 0 0 0 0 0 0 0 0 0 961 961 961 963 964 965 0 0 0 0 0 0 969 969 969 969 970 970 970 970 970 0 0 0 0 0 0 955 955 951 948 948 948 947 946 944 944 944 946 951 953 955 957 960 960 962 965 966 967 968 969 971 971 972 972 972 972 972 972 970 970 970 970 0 0 0 969 969 969 969 968 963 961 957 952 948 944 943 942 940 937 937 936 935 935 934 934 934 933 932 932 931 931 930 930 930 930 930 930 931 933 933 937 941 944 946 948 951 960 966 968 970 970 971 974 975 976 977 978 978 979 979 979 980 980 980 981 980 980 981 981 981 981 981 981 981 982 982 982 982 983 983 983 983 984 984 985 985 985 985 985 985 985 985 985 985 985 985 985 985 985 987 987 988 988 988 988 988 990 1002 1016 1031 0 0 0 0 1281 1323 1334 1341 1348 1351 1351 1351 1351 1350 1347 1341 1339 1337 1336 1334 1333 1332 1332 1332 1331 1332 1333 1333 1335 1335 1335 1335 1333 1332 1332 1332 1329 1326 1323 1319 1318 1317 1309 1299 1293 1290 1285 1282 1274 1255 1228 1199 1160 1134 1113 1099 1090 1068 1061 1059 1053 1049 1043 1042 1037 1030 1024 1022 1019 1015 1011 1008 1006 1003 999 991 988 978 975 965 965 963 961 961 950 933 933 933 933 933 0 0 0
562 562 578 579 592 606 623 644 671 699 725 750 772 794 818 843 847 0 0 947 980 1017 1055 1084 1106 1124 1147 1170 1193 1216 1219 1243 1269 1293 1312 1329 1348 1365 1387 1412 1439 1463 1483 1499 1516 1532 1537 1559 1580 1595 1608 1622 1638 1654 1671 1690 1706 1722 1737 1748 1754 1754 1754 1736 1722 1708 1654 1620 1620 1620 1634 1647 1655 1657 1659 1662 1668 1677 1687 1693 1693 1693 1687 0 0 0 0 0 0 0 0 0 0 0 0 944 937 937 937 936 936 936 935 934 934 934 935 935 935 935 935 935 936 936 936 937 937 937 938 938 939 939 939 940 940 940 940 940 940 940 940 941 941 941 941 942 943 943 944 944 944 944 945 945 945 945 945 945 945 945 945 945 945 946 946 946 946 946 946 946 945 945 944 943 942 941 941 938 935 929 923 922 917 913 902 888 880 878 876 875 875 874 873 873 873 873 873 873 873 873 872 872 872 873 875 875 875 876 880 886 891 902 907 909 916 927 936 938 938 940 942 943 943 942 942 938 935 933 929 924 922 918 910 903 900 899 899 898 898 898 898 899 899 900 901 902 903 904 906 906 907 908 910 911 912 913 915 916 919 920 921 923 925 927 929 931 933 934 936 939 941 946 949 950 954 955 958 959 959 959 959 959 959 959 959 958 957 957 954 951 949 946 946 945 945 945 943 940 940 940 941 941 941 941 941 941 941 941 941 942 942 943 944 944 944 944 948 949 950 951 951 952 957 959 962 964 966 966 0 0 0 0 0 0 0 0 0 0 0 0 0 965 965 0 0 0 963 963 962 961 961 960 959 958 958 958 958 958 957 957 950 950 950 951 951 953 956 958 962 962 964 964 965 0 0 0 0 0 0 0 0 0 0 0 966 961 961 961 963 966 966 0 0 0 970 970 970 970 970 970 973 973 973 973 972 972 970 969 968 964 963 963 962 956 952 952 952 952 952 952 950 950 950 954 956 958 960 963 964 964 965 966 967 969 969 971 971 973 973 973 973 973 973 972 971 971 971 971 971 971 970 970 970 970 970 968 964 962 958 955 948 944 944 944 943 940 939 938 936 936 935 934 934 934 933 933 933 932 931 931 931 931 931 932 935 937 940 943 945 948 952 954 959 967 971 971 971 972 974 976 976 977 978 979 979 980 980 980 980 981 981 981 982 982 982 982 982 983 983 983 983 983 983 983 983 983 983 984 984 985 985 985 986 986 986 986 986 986 986 986 986 986 986 987 987 987 987 989 989 989 988 988 988 990 994 1006 1028 1049 0 0 0 0 1300 1330 1341 1349 1350 1350 1350 1348 1347 1343 1339 1337 1335 1335 1333 1330 1329 1329 1329 1329 1329 1329 1330 1332 1332 1332 1330 1330 1330 1329 1329 1328 1326 1323 1322 1318 1317 1309 1299 1293 1290 1285 1282 1274 1255 1228 1209 1172 1142 1118 1103 1092 1068 1062 1061 1057 1049 1043 1042 1036 1026 1024 1022 1019 1014 1010 1006 1003 998 995 991 983 974 971 965 965 964 961 961 950 933 933 933 933 933 0 0 0
566 566 582 584 598 610 630 655 676 704 728 752 772 796 818 843 847 0 0 947 981 1017 1051 1084 1107 1127 1151 1171 1193 1216 1219 1244 1269 1293 1312 1330 1347 1364 1386 1410 1435 1459 1479 1496 1513 1531 1536 1557 1578 1594 1607 1620 1636 1654 1671 1686 1703 1717 1731 1745 1747 1747 1747 1728 1716 1692 1644 1615 1615 1615 1630 1642 1647 1648 1650 1656 1664 1674 1684 1684 1684 1683 0 0 0 0 0 0 0 0 0 0 0 0 945 940 937 937 937 937 937 937 935 935 935 935 935 936 936 936 936 936 937 937 937 937 938 938 939 939 939 940 940 940 940 940 940 940 940 940 941 941 941 941 941 943 943 944 944 944 945 945 945 945 945 945 945 946 945 945 946 946 946 946 947 947 947 947 947 947 947 947 946 945 944 943 943 942 940 936 929 923 920 916 908 900 891 886 884 883 882 881 879 878 878 877 877 876 875 874 874 874 876 876 877 877 877 879 884 889 896 904 914 920 923 931 940 943 943 945 946 946 946 946 945 942 938 935 934 930 927 922 915 905 900 899 899 899 899 899 899 900 900 901 903 904 904 906 906 907 908 909 910 911 912 913 915 916 919 920 921 923 925 926 928 930 932 933 934 938 940 945 949 950 954 956 958 959 959 959 959 959 959 959 959 958 957 957 954 951 948 946 946 946 946 946 945 943 942 942 942 942 942 942 941 941 941 941 941 942 942 943 943 944 944 944 945 945 947 948 949 952 956 960 960 963 966 966 966 964 0 0 0 0 0 0 0 0 0 0 967 969 969 969 969 969 966 963 962 961 961 960 959 958 958 956 958 956 955 955 949 949 949 948 949 951 951 954 962 962 964 964 964 0 0 0 0 0 0 0 0 0 0 0 967 0 0 0 965 970 974 974 974 972 972 971 970 970 970 970 972 974 974 974 973 972 971 971 969 965 964 964 963 961 959 952 952 952 954 955 955 957 959 959 959 960 962 963 965 967 968 968 969 970 972 972 972 973 973 974 974 974 974 974 974 974 974 974 974 974 974 974 975 975 975 972 970 964 961 960 956 951 947 946 945 942 940 939 937 937 936 935 935 935 935 935 934 934 933 933 933 934 934 936 940 942 944 944 949 955 958 961 962 967 972 973 974 975 976 977 978 979 979 980 981 981 981 981 982 982 982 982 983 982 982 983 983 983 983 983 983 984 984 984 984 984 984 985 985 986 986 986 987 987 987 987 987 987 987 987 987 987 987 988 988 988 989 989 990 990 990 990 990 990 994 1005 1020 1043 0 0 0 0 1290 1328 1341 1349 1349 1349 1346 1345 1343 1336 1335 1335 1334 1334 1332 1330 1328 1327 1326 1325 1325 1325 1327 1328 1328 1328 1328 1327 1327 1326 1325 1325 1323 1323 1322 1318 1317 1309 1297 1288 1284 1279 1278 1276 1258 1233 1209 1186 1159 1132 1114 1093 1079 1069 1065 1061 1058 1050 1045 1036 1026 1024 1022 1020 1014 1010 1006 1002 997 988 979 974 967 964 962 962 962 962 962 950 934 933 933 933 933 0 0 0
566 566 584 586 601 615 631 660 688 711 733 753 774 796 821 843 848 884 913 947 982 1018 1051 1084 1107 1127 1151 1173 1196 1216 1220 1244 1269 1293 1312 1330 1347 1364 1384 1405 1430 1454 1472 1496 1513 1531 1536 1554 1573 1590 1606 1619 1634 1651 1666 1681 1697 1712 1725 1736 1736 1736 1734 1716 0 0 1614 1610 1610 1610 1626 1636 1639 1639 1640 1649 1658 1669 1669 1669 0 0 0 0 0 0 0 0 0 0 0 0 941 941 940 939 939 938 938 938 938 938 937 936 936 937 936 937 937 937 937 937 937 937 937 939 939 939 940 940 940 940 940 940 940 940 940 940 940 940 940 941 941 941 942 943 943 944 944 944 945 946 946 946 946 946 946 946 946 946 946 947 947 947 948 948 948 948 948 948 948 948 948 947 947 945 945 944 943 940 939 933 928 922 917 909 899 894 893 891 889 884 883 882 881 879 877 876 876 876 876 878 878 879 880 880 881 884 886 892 902 912 921 927 931 938 943 947 947 948 948 948 948 948 947 945 943 940 935 933 929 925 920 910 900 900 899 899 899 899 900 900 901 902 903 904 905 906 908 908 909 910 911 912 912 913 915 917 919 920 921 923 925 926 928 930 931 933 933 936 940 944 948 950 953 955 957 959 959 959 960 960 960 959 959 958 956 954 952 951 948 946 946 946 946 946 945 943 943 943 943 943 943 942 942 942 942 942 942 942 942 943 943 944 944 944 945 945 947 948 949 952 958 961 962 963 966 966 966 964 964 964 964 966 966 966 962 962 962 966 970 970 970 970 970 969 966 964 962 961 960 960 959 957 956 955 947 947 945 943 943 943 943 944 947 948 949 952 959 962 964 965 965 0 0 0 0 0 0 0 0 0 0 0 965 0 0 0 969 972 975 975 975 974 973 973 970 970 970 970 972 975 975 975 974 973 973 973 973 966 965 965 965 964 964 963 959 958 958 958 960 962 962 962 964 965 967 967 968 969 970 971 971 972 973 973 974 974 976 976 976 976 976 976 976 976 976 976 975 975 975 975 976 976 976 972 972 970 966 962 961 958 952 948 947 943 941 939 938 937 936 936 936 937 937 937 937 936 936 936 936 936 937 939 942 948 950 951 958 962 965 968 969 971 973 974 976 977 977 978 979 980 981 981 982 982 982 983 983 983 983 983 983 983 983 983 983 984 984 984 984 984 984 985 985 985 985 986 986 987 987 987 988 988 988 988 988 988 989 989 989 989 989 989 990 990 990 990 991 992 992 992 993 993 994 998 1006 1022 0 0 0 0 1278 1318 1340 1349 1349 1349 1346 1341 1338 1332 1332 1332 1332 1332 1332 1329 1327 1326 1325 1322 1322 1322 1323 1325 1326 1326 1326 1325 1324 1321 1321 1321 1321 1321 1321 1318 1312 1302 1293 1288 1284 1279 1278 1276 1258 1233 1210 1199 1186 1159 1134 1110 1090 1077 1070 1069 1066 1056 1053 1036 1026 1024 1022 1020 1014 1010 1006 1002 992 980 977 972 967 963 962 962 962 962 962 950 932 928 928 928 928 0 0 0
566 566 584 586 601 616 631 0 691 714 737 753 774 799 822 842 863 888 914 947 981 1018 1051 1084 1107 1127 1151 1173 1196 1217 1221 1244 1268 1288 1311 1330 1347 1364 1383 1404 1428 1449 1472 1494 1513 1530 1536 1553 1571 1589 1604 1618 1633 1648 1663 1679 1694 1705 1717 1726 1726 1726 1719 1701 0 0 1604 1604 1604 1606 1622 1629 1629 1631 1632 1636 1650 1650 1650 0 0 0 0 0 0 0 0 0 0 0 0 941 941 941 940 939 939 939 939 939 938 938 938 937 937 938 938 938 938 938 938 938 939 939 939 939 939 939 940 940 940 940 940 940 940 940 940 940 940 940 940 941 941 941 942 943 943 944 944 945 946 946 947 947 947 947 947 947 947 947 947 948 948 948 949 949 949 949 949 949 949 949 949 948 948 947 947 946 944 943 943 942 933 927 923 915 909 909 904 899 894 890 887 885 883 881 878 878 878 878 879 880 881 882 883 885 888 892 896 905 916 924 932 937 940 944 947 949 950 951 951 951 950 950 950 949 947 945 941 935 930 926 923 917 907 902 900 900 900 900 900 902 902 903 904 905 906 907 908 909 910 911 912 913 914 915 915 918 919 920 922 923 925 926 928 929 931 933 933 934 940 944 949 950 953 955 957 959 960 960 960 960 960 959 958 958 956 954 952 951 948 946 946 946 946 946 945 944 944 944 944 944 944 944 943 943 943 943 943 943 943 943 944 944 944 944 945 945 947 948 949 951 956 960 961 963 966 967 967 967 964 964 964 967 967 967 962 962 962 967 970 970 970 970 970 969 966 964 962 961 960 959 957 953 950 950 947 946 945 943 943 943 942 942 943 944 947 950 958 960 964 965 965 0 0 0 0 0 0 0 0 0 0 0 971 971 970 970 970 972 975 977 977 977 977 974 970 970 970 971 973 975 975 975 974 973 973 973 973 970 965 965 965 965 965 963 962 961 961 961 962 964 964 964 966 968 968 969 970 970 972 972 973 973 974 974 975 976 977 977 977 977 977 977 979 979 979 979 977 976 976 976 977 977 977 974 973 972 969 966 964 961 956 951 949 945 942 939 939 939 939 939 939 939 939 939 939 939 939 939 939 940 940 943 949 957 964 967 969 969 970 970 972 974 975 977 978 979 980 980 981 981 982 982 982 982 983 983 984 984 984 984 984 984 985 985 985 985 985 985 985 985 986 986 986 986 986 987 987 988 988 988 989 989 989 989 989 989 990 990 990 990 990 990 990 991 991 991 992 992 993 994 994 994 995 996 996 1012 1018 0 0 0 0 1296 1339 1344 1344 1344 1338 1337 1336 1332 1331 1331 1331 1330 1330 1328 1327 1324 1323 1322 1322 1322 1322 1324 1325 1325 1325 1325 1324 1321 1320 1320 1320 1320 1317 1314 1307 1299 1293 1288 1284 1279 1278 1276 1258 1233 1215 1209 1201 1185 1155 1129 1103 1085 1076 1072 1066 1060 1055 1042 1034 1029 1024 1020 1015 1011 1010 1001 988 979 974 969 962 958 958 958 962 962 962 948 931 925 919 910 907 0 0 0
566 566 584 586 603 617 636 661 691 714 737 753 774 799 828 840 866 892 914 947 981 1018 1046 1077 1103 1124 1149 1173 1196 1217 1221 1244 1265 1283 1305 1325 1345 1363 1380 1402 1424 1447 1470 1494 1512 1522 1535 1553 1568 1586 1602 1616 1631 1646 1663 1679 1694 1705 1711 1718 1718 1718 1709 1687 1687 1643 1597 1597 1597 1604 1619 1623 1623 1624 1624 1624 1624 1624 0 0 0 0 0 0 0 0 0 0 0 953 943 941 941 941 940 940 940 940 940 940 939 938 938 938 938 938 939 939 939 939 939 939 939 940 940 940 940 940 940 940 940 940 940 940 940 940 940 940 940 940 940 940 940 940 941 943 943 944 944 945 946 947 947 948 948 948 948 948 948 948 949 949 949 949 950 950 950 950 950 950 950 950 950 950 949 949 948 948 947 945 943 943 940 934 926 922 922 919 909 904 897 890 887 885 883 881 879 879 879 881 881 883 883 885 887 891 894 909 921 922 926 935 943 944 944 948 950 952 953 954 954 953 952 952 952 951 949 949 946 941 935 930 926 921 913 908 902 901 901 901 901 902 904 905 906 906 907 908 908 910 911 912 913 913 914 915 916 918 919 920 922 923 925 927 928 929 929 930 933 934 940 944 949 951 954 957 957 959 960 960 960 960 960 958 957 957 955 953 952 951 949 947 947 946 946 946 945 944 944 944 945 945 945 945 945 944 944 944 944 944 944 944 944 944 944 945 945 947 948 948 949 951 955 959 961 963 965 966 966 965 964 964 964 967 967 967 0 0 0 967 970 970 970 970 970 969 964 962 961 959 958 958 955 948 948 947 946 945 945 943 943 943 943 943 943 943 944 949 956 956 958 965 970 972 973 973 973 0 0 0 0 0 0 0 973 973 971 971 971 972 975 977 977 977 977 975 973 973 973 973 973 975 975 975 974 973 973 973 973 970 967 967 967 965 965 963 963 963 963 963 965 967 967 968 968 969 969 971 972 973 973 973 974 975 975 975 977 977 978 978 978 978 979 980 980 980 980 979 979 978 978 978 978 977 977 977 975 974 972 968 966 964 961 958 953 950 947 943 942 942 941 940 940 940 940 940 941 941 941 941 941 943 948 956 963 965 968 971 972 973 973 973 974 975 977 978 979 980 981 981 982 982 983 983 984 984 984 984 984 984 985 985 985 985 985 985 985 985 986 986 986 986 986 987 987 987 988 988 988 988 989 989 990 990 990 990 990 990 991 991 991 991 991 991 992 992 992 992 992 993 994 995 995 995 994 994 994 999 1006 0 0 0 0 0 1309 1335 1335 1335 1335 1334 1334 1332 1330 1330 1329 1328 1327 1326 1324 1324 1323 1322 1322 1322 1322 1324 1324 1325 1325 1325 1324 1320 1320 1319 1319 1318 1314 1310 1305 1299 1293 1290 1288 1287 1286 1285 1276 1256 1238 1225 1216 1193 1162 1131 1120 1100 1088 1075 1072 1064 1060 1052 1044 1036 1028 1023 1016 1012 1010 1001 988 978 971 965 959 956 951 948 947 943 940 934 919 911 904 896 884 0 0 0
566 566 582 583 603 617 640 666 690 714 737 750 774 800 832 840 867 894 920 948 981 1012 1041 1070 1096 1120 1145 1166 1190 1217 1221 1243 1263 1282 1301 1321 1341 1360 1380 1402 1423 1442 1466 1494 1512 1521 1535 1550 1564 1580 1596 1613 1629 1646 1663 1679 1693 1704 1711 1716 1716 1716 1700 1673 1671 1620 1592 1592 1592 1603 1616 1617 1617 1617 1614 1613 1612 0 0 0 0 0 0 0 0 0 0 949 949 941 941 941 941 941 941 940 940 940 940 940 939 939 939 939 939 939 939 939 940 940 940 940 941 941 941 940 940 940 940 940 940 940 940 940 940 939 939 939 939 939 939 938 938 938 941 942 943 944 944 945 946 947 948 948 948 949 949 949 949 949 949 950 950 950 950 950 951 951 951 951 951 951 951 951 951 950 950 950 949 948 946 944 943 939 932 927 925 922 915 908 897 890 888 885 883 881 881 881 881 884 885 886 888 891 892 892 904 922 931 932 935 941 948 948 949 952 953 954 955 955 955 955 955 955 955 952 952 950 948 945 941 937 929 925 917 911 909 904 903 903 903 904 905 906 907 908 908 908 910 911 912 912 913 913 914 915 916 918 919 921 922 924 926 927 929 929 930 930 933 934 940 944 949 951 954 957 957 959 960 960 960 960 959 958 956 956 955 953 952 951 949 947 947 946 946 946 945 944 944 944 945 945 946 946 946 945 945 945 945 945 945 945 945 945 945 946 947 949 950 950 950 951 955 959 961 963 966 966 966 966 966 967 967 971 971 971 0 0 0 967 968 968 968 968 968 963 961 961 960 958 958 956 952 946 946 946 946 946 945 945 945 944 944 943 943 943 944 950 953 953 955 957 966 972 973 973 973 973 0 0 0 0 0 0 976 973 972 972 972 972 975 977 977 977 977 976 974 974 974 974 974 974 974 974 973 973 972 972 971 970 967 967 967 966 964 963 963 963 964 965 966 968 969 970 971 971 971 972 973 974 975 975 975 976 976 976 978 978 978 979 979 980 981 981 981 981 981 981 981 980 979 978 978 978 978 978 977 975 973 969 968 966 964 960 957 952 950 946 945 944 942 942 940 940 940 942 942 943 944 945 946 949 959 966 967 967 969 972 974 975 975 976 977 978 980 980 982 982 982 983 983 983 984 984 985 985 985 985 985 985 985 985 985 986 986 986 986 987 987 987 987 987 987 987 988 988 988 989 989 989 990 990 991 991 991 992 992 992 992 992 992 993 993 993 993 993 993 993 993 993 994 995 995 995 993 993 993 995 1005 0 0 0 0 0 0 1320 1328 1329 1329 1332 1332 1332 1330 1328 1328 1327 1325 1324 1323 1323 1323 1322 1321 1321 1321 1323 1324 1325 1325 1325 1324 1320 1320 1319 1318 1317 1313 1308 1302 1299 1297 1293 1290 1288 1287 1287 1280 1266 1252 1242 1225 1198 1174 1152 1141 1125 1097 1084 1072 1067 1063 1058 1051 1043 1032 1023 1016 1013 1010 1001 988 978 971 965 959 956 951 948 940 936 928 925 919 911 897 886 884 0 0 0
564 564 580 583 603 621 642 667 690 712 733 749 772 801 836 839 872 899 925 950 977 1008 1037 1065 1096 1120 1145 1166 1190 1194 1212 1238 1260 1279 1299 1320 1341 1360 1380 1402 1421 1441 1465 1489 1511 1515 1530 1542 1554 1570 1588 1609 1627 1646 1663 1679 1692 1704 1711 1711 1711 1709 1694 1656 1656 1600 1585 1585 1585 1599 1608 1608 1608 1601 1596 0 0 0 0 0 0 0 0 0 0 0 940 938 938 938 939 941 942 942 942 941 940 940 940 940 940 940 940 940 940 940 940 941 941 941 941 941 941 941 941 941 941 941 941 941 941 941 941 940 940 939 939 938 938 938 936 935 935 935 939 941 943 943 944 945 946 947 948 948 949 949 949 950 950 950 950 950 951 951 951 952 952 952 952 952 952 952 952 952 952 952 951 951 950 949 948 946 945 943 941 934 928 924 916 910 901 891 890 885 883 881 881 881 883 888 890 892 896 906 915 918 927 933 935 942 947 950 952 953 954 954 956 956 957 957 957 957 957 956 955 954 954 953 951 947 944 940 934 927 920 915 912 907 906 905 905 905 906 906 907 908 908 909 911 912 913 913 913 914 915 916 918 919 920 921 923 926 929 930 930 930 930 930 933 937 943 946 949 951 954 957 959 959 961 961 961 960 959 958 956 956 955 953 952 950 949 947 947 946 946 945 945 945 945 945 945 946 946 946 946 946 946 946 946 946 946 945 945 945 945 947 947 949 950 950 950 951 955 958 961 961 965 967 967 967 968 971 974 974 974 973 971 969 967 967 967 968 968 968 966 961 958 953 953 951 945 943 943 943 945 946 946 946 945 945 945 945 945 945 945 945 945 950 953 953 955 956 959 966 972 972 973 973 973 973 974 976 976 976 976 974 973 973 973 973 976 977 977 977 977 977 976 976 975 975 975 974 974 974 973 972 972 971 971 970 967 967 967 966 963 963 963 965 967 967 968 970 970 971 972 972 972 973 974 975 975 976 977 977 977 978 978 979 979 979 979 980 981 981 981 981 981 981 981 981 980 980 979 979 978 978 977 976 974 972 970 968 966 963 960 955 951 948 946 946 944 943 942 942 942 944 947 948 950 953 953 956 963 968 968 969 972 974 976 977 977 978 979 980 981 982 982 983 984 984 984 985 985 985 985 986 986 986 986 986 986 986 987 987 987 987 987 987 988 988 988 988 988 989 989 990 990 990 990 990 991 991 992 992 992 992 993 993 993 993 993 993 994 994 993 993 993 993 994 995 995 995 995 995 993 993 993 993 1001 1040 0 0 0 0 0 1310 1321 1324 1327 1332 1332 1332 1330 1328 1327 1325 1325 1323 1323 1323 1322 1322 1322 1322 1322 1322 1323 1325 1325 1325 1324 1320 1318 1318 1318 1316 1312 1306 1301 1298 1297 1294 1291 1288 1288 1287 1280 1267 1254 1245 1231 1214 1193 1183 1172 1148 1121 1097 1082 1073 1068 1064 1057 1049 1032 1023 1017 1014 1010 1004 994 978 971 965 959 956 951 948 940 936 928 925 919 911 897 890 886 0 0 0
564 564 580 583 607 629 645 667 690 710 733 749 772 801 836 839 872 902 925 952 977 1006 1037 1065 1096 1120 1145 1166 1190 1194 1212 1233 1255 1277 1299 1320 1341 1360 1382 1402 1421 1441 1464 1487 1507 1512 1526 1535 1545 1561 1581 1604 1624 1645 1663 1677 1692 1704 1710 1710 1710 1705 1686 1620 1620 1584 1579 1579 1579 1591 1591 1591 1587 0 0 0 0 0 0 0 0 0 0 0 0 940 939 938 938 938 939 941 942 942 942 941 940 940 940 940 941 941 941 941 941 941 942 942 942 942 942 942 942 942 942 942 941 941 941 941 941 941 941 940 940 938 936 936 936 936 931 931 931 933 936 939 941 942 944 945 946 947 948 948 949 950 950 950 951 951 951 952 952 952 952 952 953 953 953 953 953 953 953 953 953 953 953 952 952 952 950 948 946 944 943 939 932 927 917 910 902 898 890 885 883 883 883 884 888 892 898 901 905 913 926 933 935 936 943 950 954 955 955 955 956 956 958 958 959 959 959 959 958 958 957 956 955 953 951 949 946 944 938 932 925 919 913 911 910 908 907 907 907 908 908 908 910 911 912 912 914 914 914 915 917 918 919 920 922 923 926 929 933 934 934 934 934 936 940 943 945 949 952 954 957 959 960 960 961 961 961 960 959 958 956 955 954 953 951 950 949 947 947 946 946 945 945 945 945 945 945 946 946 946 947 947 947 947 947 947 946 946 946 946 946 947 948 949 950 950 950 951 953 956 960 960 964 966 968 969 971 973 974 974 974 973 971 969 967 967 967 968 968 968 966 961 958 953 951 946 944 942 942 942 944 945 945 945 945 945 945 945 945 945 945 945 945 949 953 953 955 955 957 963 969 971 972 972 972 973 974 976 976 976 975 974 973 973 973 974 976 977 978 978 978 977 977 977 976 975 975 975 974 974 973 972 971 970 968 966 966 966 966 965 963 963 963 965 967 967 969 970 970 972 974 974 974 975 975 976 977 977 978 978 978 978 979 980 980 980 980 981 981 981 981 982 982 982 982 982 981 981 980 979 979 979 978 976 975 973 972 970 969 966 965 960 956 952 950 948 945 945 945 945 946 951 956 957 958 958 961 964 969 971 973 974 976 977 978 979 980 981 981 982 983 984 984 984 985 985 985 985 986 986 986 986 986 987 987 987 987 987 987 987 987 987 988 988 988 989 989 989 990 990 991 991 991 991 991 991 992 992 992 993 993 993 994 994 994 994 995 994 995 995 994 994 994 994 995 995 995 996 996 995 995 993 993 993 999 1014 1052 0 0 0 0 1291 1313 1316 1324 1332 1332 1332 1332 1328 1327 1325 1325 1323 1323 1323 1322 1322 1322 1321 1320 1320 1321 1323 1324 1324 1324 1319 1317 1315 1313 1312 1310 1305 1301 1298 1297 1294 1292 1289 1287 1286 1280 1267 1254 1246 1236 1227 1218 1208 1193 1171 1140 1115 1099 1085 1081 1072 1062 1053 1044 1026 1022 1019 1014 1011 1003 984 974 967 962 958 957 954 947 936 928 925 921 913 897 890 883 0 0 0
564 564 569 582 607 629 651 667 690 710 733 749 772 801 836 839 872 902 925 952 977 1005 1036 1065 1095 1124 1147 1170 1190 1194 1212 1233 1252 1275 1299 1320 1343 1363 1384 1402 1421 1441 1464 1484 1506 1509 1523 1532 1543 1558 1576 1599 1623 1643 1660 1674 1687 1697 1707 1707 1707 1696 1669 1597 1596 1570 1570 1570 1576 1579 1579 1579 0 0 0 0 0 0 0 0 0 0 0 0 942 940 939 938 938 938 940 942 943 943 943 942 942 941 941 941 941 941 941 941 942 942 942 943 943 943 943 943 943 942 942 942 941 941 941 941 941 941 941 940 937 935 935 932 932 931 928 928 928 928 933 936 940 942 944 944 946 947 948 948 949 951 951 951 951 952 952 952 952 953 953 954 954 954 954 954 954 954 955 955 955 955 955 954 954 953 952 950 949 947 945 941 935 932 929 919 911 906 898 892 889 889 889 889 892 900 906 911 918 924 933 940 942 947 953 955 956 956 956 957 958 958 959 960 960 960 960 960 960 959 958 957 956 956 954 951 949 946 943 938 934 931 924 917 914 910 909 909 909 909 909 910 911 912 913 914 915 915 917 918 919 920 921 923 924 926 929 932 935 936 937 937 937 939 944 946 950 955 958 959 960 961 961 961 962 962 962 962 960 959 956 955 954 953 951 950 949 948 947 946 946 945 945 945 945 946 946 946 947 947 947 948 948 948 948 947 947 947 947 947 947 948 948 949 950 950 950 951 954 956 958 960 963 964 968 969 971 973 974 974 974 973 971 969 967 967 967 967 967 967 961 960 954 953 949 946 944 942 942 942 943 945 945 945 945 945 945 945 945 945 945 945 945 949 951 952 953 955 955 961 965 968 970 971 972 973 974 975 975 975 975 974 973 973 973 974 977 977 978 978 978 977 977 977 976 975 975 975 974 974 973 972 971 968 966 966 965 965 964 961 961 961 962 963 967 967 969 970 971 973 974 975 975 976 977 977 978 979 979 979 980 980 980 981 981 981 982 982 982 982 982 982 982 983 983 983 982 981 981 981 980 979 978 978 977 976 974 972 969 967 966 965 960 955 952 950 949 949 949 951 955 957 957 960 964 966 970 972 975 976 976 977 978 979 980 981 981 982 983 984 984 984 985 986 986 986 986 987 987 987 987 987 987 988 988 988 988 988 988 988 988 988 989 989 990 990 990 990 991 991 991 992 992 992 992 993 993 993 993 994 994 994 995 995 995 995 995 995 995 995 996 996 996 996 996 996 996 996 997 997 997 997 999 999 999 1014 1044 1056 0 0 0 1270 1299 1314 1324 1331 1332 1332 1332 1327 1327 1326 1325 1323 1323 1323 1322 1322 1322 1320 1320 1320 1320 1320 1319 1319 1318 1317 1315 1313 1310 1308 1305 1302 1299 1297 1297 1294 1292 1289 1286 1285 1279 1267 1254 1246 1244 1242 1235 1222 1205 1188 1159 1134 1116 1102 1096 1079 1068 1058 1047 1038 1033 1027 1021 1015 1008 997 985 974 974 971 967 961 955 947 940 933 931 916 898 890 883 0 0 0
564 564 569 582 607 629 652 670 690 710 733 752 775 801 832 836 871 902 924 952 977 1005 1036 1064 1095 1124 1148 1171 1191 1195 1214 1233 1252 1275 1299 1323 1347 1368 1386 1403 1423 1444 1464 1484 1503 1506 1520 1532 1543 1558 1576 1599 1623 1642 1658 1670 1680 1688 1692 1692 1692 1677 1634 1582 1581 1558 1558 1558 1569 1569 1569 0 0 0 0 0 0 0 0 0 0 0 943 942 942 940 939 939 939 939 941 942 943 943 943 943 942 942 942 942 942 942 942 943 943 943 943 944 944 944 944 943 943 943 942 942 941 941 941 940 940 940 938 937 934 932 932 929 921 908 908 908 910 921 928 933 937 941 943 944 946 947 948 948 950 951 951 952 952 953 953 953 954 954 954 954 955 955 955 955 955 955 956 956 956 956 956 955 955 955 955 953 951 950 948 945 942 936 935 929 922 915 909 899 895 895 895 896 899 905 917 926 933 938 942 945 950 955 958 958 958 958 958 959 959 960 961 961 961 961 961 961 961 961 961 959 958 957 956 954 952 950 949 944 937 933 930 923 920 915 912 911 911 911 911 911 913 913 914 914 916 917 919 920 921 921 923 925 927 930 932 934 936 939 940 940 941 944 947 950 954 958 960 963 963 963 963 963 963 963 963 962 961 959 957 956 954 953 951 950 949 949 948 947 946 946 945 945 945 946 947 948 948 948 948 949 948 948 948 948 948 948 948 948 948 949 949 950 950 950 951 952 954 956 958 960 963 964 968 969 971 973 974 974 974 973 971 969 967 966 966 966 965 965 959 959 954 948 948 946 944 942 942 942 942 943 943 943 944 944 945 945 945 945 945 945 946 950 951 952 953 954 955 961 965 968 969 970 972 972 974 975 975 975 975 975 974 974 974 975 978 978 978 978 978 977 977 977 976 975 975 975 974 973 971 971 969 967 966 966 965 964 964 957 955 955 955 959 965 967 969 970 971 973 975 976 976 977 978 978 979 979 979 980 980 980 981 982 982 982 982 983 983 983 983 983 983 983 983 983 982 982 982 982 981 981 980 979 978 978 977 976 973 970 968 968 965 960 954 954 954 954 954 957 959 961 963 967 969 973 976 977 978 979 979 979 980 982 983 983 984 984 985 985 985 986 986 987 987 987 988 988 988 988 988 989 988 988 988 988 988 989 989 989 989 989 990 990 990 991 991 991 992 992 992 993 993 994 994 994 994 994 994 995 995 995 995 995 996 996 996 996 997 997 997 997 997 997 997 997 998 998 998 998 999 999 999 999 999 1009 1022 1054 0 0 0 1256 1287 1308 1324 1331 1332 1332 1332 1327 1326 1325 1325 1325 1323 1323 1322 1321 1321 1320 1320 1320 1319 1319 1317 1316 1315 1315 1315 1312 1308 1305 1301 1298 1296 1295 1295 1294 1292 1289 1286 1281 1273 1263 1253 1248 1247 1247 1242 1229 1211 1194 1173 1152 1134 1114 1108 1086 1069 1062 1054 1049 1044 1035 1023 1015 1008 998 987 978 978 977 975 971 962 954 945 940 934 920 899 892 883 0 0 0
568 568 569 582 606 630 652 670 690 715 736 753 775 801 830 833 864 895 922 948 976 1003 1033 1064 1095 1124 1148 1171 1191 1195 1214 1234 1252 1274 1299 1323 1347 1369 1387 1405 1424 1444 1463 1481 1497 1501 1517 1532 1543 1558 1576 1599 1623 1640 1654 1664 1670 1678 1678 1678 1674 1650 1606 1569 1568 1550 1550 1550 1550 1550 0 0 0 0 0 0 0 0 0 0 948 942 942 942 942 942 942 943 942 942 943 943 943 943 943 943 943 943 943 943 943 943 943 943 943 944 944 944 944 944 944 944 943 943 943 942 940 940 940 937 936 936 935 934 931 926 919 914 899 882 882 882 896 914 926 930 934 939 942 942 945 946 948 948 950 951 951 953 953 954 954 954 954 954 954 955 955 955 955 956 956 957 957 957 957 957 957 956 956 956 955 955 953 952 951 949 948 943 940 935 930 926 922 912 903 903 903 904 908 917 927 934 940 946 951 955 956 960 960 960 960 960 960 960 960 961 962 962 962 963 963 963 962 962 962 961 961 960 958 958 954 953 952 946 939 934 933 933 928 920 915 915 915 914 914 914 915 915 915 915 917 919 920 921 922 923 925 927 930 933 934 937 939 941 943 944 946 949 953 956 957 959 961 964 964 964 965 964 964 964 963 963 962 961 959 957 955 953 952 951 950 949 949 949 948 946 946 946 947 948 948 949 949 949 949 949 949 949 949 949 949 949 949 949 949 949 950 950 951 951 952 953 954 956 957 960 963 964 966 968 971 972 974 974 974 973 971 969 967 966 963 962 961 956 951 948 947 947 947 946 945 943 942 942 942 942 942 942 943 944 945 945 945 945 945 945 946 950 952 954 954 954 955 961 965 968 969 971 972 972 974 975 975 975 975 975 975 975 976 977 978 978 978 978 978 977 977 977 975 975 975 974 974 973 971 969 968 967 965 962 961 959 957 956 955 955 955 958 961 966 969 970 971 973 975 976 977 977 978 979 980 980 981 981 981 982 982 982 982 983 983 983 983 983 983 983 983 983 983 983 982 982 982 982 982 981 981 980 979 979 978 977 975 974 971 969 967 966 960 957 956 956 956 963 967 971 974 974 976 978 980 980 981 982 982 982 983 984 985 986 986 986 986 986 987 987 987 988 989 989 989 989 989 989 990 990 989 989 989 989 989 989 990 990 990 990 991 991 991 992 992 992 993 993 993 994 994 994 995 995 996 996 996 996 996 996 996 997 997 997 997 998 998 998 998 998 998 998 999 999 999 999 999 999 999 1000 1000 1000 1000 1005 1011 1042 1059 0 0 0 1263 1303 1324 1329 1330 1330 1330 1327 1326 1325 1325 1325 1323 1322 1321 1320 1320 1320 1319 1319 1319 1319 1317 1316 1315 1314 1314 1312 1308 1305 1300 1297 1295 1293 1293 1291 1289 1285 1282 1275 1265 1258 1252 1248 1248 1248 1242 1229 1212 1195 1174 1163 1144 1124 1118 1092 1071 1067 1064 1060 1046 1035 1023 1015 1009 998 988 982 981 978 978 975 971 963 954 947 940 921 900 900 895 0 0 0
571 571 573 588 606 631 653 670 693 715 736 753 775 800 829 832 860 890 918 944 974 998 1032 1060 1089 1123 1148 1171 1191 1195 1214 1234 1252 1273 1298 1323 1347 1369 1387 1405 1424 1444 1460 1475 1491 1496 1517 1532 1546 1561 1580 1601 1623 1640 1651 1658 1664 1664 1664 1664 1655 1630 1587 1555 1553 1539 1539 1535 1535 0 0 0 0 0 0 0 0 0 0 944 940 940 940 942 942 943 943 943 943 943 943 943 943 943 943 943 943 943 943 943 943 944 944 944 945 945 945 945 945 944 944 944 943 943 943 942 940 939 937 936 936 935 932 931 923 907 890 873 871 871 871 876 882 905 917 921 928 937 940 942 944 946 948 948 950 951 952 953 954 954 955 955 955 955 955 956 956 956 957 957 957 957 958 958 958 958 958 958 957 957 957 955 955 953 952 951 951 947 943 937 934 933 930 923 914 911 911 911 919 930 935 937 944 950 953 957 960 960 961 961 961 961 961 962 962 963 963 963 964 964 964 964 964 964 964 963 963 961 961 960 958 955 953 950 946 940 934 934 930 923 918 917 917 916 915 915 915 916 917 917 919 920 921 923 924 926 927 929 932 934 938 939 941 944 948 950 950 955 960 962 962 963 964 965 966 966 966 967 967 967 965 964 963 962 960 957 956 954 952 951 951 950 950 949 949 948 948 948 948 948 950 950 950 950 950 950 950 950 950 950 950 949 949 950 950 950 950 950 951 951 952 953 954 956 958 961 963 964 965 967 971 971 971 971 971 971 971 968 966 964 959 954 953 952 949 947 947 947 946 946 945 943 943 942 942 942 942 942 943 944 945 945 945 945 945 946 948 950 952 954 954 955 957 961 964 966 969 971 972 972 974 975 976 976 976 976 976 977 977 978 978 978 978 977 977 976 976 976 975 974 973 973 972 972 969 966 966 966 964 960 957 955 954 954 954 954 954 957 960 963 964 970 971 973 975 977 978 978 980 981 982 982 982 982 982 982 983 983 984 984 984 984 984 984 984 984 984 984 984 984 984 984 983 982 982 982 982 981 980 979 978 977 976 975 973 971 969 968 965 965 965 966 966 971 974 978 978 979 979 981 981 982 983 983 985 985 985 986 987 987 987 987 988 988 988 988 989 989 989 990 990 990 990 990 990 990 990 991 991 991 991 991 991 991 991 991 991 992 992 993 993 994 994 994 995 995 995 995 995 996 997 997 997 997 997 997 998 998 998 998 998 999 999 999 1000 1000 1000 1000 1000 1000 1000 1000 1000 1000 1000 1000 1000 1001 1001 1003 1010 1017 1056 0 0 0 0 1278 1305 1320 1328 1328 1328 1325 1325 1325 1325 1325 1323 1322 1321 1320 1319 1319 1319 1319 1319 1319 1317 1316 1315 1314 1314 1312 1308 1305 1300 1297 1295 1293 1291 1290 1287 1283 1278 1270 1265 1258 1252 1249 1248 1248 1242 1231 1212 1198 1177 1164 1152 1135 1130 1109 1082 1073 1069 1062 1051 1036 1026 1017 1010 1000 990 983 983 982 981 981 980 975 965 960 952 936 928 928 919 0 0 0
572 572 573 590 606 631 653 673 693 715 735 753 776 800 820 825 854 885 914 937 966 996 1028 1057 1086 1113 1139 1162 1185 1188 1212 1234 1252 1271 1295 1319 1344 1369 1387 1405 1424 1441 1457 1472 1491 1495 1517 1536 1552 1567 1583 1602 1623 1639 1649 1653 1657 1657 1657 1652 1639 1611 1563 1534 1534 1523 1522 1522 0 0 0 0 0 0 0 0 0 953 945 939 939 939 940 942 942 943 944 944 944 944 944 944 944 944 944 944 944 944 944 944 944 944 945 945 945 945 945 945 945 945 945 944 943 943 943 941 940 939 936 935 932 927 917 916 893 872 859 851 851 851 865 872 880 895 905 911 923 932 937 942 944 946 948 948 950 951 953 954 954 955 956 956 956 956 956 957 957 957 958 958 958 959 959 959 959 959 959 959 959 958 957 956 955 954 953 953 951 950 947 942 937 933 930 928 925 914 914 914 924 933 938 943 949 954 956 958 960 961 962 962 962 962 963 963 963 964 965 965 965 965 965 966 965 965 965 965 965 964 962 962 960 959 957 954 951 949 942 939 936 931 925 920 918 917 917 917 917 918 919 919 920 922 923 925 927 927 929 931 933 936 938 941 944 948 953 955 956 959 961 962 965 966 967 967 967 967 968 968 968 967 967 966 964 962 961 959 957 955 953 951 951 951 950 949 949 949 949 949 949 950 950 950 950 950 950 950 950 950 950 950 950 950 950 950 950 950 950 950 951 952 952 953 954 955 958 961 963 964 965 967 971 971 971 971 970 970 970 968 966 963 959 954 953 950 949 947 947 947 946 945 945 943 943 942 942 942 942 942 943 944 945 945 945 945 946 947 950 952 953 954 954 956 957 961 964 966 969 971 971 972 974 975 977 977 977 978 978 978 978 978 978 978 978 977 976 976 975 975 974 973 972 971 970 970 968 965 963 962 957 953 952 952 952 952 952 953 954 957 959 960 962 967 970 973 975 977 978 979 981 981 982 983 983 983 983 984 984 984 984 984 985 985 985 985 985 985 985 985 985 985 984 984 983 983 983 983 982 982 981 980 978 978 977 975 975 975 972 970 970 970 970 971 971 977 979 979 980 982 983 983 984 984 985 986 986 987 987 987 988 989 989 989 989 989 989 989 990 990 990 991 991 991 992 992 992 992 992 992 992 991 991 991 992 992 992 992 993 993 993 993 994 995 995 995 996 996 996 996 997 997 997 997 997 998 998 999 999 999 999 999 999 999 999 1000 1000 1000 1000 1000 1000 1001 1001 1001 1001 1001 1001 1001 1001 1002 1002 1003 1004 1014 1052 1078 0 0 0 1243 1288 1305 1319 1323 1323 1323 1323 1323 1324 1324 1324 1322 1320 1319 1318 1318 1318 1319 1319 1319 1317 1317 1316 1314 1314 1312 1308 1303 1300 1297 1295 1292 1290 1289 1286 1282 1277 1270 1265 1258 1252 1251 1249 1247 1239 1231 1215 1200 1183 1171 1164 1152 1146 1126 1103 1080 1071 1065 1051 1038 1026 1017 1010 1005 998 987 983 982 982 983 982 982 980 973 963 953 948 947 947 0 0 0
