0 0 0 0 0 0 999 1014 1023 1034 1042 1049 1058 1061 1072 1079 1083 1091 1097 1105 1114 1121 1124 1126 1129 1130 1130 1130 0 0 0 0 0 0 1046 1046 1046 1046 1046 0 0 0 0 1447 1471 1487 1506 1515 1529 1544 1544 1544 1540 1523 1508 1507 1467 0 0 0 0 0 0 0 0 0 0 0 0 0 0 0 0 0 0 0 0 0 0 0 0 0 0 0 0 0 0 0 0 683 683 683 692 708 727 743 0 0 0 0 993 1012 1016 1019 1036 1076 0 0 0 0 0 998 994 988 980 980 980 990 1026 1032 1039 1039 1043 0 0 0 0 0 899 899 0 0 0 0 0 0 0 0 0 0 0 0 1618 1620 1634 1641 1641 1643 1644 1649 1653 1655 1657 1659 1661 1664 1668 1671 1675 1677 1680 1681 1683 1687 1689 1690 1691 1694 1695 1697 1698 1700 1702 1703 1704 1706 1708 1709 1709 1710 1711 1712 1712 1712 1713 1713 1713 1714 1714 1714 1714 1715 1716 1716 1718 1718 1720 1720 1722 1723 1723 1724 1724 1724 1727 1727 1727 1727 1724 1723 1715 0 0 0 0 0 0 0 0 0 0 0 0 0 0 0 0 0 0 0 0 0 0 0 0 0 0 890 879 871 867 867 867 869 869 870 871 882 904 921 921 921 912 912 912 922 0 0 0 0 0 0 0 0 0 0 0 0 0 0 0 0 0 0 0 0 0 0 0 0 0 0 0 0 1081 1071 1070 1070 1069 1069 1069 1068 1068 1066 1066 1066 1066 1066 1066 1065 1065 1065 1064 1064 1064 1064 1064 1063 1062 1062 1061 1061 1061 1060 1059 1058 1058 1057 1056 1056 1056 1055 1054 1053 1051 1050 1049 1048 1047 1046 1046 1044 1043 1043 1042 1041 1039 1039 1039 1037 1036 1034 1033 1032 1030 1030 1030 1029 1028 1024 1017 1009 996 986 973 957 937 937 936 936 936 937 944 950 951 954 970 976 976 978 981 981 981 983 985 985 991 991 991 990 990 990 991 991 992 992 992 990 988 987 986 985 981 974 963 939 918 916 915 915 915 913 910 909 905 901 899 898 897 894 892 891 890 889 889 888 889 889 889 889 890 892 892 893 893 894 896 898 901 906 909 911 918 925 932 938 944 948 953 953 954 955 955 956 956 957 957 956 955 955 954 953 953 952 952 951 950 949 948 948 947 947 946 946 945 944 944 944 943 942 940 940 939 938 938 936 934 933 931 929 927 927 927 927 927 927 926 926 925 925 925 925 925 925 925 925 925 925 924 922 922 921 921 920 920 919 918 917 917 916 914 914 913 912 911 910 910 910 909 909 909 909 908 907 906 906 905 905 904 904 903 902 902 901 901 901 900 899 899 898 898 897 897 896 896 895 894 894 893 892 891 890 890 889 888 888 887 886 885 884 884 883 882 881 881 880 879 879 879 879 878 878 878 878 877 877 876 876 874 873 873 872 871 870 869 868 867 864 862 861 859 859 856 849 847 847 847 846 843 838 836 827 822 822 822 821 821 819 817 814 809 807 807 807 804 803 801 799 796 793 789 786 785 784 783 782 782 780 777 776 774 773 772 772 771 770 769 768 767 767
0 0 0 0 0 0 997 1013 1023 1032 1042 1049 1058 1063 1072 1079 1083 1088 1093 1100 1110 1118 1123 1123 1123 1122 1121 1117 0 0 0 0 0 0 0 1052 1029 1029 0 0 0 0 0 1452 1471 1483 1483 1498 1529 1544 1544 1544 1534 1515 1494 1494 0 0 0 0 0 0 0 0 0 0 0 0 0 0 0 0 0 0 0 0 0 0 0 0 0 0 0 0 0 0 0 0 0 686 686 686 692 708 726 737 0 0 0 0 0 1012 1016 1019 0 0 0 0 0 0 0 0 0 0 0 0 0 0 1029 1044 1044 1049 1059 0 0 0 0 0 899 899 0 0 0 0 0 0 0 0 0 0 0 0 1618 1634 1636 1641 1643 1643 1646 1649 1652 1655 1656 1658 1660 1663 1667 1670 1673 1676 1678 1680 1682 1684 1686 1688 1690 1692 1694 1696 1697 1699 1701 1703 1704 1705 1706 1708 1708 1708 1709 1709 1710 1711 1711 1712 1712 1712 1712 1713 1713 1713 1714 1715 1716 1717 1717 1719 1719 1721 1722 1722 1723 1724 1727 1727 1727 1727 1723 1717 1703 0 0 0 0 0 0 0 0 0 0 0 0 0 0 0 0 0 0 0 0 0 0 0 0 0 0 887 879 871 863 863 863 869 869 870 871 882 904 917 917 917 912 912 912 922 0 0 0 0 0 0 0 0 0 0 0 0 0 0 0 0 0 0 0 0 0 0 0 0 0 0 0 0 0 1089 1078 1072 1071 1069 1069 1069 1069 1068 1068 1068 1067 1067 1067 1067 1067 1066 1066 1066 1066 1066 1066 1065 1064 1064 1064 1063 1063 1062 1061 1061 1059 1059 1058 1058 1058 1057 1056 1054 1053 1053 1051 1050 1049 1048 1046 1046 1045 1045 1044 1042 1042 1041 1039 1039 1037 1035 1034 1033 1032 1032 1032 1032 1031 1026 1022 1015 1004 992 982 971 956 955 953 948 953 953 966 976 976 980 985 985 986 987 987 989 991 992 992 995 996 996 996 995 995 995 995 995 995 995 994 993 992 991 990 987 984 978 972 955 927 916 915 915 915 913 910 907 902 900 898 897 896 893 891 889 889 889 888 888 888 888 888 889 890 891 892 893 893 894 896 898 901 904 909 910 917 925 927 936 944 948 951 953 954 956 957 957 957 957 957 957 957 957 956 954 954 954 953 952 951 951 950 949 949 948 948 947 947 947 946 945 945 943 943 942 941 940 940 938 937 936 934 933 932 931 931 930 930 929 928 928 928 928 928 928 928 928 927 927 926 926 926 925 924 923 923 922 921 921 919 919 918 917 916 916 915 913 913 913 911 911 911 910 910 910 909 909 907 907 906 906 906 905 905 904 904 903 902 902 902 900 900 899 899 899 897 897 896 896 895 894 893 892 892 892 891 890 889 888 887 886 886 885 884 883 882 881 881 880 880 880 879 879 879 878 878 878 877 877 876 876 874 873 873 872 871 868 868 868 866 863 862 860 859 854 852 849 847 845 843 840 838 834 831 826 821 820 819 818 817 816 814 809 805 805 805 803 800 798 796 796 794 792 789 786 785 784 783 782 781 781 780 776 775 773 772 772 771 770 769 768 767 767
0 0 0 0 0 0 997 1010 1020 1029 1037 1046 1058 1063 1072 1079 1082 1086 1090 1096 1107 1115 1122 1122 1122 1121 1108 1106 0 0 0 0 0 0 1052 1052 1015 0 0 0 0 0 0 1454 1469 1476 1483 1498 1527 1539 1539 1539 1528 1504 0 0 0 0 0 0 0 0 0 0 0 0 0 0 0 0 0 0 0 0 0 0 0 0 0 0 0 0 0 0 0 0 0 0 0 686 686 686 692 707 715 722 725 0 0 0 0 0 0 0 0 0 0 0 0 0 0 0 0 0 0 0 0 0 1073 1073 1071 1071 1040 0 0 0 0 0 901 0 0 0 0 0 0 0 0 0 0 0 0 1608 1628 1635 1637 1645 1646 1646 1647 1649 1652 1655 1656 1658 1660 1663 1666 1668 1672 1675 1677 1679 1681 1683 1686 1686 1688 1690 1693 1694 1696 1697 1699 1700 1702 1704 1705 1706 1706 1707 1708 1708 1709 1709 1709 1710 1710 1710 1710 1711 1711 1712 1713 1713 1715 1715 1716 1717 1718 1719 1720 1720 1721 1723 1727 1727 1727 1727 1723 1715 0 0 0 0 0 0 0 0 0 0 0 0 0 0 2448 2420 2420 0 0 0 0 0 0 0 0 0 0 882 874 863 863 863 863 867 869 870 871 882 904 904 904 905 905 905 912 922 0 0 0 0 0 0 0 0 0 0 0 0 0 0 0 0 0 0 0 0 0 0 0 0 0 0 0 0 0 0 1092 1079 1072 1071 1070 1070 1070 1070 1069 1069 1069 1069 1068 1068 1068 1068 1068 1068 1068 1068 1068 1067 1067 1066 1066 1065 1064 1064 1063 1063 1063 1062 1061 1061 1060 1059 1058 1057 1056 1054 1053 1052 1050 1050 1049 1048 1047 1046 1045 1043 1042 1042 1041 1039 1037 1037 1035 1034 1033 1033 1033 1033 1031 1026 1022 1018 1016 1007 995 979 960 960 960 976 978 979 985 991 991 992 992 992 997 1000 1001 1001 1001 999 999 999 1002 1002 1002 1001 1000 999 999 999 998 998 998 997 996 994 992 989 984 980 976 971 949 927 918 915 915 912 909 906 901 899 897 896 896 893 891 888 888 888 888 888 888 888 888 889 890 891 892 893 893 894 896 898 901 904 907 910 916 924 927 930 938 945 951 954 955 957 957 958 959 959 959 959 958 958 957 956 955 955 954 953 953 952 952 951 951 950 950 949 949 948 948 947 946 945 945 944 944 943 941 940 939 939 937 937 935 935 935 933 933 932 931 931 930 930 930 930 930 930 929 929 929 928 928 927 926 925 924 923 923 922 921 920 919 918 918 917 916 916 915 914 913 913 912 912 911 910 910 910 909 908 908 907 907 907 906 905 904 904 903 903 902 902 901 900 900 899 899 898 897 896 895 894 894 893 892 892 891 890 889 888 888 887 886 885 884 883 882 881 881 880 880 880 880 879 879 879 879 879 879 878 877 876 874 873 873 871 870 868 867 866 862 862 861 860 857 853 850 848 845 843 841 838 836 832 829 825 821 820 818 818 817 815 812 809 805 805 804 803 800 798 794 793 793 792 789 788 787 785 784 782 781 781 781 779 778 774 772 772 771 769 769 769 769 768
0 0 0 0 0 0 0 1007 1014 1025 1034 1043 1053 1061 1066 1075 1077 1082 1088 1094 1102 1112 1121 1121 1121 1119 1091 0 0 0 0 0 0 1027 1027 1027 1018 1018 0 0 0 0 1436 1456 1469 1476 1483 1498 1525 1537 1537 1537 1522 0 0 0 0 0 0 0 0 0 0 0 0 0 0 0 0 0 0 0 0 0 0 0 0 0 0 0 0 0 0 0 0 0 0 0 705 686 677 677 677 682 683 686 692 0 0 0 0 0 0 0 0 0 0 0 0 0 0 0 0 0 0 0 0 0 0 1084 1071 1071 0 0 0 0 0 0 0 0 0 0 0 0 0 0 0 0 0 0 0 1626 1634 1641 1643 1645 1648 1650 1650 1650 1652 1654 1656 1658 1660 1662 1665 1668 1670 1673 1676 1678 1681 1682 1684 1686 1687 1689 1691 1692 1695 1696 1698 1699 1701 1702 1703 1704 1704 1705 1706 1707 1709 1709 1709 1708 1708 1708 1709 1709 1709 1711 1711 1711 1712 1712 1713 1714 1714 1715 1717 1719 1719 1720 1724 1724 1724 1723 1717 1706 0 0 0 0 0 0 0 0 0 2474 2486 2489 2489 2489 2473 2462 2449 2448 2433 0 0 0 0 0 0 0 0 863 862 854 854 854 857 861 862 865 871 887 904 904 904 902 902 902 914 930 0 0 0 0 0 0 0 0 0 0 0 0 0 0 0 0 0 0 0 0 0 0 0 0 0 0 0 0 0 0 0 1088 1072 1072 1071 1071 1071 1071 1071 1071 1071 1071 1070 1070 1069 1069 1069 1069 1069 1069 1069 1069 1068 1068 1068 1067 1066 1066 1065 1065 1064 1064 1063 1063 1062 1061 1060 1059 1058 1056 1055 1054 1053 1052 1050 1049 1049 1048 1046 1045 1045 1043 1042 1040 1039 1037 1036 1034 1034 1034 1033 1033 1031 1026 1023 1018 1016 1015 1009 996 982 980 980 980 985 986 995 998 998 999 999 1001 1003 1006 1006 1006 1006 1006 1006 1006 1006 1006 1006 1006 1004 1002 1002 1002 1003 1003 1003 1002 1000 998 995 993 989 985 979 973 959 941 929 922 918 912 906 905 901 898 897 896 895 893 891 888 888 888 888 888 888 888 888 889 889 891 892 893 894 895 896 899 901 903 905 909 916 923 925 930 935 943 949 954 956 957 958 959 960 960 960 960 960 959 958 958 957 956 956 955 955 954 953 953 953 951 951 951 951 950 949 949 948 947 947 946 946 944 943 943 942 941 940 939 938 938 937 936 935 934 933 933 933 932 932 932 932 932 932 931 930 930 929 928 928 926 925 925 924 923 922 922 921 919 919 919 917 917 916 915 914 914 913 912 912 912 911 911 910 909 909 909 908 907 907 906 906 905 904 904 904 903 902 901 901 900 900 898 897 896 895 895 894 893 893 892 891 891 890 889 888 887 886 885 884 884 883 882 881 881 880 880 880 880 879 879 879 879 879 878 877 876 874 873 873 871 870 867 867 863 860 859 858 858 855 851 848 846 844 842 840 837 834 832 829 825 821 819 818 818 816 814 811 809 805 805 804 803 800 798 794 792 791 791 789 788 787 786 785 783 782 781 781 779 778 774 773 772 770 769 769 769 769 769
0 0 0 0 0 0 0 997 1007 1019 1030 1042 1052 1058 1061 1066 1070 1077 1083 1090 1099 1108 1114 1118 1118 1118 0 0 0 0 0 0 0 1009 1009 1009 1009 1009 0 0 0 1437 1440 1457 1469 1476 1483 1503 1523 1531 1531 1531 1511 0 0 0 0 0 0 0 0 0 0 0 812 0 0 0 0 0 0 0 0 0 0 0 0 0 0 0 0 0 0 0 0 682 680 679 679 669 662 662 662 663 665 675 691 0 0 0 0 0 0 0 0 0 0 0 0 0 0 0 0 0 0 0 0 0 0 0 0 0 0 0 0 0 0 0 0 0 0 0 0 0 0 0 0 0 0 0 0 1637 1642 1646 1647 1647 1649 1650 1652 1652 1652 1655 1656 1657 1660 1662 1664 1667 1669 1672 1675 1677 1678 1681 1683 1684 1686 1686 1688 1690 1692 1694 1696 1696 1698 1700 1701 1702 1702 1704 1705 1706 1707 1707 1707 1707 1707 1707 1707 1707 1707 1708 1708 1709 1710 1710 1711 1712 1712 1713 1715 1717 1717 1718 1721 1721 1721 1718 1710 0 0 0 0 0 0 0 0 0 2465 2474 2486 2492 2492 2492 2486 2474 2467 2456 2448 2435 0 0 0 0 0 0 0 858 853 850 850 850 852 858 860 865 871 887 909 909 909 900 900 900 915 938 0 0 0 0 0 0 2014 2014 1964 0 0 0 0 0 0 0 0 0 0 0 0 0 0 0 0 0 0 0 0 0 0 0 0 1084 1081 1074 1074 1074 1074 1074 1073 1073 1072 1071 1071 1071 1071 1070 1071 1071 1070 1070 1070 1069 1069 1069 1068 1068 1068 1067 1067 1066 1065 1064 1063 1063 1062 1061 1060 1059 1058 1056 1055 1053 1052 1051 1051 1050 1049 1048 1046 1044 1043 1041 1040 1038 1037 1036 1034 1033 1033 1032 1029 1026 1022 1018 1016 1015 1009 1005 994 988 988 988 988 996 1000 1001 1003 1003 1006 1007 1008 1008 1009 1010 1010 1010 1011 1012 1012 1012 1010 1009 1008 1008 1007 1006 1006 1005 1005 1005 1004 1001 999 997 996 993 990 983 968 955 942 930 918 912 906 902 901 898 896 896 895 893 890 887 884 884 884 883 882 883 883 883 889 891 892 894 896 898 898 899 902 903 905 907 915 923 925 928 934 942 949 954 957 957 959 959 961 961 962 962 961 961 960 960 958 958 958 957 956 956 955 954 954 953 953 952 952 952 951 951 951 949 949 948 947 946 946 946 944 944 943 942 941 940 940 938 938 937 936 936 935 935 934 934 934 934 933 932 932 931 931 930 929 929 927 926 925 924 924 923 922 921 921 919 918 918 917 916 916 915 914 914 914 913 913 912 912 911 911 910 909 908 907 907 907 906 905 905 904 903 903 902 901 901 900 899 898 898 896 896 895 894 893 893 892 891 890 889 888 887 886 885 884 884 883 882 882 881 880 880 880 880 880 879 879 879 879 878 877 876 874 873 873 871 869 867 867 860 857 857 857 857 852 848 844 842 839 837 836 835 833 830 828 825 821 818 817 816 814 814 811 809 807 805 804 803 800 798 794 792 791 791 790 789 789 789 787 784 782 782 781 779 778 775 773 772 770 769 769 769 769 769
0 0 0 0 0 0 0 990 1001 1013 1027 1041 1052 1056 1060 1062 1065 1070 1079 1085 1093 1102 1108 1114 1114 1114 0 0 0 0 0 0 0 995 995 995 995 0 0 0 0 1437 1448 1462 1471 1477 1488 1503 1522 1522 1522 1513 0 0 0 0 0 0 0 0 0 0 0 0 812 792 0 0 0 0 0 0 0 0 0 0 0 0 0 0 0 0 0 0 665 665 662 661 660 648 648 648 661 663 665 675 690 0 0 0 0 0 0 0 0 0 0 0 0 0 0 0 0 0 0 0 0 0 0 0 0 0 0 0 0 0 0 0 0 0 0 0 0 0 0 0 0 0 0 0 1625 1643 1647 1648 1649 1650 1651 1652 1652 1652 1652 1655 1656 1657 1659 1661 1664 1665 1668 1669 1672 1674 1677 1679 1681 1683 1684 1685 1686 1688 1690 1691 1692 1694 1695 1696 1698 1700 1701 1701 1703 1705 1705 1705 1705 1705 1706 1706 1706 1706 1706 1706 1707 1708 1709 1709 1710 1710 1711 1712 1715 1715 1716 1717 1717 1716 1716 1710 1698 0 0 0 0 0 0 0 0 0 2465 2474 2486 2492 2492 2492 2486 2474 2467 2457 2457 2453 0 0 0 0 0 0 854 848 846 844 844 844 851 858 860 865 873 893 912 912 912 900 900 900 916 945 0 0 0 0 0 2045 2045 2013 1964 1964 0 0 0 0 0 0 0 0 0 0 0 0 0 0 0 0 0 0 0 0 0 0 0 0 0 1084 1076 1076 1076 1076 1075 1074 1074 1074 1073 1072 1072 1072 1072 1072 1071 1071 1071 1070 1070 1070 1069 1069 1069 1069 1069 1068 1068 1066 1065 1064 1064 1062 1062 1061 1059 1057 1056 1055 1053 1052 1052 1051 1050 1050 1047 1045 1044 1042 1041 1040 1039 1038 1036 1034 1031 1027 1026 1025 1021 1018 1015 1014 1009 1005 998 993 993 993 997 1004 1004 1007 1008 1008 1010 1011 1012 1012 1013 1013 1014 1014 1014 1014 1014 1014 1013 1012 1012 1011 1011 1010 1009 1008 1008 1008 1007 1004 1002 1000 999 998 997 994 984 973 958 942 927 912 906 902 901 898 896 895 894 892 889 887 884 883 878 870 870 870 873 882 889 891 892 896 898 898 899 900 902 903 905 907 915 923 925 928 930 938 949 954 958 958 959 960 962 963 963 963 963 963 962 961 961 960 960 959 958 957 957 956 956 955 955 954 954 953 953 952 952 951 951 951 949 949 948 948 947 946 945 944 943 943 942 941 940 939 939 938 937 937 936 936 935 934 934 934 933 933 932 932 931 930 929 928 927 926 925 924 923 923 922 921 920 919 918 918 917 916 915 915 914 914 913 913 912 912 912 911 910 909 908 908 907 907 906 906 905 904 903 903 902 901 900 900 898 898 897 897 896 895 894 893 892 891 890 889 888 887 887 885 885 884 883 883 882 881 881 880 880 880 880 880 880 880 879 877 876 876 874 873 873 870 870 868 866 859 857 854 854 853 850 844 839 837 834 834 833 832 831 829 828 825 821 818 817 816 814 813 811 811 809 808 807 805 803 801 799 792 792 792 793 793 793 791 789 787 783 782 781 779 778 775 773 772 770 769 768 768 768 768
0 0 0 0 0 0 0 980 995 1009 1025 1039 1050 1053 1056 1059 1061 1067 1073 1081 1089 1097 1105 1112 1112 1112 0 0 0 0 968 968 1016 1016 1016 1003 1003 0 0 0 0 1437 1448 1462 1471 1477 1488 1503 1507 1507 1507 0 0 0 0 0 0 0 0 0 0 0 0 833 812 794 0 0 0 0 0 0 0 0 0 0 0 0 0 0 0 0 0 0 662 661 659 655 647 647 647 648 661 663 665 675 690 0 0 0 0 0 0 0 0 0 0 0 0 0 0 0 0 0 0 0 0 0 0 0 0 0 0 0 0 0 0 0 0 0 0 0 0 0 0 0 0 0 0 1610 1638 1647 1650 1650 1650 1650 1651 1652 1652 1652 1652 1655 1656 1657 1659 1660 1661 1663 1665 1667 1670 1673 1675 1676 1678 1681 1683 1684 1684 1685 1685 1686 1687 1689 1691 1693 1695 1698 1698 1699 1702 1702 1702 1703 1703 1703 1703 1703 1703 1704 1705 1705 1706 1707 1707 1708 1709 1710 1710 1712 1714 1714 1714 1715 1716 1716 1716 1708 0 0 0 0 0 0 0 0 0 2452 2465 2473 2480 2488 2488 2488 2486 2474 2467 2463 2458 2453 0 0 0 0 0 0 840 840 840 841 841 844 851 858 859 865 874 894 913 913 913 908 908 908 916 946 0 0 0 0 0 2060 2060 2014 1964 1964 0 0 0 0 0 0 0 0 0 0 0 0 0 0 0 0 0 0 0 0 0 0 0 0 0 0 1086 1078 1078 1078 1078 1078 1077 1076 1076 1075 1074 1073 1073 1073 1073 1072 1072 1072 1072 1071 1071 1071 1071 1070 1070 1070 1069 1069 1067 1066 1065 1064 1063 1062 1060 1059 1057 1056 1055 1054 1052 1052 1051 1050 1049 1047 1046 1045 1042 1041 1039 1038 1036 1034 1030 1027 1024 1024 1020 1015 1009 1009 1006 1005 998 993 993 993 997 1006 1007 1008 1009 1009 1012 1013 1015 1015 1016 1016 1016 1016 1016 1016 1016 1016 1016 1015 1014 1013 1013 1012 1012 1011 1010 1010 1008 1007 1005 1003 1002 1001 1000 998 992 983 971 956 936 916 906 902 902 900 897 896 895 892 889 887 884 883 878 870 870 870 873 881 890 895 896 897 900 902 903 903 904 904 905 907 915 923 925 930 930 938 949 954 958 959 960 962 963 964 964 964 964 964 964 964 963 962 962 961 961 959 959 958 958 957 956 955 955 955 954 954 953 953 953 951 951 950 950 950 949 948 947 946 945 944 944 943 942 941 941 940 939 938 938 937 936 936 935 935 935 934 933 932 932 931 930 929 928 927 926 925 925 923 923 921 920 920 920 918 917 917 917 916 915 915 915 914 913 913 912 911 911 910 909 909 908 907 907 906 906 905 905 903 902 902 902 901 900 899 899 897 896 896 895 894 892 892 890 889 888 887 887 886 885 884 883 883 882 881 881 880 880 880 880 880 880 880 880 877 876 876 875 873 872 869 868 868 866 859 853 852 850 849 846 840 836 834 833 833 832 832 830 828 827 825 821 818 817 816 814 813 812 811 810 810 808 806 805 804 802 800 797 797 797 797 795 793 790 788 785 783 781 779 778 775 773 772 770 769 768 768 768 768
0 0 0 0 0 0 956 973 989 1004 1022 1038 1047 1051 1052 1056 1058 1064 1069 1077 1085 1093 1101 1101 1101 1073 0 0 0 968 968 969 1007 1007 1007 1007 1007 0 0 0 0 1436 1448 1462 1471 1477 1488 1491 1491 1491 1477 0 0 0 0 0 0 0 0 0 0 0 842 825 812 794 0 0 0 0 0 0 0 0 0 0 0 0 0 0 0 0 0 670 661 659 658 654 647 647 647 648 661 674 676 683 691 709 722 0 0 0 0 0 0 0 0 0 0 0 0 0 0 0 0 0 0 0 0 0 0 0 0 0 0 0 0 0 0 0 0 0 0 0 0 0 0 0 0 1639 1644 1647 1650 1651 1651 1651 1652 1652 1653 1653 1653 1655 1656 1657 1658 1660 1661 1663 1664 1666 1668 1670 1672 1674 1676 1678 1680 1680 1681 1682 1682 1683 1684 1685 1687 1688 1691 1694 1696 1696 1697 1698 1699 1700 1700 1700 1701 1701 1701 1702 1703 1703 1704 1705 1706 1706 1708 1709 1709 1710 1711 1712 1712 1712 1712 1712 1709 1702 0 0 0 0 0 0 0 0 0 2452 2464 2472 2479 2482 2482 2482 2474 2471 2467 2463 2459 2453 0 0 0 0 0 0 840 840 840 841 841 844 851 858 859 865 875 895 914 914 914 908 908 908 917 950 0 0 0 0 2045 2045 2045 2024 1965 1965 0 0 0 0 0 0 0 0 0 0 0 0 0 0 0 0 0 0 0 0 0 0 0 0 0 0 0 1082 1081 1081 1080 1080 1080 1078 1077 1076 1075 1074 1074 1074 1074 1074 1074 1073 1073 1073 1073 1073 1073 1073 1072 1071 1071 1070 1068 1068 1067 1066 1064 1063 1062 1060 1059 1057 1056 1054 1054 1052 1051 1050 1049 1048 1047 1045 1042 1041 1039 1038 1036 1034 1029 1022 1020 1016 1015 1013 1001 991 991 991 991 992 993 993 997 1007 1011 1012 1013 1014 1016 1017 1018 1018 1019 1019 1019 1018 1018 1018 1018 1017 1017 1016 1016 1015 1014 1014 1014 1013 1012 1011 1010 1009 1008 1007 1006 1005 1003 1002 998 995 983 969 954 938 925 908 906 901 897 896 895 892 889 888 886 883 878 870 870 870 873 881 890 896 897 898 900 902 904 904 905 905 906 912 924 930 930 931 933 938 949 956 959 961 962 964 965 966 966 966 966 966 965 965 965 964 964 963 962 961 960 960 959 959 958 957 957 955 955 955 954 954 954 953 953 952 952 951 951 950 949 948 948 946 946 945 944 943 941 941 941 940 939 938 938 937 936 936 935 935 935 933 933 932 931 930 930 928 927 926 925 925 923 923 922 921 920 919 919 919 918 917 916 915 915 915 914 913 913 912 912 911 910 909 909 908 908 907 907 906 905 905 904 903 902 902 901 900 899 898 897 896 896 895 894 893 892 890 889 888 887 886 885 884 883 883 882 881 881 880 880 880 880 881 881 881 879 877 876 876 875 873 870 869 868 868 866 859 851 848 846 844 840 839 836 833 832 831 830 829 829 828 827 824 821 819 819 817 815 813 812 812 811 810 808 806 805 804 803 802 800 800 799 799 797 794 790 788 787 785 782 779 778 776 774 772 770 769 768 768 768 768
0 0 0 0 0 0 944 964 975 993 1017 1034 1043 1047 1048 1055 1058 1064 1068 1075 1085 1093 1095 1095 1095 1062 0 0 968 968 968 973 1002 1002 1002 1002 1002 0 0 0 0 1432 1447 1449 1466 1471 1475 1475 1475 1472 1451 0 0 0 0 0 0 0 0 0 0 856 834 825 815 797 0 0 0 0 0 0 0 0 0 0 0 0 0 0 0 0 0 669 657 656 655 652 644 644 644 662 680 692 694 695 698 701 701 701 676 657 651 651 651 667 0 0 0 0 0 0 0 0 0 0 0 0 0 0 0 0 0 0 0 0 0 0 0 0 0 0 0 0 0 0 0 0 1625 1643 1644 1647 1651 1651 1651 1651 1652 1653 1653 1653 1654 1655 1656 1657 1658 1660 1661 1663 1664 1666 1667 1669 1671 1673 1675 1676 1677 1678 1679 1679 1681 1681 1682 1683 1684 1684 1687 1689 1690 1691 1694 1695 1696 1697 1697 1697 1698 1698 1699 1700 1700 1701 1702 1702 1704 1704 1706 1706 1707 1707 1708 1710 1710 1710 1710 1710 1696 0 0 0 0 0 0 0 0 0 0 2452 2460 2468 2473 2476 2476 2476 2474 2471 2467 2464 2459 2453 0 0 0 0 0 0 840 840 840 841 841 853 859 865 867 874 876 900 919 919 919 908 908 908 924 955 0 0 0 0 2053 2053 2045 2031 2000 0 0 0 0 0 0 0 0 0 0 0 0 0 0 0 0 0 0 0 0 0 0 0 0 0 0 0 0 0 1083 1082 1081 1080 1080 1079 1078 1077 1076 1076 1076 1075 1075 1075 1075 1075 1075 1075 1075 1074 1074 1074 1074 1073 1072 1072 1070 1070 1068 1067 1066 1065 1063 1062 1060 1059 1058 1056 1055 1052 1051 1050 1049 1048 1047 1045 1042 1041 1037 1036 1035 1034 1028 1015 1010 1007 1006 1006 993 979 976 976 976 978 989 992 1004 1007 1011 1015 1017 1019 1020 1020 1022 1022 1022 1022 1022 1021 1021 1020 1020 1020 1020 1020 1018 1017 1017 1016 1016 1015 1014 1013 1012 1011 1010 1009 1009 1007 1005 1004 1003 1000 992 984 975 957 937 927 910 904 899 896 895 892 890 890 890 888 883 879 873 873 873 882 891 896 897 898 900 902 905 905 905 906 912 926 932 934 934 938 938 941 950 956 960 961 964 965 966 967 967 967 967 967 967 966 966 965 965 964 964 963 962 962 961 961 960 959 958 957 957 956 956 956 955 955 954 954 952 952 952 951 951 950 950 948 948 947 946 944 944 943 942 941 940 939 939 938 937 937 936 936 935 934 934 933 932 931 930 929 928 928 927 926 925 924 924 922 922 920 920 919 918 918 917 916 916 915 915 914 914 913 912 911 911 910 909 909 908 908 907 907 906 906 905 904 904 902 901 900 899 899 898 897 896 896 894 894 892 891 889 888 888 886 886 885 883 883 882 881 881 881 881 881 881 881 881 880 879 877 876 876 875 873 870 869 868 867 866 858 850 844 841 840 840 838 834 832 830 829 829 827 827 825 824 822 821 820 819 818 815 813 813 813 812 811 809 808 806 806 805 804 804 802 802 800 797 794 790 788 788 786 784 781 779 777 775 772 771 770 770 769 767 767
0 0 0 0 0 0 944 955 969 984 1005 1021 1035 1041 1048 1055 1058 1064 1068 1075 1084 1093 1093 1093 1090 0 0 0 946 946 946 973 1001 1001 1002 1002 0 0 0 0 1390 1421 1438 1447 1448 1454 1460 1460 1460 1454 0 0 0 0 0 0 0 0 0 896 880 856 834 825 817 802 0 0 0 0 0 0 0 0 0 0 0 0 0 0 0 0 0 659 656 655 655 651 640 640 640 662 680 692 700 705 706 706 705 701 676 657 651 651 651 651 649 648 641 641 0 0 0 0 0 0 0 0 0 0 0 0 0 0 0 0 0 0 0 0 0 0 0 0 0 0 0 1616 1636 1643 1646 1647 1650 1651 1651 1651 1652 1653 1654 1654 1655 1656 1657 1658 1658 1660 1661 1663 1664 1666 1667 1669 1670 1672 1674 1674 1676 1676 1677 1678 1679 1680 1681 1681 1682 1683 1683 1685 1687 1687 1689 1691 1693 1694 1694 1695 1695 1696 1696 1697 1698 1698 1699 1700 1701 1703 1704 1705 1706 1706 1707 1709 1710 1710 1710 1701 0 0 0 0 0 0 0 0 0 0 2429 2452 2459 2462 2466 2469 2474 2474 2474 2474 2473 2471 2469 2453 0 0 0 0 0 0 840 840 840 841 841 853 867 871 874 883 894 923 923 923 919 914 914 914 935 987 0 0 0 0 0 2070 2045 2045 0 0 0 0 0 0 0 0 0 0 0 0 0 0 0 0 0 0 0 0 0 0 0 0 0 0 0 0 0 0 1085 1082 1081 1081 1081 1080 1079 1079 1078 1077 1076 1076 1076 1076 1076 1076 1076 1076 1076 1076 1076 1075 1075 1074 1074 1073 1072 1071 1070 1069 1068 1066 1065 1063 1062 1060 1058 1057 1055 1053 1051 1051 1048 1048 1047 1043 1038 1037 1033 1033 1032 1024 1019 1011 1001 997 990 983 981 977 976 972 972 972 984 991 999 1007 1011 1015 1020 1022 1022 1023 1024 1024 1024 1024 1024 1024 1024 1023 1023 1023 1023 1022 1021 1020 1019 1018 1018 1017 1016 1015 1014 1013 1013 1012 1011 1009 1007 1007 1006 1004 1001 994 988 975 953 934 924 907 905 902 900 895 893 893 891 890 884 879 879 879 879 885 892 896 896 898 899 904 905 905 907 911 915 931 940 940 940 941 941 949 957 960 962 962 965 967 968 969 969 969 969 969 969 968 967 967 967 966 965 964 964 964 962 962 961 960 960 959 959 958 958 957 956 956 955 955 954 954 953 953 952 952 951 950 949 949 948 947 945 944 943 942 942 941 940 940 938 938 938 936 936 935 934 934 933 932 931 930 929 928 928 927 925 925 924 923 923 921 921 920 919 918 917 917 916 916 915 915 914 913 913 912 912 911 910 909 909 908 908 908 907 906 906 905 904 903 903 901 901 900 898 897 897 896 895 894 892 891 889 888 888 887 886 885 884 883 882 881 881 881 881 881 881 881 881 880 879 876 876 876 874 872 869 868 867 865 865 857 850 844 841 840 840 838 834 832 830 829 829 827 827 825 824 822 822 821 820 820 819 817 815 815 814 813 812 809 808 808 807 807 807 805 803 800 797 794 790 789 788 786 786 783 780 777 775 773 771 770 770 769 767 767
0 0 0 0 0 0 944 955 969 984 1005 1021 1031 1041 1048 1055 1058 1063 1067 1075 1084 1092 1092 1092 0 0 0 0 942 942 953 973 989 989 1002 1002 0 0 0 0 1386 1413 1428 1438 1439 1444 1444 1444 1444 1433 0 0 0 0 0 0 0 0 895 895 877 856 834 825 822 805 0 0 0 0 0 0 0 0 0 0 0 0 0 0 0 0 0 0 640 638 637 0 0 0 0 662 680 692 700 703 704 704 703 701 676 657 653 653 651 651 649 647 641 636 636 0 0 0 0 0 0 0 0 0 0 0 0 0 0 0 0 0 0 0 0 0 0 0 0 0 0 1618 1636 1643 1646 1647 1650 1650 1651 1652 1653 1653 1654 1655 1655 1656 1657 1658 1658 1660 1661 1663 1664 1666 1667 1669 1670 1672 1674 1674 1675 1675 1676 1676 1677 1677 1678 1679 1680 1680 1681 1682 1683 1684 1684 1685 1687 1689 1690 1691 1691 1692 1695 1695 1696 1697 1697 1697 1699 1699 1701 1701 1703 1703 1706 1709 1709 1709 1705 1689 0 0 0 0 0 0 0 0 0 0 2419 2438 2447 2452 2460 2467 2472 2472 2474 2475 2474 2471 2469 0 0 0 0 0 0 0 839 839 839 841 849 863 881 881 884 888 894 956 956 956 919 919 919 919 0 0 0 0 0 0 0 0 0 0 0 0 0 0 0 0 0 0 0 0 0 0 0 0 0 0 0 0 0 0 0 0 0 0 0 0 0 0 0 0 1086 1082 1081 1081 1081 1081 1080 1079 1078 1078 1077 1077 1077 1077 1077 1077 1077 1077 1077 1076 1076 1076 1076 1076 1075 1074 1073 1073 1072 1071 1070 1069 1067 1065 1064 1063 1060 1057 1056 1053 1050 1048 1047 1045 1042 1035 1033 1031 1030 1021 1009 1008 1007 1005 995 991 990 983 978 976 973 969 967 967 967 990 997 1003 1008 1015 1020 1023 1023 1023 1025 1025 1025 1025 1025 1025 1025 1025 1025 1025 1024 1024 1024 1022 1022 1021 1020 1020 1018 1017 1017 1016 1014 1014 1013 1012 1010 1009 1008 1006 1004 1001 996 989 975 953 934 923 910 909 905 899 893 893 891 890 890 887 887 887 887 891 893 896 898 898 899 904 906 907 910 917 929 942 943 943 943 946 947 957 964 968 969 969 969 970 971 971 971 971 971 971 970 970 969 968 968 967 967 966 965 965 964 964 963 962 962 961 960 960 959 959 958 958 957 956 956 956 955 954 954 953 953 952 951 950 949 948 947 946 945 944 943 941 941 940 940 939 938 938 936 936 935 935 933 933 931 930 929 929 929 927 927 926 925 925 923 923 921 921 920 919 919 918 917 917 916 915 915 914 913 913 912 911 911 910 909 909 909 908 908 907 906 906 905 904 904 903 902 900 900 898 898 896 896 895 893 892 891 889 889 887 887 885 885 883 883 882 881 881 881 881 881 881 881 880 877 875 873 869 867 866 866 865 864 864 862 857 850 844 841 840 840 838 834 832 830 829 829 827 827 825 824 822 822 822 822 822 822 821 820 818 816 815 813 813 810 810 809 809 809 807 805 804 801 796 790 789 789 787 786 784 781 778 775 773 771 770 770 769 768 768
0 0 0 0 0 0 946 955 969 984 1005 1021 1031 1041 1048 1055 1058 1063 1067 1075 1084 1090 1090 1090 0 0 0 0 908 938 953 970 970 972 1000 1000 0 0 0 0 1386 1408 1422 1430 1430 1430 1430 1425 1419 0 0 0 0 0 0 0 0 887 885 880 877 862 841 831 825 805 776 741 0 0 0 0 0 0 0 0 0 0 0 0 0 0 0 0 0 602 601 588 588 588 0 0 0 0 0 702 702 702 702 702 698 693 685 678 667 656 649 631 625 618 618 618 0 0 0 0 0 0 0 0 0 0 0 0 0 0 0 0 0 0 0 0 0 0 0 0 1588 1619 1639 1643 1646 1647 1649 1650 1651 1652 1653 1654 1655 1655 1655 1656 1657 1658 1659 1660 1661 1663 1665 1666 1667 1669 1670 1672 1673 1673 1674 1674 1674 1674 1674 1675 1676 1677 1678 1678 1679 1679 1681 1681 1681 1682 1683 1684 1684 1686 1688 1689 1691 1693 1694 1694 1695 1695 1696 1697 1698 1698 1699 1700 1703 1707 1707 1707 1696 0 0 0 0 0 0 0 0 0 0 0 2410 2422 2433 2445 2458 2467 2471 2471 2474 2474 2474 2471 2469 0 0 0 0 0 0 0 830 830 830 842 855 875 891 903 909 912 933 957 957 957 922 922 922 929 0 0 0 0 0 0 0 0 0 0 0 0 0 0 0 0 0 0 0 0 0 0 0 0 0 0 0 0 0 0 0 0 0 0 0 0 0 0 0 0 1087 1081 1081 1081 1081 1081 1081 1081 1080 1079 1079 1079 1078 1078 1078 1078 1078 1078 1078 1078 1078 1078 1078 1078 1077 1076 1076 1075 1074 1073 1072 1071 1069 1068 1067 1065 1061 1058 1056 1052 1049 1046 1046 1042 1037 1033 1024 1023 1018 999 986 982 981 978 978 978 976 976 976 975 973 968 962 962 962 967 993 1002 1007 1013 1020 1023 1023 1023 1025 1026 1026 1027 1027 1027 1027 1027 1027 1026 1026 1026 1025 1024 1024 1023 1023 1021 1021 1021 1020 1019 1017 1016 1015 1014 1013 1011 1009 1008 1006 1004 1000 994 986 975 957 941 931 915 907 901 893 893 893 893 893 893 893 894 897 900 900 900 899 899 899 908 913 919 920 928 943 949 950 954 954 954 961 962 967 969 970 971 972 972 973 973 973 973 973 972 972 972 971 971 970 969 969 967 967 967 966 965 965 964 963 963 962 961 961 960 959 959 958 958 957 957 956 955 955 955 953 953 952 951 950 949 948 947 945 945 944 944 942 941 941 939 939 938 938 937 936 935 934 933 932 931 930 930 929 928 927 927 926 925 924 923 922 922 921 920 919 919 918 917 917 916 915 914 914 913 913 912 912 911 910 910 909 909 908 908 907 907 906 905 905 904 902 901 901 900 898 897 896 895 893 892 892 890 889 889 888 887 886 885 884 883 882 881 881 881 881 880 878 878 875 871 870 867 865 864 863 863 863 863 861 857 850 845 841 841 841 838 834 832 831 830 829 827 827 827 826 826 825 825 825 825 825 824 823 821 819 818 817 815 813 812 811 811 810 810 809 808 807 803 796 793 792 790 789 786 782 779 775 773 771 770 769 769 768 768
0 0 0 0 0 0 946 956 969 984 1003 1019 1030 1040 1048 1055 1058 1063 1065 1072 1083 1083 1083 1078 0 0 0 0 0 938 953 970 970 970 994 994 0 0 0 0 1380 1404 1416 1419 1419 1419 1414 1401 0 0 0 0 0 0 0 0 0 876 875 875 875 862 851 841 825 805 777 754 740 0 0 0 0 0 0 577 578 578 585 0 0 0 0 592 589 588 587 581 581 581 589 0 0 0 0 0 699 700 702 700 700 699 698 697 686 662 649 631 625 618 618 618 626 0 0 0 0 0 0 0 0 0 0 0 0 0 0 0 0 0 0 0 0 0 0 0 1602 1628 1639 1643 1646 1648 1649 1650 1651 1653 1653 1654 1655 1655 1655 1656 1657 1658 1659 1660 1661 1663 1665 1666 1667 1669 1670 1671 1672 1673 1673 1673 1674 1674 1674 1674 1675 1676 1676 1678 1678 1678 1678 1679 1679 1679 1680 1681 1682 1683 1685 1686 1688 1691 1691 1691 1691 1691 1693 1694 1694 1695 1697 1697 1700 1703 1703 1703 1689 0 0 0 0 0 0 0 0 0 0 2391 2410 2422 2433 2445 2458 2466 2467 2468 2469 2469 2469 2469 2463 0 0 0 0 0 0 0 810 810 828 846 860 881 892 903 927 0 0 0 0 986 923 923 923 0 0 0 0 0 0 0 0 0 0 0 0 0 0 0 0 0 0 0 0 0 0 0 0 0 0 0 0 0 0 0 0 0 0 0 0 0 0 0 0 0 1087 1081 1081 1081 1081 1081 1081 1081 1081 1081 1081 1080 1080 1080 1080 1079 1079 1079 1079 1078 1078 1078 1078 1078 1078 1077 1077 1076 1076 1074 1074 1072 1071 1071 1069 1066 1062 1061 1055 1052 1046 1043 1039 1038 1036 1027 1020 1016 997 984 979 970 966 966 966 967 968 973 973 973 970 963 954 951 951 951 975 1000 1007 1011 1018 1022 1023 1023 1024 1026 1028 1028 1029 1029 1028 1028 1028 1028 1028 1027 1027 1026 1025 1025 1025 1024 1024 1022 1021 1020 1019 1018 1017 1016 1015 1013 1011 1009 1008 1006 1003 995 988 980 973 946 936 918 912 904 894 894 894 894 894 895 896 902 904 907 908 908 910 910 917 929 929 931 933 939 954 966 966 966 965 965 965 968 970 970 971 972 972 973 974 974 974 974 974 974 973 973 971 971 971 971 970 970 969 968 968 966 966 965 964 964 963 963 963 962 961 960 960 959 959 958 957 957 957 955 955 954 953 952 952 950 949 948 947 946 946 944 944 942 942 941 940 939 939 938 937 935 934 933 933 932 931 930 930 928 928 928 926 925 924 924 923 922 922 920 920 919 919 918 917 916 915 915 914 913 913 913 912 911 911 911 910 909 909 909 908 908 907 906 906 906 905 904 902 901 898 897 897 895 895 893 892 891 890 889 888 888 887 886 885 883 883 882 882 881 881 879 878 875 873 871 870 867 865 863 863 863 862 862 861 856 852 846 843 842 841 838 834 832 831 830 829 828 828 828 828 827 826 826 826 826 826 825 825 824 823 821 821 819 816 813 812 812 812 812 812 811 809 806 802 799 795 793 790 788 785 780 774 771 770 769 769 769 768 768
0 0 0 0 0 0 946 956 969 984 1001 1016 1028 1036 1045 1053 1057 1059 1062 1067 1076 1076 1076 0 0 0 0 0 0 938 955 969 969 955 988 988 0 0 0 0 1379 1398 1406 1406 1406 1406 1393 1373 0 0 0 0 0 0 0 0 866 866 866 866 866 862 851 841 825 794 778 765 759 753 0 0 0 0 588 575 575 575 575 575 566 566 566 567 572 576 576 576 577 577 577 592 0 0 0 0 697 700 702 700 700 702 702 699 699 684 650 631 625 618 618 618 625 652 657 0 0 0 0 0 0 0 0 0 0 0 0 0 0 0 0 0 0 0 0 0 1607 1631 1641 1644 1647 1648 1649 1650 1651 1653 1653 1654 1655 1655 1655 1656 1657 1658 1659 1660 1661 1663 1665 1666 1667 1668 1669 1671 1671 1672 1672 1672 1672 1672 1673 1673 1673 1674 1676 1677 1677 1678 1678 1678 1678 1678 1678 1679 1681 1682 1683 1683 1684 1685 1687 1688 1688 1689 1689 1691 1692 1695 1697 1697 1699 1700 1700 1700 0 0 0 0 0 0 0 0 0 0 0 2399 2410 2422 2433 2445 2457 2457 2457 2455 2455 2455 2455 2455 2448 0 0 0 0 0 0 0 810 810 823 841 860 881 892 903 927 0 0 0 0 0 0 0 0 0 0 0 0 0 0 0 0 0 0 0 0 0 2515 2515 2515 2500 2500 2500 2497 0 0 0 0 0 0 0 0 0 0 0 0 0 0 0 0 0 0 0 0 0 1088 1080 1080 1080 1081 1081 1081 1082 1081 1081 1081 1081 1081 1081 1080 1080 1080 1080 1080 1080 1080 1080 1080 1079 1079 1079 1078 1078 1077 1077 1076 1074 1073 1072 1070 1068 1064 1061 1056 1044 1040 1039 1038 1031 1022 1001 999 986 976 972 971 962 962 962 963 963 964 964 964 963 961 957 951 948 948 948 962 986 990 1000 1009 1019 1022 1023 1023 1026 1029 1030 1030 1030 1029 1029 1029 1029 1029 1029 1028 1027 1026 1026 1026 1025 1024 1024 1022 1022 1021 1020 1020 1018 1016 1014 1013 1011 1010 1008 1006 998 989 983 977 959 946 939 924 910 894 894 894 894 894 897 898 906 910 915 925 929 930 932 939 945 946 947 951 955 966 969 969 969 969 970 974 974 974 974 976 976 976 976 976 976 976 976 975 974 974 973 973 973 973 972 971 971 970 970 968 968 967 967 966 965 964 964 964 964 963 961 961 961 960 959 959 958 957 957 956 955 955 953 952 952 950 949 948 947 946 946 945 943 943 942 941 940 939 938 938 937 935 935 934 933 932 931 931 930 928 928 927 926 926 925 923 923 923 921 921 920 919 919 918 917 916 916 915 915 914 914 913 912 912 911 911 911 910 910 909 908 908 907 907 907 907 905 904 902 900 898 897 897 896 895 893 891 891 890 890 889 889 888 885 884 884 884 882 882 881 879 878 875 873 870 869 867 864 863 863 862 861 861 860 856 852 847 844 843 841 840 838 835 832 831 830 830 829 829 829 829 828 828 828 828 827 827 827 827 826 825 823 820 817 815 813 813 813 812 812 811 809 807 805 801 799 794 791 788 785 780 774 770 769 769 769 769 768 768
0 0 0 0 0 0 945 956 969 983 999 1012 1021 1032 1040 1048 1055 1059 1060 1063 1068 1068 1068 0 0 0 0 0 0 955 985 985 955 948 948 948 0 0 0 0 1372 1391 1391 1391 1379 1367 1366 0 0 0 0 0 0 0 0 0 865 865 861 861 861 860 851 841 812 794 780 777 776 775 0 0 0 0 590 575 571 570 569 565 552 547 547 547 555 566 566 566 568 568 569 585 0 0 0 0 697 697 692 692 698 698 699 707 707 707 685 0 0 618 618 618 625 638 652 657 0 0 0 0 0 0 0 0 0 0 0 0 0 0 0 0 0 0 0 0 1620 1637 1643 1645 1647 1648 1650 1650 1651 1653 1653 1653 1654 1655 1655 1656 1656 1658 1659 1660 1661 1662 1664 1666 1667 1668 1669 1670 1671 1671 1671 1672 1672 1672 1672 1673 1673 1674 1675 1676 1677 1677 1677 1678 1678 1678 1678 1678 1679 1680 1680 1680 1680 1682 1682 1684 1686 1687 1687 1690 1692 1695 1697 1697 1698 1698 1698 1688 0 0 0 0 0 0 0 0 0 0 0 2399 2410 2420 2432 2444 2453 2453 2453 2455 2453 2453 2453 2448 2438 0 0 0 0 0 0 0 810 810 819 841 860 881 892 903 0 0 0 0 1031 993 948 0 0 0 0 0 0 0 0 0 0 0 0 0 0 2508 2521 2521 2521 2513 2513 2513 2519 2526 2526 2526 2507 0 0 0 0 0 0 0 0 0 0 0 0 0 0 0 0 0 0 1090 1087 1086 1081 1081 1082 1082 1082 1082 1082 1082 1082 1081 1081 1081 1081 1081 1081 1081 1080 1081 1081 1080 1080 1080 1080 1079 1079 1078 1077 1076 1075 1074 1072 1068 1066 1063 1057 1044 1040 1032 1027 1018 1002 991 988 974 967 961 955 948 948 948 958 958 958 956 953 951 950 950 946 946 946 947 960 965 977 982 991 1009 1019 1022 1023 1026 1029 1030 1030 1030 1030 1030 1030 1030 1030 1030 1030 1029 1029 1028 1027 1026 1026 1025 1024 1023 1023 1022 1022 1020 1018 1016 1014 1013 1012 1009 1008 1003 996 995 990 976 963 952 941 913 894 894 894 897 897 898 904 915 930 937 941 945 949 955 955 958 961 966 969 970 970 971 971 971 974 979 979 979 979 979 979 979 979 979 979 978 978 977 976 976 975 975 974 974 973 973 972 972 971 970 970 970 969 968 967 966 966 965 965 964 964 963 962 962 961 961 960 959 959 958 957 956 955 954 953 952 951 950 949 948 947 946 945 945 943 943 942 941 940 939 938 937 936 935 935 933 932 932 931 930 929 928 928 927 926 925 924 924 923 922 921 920 919 919 918 918 917 916 916 916 916 916 915 914 913 913 912 912 912 912 911 910 909 909 909 909 908 907 905 903 902 900 899 899 896 896 895 893 892 891 891 890 890 889 888 887 885 885 883 882 881 879 878 875 873 870 869 866 864 863 863 862 861 860 859 857 852 847 844 843 842 841 838 836 834 833 832 831 831 831 830 830 830 830 829 828 828 828 829 829 829 829 824 822 819 817 816 815 813 812 812 811 809 807 805 802 799 795 791 788 785 780 773 771 770 769 769 769 767 767
0 0 0 0 0 931 945 956 968 982 995 1008 1017 1027 1038 1047 1053 1058 1060 1063 1063 1063 1057 0 0 0 0 0 0 970 970 970 965 960 960 960 0 0 0 0 1354 1383 1383 1383 1357 0 0 0 0 0 0 0 0 0 0 874 863 861 861 861 854 850 848 825 804 794 794 794 789 789 0 0 0 0 590 575 570 569 551 551 547 537 537 537 541 551 551 551 551 551 556 581 0 0 0 672 672 672 664 664 664 681 693 707 708 715 0 0 0 0 629 625 625 625 635 651 0 0 0 0 0 0 0 0 0 0 0 0 0 0 0 0 0 0 0 1615 1634 1637 1643 1645 1647 1648 1649 1650 1651 1652 1652 1653 1653 1654 1655 1655 1656 1657 1658 1660 1661 1662 1664 1666 1666 1668 1668 1669 1670 1671 1671 1671 1671 1671 1672 1673 1673 1674 1674 1676 1676 1676 1677 1678 1678 1678 1677 1677 1677 1677 1677 1678 1679 1679 1680 1682 1683 1684 1684 1689 1692 1694 1698 1698 1698 1696 1696 0 0 0 0 0 0 0 0 0 0 0 0 0 2410 2420 2432 2439 2444 2447 2450 2450 2450 2450 2447 2435 2422 0 0 0 0 0 0 0 823 823 823 841 854 864 869 890 0 0 0 1034 1034 999 960 960 0 0 0 0 0 0 0 0 0 0 0 0 0 2508 2521 2521 2521 2517 2517 2517 2525 2537 2537 2537 2526 2506 2487 2467 2448 0 0 0 0 0 0 0 0 0 0 0 0 0 0 0 1093 1093 1088 1087 1087 1084 1084 1083 1083 1083 1083 1082 1082 1082 1082 1082 1082 1082 1082 1082 1082 1082 1082 1081 1081 1081 1080 1079 1079 1078 1077 1075 1075 1073 1071 1066 1057 1044 1030 1023 1013 997 985 979 976 969 963 956 951 948 948 948 955 955 955 953 951 948 945 941 937 937 937 946 958 963 964 965 974 996 1014 1020 1022 1025 1029 1030 1030 1031 1031 1031 1031 1031 1031 1031 1031 1031 1030 1029 1029 1028 1027 1027 1026 1025 1025 1024 1024 1022 1019 1017 1016 1015 1012 1011 1008 1006 1004 1003 999 992 984 971 950 936 917 913 913 913 917 925 930 931 935 938 944 954 962 965 966 970 975 975 977 981 982 982 983 983 983 983 983 983 983 982 982 982 982 981 981 980 980 980 979 978 977 976 976 976 975 974 974 973 972 972 972 971 971 970 968 968 967 967 966 966 965 964 964 963 962 962 960 960 959 959 958 956 956 955 953 953 951 951 949 949 948 947 945 945 944 943 943 941 941 940 939 937 937 936 935 933 933 932 931 930 929 929 928 928 927 925 925 924 923 923 922 922 921 920 919 918 918 917 917 917 917 916 916 915 914 914 914 913 913 913 912 911 911 910 910 909 909 908 906 904 903 902 901 900 898 897 897 896 895 894 893 893 891 890 889 888 886 885 883 882 881 880 878 876 873 871 870 867 864 863 863 862 861 860 859 857 852 848 845 844 843 842 840 837 836 834 833 832 832 832 831 831 831 830 829 829 829 830 830 830 830 829 826 824 821 818 817 815 813 812 811 810 809 807 805 802 799 795 791 788 784 778 770 770 770 770 770 769 765 765
0 0 0 0 932 934 945 956 966 980 993 1005 1012 1020 1034 1044 1051 1055 1058 1060 1060 1060 0 0 0 0 0 0 0 980 980 980 965 962 962 962 0 0 0 0 0 1358 1358 1358 0 0 0 0 0 0 0 0 0 0 0 858 858 858 858 856 849 838 838 811 804 804 804 805 813 813 0 0 0 0 0 575 567 560 550 550 534 530 530 530 541 541 541 537 537 537 553 580 0 0 661 672 672 672 632 0 0 0 0 0 0 0 0 0 0 0 0 635 632 632 632 0 0 0 0 0 0 0 0 0 0 0 0 0 0 0 0 0 0 0 0 1626 1634 1637 1643 1645 1647 1648 1649 1650 1651 1651 1652 1653 1653 1653 1654 1655 1656 1657 1658 1659 1660 1661 1663 1665 1666 1667 1668 1669 1670 1670 1670 1670 1671 1671 1672 1672 1673 1674 1674 1674 1675 1675 1676 1677 1677 1677 1677 1677 1676 1676 1676 1676 1677 1677 1678 1679 1680 1681 1682 1687 1691 1693 1697 1697 1697 1684 0 0 0 0 0 0 0 0 0 0 0 0 0 0 0 0 0 0 0 0 0 2445 2445 2445 2438 2424 0 0 0 0 0 0 0 0 828 828 828 841 854 862 869 890 0 0 1035 1035 1035 999 980 980 980 0 0 0 0 0 0 0 0 0 0 0 0 2509 2521 2521 2522 2522 2522 2529 2533 2539 2539 2539 2539 2522 2505 2478 2463 2444 2424 2403 2375 2355 0 0 0 0 0 0 0 0 0 0 0 1110 1102 1099 1088 1085 1085 1085 1085 1084 1084 1084 1084 1084 1083 1083 1083 1083 1083 1083 1083 1083 1083 1083 1083 1083 1083 1082 1080 1079 1079 1077 1077 1075 1072 1070 1057 1044 1030 1015 995 989 976 967 966 961 957 954 950 948 948 948 952 952 952 952 951 947 942 937 935 935 935 946 954 954 954 958 958 976 998 1009 1017 1024 1029 1031 1031 1031 1032 1032 1032 1033 1033 1033 1033 1032 1032 1031 1030 1030 1028 1028 1028 1027 1026 1026 1025 1023 1021 1020 1018 1018 1015 1013 1009 1007 1007 1006 1006 1002 989 976 963 948 936 932 932 932 944 955 955 957 955 955 955 957 968 972 974 975 980 980 981 983 984 985 985 985 986 986 986 986 986 986 985 985 984 983 982 982 982 981 980 979 978 978 978 977 977 977 976 975 974 973 973 973 972 971 970 970 969 968 968 967 966 966 965 964 963 962 961 961 960 960 959 958 956 955 954 953 952 951 950 949 948 947 946 945 944 944 943 942 941 940 939 938 937 936 935 934 933 933 931 931 931 929 928 928 927 926 926 925 924 923 923 922 922 921 920 920 918 918 918 918 918 917 916 916 915 915 915 914 914 914 913 913 912 912 911 910 909 909 908 906 905 904 902 901 900 899 898 897 897 897 897 896 894 892 891 889 887 886 884 883 882 880 878 877 875 871 870 867 866 864 864 862 861 860 859 857 852 848 846 846 846 844 842 840 837 836 834 833 833 833 833 832 831 830 829 829 829 830 830 830 830 829 827 824 822 819 817 815 813 811 810 809 808 806 805 802 799 796 792 788 782 776 770 770 770 770 770 765 765 765
0 0 0 0 937 939 950 956 966 978 991 1002 1009 1014 1025 1037 1043 1046 1050 1050 1050 1049 0 0 0 0 0 0 0 979 979 979 967 967 967 978 0 0 0 0 0 0 0 0 0 0 0 0 0 0 0 0 0 0 860 854 854 854 854 854 846 828 811 807 807 811 820 833 833 833 0 0 0 0 0 0 558 548 538 534 533 527 527 527 541 541 541 530 530 530 549 0 0 0 674 674 674 661 628 621 0 0 0 0 0 0 0 0 0 0 0 0 0 0 0 0 0 0 0 0 0 926 869 863 834 0 0 0 0 0 0 0 0 0 1609 1628 1634 1636 1640 1645 1647 1647 1647 1648 1649 1651 1651 1652 1652 1653 1654 1655 1655 1656 1658 1659 1659 1661 1663 1664 1666 1666 1668 1668 1669 1670 1670 1670 1670 1671 1671 1672 1672 1672 1673 1673 1674 1674 1674 1675 1675 1675 1675 1675 1675 1675 1675 1675 1675 1675 1676 1676 1677 1679 1681 1683 1685 1692 1692 1692 1691 0 0 0 0 0 0 0 0 0 0 0 0 0 0 0 0 0 0 0 0 0 0 0 0 0 0 0 0 0 0 0 0 0 0 0 0 829 829 841 854 862 869 890 0 0 1039 1039 1039 999 983 983 983 0 0 0 0 0 0 0 0 0 0 0 0 2509 2516 2517 2517 2518 2524 2530 2533 2539 2539 2539 2539 2522 2505 2478 2463 2449 2439 2426 2408 2391 2372 0 0 0 0 0 0 0 0 0 0 0 1112 1101 1092 1086 1085 1085 1085 1086 1086 1086 1085 1085 1085 1084 1084 1084 1084 1084 1084 1084 1084 1084 1084 1084 1084 1083 1083 1081 1080 1079 1077 1076 1073 1070 1063 1048 1030 1015 995 980 971 960 958 955 954 953 949 947 947 947 949 950 950 949 949 946 942 937 935 935 935 945 945 945 939 939 939 944 976 997 1005 1018 1026 1030 1032 1033 1034 1034 1035 1035 1035 1035 1034 1033 1032 1032 1032 1030 1030 1030 1029 1029 1028 1027 1027 1025 1024 1022 1021 1020 1017 1015 1012 1012 1010 1009 1009 1006 998 989 977 967 957 957 957 957 972 974 974 974 974 972 972 973 973 980 982 982 982 982 984 985 987 988 988 988 988 988 988 988 988 988 987 986 986 985 984 984 983 983 982 981 980 980 979 979 979 978 977 977 976 975 975 973 973 973 972 971 970 970 969 968 968 967 966 965 964 963 963 961 961 960 959 958 957 955 954 953 952 951 950 949 948 948 947 946 945 944 943 942 942 941 939 938 937 936 935 934 933 933 932 932 931 929 929 928 927 927 926 926 924 924 924 924 923 922 922 920 920 920 919 919 918 917 917 917 916 916 916 915 915 914 914 914 913 913 912 912 911 910 909 908 907 906 905 903 902 900 900 900 899 899 899 898 897 895 893 892 890 886 885 883 882 881 879 878 876 875 873 870 868 866 864 863 861 861 860 858 855 852 850 848 847 844 843 842 840 838 837 836 835 834 833 833 833 831 829 829 829 830 830 830 830 829 827 824 822 819 817 815 813 811 810 809 808 805 804 802 799 796 792 788 782 776 770 769 769 769 765 765 765 765
0 0 0 0 938 952 954 960 966 977 988 997 1004 1012 1022 1027 1032 1034 1038 1038 1038 1038 0 0 0 0 0 0 0 980 980 980 975 975 975 989 0 0 0 0 0 0 0 0 0 0 0 0 0 0 0 0 0 0 851 849 849 846 846 843 832 811 810 810 811 816 829 844 844 844 0 0 0 0 0 0 0 548 538 534 533 533 534 537 537 537 536 525 525 525 541 0 0 0 0 674 674 660 627 0 0 0 0 0 0 0 0 0 0 0 0 0 0 0 0 0 0 0 0 0 887 887 869 849 843 843 0 0 0 0 0 0 0 1599 1617 1628 1633 1634 1636 1638 1642 1642 1643 1645 1647 1649 1649 1650 1651 1652 1653 1654 1654 1656 1657 1658 1659 1661 1663 1664 1666 1666 1667 1668 1668 1669 1669 1670 1670 1670 1671 1671 1672 1672 1673 1673 1674 1674 1674 1674 1674 1674 1674 1674 1675 1675 1674 1674 1674 1674 1674 1676 1677 1679 1680 1682 1685 1690 1690 1690 1670 0 0 0 0 0 0 0 0 0 0 0 0 0 0 0 0 0 0 0 0 0 0 0 0 0 0 0 0 0 0 0 0 0 0 0 0 0 853 854 862 862 886 916 0 0 1039 1039 1039 998 984 984 0 0 0 0 0 0 0 0 0 0 0 0 0 2508 2510 2512 2514 2517 2524 2530 2533 2539 2539 2539 2539 2522 2505 2478 2463 2455 2453 2442 2429 2411 2398 2378 0 0 0 0 0 0 0 0 0 0 0 0 1106 1098 1095 1090 1087 1086 1086 1086 1086 1086 1086 1085 1085 1085 1085 1085 1086 1085 1085 1086 1086 1086 1086 1085 1084 1083 1082 1082 1080 1077 1074 1073 1067 1058 1039 1015 995 980 962 958 955 954 954 952 949 945 945 945 945 945 945 944 944 943 941 936 934 934 934 935 935 935 932 932 932 938 947 976 995 1008 1022 1029 1032 1033 1034 1034 1035 1035 1035 1035 1035 1034 1034 1033 1032 1032 1031 1031 1030 1030 1029 1028 1028 1026 1025 1025 1024 1022 1020 1018 1016 1015 1015 1015 1013 1011 1007 1001 993 984 978 978 978 981 982 984 982 981 980 980 980 982 985 986 986 986 986 986 988 990 990 991 991 991 991 991 991 990 990 990 989 988 988 987 986 986 985 985 984 983 981 981 981 980 980 979 979 978 978 977 975 975 974 974 973 972 971 970 970 970 969 968 967 966 965 964 963 962 961 960 959 958 957 956 954 954 953 952 951 950 949 948 947 946 946 945 944 943 942 941 940 938 937 937 935 935 934 933 933 932 931 930 930 929 929 928 927 927 926 924 924 924 924 924 923 922 922 922 921 920 919 918 918 917 917 917 917 916 916 916 916 915 915 914 914 913 911 911 910 909 909 907 906 906 905 903 902 902 902 902 901 901 899 898 896 894 891 889 886 884 883 882 880 879 877 876 875 873 870 868 866 865 863 863 861 859 856 854 851 850 848 846 845 843 842 840 840 838 837 836 836 834 834 833 832 830 830 830 830 830 830 829 827 825 823 820 817 816 813 811 810 809 807 805 803 802 799 796 792 788 782 776 771 769 768 766 766 765 765 765
0 0 0 0 938 952 954 960 966 973 983 993 1004 1012 1022 1024 1026 1027 1028 1027 1027 1013 0 0 0 0 0 0 0 934 969 977 979 980 980 992 1021 0 0 0 0 0 0 1213 1202 1194 0 0 0 0 0 0 0 0 826 826 826 823 822 819 813 812 811 811 812 825 838 849 849 849 0 0 0 0 0 0 0 0 538 534 533 533 534 538 538 538 528 521 521 521 531 0 0 0 0 0 0 0 0 0 588 588 588 0 0 0 0 0 728 730 730 0 0 0 0 0 0 0 0 0 883 883 869 849 849 849 0 0 0 0 0 0 0 1606 1620 1628 1631 1633 1633 1634 1637 1638 1640 1642 1644 1646 1647 1649 1650 1651 1652 1653 1653 1655 1657 1657 1659 1660 1662 1663 1666 1666 1666 1667 1668 1668 1668 1669 1669 1669 1670 1670 1671 1671 1672 1673 1673 1673 1673 1673 1673 1673 1673 1673 1673 1673 1673 1673 1673 1674 1674 1675 1676 1678 1679 1681 1684 1684 1684 1672 0 0 0 0 0 0 0 0 0 0 0 0 0 0 0 0 0 0 0 0 0 0 0 0 0 0 0 0 0 0 0 0 0 0 0 0 0 0 906 869 869 869 902 932 962 1005 1024 1024 1024 985 985 985 0 0 0 0 0 1981 0 0 0 0 0 0 0 0 2488 2499 2508 2517 2522 2529 2531 2533 2533 2533 2518 2515 2504 2476 2459 2455 2453 2443 2437 2422 2411 2392 0 0 0 0 0 0 0 0 0 0 0 0 0 1117 1107 1100 1092 1088 1087 1087 1087 1087 1087 1087 1087 1087 1087 1087 1087 1087 1087 1087 1087 1087 1087 1087 1086 1085 1085 1084 1082 1081 1078 1078 1076 1069 1054 1030 1002 980 962 958 955 954 954 952 949 945 945 945 944 944 943 937 937 937 937 935 933 933 933 933 933 933 932 932 932 937 941 953 969 989 1012 1025 1032 1033 1035 1035 1035 1035 1036 1036 1036 1035 1035 1035 1034 1034 1033 1033 1032 1032 1031 1030 1029 1029 1027 1026 1026 1025 1023 1021 1019 1018 1017 1016 1014 1014 1014 1011 1006 1000 997 997 995 994 989 989 989 988 988 987 987 987 987 989 990 990 991 991 992 992 993 993 993 993 993 993 993 992 992 991 991 991 990 990 989 988 987 986 985 984 983 982 982 982 982 980 980 979 979 978 977 976 975 975 974 973 973 972 971 971 969 968 967 966 965 964 963 963 962 960 959 958 957 956 954 954 953 952 951 951 949 948 948 947 946 945 944 944 943 941 941 940 938 937 936 935 934 934 933 932 932 931 931 930 929 929 928 928 928 927 926 926 925 924 924 924 924 923 922 920 920 919 918 918 918 918 917 917 917 917 917 916 916 915 915 914 913 912 912 911 911 910 908 908 906 906 905 905 904 904 904 903 901 899 898 895 894 892 887 886 885 882 881 879 878 877 876 873 872 869 867 867 867 864 862 859 857 855 853 850 849 848 846 844 844 842 841 840 838 838 837 836 835 834 832 831 831 830 830 830 829 829 828 826 823 820 819 817 814 811 810 809 807 805 803 801 798 796 792 790 785 779 774 770 768 766 766 766 766 766
0 0 0 0 938 952 954 960 964 966 975 990 1004 1012 1022 1022 1022 1022 1017 1013 1011 991 0 0 0 0 0 0 920 934 969 981 986 987 989 992 1008 0 0 0 0 0 1195 1195 1195 1190 1188 0 0 0 0 0 0 823 821 821 821 819 817 817 813 813 813 818 818 836 847 854 854 854 0 0 0 0 0 0 0 0 0 555 549 548 548 547 542 538 521 518 518 518 529 0 0 0 0 0 0 0 0 570 563 563 563 570 0 0 0 698 721 740 740 740 0 0 0 0 0 0 0 0 875 875 870 859 859 859 0 0 0 0 0 0 0 1613 1620 1624 1626 1629 1631 1634 1636 1637 1639 1640 1643 1644 1646 1647 1649 1650 1651 1652 1653 1654 1655 1657 1658 1660 1661 1663 1665 1665 1666 1667 1667 1667 1667 1667 1668 1668 1668 1669 1669 1671 1671 1671 1672 1672 1672 1672 1672 1672 1672 1672 1672 1672 1672 1672 1673 1673 1673 1674 1675 1678 1679 1681 1681 1681 1674 1655 0 0 0 0 0 0 0 0 0 0 0 0 0 0 0 0 0 0 0 0 0 0 0 0 0 0 0 0 0 0 0 0 0 0 0 0 0 0 906 869 869 869 902 932 962 1005 1005 1005 999 993 993 993 0 0 0 0 2003 2003 2003 0 0 0 0 0 0 0 2464 2487 2494 2500 2500 2500 0 0 0 0 0 0 2450 2450 2453 2450 2449 2443 2437 2422 2411 2392 0 0 0 0 0 0 0 0 0 0 0 0 0 1152 1121 1108 1100 1092 1089 1088 1088 1087 1087 1087 1087 1087 1088 1088 1088 1089 1089 1089 1089 1089 1089 1089 1089 1088 1086 1085 1085 1084 1082 1079 1078 1073 1063 1044 1018 986 962 958 955 954 954 952 949 944 944 944 944 944 943 937 930 930 930 932 932 932 932 932 932 933 933 934 936 937 941 950 960 985 1009 1023 1032 1033 1035 1035 1035 1036 1036 1036 1036 1036 1036 1035 1035 1035 1035 1034 1034 1033 1033 1032 1031 1030 1029 1028 1028 1026 1026 1023 1022 1021 1020 1018 1016 1016 1016 1015 1013 1008 1004 1003 1002 1001 1001 999 998 998 997 997 996 994 994 994 995 995 996 996 996 996 996 996 996 996 996 995 995 995 994 994 994 993 992 991 990 989 988 988 987 985 984 984 983 983 982 982 981 981 980 980 979 979 977 976 976 975 973 972 971 971 970 969 968 967 966 965 964 963 962 961 959 959 958 956 955 954 953 952 951 951 949 949 948 948 947 947 946 945 943 943 941 941 939 938 938 936 935 934 934 933 932 932 931 930 930 929 928 928 928 927 927 927 926 926 925 925 925 924 922 921 921 920 920 919 919 919 919 919 919 918 918 918 917 916 916 916 915 915 914 914 913 912 911 911 909 909 908 907 907 906 906 904 902 901 900 898 894 892 891 889 887 885 881 879 878 877 877 876 874 871 869 868 868 867 864 860 858 856 854 852 850 848 847 845 844 843 842 841 840 839 839 838 836 835 835 833 833 831 830 830 829 829 828 828 825 821 819 818 815 812 810 809 807 805 803 801 798 795 792 790 787 784 778 772 768 767 766 766 766 767
0 0 0 0 933 946 953 956 959 966 975 988 1004 1016 1021 1021 1021 1015 1014 1010 968 967 0 0 0 0 0 0 920 934 969 988 988 989 989 989 997 1016 0 0 0 1135 1189 1189 1189 1183 1179 1154 0 0 0 0 0 823 821 819 819 819 817 817 814 814 814 827 842 844 854 858 858 858 846 0 0 0 0 0 0 0 0 585 577 564 563 552 542 531 521 511 511 511 525 0 0 0 0 0 0 0 0 563 562 562 563 570 0 0 0 683 714 740 751 754 754 0 0 0 0 0 0 874 874 874 873 873 873 881 0 0 0 0 0 0 1594 1613 1620 1622 1625 1628 1630 1633 1634 1635 1636 1639 1641 1644 1645 1646 1647 1648 1650 1651 1652 1654 1654 1656 1658 1659 1660 1662 1664 1664 1665 1665 1666 1666 1666 1666 1666 1668 1668 1669 1669 1669 1670 1671 1671 1671 1671 1671 1671 1671 1671 1670 1670 1670 1671 1671 1672 1672 1673 1673 1674 1676 1678 1678 1678 1671 1664 1633 0 0 0 0 0 0 0 0 0 0 0 0 0 0 0 0 0 0 0 0 0 0 0 0 0 0 0 0 0 0 0 0 0 0 0 0 0 0 906 869 869 869 902 932 962 984 984 984 974 974 974 993 0 0 0 0 1996 1996 1996 0 0 0 0 0 0 0 2436 2471 2471 2471 2464 2440 0 0 0 0 0 0 2374 2392 2418 2435 2437 2437 2437 2422 2411 2392 0 0 0 0 0 0 0 0 0 0 0 0 0 1182 1138 1120 1110 1101 1092 1088 1088 1087 1087 1087 1088 1088 1089 1090 1090 1091 1091 1091 1091 1091 1091 1090 1089 1089 1088 1087 1087 1087 1085 1083 1082 1075 1067 1057 1043 1019 984 982 961 954 953 952 949 947 946 945 945 945 943 937 930 928 928 928 932 932 932 932 932 933 934 934 937 938 940 948 960 975 996 1014 1026 1033 1034 1035 1035 1036 1037 1037 1037 1037 1037 1037 1037 1036 1036 1036 1035 1035 1034 1033 1032 1032 1031 1030 1029 1029 1029 1027 1026 1024 1022 1021 1020 1019 1019 1017 1016 1015 1013 1006 1004 1004 1004 1004 1004 1003 1002 1002 1001 999 999 999 999 1000 1000 1000 999 999 999 999 999 998 998 998 997 997 997 996 995 994 993 993 992 991 990 989 988 987 986 986 985 984 984 984 982 982 982 981 980 980 978 977 977 976 975 974 973 971 971 970 969 968 967 966 965 963 963 961 960 959 958 957 956 954 954 953 952 951 950 950 949 948 948 947 947 946 945 943 942 941 940 939 938 937 935 935 934 933 933 932 931 931 930 930 929 929 929 929 928 928 927 927 927 926 926 925 924 923 922 921 921 920 920 920 920 920 919 919 918 918 918 918 918 917 917 917 916 916 915 915 914 913 912 911 910 910 909 909 908 905 903 902 901 899 896 895 893 891 889 886 882 880 879 879 878 877 876 874 871 870 869 867 865 862 859 856 855 854 852 850 847 846 845 844 843 842 842 841 839 839 838 837 836 835 834 832 832 830 830 830 830 830 828 824 820 818 816 813 811 809 807 804 801 799 797 794 792 790 787 784 778 773 768 767 766 766 766 767
0 0 0 0 928 945 952 955 959 966 975 988 1004 1016 1020 1020 0 0 0 0 0 0 0 0 866 866 866 874 925 940 969 988 988 989 989 989 991 1016 0 0 1110 1135 1167 1176 1176 0 0 0 0 0 906 840 819 819 819 819 819 818 817 817 817 819 824 833 846 848 854 859 859 859 852 849 0 0 0 0 0 0 0 0 0 0 0 566 542 531 521 510 510 510 0 0 598 616 616 616 608 578 557 557 557 561 562 566 587 615 0 0 0 0 751 756 764 767 769 773 779 797 821 862 875 875 875 875 0 0 0 0 0 0 0 1569 1602 1613 1616 1621 1624 1625 1628 1630 1632 1633 1635 1637 1639 1642 1643 1644 1645 1646 1648 1650 1650 1652 1652 1654 1655 1657 1659 1660 1662 1663 1664 1664 1664 1665 1665 1666 1666 1666 1668 1668 1668 1668 1669 1669 1670 1670 1670 1670 1670 1670 1670 1670 1670 1670 1670 1671 1671 1672 1672 1672 1673 1674 1674 1674 1671 1670 0 0 0 0 0 944 922 905 903 902 894 884 866 866 866 868 869 880 880 881 886 886 0 0 0 0 0 0 0 0 0 0 0 0 0 0 0 0 0 0 883 851 851 851 891 921 0 0 0 951 951 951 967 993 0 0 0 0 0 0 0 0 0 0 0 0 0 0 0 0 0 0 0 0 0 0 0 0 0 0 0 0 0 0 0 0 0 0 0 0 0 0 0 0 0 0 0 0 0 0 0 0 0 0 1138 1120 1111 1101 1092 1091 1087 1087 1087 1088 1089 1090 1091 1093 1093 1093 1093 1093 1093 1093 1092 1092 1092 1090 1089 1089 1089 1088 1087 1086 1083 1076 1072 1069 1057 1038 1010 1004 976 958 954 948 945 945 945 946 946 946 945 939 930 928 928 928 932 932 933 933 933 934 935 937 937 938 938 946 960 971 988 1000 1017 1030 1033 1034 1035 1036 1038 1038 1038 1038 1038 1038 1038 1037 1037 1037 1037 1036 1036 1035 1034 1033 1033 1032 1031 1031 1030 1029 1027 1026 1026 1024 1023 1022 1021 1020 1019 1019 1016 1012 1010 1009 1008 1008 1008 1008 1007 1005 1005 1004 1004 1004 1003 1003 1003 1002 1002 1002 1002 1002 1002 1001 1001 1001 1001 999 999 999 997 997 996 995 995 993 992 991 990 990 988 987 986 986 985 985 984 984 982 982 982 981 980 979 978 977 976 974 973 973 971 971 969 968 967 966 965 965 963 962 961 959 958 957 956 955 954 953 952 951 951 951 949 949 948 948 947 946 946 945 944 942 942 940 939 938 937 936 935 934 934 933 932 932 932 931 931 931 930 930 929 929 928 928 927 927 927 926 925 924 922 922 922 922 922 922 921 921 920 920 920 920 919 919 919 919 919 918 918 917 917 917 916 916 915 913 913 912 911 910 909 908 905 903 901 900 899 897 894 892 890 887 884 882 880 880 879 879 878 875 873 870 869 869 867 864 859 857 855 854 853 851 849 847 846 846 845 845 843 842 842 841 839 838 836 835 834 833 833 832 832 832 832 832 831 826 821 819 817 815 812 809 806 803 800 798 796 793 792 790 787 784 778 773 768 766 766 766 766 766
0 0 0 0 918 938 948 955 957 965 975 988 1004 1016 1016 0 0 0 0 0 0 0 0 0 0 874 874 881 925 940 969 982 982 988 989 989 991 0 0 0 1110 1135 1160 1165 1165 0 0 0 0 0 877 834 818 818 818 819 819 820 820 824 826 829 832 837 846 848 854 859 860 860 860 859 0 0 0 0 665 665 665 0 0 0 0 0 556 531 521 510 510 0 0 0 0 606 606 606 592 570 554 554 554 560 562 566 581 0 0 0 0 0 728 753 769 773 780 786 795 810 823 860 876 876 878 878 0 0 0 0 0 0 0 1584 1602 1612 1614 1619 1623 1624 1626 1628 1629 1630 1632 1634 1636 1639 1640 1641 1642 1644 1646 1647 1648 1650 1651 1652 1654 1656 1657 1660 1660 1661 1662 1663 1664 1664 1664 1664 1665 1665 1667 1667 1667 1667 1668 1668 1669 1669 1669 1669 1669 1669 1669 1669 1669 1669 1670 1670 1670 1671 1671 1672 1672 1674 1674 1674 1668 0 0 0 0 0 0 943 920 904 890 889 881 867 860 860 860 868 868 868 860 860 860 867 878 0 0 0 0 0 0 0 0 0 0 0 0 0 0 0 0 0 876 845 845 845 872 898 0 0 0 0 928 940 963 0 0 0 0 0 0 0 0 0 0 0 0 0 0 0 0 0 0 0 0 0 0 0 0 0 0 0 0 0 0 0 0 0 0 0 0 0 0 0 0 0 0 0 0 0 0 0 0 0 0 0 0 1135 1133 1123 1102 1091 1088 1088 1088 1088 1089 1091 1092 1093 1094 1094 1094 1094 1094 1094 1094 1094 1092 1091 1091 1091 1091 1090 1089 1087 1084 1078 1074 1071 1059 1042 1013 1006 977 959 956 948 945 945 945 946 946 946 945 939 932 928 928 928 932 932 934 935 935 938 938 938 937 937 937 946 958 970 982 987 1003 1023 1033 1034 1035 1036 1038 1040 1040 1040 1039 1039 1039 1039 1039 1039 1039 1038 1038 1037 1037 1036 1035 1034 1033 1032 1031 1030 1029 1028 1028 1027 1025 1024 1023 1022 1022 1020 1017 1015 1013 1013 1013 1012 1012 1011 1011 1009 1008 1008 1007 1007 1007 1006 1006 1005 1005 1005 1004 1004 1003 1003 1003 1002 1002 1002 1001 1000 1000 999 998 998 997 996 995 994 993 991 991 989 989 988 987 986 986 985 984 984 983 982 981 980 980 978 977 976 975 973 972 971 970 969 968 967 966 965 964 963 961 960 959 957 956 956 955 953 953 952 951 951 950 949 948 948 948 947 946 946 945 945 943 942 940 938 938 937 935 935 934 933 932 932 932 932 931 931 931 931 931 931 931 929 929 928 928 927 925 924 924 923 923 923 922 922 922 922 921 921 921 921 921 921 921 920 920 919 919 919 919 919 918 918 917 915 914 913 912 911 911 910 907 904 902 900 899 897 895 893 891 889 887 885 882 881 881 880 879 876 874 873 871 870 869 867 863 857 856 855 853 852 851 849 848 848 847 845 845 844 844 843 841 838 837 835 835 834 834 834 834 835 835 835 833 827 823 821 819 815 812 809 806 802 800 797 790 790 789 788 785 780 776 773 768 766 766 766 766 766
0 0 0 0 912 930 944 954 957 965 975 982 990 990 990 0 0 0 0 0 0 0 0 0 0 0 0 0 0 0 0 0 0 0 0 0 0 0 0 0 1143 1154 1158 1158 1158 0 0 0 0 0 867 832 818 818 818 819 819 821 822 826 830 834 836 838 846 848 854 859 863 867 867 867 0 0 0 678 675 675 675 675 0 0 0 0 0 0 0 0 0 0 0 0 0 0 0 0 0 557 554 554 554 560 562 566 579 594 611 0 0 0 710 735 758 773 786 799 808 818 829 859 873 877 878 884 0 0 0 0 0 0 0 1588 1602 1607 1611 1619 1622 1623 1625 1626 1627 1628 1629 1631 1634 1636 1638 1639 1641 1642 1644 1644 1646 1647 1648 1650 1653 1654 1656 1658 1659 1660 1660 1661 1662 1662 1663 1664 1664 1664 1664 1665 1665 1666 1666 1666 1667 1667 1667 1667 1667 1667 1668 1668 1668 1668 1669 1669 1669 1669 1669 1671 1671 1673 1673 1673 1662 0 0 0 0 0 0 941 918 891 881 877 871 867 860 860 860 860 860 857 855 855 855 867 878 894 0 0 0 0 0 0 0 0 0 0 0 0 0 0 0 887 872 837 837 837 851 859 863 0 0 0 0 0 0 0 0 0 0 0 0 0 0 0 0 0 0 0 0 0 0 0 0 0 0 0 0 0 0 0 0 0 0 0 0 0 0 0 0 0 0 0 0 0 0 0 0 0 0 0 0 0 0 0 0 0 0 1157 1154 1135 1102 1092 1088 1088 1088 1088 1091 1095 1095 1096 1096 1096 1095 1095 1095 1095 1095 1095 1095 1095 1094 1094 1093 1092 1091 1090 1087 1083 1082 1082 1074 1055 1027 1021 1004 982 971 948 943 943 943 945 946 946 946 942 936 931 931 931 932 932 935 935 935 940 940 940 936 936 936 943 958 970 975 977 989 1011 1029 1033 1035 1035 1038 1040 1040 1040 1040 1040 1040 1040 1041 1041 1041 1041 1040 1039 1038 1037 1036 1035 1034 1034 1033 1032 1032 1030 1029 1029 1028 1026 1026 1025 1025 1023 1021 1020 1019 1018 1016 1015 1014 1013 1012 1012 1010 1010 1010 1010 1009 1009 1008 1008 1008 1007 1006 1006 1006 1005 1005 1005 1004 1004 1003 1002 1001 1001 1001 1000 999 998 997 996 994 993 992 991 990 989 989 987 987 987 986 985 983 983 982 982 981 979 979 977 975 974 973 972 971 970 969 968 967 966 965 963 961 960 959 958 957 956 955 954 953 952 952 951 951 950 949 949 949 948 948 947 946 945 943 943 941 940 939 937 936 936 935 934 934 933 933 932 932 931 931 931 931 931 931 931 930 929 929 928 927 926 925 924 924 924 924 924 923 923 923 923 923 922 922 922 922 922 921 921 921 920 920 920 919 918 917 916 915 914 913 913 911 910 908 905 903 902 900 898 896 894 892 890 888 886 884 882 882 881 880 878 876 874 873 872 871 868 865 860 857 855 855 854 853 851 851 850 849 848 848 847 845 844 842 840 838 838 837 837 837 837 837 837 837 837 834 829 827 824 819 815 812 809 806 802 799 794 790 786 786 784 781 779 775 773 768 766 765 765 764 764
0 0 0 0 912 930 943 953 957 965 972 974 974 974 958 914 899 895 895 0 0 0 0 0 0 0 0 0 0 0 0 0 0 0 0 0 0 0 0 1146 1153 1154 1154 1154 0 0 0 0 0 0 817 816 816 816 818 819 820 820 822 826 830 835 837 838 845 852 854 859 863 881 881 881 0 0 0 680 675 675 675 710 710 0 0 0 0 0 0 0 0 0 0 0 0 0 0 0 0 536 536 544 545 546 547 549 551 570 596 619 0 0 699 725 744 767 786 799 808 818 829 857 873 878 879 0 0 0 0 0 0 0 1565 1588 1600 1606 1610 1618 1621 1622 1623 1624 1625 1626 1627 1629 1632 1634 1636 1637 1639 1640 1641 1642 1642 1645 1647 1649 1651 1652 1654 1656 1657 1658 1659 1659 1660 1660 1662 1662 1662 1662 1664 1664 1664 1665 1665 1665 1666 1666 1666 1666 1667 1667 1667 1667 1667 1667 1667 1667 1667 1667 1667 1668 1670 1672 1672 1672 1655 0 0 0 0 0 0 928 901 874 874 867 866 866 866 866 866 866 866 857 855 855 855 867 878 894 0 0 0 0 0 0 0 0 0 0 0 0 0 0 874 867 857 836 836 836 846 856 857 857 858 860 874 0 0 0 0 0 0 0 0 0 0 0 0 0 0 0 0 0 0 0 0 0 0 0 0 0 0 0 0 0 0 0 0 0 0 0 0 0 0 0 0 0 0 0 0 0 0 0 0 0 0 0 0 0 0 1167 1154 1135 1108 1096 1090 1090 1090 1096 1097 1098 1098 1098 1098 1098 1099 1099 1099 1100 1100 1100 1098 1097 1096 1096 1095 1094 1093 1092 1089 1089 1088 1087 1084 1073 1069 1053 1037 1015 992 974 944 937 937 937 940 944 944 944 943 937 937 936 936 936 935 935 935 940 940 940 935 935 935 942 949 954 960 961 973 997 1018 1030 1034 1035 1038 1040 1041 1041 1041 1042 1042 1043 1043 1043 1043 1042 1041 1041 1040 1039 1038 1037 1036 1036 1035 1034 1034 1032 1032 1030 1030 1029 1027 1027 1027 1027 1025 1024 1022 1021 1019 1018 1017 1016 1015 1015 1014 1014 1013 1012 1011 1011 1011 1011 1010 1009 1008 1008 1008 1008 1008 1008 1007 1006 1005 1005 1004 1003 1002 1002 1000 1000 998 997 996 995 993 992 992 991 990 990 988 987 987 987 986 984 983 983 983 981 980 977 976 974 973 972 971 970 969 968 967 966 965 963 962 960 959 958 957 956 955 954 953 953 952 952 952 952 952 951 950 950 950 949 948 946 945 944 943 941 941 939 937 937 937 936 935 934 933 932 932 932 932 932 932 932 932 932 932 931 930 929 928 928 927 927 926 925 925 925 925 925 925 924 923 923 923 923 923 923 922 922 921 921 921 921 920 919 918 918 916 915 914 913 912 910 908 906 904 902 901 898 896 894 892 890 888 886 885 883 883 881 880 880 878 876 874 874 873 870 867 863 861 860 859 857 855 854 852 851 851 851 850 849 847 846 844 843 841 841 841 840 840 840 839 839 839 837 835 832 830 825 820 815 812 809 806 802 799 794 789 785 784 781 777 777 774 770 768 766 765 763 762 762
0 0 0 0 912 927 941 952 956 965 966 966 966 963 958 914 899 895 892 879 0 0 0 0 782 788 801 821 824 825 825 0 0 0 0 0 0 0 1144 1150 1154 1154 1154 0 0 0 0 0 0 826 813 813 813 813 813 815 819 820 822 826 830 835 837 838 845 852 854 859 877 886 886 886 0 0 0 684 684 684 687 717 717 717 0 0 0 0 0 0 0 0 0 0 0 0 0 0 0 529 529 529 529 529 529 529 536 570 576 612 0 0 692 711 731 754 786 799 808 818 829 855 873 881 886 0 0 0 0 0 1546 1549 1576 1591 1600 1605 1609 1614 1619 1621 1623 1623 1624 1625 1626 1628 1631 1633 1635 1637 1637 1638 1638 1638 1641 1642 1645 1647 1649 1650 1652 1653 1655 1655 1656 1657 1658 1659 1659 1660 1661 1661 1661 1662 1663 1664 1664 1664 1664 1664 1664 1665 1665 1665 1665 1665 1665 1665 1665 1665 1665 1665 1665 1667 1669 1669 1669 1668 1649 0 0 0 0 0 0 904 871 866 866 866 873 873 873 870 870 870 867 857 857 857 858 875 888 909 932 0 0 0 0 0 0 0 0 0 0 0 0 886 874 867 857 836 836 836 846 856 857 857 858 860 872 874 0 0 0 0 0 0 0 0 0 0 0 0 0 0 0 0 0 0 0 0 0 0 0 1554 1537 1521 1511 0 0 0 0 0 0 0 0 0 0 0 0 0 0 0 0 0 0 0 0 0 0 0 0 0 0 0 1160 1136 1119 1097 1096 1096 1096 1100 1102 1102 1102 1101 1101 1101 1101 1103 1103 1102 1102 1102 1101 1100 1099 1098 1098 1097 1097 1095 1093 1093 1092 1092 1091 1085 1083 1072 1057 1041 1023 992 961 937 937 937 940 942 946 946 946 943 938 936 936 936 931 931 931 935 935 935 935 935 935 941 944 948 952 957 973 997 1005 1023 1032 1035 1038 1041 1044 1044 1044 1044 1044 1045 1045 1045 1044 1044 1044 1043 1043 1042 1041 1040 1039 1038 1038 1038 1036 1035 1034 1033 1032 1031 1030 1029 1029 1028 1027 1026 1025 1024 1022 1021 1020 1020 1019 1018 1017 1017 1016 1016 1014 1013 1013 1013 1013 1012 1011 1011 1010 1010 1009 1009 1009 1009 1007 1007 1006 1005 1005 1003 1002 1001 1001 998 998 996 995 994 993 993 991 990 990 990 988 988 987 985 985 985 983 982 981 979 976 974 974 973 971 970 969 968 967 967 965 963 962 960 959 958 957 957 955 954 954 954 954 954 954 953 952 951 951 951 950 950 950 948 948 948 946 944 942 941 941 939 938 937 936 935 934 933 933 932 932 932 932 932 932 932 932 932 931 930 929 929 928 927 927 926 925 925 926 926 925 925 925 925 925 925 925 925 924 924 922 922 921 921 920 919 919 918 916 915 914 913 912 911 908 906 904 902 901 898 896 894 892 890 888 887 886 885 884 883 881 881 879 879 876 874 874 871 868 865 863 861 860 859 857 855 853 853 853 853 852 851 849 848 847 846 845 843 843 843 842 842 841 840 840 837 836 833 830 826 820 814 811 808 806 802 798 793 789 785 783 781 777 773 770 769 768 766 766 763 759 759
0 0 0 0 915 926 938 952 956 962 966 966 966 963 958 914 903 899 895 895 0 0 0 782 782 788 801 821 824 825 825 830 0 0 0 0 0 1134 1154 1154 1154 1149 0 0 0 0 0 0 822 817 812 807 807 807 807 810 817 819 820 821 829 835 837 838 845 853 867 888 889 890 890 890 0 0 0 685 685 685 693 717 717 717 0 0 0 0 0 0 0 0 0 0 0 0 0 0 0 527 527 527 527 523 523 523 534 558 576 606 625 0 677 701 721 745 768 796 804 813 826 855 876 892 0 0 0 0 0 0 1568 1571 1590 1594 1599 1605 1609 1612 1616 1618 1620 1620 1621 1622 1624 1625 1628 1631 1633 1634 1635 1635 1635 1636 1639 1641 1643 1644 1646 1648 1649 1651 1652 1653 1654 1655 1656 1656 1658 1658 1658 1659 1659 1660 1661 1661 1661 1661 1662 1662 1662 1662 1663 1663 1663 1663 1664 1664 1664 1664 1664 1664 1665 1666 1668 1668 1668 1662 0 0 0 0 0 0 0 886 859 859 859 866 880 880 880 872 870 870 867 864 864 864 873 885 906 920 940 0 0 0 0 0 0 0 0 0 0 0 0 885 874 867 857 836 836 836 846 856 857 857 858 860 872 874 876 0 0 0 0 0 0 0 0 0 0 0 0 0 0 0 0 0 0 0 0 0 1565 1553 1534 1516 1503 1493 1493 1493 0 0 0 0 0 0 0 0 0 0 0 0 0 0 0 0 0 0 0 0 0 0 0 0 0 1149 1119 1112 1106 1106 1106 1113 1113 1113 1113 1108 1107 1107 1103 1103 1103 1103 1103 1103 1102 1101 1101 1100 1099 1099 1099 1098 1098 1097 1097 1095 1092 1087 1085 1079 1073 1063 1047 1023 980 948 940 940 940 942 945 945 945 943 938 936 935 935 930 930 930 930 933 934 935 935 936 941 944 948 952 957 973 997 1005 1017 1031 1037 1042 1044 1047 1048 1048 1048 1048 1048 1047 1047 1047 1046 1046 1045 1045 1044 1043 1042 1041 1041 1040 1040 1039 1037 1036 1035 1034 1034 1033 1032 1031 1030 1029 1029 1028 1027 1026 1025 1024 1023 1022 1021 1020 1019 1019 1018 1018 1017 1017 1016 1016 1015 1014 1013 1013 1013 1012 1012 1011 1011 1010 1010 1009 1007 1006 1005 1003 1003 1002 1000 999 998 996 996 995 993 993 992 992 991 991 989 989 988 988 986 985 985 983 980 977 975 974 973 972 970 969 968 967 967 965 964 963 960 959 958 957 957 956 955 955 955 955 954 954 953 953 952 951 951 951 951 951 951 950 950 949 947 946 944 944 943 942 939 938 937 936 934 934 934 934 934 933 933 933 933 932 932 931 931 931 930 929 929 929 927 927 927 927 927 927 927 927 928 928 928 928 928 927 926 925 924 924 923 921 920 919 918 916 915 914 913 912 911 908 906 904 902 901 898 896 894 892 890 889 888 887 886 884 883 882 881 880 879 878 876 876 873 870 866 864 861 860 860 858 857 855 855 854 854 854 852 851 850 848 848 847 845 845 844 844 843 842 841 841 839 836 833 830 826 820 814 809 807 805 802 798 793 788 784 783 780 776 773 770 769 768 766 766 762 759 759
0 0 0 904 915 926 936 947 956 961 963 963 963 963 959 957 948 936 921 896 0 0 782 782 782 788 801 821 826 826 826 829 0 0 0 0 1145 1145 1153 1153 1153 0 0 0 0 0 0 795 795 803 803 803 803 803 803 803 813 816 818 818 826 832 837 838 852 865 879 895 898 898 898 890 0 0 0 687 687 687 703 719 719 719 0 0 0 0 0 0 0 0 0 0 0 0 0 0 527 527 527 527 527 522 522 522 531 545 576 599 613 630 0 686 712 724 0 0 0 0 0 0 0 0 0 0 0 0 0 0 1588 1593 1594 1595 1599 1605 1608 1611 1613 1616 1616 1617 1618 1620 1620 1623 1625 1627 1630 1631 1632 1633 1633 1634 1636 1638 1641 1642 1643 1645 1647 1648 1650 1651 1652 1652 1653 1654 1655 1655 1656 1657 1657 1658 1658 1659 1659 1659 1660 1660 1661 1661 1661 1661 1661 1662 1662 1663 1663 1664 1664 1664 1665 1666 1668 1668 1668 1660 0 0 0 0 0 0 0 873 859 859 859 874 884 884 884 875 875 870 869 869 869 885 896 900 906 920 940 0 0 1021 1021 1021 984 957 957 950 948 941 909 883 877 873 870 867 867 866 866 867 867 867 875 875 876 876 876 889 0 0 0 0 0 0 0 0 0 0 0 0 0 0 0 0 0 0 0 1546 1543 1539 1529 1515 1500 1492 1491 1489 1487 1481 1481 1481 1485 0 0 0 0 0 0 0 0 0 0 0 0 0 0 0 0 0 0 0 0 0 0 0 1126 1126 1135 1135 1135 1130 1117 1117 1115 1111 1105 1105 1105 1105 1105 1105 1105 1103 1103 1101 1100 1099 1099 1099 1099 1099 1099 1097 1094 1088 1087 1082 1080 1074 1061 1043 1019 979 955 946 945 945 945 944 944 943 936 935 934 933 930 930 930 930 935 937 937 937 939 941 944 948 952 957 976 997 1005 1017 1031 1038 1045 1050 1050 1051 1051 1050 1050 1050 1050 1050 1049 1049 1049 1048 1047 1047 1045 1044 1043 1043 1042 1042 1041 1039 1039 1038 1037 1036 1035 1035 1033 1033 1032 1031 1031 1030 1029 1028 1026 1025 1024 1024 1023 1023 1022 1021 1020 1019 1019 1019 1018 1016 1016 1016 1015 1015 1014 1013 1013 1012 1012 1012 1010 1009 1008 1007 1005 1005 1002 1001 1000 999 998 997 996 995 993 993 993 992 992 991 990 990 989 987 986 985 983 982 977 975 975 973 973 972 971 970 969 969 969 967 964 960 959 958 957 957 957 957 957 957 957 957 957 955 955 955 955 955 954 954 954 953 952 951 950 949 948 948 948 946 944 942 939 939 936 936 935 935 934 934 933 933 933 933 933 933 932 932 931 930 930 930 929 929 929 929 928 928 928 928 929 930 930 930 930 930 928 928 927 926 925 924 923 921 919 918 917 915 914 913 912 910 908 906 904 902 900 898 896 894 893 891 890 888 887 886 885 883 882 881 880 879 879 878 877 874 873 871 867 862 861 860 858 857 855 855 855 855 854 853 851 851 849 849 847 846 845 845 844 843 842 841 841 839 836 833 829 826 820 814 809 807 805 802 798 793 788 784 783 780 776 773 770 769 768 766 766 760 759 759
0 0 0 905 915 925 931 942 951 957 957 962 965 967 969 969 969 955 921 0 0 0 781 781 782 788 801 821 823 823 826 829 0 0 0 0 0 1145 1145 1145 0 0 0 0 0 0 795 795 795 795 795 795 791 791 791 795 808 812 813 816 823 831 837 841 852 865 887 904 917 917 917 0 0 0 0 687 687 687 703 719 719 719 694 650 0 0 0 0 0 0 0 0 0 0 0 0 0 530 530 529 528 522 522 522 531 557 566 577 594 613 0 0 0 0 0 0 0 0 0 0 0 0 0 0 0 0 0 0 1588 1593 1594 1596 1599 1603 1607 1608 1611 1612 1613 1614 1615 1618 1620 1622 1623 1624 1626 1629 1630 1630 1632 1632 1634 1636 1638 1639 1641 1643 1645 1646 1648 1649 1650 1651 1651 1652 1653 1654 1654 1655 1656 1656 1656 1656 1657 1657 1657 1658 1658 1659 1659 1659 1660 1662 1662 1662 1662 1663 1663 1663 1664 1666 1667 1667 1667 1658 0 0 0 0 0 0 0 873 871 871 871 884 893 893 893 885 881 873 873 873 880 894 896 900 906 920 940 0 1016 1016 1016 991 956 947 943 942 942 926 902 887 883 882 875 875 875 875 875 868 868 868 879 885 885 889 894 894 894 0 0 0 1020 1020 0 0 0 0 0 0 0 0 0 0 0 0 0 1528 1526 1526 1526 1513 1500 1492 1489 1488 1480 1472 1465 1463 1463 1461 0 0 0 0 0 0 0 0 0 0 0 0 0 0 0 0 0 0 0 0 0 0 0 0 0 0 1172 1161 1140 1131 1123 1112 1106 1106 1106 1106 1107 1108 1108 1108 1105 1103 1103 1102 1102 1100 1100 1100 1099 1099 1096 1093 1093 1090 1086 1079 1068 1061 1042 1022 996 979 954 944 943 942 941 941 936 935 934 934 933 930 930 930 939 945 956 956 956 956 956 958 973 977 988 1004 1005 1017 1031 1039 1047 1050 1051 1052 1052 1052 1052 1052 1052 1051 1051 1051 1050 1050 1050 1049 1048 1047 1046 1045 1045 1043 1043 1042 1041 1039 1039 1038 1037 1036 1036 1034 1034 1032 1032 1031 1031 1030 1029 1028 1026 1026 1026 1025 1024 1022 1022 1021 1021 1020 1020 1018 1018 1018 1017 1017 1016 1016 1015 1014 1014 1013 1012 1011 1010 1009 1007 1007 1006 1004 1003 1001 1001 999 999 997 996 995 994 994 993 992 992 992 992 989 986 985 983 982 979 976 975 975 973 973 971 971 970 969 969 968 965 961 959 958 957 957 957 957 962 963 963 963 961 961 961 961 961 960 959 957 956 955 955 953 952 952 951 951 950 948 946 944 942 941 940 939 938 937 936 936 935 935 934 934 934 933 933 932 932 932 931 930 930 930 931 931 931 931 931 931 931 931 931 931 930 930 930 930 929 927 926 925 923 922 920 919 917 915 914 912 912 909 907 905 904 902 900 898 896 894 893 891 890 888 887 886 885 883 882 881 880 879 879 879 878 874 873 871 868 863 862 860 860 858 857 856 856 855 855 854 852 851 851 849 848 848 846 845 844 843 842 841 841 839 835 832 829 826 819 814 809 807 804 801 797 793 787 783 781 778 776 774 772 770 768 766 761 760 760 759
0 0 0 907 916 925 931 937 943 950 952 956 965 967 969 969 969 955 0 0 0 0 781 781 782 788 801 821 821 821 821 821 0 0 0 0 0 0 0 0 0 0 0 0 0 795 795 794 793 793 793 788 786 786 786 792 797 804 804 809 820 830 844 853 862 874 887 912 918 918 918 0 0 0 0 687 687 687 703 703 703 685 663 663 663 672 0 0 0 0 0 0 0 0 0 0 0 538 537 536 534 533 533 533 536 558 566 577 594 607 627 657 674 678 0 0 0 0 0 0 0 0 0 0 0 0 0 1570 1588 1593 1594 1596 1599 1600 1602 1606 1607 1610 1611 1612 1613 1616 1619 1620 1621 1623 1625 1626 1628 1629 1630 1632 1632 1633 1635 1637 1638 1640 1642 1644 1645 1646 1648 1649 1650 1650 1651 1652 1652 1653 1653 1653 1654 1654 1654 1655 1656 1656 1656 1656 1657 1657 1658 1659 1661 1662 1662 1662 1662 1662 1664 1666 1666 1666 1661 0 0 0 0 0 0 0 0 873 873 873 881 891 899 899 899 891 881 873 873 873 880 894 896 900 901 908 932 0 997 997 997 971 941 926 924 924 922 913 890 887 882 879 879 879 879 875 875 868 868 868 879 885 895 895 895 895 896 922 0 0 1012 1012 1013 0 0 0 0 0 0 0 0 0 0 0 1512 1521 1521 1521 1520 1511 1500 1491 1489 1485 1478 1469 1464 1455 1453 1450 1448 1450 0 0 0 0 0 0 0 0 0 0 0 0 0 0 0 0 0 0 0 0 0 0 0 0 0 1184 1144 1137 1130 1112 1111 1109 1109 1109 1109 1109 1109 1109 1106 1105 1105 1105 1104 1104 1104 1104 1101 1099 1098 1096 1096 1096 1091 1087 1077 1072 1062 1051 1025 996 977 946 944 942 941 941 936 935 935 935 935 936 937 940 949 968 973 973 975 975 980 1000 1006 1007 1014 1021 1023 1028 1038 1046 1047 1051 1054 1054 1054 1054 1054 1054 1054 1054 1054 1054 1054 1053 1052 1051 1050 1049 1049 1047 1046 1046 1045 1043 1042 1042 1040 1040 1039 1038 1038 1037 1037 1036 1035 1034 1033 1032 1031 1031 1029 1029 1028 1027 1026 1025 1025 1023 1023 1023 1022 1020 1020 1020 1019 1019 1019 1017 1017 1017 1015 1015 1014 1012 1011 1010 1009 1008 1008 1006 1005 1004 1003 1001 1000 999 998 997 995 994 994 993 993 992 992 989 987 986 985 985 984 981 978 978 975 973 972 971 971 969 969 968 965 963 963 961 961 961 962 964 965 965 965 965 964 964 963 963 962 960 960 959 959 958 958 956 955 954 953 952 951 949 948 947 945 942 942 940 939 937 937 936 936 936 936 935 935 935 935 935 935 934 934 933 933 933 933 933 933 933 933 933 933 933 932 932 932 931 930 930 929 929 928 926 923 922 920 919 917 915 914 912 911 909 906 905 903 902 900 898 896 894 893 891 890 888 887 886 885 884 882 881 880 879 879 879 878 874 873 871 868 866 864 861 861 860 858 857 856 856 855 854 853 852 851 849 848 848 846 845 844 842 842 841 840 836 831 829 827 824 819 814 809 806 802 799 793 789 786 779 776 776 776 775 774 770 765 764 760 759 759 759
0 0 0 909 919 925 931 937 943 947 950 953 960 967 969 969 969 0 0 0 0 0 740 778 783 785 791 818 818 818 821 821 0 0 0 0 0 0 0 0 0 0 0 0 793 793 791 791 788 788 788 785 785 785 786 790 790 793 794 794 809 829 850 862 873 881 895 912 918 918 918 0 0 0 0 0 670 665 665 670 670 665 663 663 663 672 705 706 706 706 698 688 684 0 0 0 0 0 549 549 548 548 548 548 548 558 566 577 594 607 620 642 651 656 658 0 0 0 0 0 0 0 0 0 0 0 1546 1570 1583 1590 1592 1596 1596 1597 1598 1602 1605 1606 1609 1610 1612 1614 1617 1618 1621 1622 1624 1625 1626 1627 1628 1629 1630 1631 1632 1634 1635 1638 1640 1642 1643 1644 1645 1646 1647 1648 1648 1650 1650 1651 1651 1651 1652 1652 1653 1653 1653 1654 1654 1655 1656 1656 1656 1659 1661 1661 1661 1660 1660 1660 1664 1664 1664 1661 1649 0 0 0 0 0 0 0 0 875 875 875 881 894 899 899 899 891 881 873 873 873 880 886 886 893 893 895 0 0 989 989 989 958 930 913 904 903 897 885 882 882 880 879 879 879 879 877 877 868 857 857 857 885 895 895 896 896 902 922 0 0 993 995 999 0 0 0 0 0 0 0 0 0 0 0 1512 1514 1514 1514 1510 1500 1495 1490 1486 1477 1469 1468 1463 1452 1452 1450 1448 1447 1447 1447 1461 1461 1462 1468 1480 1507 1531 1536 0 0 0 0 0 0 0 0 0 0 0 0 0 0 0 0 0 0 1134 1126 1119 1111 1111 1111 1112 1112 1112 1109 1107 1107 1106 1106 1106 1106 1106 1106 1104 1101 1099 1099 1097 1097 1095 1090 1088 1083 1082 1073 1048 1021 989 973 949 942 942 942 945 945 945 941 941 941 946 960 977 988 988 988 988 988 1003 1019 1022 1022 1031 1035 1038 1041 1042 1050 1053 1055 1057 1057 1057 1057 1057 1057 1057 1057 1057 1056 1056 1055 1054 1053 1053 1052 1051 1049 1048 1048 1046 1045 1044 1043 1043 1042 1041 1041 1040 1039 1037 1037 1036 1036 1035 1034 1033 1033 1032 1030 1030 1030 1028 1028 1026 1026 1025 1024 1024 1023 1022 1022 1021 1021 1021 1020 1019 1019 1018 1017 1017 1014 1013 1012 1012 1010 1010 1008 1007 1005 1004 1003 1003 1002 999 998 997 996 994 994 993 992 992 991 987 987 986 986 985 985 985 982 981 976 972 972 972 972 970 970 970 970 968 968 968 965 965 965 965 966 967 968 968 968 967 965 963 963 963 962 962 962 961 959 958 957 956 954 953 951 950 948 947 945 945 943 942 940 940 939 939 939 937 936 936 935 935 935 936 936 936 936 935 935 935 935 935 935 935 935 935 935 935 935 934 933 932 931 930 930 928 927 925 923 921 919 917 915 914 912 911 909 906 905 903 902 900 898 896 894 892 890 890 888 887 887 885 884 882 881 880 879 879 879 878 874 872 870 868 866 864 862 862 860 860 857 856 856 855 854 853 852 851 849 848 848 846 845 843 842 841 840 838 834 830 829 827 824 819 814 809 805 801 795 789 785 781 774 774 774 774 774 774 770 764 763 760 759 759 759
0 0 0 916 928 933 935 937 943 946 950 951 955 961 962 962 962 0 0 0 0 0 0 778 783 785 791 818 818 818 821 0 0 0 0 0 0 0 0 0 0 0 0 790 788 788 790 791 788 788 783 783 783 784 786 789 789 791 793 794 809 825 850 863 877 884 895 912 917 917 0 0 0 0 0 0 0 0 626 646 663 663 663 663 663 672 705 706 706 706 698 688 684 662 0 0 0 0 0 0 0 563 556 556 556 584 588 596 598 607 619 631 638 644 658 0 0 0 0 0 0 0 0 0 0 0 1552 1570 1580 1584 1589 1590 1593 1594 1597 1601 1604 1605 1606 1608 1610 1614 1616 1617 1619 1622 1623 1624 1624 1625 1625 1626 1627 1628 1630 1633 1635 1636 1637 1638 1640 1641 1642 1643 1645 1645 1646 1647 1648 1649 1649 1649 1650 1650 1650 1651 1651 1652 1652 1652 1653 1653 1656 1657 1659 1659 1659 1659 1659 1659 1660 1660 1660 1658 0 0 0 0 0 0 0 0 900 875 875 875 881 894 899 899 899 891 878 864 864 864 865 873 873 873 877 877 0 0 0 977 977 941 914 899 888 879 869 866 866 866 875 875 875 884 892 892 892 859 852 852 852 863 879 891 892 896 902 922 0 0 966 973 999 0 0 0 0 0 0 0 0 0 0 0 1512 1514 1514 1514 1493 1492 1487 1482 1479 1473 1467 1462 1457 1452 1450 1450 1448 1447 1447 1447 1459 1459 1459 1459 1459 1459 1478 1496 1511 0 0 0 0 0 0 0 0 0 0 0 0 0 0 0 0 0 0 0 0 1112 1112 1112 1115 1115 1115 1110 1109 1109 1108 1108 1107 1107 1107 1106 1106 1104 1103 1102 1101 1099 1097 1094 1092 1089 1088 1085 1066 1043 1021 990 971 951 951 951 951 954 954 956 958 960 960 975 989 1005 1023 1027 1029 1032 1034 1035 1035 1036 1038 1046 1046 1047 1048 1053 1057 1059 1061 1061 1061 1061 1061 1061 1060 1060 1059 1059 1058 1058 1056 1056 1055 1055 1053 1052 1051 1049 1048 1048 1046 1045 1045 1044 1044 1043 1042 1041 1039 1039 1039 1038 1037 1037 1036 1034 1033 1032 1032 1031 1030 1029 1029 1028 1027 1027 1026 1025 1024 1024 1024 1023 1022 1022 1022 1021 1020 1019 1018 1017 1015 1014 1013 1012 1011 1009 1009 1007 1005 1005 1004 1004 1001 1000 999 998 998 996 993 993 993 991 990 989 989 988 987 986 986 986 986 986 979 973 973 973 976 976 977 978 976 976 975 968 968 968 968 970 970 970 969 969 968 968 967 966 965 965 964 963 962 962 962 961 961 957 955 952 952 951 949 946 946 946 945 945 944 943 942 940 938 938 938 937 937 937 938 938 938 938 938 938 938 938 937 937 937 937 937 937 937 935 935 933 933 931 930 930 928 927 925 923 921 920 917 916 915 913 911 909 906 905 903 901 900 898 896 894 892 890 890 888 887 887 885 884 882 881 880 879 878 878 876 873 870 869 868 866 864 862 862 861 860 857 856 856 855 855 853 852 851 849 848 848 846 845 843 841 839 837 836 833 829 827 823 818 818 813 809 805 799 793 786 779 771 771 771 772 774 774 774 766 764 759 759 758 758 758
0 0 0 917 929 941 942 942 943 946 949 949 951 951 951 951 941 0 0 0 0 0 0 0 0 0 0 0 0 0 0 0 0 0 0 0 0 0 0 0 0 0 0 789 788 788 789 788 788 786 782 782 782 783 785 789 789 791 793 794 809 825 850 863 877 884 895 901 901 0 0 0 0 0 0 0 0 0 0 0 670 688 688 688 683 683 683 687 688 688 688 688 684 666 639 0 0 0 0 0 0 0 0 0 0 585 588 617 619 619 619 619 623 630 0 0 0 0 0 0 0 0 0 0 0 1544 1553 1567 1571 1577 1582 1584 1588 1589 1593 1596 1601 1602 1603 1605 1609 1611 1614 1616 1619 1619 1621 1621 1621 1623 1624 1625 1626 1626 1627 1630 1632 1633 1634 1636 1638 1639 1639 1640 1641 1642 1643 1644 1645 1646 1647 1647 1647 1647 1647 1647 1647 1648 1650 1651 1651 1652 1653 1654 1656 1657 1657 1658 1658 1658 1658 1658 0 0 0 0 0 0 0 0 0 0 900 875 875 875 877 887 887 887 887 884 866 847 845 845 845 853 853 858 859 859 0 0 952 952 952 921 901 882 870 853 853 850 850 850 852 861 867 868 892 892 892 859 847 847 847 859 865 874 883 892 901 0 0 0 934 973 0 0 0 0 0 0 0 0 0 0 0 0 0 1524 1520 1514 1493 1492 1487 1473 1472 1468 1461 1460 1455 1452 1452 1451 1449 1447 1447 1447 1457 1457 1457 1445 1441 1441 1441 1454 1461 0 0 0 0 0 0 0 0 0 0 0 0 0 0 0 0 0 0 0 0 0 1119 1119 1119 1119 1119 1117 1111 1111 1111 1115 1115 1115 1112 1109 1108 1108 1108 1107 1106 1106 1102 1099 1096 1092 1090 1086 1081 1061 1040 1022 999 978 954 954 954 957 958 968 975 980 1003 1009 1010 1026 1040 1042 1042 1042 1045 1045 1046 1047 1051 1053 1054 1054 1054 1057 1061 1062 1062 1062 1063 1063 1063 1064 1063 1063 1062 1062 1061 1060 1059 1058 1057 1057 1055 1053 1052 1051 1050 1049 1049 1048 1047 1046 1045 1044 1044 1043 1042 1041 1041 1040 1040 1039 1037 1037 1035 1034 1033 1032 1032 1031 1031 1029 1028 1028 1028 1027 1027 1026 1025 1025 1024 1023 1022 1022 1022 1020 1019 1017 1016 1016 1015 1014 1013 1012 1010 1008 1007 1006 1006 1005 1004 1002 1001 1000 1000 999 997 997 997 996 994 992 992 991 988 988 988 0 0 0 0 0 0 980 980 977 979 978 977 977 976 975 975 975 975 975 974 972 970 970 970 970 970 968 967 966 966 966 966 964 964 963 963 960 957 955 955 954 952 951 951 949 948 948 947 946 945 944 942 941 941 940 940 940 941 941 941 941 941 941 940 940 940 940 940 940 939 939 938 938 937 935 933 932 931 930 929 927 925 923 922 921 919 918 915 914 911 909 906 905 903 901 899 897 895 894 892 890 890 888 887 887 886 884 882 881 880 878 877 875 872 871 869 868 867 866 864 862 862 861 860 857 856 856 855 855 853 852 851 849 848 847 845 845 843 841 837 835 833 829 827 823 821 817 813 811 809 804 797 791 779 764 764 764 767 769 769 769 763 759 757 757 756 755 751 751
0 0 0 917 929 941 942 942 943 945 945 946 947 947 947 944 0 0 0 0 0 0 0 0 0 0 0 0 0 0 0 0 0 0 0 0 0 0 0 0 0 0 786 786 786 783 783 782 782 782 781 781 782 783 783 788 788 789 790 794 809 825 838 863 877 877 877 0 0 0 0 0 0 0 0 0 0 0 0 0 694 694 694 692 671 668 668 668 672 675 676 676 676 668 668 0 0 0 0 0 0 0 0 0 0 0 0 618 619 619 620 620 620 627 0 0 0 0 0 0 0 0 0 0 1541 1545 1553 1564 1571 1575 1578 1580 1582 1585 1587 1592 1595 1597 1600 1602 1606 1610 1612 1615 1618 1618 1618 1619 1619 1621 1622 1623 1623 1624 1625 1627 1629 1631 1632 1633 1634 1635 1636 1638 1638 1639 1640 1641 1642 1642 1643 1644 1644 1644 1644 1644 1644 1646 1647 1648 1649 1649 1651 1651 1653 1654 1655 1656 1657 1657 1657 1657 0 0 0 0 0 0 0 0 0 0 896 873 873 863 859 854 854 854 854 854 851 839 839 839 843 843 843 843 843 843 0 909 929 929 929 899 878 868 859 847 838 835 835 836 836 840 847 864 892 892 892 859 847 847 847 858 858 858 857 857 0 0 0 0 0 0 0 0 0 0 0 0 0 0 0 0 0 0 0 0 0 0 0 1492 1487 1473 1472 1468 1461 1460 1455 1454 1453 1452 1450 1449 1449 1449 1457 1457 1457 1438 1431 1431 1431 1433 1436 1440 1448 0 0 0 0 0 0 0 0 0 0 0 0 0 0 0 0 0 0 0 0 0 1120 1129 1129 1129 1125 1119 1118 1117 1117 1116 1114 1111 1110 1109 1108 1108 1107 1106 1104 1103 1101 1096 1094 1089 1087 1075 1060 1039 1024 992 984 982 982 0 0 0 1016 1021 1023 1031 1031 1036 1044 1045 1046 1046 1053 1062 1062 1062 1059 1059 1059 1061 1061 1063 1064 1065 1065 1065 1066 1066 1066 1066 1065 1065 1064 1064 1064 1063 1062 1060 1059 1058 1057 1056 1054 1053 1052 1052 1051 1049 1049 1047 1047 1047 1045 1045 1045 1044 1043 1043 1042 1041 1039 1039 1038 1037 1036 1034 1034 1033 1032 1031 1031 1030 1029 1029 1029 1028 1027 1027 1025 1025 1023 1023 1022 1021 1019 1018 1017 1017 1016 1016 1016 1013 1011 1009 1008 1007 1007 1007 1005 1002 1002 1001 1000 1001 1001 1001 1001 1001 999 997 997 997 997 998 0 0 0 0 0 0 0 0 990 985 985 985 985 985 981 981 981 980 980 979 975 975 975 974 973 973 972 969 968 967 967 967 968 969 969 967 965 964 962 962 960 956 956 956 955 955 955 954 954 952 950 948 946 946 943 943 943 943 943 943 943 943 943 943 943 942 942 942 942 942 942 941 941 940 938 936 935 933 932 931 929 928 926 924 922 921 920 918 915 914 911 909 906 905 903 901 899 897 895 894 892 890 890 888 887 887 886 884 882 881 879 878 876 873 871 870 868 867 865 864 863 862 862 861 860 857 856 855 855 854 853 852 851 849 847 846 845 845 841 838 835 831 827 825 823 821 817 814 809 808 806 802 795 786 770 761 761 761 763 763 763 758 753 751 751 751 750 748 739 739
0 0 0 916 928 941 941 941 941 942 943 944 945 945 945 935 0 0 0 0 0 0 0 0 0 940 897 897 854 0 0 0 0 0 0 0 0 0 0 0 0 0 785 785 783 783 781 777 777 777 778 779 781 782 783 783 788 789 794 807 822 825 837 842 842 842 0 0 0 0 0 0 0 0 0 0 0 0 0 0 694 694 694 692 671 667 667 667 667 674 676 676 676 680 681 699 0 0 0 0 0 0 0 0 0 0 0 640 628 626 619 619 619 627 0 0 0 0 0 0 0 0 0 0 1541 1545 1552 1564 1569 1574 1578 1578 1578 1581 1583 1587 1591 1594 1597 1600 1603 1606 1609 1612 1614 1615 1615 1615 1617 1619 1620 1620 1621 1621 1623 1625 1626 1628 1629 1630 1632 1632 1634 1635 1636 1637 1638 1638 1639 1640 1641 1641 1641 1641 1641 1641 1641 1642 1644 1645 1647 1647 1648 1650 1651 1651 1652 1653 1653 1653 1653 1652 0 0 0 0 0 0 0 0 0 0 0 863 849 848 846 846 841 838 834 832 826 826 826 834 838 843 843 843 843 843 0 909 909 909 899 878 868 865 853 845 833 832 826 826 830 832 833 848 870 870 870 859 839 839 839 858 858 858 833 810 810 810 823 856 0 0 0 0 0 0 0 0 0 0 0 0 0 0 0 0 0 0 0 0 0 0 1472 1468 1461 1460 1455 1455 1453 1453 1453 1453 1453 1453 1453 1453 1443 1430 1430 1430 1431 1433 1433 1433 1429 1425 1425 1425 0 0 0 0 0 0 0 0 0 0 0 0 0 0 0 0 0 0 0 0 0 0 1144 1128 1125 1121 1120 1116 1115 1114 1111 1110 1109 1109 1108 1107 1106 1106 1105 1101 1098 1097 1093 1089 1083 1070 1058 1034 1022 1022 0 1032 1046 1046 1046 1046 1045 1045 1045 1049 1052 1053 1054 1060 1065 1066 1066 1066 1064 1064 1064 1066 1068 1068 1068 1068 1068 1068 1070 1071 1071 1071 1069 1068 1067 1067 1066 1065 1064 1063 1062 1061 1060 1059 1057 1056 1055 1053 1052 1051 1051 1050 1049 1049 1048 1047 1047 1046 1045 1044 1043 1042 1041 1040 1040 1039 1038 1037 1036 1036 1035 1034 1033 1032 1031 1031 1031 1031 1030 1027 1026 1025 1024 1023 1022 1021 1020 1018 1017 1017 1017 1017 1017 1017 1014 1012 1010 1009 1008 1007 1005 1005 1005 1004 1004 1004 1004 1003 1003 1003 1003 1003 1003 1019 0 0 0 0 0 0 0 0 0 0 0 0 0 0 0 997 996 992 992 990 990 989 986 984 981 979 979 976 972 971 971 971 971 972 973 972 971 971 969 969 969 967 962 962 960 959 959 958 958 957 957 956 954 952 951 949 947 947 947 947 947 946 946 946 946 945 945 945 944 944 943 943 943 942 942 940 939 938 936 935 933 931 929 928 927 924 923 921 920 918 916 914 913 910 907 905 903 901 899 898 895 894 892 890 890 888 887 886 886 884 882 880 879 878 876 873 871 869 867 866 864 863 862 862 861 861 860 857 856 855 855 854 853 852 850 847 844 844 844 843 840 836 832 828 825 821 818 816 813 810 807 806 804 800 791 781 768 760 760 758 758 758 754 748 738 735 728 728 727 724 723 723
0 0 0 908 927 938 939 939 939 941 943 944 944 944 944 0 0 0 0 0 0 0 0 0 942 942 909 897 871 871 0 0 0 0 0 0 0 0 0 0 0 797 784 784 780 778 774 769 769 769 770 776 777 777 779 783 788 789 800 812 822 824 824 824 806 0 0 0 0 0 0 0 0 0 589 589 589 0 0 0 0 694 694 692 668 666 666 666 666 669 675 675 675 679 679 699 726 759 774 774 0 0 0 0 0 0 0 0 644 628 624 624 624 627 0 0 0 0 0 0 0 0 0 0 1541 1545 1552 1562 1568 1572 1574 1574 1575 1577 1581 1583 1587 1589 1592 1595 1598 1603 1607 1608 1611 1611 1612 1612 1614 1616 1618 1618 1619 1619 1621 1622 1624 1625 1626 1627 1628 1630 1632 1633 1634 1635 1635 1636 1636 1637 1638 1638 1638 1638 1638 1638 1638 1639 1642 1643 1643 1645 1646 1648 1648 1648 1649 1649 1649 1649 1649 1646 0 0 0 0 0 0 0 0 0 0 0 840 824 807 796 796 796 816 819 819 819 819 819 826 836 838 838 840 843 0 868 909 909 909 899 875 866 863 852 838 823 818 818 818 818 820 824 832 855 859 859 859 833 833 833 857 857 857 824 810 808 808 810 841 0 0 0 0 0 0 0 0 0 0 0 0 0 0 0 0 0 0 0 0 0 0 0 0 0 0 1470 1470 1470 1470 1470 1469 1465 1453 1451 1442 1431 1430 1430 1430 1431 1433 1433 1433 1429 1425 1421 1416 1416 1416 1424 1432 0 0 0 0 0 0 0 0 0 0 0 0 0 0 0 0 0 0 0 1142 1126 1123 1122 1120 1115 1114 1113 1113 1113 1112 1112 1110 1109 1109 1108 1108 1104 1101 1098 1097 1095 1091 1084 1074 1044 1044 1044 1058 1059 1061 1062 1064 1065 1066 1065 1065 1065 1065 1065 1066 1067 1069 1070 1070 1070 1070 1070 1070 1071 1071 1071 1071 1071 1072 1074 1074 1074 1074 1072 1070 1070 1069 1068 1067 1067 1065 1065 1063 1062 1061 1060 1058 1056 1056 1054 1054 1053 1052 1051 1051 1050 1049 1048 1047 1047 1047 1045 1044 1043 1042 1041 1040 1040 1038 1038 1037 1037 1037 1036 1034 1033 1033 1033 1032 1031 1029 1026 1026 1024 1023 1023 1023 1021 1020 1018 1017 1017 1018 1018 1017 1015 1012 1010 1010 1009 1007 1007 1007 1007 1007 1008 1008 1009 1011 1013 1013 0 0 0 0 0 0 0 0 0 0 0 0 0 0 0 0 0 0 0 0 0 0 0 0 0 0 1006 1004 994 990 987 987 985 983 981 977 977 977 978 978 978 972 972 972 972 972 970 968 966 964 962 961 960 959 959 959 959 958 956 952 950 950 950 950 950 949 948 948 947 947 947 945 945 945 945 944 943 943 942 940 939 938 937 935 933 931 929 929 929 927 925 923 921 918 916 915 913 912 909 905 903 901 899 898 896 895 893 891 890 887 885 885 885 884 882 880 878 877 875 873 871 869 867 865 864 862 861 860 860 860 859 856 854 853 853 852 851 848 846 843 841 840 839 839 838 834 830 825 822 819 816 813 810 807 804 803 801 798 790 780 768 760 756 756 755 754 746 735 723 721 718 716 713 711 711 711
