1010 1010 1021 1025 1038 1053 1062 1070 1077 1084 1092 1096 1103 1107 1113 1117 1121 1125 1125 1125 1111 0 0 0 0 0 0 0 0 0 1210 1245 1252 1256 1257 1258 1260 1262 1264 1267 1268 1270 1272 1272 1272 1269 1265 1254 1240 1227 1210 0 0 1160 1160 1215 1246 1249 1249 1249 1228 0 0 0 0 0 0 0 0 0 0 0 0 863 842 838 836 836 836 836 835 834 834 834 835 836 836 837 837 837 837 838 838 838 838 838 838 838 838 838 838 838 838 838 838 838 837 837 837 836 836 836 836 835 835 835 834 834 833 833 833 832 831 829 828 827 826 824 823 820 816 811 804 801 799 796 793 792 790 788 787 785 782 779 777 776 775 775 773 772 771 771 770 770 770 771 772 772 773 773 774 774 774 776 778 779 782 785 793 793 793 0 0 0 0 0 0 0 0 0 0 0 0 0 0 0 0 0 0 0 0 0 0 0 0 0 0 0 0 0 0 0 0 0 783 783 783 779 779 779 779 777 777 777 778 780 781 781 781 0 0 0 0 0 0 0 0 0 0 0 0 0 0 0 0 0 0 0 0 0 0 0 0 0 0 0 0 0 0 0 0 0 0 0 0 0 0 0 0 0 0 0 0 0 0 0 0 0 0 0 0 0 0 0 749 752 760 760 764 769 769 0 0 0 0 0 0 0 0 0 0 0 0 0 0 0 0 0 0 0 0 0 0 0 0 0 0 0 0 0 0 0 0 0 0 0 0 0 0 0 0 0 0 0 0 0 0 0 0 0 0 0 0 0 0 0 0 0 0 0 0 0 0 0 0 0 0 0 0 0 0 0 0 0 0 0 720 725 730 731 732 735 744 769 0 0 0 0 0 0 0 0 0 0 1068 1069 1088 1111 1121 1131 1137 1152 1165 1169 1169 1171 1172 1172 1179 1186 1187 1187 1187 1187 1189 1191 1195 1202 1206 1208 1210 1211 1213 1215 1217 1220 1223 1226 1228 1230 1231 1234 1237 1241 1245 1248 1252 1257 1257 1260 1262 1263 1266 1266 1267 1269 1269 1269 1269 1269 1271 1274 1278 1279 1279 1279 1278 1278 1278 1277 1277 1276 1275 1274 1274 1274 1274 1273 1272 1272 1272 1274 1277 1277 1277 1277 1277 1280 1282 1284 1284 1286 1288 1290 1290 1290 1293 1294 1297 1298 1298 1299 1300 1309 1312 1314 1317 1324 1335 1341 1341 1341 1341 1336 1334 1323 1316 1311 1310 1309 1309 1309 1313 1313 1313 1309 1309 1309 1320 1335 1342 1348 1348 1348 1346 1344 1344 1344 1346 1349 1352 1355 1355 1356 1355 1354 1352 1351 1350 1349 1348 1344 1342 1341 1336 1332 1329 1321 1314 1313 1313 1312 1312 1305 1292 1283 1282 1282 1283 1283 1307 1307 1307 1296 1296 1296 1301 1301 1303 1303 1303 1302 1287 1285 1282 1282 1276 1274 1264 1257 1257 1257 1257 1257 1244 1233 1214 1198 1182 1182 1172 1172 1172 1143 1141 1131 1119 1101 1098 1072 1072 1072 1072 1072 1062 1059 1059 1059 0 0 0 0 1045 1054 1064 1068 1070 1083 1083 1083 1059 1053 1047 1042 1041 1037 1031 1026 1009 1005 992 983 977 957 944 944 942 911 878 856 850 842 801 776 759 759 759 763 783 783 783 748 721 721 697 0 0 0 625 625
1009 1009 1022 1025 1038 1053 1062 1068 1074 1081 1091 1096 1102 1107 1112 1117 1119 1119 1119 1119 1105 0 0 0 0 0 0 0 0 1191 1199 1234 1251 1254 1256 1258 1260 1262 1264 1266 1268 1269 1271 1271 1271 1269 1267 1264 1259 1253 1247 0 0 1215 1215 1216 1257 1257 1257 1234 1234 1234 0 0 0 0 0 0 0 0 0 0 0 878 844 839 836 836 836 835 835 834 834 834 835 835 835 836 836 836 837 837 837 838 838 837 837 837 837 837 837 838 838 837 837 837 837 836 836 836 836 835 835 835 835 834 833 833 832 832 832 830 830 828 827 825 823 819 817 814 812 807 802 799 795 793 791 789 787 786 784 782 780 778 775 774 773 772 771 770 770 769 769 769 769 770 771 771 771 772 773 774 774 776 777 778 780 784 789 793 793 0 0 0 0 0 0 0 0 0 0 0 0 0 0 0 0 0 0 0 0 0 0 0 0 0 0 0 0 0 0 0 0 779 782 782 782 779 777 776 776 776 776 777 777 776 778 778 775 775 0 0 0 0 0 0 0 0 0 0 0 0 0 0 0 0 0 0 0 0 0 0 0 0 0 0 0 0 0 0 0 0 0 0 0 0 0 0 0 0 0 0 0 0 0 0 0 0 0 0 0 0 0 0 749 750 761 761 764 764 764 0 0 0 0 0 0 0 0 0 0 0 0 0 0 0 0 0 0 0 0 0 0 0 0 0 0 0 0 0 0 0 0 0 0 0 0 0 0 0 0 0 0 0 0 0 0 0 0 0 0 0 0 0 0 0 0 0 0 0 0 0 0 0 0 0 0 0 0 0 0 0 0 0 0 727 729 733 733 734 734 736 748 814 0 0 0 0 0 0 0 0 0 1095 1097 1097 1116 1127 1130 1136 1143 1153 1167 1173 1173 1174 1175 1175 1180 1185 1188 1189 1189 1190 1192 1193 1197 1203 1209 1211 1211 1212 1215 1217 1218 1220 1223 1226 1229 1231 1233 1236 1240 1244 1247 1249 1254 1257 1258 1260 1263 1265 1267 1267 1268 1269 1270 1271 1271 1271 1272 1275 1280 1280 1280 1280 1280 1280 1279 1279 1277 1276 1275 1275 1275 1274 1274 1274 1274 1274 1275 1277 1281 1281 1281 1280 1280 1280 1282 1284 1286 1288 1290 1291 1291 1292 1293 1294 1297 1298 1298 1299 1300 1304 1305 1306 1306 1316 1323 1334 1341 1341 1341 1340 1339 1334 1328 1311 1311 1310 1310 1312 1312 1312 1312 1304 1297 1297 1297 1306 1321 1335 1335 1335 1336 1336 1339 1343 1346 1348 1350 1356 1360 1360 1360 1356 1352 1348 1342 1342 1340 1339 1337 1337 1336 1332 1329 1323 1322 1322 1323 1324 1324 1324 1307 1304 1304 1304 1304 1304 1317 1318 1318 1318 1308 1307 1307 1307 1307 1307 1305 1303 1295 1290 1284 1283 1279 1276 1271 1264 1263 1261 1260 1257 1244 1233 1223 1217 1214 1214 1209 1199 1199 1173 1150 1131 1119 1101 1098 1072 1072 1072 1072 1072 1054 1026 1020 1019 0 0 0 0 1001 1013 1023 1023 1063 1063 1063 1051 1045 1041 1040 1040 1038 1036 1032 1026 1009 1005 992 983 978 960 952 949 944 911 878 856 854 852 850 790 765 765 765 773 783 783 783 748 720 695 670 0 0 0 622 622
1009 1009 1022 1034 1038 1053 1061 1066 1074 1081 1088 1092 1099 1105 1111 1115 1118 1118 1118 1117 1104 0 0 0 0 0 0 0 0 0 1199 1234 1245 1251 1254 1256 1260 1261 1263 1265 1267 1269 1271 1271 1271 1269 1267 1265 1262 1258 1257 1243 1215 1215 1215 1216 1257 1257 1257 1229 1229 1229 0 0 0 0 0 0 0 0 0 0 0 0 0 841 836 836 835 834 833 833 834 834 835 835 835 835 836 836 836 836 836 836 837 836 836 836 837 836 837 837 837 836 836 836 835 835 835 835 835 835 834 834 834 834 833 832 832 831 830 830 828 827 826 823 818 812 810 806 803 801 798 795 793 791 788 786 784 783 781 779 777 774 773 772 771 770 769 768 768 768 768 768 769 769 770 770 771 772 773 774 774 775 777 778 779 783 789 791 794 796 0 0 0 0 0 0 0 0 0 0 0 0 0 0 0 0 0 0 0 0 0 0 0 0 0 782 782 781 781 779 779 779 779 779 778 777 776 774 774 774 774 774 775 775 775 775 775 775 774 0 0 0 0 0 0 0 0 0 0 0 0 0 0 0 0 0 0 0 0 0 0 0 0 0 0 0 0 0 0 0 0 0 0 0 0 0 0 0 0 0 0 0 0 0 0 0 0 0 0 0 0 0 0 0 0 0 0 0 0 0 0 0 0 0 0 0 0 0 0 0 0 0 0 0 0 0 0 0 0 0 0 0 0 0 0 0 0 0 0 0 0 0 0 0 0 0 0 0 0 0 0 0 0 0 0 0 0 0 0 0 0 0 0 0 0 0 0 0 0 0 0 0 0 0 0 0 0 0 722 722 726 726 726 727 733 733 734 734 0 0 0 0 0 0 0 0 0 0 0 0 0 1109 1109 1122 1129 1137 1139 1142 1143 1153 1167 1177 1177 1178 1178 1179 1181 1184 1188 1191 1192 1194 1196 1197 1201 1207 1211 1213 1214 1215 1217 1220 1221 1221 1225 1229 1231 1232 1235 1239 1242 1245 1248 1250 1255 1257 1258 1261 1263 1266 1268 1269 1269 1270 1271 1273 1274 1274 1275 1278 1280 1280 1281 1281 1281 1281 1280 1280 1277 1276 1276 1276 1276 1277 1277 1277 1278 1278 1280 1281 1284 1284 1284 1283 1283 1283 1285 1286 1288 1290 1291 1292 1294 1294 1295 1297 1301 1301 1301 1303 1303 1304 1305 1305 1305 1305 1312 1318 1324 1336 1339 1339 1339 1335 1329 1325 1325 1325 1324 1324 1315 1314 1312 1304 1295 1295 1295 1301 1302 1303 1303 1311 1314 1318 1327 1338 1342 1345 1350 1356 1360 1360 1360 1356 1352 1347 1342 1340 1337 1337 1337 1336 1336 1332 1329 1323 1322 1322 1323 1324 1324 1324 1322 1319 1317 1317 1317 1324 1331 1333 1333 1333 1321 1312 1312 1312 1313 1313 1313 1312 1308 1308 1303 1296 1294 1284 1275 1269 1266 1266 1263 1260 1248 1234 1229 1226 1222 1219 1219 1217 1202 1188 1165 1144 1136 1132 1129 1108 1097 1093 1086 1074 1054 1026 1014 994 983 977 977 977 983 1000 1019 1020 1026 1026 1026 1021 1021 1021 1033 1036 1036 1036 1032 1026 1008 994 987 981 977 973 959 949 944 911 878 856 854 852 850 826 781 776 776 776 776 776 0 0 0 0 0 0 0 571 564 564
1009 1009 1027 1040 1043 1050 1059 1066 1074 1079 1083 1088 1095 1103 1110 1115 1117 1117 1117 1116 1103 0 0 0 0 0 0 0 0 0 1199 1234 1245 1248 1252 1255 1258 1261 1262 1265 1266 1269 1270 1270 1270 1270 1268 1268 1267 1262 1258 1243 1215 1215 1215 1215 1258 1258 1258 1226 1226 0 0 0 0 0 0 0 0 0 0 0 0 0 0 845 836 836 835 834 833 833 834 834 834 834 834 835 835 835 835 835 835 835 836 835 835 835 835 835 836 836 836 836 835 835 834 834 834 834 833 833 833 833 833 833 832 832 831 830 830 828 827 826 823 819 813 810 805 802 797 795 792 789 787 786 783 782 781 779 778 777 774 772 771 770 770 769 768 767 767 767 767 767 768 768 769 770 771 772 773 774 775 775 775 777 779 779 783 789 792 796 0 0 0 0 0 0 0 0 0 0 0 0 0 0 0 0 0 0 0 0 0 0 0 0 0 790 785 782 781 777 776 776 776 776 776 776 775 774 771 771 771 772 774 775 775 775 775 775 774 0 0 0 0 0 0 0 0 0 0 0 0 0 0 0 0 0 0 0 0 0 0 0 0 0 0 0 0 0 0 0 0 0 0 0 0 0 0 0 0 0 0 0 0 0 0 0 0 0 0 0 0 0 0 0 0 0 0 0 0 0 0 0 0 0 0 0 0 0 0 0 0 0 0 0 0 0 0 0 0 0 0 0 0 0 0 0 0 0 0 0 0 0 0 0 0 0 0 0 0 0 0 0 0 0 0 0 0 0 0 0 0 0 0 0 0 0 0 0 0 0 0 0 0 0 0 0 0 0 727 727 727 728 730 733 735 736 737 744 0 0 0 0 0 0 0 0 0 0 0 0 0 0 1127 1132 1137 1141 1142 1142 1144 1153 1167 1179 1179 1179 1180 1180 1182 1185 1189 1192 1195 1197 1200 1201 1206 1210 1214 1215 1216 1217 1220 1222 1224 1225 1228 1231 1233 1234 1237 1240 1244 1246 1249 1252 1255 1257 1258 1261 1263 1266 1268 1270 1270 1271 1272 1274 1276 1277 1278 1278 1280 1280 1281 1281 1281 1281 1281 1280 1280 1279 1278 1278 1278 1279 1279 1280 1280 1281 1283 1285 1285 1286 1286 1286 1287 1287 1287 1288 1290 1291 1292 1293 1294 1295 1297 1300 1304 1307 1308 1308 1308 1306 1306 1305 1305 1305 1306 1306 1310 1319 1331 1335 1339 1339 1339 1339 1339 1338 1338 1338 1331 1323 1312 1304 1295 1295 1294 1294 1294 1280 1280 1280 1300 1306 1319 1331 1337 1338 1338 1346 1360 1360 1360 1356 1351 1343 1340 1338 1337 1337 1337 1336 1336 1330 1323 1323 1322 1322 1323 1324 1324 1324 1322 1319 1317 1317 1317 1325 1331 1333 1333 1333 1325 1319 1317 1316 1316 1315 1315 1313 1308 1308 1303 1299 1295 1285 1276 1270 1268 1267 1263 1260 1248 1234 1233 1226 1223 1223 1223 1221 1206 1189 1179 1162 1152 1148 1144 1143 1131 1123 1105 1074 1054 1026 1014 994 983 977 976 976 976 996 1008 1011 1011 1008 1003 992 992 992 1008 1026 1032 1032 1032 1002 996 989 987 977 976 973 959 949 918 898 877 854 852 851 842 826 784 782 779 776 776 754 0 0 0 0 0 0 0 571 548 548
1008 1008 1027 1040 1043 1050 1059 1066 1071 1076 1082 1088 1094 1102 1106 1112 1114 1114 1114 1113 1103 1079 0 0 0 0 0 0 0 0 1231 1234 1245 1247 1250 1255 1258 1260 1262 1264 1266 1268 1270 1270 1270 1270 1268 1268 1268 1267 1262 1243 1201 1201 1201 1212 1242 1242 1242 1226 1226 0 0 0 0 0 0 0 0 0 0 0 0 0 0 0 842 836 835 834 834 833 834 834 833 834 834 834 834 834 834 834 834 835 835 835 835 835 835 835 835 835 835 834 834 834 834 833 833 833 833 833 832 832 832 831 831 831 830 829 828 827 826 825 822 817 811 807 801 797 795 793 789 787 784 782 779 779 778 777 776 774 773 771 771 769 769 768 767 767 766 766 766 767 767 768 769 770 771 772 773 774 774 774 774 774 774 777 783 786 789 791 791 0 0 0 0 0 0 0 0 0 0 0 0 0 0 0 0 0 0 0 0 0 0 0 790 790 782 782 781 777 776 776 775 774 773 772 771 769 769 769 770 772 774 775 775 775 775 775 774 0 0 0 0 0 0 0 0 0 0 0 0 0 0 0 0 0 0 0 0 0 0 0 0 0 0 0 0 0 0 0 0 0 0 0 0 0 0 0 0 0 0 0 0 0 0 0 0 0 0 0 0 0 0 0 0 0 0 0 0 0 0 0 0 0 0 0 0 0 0 0 0 0 0 0 0 0 0 0 0 0 0 0 0 0 0 0 0 0 0 0 0 0 0 0 0 0 0 0 0 0 0 0 0 0 0 0 0 0 0 0 0 0 0 0 0 0 0 0 0 0 0 0 0 0 0 0 732 732 733 733 733 736 736 736 738 752 767 0 0 0 0 0 0 0 0 0 0 0 0 0 0 0 0 1141 1141 1142 1142 1142 1145 1154 1167 1179 1181 1181 1182 1182 1182 1186 1189 1192 1195 1200 1203 1205 1209 1212 1215 1217 1219 1219 1222 1224 1226 1227 1230 1232 1233 1236 1237 1240 1244 1247 1250 1253 1256 1258 1259 1261 1264 1266 1268 1270 1271 1271 1273 1276 1278 1280 1280 1280 1280 1280 1281 1281 1282 1282 1282 1282 1284 1284 1284 1282 1282 1282 1282 1282 1283 1284 1286 1286 1286 1286 1287 1287 1288 1288 1288 1289 1290 1291 1292 1293 1294 1296 1297 1300 1304 1307 1314 1314 1314 1313 1309 1308 1306 1306 1306 1306 1308 1309 1330 1335 1339 1339 1339 1341 1341 1341 1341 1341 1339 1339 1336 1322 1305 1301 1298 1297 1294 1276 1276 1276 1281 1291 1303 1317 1319 1319 1320 1327 1341 1355 1355 1355 1348 1340 1339 1338 1337 1337 1336 1336 1336 1330 1322 1321 1319 1319 1319 1321 1322 1322 1322 1319 1317 1317 1317 1325 1331 1333 1333 1333 1325 1319 1319 1318 1317 1317 1315 1313 1308 1308 1303 1299 1295 1285 1276 1270 1268 1268 1267 1265 1253 1247 1238 1230 1230 1229 1227 1222 1206 1195 1188 1176 1173 1165 1161 1161 1161 1145 1116 1074 1058 1035 1014 994 983 977 975 975 975 989 991 1006 1006 1006 994 979 973 973 973 982 1002 1002 1002 1002 996 989 987 977 976 973 959 919 906 896 875 848 842 0 0 826 784 782 779 776 761 737 0 0 0 0 0 568 568 568 547 547
1008 1008 1027 1040 1043 1050 1056 1061 1067 1073 1081 1087 1094 1099 1104 1107 1109 1110 1110 1110 1101 1079 0 0 0 0 0 0 0 0 1231 1238 1243 1247 1250 1254 1258 1260 1261 1262 1264 1267 1270 1270 1270 1270 1268 1268 1268 1267 1262 1229 1162 1162 1162 1212 1213 1213 1213 1213 0 0 0 0 1574 1574 1574 1573 0 0 0 0 0 0 0 0 845 840 839 837 837 834 834 833 833 833 833 833 833 833 833 833 834 834 834 834 834 833 833 834 834 834 834 833 833 833 833 833 832 832 832 831 831 831 831 830 830 829 829 828 826 826 824 823 821 816 811 805 800 797 795 792 789 786 784 781 779 777 776 776 774 773 771 770 770 768 768 768 767 766 766 766 766 766 766 767 767 768 770 772 773 774 774 774 774 774 774 777 783 786 789 791 791 0 0 0 0 0 0 0 0 0 0 0 0 0 0 0 0 0 0 0 0 0 0 789 789 789 782 781 780 779 776 772 772 768 768 768 768 768 769 769 770 772 773 775 776 776 776 776 776 775 0 0 0 0 0 0 0 0 0 0 0 0 0 0 0 0 0 0 0 0 0 0 0 0 0 0 0 0 0 0 0 0 0 0 0 0 0 0 0 0 0 0 0 0 0 0 0 0 0 0 0 0 0 0 0 0 0 0 0 0 0 0 0 0 0 0 0 0 0 0 0 0 0 0 0 0 0 0 0 0 0 0 0 0 0 0 0 0 0 0 0 0 0 0 0 0 0 0 0 0 0 0 0 0 0 0 0 0 0 0 0 0 0 0 0 0 0 0 0 0 0 0 0 0 0 722 736 737 738 738 738 738 738 739 759 785 797 0 0 0 0 0 0 0 1493 1472 1441 1440 0 0 0 0 0 0 0 1144 1144 1144 1147 1158 1168 1179 1185 1185 1185 1186 1186 1186 1189 1192 1196 1200 1204 1208 1210 1214 1217 1219 1220 1222 1224 1225 1227 1229 1232 1234 1236 1237 1239 1241 1244 1247 1250 1254 1257 1258 1261 1262 1266 1269 1271 1272 1272 1273 1275 1277 1280 1282 1282 1282 1281 1281 1281 1281 1282 1282 1282 1283 1285 1285 1285 1284 1284 1284 1284 1285 1285 1286 1287 1287 1287 1287 1287 1287 1288 1290 1290 1291 1291 1292 1292 1293 1295 1296 1297 1300 1304 1307 1314 1314 1314 1314 1312 1310 1310 1309 1308 1308 1308 1309 1313 1325 1330 1335 1339 1341 1341 1341 1341 1341 1340 1339 1338 1330 1318 1308 1303 1303 1294 1276 1276 1276 1276 1279 1288 1298 1303 1306 1310 1318 1327 1334 1336 1337 1337 1337 1337 1337 1337 1337 1336 1336 1336 1327 1322 1321 1318 1316 1316 1315 1313 1312 1309 1308 1308 1308 1312 1325 1330 1330 1330 1329 1325 1319 1319 1318 1317 1317 1315 1313 1303 1303 1302 1299 1295 1285 1276 1270 1270 1270 1270 1268 1267 1254 1247 1236 1235 1233 1231 1222 1206 1198 1193 1186 1178 1173 1171 1171 1168 1157 1120 1082 1058 1053 1045 1036 1015 1001 973 973 973 984 986 1002 1002 1002 986 964 964 964 964 964 981 994 996 996 996 989 988 975 966 951 916 908 906 892 869 0 0 0 0 798 784 782 779 773 761 737 705 0 0 0 562 562 562 562 543 543
1003 1003 1021 1035 1043 1046 1051 1059 1066 1073 1081 1087 1092 1095 1098 1102 1105 1105 1105 1105 1100 1062 0 0 0 0 0 0 0 0 1231 1238 1243 1247 1250 1252 1256 1259 1259 1261 1264 1267 1270 1270 1270 1270 1268 1268 1268 1267 1262 0 1158 1158 1158 1212 1212 1212 1195 1195 0 0 0 0 1608 1608 1608 1596 1562 0 0 0 0 0 0 0 853 841 840 837 837 835 834 833 833 832 832 832 832 832 832 832 832 832 832 832 832 832 832 832 833 832 832 832 832 832 832 832 831 831 831 830 830 830 829 829 829 828 828 827 825 825 823 821 819 815 811 805 799 796 794 790 788 786 783 780 778 777 775 774 773 772 770 769 768 767 767 766 766 766 765 765 765 765 766 766 766 768 768 769 771 772 773 773 773 773 774 777 782 786 789 790 789 0 0 0 0 0 0 0 0 0 0 0 0 0 0 0 0 0 0 0 789 787 785 786 786 785 782 781 779 779 776 772 772 768 767 767 767 767 769 769 770 771 773 775 777 777 777 776 776 775 0 0 0 0 0 0 0 0 0 0 0 0 0 0 0 0 0 0 0 0 0 0 0 0 0 0 0 0 0 0 0 0 0 0 0 0 0 0 0 0 0 0 0 0 0 0 0 0 0 0 0 0 0 0 0 0 0 0 0 0 0 0 0 0 0 0 0 0 0 0 0 0 0 0 0 0 0 0 0 0 0 0 0 0 0 0 0 0 0 0 0 0 0 0 0 0 0 0 0 0 0 0 0 0 0 0 0 0 0 0 0 0 0 0 0 0 0 0 0 0 0 0 0 0 719 730 739 747 748 748 750 750 756 758 792 806 0 0 0 0 0 0 0 1503 1503 1473 1466 1462 1462 0 0 0 0 0 0 0 0 1150 1153 1160 1166 1179 1185 1191 1192 1192 1192 1192 1193 1194 1196 1200 1204 1209 1212 1216 1219 1220 1220 1223 1225 1226 1227 1231 1235 1237 1237 1239 1240 1243 1245 1248 1252 1255 1257 1259 1262 1265 1268 1271 1274 1274 1276 1276 1278 1280 1283 1284 1284 1284 1284 1284 1284 1284 1284 1284 1284 1285 1287 1287 1287 1286 1286 1286 1286 1286 1286 1287 1287 1289 1289 1289 1289 1289 1290 1291 1292 1292 1292 1293 1294 1294 1295 1296 1298 1298 1300 1306 1314 1314 1314 1314 1312 1310 1310 1309 1309 1309 1309 1309 1313 1317 1326 1334 1338 1341 1341 1341 1341 1341 1340 1340 1338 1336 1327 1321 1319 1318 1304 1276 1276 1276 1275 1276 1277 1285 1293 1302 1304 1313 1321 1322 1324 1324 1324 1329 1334 1335 1336 1336 1336 1335 1335 1326 1322 1320 1318 1314 1313 1312 1311 1310 1307 1306 1306 1306 1307 1318 1325 1325 1325 1324 1324 1319 1318 1317 1317 1317 1311 1302 1293 1288 1285 1283 1281 1275 1272 1270 1270 1270 1268 1268 1268 1263 1252 1242 1237 1235 1231 1223 1212 1203 1195 1192 1179 1174 1173 1171 1168 1157 1142 1085 1078 1074 1070 1066 1051 1001 981 981 980 980 984 998 998 998 965 951 951 951 951 0 0 0 0 990 989 988 988 968 956 935 911 908 905 892 0 0 0 0 0 755 755 756 760 760 760 735 704 0 0 0 562 561 561 561 543 543
984 984 1009 1030 1039 1045 1048 1058 1066 1071 1079 1087 1091 1095 1097 1099 1103 1103 1103 1103 1100 0 0 0 0 0 0 0 0 0 1227 1238 1242 1247 1250 1252 1255 1257 1258 1260 1263 1267 1270 1270 1270 1270 1268 1268 1265 1264 0 0 1169 1169 1170 1208 1208 1208 1195 1195 0 0 0 0 1608 1608 1608 1599 1569 0 0 0 0 0 0 0 864 847 841 837 837 835 834 834 833 832 832 831 831 831 832 832 832 832 831 831 831 832 832 832 832 832 831 831 831 831 831 831 830 830 830 829 829 828 828 828 828 827 826 826 825 824 822 820 818 815 810 805 799 796 791 789 786 783 782 779 777 776 775 773 773 771 769 768 766 766 766 766 766 766 765 765 765 765 766 766 766 767 768 769 770 771 772 773 773 774 774 777 782 786 789 790 789 0 0 0 0 0 0 0 0 0 0 0 0 0 0 0 0 792 792 792 787 785 784 785 785 784 781 779 779 778 774 772 771 768 767 767 767 767 769 769 770 771 773 775 777 777 777 777 777 775 0 0 0 0 0 0 0 0 0 0 0 0 0 0 0 0 0 0 0 0 0 0 0 0 0 0 0 0 0 0 0 0 0 0 0 0 0 0 0 0 0 0 0 0 0 0 0 0 0 0 0 0 0 0 0 0 0 0 0 0 0 0 0 0 0 0 0 0 0 0 0 0 0 0 0 0 0 0 0 0 0 0 0 0 0 0 0 0 0 0 0 0 0 0 0 0 0 0 0 0 0 0 0 0 0 0 0 0 0 0 0 0 0 0 0 0 0 0 0 0 0 718 719 721 724 735 748 748 752 752 755 764 0 0 0 0 0 0 0 0 0 0 1528 1528 1503 1482 1482 1482 1488 1488 1488 0 0 0 0 0 0 0 0 1160 1166 1178 1187 1194 1198 1199 1199 1199 1198 1198 1198 1200 1205 1210 1215 1220 1221 1221 1222 1223 1225 1227 1231 1233 1237 1239 1240 1240 1242 1244 1246 1249 1252 1255 1258 1260 1262 1267 1270 1273 1276 1277 1277 1278 1279 1281 1283 1284 1285 1286 1286 1286 1286 1286 1286 1286 1286 1288 1289 1289 1289 1288 1288 1287 1286 1286 1286 1287 1290 1292 1292 1292 1292 1292 1292 1293 1295 1295 1295 1295 1296 1296 1296 1297 1298 1298 1299 1301 1309 1314 1314 1314 1312 1310 1310 1310 1310 1310 1311 1312 1313 1317 1320 1329 1336 1339 1339 1339 1340 1340 1340 1340 1339 1336 1331 1328 1326 1320 1317 1309 1293 1281 1277 1276 1276 1276 1276 1290 1299 1306 1317 1320 1321 1322 1324 1326 1328 1328 1329 1330 1330 1330 1328 1326 1322 1320 1318 1314 1312 1311 1310 1310 1307 1305 1305 1305 1307 1315 1318 1319 1321 1321 1321 1319 1316 1313 1309 1304 1298 1289 1284 1276 1274 1268 1267 1267 1267 1268 1268 1268 1268 1268 1268 1263 1252 1245 1237 1235 1231 1223 1216 1204 1196 1193 1182 1179 1176 1174 1168 1157 1151 1136 1107 1102 1096 1066 1052 1028 1009 984 980 980 984 987 987 987 962 909 0 0 0 0 0 0 0 0 0 0 0 0 935 922 906 904 895 0 0 0 0 0 745 739 739 739 753 753 753 735 696 0 0 0 562 557 557 554 543 543
982 982 995 1019 1037 1044 1048 1057 1066 1070 1077 1084 1090 1093 1095 1099 1102 1102 1102 1102 1094 0 0 0 0 0 0 0 0 0 1216 1233 1237 1243 1247 1251 1253 1254 1257 1259 1261 1265 1269 1270 1270 1270 1268 1268 1265 1250 0 0 1125 1125 1173 1173 1173 1155 1155 0 0 0 0 0 1610 1610 1610 1601 1570 0 0 0 0 0 0 883 864 847 841 837 836 836 835 833 832 831 831 831 831 831 831 831 830 830 830 830 830 830 830 830 830 830 830 830 830 830 830 829 829 829 829 829 828 828 827 827 827 826 825 825 824 822 821 819 817 813 808 803 798 794 789 787 784 781 780 778 776 774 774 772 771 769 767 766 766 765 765 765 765 765 765 765 765 765 765 765 766 767 767 768 769 770 771 772 773 774 774 777 782 786 789 790 793 0 0 0 0 0 0 0 0 0 0 0 0 0 0 0 794 792 792 792 786 784 783 780 780 779 778 778 778 775 772 771 771 769 767 767 767 767 769 769 769 770 772 774 775 777 777 775 777 775 775 0 0 0 0 0 0 0 0 0 0 0 0 0 0 0 0 0 0 0 0 0 0 0 0 0 0 0 0 0 0 0 0 0 0 0 0 0 0 0 0 0 0 0 0 0 0 0 0 0 0 0 0 0 0 0 0 0 0 0 0 0 0 0 0 0 0 0 0 0 0 0 0 0 0 0 0 0 0 0 0 0 0 0 0 0 0 0 0 0 0 0 0 0 0 0 0 0 0 0 0 0 0 0 0 0 0 0 0 0 0 0 0 0 0 0 0 0 0 0 721 721 723 723 730 743 748 748 756 759 760 0 0 0 0 0 0 0 0 0 0 0 1545 1545 1505 1497 1497 1497 1503 1505 1506 1506 1506 0 0 0 0 0 0 0 1178 1178 1188 1197 1202 1208 1208 1208 1205 1203 1203 1203 1205 1210 1218 1223 1225 1225 1226 1226 1227 1229 1233 1236 1240 1243 1243 1244 1245 1247 1247 1249 1253 1257 1259 1262 1265 1268 1272 1274 1276 1277 1278 1279 1280 1282 1284 1285 1285 1286 1286 1286 1287 1287 1288 1288 1289 1291 1291 1291 1290 1290 1289 1288 1286 1286 1286 1287 1291 1293 1293 1293 1294 1294 1295 1296 1297 1297 1297 1297 1297 1297 1298 1298 1298 1298 1299 1301 1304 1307 1308 1308 1308 1308 1309 1310 1311 1314 1314 1317 1317 1319 1320 1324 1332 1332 1332 1336 1339 1340 1340 1339 1338 1338 1335 1331 1331 1327 1323 1318 1312 1305 1291 1277 1275 1275 1275 1280 1282 1288 1305 1315 1318 1322 1323 1323 1324 1323 1323 1323 1324 1324 1324 1324 1322 1319 1316 1311 1308 1308 1306 1305 1304 1304 1304 1304 1305 1305 1306 1314 1316 1317 1317 1317 1316 1312 1308 1300 1292 1287 1284 1276 1268 1264 1262 1262 1260 1260 1260 1260 1264 1264 1264 1263 1252 1245 1237 1230 1226 1222 1219 1208 1198 1194 1190 1187 1184 1176 1167 1157 1151 1142 1128 1117 1096 1087 1068 1041 1025 1005 1001 988 988 987 987 987 0 0 0 889 882 871 859 0 0 0 0 0 0 0 0 0 0 0 0 0 0 0 0 0 741 737 737 737 750 750 750 724 696 0 0 0 605 603 585 554 553 553
982 982 995 1010 1032 1041 1046 1055 1061 1068 1075 1082 1087 1091 1093 1095 1099 1102 1102 1102 1098 0 0 0 0 0 0 0 0 0 1213 1226 1231 1238 1242 1249 1252 1254 1257 1258 1260 1262 1266 1270 1270 1270 1268 1268 1263 0 0 1125 1125 1125 1191 1191 1191 1155 1155 0 0 0 0 1583 1611 1611 1611 1603 1571 0 0 0 0 0 0 878 864 847 841 836 836 836 835 833 832 831 830 830 830 830 830 830 830 830 830 829 829 829 829 830 830 830 829 829 829 829 829 828 828 828 828 827 827 827 826 826 826 825 824 824 822 821 820 819 816 813 808 802 795 791 787 783 781 779 777 776 775 773 772 771 770 768 767 766 765 765 765 765 765 764 764 764 764 764 765 765 765 766 767 767 769 770 770 771 772 773 773 774 778 786 787 787 791 791 0 0 0 0 0 0 0 0 0 0 0 0 0 791 789 789 787 785 785 780 780 779 778 778 777 777 775 773 772 771 770 769 767 767 767 767 769 769 769 769 770 770 771 774 775 775 775 775 775 0 0 0 0 0 0 0 0 0 0 0 0 0 0 0 0 0 0 0 0 0 0 0 0 0 0 0 0 0 0 0 0 0 0 0 0 0 0 0 0 0 0 0 0 0 0 0 0 0 0 0 0 0 0 0 0 0 0 0 0 0 0 0 0 0 0 0 0 0 0 0 0 0 0 0 0 0 0 0 0 0 0 0 0 0 0 0 0 0 0 0 0 0 0 0 0 0 0 0 0 0 0 0 0 0 0 0 0 0 0 0 0 0 0 0 0 721 724 724 721 723 724 724 732 748 749 750 768 785 0 0 0 0 0 0 0 0 0 0 0 1534 1534 1534 1505 1498 1498 1498 1507 1511 1513 1516 1520 1520 1520 0 0 0 0 0 0 0 1189 1203 1211 1218 1218 1218 1213 1209 1207 1207 1207 1211 1220 1226 1229 1231 1231 1231 1231 1234 1236 1240 1244 1246 1247 1247 1248 1249 1249 1251 1253 1258 1262 1263 1266 1269 1272 1274 1277 1278 1279 1280 1282 1283 1284 1285 1285 1285 1286 1286 1287 1288 1289 1289 1291 1292 1292 1292 1292 1292 1290 1288 1288 1288 1288 1290 1293 1294 1294 1295 1296 1297 1298 1298 1298 1298 1298 1298 1300 1300 1300 1299 1299 1299 1299 1300 1302 1302 1302 1302 1308 1308 1308 1309 1311 1314 1317 1319 1319 1320 1320 1323 1325 1327 1328 1329 1333 1336 1338 1338 1338 1338 1336 1334 1333 1329 1326 1322 1320 1318 1309 1294 1275 1275 1269 1275 1276 1279 1295 1309 1314 1316 1322 1322 1323 1322 1321 1321 1320 1319 1319 1319 1319 1316 1312 1308 1303 1302 1302 1302 1302 1302 1304 1304 1304 1303 1303 1303 1310 1313 1313 1313 1311 1307 1302 1295 1292 1287 1284 1276 1268 1264 1260 1257 1255 1254 1254 1254 1255 1257 1257 1257 1251 1245 1234 1222 1222 1219 1219 1211 1207 1199 1194 1188 1184 1176 1165 1155 1151 1148 1138 1118 1104 1093 1085 1072 1050 1031 1026 1016 994 993 988 987 0 0 900 889 882 871 858 841 0 0 0 0 0 0 0 0 0 0 0 0 0 0 0 0 740 730 727 727 727 727 727 711 695 686 0 0 0 607 595 561 560 560
982 982 995 1007 1024 1034 1042 1048 1059 1067 1074 1080 1085 1086 1088 1092 1097 1101 1101 1101 1098 0 0 0 0 0 0 0 0 0 1210 1220 1229 1233 1239 1247 1250 1254 1256 1258 1260 1262 1265 1268 1268 1268 1268 1268 1263 0 0 1151 1151 1151 1183 1183 1183 1183 1183 0 0 0 1586 1589 1613 1613 1613 1603 1574 0 0 0 0 0 0 877 859 847 841 836 835 835 835 833 831 830 829 829 829 829 829 829 828 828 828 828 828 828 828 828 828 828 828 828 828 828 828 828 828 828 827 826 826 826 826 825 825 825 823 823 822 820 819 818 816 813 808 802 795 789 784 783 780 777 776 775 773 772 771 770 769 768 767 766 765 765 765 765 764 764 764 764 764 764 764 765 765 765 766 767 768 769 769 770 770 770 772 773 776 781 783 785 789 792 0 0 0 0 0 0 0 0 0 0 0 793 790 787 786 782 780 778 778 778 778 778 777 776 776 776 775 772 770 770 769 769 767 767 767 767 768 769 769 769 769 770 770 772 773 775 775 775 775 0 0 0 0 0 0 0 0 0 0 0 0 0 0 0 0 0 0 0 0 0 0 0 0 0 0 0 0 0 0 0 0 0 0 0 0 0 0 0 0 0 0 0 0 0 0 0 0 0 0 0 0 0 0 0 0 0 0 0 0 0 0 0 0 0 0 0 0 0 0 0 0 0 0 0 0 0 0 0 0 0 0 0 0 0 0 0 0 0 0 0 0 0 0 0 0 0 0 0 0 0 0 0 0 0 0 0 0 0 0 0 0 0 0 0 726 726 725 725 724 725 729 736 744 748 757 757 0 0 0 0 0 0 0 0 0 0 0 0 0 1545 1545 1529 1501 1501 1501 1502 1515 1519 1521 1525 1529 1529 1529 1528 0 0 0 0 0 0 1222 1222 1222 1228 1228 1228 1223 1215 1215 1215 1216 1218 1220 1226 1231 1236 1237 1238 1238 1238 1240 1244 1247 1249 1250 1250 1251 1251 1251 1252 1255 1261 1264 1265 1266 1271 1274 1276 1278 1280 1281 1282 1283 1285 1285 1285 1285 1285 1286 1286 1288 1289 1289 1291 1291 1292 1293 1293 1293 1293 1292 1290 1290 1290 1291 1293 1294 1295 1296 1297 1299 1300 1300 1300 1300 1300 1300 1300 1302 1302 1302 1302 1301 1301 1301 1300 1300 1301 1301 1302 1306 1307 1307 1308 1311 1314 1317 1319 1319 1319 1320 1322 1324 1324 1324 1324 1324 1324 1327 1334 1336 1336 1336 1334 1333 1333 1333 1334 1335 1335 1334 1317 1291 1276 1276 1269 1276 1276 1279 1289 1304 1309 1315 1320 1321 1321 1321 1321 1320 1319 1317 1316 1314 1311 1309 1303 1302 1300 1300 1300 1300 1302 1303 1303 1303 1298 1298 1298 1303 1304 1304 1304 1302 1300 1298 1293 1290 1286 1283 1276 1268 1263 1260 1254 1252 1252 1252 1251 1251 1251 1250 1245 1237 1228 1221 1221 1220 1219 1219 1214 1210 1200 1195 1189 1184 1176 1161 1155 1151 1148 1138 1124 1104 1093 1088 1088 1081 1070 1067 1051 1031 1025 1014 1011 0 0 920 911 900 871 858 841 820 0 0 0 0 0 0 0 0 0 0 0 0 0 0 0 0 723 717 700 700 700 700 700 695 686 0 0 0 623 600 600 572 572
982 982 992 1007 1018 1030 1041 1046 1058 1067 1073 1080 1083 1085 1087 1091 1094 1096 1097 1097 1096 0 0 0 0 0 0 0 0 0 1209 1219 1227 1231 1236 1240 1245 1252 1255 1257 1259 1261 1263 1266 1266 1266 1265 1254 1254 0 0 1141 1141 1151 1151 1151 1142 1142 0 0 0 0 1590 1614 1615 1615 1615 1603 1570 0 0 0 0 0 904 875 859 846 840 835 833 833 833 832 830 829 828 828 828 828 828 828 828 828 828 828 827 827 828 827 827 827 827 827 827 827 827 826 826 826 826 825 825 824 824 824 824 824 823 822 821 820 818 816 814 812 808 801 794 789 784 783 780 777 775 773 772 771 770 768 767 767 765 765 764 764 764 764 764 763 763 763 763 764 764 765 765 765 766 766 767 768 768 768 769 769 770 773 776 778 780 783 787 790 793 793 793 0 0 0 0 0 0 0 790 790 785 779 779 779 778 778 778 776 776 775 774 774 774 774 773 772 770 769 768 767 767 766 766 766 767 768 768 769 769 770 770 771 773 775 775 776 775 774 0 0 0 0 0 0 0 0 0 0 0 0 0 0 0 0 0 0 0 0 0 0 0 0 0 0 0 0 0 0 0 0 0 0 0 0 0 0 0 0 0 0 0 0 0 0 0 0 0 0 0 0 0 0 0 0 0 0 0 0 0 0 0 0 0 0 0 0 0 0 0 0 0 0 0 0 0 0 0 0 0 0 0 0 0 0 0 0 0 0 0 0 0 0 0 0 0 0 0 0 0 0 0 0 0 0 0 0 0 0 0 0 0 728 729 729 729 729 731 731 740 753 766 775 776 785 0 0 0 0 0 0 0 0 0 0 0 0 1548 1548 1548 1514 1498 1498 1498 1507 1522 1526 1528 1533 1538 1541 1541 1541 1541 1529 0 0 0 0 0 0 0 1239 1239 1239 1232 1224 1219 1218 1218 1219 1220 1226 1231 1236 1238 1241 1242 1243 1243 1244 1247 1250 1251 1252 1252 1253 1253 1254 1258 1264 1267 1268 1269 1273 1276 1278 1280 1282 1282 1283 1284 1285 1285 1285 1285 1285 1286 1287 1288 1290 1291 1293 1293 1293 1294 1294 1294 1294 1294 1294 1294 1294 1294 1295 1295 1297 1297 1298 1300 1301 1301 1302 1302 1302 1302 1304 1304 1306 1306 1306 1304 1302 1300 1299 1299 1299 1301 1302 1306 1307 1307 1308 1310 1312 1314 1317 1318 1319 1319 1319 1319 1319 1317 1317 1314 1314 1314 1320 1332 1334 1334 1334 1333 1333 1333 1336 1341 1342 1342 1342 1320 1304 1292 1276 1276 1276 1279 1282 1287 1293 1302 1311 1316 1320 1320 1320 1320 1319 1317 1316 1314 1310 1302 1302 1300 1300 1300 1300 1300 1300 1300 1300 1300 1298 1298 1298 1303 1303 1303 1297 1293 1292 1292 1292 1289 1285 1283 1276 1268 1263 1259 1253 1250 1250 1250 1249 1245 1243 1235 1232 1227 1223 1221 1221 1220 1219 1218 1214 1210 1201 1195 1189 1177 1162 1160 1155 1152 1152 1150 1134 1105 1096 1092 1090 1086 1083 1071 1066 1055 1045 1044 1033 1010 0 933 918 910 891 860 836 817 0 0 0 0 0 0 0 0 0 0 0 0 0 0 0 0 0 0 0 0 0 668 686 686 0 0 0 0 644 635 633 599 599
982 982 992 1006 1016 1029 1040 1046 1058 1066 1073 1078 1083 1085 1087 1090 1094 1096 1096 1096 1095 0 0 0 0 0 0 0 0 0 1198 1218 1226 1230 1233 1238 1242 1247 1252 1256 1257 1260 1261 1261 1261 1259 1256 1239 1238 0 0 1121 1121 1152 1152 1152 1126 1126 0 0 0 0 1602 1615 1615 1615 1611 1599 1570 0 0 0 0 0 892 869 854 845 838 833 833 832 832 832 830 829 828 828 828 827 827 827 827 827 827 827 827 827 827 826 826 826 826 826 826 826 826 825 825 825 825 825 824 824 824 824 823 823 822 822 821 819 818 816 814 811 808 801 794 789 784 783 780 777 775 772 770 769 767 767 766 765 765 764 764 764 763 763 763 763 763 763 763 763 764 764 764 765 766 766 767 767 767 768 768 768 770 772 775 776 777 781 782 785 792 793 793 793 792 789 788 788 788 788 788 788 784 779 779 779 778 776 776 775 775 774 774 772 772 771 771 771 770 769 768 767 767 766 766 766 767 768 768 769 769 770 770 771 773 774 774 774 773 773 772 0 0 0 0 0 0 0 0 0 0 0 0 0 0 0 0 0 0 0 0 0 0 0 0 0 0 0 0 0 0 0 0 0 0 0 0 0 0 0 0 0 0 0 0 0 0 0 0 0 0 0 0 0 0 0 0 0 0 0 0 0 0 0 0 0 0 0 0 0 0 0 0 0 0 0 0 0 0 0 0 0 0 0 0 0 0 0 0 0 0 0 0 0 0 0 0 0 0 0 0 0 0 0 0 0 0 0 0 0 0 0 729 730 730 731 734 735 735 737 742 758 776 776 791 0 0 0 0 0 0 0 0 0 0 0 0 0 1524 1524 1524 1494 1494 1494 1498 1510 1524 1529 1533 1537 1540 1544 1548 1552 1552 1552 1548 1543 1524 1496 0 0 0 0 0 1246 1237 1231 1224 1219 1219 1219 1219 1223 1231 1236 1238 1243 1244 1244 1245 1245 1247 1250 1253 1254 1254 1254 1255 1257 1261 1266 1269 1270 1272 1275 1278 1281 1282 1283 1283 1284 1286 1286 1286 1286 1286 1286 1287 1288 1289 1291 1293 1294 1295 1295 1296 1296 1296 1296 1296 1296 1296 1295 1295 1296 1297 1297 1297 1299 1301 1302 1303 1303 1303 1303 1305 1305 1307 1307 1307 1307 1306 1303 1300 1299 1299 1299 1302 1304 1306 1307 1307 1308 1310 1312 1314 1315 1315 1315 1315 1315 1315 1314 1314 1313 1312 1312 1312 1313 1319 1323 1324 1324 1331 1333 1333 1336 1341 1347 1347 1347 1337 1322 1309 1299 1283 1282 1282 1279 1279 1278 1278 1278 1292 1301 1314 1317 1317 1317 1317 1315 1314 1310 1302 1301 1300 1300 1300 1299 1299 1300 1300 1300 1300 1297 1297 1297 1298 1298 1298 1289 1286 1286 1286 1285 1285 1285 1283 1276 1268 1263 1258 1253 1250 1249 1248 1244 1238 1234 1227 1226 1222 1222 1221 1220 1220 1219 1218 1214 1210 1201 1195 1189 1175 1162 1160 1155 1155 1154 1150 1134 1124 1119 1107 1098 1089 1084 1078 1069 1058 1048 1044 1035 1010 0 939 918 910 893 866 836 817 0 0 0 0 0 0 0 0 0 0 0 666 666 659 652 0 0 0 0 0 0 0 0 0 0 0 0 0 0 635 633 609 609
978 978 991 1003 1013 1026 1040 1044 1054 1064 1072 1076 1080 1083 1087 1090 1094 1096 1096 1096 1095 0 0 0 0 0 0 0 0 0 1196 1218 1226 1229 1232 1235 1240 1243 1247 1251 1253 1256 1256 1256 1256 1250 1241 1208 1177 1176 1121 1121 1121 1139 1139 1139 1139 0 0 0 0 0 1615 1615 1615 1615 1606 1588 1564 0 0 0 0 0 881 869 853 842 837 833 833 832 832 832 830 829 828 828 827 826 826 826 826 826 826 826 826 826 826 826 826 826 826 826 825 825 825 824 824 824 824 824 823 823 823 823 822 822 822 821 820 819 818 816 814 811 808 802 794 789 786 783 780 777 774 772 769 767 766 766 765 765 764 763 763 763 763 763 763 762 762 762 763 763 763 764 764 765 765 765 766 767 767 767 767 768 769 771 773 773 777 779 781 784 790 793 793 793 792 790 790 790 790 788 788 786 782 779 778 778 776 775 775 775 774 772 772 770 770 770 769 769 769 768 768 767 766 766 766 766 767 767 768 769 769 770 770 770 773 773 773 773 772 772 772 0 0 0 0 0 0 0 0 0 0 0 0 0 0 0 0 0 0 0 0 0 0 0 0 0 0 0 0 0 0 0 0 0 0 0 0 0 0 0 0 0 0 0 0 0 0 0 0 0 0 0 0 0 0 0 0 0 0 0 0 0 0 0 0 0 0 0 0 0 0 0 0 0 0 0 0 0 0 0 0 0 0 0 0 0 0 0 0 0 0 0 0 0 0 0 0 0 0 0 0 0 0 0 0 0 0 0 0 730 735 735 737 736 737 736 737 737 737 739 744 776 786 787 0 0 0 0 0 0 0 0 0 0 0 0 0 0 1551 1551 1510 1494 1494 1494 1498 1514 1524 1529 1533 1537 1541 1545 1552 1558 1558 1558 1557 1557 1555 1553 0 0 0 0 0 0 0 1236 1230 1221 1219 1219 1219 1223 1230 1234 1238 1243 1244 1245 1245 1246 1248 1250 1253 1255 1256 1258 1260 1262 1263 1267 1269 1272 1275 1278 1282 1284 1284 1284 1285 1285 1287 1287 1287 1288 1288 1288 1289 1290 1291 1294 1295 1296 1297 1297 1297 1297 1297 1297 1297 1297 1297 1296 1296 1296 1297 1297 1297 1299 1301 1303 1303 1304 1304 1306 1307 1307 1308 1308 1308 1308 1308 1304 1300 1300 1300 1300 1303 1306 1310 1310 1310 1312 1312 1312 1314 1314 1314 1314 1314 1313 1311 1311 1310 1310 1309 1309 1309 1311 1311 1312 1315 1320 1327 1328 1333 1336 1341 1347 1347 1347 1342 1336 1326 1325 1313 1304 1293 1287 1282 1270 1265 1265 1265 1288 1306 1314 1314 1314 1314 1312 1311 1303 1299 1299 1299 1298 1298 1298 1297 1294 1294 1294 1294 1294 1294 1294 1294 1293 1288 1283 1280 1279 1279 1278 1278 1276 1275 1271 1266 1263 1257 1252 1249 1249 1248 1244 1238 1234 1227 1225 1221 1220 1220 1220 1219 1219 1216 1213 1209 1201 1194 1188 1175 1162 1160 1159 1157 1155 1150 1134 1125 1124 1123 1112 1108 1099 1087 1078 1061 1049 1044 1035 1010 971 941 929 916 897 872 841 817 0 0 0 0 0 0 0 667 665 661 661 661 658 654 650 639 0 0 0 0 0 0 0 0 0 0 0 0 0 0 633 609 609
970 970 981 998 1011 1024 1037 1044 1051 1061 1068 1072 1078 1081 1085 1090 1093 1093 1093 1092 1063 0 0 0 0 0 0 0 0 0 1194 1214 1223 1227 1231 1234 1239 1242 1246 1248 1250 1252 1252 1252 1246 1241 1234 1204 1170 1169 1121 1121 1121 1132 1132 1132 1132 0 0 0 0 1588 1609 1610 1610 1609 1595 1568 1544 0 0 0 0 0 881 869 852 838 836 833 833 832 832 832 830 829 828 827 827 826 826 825 825 825 825 825 824 824 825 825 825 825 825 825 825 824 824 824 823 823 823 823 823 822 822 822 822 821 821 820 819 818 817 816 814 811 807 802 795 790 786 783 780 777 773 771 768 767 765 764 763 763 763 762 762 762 762 762 761 761 761 761 763 763 763 764 765 765 765 765 766 767 767 767 767 768 769 770 770 773 777 779 781 783 788 791 791 791 791 789 788 787 784 784 783 782 778 778 777 777 776 774 771 770 769 769 768 768 768 768 768 767 767 767 767 767 766 766 766 766 766 767 768 769 769 770 770 770 773 773 773 772 772 771 770 0 0 0 0 0 0 0 0 0 0 0 0 0 0 0 0 0 0 0 0 0 0 0 0 0 0 0 0 0 0 0 0 0 0 0 0 0 0 0 0 0 0 0 0 0 0 0 0 0 0 0 0 0 0 0 0 0 0 0 0 0 0 0 0 0 0 0 0 0 0 0 0 0 0 0 0 0 0 0 0 0 0 0 0 0 0 0 0 0 0 0 0 0 0 0 0 0 0 0 0 0 0 0 0 0 0 0 728 735 737 739 739 740 740 742 742 742 742 743 765 786 815 0 0 0 0 0 0 0 0 0 0 0 0 0 0 1543 1543 1543 1510 1494 1494 1494 1505 1515 1524 1529 1533 1537 1541 1547 1552 1558 1561 1565 1565 1566 1566 1566 1566 0 0 0 0 0 0 0 0 1225 1219 1219 1219 1223 1230 1234 1238 1244 1246 1247 1247 1248 1249 1251 1253 1257 1260 1263 1266 1267 1267 1267 1269 1272 1278 1281 1285 1286 1286 1286 1286 1286 1288 1288 1289 1289 1290 1290 1290 1292 1293 1296 1297 1297 1298 1298 1298 1298 1298 1298 1298 1298 1298 1298 1297 1297 1297 1297 1298 1299 1301 1303 1304 1304 1306 1307 1308 1308 1309 1309 1309 1309 1309 1308 1306 1302 1302 1302 1305 1307 1312 1315 1315 1316 1315 1315 1315 1315 1315 1314 1313 1311 1309 1308 1306 1306 1306 1306 1308 1311 1311 1311 1315 1319 1319 1322 1330 1335 1339 1343 1343 1343 1342 1336 1328 1325 1318 1309 1301 1296 1289 1270 1257 1253 1253 1253 1272 1289 1298 1298 1306 1306 1306 1301 1298 1298 1296 1296 1295 1295 1293 1293 1286 1286 1286 1289 1291 1291 1291 1288 1287 1282 1280 1278 1275 1274 1272 1268 1266 1262 1260 1254 1250 1248 1248 1247 1247 1244 1238 1234 1227 1225 1221 1221 1220 1220 1219 1215 1212 1202 1193 1193 1190 1185 1175 1163 1162 1161 1159 1158 1146 1130 1125 1124 1123 1116 1113 1106 1101 1094 1078 1054 1044 1033 1010 974 945 935 916 904 885 858 855 0 0 0 0 0 0 670 631 631 631 657 657 657 653 643 639 0 0 0 0 0 0 0 0 0 0 0 0 0 0 0 609 609
969 969 981 989 1006 1023 1035 1043 1049 1057 1064 1070 1076 1081 1085 1090 1093 1093 1093 1092 1047 0 0 0 0 0 0 0 0 0 1193 1208 1215 1225 1229 1233 1237 1242 1244 1245 1247 1247 1247 1246 1240 1238 1232 1204 1170 1167 1135 1135 1135 1135 1135 1126 1126 0 0 0 0 1588 1588 1588 1579 1571 1569 1557 1537 0 0 0 0 0 878 868 845 838 836 833 833 832 832 832 830 829 828 827 826 825 825 825 825 824 824 824 824 824 824 824 824 824 824 824 824 824 823 823 823 823 823 822 822 822 822 821 821 821 820 820 819 818 817 816 814 811 807 802 797 790 786 783 780 777 773 771 768 766 764 764 763 762 762 761 761 760 760 760 760 760 760 761 762 763 763 763 765 765 765 765 765 766 767 767 768 768 769 770 770 773 777 779 781 783 788 790 790 790 789 785 785 784 783 782 781 776 776 776 776 774 771 771 771 767 767 767 768 768 768 768 767 766 766 766 766 766 766 766 766 766 766 767 767 768 769 769 769 770 771 771 771 772 771 771 770 769 0 0 0 0 0 0 0 0 0 0 0 0 0 0 0 0 0 0 0 0 0 0 0 0 0 0 0 0 0 0 0 0 0 0 0 0 0 0 0 0 0 0 0 0 0 0 0 0 0 0 0 0 0 0 0 0 0 0 0 0 0 0 0 0 0 0 0 0 0 0 0 0 0 0 0 0 0 0 0 0 0 0 0 0 0 0 0 0 0 0 0 0 0 0 0 0 0 0 0 0 0 0 0 0 0 732 733 735 737 739 739 743 743 743 744 744 749 759 784 0 0 0 0 0 0 0 0 0 0 0 0 0 0 0 1542 1542 1542 1527 1510 1501 1501 1501 1507 1516 1525 1527 1533 1538 1542 1548 1552 1558 1561 1566 1566 1566 1568 1569 1569 1568 1565 0 0 0 0 0 0 0 0 1226 1226 1226 1230 1234 1238 1244 1246 1247 1249 1250 1250 1251 1255 1260 1264 1267 1268 1268 1269 1269 1269 1273 1279 1283 1285 1287 1287 1287 1288 1288 1289 1290 1291 1291 1292 1293 1293 1294 1295 1298 1299 1299 1299 1300 1300 1300 1300 1300 1300 1300 1299 1298 1298 1298 1298 1298 1299 1300 1301 1303 1304 1306 1307 1308 1309 1310 1310 1310 1310 1311 1311 1315 1315 1315 1312 1312 1312 1313 1316 1318 1318 1318 1317 1316 1315 1315 1315 1313 1311 1310 1309 1307 1306 1306 1306 1306 1308 1311 1311 1311 1312 1312 1313 1315 1325 1328 1329 1331 1331 1332 1332 1332 1328 1325 1320 1311 1302 1298 1291 1283 1266 1247 1247 1247 1250 1260 1260 1261 1262 1278 1293 1296 1296 1296 1296 1296 1295 1292 1288 1282 1282 1282 1282 1289 1290 1290 1290 1286 1284 1281 1278 1277 1275 1274 1271 1267 1262 1258 1255 1250 1246 1246 1246 1245 1245 1244 1241 1236 1227 1225 1221 1221 1220 1218 1214 1210 1205 1196 1189 1188 1185 1184 1175 1163 1162 1161 1159 1158 1144 1129 1125 1123 1122 1116 1113 1106 1101 1094 1078 1054 1043 1028 1010 989 967 942 916 908 898 879 0 0 0 0 0 0 0 0 630 630 630 638 640 640 640 640 633 603 0 0 0 0 0 0 0 0 0 0 0 0 0 0 0 0
969 969 979 987 1003 1020 1034 1042 1048 1054 1062 1068 1075 1080 1085 1089 1092 1092 1092 1089 0 0 0 0 0 0 0 0 0 0 1196 1206 1213 1223 1229 1233 1236 1240 1242 1243 1243 1243 1243 1241 1238 1235 1217 0 0 1138 1135 1135 1135 1135 1135 1147 1147 0 0 0 1570 1571 1571 1571 1557 1549 1547 1543 0 0 0 0 0 0 877 867 845 838 834 833 833 832 832 832 830 829 828 827 826 825 825 824 824 824 824 823 823 823 823 823 823 823 823 823 823 823 823 822 822 822 822 821 821 821 821 821 820 820 819 819 819 817 816 815 813 811 807 802 797 791 786 781 780 776 772 769 767 765 764 763 762 761 761 760 760 760 760 760 760 760 760 761 762 762 763 763 765 765 765 765 765 767 767 767 768 769 769 770 770 773 777 780 781 782 786 789 789 789 785 783 782 781 777 775 773 773 773 771 771 770 769 768 767 767 767 767 767 767 767 767 767 766 765 765 765 765 765 765 766 766 766 767 767 767 767 767 768 768 769 769 769 770 770 770 770 769 0 0 0 0 0 0 0 0 0 0 0 0 0 0 0 0 0 0 0 0 0 0 0 0 0 0 0 0 0 0 0 0 0 0 0 0 0 0 0 0 0 0 0 0 0 0 0 0 0 0 0 0 0 0 0 0 0 0 0 0 0 0 0 0 0 0 0 0 0 0 0 0 0 0 0 0 0 0 0 0 0 0 0 0 0 0 0 0 0 0 0 0 0 0 0 0 0 0 0 0 0 0 0 0 732 733 734 735 738 739 739 744 746 746 750 758 764 0 0 0 0 0 0 0 0 0 0 0 0 0 0 0 0 0 1553 1553 1553 1524 1511 1510 1510 1510 1514 1519 1525 1527 1533 1538 1543 1548 1552 1558 1561 1566 1566 1566 1569 1570 1573 1573 1573 1573 1563 0 0 0 0 0 0 0 0 1246 1243 1243 1243 1244 1246 1248 1250 1251 1252 1253 1258 1263 1268 1271 1271 1271 1269 1269 1269 1273 1279 1283 1285 1287 1288 1288 1288 1289 1289 1291 1293 1294 1294 1295 1295 1295 1297 1298 1299 1300 1301 1301 1301 1302 1302 1302 1302 1301 1300 1299 1299 1299 1299 1300 1300 1300 1301 1304 1305 1307 1308 1310 1310 1311 1311 1311 1311 1311 1311 1318 1322 1322 1322 1322 1320 1320 1320 1321 1321 1321 1318 1316 1315 1313 1312 1312 1311 1310 1309 1307 1306 1306 1306 1306 1310 1310 1311 1311 1311 1311 1311 1312 1312 1320 1323 1325 1326 1327 1328 1328 1328 1325 1323 1313 1304 1303 1298 1292 1283 1266 1250 1250 1244 1249 1250 1252 1257 1267 1272 1276 1284 1293 1295 1295 1295 1291 1288 1282 1278 1278 1278 1285 1289 1289 1289 1285 1281 1278 1278 1277 1275 1273 1270 1265 1261 1256 1253 1250 1245 1242 1242 1242 1242 1242 1241 1236 1235 1234 1232 1229 1222 1216 1212 1206 1200 1191 1185 1183 1182 1179 1172 1163 1162 1161 1159 1157 1142 1128 1120 1119 1119 1116 1113 1106 1101 1094 1078 1054 1032 1023 1014 1009 990 970 957 946 920 918 0 0 0 0 0 0 0 0 630 630 630 638 638 638 638 611 597 582 0 0 0 0 0 0 0 0 0 0 0 0 0 0 0 0
968 968 977 986 999 1015 1027 1038 1046 1052 1061 1067 1075 1080 1085 1089 1089 1089 1086 1067 0 0 0 0 0 0 0 0 0 0 1196 1206 1213 1222 1229 1232 1235 1239 1241 1241 1241 1241 1241 1241 1236 1224 0 0 0 1101 1101 1102 1151 1151 1151 1151 1151 0 0 0 1570 1570 1570 1560 1548 1541 1539 1537 0 0 0 0 0 0 0 851 842 838 833 832 832 832 832 832 830 829 828 827 826 825 824 824 822 822 822 822 822 822 822 822 822 822 823 822 822 822 822 822 821 821 821 821 820 820 820 820 820 820 819 818 818 817 816 814 813 811 807 802 797 791 784 778 774 772 770 767 765 764 763 761 761 760 760 759 759 759 759 759 759 759 760 761 761 762 762 763 764 764 765 765 765 767 767 767 768 769 770 770 770 774 778 778 780 780 784 786 786 786 778 778 777 777 776 775 771 771 771 769 768 768 767 766 766 766 766 765 765 766 765 765 765 765 765 765 765 765 764 765 765 765 766 766 766 766 766 766 767 767 767 767 767 769 770 770 770 770 0 0 0 0 0 0 0 0 0 0 0 0 0 0 0 0 0 0 0 0 0 0 0 0 0 0 0 0 0 0 0 0 0 0 0 0 0 0 0 0 0 0 0 0 0 0 0 0 0 0 0 0 0 0 0 0 0 0 0 0 0 0 0 0 0 0 0 0 0 0 0 0 0 0 0 0 0 0 0 0 0 0 0 0 0 0 0 0 0 0 0 0 0 0 0 0 0 0 0 0 0 731 732 732 733 734 734 735 739 739 741 746 747 749 757 766 776 0 0 0 0 0 0 0 0 0 0 0 0 0 0 0 0 1565 1565 1565 1542 1521 1518 1518 1518 1519 1520 1523 1525 1527 1533 1538 1545 1548 1551 1552 1554 1559 1566 1566 1568 1569 1572 1573 1573 1573 1570 1567 1565 1558 0 0 0 0 0 0 0 1270 1255 1253 1251 1251 1251 1252 1254 1258 1263 1268 1273 1273 1273 1271 1269 1269 1269 1274 1279 1284 1286 1287 1289 1289 1290 1291 1292 1293 1295 1295 1296 1297 1297 1298 1299 1299 1300 1301 1301 1302 1302 1303 1303 1303 1303 1301 1300 1300 1300 1300 1300 1301 1302 1302 1303 1304 1306 1308 1308 1310 1311 1311 1312 1312 1312 1313 1314 1319 1322 1324 1324 1324 1324 1324 1324 1324 1324 1323 1319 1316 1315 1313 1312 1312 1311 1310 1309 1307 1307 1307 1308 1309 1310 1310 1310 1311 1310 1310 1310 1306 1306 1306 1313 1319 1325 1326 1328 1328 1328 1325 1323 1322 1319 1317 1312 1305 1299 1289 1269 1252 1250 1249 1250 1252 1256 1260 1263 1265 1282 1291 1293 1293 1293 1291 1288 1282 1278 1277 1277 1278 1281 1281 1281 1280 1278 1278 1276 1276 1275 1273 1269 1264 1259 1255 1252 1250 1245 1239 1238 1238 1238 1238 1238 1236 1235 1234 1232 1229 1222 1216 1209 1206 1197 1189 1183 1183 1181 1174 1164 1156 1156 1154 1154 1154 1141 1125 1118 1115 1113 1110 1106 1097 1091 1076 1064 1044 1020 1014 1014 1013 1000 989 982 964 944 940 0 0 0 0 0 0 0 0 630 630 630 638 638 638 638 607 592 582 0 0 0 0 0 0 0 0 0 0 0 0 0 0 0 0
963 963 973 986 997 1006 1019 1030 1039 1050 1058 1065 1073 1080 1085 1088 1088 1088 1081 1060 0 0 0 0 0 0 0 0 0 0 1197 1206 1212 1222 1229 1232 1235 1236 1238 1240 1241 1241 1241 1241 1236 0 0 0 0 0 1101 1102 1147 1147 1147 1147 0 0 0 0 1562 1562 1562 1554 1541 1531 1530 1529 0 0 0 0 0 0 0 851 842 836 833 832 832 832 832 832 830 829 828 827 826 824 823 822 822 822 822 822 822 822 822 822 822 822 822 822 821 821 821 821 821 820 820 820 820 819 819 819 819 819 818 818 817 817 815 814 813 810 808 803 798 791 784 778 772 769 768 765 763 761 761 760 759 759 759 759 759 759 759 759 759 759 759 759 759 760 760 761 762 763 763 764 765 766 767 767 768 770 771 772 773 774 779 780 780 781 784 784 784 780 778 777 777 777 776 774 771 771 770 768 767 766 766 765 765 765 765 765 765 765 764 764 764 764 764 764 764 764 764 764 764 764 765 765 765 765 765 765 765 765 765 765 766 767 770 772 772 772 770 0 0 0 0 0 0 0 0 0 0 0 0 0 0 0 0 0 0 0 0 0 0 0 0 0 0 0 0 0 0 0 0 0 0 0 0 0 0 0 0 0 0 0 0 0 0 0 0 0 0 0 0 0 0 0 0 0 0 0 0 0 0 0 0 0 0 0 0 0 0 0 0 0 0 0 0 0 0 0 0 0 0 0 0 0 0 0 0 0 0 0 0 0 0 0 0 0 0 0 732 733 732 734 734 734 734 739 739 743 747 747 748 750 759 766 777 0 0 0 0 0 0 0 0 0 0 0 0 0 0 0 1574 1574 1574 1559 1529 1519 1519 1519 1522 1522 1524 1526 1530 1532 1536 1542 1546 1549 1550 1551 1552 1552 1555 1558 1564 1568 1572 1574 1574 1574 1571 1570 1569 1569 1566 0 0 0 0 0 0 0 0 1260 1257 1256 1256 1256 1260 1266 1271 1275 1275 1275 1274 1273 1271 1271 1271 1275 1281 1284 1286 1287 1289 1291 1292 1294 1295 1295 1296 1297 1297 1298 1298 1300 1300 1300 1300 1301 1302 1302 1303 1303 1303 1303 1303 1302 1301 1300 1300 1300 1301 1302 1303 1303 1305 1306 1306 1308 1308 1310 1311 1312 1313 1315 1315 1315 1317 1320 1322 1324 1324 1325 1325 1326 1326 1326 1326 1323 1321 1316 1315 1313 1312 1312 1311 1310 1309 1307 1307 1307 1309 1310 1310 1310 1310 1309 1309 1309 1309 1305 1305 1305 1308 1310 1315 1323 1324 1324 1324 1323 1323 1323 1322 1322 1322 1315 1308 1299 1282 1271 1253 1252 1252 1252 1251 1256 1256 1257 1259 1277 1289 1289 1289 1289 1288 1283 1278 1277 1277 1276 1272 1264 1264 1264 1270 1275 1275 1275 1275 1273 1268 1264 1259 1254 1252 1252 1246 1239 1235 1228 1223 1223 1223 1229 1232 1232 1232 1229 1222 1211 1209 1204 1197 1189 1183 1182 1181 1174 1160 1150 1147 1147 1145 1138 1129 1122 1117 1112 1109 1104 1098 1090 1081 1069 1053 1029 1014 1013 1007 1006 1000 990 982 964 950 940 920 0 0 0 0 0 0 0 684 658 657 656 641 640 638 607 592 582 0 0 0 0 0 0 0 0 0 0 0 0 0 0 0 0
958 958 969 981 992 1005 1018 1023 1038 1048 1053 1062 1072 1080 1085 1088 1088 1088 1081 1059 0 0 0 0 0 0 0 0 0 0 1197 1206 1212 1220 1228 1231 1232 1234 1235 1238 1241 1241 1241 1241 1234 0 0 0 0 0 1101 1102 1120 1120 1124 1124 0 0 0 0 1558 1558 1558 1548 1535 1524 1516 1515 0 0 0 0 0 0 0 851 842 835 832 831 831 831 831 831 830 829 828 827 826 824 822 821 821 821 821 821 820 820 820 821 821 821 821 821 821 821 821 820 820 820 820 819 819 819 819 819 818 818 818 818 817 816 815 814 812 810 808 803 798 792 784 778 772 768 765 763 761 760 759 758 758 758 758 758 757 757 757 757 757 757 757 758 758 759 760 761 761 762 762 764 764 766 767 767 769 770 773 774 775 776 779 781 782 782 784 784 784 780 778 777 777 776 774 774 771 770 770 768 766 766 766 765 765 765 764 764 763 763 763 762 763 763 763 763 763 763 763 763 763 763 763 763 764 764 764 764 764 764 764 764 765 766 768 772 772 772 770 0 0 0 0 0 0 0 0 0 0 0 0 0 0 0 0 0 0 0 0 0 0 0 0 0 0 0 0 0 0 0 0 0 0 0 0 0 0 0 0 0 0 0 0 0 0 0 0 0 0 0 0 0 0 0 0 0 0 0 0 0 0 0 0 0 0 0 0 0 0 0 0 0 0 0 0 0 0 0 0 0 0 0 0 0 0 0 0 0 0 0 0 0 0 0 0 0 0 735 735 735 733 733 733 734 734 739 740 743 750 752 755 759 765 775 782 0 0 0 0 0 0 0 0 0 0 0 0 0 0 0 1574 1574 1574 1544 1523 1520 1520 1520 1524 1525 1527 1530 1532 1535 1539 1543 1547 1550 1550 1551 1552 1552 1554 1556 1558 1565 1572 1573 1573 1573 1572 1570 1570 1570 1569 1568 1559 0 0 0 0 0 0 0 0 1260 1260 1260 1260 1266 1271 1275 1275 1275 1275 1275 1275 1276 1278 1282 1282 1285 1287 1288 1290 1292 1295 1296 1296 1298 1298 1299 1299 1299 1299 1301 1301 1301 1302 1302 1302 1302 1303 1303 1303 1303 1303 1302 1301 1301 1301 1302 1302 1303 1303 1304 1305 1306 1307 1308 1308 1310 1311 1312 1313 1315 1317 1319 1320 1320 1322 1324 1324 1325 1325 1326 1326 1326 1326 1324 1321 1320 1316 1315 1314 1313 1313 1312 1311 1309 1309 1309 1310 1310 1310 1310 1306 1305 1305 1305 1304 1304 1305 1305 1305 1307 1315 1323 1323 1323 1323 1322 1322 1322 1322 1322 1322 1315 1308 1304 1294 1284 1283 1279 1272 1257 1256 1256 1251 1251 1251 1266 1284 1285 1288 1288 1288 1285 1283 1283 1282 1277 1272 1264 1264 1264 1264 1272 1275 1275 1275 1270 1265 1263 1259 1254 1252 1252 1252 1239 1235 1228 1218 1218 1218 1221 1225 1225 1225 1225 1218 1208 1205 1204 1197 1189 1183 1182 1181 1174 1160 1150 1147 1142 1137 1129 1120 1115 1110 1103 1099 1093 1089 1085 1074 1050 1032 1008 1008 1008 1001 1001 1001 990 982 965 955 940 932 909 0 0 0 0 0 0 688 686 675 658 657 648 643 607 592 587 0 0 0 0 0 0 0 0 0 0 0 0 0 0 0 0
958 958 969 980 986 996 1012 1023 1038 1048 1053 1061 1070 1080 1085 1087 1087 1087 1081 0 0 0 0 0 0 0 0 0 0 0 1197 1206 1209 1213 1220 1226 1229 1229 1232 1237 1241 1241 1241 1241 1232 0 0 0 0 0 1159 1159 1159 1157 1125 1125 0 0 0 1536 1549 1549 1549 1542 1533 1520 1503 1479 0 0 0 0 0 0 0 861 836 835 833 831 831 831 833 831 831 831 828 828 826 824 822 821 820 820 820 820 820 820 820 820 820 820 820 820 820 820 820 819 819 819 819 819 819 818 818 818 818 818 818 817 817 816 815 813 812 810 808 804 798 793 785 778 771 768 764 761 760 759 758 758 758 757 757 757 757 757 757 757 757 757 757 757 758 759 760 761 761 762 762 764 764 766 767 770 770 773 774 775 776 777 779 781 782 783 784 784 784 780 778 777 776 774 772 771 770 769 768 767 766 765 765 765 764 764 763 763 761 761 761 761 761 762 762 762 762 762 762 762 762 762 762 762 763 763 763 763 763 763 763 763 763 766 767 770 770 770 762 0 0 0 0 0 0 0 0 0 0 0 0 0 0 0 0 0 0 0 0 0 0 0 0 0 0 0 0 0 0 0 0 0 0 0 0 0 0 0 0 0 0 0 0 0 0 0 0 0 0 0 0 0 0 0 0 0 0 0 0 0 0 0 0 0 0 0 0 0 0 0 0 0 0 0 0 0 0 0 0 0 0 0 0 0 0 0 0 0 0 0 0 0 0 0 0 0 731 735 735 735 733 730 730 730 734 739 740 743 756 760 772 786 793 793 793 811 0 0 0 0 0 0 0 0 0 0 0 0 0 1568 1568 1568 1543 1521 1517 1517 1517 1520 1525 1526 1528 1531 1535 1539 1541 1545 1548 1550 1551 1551 1552 1552 1554 1556 1558 1561 1563 1571 1573 1573 1573 1570 1570 1570 1572 1573 1573 1573 1566 0 0 0 0 0 0 0 0 1266 1266 1266 1271 1275 1276 1277 1279 1279 1284 1284 1285 1287 1287 1287 1288 1288 1290 1292 1295 1297 1299 1299 1300 1301 1301 1301 1301 1302 1302 1302 1303 1303 1303 1303 1304 1304 1304 1304 1303 1302 1302 1302 1302 1302 1302 1303 1303 1304 1305 1306 1307 1307 1308 1310 1311 1312 1313 1315 1317 1319 1320 1321 1322 1324 1324 1324 1325 1326 1327 1327 1327 1324 1323 1323 1319 1317 1316 1316 1315 1315 1313 1312 1311 1311 1311 1311 1311 1309 1305 1302 1302 1302 1299 1298 1300 1300 1300 1306 1314 1322 1322 1322 1322 1321 1321 1321 1322 1322 1322 1315 1308 1304 1303 1291 1289 1286 1286 1285 1256 1256 1251 1251 1251 1252 1270 1280 1282 1285 1285 1285 1284 1283 1282 1281 1272 1264 1262 1262 1262 1267 1267 1267 1267 1264 1260 1260 1258 1253 1252 1252 1252 1246 1235 1228 1218 1215 1215 1215 1216 1219 1219 1219 1216 1208 1205 1204 1199 1191 1185 1182 1181 1174 1160 1149 1145 1141 1135 1126 1120 1113 1110 1103 1094 1089 1081 1076 1062 1037 1006 986 986 986 986 990 990 990 973 964 958 946 934 923 882 0 0 0 0 0 0 696 686 658 657 648 644 634 620 602 0 0 0 0 0 0 0 0 0 0 0 0 0 0 0 0
957 957 969 980 986 996 1012 1023 1038 1049 1053 1060 1069 1079 1086 1087 1087 1087 1080 0 0 0 0 0 0 0 0 0 0 1166 1192 1197 1204 1209 1214 1220 1224 1226 1229 1235 1240 1241 1241 1241 1226 0 0 0 0 0 1159 1159 1159 1151 1122 1122 0 0 0 1536 1536 1536 1536 1532 1524 1513 1489 0 0 0 0 0 0 0 0 865 848 835 833 831 831 831 833 834 834 834 829 828 826 824 822 819 819 818 818 818 819 819 819 819 820 820 820 820 820 819 819 819 819 818 818 818 818 818 818 817 817 817 817 817 817 815 814 812 811 810 808 805 800 793 785 778 772 768 763 760 758 758 758 758 757 757 757 756 756 756 756 756 756 756 757 757 758 759 760 761 761 762 762 764 764 766 768 771 772 774 775 777 778 779 781 782 783 784 784 784 784 781 778 778 776 773 771 770 769 768 767 767 766 764 764 763 763 763 762 761 760 760 760 760 760 760 760 761 761 761 761 761 761 762 762 762 762 762 762 762 762 762 762 762 763 764 764 764 764 762 757 757 0 0 0 0 0 0 0 0 0 0 0 0 0 0 0 0 0 0 0 0 0 0 0 0 0 0 0 0 0 0 0 0 0 0 0 0 0 0 0 0 0 0 0 0 0 0 0 0 0 0 0 0 0 0 0 0 0 0 0 0 0 0 0 0 0 0 0 0 0 0 0 0 0 0 0 0 0 0 0 0 0 0 0 0 0 0 0 0 0 0 0 0 727 728 729 729 731 735 735 735 735 727 727 727 734 738 740 743 756 774 790 801 805 805 809 818 848 851 0 0 0 0 0 0 0 0 0 0 1549 1549 1549 1548 1514 1512 1512 1512 1517 1520 1526 1527 1530 1535 1538 1541 1543 1547 1550 1551 1552 1553 1553 1554 1554 1556 1558 1561 1562 1563 1569 1570 1570 1570 1570 1570 1572 1573 1573 1573 1569 1565 1559 0 0 0 0 0 0 0 0 1274 1274 1275 1276 1277 1284 1291 1293 1294 1294 1293 1293 1292 1290 1290 1290 1292 1295 1297 1299 1301 1303 1303 1303 1303 1303 1303 1304 1304 1304 1305 1305 1305 1304 1304 1304 1304 1303 1303 1302 1302 1302 1302 1303 1303 1303 1304 1305 1306 1307 1307 1308 1310 1311 1313 1314 1315 1317 1319 1321 1321 1322 1324 1324 1324 1325 1326 1327 1327 1327 1327 1326 1325 1323 1320 1316 1316 1316 1315 1315 1315 1314 1312 1312 1311 1309 1307 1303 1301 1299 1298 1297 1295 1295 1295 1298 1302 1314 1321 1321 1321 1315 1313 1313 1313 1319 1319 1319 1314 1307 1304 1304 1303 1302 1293 1291 1287 1270 1261 1251 1244 1244 1244 1248 1254 1261 1270 1282 1283 1283 1283 1283 1283 1275 1269 1264 1263 1261 1261 1259 1257 1251 1251 1251 1251 1251 1252 1252 1249 1246 1246 1235 1228 1218 1215 1214 1214 1214 1215 1216 1216 1216 1208 1205 1205 1204 1197 1186 1182 1181 1174 1160 1149 1143 1141 1134 1125 1119 1112 1108 1103 1094 1087 1080 1071 1059 1037 1006 986 984 984 984 984 984 979 973 964 961 953 950 923 910 0 0 0 0 0 0 0 0 650 650 650 648 645 623 605 602 0 0 0 0 0 0 0 0 0 0 0 0 0 0 367
957 957 971 980 986 996 1012 1028 1040 1050 1053 1060 1068 1079 1086 1087 1087 1087 1079 0 0 0 0 0 0 0 0 0 0 1166 1183 1189 1199 1204 1210 1216 1222 1224 1228 1234 1239 1239 1239 1239 0 0 0 0 0 0 1162 1162 1162 1145 1141 1141 0 0 0 1532 1532 1532 1521 1519 1510 1491 0 0 0 0 0 0 0 0 0 870 850 838 836 833 833 833 835 836 836 836 832 831 828 827 823 819 818 817 817 817 817 817 818 818 818 819 819 819 819 819 818 818 818 817 817 817 817 817 817 816 816 816 816 816 816 815 813 812 811 810 808 805 800 794 785 778 772 767 762 758 757 757 757 757 757 757 756 755 755 755 755 755 756 756 757 757 759 759 761 763 763 764 765 766 768 769 771 774 775 775 777 780 780 781 782 783 784 784 784 784 784 781 779 777 776 773 771 769 767 766 765 764 764 763 762 762 761 761 760 759 759 759 759 759 759 759 759 760 760 760 760 760 760 761 761 761 761 761 761 761 761 761 761 760 760 760 761 761 761 758 756 756 755 0 0 0 0 0 0 0 0 0 0 0 0 0 0 0 0 0 0 0 0 0 0 0 0 0 0 0 0 0 0 0 0 0 0 0 0 0 0 0 0 0 0 0 0 0 0 0 0 0 0 0 0 0 0 0 0 0 0 0 0 0 0 0 0 0 0 0 0 0 0 0 0 0 0 0 0 0 0 0 0 0 0 0 0 0 0 0 0 0 0 0 730 728 728 728 730 734 738 738 738 727 727 727 734 738 740 743 757 779 795 807 814 818 825 834 848 851 857 0 0 0 0 0 0 0 0 0 1556 1556 1556 1523 1503 1503 1503 1509 1517 1521 1527 1529 1534 1536 1539 1542 1545 1548 1551 1552 1554 1554 1555 1555 1556 1558 1559 1561 1562 1562 1563 1568 1569 1569 1570 1570 1572 1573 1573 1573 1571 1567 1560 1557 1552 0 0 0 0 0 0 0 0 1276 1276 1281 1291 1298 1304 1304 1304 1302 1298 1292 1291 1291 1291 1291 1293 1297 1299 1302 1304 1305 1305 1305 1305 1305 1305 1305 1305 1305 1305 1305 1305 1305 1305 1304 1304 1304 1304 1303 1303 1303 1303 1303 1304 1304 1305 1305 1306 1307 1308 1310 1311 1313 1314 1315 1317 1319 1321 1321 1322 1323 1323 1323 1324 1324 1324 1326 1327 1327 1327 1326 1324 1320 1316 1316 1316 1315 1315 1315 1314 1313 1312 1312 1309 1305 1303 1301 1299 1298 1297 1295 1295 1295 1298 1302 1314 1315 1315 1315 1308 1307 1307 1307 1310 1311 1311 1311 1304 1304 1304 1303 1302 1295 1295 1293 1292 1282 1269 1247 1241 1241 1237 1237 1237 1244 1253 1272 1277 1280 1283 1283 1283 1279 1272 1266 1261 1257 1256 1251 1249 1249 1249 1249 1249 1249 1249 1246 1246 1246 1235 1230 1227 1224 1218 1215 1215 1215 1215 1215 1215 1209 1208 1208 1207 1197 1186 1182 1180 1174 1160 1149 1143 1140 1134 1124 1117 1110 1104 1102 1094 1087 1078 1069 1058 1037 1006 986 984 984 984 984 984 979 973 965 964 953 951 940 917 902 897 0 0 0 0 0 0 0 650 650 650 640 624 623 623 623 0 0 0 0 0 0 0 0 0 0 0 0 364 364
959 959 972 983 992 1004 1018 1029 1040 1049 1053 1059 1068 1079 1086 1087 1087 1087 1073 0 0 0 0 0 0 0 0 0 0 1162 1179 1189 1199 1203 1208 1213 1221 1222 1228 1231 1232 1232 1232 1229 0 0 0 0 0 0 1147 1147 1147 1141 1141 1141 0 0 0 0 1520 1520 1510 1501 0 0 0 0 0 0 0 0 0 0 905 868 852 845 843 841 836 836 836 837 837 837 836 835 833 831 823 819 816 816 816 816 817 817 817 817 817 818 818 818 818 818 818 817 817 817 817 817 816 816 816 816 816 816 816 815 814 814 813 812 811 810 808 805 800 794 786 780 771 767 761 756 756 756 756 756 756 756 756 755 755 755 755 755 756 756 757 759 760 760 762 764 766 767 768 770 771 773 776 777 778 778 780 781 782 783 784 784 785 785 785 784 784 782 779 778 776 773 771 768 766 764 764 763 762 762 761 761 760 760 759 758 758 758 758 758 758 758 758 758 759 759 759 759 759 759 759 759 759 759 759 759 759 759 759 758 758 758 758 756 756 756 753 753 752 0 0 0 0 0 0 0 0 0 0 0 0 0 0 0 0 0 0 0 0 0 0 0 0 0 0 0 0 0 0 0 0 0 0 0 0 0 0 0 0 0 0 0 0 0 0 0 0 0 0 0 0 0 0 0 0 0 0 0 0 0 0 0 0 0 0 0 0 0 0 0 0 0 0 0 0 0 0 0 0 0 0 0 0 0 0 0 0 0 0 733 732 729 729 729 730 733 738 738 738 727 727 727 734 738 740 750 763 780 796 808 814 820 836 845 848 851 857 863 0 0 0 0 0 0 0 0 1554 1554 1530 1497 1497 1497 1503 1509 1517 1523 1528 1532 1534 1536 1539 1542 1545 1549 1551 1553 1555 1555 1556 1557 1559 1559 1560 1561 1562 1562 1563 1565 1568 1569 1569 1569 1569 1572 1572 1572 1572 1567 1562 1562 1560 1560 1553 1533 0 0 0 0 0 0 0 1289 1298 1304 1304 1304 1304 1302 1298 1292 1291 1291 1291 1291 1293 1297 1300 1304 1305 1305 1305 1306 1306 1306 1305 1305 1305 1305 1305 1305 1305 1305 1305 1305 1305 1305 1305 1305 1303 1303 1303 1303 1304 1304 1305 1305 1306 1307 1308 1310 1311 1313 1314 1315 1317 1319 1320 1321 1322 1322 1322 1322 1322 1322 1322 1325 1327 1327 1327 1326 1324 1320 1316 1316 1316 1315 1315 1315 1314 1314 1314 1312 1309 1305 1303 1303 1301 1301 1298 1295 1295 1295 1298 1301 1308 1310 1310 1310 1302 1301 1301 1301 1307 1307 1307 1304 1301 1301 1301 1301 1302 1302 1301 1299 1298 1293 1287 1272 1241 1241 1235 1234 1234 1235 1240 1257 1271 1280 1283 1283 1283 1279 1278 1266 1261 1257 1255 1251 1247 1247 1245 1245 1245 1240 1238 1238 1238 1238 1235 1230 1227 1224 1221 1215 1214 1212 1212 1212 1212 1209 1208 1208 1207 1197 1186 1175 1170 1159 1144 1142 1140 1140 1134 1123 1117 1110 1104 1103 1095 1088 1077 1066 1056 1047 1032 1004 984 984 984 984 984 979 973 973 970 969 964 956 930 919 913 895 0 0 0 0 0 0 0 650 650 640 624 624 624 636 636 0 0 0 0 0 0 0 0 0 0 0 338 338
959 959 972 983 992 1005 1018 1029 1040 1049 1051 1058 1065 1077 1086 1086 1086 1085 1070 0 0 0 0 0 0 0 0 0 0 1159 1177 1188 1195 1202 1206 1209 1216 1220 1222 1222 1222 1222 1222 0 0 0 0 0 0 0 1145 1145 1145 1139 1139 1139 0 0 0 0 0 0 0 0 0 0 0 0 0 0 0 0 0 0 888 868 852 845 845 843 843 846 847 847 847 844 841 838 835 831 823 815 815 815 815 815 816 816 816 816 817 817 817 817 817 817 817 816 816 816 816 816 816 815 815 815 815 815 815 814 814 813 812 811 810 808 807 804 800 794 787 780 771 767 761 756 755 755 755 755 755 755 754 754 754 754 754 755 756 757 759 759 760 761 763 766 768 770 771 771 773 775 776 778 780 780 781 783 784 785 785 785 785 785 785 784 784 782 779 778 776 773 771 768 766 764 763 762 761 760 760 760 759 759 758 758 758 758 758 757 757 757 757 757 757 757 757 757 757 758 758 758 757 757 757 757 757 758 758 758 758 757 757 756 755 755 753 753 753 0 0 0 0 0 0 0 0 0 0 0 0 0 0 0 0 0 0 0 0 0 0 0 0 0 0 0 0 0 0 0 0 0 0 0 0 0 0 0 0 0 0 0 0 0 0 0 0 0 0 0 0 0 0 0 0 0 0 0 0 0 0 0 0 0 0 0 0 0 0 0 0 0 0 0 0 0 0 0 0 0 0 0 0 0 0 0 732 732 734 734 732 732 731 731 731 732 735 735 735 730 730 730 734 742 749 757 773 786 798 808 814 820 836 845 848 851 854 860 0 0 0 0 0 0 0 1543 1543 1543 1504 1497 1497 1497 1503 1509 1518 1523 1528 1532 1534 1536 1539 1542 1545 1549 1551 1553 1555 1556 1557 1559 1559 1561 1561 1562 1562 1562 1563 1565 1566 1566 1566 1567 1567 1568 1570 1570 1570 1570 1569 1569 1569 1569 1567 1558 1551 0 0 0 0 0 0 0 1309 1309 1309 1309 1304 1302 1298 1291 1291 1291 1291 1291 1293 1297 1301 1304 1305 1305 1305 1306 1306 1306 1306 1305 1304 1304 1304 1305 1305 1305 1305 1305 1305 1305 1305 1305 1305 1305 1305 1305 1304 1305 1305 1305 1306 1306 1308 1310 1311 1313 1314 1315 1317 1318 1319 1319 1321 1321 1321 1320 1320 1320 1320 1322 1322 1325 1325 1325 1324 1319 1316 1316 1316 1315 1315 1315 1314 1314 1314 1312 1309 1305 1305 1304 1303 1303 1300 1297 1297 1297 1298 1301 1306 1306 1306 1305 1299 1298 1298 1298 1298 1298 1298 1292 1292 1292 1298 1301 1301 1301 1301 1299 1298 1297 1291 1285 1269 1241 1235 1234 1234 1235 1239 1248 1256 1262 1267 1279 1279 1279 1278 1266 1258 1257 1255 1251 1247 1247 1244 1242 1241 1234 1234 1234 1234 1234 1234 1230 1227 1224 1221 1215 1209 1208 1208 1207 1207 1207 1207 1207 1207 1197 1185 1170 1157 1146 1140 1138 1135 1135 1134 1123 1117 1110 1108 1104 1096 1089 1078 1066 1057 1057 1055 1052 1046 1012 1002 998 990 989 985 985 975 975 975 956 933 919 913 895 863 824 798 0 0 0 0 0 658 640 623 623 623 636 636 636 0 0 0 0 0 0 0 0 0 0 0 334
958 958 972 983 993 1007 1018 1029 1036 1043 1049 1050 1058 1068 1079 1084 1084 1084 0 0 0 0 0 0 0 0 0 0 0 1158 1173 1187 1194 1201 1202 1202 1208 1214 1215 1215 1215 1215 1214 0 0 0 0 0 0 0 1143 1143 1143 1126 1126 1126 0 0 0 0 0 0 0 0 0 0 0 0 0 0 0 0 0 890 885 868 852 846 846 846 851 855 856 862 862 862 854 844 835 831 812 812 812 813 815 815 815 815 815 815 816 816 816 816 816 816 816 816 816 815 815 815 815 814 814 814 814 814 814 813 813 812 812 811 810 807 805 802 800 794 790 780 772 766 761 756 754 753 753 753 752 752 752 752 752 754 755 755 756 758 759 760 761 762 766 768 769 770 771 772 773 776 778 779 781 782 783 784 785 785 785 785 785 785 785 784 784 782 780 778 776 774 771 768 765 764 763 761 761 759 759 759 759 759 758 757 757 757 757 757 756 756 756 756 756 756 756 756 756 757 757 757 756 756 756 756 756 756 756 756 756 755 754 751 750 748 748 748 753 762 0 0 0 0 0 0 0 0 0 0 0 0 0 0 0 0 0 0 0 0 0 0 0 0 0 0 0 0 0 0 0 0 0 0 0 0 0 0 0 0 0 0 0 0 0 0 0 0 0 0 0 0 0 0 0 0 0 0 0 0 0 0 0 0 0 0 0 0 0 0 0 0 0 0 0 0 0 0 0 0 0 0 0 732 734 734 735 735 735 735 735 731 730 730 730 730 732 733 734 735 735 735 744 754 762 771 783 795 803 811 816 820 836 845 848 851 854 860 875 0 0 0 0 0 0 1513 1513 1513 1493 1493 1493 1500 1507 1513 1518 1523 1528 1532 1534 1536 1537 1540 1545 1549 1551 1553 1555 1556 1557 1559 1559 1561 1562 1562 1563 1563 1563 1565 1566 1566 1566 1567 1567 1568 1569 1569 1571 1572 1574 1574 1575 1575 1575 1571 1566 1565 1562 1555 0 0 0 0 0 0 1311 1310 1305 1302 1298 1291 1291 1291 1294 1295 1296 1299 1302 1303 1304 1305 1305 1306 1307 1307 1307 1306 1304 1304 1304 1305 1305 1305 1304 1304 1304 1305 1305 1305 1305 1305 1305 1305 1305 1305 1305 1305 1305 1305 1307 1309 1311 1313 1314 1314 1316 1317 1318 1318 1318 1318 1318 1318 1318 1320 1320 1321 1322 1325 1325 1325 1324 1319 1316 1316 1316 1315 1315 1316 1315 1314 1314 1312 1309 1305 1305 1305 1305 1305 1303 1300 1298 1298 1298 1301 1303 1303 1303 1301 1296 1295 1295 1294 1294 1290 1289 1287 1287 1287 1290 1295 1297 1298 1299 1299 1298 1297 1293 1286 1280 1272 1257 1248 1239 1239 1239 1240 1242 1244 1253 1268 1274 1274 1274 1264 1257 1257 1255 1252 1247 1247 1245 1242 1241 1233 1229 1229 1229 1230 1230 1230 1227 1222 1221 1214 1207 1199 1199 1197 1197 1197 1197 1197 1197 1193 1183 1163 1149 1135 1135 1135 1134 1134 1134 1123 1117 1110 1108 1105 1098 1091 1078 1066 1057 1057 1056 1052 1046 1023 1019 1004 992 989 985 985 978 975 975 956 933 919 913 895 863 833 821 814 0 0 0 0 0 673 619 619 619 634 634 634 0 0 0 0 0 0 0 0 0 0 0 312
958 958 971 980 994 1007 1017 1024 1028 1030 1038 1046 1055 1058 1068 1079 1079 1079 0 0 0 0 0 0 0 0 0 0 0 1150 1164 1171 1176 1180 1184 1187 1193 1204 1209 1209 1209 1209 1204 0 0 0 0 0 0 0 1143 1143 1143 1128 1128 1128 1146 0 0 0 0 0 0 0 0 0 0 0 0 0 0 0 897 886 876 868 853 849 849 849 852 866 874 884 884 884 881 845 814 813 812 812 812 813 814 814 814 814 814 814 815 815 815 815 815 815 815 814 814 814 814 814 814 814 814 814 813 813 813 813 813 812 811 811 810 807 805 802 800 794 791 785 773 766 761 756 754 752 751 751 751 751 751 752 752 754 755 755 756 758 759 760 762 763 766 769 770 771 772 774 775 777 778 780 781 782 784 784 785 785 785 786 786 786 785 784 784 782 781 778 776 774 771 767 765 763 762 760 759 758 758 758 758 758 758 757 757 757 756 755 755 755 755 755 755 755 755 755 755 755 754 754 754 753 753 753 753 753 754 754 753 753 751 747 747 747 747 748 753 763 763 0 0 0 0 0 0 0 0 0 0 0 0 0 0 0 0 0 0 0 0 0 0 0 0 0 0 0 0 0 0 0 0 0 0 0 0 0 0 0 0 0 0 0 0 0 0 0 0 0 0 0 0 0 0 0 0 0 0 0 0 0 0 0 0 0 0 0 0 0 0 0 0 0 0 0 0 0 0 0 0 0 732 733 734 734 734 734 734 735 735 735 731 728 728 728 732 734 735 736 736 742 754 767 775 784 797 808 814 816 816 820 836 839 848 854 857 860 875 0 0 0 0 0 0 1524 1524 1503 1495 1495 1495 1502 1507 1513 1518 1521 1526 1530 1533 1536 1537 1539 1542 1546 1550 1553 1555 1556 1557 1559 1559 1561 1562 1563 1563 1563 1564 1566 1566 1566 1566 1567 1567 1568 1569 1569 1571 1572 1574 1574 1575 1575 1575 1572 1571 1567 1563 1555 1548 0 0 0 0 0 0 0 0 1302 1298 1294 1294 1294 1297 1300 1301 1304 1305 1305 1305 1305 1305 1306 1307 1307 1307 1305 1304 1304 1304 1304 1304 1304 1304 1304 1304 1305 1306 1306 1306 1306 1306 1306 1306 1305 1305 1304 1304 1305 1306 1307 1309 1312 1312 1314 1314 1317 1317 1317 1315 1315 1315 1316 1318 1319 1320 1321 1322 1325 1325 1325 1323 1319 1319 1319 1320 1320 1320 1320 1320 1316 1314 1311 1308 1305 1305 1305 1305 1305 1303 1303 1300 1300 1300 1301 1301 1301 1301 1299 1295 1294 1293 1293 1292 1289 1289 1287 1287 1287 1289 1289 1289 1290 1294 1297 1297 1297 1293 1287 1285 1278 1270 1262 1251 1244 1239 1239 1239 1239 1239 1260 1260 1260 1257 1257 1257 1257 1257 1257 1256 1251 1250 1248 1241 1233 1228 1228 1227 1226 1226 1226 1226 1220 1215 1211 1205 1197 1195 1191 1189 1189 1188 1187 1181 1178 1166 1161 1145 1127 1109 1109 1109 1122 1122 1122 1115 1114 1111 1111 1107 1096 1080 1066 1058 1058 1057 1052 1046 1023 1019 1004 992 989 985 985 978 975 975 951 933 916 910 890 863 833 821 814 791 0 0 0 0 0 630 630 630 634 634 634 0 0 0 0 0 0 0 0 0 0 0 312
953 953 966 979 993 1007 1017 1021 1023 1027 1038 1046 1055 1058 1065 1072 1072 1072 0 0 0 0 0 0 0 0 0 0 0 1150 1159 1165 1167 1170 1174 1179 1184 1193 1200 1200 1200 1200 0 0 0 0 0 0 0 0 1129 1129 1129 1140 1140 1140 1146 0 0 0 0 1297 1299 1299 0 0 0 0 0 0 0 908 885 876 875 863 853 852 852 852 861 871 880 889 896 896 896 0 812 809 809 809 812 813 813 813 813 813 813 813 813 813 814 814 814 814 814 814 814 813 813 813 813 813 813 813 813 813 813 812 812 812 811 810 809 807 805 802 799 796 793 789 778 766 761 755 753 752 751 751 751 751 751 752 752 754 755 756 758 759 761 761 762 764 767 770 773 775 775 775 777 780 782 783 783 784 785 785 786 786 786 786 786 786 784 784 784 782 781 778 775 774 770 767 764 763 761 759 759 758 757 757 757 756 756 756 756 756 756 755 754 754 754 754 754 753 753 753 752 752 752 752 752 752 752 752 752 751 751 751 751 750 750 747 747 747 747 751 753 763 763 0 0 0 0 0 0 0 0 0 0 0 0 0 0 0 0 0 0 0 0 0 0 0 0 0 0 0 0 0 0 0 0 0 0 0 0 0 0 0 0 0 0 0 0 0 0 0 0 0 0 0 0 0 0 0 0 0 0 0 0 0 0 0 0 0 0 0 0 0 0 0 0 0 0 0 0 0 0 0 0 732 735 735 734 734 731 731 734 736 736 736 733 732 732 732 732 737 737 737 739 749 765 778 783 790 804 817 817 820 822 822 836 839 848 854 858 860 875 0 0 0 0 0 0 1529 1529 1495 1495 1495 1497 1503 1508 1513 1517 1521 1525 1529 1532 1535 1537 1539 1541 1544 1548 1552 1554 1556 1557 1559 1559 1561 1562 1563 1563 1565 1565 1566 1566 1566 1566 1567 1567 1568 1568 1569 1570 1572 1574 1574 1575 1575 1575 1572 1571 1567 1565 1562 1555 1552 1550 1547 0 0 0 0 0 0 0 1307 1305 1305 1307 1307 1308 1308 1308 1306 1305 1305 1305 1306 1308 1308 1308 1305 1305 1305 1305 1305 1305 1304 1304 1304 1304 1306 1307 1307 1307 1307 1307 1307 1306 1305 1304 1304 1304 1304 1304 1305 1307 1309 1311 1312 1313 1315 1315 1315 1314 1314 1314 1314 1317 1319 1319 1319 1322 1324 1324 1324 1323 1323 1323 1325 1327 1327 1327 1324 1320 1316 1313 1310 1308 1305 1305 1305 1305 1305 1303 1303 1302 1301 1301 1301 1300 1300 1299 1297 1294 1293 1292 1291 1290 1288 1287 1287 1287 1287 1287 1288 1288 1288 1288 1289 1291 1291 1291 1287 1285 1278 1271 1267 1260 1258 1254 1244 1239 1239 1239 1251 1251 1251 1249 1249 1249 1254 1256 1257 1257 1256 1253 1249 1245 1233 1228 1227 1223 1222 1222 1220 1219 1218 1211 1204 1200 1197 1193 1190 1189 1187 1185 1183 1177 1172 1166 1155 1143 1123 1103 1103 1103 1119 1119 1119 1115 1114 1112 1112 1111 1106 1095 1076 1058 1049 1045 1041 1033 1023 1019 1004 992 988 979 978 977 974 958 932 905 887 855 842 833 821 821 814 791 789 0 0 0 0 652 652 658 658 658 645 0 0 0 0 0 0 0 0 0 0 0 312
950 950 960 974 992 1007 1017 1020 1022 1026 1038 1045 1051 1058 1065 1067 1067 1067 0 0 0 0 0 0 0 0 0 0 1129 1149 1156 1160 1162 1165 1171 1174 1175 1178 1178 1178 1175 1175 0 0 0 0 0 0 0 0 1129 1135 1136 1138 1138 1140 1145 1164 0 0 1275 1291 1292 1292 0 0 0 0 0 0 0 874 874 867 864 858 856 856 856 867 874 880 887 892 896 896 896 0 810 808 808 808 810 812 813 813 813 812 812 812 812 812 813 813 813 813 813 813 813 813 813 813 813 813 813 813 813 813 813 812 811 811 811 810 808 807 805 802 799 796 793 789 780 771 762 755 752 749 749 749 749 749 751 752 753 754 755 757 759 761 762 764 764 767 768 771 775 777 778 779 779 781 783 784 784 785 786 786 786 786 786 786 786 786 785 784 784 782 781 778 774 773 770 766 763 760 759 759 757 756 756 755 755 755 755 755 754 754 753 753 753 753 753 752 752 752 752 751 750 750 750 750 750 750 750 750 750 750 750 750 750 750 749 747 747 747 749 751 753 763 763 0 0 0 0 0 0 0 0 0 0 0 0 0 0 0 0 0 0 0 0 0 0 0 0 0 0 0 0 0 0 0 0 0 0 0 0 0 0 0 0 0 0 0 0 0 0 0 0 0 0 0 0 0 0 0 0 0 0 0 0 0 0 0 0 0 0 0 0 0 0 0 0 0 0 0 0 0 0 0 733 736 738 738 738 738 735 732 732 732 736 736 736 735 735 735 736 738 738 741 747 760 767 789 795 805 821 831 831 831 831 831 838 839 848 854 860 873 0 0 0 0 0 0 1512 1512 1512 1496 1496 1496 1500 1504 1508 1513 1517 1521 1525 1529 1532 1535 1537 1539 1541 1544 1547 1551 1553 1555 1556 1558 1559 1561 1562 1563 1564 1565 1565 1566 1566 1566 1566 1567 1567 1568 1568 1569 1569 1569 1573 1573 1573 1573 1572 1572 1571 1567 1566 1564 1561 1559 1559 1559 1558 1552 0 0 0 0 0 0 0 0 1316 1315 1314 1311 1308 1307 1305 1305 1305 1307 1308 1308 1308 1305 1305 1305 1305 1305 1305 1304 1304 1304 1304 1307 1308 1308 1308 1308 1307 1307 1306 1305 1304 1303 1303 1303 1303 1303 1304 1305 1307 1308 1311 1312 1313 1313 1313 1311 1311 1311 1313 1314 1315 1316 1316 1320 1320 1320 1320 1320 1320 1325 1327 1327 1327 1324 1320 1316 1311 1306 1305 1305 1304 1304 1304 1303 1303 1303 1302 1301 1301 1301 1300 1298 1297 1295 1294 1292 1290 1289 1288 1288 1287 1287 1286 1286 1286 1286 1286 1286 1285 1285 1285 1285 1285 1285 1285 1278 1271 1269 1267 1262 1258 1249 1239 1236 1236 1236 1240 1242 1242 1243 1243 1246 1256 1257 1257 1256 1253 1249 1245 1240 1235 1227 1221 1219 1218 1217 1217 1217 1208 1204 1200 1197 1191 1187 1186 1186 1185 1181 1177 1170 1161 1155 1140 1119 1102 1097 1097 1102 1102 1111 1113 1113 1112 1112 1112 1111 1101 1076 1058 1049 1036 1022 1021 1012 999 995 991 970 963 954 954 949 937 911 887 856 835 829 823 809 809 806 798 794 788 0 0 0 667 667 667 669 669 669 668 668 0 0 0 0 0 0 0 0 0 0
943 943 955 969 991 1007 1016 1020 1021 1026 1035 1044 1051 1058 1065 1065 1065 1051 0 0 0 0 0 0 0 0 0 0 1132 1149 1153 1156 1160 1164 1165 1165 1165 1150 1141 1141 1141 1140 0 0 0 0 0 0 0 0 1128 1135 1136 1137 1137 1140 1145 1163 1169 0 1261 1280 1283 1283 0 0 0 0 0 0 879 866 865 862 859 858 858 858 867 879 884 884 887 892 896 896 896 0 810 807 807 807 810 811 811 811 811 811 811 811 811 811 812 812 812 812 812 812 812 812 812 812 812 812 812 812 812 812 812 811 811 811 810 809 808 806 805 802 799 796 793 789 780 775 762 755 752 749 748 748 748 749 751 752 754 755 756 759 760 762 763 765 766 769 769 771 775 778 780 781 781 782 785 785 785 786 787 787 787 787 787 787 786 786 785 784 783 782 780 777 774 770 767 765 762 759 758 757 756 754 754 753 753 753 753 753 753 753 752 752 751 751 751 751 751 751 750 749 748 748 748 748 749 749 749 749 749 749 749 749 749 749 748 747 747 747 749 751 753 758 758 0 0 0 0 0 0 0 0 0 0 0 0 0 0 0 0 0 0 0 0 0 0 0 0 0 0 0 0 0 0 0 0 0 0 0 0 0 0 0 0 0 0 0 0 0 0 0 0 0 0 0 0 0 0 0 0 0 0 0 0 0 0 0 0 0 0 0 0 0 0 0 0 0 0 0 0 736 739 737 736 737 738 737 735 735 733 732 732 732 734 735 735 736 736 737 741 747 748 752 760 760 776 790 809 823 835 844 844 846 849 849 858 859 870 877 0 0 0 0 0 0 0 0 1507 1507 1507 1500 1500 1500 1503 1505 1508 1513 1517 1521 1525 1529 1532 1534 1537 1539 1541 1544 1547 1549 1552 1555 1556 1557 1559 1560 1562 1563 1564 1565 1565 1566 1566 1566 1567 1567 1567 1567 1568 1568 1568 1569 1569 1569 1571 1571 1571 1569 1568 1568 1568 1567 1567 1565 1564 1564 1562 1561 1561 1543 0 0 0 0 0 0 0 1324 1322 1317 1309 1309 1309 1308 1309 1309 1309 1308 1308 1304 1304 1304 1306 1308 1308 1308 1306 1306 1306 1309 1310 1310 1310 1309 1309 1308 1307 1305 1304 1303 1303 1302 1302 1302 1303 1305 1307 1308 1311 1311 1311 1311 1311 1311 1310 1310 1309 1309 1309 1304 1302 1302 1302 1311 1319 1319 1320 1325 1327 1327 1327 1324 1317 1312 1306 1305 1305 1304 1304 1304 1304 1303 1303 1302 1302 1301 1301 1300 1300 1298 1295 1293 1292 1291 1289 1288 1288 1287 1287 1287 1286 1286 1285 1285 1283 1280 1280 1278 1276 1276 1276 1276 1276 1275 1270 1269 1267 1264 1260 1249 1239 1236 1236 1236 1237 1237 1237 1237 1237 1242 1253 1255 1255 1255 1253 1249 1245 1240 1236 1228 1221 1216 1213 1213 1212 1208 1207 1202 1200 1196 1191 1186 1184 1184 1182 1179 1175 1167 1160 1154 1136 1113 1092 1073 1073 1073 1078 1080 1087 1091 1093 1101 1101 1101 1101 1076 1058 1043 1029 1019 998 991 989 988 979 970 963 951 943 938 926 911 887 856 835 829 823 809 809 806 791 789 788 0 0 699 683 683 677 669 669 669 668 668 666 0 0 588 588 588 0 0 0 0
939 939 950 962 980 1003 1014 1020 1021 1024 1035 1044 1051 1055 1058 1058 1058 1041 0 0 0 0 0 0 0 0 0 0 1132 1145 1148 1151 1155 1155 1155 1154 1129 1106 1106 1106 1123 1123 0 0 0 996 996 996 0 0 1114 1134 1135 1136 1136 1139 1145 1157 1169 1222 1249 1259 1268 1268 0 0 0 0 0 0 871 863 862 857 856 856 856 860 870 884 885 886 887 892 892 892 883 838 810 806 806 806 807 807 808 808 809 809 809 810 810 810 811 811 811 811 811 811 811 811 811 811 811 811 811 811 811 811 811 811 810 810 809 808 808 806 804 802 799 796 793 789 783 775 764 755 752 749 748 748 748 749 753 753 754 756 758 760 761 763 765 766 769 772 773 775 777 779 781 782 783 784 785 785 786 787 787 787 787 787 787 787 786 786 785 784 783 782 780 777 774 770 767 764 761 759 757 756 754 753 752 752 752 752 752 752 752 751 751 751 750 750 750 750 750 749 748 748 746 746 746 746 748 748 748 748 747 747 747 748 748 748 748 748 748 748 749 751 753 756 756 0 0 0 0 0 0 0 0 0 0 0 0 0 0 0 0 0 0 0 0 0 0 0 0 0 0 0 0 0 0 0 0 0 0 0 0 0 0 0 0 0 0 0 0 0 0 0 0 0 0 0 0 0 0 0 0 0 0 0 0 0 0 0 0 0 0 0 0 0 0 0 0 0 0 0 739 739 739 739 739 738 736 735 733 733 733 731 731 731 734 739 739 740 741 745 753 758 763 765 765 766 780 803 820 834 842 846 854 861 861 866 878 880 894 906 0 0 0 0 0 0 0 0 1509 1509 1507 1504 1504 1504 1505 1507 1512 1515 1517 1522 1525 1529 1531 1534 1537 1539 1541 1543 1546 1549 1552 1554 1555 1556 1558 1560 1562 1563 1564 1565 1565 1566 1566 1566 1567 1567 1567 1567 1567 1567 1568 1567 1567 1568 1568 1568 1568 1568 1568 1568 1569 1569 1569 1569 1568 1567 1567 1567 1567 1566 1549 1547 0 0 0 0 0 0 0 1323 1312 1309 1309 1309 1310 1310 1310 1310 1308 1304 1304 1304 1307 1311 1311 1311 1311 1311 1311 1312 1312 1312 1312 1311 1309 1308 1307 1305 1305 1303 1302 1301 1301 1302 1303 1305 1307 1308 1311 1311 1311 1311 1311 1311 1311 1310 1310 1306 1303 1297 1297 1297 1299 1301 1303 1304 1307 1319 1321 1321 1321 1317 1312 1308 1304 1304 1304 1304 1304 1303 1303 1302 1302 1300 1299 1299 1298 1298 1297 1295 1293 1291 1289 1289 1286 1285 1285 1285 1285 1285 1285 1284 1283 1282 1280 1279 1279 1278 1270 1270 1270 1271 1271 1271 1269 1268 1267 1264 1261 1255 1247 1238 1238 1238 1237 1237 1237 1237 1237 1242 1250 1254 1254 1254 1252 1249 1244 1240 1236 1230 1221 1216 1213 1212 1209 1207 1205 1202 1198 1196 1191 1185 1183 1182 1178 1172 1168 1167 1160 1152 1124 1100 1090 1075 1070 1066 1066 1066 1066 1066 1066 1084 1101 1101 1101 1069 1043 1030 1026 1003 998 991 989 988 979 970 958 943 941 937 926 911 887 856 835 829 826 823 809 806 790 782 779 766 736 734 706 687 685 683 683 675 675 668 666 0 591 588 588 588 588 0 0 0
938 938 950 962 975 991 1005 1016 1018 1018 1024 1037 1044 1045 1045 1045 1041 1021 0 0 0 0 0 0 0 0 0 1093 1132 1140 1143 1143 1148 1148 1148 1143 1129 1106 1106 1106 1105 1105 0 0 1009 996 996 996 1048 0 0 1125 1129 1130 1132 1139 1145 1157 1169 1222 1249 1257 1257 1257 0 0 0 0 0 881 867 859 854 853 853 854 856 862 877 886 886 887 887 887 887 882 860 834 811 801 800 800 800 802 804 805 806 806 808 809 809 810 810 810 810 811 810 810 810 810 810 810 810 810 810 810 810 810 810 810 810 809 809 808 807 805 804 802 799 796 793 789 783 776 764 758 753 750 748 748 748 751 753 754 756 757 759 761 763 765 766 768 770 773 775 778 779 781 782 783 784 786 786 786 787 787 787 787 787 787 787 787 786 786 785 784 783 782 780 777 774 770 767 764 761 759 756 754 753 751 751 750 750 750 751 751 751 750 750 749 749 749 748 748 748 748 748 747 746 745 745 745 746 747 747 747 747 747 747 747 747 747 747 747 748 749 748 749 751 755 755 0 0 0 0 0 0 0 0 0 0 0 0 0 0 0 0 0 0 0 0 0 0 0 0 0 0 0 0 0 0 0 0 0 0 0 0 0 0 0 0 0 0 0 0 0 0 0 0 0 0 0 0 0 0 0 0 0 0 0 0 0 0 0 0 0 0 0 0 0 0 0 0 734 735 739 742 742 742 740 739 738 736 735 735 735 735 733 733 733 734 739 741 744 750 759 770 773 775 777 781 787 807 823 837 846 852 855 863 870 874 879 880 891 912 0 0 0 0 0 0 0 0 1528 1528 1528 1507 1506 1506 1506 1508 1513 1515 1516 1519 1522 1527 1530 1531 1534 1537 1539 1541 1543 1546 1547 1550 1552 1554 1556 1557 1560 1562 1563 1564 1565 1566 1566 1566 1566 1567 1567 1567 1567 1567 1567 1567 1567 1567 1567 1567 1568 1568 1568 1568 1568 1568 1569 1571 1571 1571 1571 1570 1570 1569 1566 1561 1559 1559 1554 1548 0 0 0 0 0 0 0 1310 1310 1310 1311 1311 1311 1308 1304 1304 1304 1307 1313 1315 1315 1315 1315 1315 1314 1314 1313 1313 1313 1311 1309 1307 1305 1305 1303 1302 1301 1301 1302 1303 1304 1305 1307 1308 1310 1311 1311 1311 1311 1311 1310 1309 1305 1300 1297 1297 1297 1299 1301 1303 1304 1307 1311 1311 1311 1310 1307 1307 1304 1304 1304 1304 1304 1304 1303 1302 1302 1301 1300 1298 1296 1296 1296 1293 1289 1288 1288 1288 1286 1286 1283 1283 1283 1283 1283 1283 1282 1280 1279 1279 1279 1278 1278 1270 1269 1269 1269 1268 1268 1268 1268 1267 1264 1261 1259 1254 1253 1249 1243 1240 1238 1237 1237 1237 1237 1239 1251 1251 1251 1251 1247 1244 1239 1236 1232 1222 1216 1213 1212 1208 1204 1199 1196 1194 1193 1189 1184 1183 1179 1171 1164 1160 1158 1155 1143 1115 1088 1083 1075 1070 1066 1066 1063 1051 1051 1051 1063 1080 1080 1080 1051 1040 1028 1020 1002 998 991 989 988 979 974 958 943 939 936 926 912 891 878 863 850 844 831 825 806 777 774 774 766 741 736 736 706 689 687 675 675 673 668 666 0 577 577 577 586 586 0 0 0
938 938 950 960 975 984 995 1005 1011 1015 1018 1027 1033 1034 1034 1034 1029 1005 0 0 0 0 0 0 0 0 0 1095 1127 1137 1139 1141 1144 1144 1144 1143 1129 1106 1105 1104 1098 1058 0 0 1004 1004 1004 1010 1012 0 0 0 0 0 1126 1139 1155 1157 1199 1229 1249 1249 1249 1230 0 0 0 0 0 878 864 850 845 845 845 847 856 867 880 886 887 887 888 887 887 880 860 834 812 801 796 796 796 800 803 805 805 805 807 807 808 809 809 809 809 810 810 810 809 809 809 810 810 810 809 809 809 809 809 809 809 808 807 807 806 805 803 801 799 796 793 789 783 776 769 762 758 754 753 753 753 753 753 754 756 758 760 762 766 766 769 771 773 775 778 780 781 782 783 785 785 787 787 787 787 787 787 787 787 787 787 787 786 786 785 783 783 781 779 777 774 771 768 764 760 758 756 754 752 751 750 750 749 749 749 749 749 749 749 748 748 748 747 747 747 747 747 746 745 745 745 745 745 745 746 746 746 746 746 746 746 747 748 748 748 746 746 746 746 747 747 0 0 0 0 0 0 0 0 0 0 0 0 0 0 0 0 0 0 0 0 0 0 0 0 0 0 0 0 0 0 0 0 0 0 0 0 0 0 0 0 0 0 0 0 0 0 0 0 0 0 0 0 0 0 0 0 0 0 0 0 0 0 0 0 0 0 0 0 0 0 0 736 737 739 739 742 742 742 741 739 738 737 735 735 737 737 736 736 736 736 740 745 752 763 775 785 789 789 794 800 807 822 838 850 859 865 867 875 882 884 887 888 901 924 0 0 0 0 0 0 0 1531 1528 1526 1526 1511 1510 1510 1510 1512 1516 1518 1518 1521 1524 1527 1530 1531 1534 1537 1539 1541 1543 1546 1547 1549 1551 1554 1556 1557 1559 1562 1563 1564 1565 1566 1566 1566 1567 1567 1567 1567 1567 1567 1567 1567 1567 1567 1567 1566 1566 1566 1566 1566 1566 1567 1569 1571 1571 1571 1571 1570 1570 1569 1566 1561 1560 1559 1558 1555 1541 1524 0 0 0 0 0 1310 1310 1310 1311 1311 1311 1308 1304 1304 1304 1307 1315 1320 1320 1320 1319 1316 1314 1314 1314 1314 1314 1314 1313 1311 1308 1305 1303 1302 1302 1302 1304 1304 1304 1305 1306 1308 1310 1310 1311 1311 1311 1311 1310 1308 1303 1298 1297 1297 1297 1299 1301 1302 1304 1307 1307 1307 1300 1300 1300 1300 1300 1301 1302 1304 1304 1304 1303 1302 1300 1298 1297 1297 1296 1294 1292 1286 1285 1285 1285 1285 1285 1282 1280 1280 1280 1281 1281 1281 1281 1280 1279 1278 1278 1278 1276 1270 1267 1266 1266 1266 1266 1266 1266 1264 1263 1261 1259 1259 1257 1257 1254 1248 1246 1244 1240 1239 1238 1238 1238 1247 1247 1247 1246 1244 1238 1235 1233 1232 1224 1219 1212 1208 1203 1199 1192 1189 1186 1183 1183 1178 1172 1164 1161 1160 1154 1151 1137 1101 1088 1083 1081 1072 1066 1066 1063 1051 1044 1044 1044 1051 1051 1051 1048 1020 1005 1003 1001 1001 998 998 998 994 978 961 943 934 933 926 912 900 890 884 871 844 836 825 806 765 736 736 736 736 746 746 746 715 692 675 670 669 654 0 0 561 561 561 576 576 0 0 0
938 938 949 959 974 983 991 997 1004 1009 1018 1025 1030 1032 1032 1032 1026 0 0 0 0 0 0 0 0 0 0 1113 1127 1132 1139 1140 1142 1143 1143 1143 1136 1135 1130 1110 1099 0 0 1002 1002 1002 1004 1010 1012 1012 1012 0 0 0 0 1148 1195 1196 1221 1242 1250 1250 1250 1190 0 0 0 0 886 870 854 844 844 844 845 847 857 872 881 886 886 887 886 886 885 877 860 834 815 802 795 795 795 799 801 803 804 804 806 807 807 808 808 808 808 808 808 808 809 809 809 809 809 809 809 808 808 808 808 808 808 808 807 807 806 804 803 801 799 797 795 793 789 781 774 769 763 760 758 757 754 754 754 755 757 760 762 766 768 768 771 774 776 778 779 781 782 784 784 785 786 787 787 787 787 787 787 787 787 787 787 787 786 785 785 783 783 781 779 777 774 771 768 763 759 757 755 753 751 749 749 749 749 749 748 748 748 748 748 748 747 746 746 746 746 746 745 745 745 745 744 744 744 744 745 745 745 745 745 745 745 745 746 746 746 746 746 746 746 747 747 0 0 0 0 0 0 0 0 0 0 0 0 0 0 0 0 0 0 0 0 0 0 0 0 0 0 0 0 0 0 0 0 0 0 0 0 0 0 0 0 0 0 0 0 0 0 0 0 0 0 0 0 0 0 0 0 0 0 0 0 0 0 0 0 0 0 738 739 739 739 739 739 737 737 737 742 742 742 742 730 730 730 733 733 735 736 735 736 741 741 745 753 764 779 793 793 794 801 801 801 812 827 843 858 869 877 881 887 896 902 904 906 915 932 0 0 0 0 0 0 1545 1533 1528 1525 1525 1516 1512 1512 1512 1515 1517 1520 1521 1522 1525 1529 1530 1531 1534 1537 1539 1541 1543 1545 1547 1548 1551 1553 1555 1557 1559 1561 1563 1564 1565 1566 1566 1566 1567 1567 1567 1567 1567 1567 1567 1567 1566 1566 1566 1566 1565 1564 1564 1564 1564 1567 1569 1571 1571 1571 1571 1570 1570 1567 1564 1562 1562 1562 1561 1561 1560 1547 1536 0 0 0 0 0 1312 1312 1312 1312 1312 1310 1310 1310 1311 1314 1319 1321 1321 1321 1320 1316 1316 1316 1316 1317 1317 1317 1317 1314 1312 1309 1307 1307 1307 1307 1307 1305 1305 1305 1305 1306 1310 1310 1311 1311 1311 1311 1310 1305 1300 1299 1299 1299 1302 1302 1302 1303 1303 1307 1307 1307 1289 1289 1288 1288 1290 1291 1294 1298 1298 1298 1294 1294 1294 1294 1293 1293 1293 1291 1288 1279 1279 1279 1282 1282 1282 1279 1278 1278 1278 1280 1281 1281 1281 1280 1279 1278 1278 1278 1276 1270 1267 1263 1259 1259 1257 1256 1256 1256 1259 1259 1259 1259 1257 1257 1256 1255 1249 1246 1243 1239 1236 1233 1233 1233 1237 1238 1238 1238 1237 1234 1233 1232 1232 1226 1213 1208 1203 1199 1192 1189 1183 1183 1183 1176 1169 1164 1161 1160 1154 1142 1130 1101 1090 1090 1089 1089 1089 1079 1063 1051 1044 1027 1027 1027 1032 1032 1032 1006 994 994 994 995 1000 1001 1001 1000 988 960 931 928 926 925 912 900 890 884 871 844 836 825 803 0 719 719 719 731 746 746 746 716 692 676 666 658 0 0 0 556 556 556 552 552 0 0 0
936 936 944 958 970 978 985 991 998 1006 1018 1024 1030 1030 1030 1030 1026 0 0 0 0 0 0 0 0 0 0 1113 1126 1132 1136 1140 1142 1143 1143 1143 1141 1140 1130 1110 0 0 1054 1001 995 995 995 998 1000 1002 1002 1002 0 0 0 0 1218 1239 1241 1245 1245 1245 1240 1189 0 0 0 889 874 858 844 841 841 841 845 851 860 873 881 886 886 886 885 883 881 875 860 839 817 804 793 793 793 798 801 803 803 804 805 806 806 807 808 808 808 808 808 808 808 808 808 808 808 808 808 808 808 808 808 808 808 808 807 807 806 804 803 801 799 797 795 793 789 783 778 771 767 764 762 759 756 756 756 758 761 764 767 768 770 770 773 776 779 780 781 783 784 784 785 786 787 787 787 787 787 787 787 787 787 787 787 786 786 785 784 783 782 781 779 777 774 771 768 762 758 754 751 750 749 748 748 748 748 748 748 747 747 747 746 746 746 745 745 745 745 745 745 745 745 745 744 744 744 744 744 744 744 744 744 744 744 745 746 746 746 746 746 746 746 747 747 0 0 0 0 0 0 0 0 0 0 0 0 0 0 0 0 0 0 0 0 0 0 0 0 0 0 0 0 0 0 0 0 0 0 0 0 0 0 0 0 0 0 0 0 0 0 0 0 0 0 0 0 0 0 0 0 0 0 0 0 0 0 0 0 0 741 741 741 741 741 741 741 741 741 743 744 744 744 744 730 730 730 733 735 737 738 741 745 746 747 752 762 774 789 803 803 803 802 802 802 814 829 843 858 870 881 890 900 909 921 927 929 937 0 0 0 0 0 0 0 1545 1522 1522 1521 1521 1521 1517 1517 1517 1517 1519 1521 1522 1525 1528 1530 1532 1533 1536 1538 1539 1541 1543 1545 1547 1548 1550 1552 1555 1556 1559 1561 1562 1564 1565 1566 1566 1566 1567 1567 1567 1567 1567 1567 1566 1566 1566 1566 1566 1565 1564 1564 1563 1563 1563 1563 1566 1568 1568 1568 1568 1567 1567 1564 1563 1562 1562 1563 1566 1566 1566 1564 1542 1532 0 0 0 0 0 0 0 0 1318 1318 1318 1323 1323 1323 1323 1323 1323 1321 1321 1319 1317 1317 1317 1317 1319 1319 1319 1316 1313 1311 1310 1309 1309 1309 1308 1307 1306 1305 1304 1304 1304 1308 1309 1309 1309 1307 1305 1301 1299 1299 1299 1299 1302 1302 1302 1304 1304 1304 1302 1301 1289 1281 1278 1278 1278 1280 1285 1285 1285 1283 1283 1283 1286 1288 1289 1289 1289 1288 1285 1279 1277 1277 1277 1278 1278 1278 1278 1278 1278 1278 1281 1281 1281 1280 1279 1278 1278 1276 1273 1270 1266 1261 1257 1254 1253 1250 1250 1250 1255 1257 1257 1259 1257 1257 1256 1256 1249 1248 1247 1239 1236 1229 1229 1229 1235 1235 1236 1236 1235 1234 1233 1232 1232 1226 1215 1209 1203 1200 1192 1189 1183 1183 1183 1176 1169 1164 1162 1161 1154 1138 1130 1101 1097 1097 1095 1095 1095 1095 1090 1073 1056 1038 1026 1026 1024 1021 1021 1004 990 990 990 995 1000 1001 1001 1000 988 958 930 925 925 924 912 900 890 884 871 844 831 814 788 0 719 719 719 724 741 741 741 716 692 676 666 649 0 0 546 546 546 546 546 537 0 0 0
933 933 936 949 961 971 980 986 991 1001 1015 1023 1028 1029 1029 1028 1021 0 0 0 0 0 0 0 0 0 0 1113 1125 1128 1135 1138 1140 1142 1142 1142 1142 1140 1130 0 0 0 997 997 995 995 995 995 997 997 997 1000 0 0 0 0 1235 1241 1242 1242 1241 0 0 0 0 0 0 866 862 849 828 828 828 837 850 852 861 875 882 885 885 885 884 883 879 870 860 839 819 805 792 792 792 797 799 803 803 803 804 804 805 806 806 806 807 807 807 807 807 807 807 807 807 807 807 807 807 807 807 807 807 806 806 806 805 803 802 801 799 797 795 793 789 784 779 775 770 767 763 761 759 759 759 761 763 765 767 769 771 774 775 778 780 782 782 784 784 785 786 787 787 787 787 787 787 787 787 787 787 787 787 786 786 785 784 783 782 781 779 777 774 771 767 761 755 750 748 747 746 746 746 746 746 746 746 746 745 745 745 744 744 743 743 743 743 743 743 743 743 743 744 744 743 743 744 744 744 744 744 744 744 744 746 746 746 745 745 745 746 747 747 0 0 0 0 0 0 0 0 0 0 0 0 0 0 0 0 0 0 0 0 0 0 0 0 0 0 0 0 0 0 0 0 0 0 0 0 0 0 0 0 0 0 0 0 0 0 0 0 0 0 0 0 0 0 0 0 0 0 0 0 736 736 736 739 743 744 744 744 745 744 744 741 741 741 743 744 746 746 746 730 730 730 735 736 738 739 741 747 748 750 754 766 780 795 805 805 805 804 804 804 814 829 843 858 870 883 891 900 909 921 927 936 962 0 0 0 0 0 0 0 1545 1511 1511 1511 1520 1520 1520 1520 1520 1521 1523 1525 1526 1528 1531 1533 1534 1536 1538 1539 1540 1542 1543 1545 1547 1548 1549 1551 1553 1555 1557 1560 1562 1563 1564 1566 1566 1566 1566 1567 1567 1567 1567 1567 1566 1566 1566 1566 1565 1565 1564 1564 1563 1562 1562 1562 1563 1564 1565 1565 1565 1565 1564 1563 1563 1563 1563 1564 1566 1566 1566 1565 1558 1550 1549 1546 0 0 0 0 0 0 0 0 1334 1334 1334 1331 1327 1325 1324 1323 1323 1323 1321 1322 1321 1321 1321 1321 1319 1316 1314 1311 1311 1311 1310 1310 1310 1308 1307 1305 1304 1304 1304 1305 1308 1308 1308 1307 1305 1301 1299 1299 1299 1300 1302 1302 1302 1304 1304 1302 1300 1300 1288 1281 1277 1276 1276 1277 1276 1275 1272 1272 1272 1275 1279 1279 1281 1282 1283 1283 1283 1279 1274 1274 1274 1276 1277 1277 1277 1277 1277 1278 1280 1280 1280 1280 1279 1278 1278 1274 1270 1268 1264 1260 1255 1251 1249 1246 1240 1240 1240 1248 1254 1254 1256 1256 1256 1256 1252 1252 1251 1245 1236 1229 1225 1225 1225 1227 1231 1233 1233 1233 1233 1232 1231 1226 1220 1212 1210 1200 1194 1189 1183 1183 1183 1176 1169 1167 1166 1165 1155 1138 1130 1110 1109 1105 1103 1099 1099 1097 1096 1095 1078 1039 1024 1021 1014 1013 1012 1003 988 985 982 982 985 988 988 988 988 958 930 923 918 902 884 883 881 879 862 844 827 795 772 751 719 718 718 717 718 718 717 716 691 675 652 0 0 0 538 538 538 538 538 528 0 0 479
933 933 936 943 950 964 972 978 986 995 1008 1018 1018 1018 1017 1002 1002 0 0 0 0 0 0 0 0 0 0 1113 1124 1128 1134 1138 1140 1142 1142 1142 1142 1140 0 0 0 0 964 964 973 988 995 995 995 972 972 972 0 0 0 0 0 1242 1242 1241 0 0 0 0 955 897 880 864 848 836 828 828 828 834 850 854 865 875 881 882 882 882 881 879 876 869 857 839 819 805 791 791 791 797 799 802 802 802 802 803 804 805 805 806 806 806 806 806 806 806 806 806 806 806 806 806 806 806 806 806 806 806 806 805 804 803 802 800 799 797 795 793 789 785 779 775 772 768 764 763 763 763 763 763 763 765 767 770 772 776 779 780 781 782 783 784 785 786 786 787 787 787 787 787 787 787 787 787 787 787 786 786 785 784 783 782 781 780 779 776 773 770 766 759 755 750 748 746 745 744 744 744 744 743 743 743 742 742 742 742 742 742 742 741 741 741 742 742 742 743 743 743 743 743 743 743 743 743 743 744 744 744 746 746 746 748 748 749 749 749 747 0 0 0 0 0 0 0 0 0 0 0 0 0 0 0 0 0 0 0 0 0 0 0 0 0 0 0 0 0 0 0 0 0 0 0 0 0 0 0 0 0 0 0 0 0 0 0 0 0 0 0 0 0 0 0 0 0 0 0 736 737 738 738 739 744 744 744 744 745 746 746 746 744 744 744 745 746 746 746 743 743 743 745 746 746 746 752 753 753 754 758 773 786 799 806 806 806 806 806 807 817 829 841 854 870 883 891 900 909 921 927 936 0 0 0 0 0 0 0 0 1533 1511 1511 1511 1521 1522 1522 1522 1523 1525 1526 1528 1530 1533 1534 1535 1537 1538 1539 1540 1540 1542 1543 1545 1546 1548 1549 1551 1552 1554 1556 1559 1560 1561 1564 1564 1566 1566 1566 1567 1567 1567 1566 1566 1566 1566 1566 1566 1565 1565 1564 1563 1563 1562 1561 1561 1561 1561 1562 1563 1563 1563 1563 1563 1563 1563 1563 1564 1566 1566 1566 1565 1563 1558 1557 1555 1554 1552 1548 0 0 0 0 0 0 1348 1340 1338 1334 1327 1324 1324 1324 1326 1326 1326 1324 1322 1321 1321 1320 1317 1316 1312 1311 1311 1311 1311 1311 1311 1310 1310 1307 1305 1305 1305 1308 1308 1308 1307 1305 1301 1300 1300 1300 1300 1300 1301 1304 1304 1304 1304 1300 1294 1288 1282 1277 1276 1276 1276 1275 1275 1272 1267 1267 1267 1271 1272 1275 1276 1277 1276 1276 1276 1273 1273 1273 1273 1273 1274 1276 1276 1276 1277 1279 1280 1280 1280 1279 1277 1275 1273 1270 1265 1262 1259 1255 1249 1244 1237 1237 1236 1236 1236 1240 1243 1247 1251 1251 1252 1252 1252 1252 1252 1246 1229 1225 1221 1221 1221 1222 1222 1223 1223 1224 1226 1226 1226 1220 1216 1212 1205 1195 1192 1189 1188 1184 1177 1172 1171 1169 1168 1157 1138 1131 1129 1121 1109 1105 1105 1105 1105 1105 1105 1078 1049 1030 1021 1014 1012 1007 999 988 971 962 962 962 964 968 968 968 944 922 911 903 884 878 877 876 876 861 844 825 790 767 752 734 716 716 716 709 708 0 0 0 0 0 0 0 0 525 525 525 525 525 518 491 479 479
