744 744 764 782 793 804 0 0 0 0 0 0 0 0 0 0 0 0 0 0 0 0 1087 1116 1146 1161 1164 1177 1198 1213 1225 1232 1243 1252 1262 1279 1295 1316 1336 1349 1357 1363 1373 1385 1400 1415 1426 1436 1449 1465 1482 1499 1514 1536 1563 1588 1604 1607 1620 1626 1628 1629 1629 1629 1611 1603 1601 1588 1556 1556 1556 1561 1576 1590 1606 1627 1638 1643 1643 1643 1638 1638 1637 1637 1637 1631 1621 1611 1607 1606 1604 1604 0 0 0 0 0 0 0 0 0 0 0 1156 1150 1143 1131 1107 1088 1088 1088 1095 1115 0 0 0 0 0 0 2696 2746 2746 2746 2679 2592 0 0 0 0 0 0 0 0 2692 2808 2856 2881 2944 3016 3127 3301 3468 3480 3555 3597 3626 3640 3653 3660 3665 3673 3673 3673 3670 3663 3663 3663 3656 3646 3626 3605 3586 3566 3549 3533 3517 3515 3504 3470 3431 3402 3377 3348 3309 3266 3218 3173 2984 2885 2803 0 0 0 0 1750 1750 1757 1760 1761 1762 1761 1760 1760 1754 1744 0 0 0 0 0 0 1222 1219 1218 1218 1213 1210 1207 1206 1204 1201 1198 1196 1193 1190 1187 1185 1183 1180 1176 1172 1169 1166 1163 1161 1157 1154 1151 1149 1148 1144 1140 1135 1128 1118 1091 1053 1037 1036 1036 1036 1036 1035 1031 1030 1030 1030 1033 1033 1033 1031 1031 1031 1043 1056 1061 1063 1063 1063 1063 1062 1061 1059 1056 1052 1052 1049 1043 1040 1040 1038 1035 1035 1032 1029 1026 1024 1024 1023 1020 1019 1018 1016 1013 1011 1011 1011 1008 1008 1008 1006 1005 1001 999 997 996 996 994 992 991 989 988 984 981 978 973 962 955 949 945 943 940 938 936 934 933 930 928 927 924 924 922 922 920 918 915 915 915 917 917 920 921 922 923 923 923 923 923 922 922 921 920 919 918 916 915 913 913 911 910 909 907 905 902 900 899 897 897 896 894 893 892 888 884 879 874 869 862 858 855 852 849 845 844 843 841 838 836 833 832 831 830 828 828 828 826 826 824 824 823 823 823 823 822 822 819 818 818 818 818 0 0 0 0 0 0 0 0 0 0 0 0 0 0 0 0 0 0 0 0 0 0 0 0 0 0 0 0 0 0 0 0 0 0 0 0 0 0 0 0 0 0 787 787 786 783 781 781 780 779 778 777 777 776 775 775 774 773 773 772 771 770 769 768 767 766 765 764 763 761 760 760 758 758 757 756 756 755 755 754 752 751 750 750 749 0 0 0 0 0 0 0 0 0 0 0 0 0 0 0 0 0 0 0 0 0 0 0 0 0 0 0 0 0 0 0 0 0 0 0 0 0 0 0 0 0 0 0 0 0 0 0 0 0 0 0 0 0 0 0 0 0 0 0 0 0 0 0 0 0 0 0 0 0 0 0 0 0 0 0 0 0 0 0 0 0 0 0 0 0 0 672 674 674 673 673 673 672 671 670 670 670 669 668 668 667 667 666 665 665 664 663 662 662 661 660 659 658 657 657 657 657 657 657 657 658 659 660 661 671 671 672 673 673 675 685 690 694 699 704 710 717 725 729 733 733 733 733 732 732 732 733 732 732 729 729 729 728 729 0
759 759 777 793 806 821 847 870 893 914 931 0 0 0 0 0 0 0 0 0 0 0 1094 1126 1147 1162 1170 1189 1206 1220 1230 1238 1247 1255 1262 1279 1295 1316 1336 1352 1364 1367 1378 1390 1403 1416 1427 1437 1451 1465 1482 1499 1514 1536 1563 1588 1604 1607 1620 1626 1628 1629 1629 1629 1611 1590 1556 1551 1551 1551 1560 1590 1605 1613 1619 1628 1638 1643 1643 1643 1642 1640 1637 1635 1635 1626 1615 1604 1595 1591 1585 0 0 0 0 0 0 0 0 0 0 0 1126 1125 1121 1120 1111 1088 1071 1071 1071 1088 0 0 0 0 0 0 2524 2763 2763 2763 2741 2660 0 0 0 0 0 0 0 0 2519 2692 2808 2856 2912 2997 3016 3127 3349 3468 3481 3537 3575 3601 3619 3626 3632 3645 3649 3650 3653 3655 3653 3653 3647 3634 3619 3602 3581 3558 3545 3531 3514 3506 3496 3476 3437 3397 3375 3356 3334 3300 3250 3198 3031 2920 2874 2554 0 0 0 1739 1739 1739 1745 1751 1755 1756 1756 1756 1756 1749 1744 0 0 0 0 0 0 1222 1219 1219 1218 1213 1209 1206 1206 1204 1200 1198 1195 1193 1190 1188 1186 1183 1180 1177 1174 1171 1167 1165 1163 1159 1156 1153 1150 1148 1145 1141 1136 1128 1118 1091 1053 1026 1026 1025 1025 1023 1023 1023 1024 1025 1027 1027 1027 1026 1024 1024 1024 1043 1056 1060 1063 1064 1064 1064 1063 1061 1059 1058 1057 1054 1052 1050 1047 1045 1042 1039 1039 1039 1035 1030 1026 1026 1025 1021 1017 1014 1014 1011 1007 1007 1006 1005 1005 1005 1002 1000 999 998 996 994 993 991 990 989 987 986 983 981 978 973 962 956 950 946 943 942 941 941 939 937 933 930 928 928 926 926 925 923 922 919 919 919 919 920 921 922 923 924 924 924 923 923 922 922 920 920 919 917 915 914 913 912 911 909 907 906 904 902 900 899 897 897 897 895 893 892 889 884 879 874 870 865 860 857 854 850 848 846 844 842 840 838 836 834 833 831 830 830 829 829 827 826 826 825 824 824 824 823 823 819 818 818 818 818 0 0 0 0 0 0 0 0 0 0 0 0 0 0 0 0 0 0 0 0 0 0 0 0 0 0 0 0 0 0 0 0 0 0 0 0 0 0 0 0 0 0 784 784 784 783 781 781 779 778 778 777 777 776 776 775 774 773 773 772 771 770 769 768 767 766 765 764 763 761 760 760 758 758 757 756 756 755 754 754 753 751 750 749 748 747 0 0 0 0 0 0 0 0 0 0 0 0 0 0 0 0 0 0 0 0 0 0 0 0 0 0 0 0 0 0 0 0 0 0 0 0 0 0 0 0 0 0 0 0 0 0 0 0 0 0 0 0 0 0 0 0 0 0 0 0 0 0 0 0 0 0 0 0 0 0 0 0 0 0 0 0 0 0 0 0 0 0 0 0 0 672 673 673 673 673 673 672 671 670 670 669 669 668 668 667 667 666 665 665 664 663 662 662 661 660 659 658 658 657 657 657 657 657 657 658 659 660 664 671 672 672 674 674 677 685 689 694 699 704 710 717 724 729 733 733 733 732 731 731 732 731 731 728 726 726 726 726 729 0
761 761 785 804 823 847 867 887 906 932 956 974 997 0 0 0 0 0 0 0 0 0 0 1134 1156 1168 1188 1197 1221 1242 1243 1249 1255 1260 1270 1279 1295 1316 1337 1357 1372 1374 1386 1393 1403 1416 1429 1443 1454 1465 1482 1499 1514 1536 1563 1576 1584 1589 1591 1595 1595 1595 1589 1575 1543 1531 1531 1531 1543 1557 1578 1594 1605 1613 1619 1628 1637 1643 1643 1643 1642 1637 1634 1632 1628 1624 1613 1603 1589 1571 0 0 0 0 0 0 0 0 0 0 0 1119 1106 1101 1099 1098 1091 1075 1062 1062 1062 0 0 0 0 0 0 0 2640 2733 2733 2733 2648 0 0 0 0 0 0 0 0 0 2534 2692 2808 2856 2912 3005 3076 3235 3371 3468 3486 3523 3553 3568 3576 3589 3601 3615 3629 3629 3629 3623 3621 3620 3617 3607 3597 3581 3563 3550 3541 3516 3500 3491 3473 3454 3424 3385 3362 3344 3319 3271 3216 3169 2938 2918 2836 0 0 0 1736 1730 1730 1730 1737 1740 1744 1747 1749 1749 1749 1746 1746 1740 0 0 0 0 0 1229 1220 1219 1218 1214 1209 1206 1205 1204 1200 1198 1195 1193 1190 1188 1186 1183 1180 1178 1175 1172 1170 1166 1164 1161 1157 1154 1151 1149 1145 1142 1136 1128 1118 1095 1053 1016 1015 1015 1014 1014 1014 1017 1019 1021 1022 1023 1023 1023 1023 1023 1024 1043 1055 1060 1063 1064 1064 1064 1064 1063 1063 1063 1062 1059 1057 1053 1051 1048 1046 1045 1043 1042 1039 1033 1031 1027 1026 1022 1011 1007 1005 1005 1003 998 998 997 994 993 993 993 991 991 991 988 986 985 985 984 983 982 982 980 976 973 967 961 957 952 950 947 945 943 941 937 933 931 931 930 929 928 928 927 926 924 924 923 923 923 923 924 925 925 925 924 923 922 921 921 920 919 918 917 915 914 912 911 910 908 907 905 903 902 900 898 897 897 897 895 893 892 889 884 880 874 870 865 861 859 855 852 850 848 846 843 841 839 838 837 835 833 833 833 831 830 830 829 828 827 825 825 825 824 824 821 820 819 819 819 818 0 0 0 0 0 0 0 0 0 0 0 0 0 0 0 0 0 0 0 0 0 0 0 0 0 0 0 0 0 0 0 0 0 0 0 0 0 0 0 0 0 0 783 783 782 781 781 779 778 778 777 777 776 776 775 774 773 773 772 771 770 769 768 767 766 765 764 763 761 760 759 758 758 757 756 756 755 754 754 753 752 750 748 747 746 0 0 0 0 0 0 0 0 0 0 0 0 0 0 0 0 0 0 0 0 0 0 0 0 0 0 0 0 0 0 0 0 0 0 0 0 0 0 0 0 0 0 0 0 0 0 0 0 0 0 0 0 0 0 0 0 0 0 0 0 0 0 0 0 0 0 0 0 0 0 0 0 0 0 0 0 0 0 0 0 0 0 0 0 0 672 672 673 673 672 672 672 671 670 669 669 669 668 668 667 666 666 665 665 664 663 663 662 661 660 659 658 658 657 657 657 657 657 657 659 660 661 664 671 673 674 676 678 680 685 689 695 699 704 710 717 724 729 733 733 733 732 731 731 732 731 731 728 723 723 723 722 718 0
764 764 788 810 824 847 867 888 912 937 968 991 1016 1019 1047 1072 0 0 0 0 0 0 0 0 0 0 0 0 0 0 0 0 0 0 1295 1297 1309 1326 1344 1360 1374 1385 1388 1395 1403 1416 1429 1443 1454 1465 1477 1491 1513 1533 1544 1553 1559 1568 1570 1570 1570 1562 1555 1508 1508 1508 1516 1528 1543 1560 1578 1594 1605 1613 1619 1628 1637 1643 1643 1643 1642 1630 1617 1604 1604 1602 1595 1595 1572 0 0 0 0 0 0 0 0 0 0 0 1107 1102 1092 1086 1086 1081 1072 1061 1061 1061 1062 0 0 0 0 0 0 0 2701 2714 2714 2714 2577 0 0 0 0 0 0 0 0 0 2546 2696 2786 2845 2912 3005 3109 3273 3398 3462 3486 3508 3537 3552 3554 3556 3566 3583 3600 3606 3606 3606 3602 3599 3594 3581 3571 3560 3554 3546 3533 3505 3482 3470 3453 3429 3400 3368 3339 3316 3273 3212 3204 3155 2903 2865 2590 0 0 0 1735 1730 1730 1730 1736 1739 1741 1742 1745 1746 1746 1746 1745 1742 0 0 0 0 0 0 1221 1218 1218 1214 1209 1206 1205 1203 1200 1198 1196 1193 1191 1188 1186 1183 1181 1178 1175 1173 1171 1169 1165 1162 1158 1155 1153 1150 1146 1144 1138 1128 1122 1102 0 1014 1009 1009 1008 1008 1009 1009 1011 1013 1013 1015 1015 1015 1017 1018 1024 1043 1055 1060 1063 1066 1066 1066 1066 1066 1064 1064 1062 1061 1059 1057 1054 1053 1051 1047 1045 1042 1040 1035 1031 1028 1025 1021 1010 999 999 996 996 996 992 987 985 985 985 985 985 985 984 983 983 983 981 981 981 979 978 978 975 973 967 963 961 960 958 955 950 946 943 940 940 938 936 932 932 931 931 931 931 929 928 927 927 926 926 926 926 926 926 924 923 922 921 920 919 918 917 915 914 913 912 910 908 907 906 905 903 901 900 899 898 897 897 895 893 891 889 884 880 874 872 865 861 860 856 852 851 849 848 846 843 842 840 838 838 837 837 835 834 833 832 832 830 829 829 828 828 828 828 828 823 823 820 820 818 0 0 0 0 0 0 0 0 0 0 0 0 0 0 0 0 0 0 0 0 0 0 0 0 0 0 0 0 0 0 0 0 0 0 0 0 0 0 0 0 0 0 780 782 781 780 780 779 778 778 777 777 776 776 775 774 773 773 772 771 770 769 768 767 766 765 763 762 761 760 759 758 757 756 756 755 755 754 754 752 752 750 747 747 744 0 0 0 0 0 0 0 0 0 0 0 0 0 0 0 0 0 0 0 0 0 0 0 0 0 0 0 0 0 0 0 0 0 0 0 0 0 0 0 0 0 0 0 0 0 0 0 0 0 0 0 0 0 0 0 0 0 0 0 0 0 0 0 0 0 0 0 0 0 0 0 0 0 0 0 0 0 0 0 0 0 0 0 0 0 672 672 672 672 672 672 671 671 670 669 669 669 668 668 667 666 666 665 665 664 663 662 662 661 660 659 658 658 657 657 657 657 657 657 658 660 661 664 671 674 675 680 681 684 688 689 695 710 718 722 723 724 729 733 733 733 732 732 732 731 731 731 728 723 723 722 722 718 0
764 764 788 810 824 847 869 891 913 946 977 1004 1029 1055 1058 1088 1121 0 0 0 0 0 0 0 0 0 0 0 0 0 0 0 0 0 0 0 0 0 1348 1364 1375 1385 1388 1395 1404 1416 1430 1443 1454 1463 1472 1482 1491 1507 1522 1534 1542 1552 1552 1552 1546 1534 1502 1502 1502 1508 1516 1528 1543 1560 1578 1594 1604 1610 1614 1618 1618 1619 1619 1616 1606 1593 1586 1580 1577 1577 0 0 0 0 0 0 0 0 0 0 0 0 0 1087 1084 1084 1079 1072 1071 1067 1062 1054 1054 1054 1062 0 0 0 0 0 0 2594 2686 2688 2688 2686 0 0 0 0 0 0 0 0 0 0 2564 2696 2786 2845 2912 3005 3118 3310 3409 3455 3486 3488 3506 3529 3537 3541 3550 3561 3576 3588 3588 3588 3586 3576 3558 3547 3546 3546 3544 3534 3500 3477 3469 3450 3414 3399 3375 3341 3308 3283 3245 3176 3138 2957 2870 2799 0 0 0 1751 1733 1730 1730 1730 1732 1736 1738 1741 1741 1741 1743 1742 1741 1741 1722 0 0 0 0 0 1223 1218 1217 1214 1208 1206 1205 1203 1200 1198 1196 1193 1191 1188 1186 1183 1181 1178 1176 1174 1171 1169 1165 1163 1159 1157 1156 1152 1149 1146 1139 1129 1122 1102 0 1014 1008 1008 1007 1007 1007 1005 1005 1005 1006 1007 1010 1010 1012 1014 1024 1043 1054 1059 1063 1067 1067 1067 1067 1066 1065 1064 1063 1062 1061 1059 1058 1055 1053 1049 1047 1044 1041 1037 1033 1029 1025 1020 1009 993 989 986 983 983 982 981 981 981 983 983 983 982 981 979 981 980 978 978 977 975 974 974 974 972 968 967 966 965 962 962 961 956 952 949 948 947 942 942 941 939 937 936 935 934 932 931 930 930 928 928 927 927 926 924 923 922 921 919 919 916 915 914 913 912 910 909 908 905 904 904 903 901 900 899 898 897 897 894 893 891 889 884 880 876 873 866 862 861 857 853 851 851 849 847 845 843 841 840 838 838 838 837 835 835 834 834 833 831 830 830 830 830 830 830 829 829 826 826 825 0 0 0 0 0 0 0 0 0 0 0 0 0 0 0 0 0 0 0 0 0 0 0 0 0 0 0 0 0 0 0 0 0 0 0 0 0 0 0 0 0 0 780 782 781 780 780 779 778 778 777 777 776 776 775 774 773 772 771 770 770 769 768 766 765 764 763 762 761 760 759 757 757 756 756 755 754 753 753 752 752 750 747 747 744 0 0 0 0 0 0 0 0 0 0 0 0 0 0 0 0 0 0 0 0 0 0 0 0 0 0 0 0 0 0 0 0 0 0 0 0 0 0 0 0 0 0 0 0 0 0 0 0 0 0 0 0 0 0 0 0 0 0 0 0 0 0 0 0 0 0 0 0 0 0 0 0 0 0 0 0 0 0 0 0 0 0 0 0 0 672 672 672 672 672 672 671 671 670 669 669 669 668 668 667 667 666 665 665 664 663 662 662 661 660 659 658 658 657 657 657 657 657 657 657 658 661 663 671 675 677 680 685 690 694 698 707 717 724 726 728 728 729 734 734 734 734 734 734 733 733 731 728 728 724 722 722 718 0
767 767 789 810 829 850 872 891 922 956 986 1012 1038 1068 1071 1099 1137 1173 1202 1234 1259 1290 1321 1350 0 0 0 0 0 0 0 0 0 0 0 0 0 0 0 0 0 0 1392 1395 1404 1416 1432 1444 1454 1463 1472 1482 1491 1499 1508 1520 1522 1523 1523 1522 1511 1494 1494 1494 1498 1508 1520 1534 1548 1563 1576 1586 1597 1603 1603 1603 1601 1591 1569 1567 1567 1564 1562 1562 1560 1550 0 0 0 0 0 0 0 0 0 0 0 0 0 1072 1072 1067 1067 1059 1056 1056 1052 1043 1043 1043 0 0 0 0 0 0 0 2659 2673 2673 2673 2541 0 0 0 0 0 0 0 0 0 0 2605 2711 2786 2845 2912 3005 3121 3332 3409 3452 3464 3477 3480 3493 3507 3524 3529 3537 3546 3558 3558 3558 3555 3542 3538 3537 3521 3515 3508 3489 3469 3464 3446 3407 3384 3374 3361 3335 3283 3238 3176 3086 2972 2889 2827 2774 0 0 0 1746 1733 1730 1730 1730 1732 1735 1737 1741 1741 1741 1742 1742 1740 1739 1731 0 0 0 0 0 0 1218 1217 1214 1208 1206 1205 1203 1200 1198 1197 1194 1191 1189 1186 1183 1181 1179 1176 1174 1172 1169 1166 1163 1160 1158 1157 1155 1152 1150 1143 1133 1122 1102 0 1014 1007 1007 1007 1007 1006 1003 1003 1003 1003 1005 1006 1009 1012 1014 1024 1043 1054 1058 1063 1068 1068 1068 1068 1067 1066 1065 1064 1063 1062 1060 1058 1055 1053 1051 1047 1045 1042 1038 1033 1029 1026 1020 1006 992 988 986 981 979 976 973 973 973 971 971 971 971 970 971 972 971 971 971 969 969 969 970 970 970 970 969 968 966 965 964 963 961 957 953 951 950 948 948 947 943 941 939 939 937 936 936 934 931 929 929 929 927 926 925 923 922 920 918 917 916 914 913 912 911 909 908 906 905 903 903 902 901 900 898 898 897 896 894 892 891 889 884 881 878 876 872 862 861 857 854 852 851 850 848 846 843 843 842 841 840 839 839 838 838 837 836 833 832 831 830 830 830 830 830 830 830 830 828 826 0 0 0 0 0 0 0 0 0 0 0 0 0 0 0 0 0 0 0 0 0 0 0 0 0 0 0 0 0 0 0 0 0 0 0 0 0 0 0 0 0 0 780 782 781 781 781 781 780 779 777 777 776 776 775 774 773 772 771 770 769 768 767 765 764 763 762 761 760 759 758 757 756 755 755 754 754 752 752 752 751 750 747 746 744 0 0 0 0 0 0 0 0 0 0 0 0 0 0 0 0 0 0 0 0 0 0 0 0 0 0 0 0 0 0 0 0 0 0 0 0 0 0 0 0 0 0 0 0 0 0 0 0 0 0 0 0 0 0 0 0 0 0 0 0 0 0 0 0 0 0 0 0 0 0 0 0 0 0 0 0 0 0 0 0 0 0 0 0 0 674 674 674 673 673 671 671 671 670 669 669 668 668 667 667 666 666 665 665 664 663 662 662 661 660 659 658 658 657 657 657 657 657 657 657 658 661 663 669 675 678 681 685 691 694 698 709 718 725 727 729 729 730 734 735 735 735 735 735 735 734 732 729 728 724 722 721 720 0
785 785 791 811 829 850 872 900 930 965 993 1018 1045 1072 1074 1102 1138 1174 1210 1242 1269 1298 1329 1359 1385 1405 1422 1435 1439 1452 1470 1471 0 0 0 0 0 0 0 0 0 0 0 0 0 1437 1437 1446 1454 1463 1472 1482 1491 1499 1504 1504 1504 1503 1498 1496 1487 1487 1487 1489 1499 1515 1531 1545 1552 1563 1576 1580 1584 1591 1591 1591 1582 1564 1549 1549 1549 1549 1549 1548 1540 0 0 0 0 0 0 0 0 0 0 0 1078 1068 1066 1065 1055 1055 1049 1046 1046 1045 1041 1041 1041 1050 0 0 0 0 0 0 0 0 2641 2641 2550 0 0 0 0 0 0 0 0 0 0 2577 2688 2729 2792 2852 2926 3008 3145 3332 3409 3439 3445 3451 3454 3468 3479 3486 3490 3501 3515 3528 3535 3535 3535 3530 3528 3513 3496 3479 3471 3455 3444 3434 3386 3363 3356 3348 3337 3312 3263 3197 3095 2999 2942 2877 2816 2545 0 0 1753 1744 1734 1732 1732 1732 1732 1734 1736 1740 1740 1740 1739 1739 1738 1738 1731 0 0 0 0 0 0 1227 1217 1214 1208 1207 1205 1203 1201 1200 1198 1195 1192 1189 1186 1183 1181 1179 1176 1174 1172 1169 1167 1164 1162 1159 1158 1156 1154 1150 1143 1135 1122 1096 0 1014 1006 1006 1006 1006 1004 1001 1001 1001 1003 1005 1006 1008 1009 1014 1024 1039 1051 1058 1064 1068 1069 1069 1069 1069 1068 1066 1065 1064 1062 1061 1059 1056 1054 1052 1049 1046 1043 1039 1034 1029 1027 1020 1006 992 988 984 981 978 974 973 973 972 970 967 965 965 965 965 965 965 965 964 964 964 966 967 967 969 969 969 968 967 967 966 965 963 960 958 955 953 952 952 950 948 947 945 943 941 938 937 936 935 933 931 929 928 926 925 923 920 919 918 915 913 911 910 909 909 907 906 903 903 902 901 900 898 898 897 897 896 895 893 892 891 888 885 882 879 877 875 865 861 858 856 854 853 853 850 848 846 845 845 844 842 841 841 840 840 840 838 835 832 831 831 831 831 831 831 831 831 831 830 826 0 0 0 0 0 0 0 0 0 0 0 0 0 0 0 0 0 0 0 0 0 0 0 0 0 0 0 0 0 0 0 0 0 0 0 0 0 0 0 0 0 0 785 785 783 781 781 781 780 779 777 777 775 775 774 774 772 771 770 770 768 767 766 764 763 762 761 761 759 758 757 756 755 754 754 753 752 752 752 751 751 750 747 746 744 0 0 0 0 0 0 0 0 0 0 0 0 0 0 0 0 0 0 0 0 0 0 0 0 0 0 0 0 0 0 0 0 0 0 0 0 0 0 0 0 0 0 0 0 0 0 0 0 0 0 0 0 0 0 0 0 0 0 0 0 0 0 0 0 0 0 0 0 0 0 0 0 0 0 0 0 0 0 0 0 0 0 0 0 0 674 674 674 673 672 672 671 671 670 669 669 668 668 668 667 667 666 665 665 664 663 662 662 661 660 659 658 658 657 657 657 657 657 657 657 658 660 662 669 675 678 683 686 691 694 698 709 718 725 731 731 731 733 733 735 736 736 736 736 736 735 732 730 728 725 722 721 720 0
788 788 792 811 829 852 883 907 939 971 1001 1026 1053 1077 1079 1110 1140 1174 1210 1244 1275 1303 1331 1362 1385 1405 1428 1445 1448 1467 1481 1493 1511 1531 1544 1564 1572 0 0 0 0 0 0 0 0 0 0 1459 1459 1464 1475 1486 1495 1495 1495 1495 1490 1482 1477 1474 1474 1474 1480 1489 1500 1516 1532 1545 1552 1563 1574 1577 1577 1584 1584 1584 1581 1550 1541 1539 1538 1537 1533 1530 0 0 0 0 0 0 0 0 0 0 1081 1079 1076 1067 1060 1055 1054 1054 1043 1042 1041 1041 1041 1041 1041 1059 0 0 0 0 0 0 0 0 0 0 0 0 0 0 0 0 0 0 0 0 2527 2611 2688 2729 2792 2852 2926 3008 3193 3332 3387 3417 3426 3427 3433 3437 3444 3453 3453 3468 3486 3509 3517 3517 3517 3514 3505 3493 3461 3455 3454 3445 3430 3383 3353 3334 3309 3295 3281 3262 3226 3181 3067 2973 2915 2869 2551 0 0 0 1753 1744 1734 1734 1732 1732 1732 1734 1735 1739 1739 1739 1737 1737 1737 1736 1731 1714 0 0 0 0 0 0 1231 1222 1217 1212 1208 1205 1204 1201 1199 1197 1193 1190 1187 1184 1181 1179 1177 1175 1173 1170 1167 1164 1162 1160 1158 1156 1154 1150 1143 1135 1121 0 0 1014 1006 1006 1005 1005 1003 1001 1001 1001 1003 1004 1006 1007 1009 1012 1021 1037 1051 1058 1066 1069 1070 1070 1070 1069 1068 1068 1067 1065 1064 1062 1059 1057 1054 1052 1050 1047 1043 1040 1034 1029 1025 1019 1004 993 987 982 980 976 974 973 972 972 970 967 965 962 961 961 961 961 961 961 961 961 966 966 966 969 969 969 969 969 969 967 966 964 962 960 958 957 955 954 953 951 949 947 946 944 942 941 938 936 934 931 929 928 926 925 922 920 919 918 914 910 909 909 908 906 905 903 902 901 901 901 899 898 896 896 895 894 894 893 892 890 887 885 883 879 878 877 870 866 863 859 858 857 855 851 849 849 848 848 848 845 843 843 843 843 843 840 837 834 833 833 833 833 833 833 833 833 831 830 830 826 0 0 0 0 0 0 0 0 0 0 0 0 0 0 0 0 0 0 0 0 0 0 0 0 0 0 0 0 0 0 0 0 0 0 0 0 0 0 0 0 0 787 787 783 781 780 780 780 779 777 776 775 774 774 773 772 771 770 768 768 767 765 764 762 761 760 759 758 757 756 755 755 753 753 752 752 751 751 750 749 748 747 747 745 0 0 0 0 0 0 0 0 0 0 0 0 0 0 0 0 0 0 0 0 0 0 0 0 0 0 0 0 0 0 0 0 0 0 0 0 0 0 0 0 0 0 0 0 0 0 0 0 0 0 0 0 0 0 0 0 0 0 0 0 0 0 0 0 0 0 0 0 0 0 0 0 0 0 0 0 0 0 0 0 0 0 0 0 0 674 674 674 673 672 672 672 671 670 668 668 668 668 668 667 667 666 665 664 664 663 662 662 661 660 659 658 658 658 657 657 657 657 657 658 658 659 662 669 674 679 683 686 691 693 698 709 718 726 732 732 734 735 735 735 736 736 736 736 736 735 733 730 729 726 722 721 720 0
792 792 793 814 836 862 891 922 949 980 1010 1035 1063 1084 1110 1112 1141 1177 1211 1246 1280 1307 1331 1362 1385 1405 1428 1445 1450 1469 1488 1508 1529 1550 1561 1566 1589 1604 1628 1665 0 0 0 0 0 0 0 0 0 1476 1476 1490 1500 1500 1500 1495 1481 1472 1472 1472 1473 1474 1480 1490 1503 1518 1532 1545 1552 1559 1560 1564 1570 1584 1584 1584 1571 1549 1536 1529 1528 1518 0 0 0 0 0 0 0 0 0 0 0 1083 1074 1074 1073 1066 1057 1049 1047 1042 1041 1041 1040 1039 1039 1039 1045 0 0 0 0 0 0 0 0 0 0 0 0 0 0 0 0 0 0 0 0 0 2527 2611 2688 2729 2792 2852 2926 3008 3193 3318 3364 3382 3408 3419 3423 3425 3432 3441 3447 3456 3479 3480 3480 3480 3474 3470 3469 3461 3448 3432 3421 3409 3384 3356 3330 3310 3287 3259 3231 3212 3173 3148 3049 2925 2890 2631 0 0 0 1762 1753 1744 1737 1735 1734 1734 1734 1734 1735 1735 1735 1735 1735 1735 1734 1733 1731 1714 0 0 0 0 0 0 1238 1223 1218 1215 1210 1207 1205 1202 1199 1197 1193 1191 1187 1184 1182 1180 1177 1175 1173 1170 1168 1165 1163 1160 1159 1156 1154 1150 1145 1136 1121 0 0 1015 1007 1005 1004 1004 1002 1001 1001 1001 1002 1004 1004 1005 1006 1009 1016 1035 1049 1058 1066 1069 1070 1070 1070 1069 1069 1068 1068 1066 1065 1063 1061 1058 1056 1054 1050 1048 1044 1040 1035 1031 1025 1017 1003 993 986 982 978 976 974 973 972 972 970 967 965 962 960 959 959 959 959 959 960 960 964 965 966 969 970 970 970 970 969 968 967 965 964 962 960 959 957 956 954 952 951 949 947 946 943 942 941 938 936 933 931 928 926 924 919 918 917 916 913 906 906 905 905 905 904 901 900 898 898 898 897 897 894 893 893 892 892 891 890 888 887 886 883 880 880 879 878 871 864 861 860 859 857 854 854 854 851 851 851 848 848 848 847 847 847 842 840 835 835 835 835 836 836 836 835 833 833 831 831 826 0 0 0 0 0 0 0 0 0 0 0 0 0 0 0 0 0 0 0 0 0 0 0 0 0 0 0 0 0 0 0 0 0 0 0 0 0 0 0 0 0 787 787 783 781 780 780 780 779 777 775 774 774 773 772 771 769 768 768 767 766 764 763 761 761 760 759 758 756 755 754 753 752 752 751 751 750 750 747 746 746 745 745 745 0 0 0 0 0 0 0 0 0 0 0 0 0 0 0 0 0 0 0 0 0 0 0 0 0 0 0 0 0 0 0 0 0 0 0 0 0 0 0 0 0 0 0 0 0 0 0 0 0 0 0 0 0 0 0 0 0 0 0 0 0 0 0 0 0 0 0 0 0 0 0 0 0 0 0 0 0 0 0 0 0 0 0 0 0 675 675 674 673 672 672 671 671 670 668 668 668 668 668 667 667 666 665 664 664 663 662 662 661 660 659 658 658 658 658 658 658 658 658 658 658 659 662 668 674 679 681 685 691 691 698 709 718 727 732 732 734 735 735 735 736 736 737 737 737 735 733 732 729 726 722 715 714 0
801 801 801 818 843 868 903 933 962 989 1016 1045 1072 1094 1119 1122 1147 1179 1213 1248 1280 1307 1331 1362 1383 1404 1428 1445 1451 1469 1488 1508 1529 1550 1568 1576 1589 1614 1639 1665 1673 1678 1678 1678 1670 0 0 0 0 0 0 0 0 1506 1501 1495 1481 1472 1472 1472 1473 1474 1480 1493 1510 1520 1531 1538 1540 1540 1541 1545 1555 1563 1563 1563 1559 1547 1535 1519 1519 1480 0 0 0 0 0 0 0 0 0 0 1090 1078 1069 1067 1063 1056 1051 1045 1040 1040 1039 1038 1038 1038 1038 1042 1049 0 0 0 0 0 0 0 2607 2607 2607 0 0 0 0 0 0 0 0 0 0 0 2527 2611 2648 2709 2788 2841 2926 3030 3193 3302 3327 3350 3378 3393 3398 3398 3404 3421 3424 3431 3440 3440 3440 3433 3423 3422 3415 3410 3400 3391 3379 3365 3347 3325 3303 3284 3262 3216 3197 3167 3117 3065 2986 2883 2822 2558 0 0 0 1759 1754 1747 1742 1737 1735 1734 1734 1735 1735 1735 1735 1735 1734 1734 1734 1733 1730 1715 1680 0 0 0 0 0 1241 1224 1218 1215 1211 1207 1205 1202 1199 1197 1194 1192 1188 1185 1183 1180 1177 1176 1173 1170 1168 1165 1163 1160 1159 1156 1154 1149 1145 1138 1124 0 0 1016 1007 1005 1004 1003 1002 1000 1000 1000 1000 1002 1002 1003 1006 1009 1016 1035 1049 1059 1066 1070 1070 1070 1070 1070 1069 1069 1068 1067 1065 1063 1062 1059 1057 1054 1052 1048 1045 1041 1036 1031 1026 1017 1004 993 986 981 976 974 973 973 972 971 969 967 965 962 960 959 958 958 957 957 957 960 964 965 965 968 970 970 970 970 970 969 969 967 965 964 962 960 959 956 955 954 952 950 948 948 945 943 941 939 936 934 931 928 926 922 915 915 913 912 910 906 902 902 902 902 902 901 900 897 896 894 894 893 892 892 892 891 891 890 889 888 886 885 884 883 883 882 878 875 866 862 862 861 860 858 858 858 856 856 856 854 850 850 850 850 850 845 841 840 838 838 838 838 838 838 837 834 833 831 831 828 0 0 0 0 0 0 0 0 0 0 0 0 0 0 0 0 0 0 0 0 0 0 0 0 0 0 0 0 0 0 0 0 0 0 0 0 0 0 0 0 0 787 787 780 778 778 778 778 777 776 774 773 772 772 771 769 769 768 766 765 765 763 762 761 760 759 758 757 755 755 753 752 751 751 750 749 749 748 746 745 745 745 745 745 0 0 0 0 0 0 0 0 0 0 0 0 0 0 0 0 0 0 0 0 0 0 0 0 0 0 0 0 0 0 0 0 0 0 0 0 0 0 0 0 0 0 0 0 0 0 0 0 0 0 0 0 0 0 0 0 0 0 0 0 0 0 0 0 0 0 0 0 0 0 0 0 0 0 0 0 0 0 0 0 0 0 0 0 675 675 675 673 673 672 672 671 670 669 668 668 668 668 668 667 667 666 665 664 664 663 663 662 661 660 659 659 658 658 658 658 658 658 658 658 658 659 662 666 674 679 681 684 690 690 697 710 720 728 736 741 741 741 737 737 737 738 738 738 737 737 735 733 729 726 718 714 714 0
801 801 803 818 843 868 903 933 964 994 1027 1052 1077 1099 1124 1129 1152 1182 1216 1248 1280 1307 1331 1356 1380 1398 1422 1445 1465 1469 1488 1508 1529 1550 1573 1587 1598 1614 1639 1665 1673 1679 1681 1685 1686 1691 0 0 0 0 0 0 0 1576 1542 1506 1481 1472 1472 1472 1474 1481 1490 1502 1513 1521 1526 1526 1526 1529 1529 1529 1533 1535 1536 1537 1537 1535 1520 1487 1486 1424 0 0 0 0 0 0 0 0 0 1086 1076 1068 1061 1057 1049 1044 1042 1042 1040 1040 1038 1038 1038 1041 1041 1042 1058 0 0 0 0 0 0 2521 2521 2521 2504 2224 0 0 0 0 0 0 0 0 0 0 2515 2550 2609 2673 2770 2836 2926 3047 3189 3250 3284 3304 3334 3349 3360 3383 3383 3383 3385 3386 3390 3392 3392 3392 3389 3388 3385 3375 3357 3351 3345 3333 3320 3302 3285 3253 3214 3193 3183 3157 3105 3065 2961 2803 2751 2229 0 0 1766 1758 1755 1749 1747 1742 1738 1735 1735 1735 1736 1736 1736 1735 1734 1734 1734 1733 1730 1715 1685 0 0 0 0 0 1241 1224 1218 1215 1211 1208 1205 1203 1200 1198 1195 1192 1189 1187 1183 1181 1179 1176 1173 1171 1168 1166 1163 1160 1159 1155 1151 1149 1144 1137 1124 0 0 1021 1008 1005 1004 1003 1002 1000 1000 1000 1000 1001 1002 1003 1006 1009 1016 1031 1049 1060 1067 1070 1070 1070 1070 1070 1070 1069 1069 1067 1066 1064 1062 1060 1058 1055 1053 1049 1046 1042 1036 1032 1026 1017 1007 994 986 979 975 974 973 971 971 969 967 965 964 962 960 959 958 957 957 957 957 959 962 964 965 968 970 970 970 970 970 970 969 968 966 965 963 962 960 958 957 955 953 952 950 949 947 944 943 940 936 935 931 928 924 917 914 912 909 906 903 901 899 898 896 895 895 895 895 895 895 893 893 893 892 890 890 889 888 886 886 885 885 885 884 883 883 883 879 875 872 868 867 866 864 859 859 859 859 859 859 855 851 851 851 851 852 852 851 845 842 841 841 840 839 839 837 836 834 833 833 831 0 0 0 0 0 0 0 0 0 0 0 0 0 0 0 0 0 0 0 0 0 0 0 0 0 0 0 0 0 0 0 0 0 0 0 0 0 0 0 0 0 786 786 777 777 777 777 777 777 775 774 773 772 771 770 769 767 767 766 765 763 763 762 760 759 758 757 756 754 754 752 750 750 749 749 748 747 745 744 744 744 744 745 745 0 0 0 0 0 0 0 0 0 0 0 0 0 0 0 0 0 0 0 0 0 0 0 0 0 0 0 0 0 0 0 0 0 0 0 0 0 0 0 0 0 0 0 0 0 0 0 0 0 0 0 0 0 0 0 0 0 0 0 0 0 0 0 0 0 0 0 0 0 0 0 0 0 0 0 0 0 0 0 0 0 0 0 0 675 0 0 0 673 673 672 671 670 669 668 668 668 668 668 667 667 666 666 664 664 663 663 662 662 660 659 659 658 658 658 658 658 658 658 658 659 659 662 666 673 675 680 684 684 689 695 709 726 736 740 745 745 745 743 739 739 739 739 739 738 737 737 733 729 724 712 709 709 0
0 0 0 0 0 0 0 0 0 994 1027 1052 1077 1099 1124 1131 1152 1183 1216 1248 1277 1303 1327 1349 1375 1397 1418 1441 1466 1469 1488 1506 1525 1549 1573 1590 1602 1614 1639 1665 1673 1679 1685 1694 1695 1705 1719 1737 1746 1754 1755 0 0 0 0 0 0 0 0 0 0 0 0 0 0 1522 1526 1526 1526 1520 1520 1520 1522 1523 1524 0 0 0 0 0 0 0 0 0 0 0 0 0 1094 1078 1071 1067 1061 1055 1044 1034 1032 1032 1032 1032 1033 1034 1034 1036 1036 1040 1041 0 0 0 0 0 0 0 0 0 0 0 0 0 0 0 0 0 0 0 0 0 2427 2463 2515 2550 2609 2649 2719 2832 2939 3075 3168 3215 3234 3261 3288 3314 3332 3337 3339 3341 3341 3356 3358 3358 3358 3356 3356 3353 3350 3334 3319 3311 3301 3291 3276 3259 3248 3219 3189 3178 3162 3120 3065 3042 2889 2703 0 0 1785 1773 1765 1758 1755 1751 1747 1745 1744 1744 1742 1738 1738 1738 1737 1737 1735 1735 1734 1734 1729 1715 1688 0 0 0 0 0 1239 1224 1218 1215 1212 1208 1205 1204 1201 1198 1196 1193 1190 1187 1184 1181 1179 1176 1174 1171 1169 1166 1163 1161 1159 1155 1151 1149 1145 1137 1124 1104 0 1028 1014 1008 1005 1003 1002 1000 1000 1000 1000 1001 1002 1003 1006 1012 1016 1030 1047 1060 1067 1069 1070 1070 1070 1070 1070 1070 1069 1068 1066 1064 1063 1060 1058 1055 1053 1050 1047 1043 1038 1032 1026 1017 1007 996 985 979 975 974 973 971 970 968 966 964 963 961 959 958 957 956 955 955 955 958 959 961 964 968 970 971 971 971 971 971 969 969 967 966 964 963 962 960 958 956 954 952 951 949 947 946 943 941 938 935 931 930 924 915 912 909 905 901 898 896 895 891 890 889 888 887 887 887 890 890 890 889 888 887 887 887 886 884 883 883 883 883 884 884 883 883 879 879 878 877 875 870 864 863 863 863 863 863 863 857 854 853 853 854 854 854 854 854 852 847 844 842 841 839 838 838 838 838 837 836 0 0 0 0 0 0 0 0 0 0 0 0 0 0 0 0 0 0 0 0 0 0 0 0 0 0 0 0 0 0 0 0 0 0 0 0 0 0 0 0 0 782 782 777 777 777 777 777 776 775 773 773 772 771 769 769 767 766 766 764 763 761 761 760 759 757 756 754 754 753 751 749 749 748 747 746 744 742 742 742 742 744 744 744 0 0 0 0 0 0 0 0 0 0 0 0 0 0 0 0 0 0 0 0 0 0 0 0 0 0 0 0 0 0 0 0 0 0 0 0 0 0 0 0 0 0 0 0 0 0 0 0 0 0 0 0 0 0 0 0 0 0 0 0 0 0 0 0 0 0 0 0 0 0 0 0 0 0 0 0 0 0 0 0 0 0 0 677 677 0 0 0 674 673 673 672 670 669 669 669 669 669 668 668 667 666 666 664 664 663 663 662 662 661 660 659 658 658 658 658 658 658 658 658 659 662 663 665 671 674 679 680 680 685 695 710 726 736 741 745 745 745 743 742 742 741 741 740 740 739 737 733 727 718 712 709 709 0
0 0 0 0 0 0 0 0 0 0 1027 1052 1077 1099 1124 1136 1152 1183 1216 1247 1276 1300 1325 1347 1369 1394 1415 1440 1466 1469 1488 1506 1524 1545 1573 1590 1603 1614 1639 1661 1673 1680 1689 1699 1701 1712 1724 1737 1747 1760 1776 1795 1809 0 0 0 0 0 0 0 0 0 0 0 0 0 1530 1529 1526 1520 1520 1519 1519 1516 1513 0 0 0 0 0 0 0 0 0 0 0 0 0 1045 1045 1047 1047 1047 1037 1027 1019 1018 1018 1018 1021 1021 1021 1022 1022 1024 1030 1041 0 0 0 0 0 0 0 0 0 0 0 0 0 0 0 0 0 0 0 0 0 2427 2464 2515 2550 2609 2629 2718 2825 2939 3075 3166 3196 3220 3247 3269 3280 3291 3298 3298 3301 3307 3311 3312 3316 3317 3328 3328 3328 3306 3293 3282 3279 3269 3249 3235 3225 3220 3204 3188 3169 3136 3082 3012 2953 2694 2654 0 0 1771 1764 1761 1758 1756 1754 1750 1750 1750 1749 1748 1747 1743 1740 1738 1737 1737 1736 1735 1734 1730 1715 1688 0 0 0 0 0 1239 1224 1218 1215 1213 1209 1207 1204 1202 1199 1196 1193 1191 1187 1185 1182 1180 1177 1175 1172 1169 1166 1163 1161 1159 1155 1151 1149 1145 1137 1124 1104 0 1030 1022 1016 1011 1006 1002 1001 1001 1001 1001 1001 1003 1005 1009 1014 1016 1029 1047 1060 1067 1070 1070 1071 1071 1071 1071 1070 1069 1068 1066 1065 1063 1061 1058 1056 1053 1050 1047 1043 1039 1034 1028 1022 1008 1003 985 979 975 974 973 971 970 968 965 963 962 960 959 957 956 956 955 955 955 957 957 961 964 968 970 971 972 972 972 972 971 970 968 967 966 964 963 961 959 958 955 953 952 950 948 946 944 941 939 935 931 930 924 915 911 907 903 900 896 894 892 891 889 888 887 887 887 887 887 887 886 886 886 885 884 884 882 882 880 880 880 880 882 883 883 884 884 883 883 883 879 874 870 863 863 863 863 863 863 857 857 857 855 855 856 856 855 854 852 850 847 846 844 843 843 841 842 842 841 839 0 0 0 0 0 0 0 0 0 0 0 0 0 0 0 0 0 0 0 0 0 0 0 0 0 0 0 0 0 0 0 0 0 0 0 0 0 0 0 0 0 782 782 777 777 777 777 777 776 775 773 771 770 770 769 768 766 765 765 763 762 761 761 759 759 757 755 754 752 751 749 748 747 747 745 744 742 740 740 740 741 743 743 743 0 0 0 0 0 0 0 0 0 0 0 0 0 0 0 0 0 0 0 0 0 0 0 0 0 0 0 0 0 0 0 0 0 0 0 0 0 0 0 0 0 0 0 0 0 0 0 0 0 0 0 0 0 0 0 0 0 0 0 0 0 0 0 0 0 0 0 0 0 0 0 0 0 0 0 0 0 0 0 0 0 0 0 679 679 679 677 677 676 675 673 673 671 670 670 670 670 669 669 668 667 667 666 665 664 664 663 662 662 661 660 659 659 658 658 658 658 658 658 658 659 662 663 665 671 673 678 680 680 685 697 710 726 736 741 745 745 745 744 744 744 744 744 744 742 739 737 733 726 718 712 709 709 0
0 0 0 0 0 0 0 0 0 0 0 0 0 0 1118 1136 1151 1183 1214 1246 1273 1298 1324 1347 1369 1391 1413 1440 1465 1469 1486 1505 1521 1545 1570 1590 1603 1616 1638 1657 1671 1680 1690 1699 1703 1713 1724 1737 1747 1760 1777 1802 1818 1828 1835 1841 0 0 0 0 0 0 0 0 0 0 0 0 0 0 1520 1519 1519 1516 0 0 0 0 0 0 0 0 0 0 0 0 0 0 1025 1032 1032 1032 1030 1020 1015 1007 1005 1005 1005 1009 1009 1009 1010 1010 1012 1030 0 0 0 0 0 0 0 0 0 0 0 0 0 0 0 0 0 0 0 0 0 2403 2427 2464 2515 2559 2585 2624 2717 2809 2955 3075 3158 3193 3215 3233 3246 3252 3260 3269 3276 3276 3278 3278 3283 3287 3291 3294 3294 3294 3277 3262 3255 3249 3245 3233 3221 3215 3198 3175 3157 3131 3100 3064 2871 2741 2689 2505 0 0 1764 1759 1759 1759 1758 1758 1757 1756 1755 1752 1751 1750 1749 1745 1743 1739 1738 1737 1737 1737 1730 1717 1690 0 0 0 0 0 1239 1224 1218 1216 1215 1212 1208 1205 1203 1200 1196 1193 1191 1188 1186 1182 1180 1178 1175 1172 1170 1167 1164 1161 1159 1156 1154 1150 1144 1135 1124 1104 0 1030 1022 1019 1016 1010 1005 1002 1002 1002 1002 1003 1004 1007 1011 1014 1016 1028 1047 1060 1067 1070 1071 1072 1072 1072 1072 1071 1070 1068 1067 1065 1063 1061 1059 1056 1053 1050 1047 1043 1039 1035 1030 1023 1014 1005 985 979 975 974 973 972 970 967 965 962 960 959 957 956 956 955 955 954 954 954 957 960 964 968 970 971 972 972 972 972 972 970 969 969 966 965 964 962 960 959 957 955 953 951 949 947 945 942 940 936 933 930 925 915 911 906 903 899 896 893 891 890 889 887 886 886 886 886 886 884 884 884 884 883 883 881 879 876 876 876 877 880 880 883 883 884 884 884 883 883 879 878 0 0 0 0 0 0 0 0 0 0 854 854 854 855 855 854 852 850 847 846 844 843 843 842 843 843 843 0 0 0 0 0 0 0 0 0 0 0 0 0 0 0 0 0 0 0 0 0 0 0 0 0 0 0 0 0 0 0 0 0 0 0 0 0 0 0 0 0 0 781 781 779 778 777 777 777 776 775 772 771 770 769 768 768 766 765 764 763 761 761 760 759 758 755 753 753 751 749 747 746 746 746 745 744 742 740 740 740 740 742 742 742 0 0 0 0 0 0 0 0 0 0 0 0 0 0 0 0 0 0 0 0 0 0 0 0 0 0 0 0 0 0 0 0 0 0 0 0 0 0 0 0 0 0 0 0 0 0 0 0 0 0 0 0 0 0 0 0 0 0 0 0 0 0 0 0 0 0 0 0 0 0 0 0 0 0 0 0 0 0 0 0 0 0 0 680 680 680 678 678 676 676 674 673 672 672 672 671 670 670 669 669 667 667 667 665 664 664 663 663 662 661 660 659 659 658 658 658 658 657 658 658 659 662 663 665 670 672 677 680 680 685 697 710 723 732 741 743 743 743 743 743 746 748 748 748 745 740 737 733 726 718 712 709 709 709
0 0 0 0 0 0 0 0 0 0 0 0 0 0 0 0 0 0 0 0 1268 1291 1318 1343 1365 1390 1411 1437 1465 1468 1486 1502 1521 1545 1569 1590 1603 1616 1638 1655 1667 1679 1690 1700 1710 1713 1724 1735 1747 1760 1778 1802 1823 1832 1836 1842 1845 0 0 0 0 0 0 0 0 0 0 0 0 0 0 0 0 0 0 0 0 0 0 0 0 0 0 0 0 0 0 1022 1022 1031 1031 1031 1030 1019 1011 1007 1005 1002 1000 998 998 1000 1002 1004 1012 1030 0 0 0 0 0 0 0 0 0 0 0 0 0 0 0 0 0 0 0 0 2390 2398 2398 2464 2515 2559 2585 2623 2713 2797 2949 3072 3140 3164 3196 3224 3236 3240 3242 3245 3259 3260 3261 3262 3268 3276 3278 3278 3278 3263 3242 3239 3231 3222 3212 3211 3209 3191 3152 3132 3113 3082 3053 3014 2795 2740 2683 0 0 0 1756 1756 1756 1758 1759 1759 1759 1759 1756 1755 1753 1753 1750 1749 1748 1746 1745 1743 1743 1740 1735 1726 1701 0 0 0 0 0 0 1228 1221 1219 1215 1213 1209 1206 1203 1200 1197 1194 1192 1188 1187 1183 1181 1178 1176 1173 1170 1168 1165 1161 1159 1156 1154 1151 1143 1134 1127 1105 0 1031 1022 1019 1016 1012 1008 1004 1004 1004 1004 1004 1005 1008 1012 1015 1016 1027 1044 1060 1066 1069 1071 1072 1072 1072 1072 1071 1070 1069 1068 1066 1064 1061 1059 1056 1053 1050 1047 1043 1039 1036 1031 1023 1015 1005 986 979 975 975 973 972 970 967 964 961 959 958 956 956 955 954 954 954 954 954 956 959 964 968 970 972 973 973 973 973 972 971 969 969 968 966 965 963 961 959 958 955 954 951 949 947 945 942 940 937 935 932 926 917 911 906 903 899 896 893 891 890 889 887 887 886 886 886 885 883 882 882 882 882 882 880 877 876 876 876 877 880 880 882 882 883 884 884 883 883 879 0 0 0 0 0 0 0 0 0 0 0 0 0 0 0 0 0 0 0 0 0 0 0 0 0 0 0 0 0 0 0 0 0 0 0 0 0 0 0 0 0 0 0 0 0 0 0 0 0 0 0 0 0 0 0 0 0 0 0 0 0 0 0 0 0 0 0 0 0 0 781 781 781 782 779 779 779 776 775 772 769 768 767 766 765 764 764 764 763 760 760 759 757 756 753 752 751 751 749 746 746 745 745 745 744 742 740 740 740 740 741 741 741 0 0 0 0 0 0 0 0 0 0 0 0 0 0 0 0 0 0 0 0 0 0 0 0 0 0 0 0 0 0 0 0 0 0 0 0 0 0 0 0 0 0 0 0 0 0 0 0 0 0 0 0 0 0 0 0 0 0 0 0 0 0 0 0 0 0 0 0 0 0 0 0 0 0 0 0 0 0 0 0 0 0 0 683 683 680 678 678 677 676 674 673 672 672 672 672 670 670 670 669 668 668 667 666 665 665 664 663 662 661 661 660 659 658 658 657 657 657 657 658 659 661 662 663 664 671 675 680 680 685 697 710 721 726 733 736 738 738 741 741 746 749 749 749 749 746 742 734 726 720 714 709 709 709
0 0 0 0 0 0 0 0 0 0 0 0 0 0 0 0 0 0 0 0 0 0 0 0 0 0 0 1433 1455 1468 1480 1501 1520 1543 1569 1588 1603 1616 1638 1651 1661 1674 1689 1700 1710 1713 1723 1732 1746 1759 1778 1802 1823 1832 1836 1842 1845 0 0 0 0 0 0 0 0 0 0 0 0 0 0 0 0 0 0 0 0 0 0 0 0 0 0 0 0 0 1022 1022 1022 1031 1031 1031 1030 1019 1011 1007 1005 1002 996 996 996 997 1002 1004 1012 0 0 0 0 0 0 0 0 0 0 0 0 0 0 0 0 0 0 0 0 2388 2388 2389 2389 2434 2493 2559 2585 2611 2668 2797 2943 3052 3095 3134 3174 3206 3225 3225 3226 3226 3226 3242 3243 3249 3251 3252 3252 3252 3252 3229 3202 3202 3199 3197 3197 3196 3184 3149 3102 3068 3046 3002 2953 2838 2756 2715 0 0 0 1757 1756 1756 1756 1758 1759 1759 1759 1759 1758 1758 1756 1756 1756 1755 1755 1755 1755 1754 1751 1749 1747 1743 1721 0 0 0 0 0 0 1228 1224 1222 1219 1215 1209 1206 1204 1202 1197 1195 1193 1191 1187 1185 1182 1178 1176 1173 1170 1168 1165 1162 1159 1157 1154 1152 1143 1134 1127 1105 0 1030 1022 1019 1016 1013 1011 1008 1007 1007 1007 1007 1009 1011 1013 1016 1017 1027 1041 1057 1065 1069 1072 1072 1072 1072 1072 1072 1071 1069 1068 1066 1064 1062 1059 1056 1053 1050 1047 1043 1039 1036 1032 1024 1015 1005 990 982 978 975 974 972 970 967 964 961 958 957 956 955 954 954 954 953 953 953 954 959 964 968 970 972 973 973 973 973 973 972 970 970 968 966 965 964 962 960 958 956 954 952 950 948 945 943 940 937 935 932 926 918 912 906 903 899 896 893 891 890 888 887 886 886 886 885 883 882 881 880 879 879 879 878 877 876 876 876 877 877 880 882 883 886 0 0 0 878 0 0 0 0 0 0 0 0 0 0 0 0 0 0 0 0 0 0 0 0 0 0 0 0 0 0 0 0 0 0 0 841 836 831 831 831 831 831 827 826 0 0 0 0 0 0 0 0 0 0 0 0 0 0 0 0 0 0 0 0 0 0 0 0 0 0 0 0 0 0 0 779 781 781 782 782 782 779 776 774 771 769 767 766 765 764 764 764 764 763 760 758 757 754 752 752 751 751 751 749 746 745 745 745 745 744 742 740 740 739 739 739 739 739 0 0 0 0 0 0 0 0 0 0 0 0 0 0 0 0 0 0 0 0 0 0 0 0 0 0 0 0 0 0 0 0 0 0 0 0 0 0 0 0 0 0 0 0 0 0 0 0 0 0 0 0 0 0 0 0 0 0 0 0 0 0 0 0 0 0 0 0 0 0 0 0 0 0 0 0 0 0 0 0 0 0 0 684 684 680 678 678 678 676 675 673 673 672 672 672 671 670 670 669 668 668 667 666 665 665 664 663 663 661 661 660 659 658 658 657 657 657 657 657 658 661 661 661 662 668 673 680 680 685 697 710 716 720 729 731 734 735 739 740 746 749 749 749 749 746 743 738 730 724 720 714 713 713
0 0 0 0 0 0 0 0 0 0 0 0 0 0 0 0 0 0 0 0 0 0 0 0 0 0 0 0 0 0 0 0 0 0 0 1575 1594 1611 1629 1640 1651 1664 1683 1699 1710 1713 1722 1732 1744 1758 1776 1802 1823 1832 1836 1838 1845 0 0 0 0 0 0 0 0 0 0 0 0 0 0 0 0 0 0 0 0 0 0 0 0 0 0 0 0 0 1022 1022 1022 1032 1036 1036 1036 1019 1012 1011 1011 1005 996 996 996 996 999 1012 1040 0 0 0 0 0 0 0 0 0 0 0 0 0 0 0 0 0 0 0 0 2373 2373 2373 2373 2393 2435 2488 2534 2566 2650 2797 2943 3032 3071 3101 3138 3165 3181 3182 3184 3189 3199 3214 3217 3230 3231 3233 3233 3233 3226 3193 3163 3163 3163 3169 3169 3169 3150 3112 3062 3019 2984 2937 2863 2808 2743 2537 0 0 0 1757 1756 1756 1756 1757 1759 1759 1759 1759 1758 1758 1757 1757 1757 1757 1757 1758 1758 1758 1758 1757 1756 1755 1738 0 0 0 0 0 0 1230 1225 1224 1220 1217 1210 1207 1205 1203 1200 1196 1194 1191 1188 1185 1182 1179 1176 1174 1172 1168 1165 1162 1159 1157 1154 1151 1143 1134 1128 1108 0 1030 1019 1019 1017 1016 1015 1012 1011 1010 1010 1010 1011 1012 1013 1017 1018 1027 1040 1056 1065 1070 1072 1073 1073 1073 1073 1072 1071 1070 1068 1066 1064 1062 1059 1056 1053 1050 1047 1043 1039 1036 1032 1024 1017 1001 991 985 981 977 974 973 969 967 964 961 958 957 956 955 954 953 953 952 952 952 954 958 964 968 970 972 974 974 974 973 973 972 971 970 968 967 965 964 962 960 958 956 954 953 950 948 946 943 940 937 935 932 927 919 913 907 903 900 896 893 890 888 887 887 886 886 885 884 883 882 881 880 879 878 878 877 877 877 877 877 877 877 879 880 883 886 0 0 0 0 0 0 0 0 0 0 0 0 0 0 0 0 0 0 0 0 0 0 0 0 0 0 0 0 0 0 0 0 0 0 842 836 835 834 833 833 832 831 830 828 828 822 821 818 818 812 810 0 0 0 0 0 0 0 0 0 0 0 0 0 0 0 0 0 0 0 0 0 0 0 0 782 782 782 782 782 782 779 776 771 771 769 767 766 765 764 764 764 764 762 760 757 753 750 750 749 749 749 749 749 746 745 745 744 744 743 742 740 738 738 738 738 739 739 0 0 0 0 0 0 0 0 0 0 0 0 0 0 0 0 0 0 0 0 0 0 0 0 0 0 0 0 0 0 0 0 0 0 0 0 0 0 0 0 0 0 0 0 0 0 0 0 0 0 0 0 0 0 0 0 0 0 0 0 0 0 0 0 0 0 0 0 0 0 0 0 0 0 0 0 0 0 0 0 0 0 0 684 684 681 680 680 679 677 676 675 674 673 673 672 672 671 671 669 669 669 668 666 666 665 664 663 663 662 661 660 659 658 658 657 657 657 657 657 658 659 660 661 661 666 671 672 676 677 679 706 711 715 722 729 731 732 734 735 741 745 749 749 749 746 745 740 734 730 730 729 729 729
0 0 0 0 0 0 0 0 0 0 0 0 0 0 0 0 0 0 0 0 0 0 0 0 0 0 0 0 0 0 0 0 0 0 0 0 0 0 1609 1627 1639 1657 1682 1698 1707 1713 1721 1731 1736 1750 1763 1776 1791 1805 1813 1815 0 0 0 0 0 0 0 0 0 0 0 0 0 0 0 0 0 0 0 0 0 0 0 0 0 0 0 0 0 1100 1045 1040 1040 1040 1051 1051 1051 1031 1020 1012 1011 1005 996 992 992 992 999 1012 1040 0 0 0 0 0 0 0 0 0 0 0 0 0 0 0 0 0 0 0 0 2403 2359 2359 2359 2393 2427 2458 2507 2549 2650 2800 2943 3015 3055 3075 3098 3120 3132 3141 3153 3161 3173 3191 3202 3204 3209 3213 3213 3213 3186 3145 3131 3131 3126 3126 3123 3116 3108 3076 3052 2998 2951 2875 2863 2778 2676 0 0 0 1762 1758 1757 1757 1757 1757 1758 1758 1758 1758 1758 1758 1758 1758 1758 1759 1760 1761 1763 1765 1769 1769 1769 1759 1752 0 0 0 0 0 0 1235 1228 1224 1222 1218 1213 1209 1206 1204 1201 1197 1194 1191 1188 1185 1183 1180 1177 1175 1172 1168 1165 1162 1159 1157 1154 1150 1144 1134 1129 1114 0 1032 1019 1019 1019 1019 1019 1019 1014 1013 1012 1012 1012 1014 1015 1018 1022 1027 1040 1056 1065 1072 1073 1073 1073 1073 1073 1073 1072 1070 1069 1067 1065 1062 1060 1056 1053 1050 1047 1044 1041 1038 1034 1027 1017 1001 992 986 982 978 975 973 969 967 964 961 958 957 956 955 954 953 953 952 952 952 953 958 963 968 970 972 974 974 974 973 973 973 971 970 968 968 965 964 963 961 959 957 955 953 950 948 946 943 941 937 934 930 927 919 914 907 903 900 896 893 890 888 887 886 886 886 885 884 883 881 880 880 879 878 878 878 877 877 877 877 877 877 878 880 883 886 886 0 0 0 0 0 0 0 0 0 0 0 0 0 0 0 0 0 0 0 0 0 0 0 0 0 0 0 0 0 0 0 0 0 842 836 835 833 833 833 833 831 831 830 829 826 823 821 820 817 815 812 808 808 808 807 805 802 802 800 0 0 0 0 0 0 0 0 0 0 0 0 0 0 0 0 783 782 782 782 782 779 775 771 771 769 767 765 765 765 765 765 765 762 758 757 753 750 750 749 749 749 748 748 748 745 744 742 742 741 741 740 739 737 737 736 736 736 0 0 0 0 0 0 0 0 0 0 0 0 0 0 0 0 0 0 0 0 0 0 0 0 0 0 0 0 0 0 0 0 0 0 0 0 0 0 0 0 0 0 0 0 0 0 0 0 0 0 0 0 0 0 0 0 0 0 0 0 0 0 0 0 0 0 0 0 0 0 0 0 0 0 0 0 0 0 0 0 0 0 684 684 684 682 682 681 679 679 677 675 674 674 673 672 672 672 671 670 670 669 668 667 667 665 665 663 663 663 661 660 659 659 658 658 657 657 656 656 656 657 658 658 659 665 665 665 665 665 665 690 705 714 720 720 721 723 723 723 730 736 738 746 746 746 746 746 745 739 736 736 736 736
0 0 0 0 0 0 0 0 0 0 0 0 0 0 0 0 0 0 0 0 0 0 0 0 0 0 0 0 0 0 0 0 0 0 0 0 0 0 0 0 0 0 0 0 0 0 1709 1724 1731 1735 0 0 0 0 0 0 0 0 0 0 0 0 0 0 0 0 0 0 0 0 0 0 0 0 0 0 0 0 0 0 0 0 0 0 0 1100 1060 1047 1047 1047 1054 1054 1054 1046 1020 1012 1011 1005 988 983 983 983 995 1012 0 0 0 0 0 0 0 0 0 0 0 0 0 0 0 0 0 0 0 0 0 2421 2338 2338 2338 2384 2420 2457 2500 2548 2650 2803 2928 2991 3027 3040 3053 3084 3102 3119 3120 3122 3134 3164 3166 3166 3166 3165 3162 3160 3148 3106 3103 3100 3100 3097 3084 3083 3082 3073 3033 2982 2912 2846 2807 2745 0 0 0 1762 1762 1760 1758 1757 1757 1757 1757 1757 1758 1758 1757 1757 1758 1758 1758 1759 1762 1764 1766 1771 1775 1775 1775 1770 1752 1730 0 0 0 0 0 1245 1232 1227 1223 1218 1214 1211 1207 1204 1201 1198 1195 1192 1189 1186 1183 1181 1178 1175 1172 1169 1165 1162 1159 1157 1154 1152 1144 1135 1133 1120 0 1037 1025 1025 1025 1025 1025 1022 1017 1015 1013 1013 1013 1015 1017 1021 1027 1031 1040 1055 1065 1072 1073 1073 1073 1073 1073 1073 1072 1070 1069 1067 1065 1062 1060 1057 1054 1051 1048 1046 1043 1039 1035 1030 1018 1001 992 986 982 979 976 973 969 967 965 962 959 958 957 955 954 953 953 953 953 953 953 958 963 968 970 971 973 973 973 973 973 973 972 970 969 968 966 965 963 961 959 957 955 953 950 948 946 943 941 937 934 930 926 920 915 907 903 900 896 893 890 888 887 886 885 885 884 884 882 881 880 879 879 878 878 878 878 878 877 876 876 877 878 880 883 886 886 0 0 0 0 0 0 0 0 0 0 0 0 0 0 0 0 0 0 0 0 0 0 0 0 0 0 0 0 0 0 0 0 0 0 837 835 833 833 833 832 831 831 830 829 826 823 822 820 819 817 815 810 810 810 809 809 805 802 801 801 800 800 800 795 790 790 790 790 789 788 788 788 0 0 0 0 0 0 0 0 0 0 770 767 765 765 765 765 765 767 767 767 762 758 757 753 750 750 749 749 749 750 750 750 747 744 742 742 741 741 740 739 737 736 735 735 735 735 0 0 0 0 0 0 0 0 0 0 0 0 0 0 0 0 0 0 0 0 0 0 0 0 0 0 0 0 0 0 0 0 0 0 0 0 0 0 0 0 0 0 0 0 0 0 0 0 0 0 0 0 0 0 0 0 0 0 0 0 0 0 0 0 0 0 0 0 0 0 0 0 0 0 0 0 0 0 0 0 681 684 684 684 683 682 681 680 679 678 677 675 674 674 673 673 672 672 671 670 670 669 668 667 666 665 664 663 663 661 661 660 659 659 658 657 657 656 656 656 656 656 656 657 662 662 662 659 659 659 677 699 714 717 717 717 711 711 711 714 717 725 735 742 746 746 751 751 751 739 739 739 739
414 414 0 0 0 0 0 0 0 0 0 0 0 0 0 0 0 0 0 0 0 0 0 0 0 0 0 0 0 0 0 0 0 0 0 0 0 0 0 0 0 0 0 0 0 0 0 0 0 0 0 0 0 0 0 0 0 0 0 0 0 0 0 0 0 0 0 0 0 0 0 0 0 0 0 0 0 0 0 0 0 0 0 0 0 1100 1060 1047 1047 1047 1054 1054 1054 1046 1020 1000 987 973 962 962 962 971 985 1006 0 0 0 0 0 0 0 0 0 0 0 0 0 0 0 0 0 0 0 0 0 0 2336 2336 2336 2361 2406 2443 2478 2535 2654 2808 2912 2962 2982 2990 3005 3027 3049 3068 3084 3087 3104 3114 3116 3116 3117 3118 3118 3118 3114 3091 3087 3082 3080 3060 3060 3060 3053 3053 3024 2923 2862 2827 2751 2522 0 0 0 1763 1762 1761 1759 1759 1759 1758 1758 1758 1757 1757 1756 1756 1756 1757 1758 1760 1763 1764 1766 1771 1775 1778 1778 1778 1769 1747 0 0 0 0 0 1246 1234 1229 1223 1218 1215 1211 1208 1204 1201 1199 1196 1193 1190 1187 1185 1182 1179 1175 1172 1169 1166 1162 1159 1156 1154 1152 1146 1139 1134 1123 0 1046 1025 1025 1025 1025 1025 1022 1017 1016 1014 1014 1014 1017 1019 1024 1027 1033 1042 1055 1066 1073 1074 1074 1074 1074 1073 1073 1072 1071 1069 1067 1065 1063 1060 1058 1055 1052 1050 1047 1044 1039 1036 1032 1021 1004 992 986 982 979 976 973 969 968 965 963 961 959 958 957 955 954 953 953 953 953 953 958 963 968 970 971 973 974 974 974 973 973 972 971 969 968 966 965 963 961 960 957 955 953 951 948 946 944 941 937 934 930 927 921 915 908 903 899 896 892 890 888 887 886 885 884 883 883 882 881 880 880 879 878 878 878 878 878 876 876 876 876 878 883 883 886 886 0 0 0 0 0 0 0 0 0 0 0 0 0 0 0 0 0 0 0 0 0 0 0 0 0 0 0 0 0 0 0 0 0 0 838 838 835 833 833 831 831 831 830 828 824 823 822 820 820 817 815 811 811 810 808 808 802 800 800 800 800 800 800 795 794 793 792 790 789 789 789 789 789 0 0 0 0 0 0 0 0 0 0 0 0 0 0 0 0 0 0 767 757 756 755 751 750 749 749 747 747 747 747 747 747 744 742 742 741 741 741 740 738 736 735 735 735 735 0 0 0 0 0 0 0 0 0 0 0 0 0 0 0 0 0 0 0 0 0 0 0 0 0 0 0 0 0 0 0 0 0 0 0 0 0 0 0 0 0 0 0 0 0 0 0 0 0 0 0 0 0 0 0 0 0 0 0 0 0 0 0 0 0 0 0 0 0 0 0 0 0 0 0 0 0 0 0 682 682 685 685 685 683 683 681 680 679 678 677 676 675 675 674 674 673 672 671 671 670 670 668 668 666 666 665 663 663 662 662 660 659 659 658 657 657 656 656 655 655 654 654 654 657 657 657 650 650 650 660 685 705 709 709 709 700 700 694 694 694 701 724 737 746 749 757 757 757 752 746 742 742
413 413 414 421 428 428 431 432 439 447 447 0 0 0 0 0 0 0 0 0 0 0 0 0 0 0 0 0 0 0 0 0 0 0 0 0 0 0 0 0 0 0 0 0 0 0 0 0 0 0 0 0 0 0 0 0 0 0 0 0 0 0 0 0 0 0 0 0 0 0 0 0 0 0 0 0 0 0 0 0 0 0 0 0 0 1074 1071 1059 1059 1059 1069 1069 1069 1047 1023 1000 972 940 940 940 949 963 980 0 0 0 0 0 0 0 0 0 0 0 0 0 0 0 0 0 0 0 0 0 0 0 2312 2312 2336 2360 2387 2426 2469 2535 2656 2819 2908 2939 2960 2972 2983 2995 3008 3025 3052 3066 3070 3072 3074 3084 3086 3097 3097 3097 3082 3063 3052 3048 3034 3002 3002 2998 2996 2990 2938 2853 2821 2816 2662 0 0 0 1765 1763 1762 1761 1761 1761 1760 1760 1758 1758 1757 1757 1756 1756 1756 1758 1759 1761 1763 1766 1766 1771 1775 1778 1778 1778 1777 1760 0 0 0 0 0 1247 1234 1229 1223 1218 1215 1212 1208 1205 1203 1200 1196 1194 1191 1187 1185 1182 1179 1176 1172 1169 1166 1162 1159 1156 1154 1153 1148 1140 1134 1124 0 1049 1026 1026 1025 1025 1025 1022 1017 1016 1016 1016 1018 1020 1024 1024 1027 1034 1043 1056 1067 1073 1075 1075 1075 1075 1074 1073 1072 1071 1069 1068 1065 1064 1061 1058 1055 1052 1050 1047 1044 1040 1036 1033 1026 1010 992 985 982 979 977 973 970 968 965 963 961 961 959 958 957 955 953 953 953 953 954 958 964 967 970 971 973 974 974 974 973 973 973 971 970 968 966 965 963 961 961 958 956 953 951 948 946 944 941 938 935 932 927 922 915 908 903 898 895 892 890 888 887 887 885 884 883 883 882 881 880 880 879 879 878 878 878 877 876 875 875 875 878 883 884 886 886 0 0 0 0 0 0 0 0 0 0 0 0 0 0 0 0 0 0 0 0 0 0 0 0 0 0 0 0 0 0 0 0 0 0 839 839 838 833 832 831 831 829 827 826 824 823 822 820 820 817 815 812 812 812 812 808 802 798 798 798 799 799 799 795 795 793 793 789 789 789 790 790 790 0 0 0 0 0 0 0 0 0 0 0 0 0 0 0 0 0 0 0 0 0 0 0 0 0 0 0 0 0 0 0 747 741 741 741 740 740 740 739 738 738 737 735 735 734 0 0 0 0 0 0 0 0 0 0 0 0 0 0 0 0 0 0 0 0 0 0 0 0 0 0 0 0 0 0 0 0 0 0 0 0 0 0 0 0 0 0 0 0 0 0 0 0 0 0 0 0 0 0 0 0 0 0 0 0 0 0 0 0 0 0 0 0 0 0 0 0 0 0 0 0 0 0 682 683 683 685 685 685 683 683 681 680 679 678 678 677 676 675 675 674 674 673 673 671 670 670 669 668 667 666 665 665 664 662 662 661 660 659 659 658 656 656 655 655 654 654 648 646 646 646 646 641 634 634 634 646 685 700 700 700 688 687 676 674 674 674 706 732 742 760 767 767 767 761 758 753 753
412 412 414 419 419 419 421 422 424 432 433 436 439 442 449 0 0 0 0 0 0 0 0 0 0 0 0 0 0 0 0 0 0 0 0 0 0 0 0 0 0 0 0 0 0 0 0 0 0 0 0 0 0 0 0 0 0 0 0 0 0 0 0 0 0 0 0 0 0 0 0 0 0 0 0 0 0 0 0 0 0 0 0 0 0 0 1076 1063 1063 1063 1071 1071 1071 1051 0 0 0 940 940 940 949 960 979 0 0 0 0 0 0 0 0 0 0 0 0 0 0 0 0 0 0 0 0 0 0 0 2277 2277 2317 2358 2385 2426 2469 2535 2678 2819 2904 2926 2935 2953 2968 2982 2996 3004 3010 3025 3025 3033 3048 3062 3075 3075 3075 3067 3037 3017 3003 2995 2982 2965 2964 2958 2944 2892 2851 2770 2693 2651 2537 0 0 0 1763 1763 1762 1762 1762 1761 1761 1760 1758 1758 1757 1757 1756 1756 1756 1758 1759 1761 1765 1766 1766 1768 1775 1778 1778 1778 1777 1760 0 0 0 0 0 1247 1234 1229 1223 1218 1215 1212 1209 1206 1204 1200 1197 1195 1192 1189 1186 1183 1180 1177 1173 1169 1166 1162 1159 1156 1155 1154 1149 1142 1135 1128 0 1050 1026 1024 1023 1023 1019 1018 1017 1017 1018 1018 1021 1024 1025 1025 1028 1034 1046 1058 1067 1074 1075 1075 1075 1075 1074 1073 1072 1071 1070 1068 1066 1064 1061 1058 1055 1053 1050 1047 1044 1040 1037 1033 1026 1011 992 985 982 979 977 973 971 968 966 964 962 961 960 959 957 957 955 955 955 955 957 960 964 967 971 972 974 974 974 974 974 974 973 972 971 968 967 965 964 962 961 958 956 954 952 949 947 945 942 939 935 932 927 923 917 908 903 898 895 892 890 889 888 888 886 884 883 883 882 881 880 880 879 879 879 879 878 877 876 875 875 875 878 883 884 886 886 0 0 0 0 0 0 0 0 0 0 0 0 0 0 0 0 0 0 0 0 0 0 0 0 0 0 0 0 0 0 0 0 0 0 840 840 839 833 832 831 828 828 827 825 822 821 820 820 819 817 814 814 814 814 811 808 802 799 799 798 798 798 797 795 795 794 791 788 788 788 790 790 790 0 0 0 0 0 0 0 0 0 0 0 0 0 0 0 0 0 0 0 0 0 0 0 0 0 0 0 0 0 0 0 0 0 0 0 0 0 0 0 0 738 736 735 735 0 0 0 0 0 0 0 0 0 0 0 0 0 0 0 0 0 0 0 0 0 0 0 0 0 0 0 0 0 0 0 0 0 0 0 0 0 0 0 0 0 0 0 0 0 0 0 0 0 0 0 0 0 0 0 0 0 0 0 0 0 0 0 0 0 0 0 0 0 0 0 0 0 0 0 0 0 0 681 683 683 683 685 685 685 683 683 681 680 679 678 678 677 676 675 675 674 674 673 673 672 671 670 669 669 667 666 665 665 664 663 662 661 661 659 659 658 656 656 655 654 653 653 648 645 641 637 630 627 619 619 619 625 645 680 687 687 687 677 663 644 644 644 0 0 741 760 767 767 767 761 758 753 753
410 410 412 414 414 414 414 414 416 425 427 430 434 441 444 450 458 460 462 464 467 0 0 0 0 0 0 0 0 0 0 0 0 0 0 0 0 0 0 0 0 0 0 0 0 0 0 0 0 0 0 0 0 0 0 0 0 0 0 0 0 0 0 0 0 0 0 0 0 0 0 0 0 0 0 0 0 0 0 0 0 0 0 0 0 0 0 0 0 0 0 0 0 0 0 0 0 0 0 940 946 960 0 0 0 0 0 0 0 0 0 0 0 0 0 0 0 0 0 0 0 0 0 0 0 0 2276 2276 2313 2356 2385 2426 2469 2540 2689 2819 2898 2916 2928 2933 2950 2962 2980 2984 2988 2996 3005 3017 3025 3032 3039 3039 3039 3032 3007 2986 2976 2960 2947 2942 2938 2932 2905 2860 2789 2726 2676 2605 0 0 0 1762 1762 1762 1762 1762 1762 1761 1761 1760 1759 1758 1758 1757 1757 1757 1758 1759 1760 1762 1765 1766 1766 1766 1770 1776 1777 1777 1777 1760 1738 0 0 0 0 1247 1233 1227 1223 1218 1216 1215 1211 1207 1204 1200 1198 1195 1192 1190 1187 1183 1181 1178 1174 1170 1167 1164 1161 1158 1157 1156 1152 1142 1135 1129 0 1053 1026 1023 1020 1018 1017 1017 1017 1021 1021 1021 1022 1024 1025 1025 1028 1036 1050 1059 1067 1074 1076 1076 1076 1075 1075 1074 1073 1072 1070 1068 1066 1064 1062 1060 1057 1054 1050 1047 1044 1041 1037 1033 1026 1013 992 985 982 979 978 974 971 969 967 965 964 962 961 960 958 957 957 956 956 956 958 961 964 967 971 973 974 975 975 975 975 974 973 972 971 969 967 966 964 963 961 959 956 955 952 950 948 946 943 940 938 933 928 924 917 908 903 898 895 892 890 890 889 888 886 885 884 883 882 881 881 881 880 879 879 879 878 877 876 874 874 874 878 882 884 884 884 0 0 0 0 0 0 0 0 0 0 0 0 0 0 0 0 0 0 0 0 0 0 0 0 0 0 0 0 0 0 0 0 0 0 839 839 834 834 832 831 828 827 825 825 822 821 820 820 819 817 816 815 815 814 811 808 802 799 799 798 798 797 796 795 795 795 793 788 788 788 788 788 788 0 0 0 0 0 0 0 0 0 0 0 0 0 0 0 0 0 0 0 0 0 0 0 0 0 0 0 0 0 0 0 0 0 0 0 0 0 0 0 0 0 0 0 0 0 0 0 0 0 0 0 0 0 0 0 0 0 0 0 0 0 0 0 0 0 0 0 0 0 0 0 0 0 0 0 0 0 0 0 0 0 0 0 0 0 0 0 0 0 0 0 0 0 0 0 0 0 0 0 0 0 0 0 0 0 0 0 0 0 0 0 0 0 0 0 0 0 0 0 0 0 0 684 684 684 684 684 683 683 682 681 680 680 679 678 678 677 677 676 675 674 674 673 673 672 671 670 669 669 668 667 666 665 664 664 662 661 661 660 659 658 656 656 654 654 653 653 648 640 640 624 620 615 610 610 610 614 635 664 675 675 675 668 655 631 631 631 0 0 739 760 767 767 767 761 758 753 753
407 407 410 410 410 405 405 405 411 416 421 426 434 439 443 449 453 453 453 454 455 456 464 478 0 0 0 0 0 0 0 0 0 0 0 0 0 0 0 0 0 0 0 0 0 0 0 0 0 0 0 0 0 0 0 0 0 0 0 0 0 0 0 0 0 0 0 0 0 0 0 0 0 0 0 0 0 0 0 0 0 0 0 0 0 0 0 0 0 0 0 0 0 0 0 0 0 0 0 0 0 0 0 0 0 0 0 0 0 0 0 0 0 0 0 0 0 0 0 0 0 0 0 0 0 0 2268 2268 2309 2353 2385 2426 2471 2584 2732 2819 2868 2898 2910 2915 2920 2926 2943 2957 2969 2982 2991 2992 2996 2996 3005 3005 3005 2998 2973 2958 2945 2932 2929 2921 2920 2910 2865 2795 2754 2715 2645 0 0 0 0 1760 1760 1761 1762 1762 1762 1761 1761 1760 1759 1759 1759 1759 1759 1759 1761 1761 1762 1764 1765 1765 1765 1766 1768 1769 1769 1769 1767 1754 1738 0 0 0 0 1247 1231 1227 1223 1222 1221 1216 1212 1208 1205 1201 1198 1195 1193 1190 1187 1184 1181 1178 1175 1170 1167 1164 1162 1160 1158 1156 1152 1142 1135 1129 0 0 1026 1023 1020 1018 1017 1017 1017 1023 1024 1024 1024 1025 1025 1025 1028 1043 1053 1060 1068 1074 1076 1076 1076 1076 1075 1074 1073 1072 1070 1068 1066 1064 1062 1060 1057 1054 1051 1048 1044 1041 1037 1033 1026 1013 993 986 983 981 979 976 973 971 969 967 964 963 962 960 958 958 958 958 958 958 960 962 965 967 971 973 975 975 975 975 975 974 974 973 971 969 968 966 964 963 961 960 957 955 953 951 949 946 944 941 938 934 928 925 917 908 903 899 896 893 892 891 890 888 886 885 885 884 882 882 882 882 881 880 880 879 878 878 876 874 874 874 878 882 883 885 0 0 0 0 0 0 0 0 0 0 0 0 0 0 0 0 0 0 0 0 0 0 0 0 0 0 0 0 0 0 0 0 0 0 0 841 834 833 832 832 831 828 827 825 825 822 821 820 820 819 817 816 815 815 814 811 808 802 800 799 798 798 797 796 796 795 795 793 789 788 788 787 787 785 0 0 0 0 0 0 0 0 0 0 0 0 0 0 0 0 0 0 0 0 0 0 0 0 0 0 0 0 0 0 0 0 0 0 0 0 0 0 0 0 0 0 0 0 0 0 0 0 0 0 0 0 0 0 0 0 0 0 0 0 0 0 0 0 0 0 0 0 0 0 0 0 0 0 0 0 0 0 0 0 0 0 0 0 0 0 0 0 0 0 0 0 0 0 0 0 0 0 0 0 0 0 0 0 0 0 0 0 0 0 0 0 0 0 0 0 0 0 0 0 0 686 686 685 685 684 683 683 682 681 681 680 680 679 679 678 678 677 676 675 675 674 673 673 672 671 670 669 669 668 667 666 665 664 664 663 661 661 660 659 658 656 656 654 654 653 653 648 639 624 618 618 614 605 605 605 608 633 656 666 666 666 660 648 628 628 628 0 0 726 751 759 759 759 751 749 748 748
399 399 399 401 402 403 403 403 403 407 414 421 431 435 440 448 449 450 450 450 450 453 461 472 485 497 507 507 509 510 510 518 534 534 552 0 0 0 0 0 0 0 0 0 0 0 0 0 0 0 0 0 0 0 0 0 0 0 0 0 0 0 0 0 0 0 0 0 0 0 0 0 0 0 0 0 0 0 0 0 0 0 0 0 0 0 0 0 0 0 0 0 0 0 0 0 0 0 0 0 0 0 0 0 0 0 0 0 0 0 0 0 0 0 0 0 0 0 0 0 0 0 0 0 0 0 2248 2267 2292 2345 2387 2437 2510 2645 2732 2803 2826 2858 2875 2892 2899 2900 2909 2921 2943 2962 2962 2962 2954 2953 2950 2950 2949 2947 2938 2928 2914 2912 2899 2885 2874 2855 2796 2757 2709 2691 2528 0 0 0 1760 1760 1760 1760 1760 1760 1760 1760 1760 1760 1759 1759 1759 1759 1759 1760 1761 1762 1763 1764 1764 1765 1765 1765 1766 1768 1768 1768 1766 1751 1704 0 0 0 0 1244 1231 1227 1223 1222 1221 1216 1212 1208 1206 1201 1199 1196 1193 1191 1187 1184 1181 1178 1175 1171 1168 1165 1163 1160 1158 1156 1152 1143 1138 1130 0 0 1026 1023 1020 1018 1018 1018 1021 1023 1024 1024 1025 1025 1026 1026 1032 1043 1053 1064 1070 1073 1075 1076 1076 1076 1076 1075 1074 1073 1071 1069 1067 1064 1062 1061 1057 1055 1052 1048 1045 1041 1038 1033 1025 1013 994 987 984 982 980 977 974 973 970 967 966 964 962 961 960 959 959 958 958 958 960 962 964 968 971 973 975 975 975 975 975 975 974 973 971 970 968 967 965 963 961 960 957 956 953 951 949 947 944 942 939 935 930 926 917 909 905 902 900 896 894 892 891 889 888 886 885 884 883 883 882 882 882 880 880 879 879 878 877 874 874 874 878 882 882 884 0 0 0 0 0 0 0 0 0 0 0 0 0 0 0 0 0 0 0 0 0 0 0 0 0 0 0 0 0 0 0 0 0 0 842 842 834 833 832 832 831 829 827 825 825 823 822 821 820 819 817 816 816 816 814 811 809 806 802 800 799 798 797 796 796 796 795 793 789 789 788 787 787 785 0 0 0 0 0 0 0 0 0 0 0 0 0 0 0 0 0 0 0 0 0 0 0 0 0 0 0 0 0 0 0 0 0 0 0 0 0 0 0 0 0 0 0 0 0 0 0 0 730 729 729 728 727 0 0 0 0 0 0 0 0 0 0 0 0 0 0 0 0 0 0 0 0 0 0 0 0 0 0 0 0 0 0 0 0 0 0 0 0 0 0 0 0 0 0 0 0 0 0 0 0 0 0 0 0 0 0 0 0 0 0 0 0 0 0 0 0 0 0 0 0 686 686 686 685 684 683 682 682 681 681 680 680 680 679 679 678 677 676 676 675 674 673 673 672 672 671 670 669 668 667 666 666 664 664 663 662 661 660 659 658 657 656 655 653 651 650 647 639 624 618 617 612 604 604 604 607 630 650 659 659 659 654 643 627 627 627 634 0 0 741 752 752 752 751 746 741 741
380 380 381 383 387 391 393 397 402 406 407 412 415 425 434 442 442 442 441 441 441 447 457 469 482 490 495 500 503 504 508 518 530 530 548 548 548 548 548 0 0 0 0 0 0 0 0 0 0 0 0 0 0 0 0 0 0 0 0 0 0 0 0 0 0 0 0 0 0 0 0 0 0 0 0 0 0 0 0 0 0 0 0 0 0 0 0 0 0 0 0 0 0 0 0 0 0 0 0 0 0 0 0 0 0 0 0 0 0 0 0 0 0 0 0 0 0 0 0 0 0 0 0 0 0 0 0 2267 2292 2345 0 0 2570 2652 2732 2797 2824 2843 2861 2876 2877 2883 2891 2903 2918 2920 2920 2921 2920 2920 2919 2915 2913 2911 2906 2901 2899 2877 2867 2843 2824 2797 2753 2707 2670 2651 0 0 0 1758 1758 1758 1760 1760 1760 1760 1760 1759 1759 1759 1759 1759 1759 1759 1760 1760 1761 1762 1764 1764 1764 1764 1764 1765 1765 1766 1766 1766 1766 1745 1698 0 0 0 0 1240 1231 1227 1223 1222 1221 1216 1212 1208 1206 1203 1199 1197 1194 1191 1188 1185 1182 1178 1176 1172 1168 1165 1163 1160 1158 1156 1152 1146 1139 1130 0 0 1026 1023 1023 1023 1023 1024 1024 1024 1024 1025 1027 1028 1028 1028 1032 1043 1053 1065 1070 1073 1075 1077 1077 1077 1076 1075 1074 1073 1071 1069 1067 1065 1062 1061 1058 1056 1052 1049 1045 1042 1038 1033 1025 1011 996 989 984 982 980 978 975 973 972 970 967 966 964 963 961 960 959 959 959 959 960 962 964 968 971 973 975 975 975 975 975 975 974 973 971 970 968 967 965 963 962 960 957 956 953 952 949 947 945 942 939 935 930 926 917 909 907 905 902 898 896 894 892 889 889 887 886 884 883 883 883 883 883 881 880 880 880 878 877 874 874 874 875 879 882 884 884 884 883 0 0 0 0 0 0 0 0 0 0 0 0 0 0 0 0 0 0 0 0 0 0 0 0 0 0 0 0 0 0 0 842 842 834 833 832 832 832 830 827 826 826 824 823 822 820 819 818 817 816 816 813 810 809 806 803 801 799 798 798 797 796 796 795 793 791 790 789 787 787 785 0 0 0 0 0 0 0 0 0 0 0 0 0 0 0 0 0 0 0 0 0 0 0 0 0 0 0 0 0 0 0 0 0 0 0 0 0 0 0 0 0 0 0 0 0 0 0 735 735 733 733 732 732 732 730 730 729 729 723 722 722 723 723 723 0 0 0 0 0 0 0 0 0 0 0 0 0 0 0 0 0 0 0 0 0 0 0 0 0 0 0 0 0 0 0 0 0 0 0 0 0 0 0 0 0 0 0 0 0 0 0 0 0 0 0 0 0 0 0 0 0 686 686 686 686 684 683 682 682 682 681 681 680 680 679 679 678 677 677 676 675 674 674 673 672 672 671 670 669 668 667 667 666 665 664 663 663 661 661 659 658 658 656 655 653 651 648 647 639 624 617 617 612 600 600 600 604 630 646 658 658 658 654 641 626 626 626 627 0 0 734 745 751 751 751 746 739 739
380 380 381 383 387 389 391 394 398 402 406 408 412 419 428 432 432 432 427 427 427 429 438 453 467 475 484 491 500 504 506 513 526 527 539 539 539 539 539 550 559 563 567 567 569 573 578 578 0 0 0 0 0 0 0 0 0 0 0 0 0 0 0 0 0 0 0 0 0 0 0 0 0 0 0 0 0 0 0 0 0 0 0 0 0 0 0 0 0 0 0 0 0 0 0 0 0 0 0 0 0 0 0 0 0 0 0 0 0 0 0 0 0 0 0 0 0 0 0 0 0 0 0 0 0 0 0 0 0 0 0 2509 2609 2667 2725 2782 2815 2830 2845 2858 2858 2867 2872 2875 2885 2888 2895 2896 2897 2897 2897 2898 2898 2898 2888 2873 2859 2853 2848 2825 2800 2768 2722 2635 2606 0 0 0 0 1758 1758 1758 1760 1760 1760 1760 1759 1759 1759 1759 1759 1759 1759 1760 1760 1761 1761 1762 1764 1764 1764 1764 1764 1764 1764 1764 1764 1759 1749 1734 1698 0 0 0 0 1240 1231 1227 1223 1221 1218 1215 1212 1209 1206 1203 1200 1198 1194 1192 1189 1186 1182 1179 1177 1172 1169 1166 1163 1160 1158 1156 1152 1146 1140 1132 1112 1056 1038 1032 1032 1031 1031 1030 1027 1025 1025 1025 1027 1030 1030 1032 1033 1043 1056 1066 1071 1073 1075 1077 1077 1077 1077 1076 1075 1074 1072 1070 1067 1065 1063 1061 1058 1056 1053 1050 1046 1042 1038 1033 1023 1011 996 990 987 986 982 979 976 974 973 972 969 967 965 963 962 960 960 960 960 960 962 962 964 968 971 973 975 976 976 976 975 975 974 974 972 970 969 967 965 964 962 960 958 956 953 952 950 948 945 942 939 935 931 926 917 910 909 907 904 900 897 894 892 891 889 888 886 886 884 884 884 884 883 882 882 881 881 880 878 874 873 873 873 878 882 884 884 884 884 0 0 0 0 0 0 0 0 0 0 0 0 0 0 0 0 0 0 0 0 0 0 0 0 0 0 0 0 0 0 0 847 841 838 834 834 833 832 830 827 827 826 825 823 822 821 820 818 817 816 815 813 811 809 806 803 801 800 799 798 797 796 796 795 793 791 791 790 789 789 787 0 0 0 0 0 0 0 0 0 0 0 0 0 0 0 0 0 0 0 0 0 0 0 0 0 0 0 0 0 0 0 0 0 0 0 0 0 0 0 0 0 0 0 0 0 0 0 741 741 735 733 732 732 732 732 731 730 730 730 733 733 733 732 730 729 726 725 724 724 724 724 724 724 720 715 715 715 715 0 0 0 0 0 0 0 0 0 0 0 0 0 0 0 0 0 0 0 0 0 0 0 0 0 0 0 0 0 0 0 0 0 0 0 0 0 0 0 0 0 0 0 687 687 687 686 684 683 682 682 682 682 681 681 680 679 679 678 677 677 676 676 674 674 673 672 672 671 670 669 668 668 667 666 665 665 664 663 662 661 660 658 658 656 655 653 651 647 647 645 630 617 609 604 596 596 596 604 626 645 655 655 655 654 641 624 624 624 624 0 0 727 741 751 751 751 746 739 739
380 380 381 383 387 389 391 394 398 402 406 408 412 419 424 426 426 427 427 427 427 428 429 435 440 453 465 473 485 498 505 510 518 519 519 519 535 535 535 548 554 558 563 564 569 569 571 578 587 599 607 613 625 629 0 0 0 0 0 0 0 0 0 741 0 0 0 0 0 0 0 0 0 0 0 0 0 0 0 0 0 0 0 0 0 0 0 0 0 0 0 0 0 0 0 0 0 0 0 0 0 0 0 0 0 0 0 0 0 0 0 0 0 0 0 0 0 0 0 0 0 0 0 0 0 0 0 0 0 0 0 2527 2610 2667 2722 2757 2783 2795 2810 2825 2826 2830 2843 2846 2847 2860 2878 2879 2879 2879 2879 2878 2874 2864 2862 2847 2837 2834 2828 2799 2766 2718 2653 2584 2519 0 0 0 1756 1756 1756 1758 1759 1761 1761 1761 1759 1759 1759 1759 1759 1759 1759 1760 1760 1761 1761 1762 1764 1764 1764 1764 1763 1763 1763 1763 1763 1759 1749 1734 1698 0 0 0 0 0 1231 1227 1223 1221 1218 1215 1211 1209 1206 1203 1200 1198 1195 1192 1189 1186 1183 1180 1177 1173 1170 1166 1164 1161 1158 1156 1152 1147 1142 1132 1112 1066 1053 1043 1041 1037 1037 1035 1031 1026 1026 1026 1028 1031 1033 1034 1036 1043 1056 1068 1073 1075 1077 1078 1078 1078 1078 1076 1075 1074 1072 1070 1068 1065 1063 1061 1059 1057 1054 1052 1048 1042 1038 1033 1023 1011 1000 995 991 989 984 981 977 975 974 973 971 968 967 965 964 962 960 960 960 961 962 962 964 969 972 974 975 976 976 976 976 975 975 974 972 970 969 967 966 964 962 960 958 956 954 952 950 948 945 943 939 935 931 926 919 913 910 908 906 901 897 896 893 891 889 888 887 886 885 884 884 884 883 882 882 882 882 882 879 875 873 873 873 878 882 884 884 884 884 0 0 0 0 0 0 0 0 0 0 0 0 0 0 0 0 0 0 0 0 0 0 0 0 0 0 0 0 0 0 0 845 841 840 835 835 833 832 830 828 828 827 825 824 822 822 820 818 817 816 815 813 811 809 806 804 801 800 799 798 797 796 796 795 793 791 791 790 790 789 788 0 0 0 0 0 0 0 0 0 0 0 0 0 0 0 0 0 0 0 0 0 0 0 0 0 0 0 0 0 0 0 0 0 0 0 0 0 0 0 0 0 0 0 0 0 0 0 741 741 737 733 732 732 732 732 731 730 730 730 733 733 733 733 730 729 726 726 725 725 724 724 725 725 724 719 719 718 718 719 720 720 720 719 713 713 713 0 0 0 0 0 0 0 0 0 0 0 0 0 0 0 0 0 0 0 0 0 0 0 0 0 0 0 0 0 0 0 0 0 0 0 687 687 687 686 684 683 683 683 682 682 682 681 680 679 679 678 678 677 676 676 674 674 674 673 672 671 670 670 669 668 668 667 665 665 664 664 663 661 660 659 658 657 656 654 651 647 646 645 633 617 606 595 587 587 587 599 624 645 654 656 656 656 641 602 602 602 622 0 0 713 739 749 749 749 749 741 741
384 385 385 386 387 389 391 394 398 402 407 408 412 419 424 426 426 427 427 427 427 428 428 429 435 436 448 454 466 481 495 505 507 507 507 499 499 499 513 527 543 553 563 564 565 566 566 578 587 599 604 606 608 613 617 626 630 0 0 0 0 0 716 716 713 706 706 0 0 0 0 0 0 0 0 0 0 0 0 0 0 0 0 0 0 0 0 0 0 0 0 0 0 0 0 0 0 0 0 0 0 0 0 0 0 1071 1071 1071 1076 1096 1113 0 0 0 0 0 0 0 0 0 0 0 0 0 0 0 0 0 2495 2528 2530 2530 2610 2667 2708 2730 2751 2761 2769 2780 2784 2794 2803 2804 2813 2831 2851 2851 2856 2858 2858 2857 2857 2841 2840 2824 2809 2798 2774 2750 2706 2660 2634 2555 0 0 0 0 1756 1756 1756 1756 1759 1761 1761 1761 1759 1759 1759 1759 1759 1759 1760 1760 1760 1761 1761 1762 1763 1764 1764 1764 1763 1763 1763 1763 1763 1759 1749 1734 1707 0 0 0 0 0 1231 1227 1223 1221 1218 1215 1211 1209 1206 1204 1201 1199 1196 1193 1190 1187 1184 1181 1177 1173 1170 1167 1165 1163 1158 1156 1153 1149 1143 1135 1112 1085 1078 1077 1067 1055 1048 1044 1036 1031 1028 1028 1028 1031 1035 1039 1041 1045 1056 1068 1075 1078 1079 1079 1079 1079 1078 1077 1076 1074 1072 1070 1068 1065 1063 1062 1059 1057 1055 1052 1049 1043 1038 1033 1023 1011 1002 996 992 990 985 981 979 976 975 974 972 971 968 966 965 963 962 962 962 962 962 963 964 969 972 974 976 976 976 976 976 976 975 974 972 971 969 968 966 964 962 960 958 957 955 952 950 948 946 943 939 935 931 927 921 915 911 908 906 901 898 896 894 891 889 888 887 886 885 885 885 885 883 883 882 882 882 882 881 877 874 874 874 877 882 884 884 884 884 883 0 0 0 0 0 0 0 0 0 0 0 0 0 0 0 0 0 0 0 0 0 0 0 0 0 0 0 0 0 0 841 841 841 839 835 833 831 830 828 828 828 827 825 823 822 820 818 817 816 814 813 811 809 806 804 802 800 799 798 797 796 795 794 793 791 791 790 790 789 788 0 0 0 0 0 0 0 0 0 0 0 0 0 0 0 0 0 0 0 0 0 0 0 0 0 0 0 0 0 0 0 0 0 0 0 0 0 0 0 0 0 0 0 0 0 0 0 741 741 737 734 732 732 732 732 731 730 730 730 733 733 733 733 730 729 727 727 727 726 726 726 726 724 724 720 720 720 720 720 721 721 720 719 714 714 714 716 716 716 713 710 706 704 0 0 0 0 0 0 0 0 0 0 0 0 0 0 0 0 0 0 0 0 0 0 0 0 0 0 0 0 687 687 686 686 684 684 684 683 683 682 682 681 681 680 679 678 678 677 676 676 675 674 674 673 672 672 671 670 670 669 668 667 666 665 664 664 663 662 661 659 658 656 656 654 650 647 646 645 634 619 605 593 587 587 587 599 615 641 641 656 656 656 640 602 602 602 616 0 0 692 715 748 748 748 748 746 746
403 403 402 402 401 398 398 398 398 406 413 418 422 423 424 426 427 429 432 442 442 442 435 435 435 436 440 454 466 481 488 493 493 493 493 483 483 483 491 505 522 541 550 556 559 561 566 576 587 587 601 602 604 604 608 618 630 636 0 0 0 716 716 716 692 690 690 690 695 695 0 0 0 0 0 0 0 0 0 0 0 0 0 0 0 0 0 0 0 0 0 0 0 0 0 0 0 0 0 0 0 0 0 0 1071 1071 1071 1071 1076 1096 1113 1134 0 0 0 0 0 0 0 0 0 0 0 0 0 0 0 0 2643 2643 2610 2610 2610 2665 2685 2698 2713 2728 2742 2749 2756 2765 2775 2786 2794 2802 2812 2818 2832 2839 2839 2839 2823 2803 2782 2780 2766 2756 2737 2698 2627 2606 2517 0 0 0 0 1751 1751 1753 1753 1755 1756 1758 1759 1759 1759 1758 1758 1758 1758 1759 1760 1760 1761 1761 1761 1762 1763 1764 1764 1764 1763 1763 1763 1763 1763 1763 1757 1743 1711 0 0 0 0 0 1231 1227 1223 1221 1218 1215 1211 1210 1207 1205 1202 1200 1197 1193 1190 1188 1185 1182 1178 1174 1171 1169 1167 1165 1161 1158 1154 1151 1144 1136 1121 1113 1109 1108 1099 1082 1074 1063 1053 1047 1041 1039 1039 1039 1041 1043 1046 1049 1061 1071 1075 1078 1080 1080 1080 1080 1079 1078 1076 1074 1072 1070 1068 1066 1063 1062 1059 1057 1055 1052 1049 1045 1039 1033 1023 1012 1003 999 994 991 986 982 980 978 976 975 973 972 970 968 966 964 964 963 963 963 963 966 969 971 973 976 976 976 976 976 976 976 975 974 973 971 970 968 966 964 962 960 959 957 955 953 950 948 946 943 940 936 932 928 921 915 911 909 906 901 899 897 895 892 889 888 887 887 886 885 885 885 884 883 883 883 882 882 881 879 876 875 875 875 881 882 886 886 886 883 0 0 0 0 0 0 0 0 0 0 0 0 0 0 0 0 0 0 0 0 0 0 0 0 0 0 0 0 0 0 841 841 841 839 835 833 831 830 829 829 828 827 826 823 822 820 819 817 816 814 812 811 809 806 804 803 801 799 798 797 796 795 794 793 791 791 790 790 790 788 0 0 0 0 0 0 0 0 0 0 0 0 0 0 0 0 0 0 0 0 0 0 0 0 0 0 0 0 0 0 0 0 0 0 0 0 0 0 0 0 0 0 0 0 0 0 0 737 737 737 734 733 733 732 732 731 729 729 729 730 731 731 731 730 729 727 727 727 727 726 726 726 726 726 726 725 725 724 723 722 721 720 718 718 718 718 718 718 718 715 714 714 714 714 714 714 714 714 0 0 0 0 0 0 0 0 0 0 0 0 0 0 0 0 0 0 0 0 0 0 0 686 686 686 685 685 684 684 683 683 683 682 681 681 680 680 678 678 677 676 676 675 674 674 673 672 672 671 670 670 669 669 668 667 665 665 664 663 662 661 660 658 656 656 654 650 644 643 641 634 622 605 593 587 587 587 599 615 636 636 647 647 647 640 602 602 602 615 638 654 672 696 722 722 746 746 746 746
422 422 419 419 416 415 415 415 416 421 429 429 429 429 429 429 429 443 444 451 451 451 451 437 437 437 440 454 466 481 488 493 493 493 493 483 476 476 476 505 522 536 539 541 541 553 566 576 586 587 595 595 596 596 596 608 621 634 643 0 0 703 703 703 692 685 680 680 680 679 677 677 677 682 701 717 734 0 0 0 0 0 0 0 0 0 0 0 0 0 0 0 0 0 0 0 0 0 0 0 0 0 0 0 1070 1071 1071 1083 1101 1103 1113 1134 0 0 0 0 0 0 0 0 0 0 0 0 0 0 0 0 2643 2643 2589 2589 2589 2636 2657 2678 2691 2705 2720 2729 2738 2749 2762 2773 2780 2787 2792 2798 2798 2798 2796 2776 2769 2759 2755 2755 2746 2735 2717 2658 2619 0 0 0 0 0 1740 1740 1748 1751 1753 1755 1756 1757 1757 1757 1757 1757 1757 1758 1758 1759 1760 1760 1761 1761 1761 1762 1763 1763 1763 1763 1763 1763 1763 1763 1763 1763 1760 1748 1713 0 0 0 0 0 1231 1228 1224 1222 1219 1215 1212 1210 1208 1206 1203 1200 1198 1194 1191 1188 1186 1183 1180 1176 1173 1169 1168 1166 1163 1160 1156 1151 1146 1138 1130 1124 1121 1119 1113 1109 1107 1097 1090 1087 1080 1072 1068 1062 1060 1059 1059 1059 1065 1073 1077 1079 1080 1080 1080 1080 1080 1078 1077 1075 1073 1071 1069 1066 1064 1062 1060 1057 1055 1053 1049 1046 1041 1036 1029 1018 1003 1000 995 992 988 986 983 981 979 977 975 974 972 970 968 966 966 965 965 965 965 967 969 972 973 976 976 977 977 977 977 977 975 974 973 971 970 968 966 964 962 961 959 957 955 953 951 949 946 944 941 936 932 928 922 916 912 909 905 901 899 898 898 894 891 888 887 887 887 887 886 886 885 885 884 883 882 882 881 879 876 874 874 874 874 881 887 887 887 884 0 0 0 0 0 0 0 0 0 0 0 0 0 0 0 0 0 0 0 0 0 0 0 0 0 0 0 0 0 0 841 841 841 839 834 833 831 831 829 829 829 827 826 824 822 820 819 817 816 814 812 811 809 807 805 803 801 800 798 797 796 795 794 792 791 791 790 790 790 788 0 0 0 0 0 0 0 0 0 0 0 0 0 0 0 0 0 0 0 0 0 0 0 0 0 0 0 0 0 0 0 0 0 0 0 0 0 0 0 0 0 0 0 0 0 0 0 737 737 737 734 733 733 733 733 733 731 730 730 730 730 730 730 730 728 727 727 727 727 726 726 726 726 726 726 725 725 724 723 723 722 720 718 718 718 718 718 718 718 717 716 715 715 715 714 714 714 714 709 0 0 0 0 0 0 0 0 0 0 0 0 0 0 0 0 0 0 0 0 0 0 686 686 686 685 685 684 684 684 683 683 682 682 681 680 680 679 678 677 677 676 675 674 674 673 672 672 671 670 670 669 669 668 667 666 665 664 663 662 661 660 658 657 656 654 650 644 641 640 633 622 606 593 591 591 591 601 615 623 624 636 638 638 638 607 607 607 614 632 648 665 689 715 715 746 746 746 746
439 439 432 432 430 430 430 435 437 446 446 446 446 438 438 438 441 445 445 0 0 0 0 0 0 0 0 0 472 486 488 493 0 0 0 0 0 476 476 505 522 536 539 541 541 553 566 576 577 585 585 585 583 577 577 577 587 595 611 0 0 0 694 694 680 679 677 676 673 669 666 666 666 676 691 707 720 730 731 0 0 0 0 0 0 0 0 0 0 0 0 0 0 0 0 0 0 0 0 0 0 0 0 0 0 1069 1071 1083 1101 1103 1113 1134 0 0 0 0 0 0 0 0 0 0 0 0 0 0 0 0 2643 2643 2549 2549 2549 2598 2623 2645 2665 2683 2700 2708 2718 2723 2738 2753 2762 2768 2775 2775 2775 2769 2753 2744 2744 2740 2738 2736 2734 2725 2689 2657 2573 0 0 0 0 1738 1738 1740 1746 1751 1753 1755 1756 1756 1756 1757 1757 1757 1757 1758 1758 1759 1760 1760 1761 1761 1761 1762 1763 1763 1763 1763 1763 1763 1763 1763 1763 1763 1760 1748 1713 0 0 0 0 1249 1232 1228 1225 1223 1220 1217 1213 1211 1209 1206 1203 1201 1198 1196 1192 1189 1186 1184 1181 1178 1175 1172 1169 1167 1164 1160 1156 1152 1146 1141 1136 1132 1132 1131 1128 1119 1113 1100 1099 1099 1094 1088 1087 1086 1080 1074 1073 1073 1073 1076 1079 1081 1081 1081 1081 1081 1081 1079 1077 1075 1073 1071 1069 1066 1064 1063 1060 1058 1055 1053 1050 1047 1042 1037 1031 1020 1007 1001 997 994 991 989 987 985 982 980 978 977 976 973 970 968 967 967 967 967 967 968 971 972 973 976 977 977 977 977 977 977 976 975 973 972 970 968 966 965 963 962 959 958 956 953 951 949 947 945 941 937 934 929 923 916 913 909 905 902 900 900 898 895 892 890 890 889 888 888 887 886 885 885 884 883 882 882 881 879 877 874 874 874 874 881 887 887 887 885 0 0 0 0 0 0 0 0 0 0 0 0 0 0 0 0 0 0 0 0 0 0 0 0 0 0 0 0 0 0 843 843 841 838 833 832 832 831 831 830 829 827 826 824 822 820 819 817 816 814 812 811 810 807 805 804 802 800 799 797 796 795 794 792 790 790 790 789 789 786 0 0 0 0 0 0 0 0 0 0 0 0 0 0 0 0 0 0 0 0 0 0 0 0 0 0 0 0 0 0 0 0 0 0 0 0 0 0 0 0 0 0 0 0 0 0 0 737 737 737 734 733 733 733 734 734 734 731 730 730 730 730 730 730 728 728 727 727 727 726 725 725 725 725 725 725 725 724 723 722 722 720 719 719 720 720 720 720 720 720 719 719 716 716 714 714 714 714 713 0 0 0 0 0 0 0 0 0 0 0 0 0 0 0 0 0 0 0 0 0 0 686 686 686 685 685 685 685 684 684 683 683 682 682 681 680 679 678 677 677 676 675 674 674 673 672 672 671 670 670 669 669 668 667 666 665 664 663 662 662 660 658 657 656 654 650 644 641 637 628 622 610 600 595 595 595 607 615 616 618 626 637 637 637 624 611 611 611 631 646 664 684 713 713 739 739 743 743
453 453 442 449 449 449 453 0 0 0 0 0 0 0 0 0 0 0 0 0 0 0 0 0 0 0 0 0 0 0 0 0 0 0 0 0 0 0 0 0 0 0 541 541 541 553 566 576 577 585 585 585 577 575 575 575 580 587 590 0 0 0 663 669 670 672 672 672 672 659 659 659 662 673 685 699 713 715 720 721 0 0 0 0 0 0 0 0 0 0 0 0 0 0 0 0 0 0 0 0 0 0 0 0 0 0 0 1083 1101 1103 1105 0 0 0 0 0 0 0 0 0 0 0 0 0 0 0 0 0 2509 2503 0 0 0 0 2511 2511 2556 2598 2644 2685 2692 2693 2704 2730 2733 2733 2733 2731 2727 2724 2723 2723 2721 2715 2714 2712 2710 2703 2660 2608 2506 0 0 0 0 1737 1737 1739 1745 1751 1753 1755 1756 1756 1756 1756 1756 1756 1757 1757 1758 1759 1759 1759 1760 1761 1761 1762 1763 1763 1763 1763 1763 1763 1763 1763 1763 1763 1760 1748 1714 0 0 0 0 1253 1235 1229 1227 1223 1221 1218 1214 1212 1210 1206 1204 1201 1199 1197 1192 1190 1187 1185 1182 1179 1176 1173 1170 1167 1164 1160 1156 1153 1150 1147 1144 1140 1136 1132 1128 1124 1114 1108 1107 1106 1104 1098 1097 1096 1094 1090 1088 1087 1087 1087 1087 1087 1087 1085 1085 1083 1082 1080 1078 1076 1074 1071 1069 1066 1065 1063 1060 1058 1055 1053 1050 1048 1044 1038 1031 1022 1009 1002 997 994 992 989 988 987 986 983 982 981 979 976 973 970 969 968 968 968 969 969 971 973 974 976 977 977 977 977 977 977 976 975 974 972 970 969 966 965 963 962 960 958 956 953 951 949 947 945 941 937 934 930 923 918 914 909 905 902 900 900 898 896 893 891 891 889 889 888 887 886 885 885 884 883 882 882 880 879 877 875 874 874 874 880 887 887 887 886 0 0 0 0 0 0 0 0 0 0 0 0 0 0 0 0 0 0 0 0 0 0 0 0 0 0 0 0 0 0 0 843 840 837 832 832 832 832 831 830 829 827 826 825 823 821 819 817 816 814 812 811 810 808 806 804 802 801 799 798 796 795 794 792 790 790 789 789 789 786 0 0 0 0 0 0 0 0 0 0 0 0 0 0 0 0 0 0 0 0 0 0 0 0 0 0 0 0 0 0 0 0 0 0 0 0 0 0 0 0 0 0 0 0 0 0 0 741 741 738 734 734 734 734 734 734 734 732 730 730 730 730 730 730 729 728 727 727 726 726 726 725 725 725 724 724 723 723 722 722 722 721 720 720 720 720 720 720 721 721 721 720 718 718 715 714 715 715 714 0 0 0 0 0 0 0 0 0 0 0 0 0 0 0 0 0 0 0 0 0 0 688 686 686 686 686 685 685 685 684 684 683 682 682 681 680 679 678 677 677 676 675 674 674 673 672 672 671 671 670 669 669 668 667 666 665 664 664 663 662 660 658 657 656 655 652 646 641 637 625 621 612 608 606 606 606 611 615 616 617 620 627 627 627 624 611 611 611 631 646 659 682 684 704 728 728 742 742
453 453 453 455 455 466 474 483 0 0 0 0 0 0 0 0 0 0 0 0 0 0 0 0 0 0 0 0 0 0 0 0 0 0 0 0 0 0 0 0 0 0 0 0 0 0 0 576 577 585 585 585 577 575 575 575 580 587 0 0 0 0 642 648 656 666 672 672 672 649 649 649 653 664 673 678 692 699 700 704 0 0 765 773 790 0 0 0 0 0 0 0 0 0 0 0 0 0 0 0 0 0 0 0 0 0 0 0 0 0 0 0 0 0 0 0 0 0 0 0 0 0 0 0 0 0 0 0 0 0 0 0 0 0 0 0 0 0 2561 2635 2670 2672 2676 2690 2693 2694 2700 2705 2705 2705 2704 2702 2692 2689 2685 2683 2676 2675 2626 2545 0 0 0 0 1734 1734 1734 1739 1745 1751 1753 1754 1754 1755 1754 1754 1754 1755 1756 1756 1757 1758 1758 1759 1759 1760 1760 1762 1762 1762 1762 1762 1762 1762 1762 1762 1761 1760 1758 1740 1714 0 0 0 0 1255 1240 1232 1228 1225 1222 1219 1216 1213 1211 1207 1204 1202 1199 1197 1194 1190 1188 1185 1182 1179 1176 1173 1171 1168 1164 1161 1158 1154 1151 1148 1144 1141 1137 1132 1130 1125 1122 1118 1115 1112 1108 1105 1102 1098 1096 1094 1092 1092 1091 1089 1089 1089 1087 1086 1085 1083 1082 1080 1078 1076 1074 1071 1069 1067 1065 1063 1060 1058 1056 1053 1051 1048 1044 1039 1033 1025 1010 1002 998 996 994 991 989 988 986 985 984 982 980 978 973 970 969 969 969 969 969 969 971 973 976 978 978 978 978 978 978 977 976 975 974 972 970 969 968 965 963 962 960 958 956 954 952 949 947 945 941 937 934 930 924 920 916 910 905 902 901 900 898 896 893 892 891 890 890 888 888 887 885 885 884 883 882 881 880 879 877 875 875 875 877 881 882 884 884 886 0 0 0 0 0 0 0 0 0 0 0 0 0 0 0 0 0 0 0 0 0 0 0 0 0 0 0 0 0 0 0 837 837 832 832 832 832 832 832 831 830 829 827 825 823 821 819 817 816 814 813 811 810 808 807 805 803 802 800 798 797 795 794 791 789 789 789 788 788 785 0 0 0 0 0 0 0 0 0 0 0 0 0 0 0 0 0 0 0 0 0 0 0 0 0 0 0 0 0 0 0 0 0 0 0 0 0 0 0 0 0 0 0 0 0 0 0 742 742 738 735 734 734 734 734 734 734 734 733 732 731 731 730 730 729 728 727 726 726 726 726 726 725 724 724 723 723 722 722 722 722 721 721 720 720 720 720 720 721 721 721 720 720 718 716 715 715 715 714 0 0 0 0 0 0 0 0 0 0 0 0 0 0 0 0 0 0 0 0 0 688 688 688 688 687 686 686 686 685 684 684 683 682 682 681 680 679 678 678 677 676 675 674 674 673 672 672 671 671 670 669 669 668 668 667 666 665 665 663 662 660 660 658 656 655 653 649 643 637 625 621 612 609 608 608 608 611 615 615 616 619 627 627 627 626 611 611 611 631 646 659 670 671 689 717 722 735 735
453 453 453 455 455 466 474 483 484 0 0 0 0 0 0 0 0 0 0 0 0 0 0 0 0 0 0 0 0 0 0 0 0 0 0 0 0 0 0 0 0 0 0 0 0 0 0 0 0 0 0 0 0 0 0 0 0 0 0 0 0 0 0 643 646 649 659 659 659 649 644 644 644 662 664 670 671 677 678 682 0 747 764 766 778 802 0 0 0 0 0 0 0 0 0 842 849 853 855 856 0 0 0 0 0 0 0 0 0 0 0 0 0 0 0 0 0 0 0 0 0 0 0 0 0 0 0 0 0 0 0 0 0 0 0 0 0 0 0 2567 2633 2640 2641 2649 2658 2662 2667 2673 2673 2673 2673 2663 2659 2659 2656 2651 2623 2622 2559 0 0 0 0 0 1732 1732 1733 1739 1745 1749 1752 1752 1752 1752 1752 1752 1753 1753 1755 1756 1756 1757 1758 1758 1758 1759 1760 1761 1761 1761 1761 1761 1761 1760 1760 1760 1759 1759 1753 1734 1713 0 0 0 0 1256 1241 1232 1229 1226 1223 1220 1217 1213 1211 1208 1205 1202 1199 1197 1194 1190 1188 1185 1183 1179 1177 1173 1171 1168 1165 1161 1158 1155 1151 1148 1146 1141 1138 1133 1130 1126 1123 1120 1118 1117 1115 1112 1108 1106 1102 1100 1096 1093 1091 1090 1089 1089 1088 1086 1085 1084 1082 1080 1078 1076 1074 1071 1069 1067 1065 1063 1061 1058 1056 1053 1051 1049 1044 1040 1035 1028 1013 1003 999 997 995 992 990 988 986 985 984 983 981 979 974 972 970 970 969 969 969 969 973 974 977 979 979 979 979 979 978 978 977 975 975 973 971 970 968 965 964 962 960 958 956 954 952 950 947 945 942 938 936 931 924 920 918 911 906 902 901 900 898 896 893 892 891 890 890 889 888 887 886 885 884 883 882 881 880 879 877 875 875 875 878 881 882 884 884 886 886 0 0 0 0 0 0 0 0 0 0 0 0 0 0 0 0 0 0 0 0 0 0 0 0 0 0 0 0 0 0 837 837 833 833 833 834 834 834 833 832 829 827 826 824 822 820 818 817 815 813 812 810 808 807 805 804 802 800 799 797 796 795 791 789 788 788 786 785 785 784 0 0 0 0 0 0 0 0 0 0 0 0 0 0 0 0 0 0 0 0 0 0 0 0 0 0 0 0 0 0 0 0 0 0 0 0 0 0 0 0 0 0 0 0 0 0 743 743 738 737 736 735 735 734 734 734 734 733 732 731 731 730 730 729 728 727 726 726 726 726 726 725 724 724 723 723 722 722 722 721 721 721 720 720 720 720 720 721 721 721 721 720 720 719 719 716 715 714 0 0 0 0 0 0 0 0 0 0 0 0 0 0 0 0 0 0 0 0 0 689 689 688 688 687 687 687 687 686 685 684 684 683 682 681 680 679 679 678 677 676 675 675 674 673 673 672 671 671 670 670 669 668 668 667 666 666 665 664 662 661 660 658 656 655 654 651 646 637 625 621 616 614 611 611 611 611 613 615 615 618 627 627 627 626 617 617 617 631 648 659 670 671 688 700 720 722 722
447 447 449 451 455 466 474 483 484 491 0 0 0 0 0 0 0 0 0 0 0 0 0 0 0 0 0 0 0 0 0 0 0 0 0 0 0 0 0 0 0 0 0 0 0 0 0 0 0 0 0 0 0 0 0 0 0 0 0 0 0 0 0 0 646 649 659 659 659 649 644 644 644 662 664 670 671 677 678 682 0 747 754 757 763 763 0 0 0 0 0 0 0 0 824 841 843 843 843 837 831 828 0 0 0 0 0 0 0 0 0 0 0 0 0 0 0 0 0 0 0 0 0 0 0 0 0 0 0 0 0 0 0 0 0 0 0 0 0 0 0 2521 2544 2578 2604 2618 2634 2636 2646 2646 2646 2642 2629 2628 2627 2616 2575 2508 0 0 0 0 0 1727 1727 1727 1733 1740 1745 1747 1747 1748 1749 1750 1751 1751 1752 1753 1754 1754 1755 1756 1756 1757 1758 1758 1759 1760 1761 1761 1761 1761 1760 1760 1759 1758 1758 1757 1752 1733 1701 0 0 0 0 1258 1242 1232 1230 1228 1224 1221 1218 1213 1211 1208 1205 1203 1200 1197 1194 1191 1188 1186 1183 1180 1177 1174 1170 1168 1165 1162 1159 1155 1152 1149 1146 1143 1138 1133 1130 1128 1125 1123 1119 1117 1115 1113 1110 1108 1105 1102 1101 1098 1095 1094 1092 1090 1088 1086 1085 1084 1083 1080 1079 1076 1074 1072 1069 1067 1065 1063 1061 1058 1056 1053 1051 1049 1045 1040 1036 1031 1021 1009 1004 1001 997 995 992 988 987 985 984 983 982 979 975 972 970 970 969 969 969 969 974 977 978 979 979 980 980 979 979 978 977 976 975 973 971 970 968 966 964 963 960 959 956 954 952 950 948 945 943 939 936 932 924 920 918 912 907 902 900 900 898 896 894 893 892 890 890 889 889 887 886 885 884 883 882 881 880 879 877 876 876 876 879 881 882 884 885 885 885 885 0 0 0 0 0 0 0 0 0 0 0 0 0 0 0 0 0 0 0 0 0 0 0 0 0 0 0 0 0 837 837 835 835 835 835 835 835 833 832 831 829 827 825 824 821 819 818 816 814 812 810 808 807 805 804 802 801 799 798 796 795 792 789 788 788 786 786 786 784 0 0 0 0 0 0 0 0 0 0 0 0 0 0 0 0 0 0 0 0 0 0 0 0 0 0 0 0 0 0 0 0 0 0 0 0 0 0 0 0 0 0 0 0 0 0 743 743 738 737 736 736 734 734 734 733 733 733 732 731 731 730 730 729 728 727 727 726 726 726 726 725 724 724 723 723 722 722 721 721 721 721 720 720 719 719 719 720 720 720 720 720 720 720 719 719 716 714 713 0 0 0 0 0 0 0 0 0 0 0 0 0 0 0 0 691 689 689 689 689 689 689 689 689 688 688 688 686 685 684 684 683 682 681 680 680 679 678 677 676 676 675 674 673 673 672 672 671 671 670 670 668 668 667 667 666 665 664 662 661 660 659 656 655 654 651 647 638 629 627 624 624 617 608 605 605 605 605 611 618 631 642 642 642 618 618 618 637 652 665 670 671 688 700 708 719 719
442 447 447 448 449 450 459 460 461 463 0 0 0 0 0 0 0 0 0 0 0 0 0 0 0 0 0 0 0 0 0 0 0 0 0 0 0 0 0 0 0 0 0 0 0 0 0 0 0 0 0 0 0 0 0 0 0 0 0 0 0 0 0 0 0 0 0 659 659 649 644 644 644 662 668 670 671 677 678 0 0 0 754 757 757 0 0 0 0 0 0 0 0 790 819 821 821 825 821 821 818 808 808 808 808 817 836 869 901 915 919 926 927 927 0 0 0 0 0 0 0 0 0 0 0 0 0 0 0 0 0 0 0 0 0 0 0 0 0 0 0 0 0 0 0 2548 2577 2590 2605 2613 2613 2613 2610 2606 2599 2570 2536 0 0 0 0 0 0 1727 1727 1727 1729 1740 1745 1746 1746 1746 1746 1747 1748 1750 1751 1752 1753 1754 1754 1755 1755 1756 1757 1758 1759 1760 1760 1760 1760 1760 1760 1760 1759 1758 1758 1755 1749 1729 1701 0 0 0 0 1262 1242 1232 1230 1229 1227 1222 1218 1214 1211 1208 1205 1203 1200 1197 1195 1192 1190 1187 1184 1180 1178 1174 1170 1168 1165 1162 1159 1155 1152 1149 1147 1143 1139 1135 1131 1129 1128 1124 1122 1120 1117 1114 1111 1109 1106 1103 1101 1100 1097 1095 1093 1091 1089 1088 1087 1085 1083 1081 1079 1077 1074 1072 1069 1067 1065 1063 1061 1059 1056 1054 1052 1049 1045 1040 1036 1032 1023 1017 1013 1009 1004 999 992 990 987 987 985 983 982 979 976 974 972 970 969 969 969 970 975 977 978 980 980 980 980 980 979 978 977 976 975 973 972 970 968 967 965 963 961 959 957 954 952 950 948 946 943 940 937 932 924 918 918 912 907 903 900 899 898 896 894 893 892 891 890 890 889 888 887 885 884 883 882 881 880 879 879 879 879 880 880 881 883 885 885 885 882 881 0 0 0 0 0 0 0 0 0 0 0 0 0 0 0 0 0 0 0 0 0 0 0 0 0 0 0 0 0 838 838 838 836 835 835 835 835 834 833 831 830 829 827 825 823 821 819 817 814 812 810 808 807 805 805 803 802 800 798 797 795 791 789 788 788 786 786 786 786 0 0 0 0 0 0 0 0 0 0 0 0 0 0 0 0 0 0 0 0 0 0 0 0 0 0 0 0 0 0 0 0 0 0 0 0 0 0 0 0 0 0 0 0 0 0 742 742 738 736 736 736 733 733 733 733 733 733 732 731 731 730 730 729 728 728 727 727 726 726 726 725 724 724 723 723 722 722 721 721 720 720 720 719 719 719 719 719 718 718 718 719 719 720 720 719 716 715 713 0 0 0 0 0 0 0 0 0 0 0 0 0 0 0 692 691 689 689 689 689 689 689 689 689 689 689 688 686 685 685 684 683 682 682 681 680 679 678 677 676 676 675 674 674 673 672 672 672 671 671 670 669 668 667 667 666 665 664 664 662 660 659 657 656 654 651 647 642 633 631 630 627 619 607 597 596 596 596 608 619 634 646 646 646 633 633 633 650 655 665 665 675 688 700 708 717 717
442 442 438 438 433 433 433 434 437 441 0 0 0 0 0 0 0 0 0 0 0 0 0 0 0 0 0 0 0 0 0 0 0 0 0 0 0 0 0 0 0 0 0 0 0 0 0 0 0 0 0 0 0 0 0 0 0 0 0 0 0 0 0 0 0 0 0 0 0 0 0 0 0 0 0 0 0 0 0 0 0 0 0 0 0 0 0 0 0 0 0 0 0 0 785 785 786 790 790 793 793 793 793 793 795 807 825 853 882 909 914 915 915 916 916 917 926 0 0 0 0 0 0 0 0 0 0 0 0 0 0 0 0 0 0 0 0 0 0 0 0 0 0 0 0 0 0 0 0 2507 2539 2554 2554 2554 2553 2526 0 0 0 0 0 0 1726 1726 1726 1726 1729 1740 1745 1745 1746 1746 1746 1746 1746 1748 1749 1750 1751 1752 1753 1754 1755 1756 1756 1758 1758 1759 1759 1759 1759 1760 1760 1760 1759 1757 1757 1754 1748 1729 1701 0 0 0 0 0 1242 1232 1230 1229 1227 1224 1219 1214 1211 1208 1206 1204 1201 1198 1195 1192 1190 1187 1184 1181 1179 1174 1171 1168 1165 1162 1159 1156 1152 1149 1147 1143 1139 1135 1133 1131 1128 1125 1124 1122 1118 1115 1112 1109 1106 1105 1103 1101 1099 1097 1094 1092 1091 1089 1087 1086 1083 1081 1080 1077 1075 1072 1070 1067 1065 1063 1061 1059 1056 1054 1052 1049 1045 1042 1039 1034 1028 1024 1022 1019 1016 1010 1002 1001 1000 996 990 987 987 983 982 979 975 972 969 969 969 974 976 978 979 980 981 981 981 981 979 979 978 976 975 974 972 970 969 967 965 964 961 959 957 955 953 951 949 946 943 940 937 933 924 918 918 912 907 903 900 899 898 896 894 893 892 891 890 890 889 888 887 885 884 883 882 881 880 879 879 879 880 880 881 881 883 885 885 885 882 881 0 0 0 0 0 0 0 0 0 0 0 0 0 0 0 0 0 0 0 0 0 0 0 0 0 0 0 0 0 838 838 838 836 835 835 835 835 834 834 833 831 829 828 825 824 822 820 817 815 812 811 809 808 807 805 804 802 801 798 797 795 792 789 789 789 788 786 786 786 0 0 0 0 0 0 0 0 0 0 0 0 0 0 0 0 0 0 0 0 0 0 0 0 0 0 0 0 0 0 0 0 0 0 0 0 0 0 0 0 0 0 0 0 0 0 0 740 738 736 736 736 733 733 733 733 733 733 732 731 731 730 730 729 729 728 727 727 726 726 725 725 724 724 723 723 723 722 721 721 720 719 719 719 719 719 719 719 718 718 718 718 719 719 719 719 716 715 712 0 0 0 0 0 0 0 0 0 0 0 0 0 0 693 692 690 689 689 689 689 690 690 690 689 689 689 688 686 685 685 684 684 682 682 681 680 679 678 677 677 676 675 675 674 674 673 672 672 671 671 670 670 669 668 667 666 665 665 664 663 662 660 657 656 654 652 648 644 635 632 631 630 621 607 597 593 593 593 608 624 638 649 649 649 641 641 641 650 655 665 665 675 688 695 707 714 714
