620 620 623 624 625 625 626 626 626 626 625 625 625 624 623 620 620 617 612 602 595 587 573 562 561 558 557 557 557 557 557 558 558 560 561 563 565 566 568 569 571 573 574 576 578 580 583 586 589 593 596 597 598 600 602 604 605 606 607 608 611 612 613 613 613 613 617 622 626 628 630 633 640 642 644 644 645 648 655 658 666 672 682 0 0 0 0 0 0 683 676 673 670 665 662 661 661 662 662 664 664 664 664 664 665 665 667 668 668 669 671 673 674 676 678 680 681 682 684 686 689 691 693 694 695 696 697 698 699 703 704 704 709 717 717 0 0 0 0 0 0 0 0 0 0 0 0 0 0 0 0 0 0 0 0 0 0 0 0 0 0 0 0 0 0 0 0 0 0 0 0 0 0 0 0 0 0 0 803 803 802 791 786 781 774 773 772 772 772 769 768 767 767 767 767 767 767 768 769 769 771 773 774 774 777 780 783 784 786 789 794 803 811 818 821 826 832 839 847 855 860 865 868 870 871 873 876 878 879 881 882 884 885 887 889 891 892 894 896 898 899 901 903 904 907 908 910 912 913 915 916 919 920 921 923 925 926 928 930 931 933 934 936 939 940 943 944 946 947 948 951 953 954 956 959 962 964 966 968 968 973 980 984 988 991 992 992 993 998 1003 1011 0 0 0 0 0 0 0 0 0 0 0 0 0 1629 1629 1626 1603 1577 1540 0 0 0 0 0 1360 1358 1352 1349 1348 1346 1342 1339 1339 1339 1339 1342 1345 1347 1349 1351 1352 1354 1355 1356 1358 1359 1359 1360 1360 1360 1362 1362 1362 1362 1362 1362 1361 1361 1361 1360 1360 1360 1360 1360 1360 1359 1359 1359 1359 1359 1360 1361 1361 1361 1361 1363 1363 1364 1364 1364 1364 1363 1362 1361 1360 1359 1359 1359 1358 1356 1356 1354 1354 1353 1353 1352 1352 1352 1350 1349 1349 1347 1346 1344 1342 1340 1340 1340 1341 1342 1342 1342 1342 1342 1342 1342 1342 1342 1341 1341 1341 1341 1341 1341 1338 1332 1328 1328 1328 1328 1328 1330 1332 1336 1338 1340 1342 1344 1347 1348 1350 1351 1351 1351 1353 1353 1353 1353 1352 1351 1350 1350 1350 1351 1351 1351 1350 1348 1347 1346 1346 1346 1349 1350 1352 1354 1357 1358 1361 1362 1362 1362 1362 1362 1362 1362 1361 1361 1360 1356 1354 1353 1346 1346 1346 1348 1352 1357 1360 1360 1364 1369 1374 1374 1374 1371 1370 1370 1368 1368 1364 1359 1359 1359 1362 1362 1362 1362 1362 1367 1367 1370 1370 1370 1370 1369 1369 1369 1369 1372 1372 1372 1372 1369 1369 1369 1370 1370 1370 1370 1367 1366 1366 1366 1367 1371 1375 1377 1382 1387 1393 1393 1393 1393 1393 1393 1393 1393 1392 1391 1391 1391 1391 1394 1396 1398 1398 1399 1400 1402 1402 1402 1401 1401 1401 1403 1403 1403 1400 1398 1395 1393 1392 1391 1391 1390 1387 1380 1375 1374 1373 1371 1370 1365 1360 1355 1350 1342 1336 1326 1318 1316 1310 1308 1308 1308 1308 1308 1302 1300 1292 1283 1275 1266 1259 1248 1233 1220 1215 1213 1207 1201 1194 1193 1183 1183 1178 1172 1158 1136 1120 1119 1118 1112 1106 1084 0 0 0 0 0 0 0 0 0 0 0 0 0 1112 1093 1065 1037 999 966 963 945 924 924
620 620 623 624 625 625 626 626 626 626 626 625 625 624 624 622 620 618 613 605 598 588 573 562 559 557 557 557 557 557 557 557 558 559 561 563 564 566 568 569 571 573 574 575 577 580 583 586 589 594 596 597 599 601 603 606 607 608 609 611 613 614 614 614 614 614 617 622 627 629 633 639 642 644 645 646 648 655 659 660 666 672 682 682 682 684 684 683 683 683 676 671 666 661 660 660 660 660 662 663 663 663 664 664 665 665 667 668 668 669 671 673 675 677 679 680 681 682 683 685 688 691 692 694 695 696 697 698 699 703 704 704 709 717 725 0 0 0 0 0 0 0 0 0 0 0 0 0 0 0 0 0 0 0 0 0 0 0 0 0 0 0 0 0 0 0 0 0 0 0 0 0 0 0 0 0 0 0 802 802 801 793 787 781 774 772 772 771 771 769 768 767 767 767 768 770 770 770 771 771 771 774 775 777 780 783 786 789 792 795 800 808 815 819 824 828 836 844 850 857 861 865 868 871 872 874 877 878 880 881 882 884 886 887 889 891 893 894 897 898 900 901 903 905 907 908 910 912 913 915 917 919 920 921 923 925 926 928 930 931 933 935 936 939 940 943 944 946 947 948 951 954 956 957 959 962 965 967 968 970 978 981 987 993 999 1001 1002 1004 1008 0 0 0 0 0 0 0 0 0 0 0 0 0 0 1659 1643 1633 1626 1603 1583 1573 1555 0 0 0 0 0 1387 1368 1361 1353 1348 1347 1344 1343 1343 1343 1347 1350 1351 1351 1354 1356 1357 1357 1358 1359 1360 1360 1361 1362 1362 1362 1363 1363 1363 1363 1362 1362 1362 1361 1360 1360 1360 1360 1360 1360 1359 1359 1359 1359 1359 1359 1360 1360 1361 1361 1362 1363 1363 1363 1363 1362 1362 1361 1360 1360 1359 1359 1359 1358 1357 1357 1356 1356 1355 1353 1352 1352 1352 1350 1349 1349 1346 1345 1343 1342 1341 1341 1341 1341 1341 1342 1342 1342 1342 1342 1342 1342 1342 1343 1343 1343 1343 1343 1343 1342 1338 1334 1331 1330 1330 1330 1335 1337 1340 1341 1343 1344 1347 1349 1351 1352 1353 1353 1354 1354 1354 1354 1354 1354 1352 1351 1351 1351 1351 1351 1351 1350 1350 1348 1346 1346 1346 1349 1350 1352 1354 1356 1358 1360 1362 1362 1362 1362 1362 1363 1363 1363 1363 1363 1363 1360 1359 1346 1343 1343 1343 1343 1344 1348 1352 1359 1361 1364 1371 1371 1371 1371 1371 1371 1371 1370 1369 1363 1363 1362 1359 1358 1358 1358 1363 1365 1365 1366 1366 1366 1366 1366 1366 1368 1370 1371 1371 1371 1369 1368 1368 1368 1369 1369 1369 1366 1366 1364 1364 1364 1366 1372 1376 1379 1382 1388 1388 1388 1388 1388 1388 1388 1389 1389 1389 1388 1388 1388 1391 1393 1394 1397 1398 1398 1399 1399 1399 1398 1398 1398 1398 1398 1398 1397 1395 1393 1392 1391 1389 1387 1385 1377 1374 1372 1370 1370 1369 1368 1365 1360 1357 1352 1346 1340 1337 1335 1330 1324 1317 1311 1310 1309 1309 1305 1300 1295 1285 1275 1266 1259 1248 1236 1225 1222 1215 1209 1202 1194 1193 1183 1183 1178 1173 1164 1149 1129 1122 1121 1114 1106 1093 1070 0 0 0 0 0 0 0 0 0 0 0 0 1072 1064 1063 1023 1010 982 963 945 924 924
620 620 623 624 625 625 625 625 626 626 626 626 626 625 624 622 621 619 615 609 602 591 573 561 558 557 557 557 557 556 556 556 558 559 561 562 564 566 567 569 571 573 574 575 577 580 583 586 590 594 596 598 600 602 604 607 609 610 611 612 615 615 615 615 615 615 620 625 630 632 637 644 651 653 655 658 660 663 668 669 671 672 682 682 682 684 684 683 683 683 674 670 665 660 660 660 660 660 660 661 662 663 663 664 665 666 666 668 668 669 671 673 675 677 679 680 681 682 683 685 688 690 692 694 695 697 697 698 699 703 704 704 709 717 726 726 0 0 0 0 0 0 0 0 0 0 0 0 0 0 0 0 0 0 0 0 0 0 0 0 0 0 0 0 0 0 0 0 0 0 0 0 0 0 0 0 0 0 800 800 800 793 788 782 774 771 770 770 769 769 768 768 768 768 769 770 770 770 771 771 771 774 775 778 782 784 788 792 795 799 807 815 818 827 834 840 847 852 856 861 865 866 869 871 873 875 877 878 880 881 882 884 886 887 889 892 893 895 897 898 900 902 904 905 907 908 910 912 913 916 918 919 921 922 923 925 926 928 930 931 933 935 936 939 940 943 945 946 947 949 952 955 958 962 969 972 972 974 976 980 985 987 988 998 1011 1016 1017 0 0 0 0 0 0 0 0 0 0 0 0 0 0 0 0 1659 1643 1633 1624 1603 1587 1581 1576 1564 0 0 0 0 0 1397 1377 1368 1358 1353 1349 1347 1347 1347 1351 1354 1354 1354 1355 1359 1361 1361 1361 1362 1362 1363 1363 1363 1363 1363 1363 1363 1363 1363 1363 1363 1362 1361 1361 1360 1360 1360 1360 1360 1360 1360 1359 1359 1359 1359 1359 1359 1360 1361 1362 1363 1363 1363 1362 1361 1360 1360 1359 1359 1359 1359 1358 1358 1358 1357 1357 1356 1355 1353 1352 1352 1351 1350 1348 1345 1344 1341 1341 1341 1341 1341 1341 1341 1341 1341 1341 1341 1342 1342 1342 1342 1343 1344 1344 1344 1345 1345 1345 1343 1342 1341 1338 1335 1335 1335 1341 1343 1343 1345 1346 1348 1349 1351 1353 1354 1354 1356 1356 1356 1356 1356 1355 1355 1355 1354 1354 1354 1354 1354 1354 1353 1352 1350 1349 1349 1349 1350 1350 1351 1353 1355 1358 1358 1361 1361 1362 1363 1363 1364 1364 1364 1364 1364 1363 1360 1359 1356 1343 1343 1343 1343 1344 1344 1345 1348 1355 1360 1364 1367 1369 1371 1371 1371 1371 1372 1371 1370 1369 1364 1363 1358 1358 1358 1361 1363 1363 1363 1362 1362 1362 1362 1365 1367 1370 1370 1370 1370 1369 1368 1367 1367 1367 1366 1366 1366 1365 1363 1363 1363 1365 1370 1375 1377 1378 1379 1383 1383 1383 1383 1383 1383 1384 1386 1386 1386 1386 1386 1386 1389 1390 1393 1393 1393 1392 1392 1391 1391 1391 1391 1393 1395 1395 1395 1393 1392 1390 1388 1386 1383 1379 1377 1374 1371 1370 1367 1365 1364 1361 1360 1359 1353 1347 1345 1342 1340 1339 1333 1324 1314 1312 1312 1312 1311 1303 1295 1285 1275 1268 1266 1258 1241 1236 1225 1216 1213 1209 1201 1196 1183 1183 1178 1173 1166 1157 1140 1127 1122 1118 1106 1095 1076 1068 0 0 0 0 0 0 0 0 0 0 0 1052 1052 1052 1023 1010 982 963 945 912 912
619 619 622 624 625 625 625 625 626 626 626 626 626 625 624 623 623 621 617 611 604 591 573 559 557 557 556 556 556 556 556 556 557 559 560 562 563 565 567 569 572 574 574 575 577 580 583 586 590 594 596 598 600 603 606 609 610 612 613 613 616 616 616 617 618 620 626 633 640 645 648 654 659 659 659 661 661 668 669 672 674 674 679 679 679 675 674 672 669 668 668 665 664 660 660 660 660 660 660 661 662 663 665 666 666 666 666 668 668 669 671 673 675 677 679 680 681 682 684 685 688 690 692 694 696 697 698 698 699 703 704 705 710 719 727 727 0 0 0 0 0 0 0 0 0 0 0 0 0 0 0 0 0 0 0 0 0 0 0 0 0 0 0 0 0 0 0 0 0 0 0 0 0 0 0 0 0 0 0 798 798 793 788 782 773 769 769 769 769 769 769 768 768 768 769 770 770 770 771 771 771 774 776 779 782 785 790 795 803 810 816 820 834 846 846 847 852 855 859 862 865 868 870 871 874 876 878 879 880 881 883 884 885 887 890 892 894 896 897 899 900 902 904 906 908 909 911 913 914 916 918 920 921 922 924 925 927 928 930 931 933 935 936 938 939 942 945 946 948 949 953 958 959 962 969 972 977 978 982 991 991 996 997 1000 1023 0 0 0 0 0 0 0 0 0 0 0 0 0 0 0 0 0 0 1659 1643 1633 1622 1603 1592 1588 1582 1569 1560 1547 1534 0 0 0 0 1391 1378 1368 1358 1349 1349 1349 1351 1356 1356 1358 1359 1363 1363 1363 1363 1363 1363 1364 1365 1365 1365 1364 1364 1364 1364 1364 1364 1363 1362 1362 1362 1361 1361 1361 1360 1360 1360 1360 1359 1359 1359 1359 1359 1359 1359 1360 1361 1363 1363 1363 1362 1361 1360 1360 1359 1359 1359 1359 1358 1358 1358 1358 1357 1357 1355 1353 1352 1352 1350 1349 1346 1343 1342 1341 1341 1341 1341 1341 1341 1341 1340 1340 1340 1341 1342 1342 1342 1343 1343 1344 1345 1345 1345 1345 1345 1345 1345 1345 1343 1342 1342 1342 1345 1347 1347 1350 1350 1351 1352 1352 1354 1354 1356 1358 1358 1358 1358 1358 1358 1358 1358 1358 1357 1357 1356 1356 1356 1354 1353 1352 1350 1350 1350 1351 1351 1351 1352 1353 1357 1358 1358 1359 1361 1362 1363 1364 1366 1366 1366 1365 1363 1361 1359 1359 1357 1345 1344 1344 1344 1344 1345 1345 1346 1348 1355 1362 1368 1368 1371 1371 1371 1372 1372 1373 1373 1373 1372 1358 1358 1358 1360 1360 1361 1361 1361 1361 1361 1361 1364 1367 1369 1370 1370 1370 1369 1368 1366 1365 1365 1365 1364 1364 1363 1362 1361 1361 1361 1367 1373 1373 1373 1373 1373 1376 1377 1378 1380 1382 1383 1385 1385 1385 1383 1383 1383 1386 1386 1388 1388 1388 1388 1388 1389 1389 1389 1390 1391 1391 1392 1392 1391 1390 1387 1384 1381 1380 1378 1376 1373 1371 1369 1367 1363 1359 1359 1359 1358 1358 1351 1347 1345 1343 1343 1339 1332 1322 1315 1315 1315 1312 1310 1303 1294 1283 1277 1274 1261 1246 1242 1229 1223 1217 1214 1213 1211 1186 1185 1181 1176 1172 1165 1154 1139 1122 1118 1106 1095 1089 1087 0 0 0 0 0 0 0 0 0 0 0 0 1029 1029 1022 1010 982 955 917 888 888
619 619 621 623 624 625 625 625 626 626 626 626 626 625 625 624 623 622 617 612 606 592 573 558 556 556 556 556 556 556 556 556 557 559 560 562 563 565 567 571 572 574 576 578 579 581 584 587 590 594 597 598 602 606 608 611 614 615 615 617 620 624 628 628 629 629 629 635 642 652 657 661 664 664 666 666 668 678 679 679 682 682 682 682 677 667 665 665 663 662 661 661 661 660 660 660 660 660 660 661 662 664 665 666 666 667 667 668 669 670 671 673 675 676 678 680 681 682 684 686 688 690 692 694 696 698 699 699 700 703 704 707 717 721 729 729 0 0 0 0 0 0 0 0 0 0 0 0 0 0 0 0 0 0 0 0 0 0 0 0 0 0 0 0 0 0 0 0 0 0 0 0 0 0 0 0 0 0 0 798 798 793 787 782 768 768 768 769 769 769 769 769 769 769 769 771 771 771 771 772 773 775 777 781 783 791 802 814 822 827 831 842 853 854 855 856 856 860 862 864 866 868 871 873 875 877 878 879 880 882 883 884 885 888 890 893 895 896 898 899 901 903 905 906 909 911 911 913 915 917 919 920 922 922 924 925 927 928 930 931 932 934 936 938 939 942 945 947 951 954 957 961 962 964 971 978 980 986 992 996 1000 1003 1007 0 0 0 0 0 0 0 0 0 0 0 0 0 0 0 0 0 0 0 0 1654 1647 1634 1615 1599 1595 1594 1588 1580 1573 1563 1553 1547 0 0 0 0 1396 1387 1372 1362 1353 1353 1353 1357 1361 1363 1365 1365 1365 1365 1363 1363 1363 1365 1366 1366 1366 1364 1363 1363 1363 1363 1363 1363 1362 1362 1362 1362 1362 1361 1360 1360 1360 1360 1360 1359 1359 1359 1359 1359 1359 1359 1360 1361 1362 1362 1362 1360 1358 1358 1358 1359 1359 1359 1358 1358 1358 1357 1357 1357 1356 1354 1352 1352 1350 1349 1346 1343 1342 1341 1341 1341 1341 1341 1340 1340 1340 1340 1340 1341 1342 1342 1343 1343 1344 1344 1346 1347 1347 1348 1348 1348 1348 1348 1346 1346 1346 1346 1347 1349 1351 1352 1352 1352 1352 1353 1354 1355 1356 1358 1359 1360 1360 1361 1361 1361 1360 1359 1359 1359 1359 1358 1358 1357 1353 1352 1351 1351 1351 1351 1351 1351 1352 1353 1355 1356 1357 1359 1360 1362 1363 1364 1366 1366 1366 1365 1363 1361 1359 1359 1358 1358 1353 1350 1347 1346 1345 1345 1345 1345 1345 1347 1360 1368 1368 1368 1369 1370 1372 1375 1375 1375 1372 1367 1365 1364 1363 1361 1361 1360 1360 1360 1360 1360 1363 1366 1368 1370 1370 1370 1368 1367 1365 1365 1364 1363 1362 1362 1362 1360 1359 1359 1359 1363 1365 1365 1365 1365 1365 1367 1368 1375 1378 1381 1382 1383 1383 1383 1381 1381 1381 1384 1384 1384 1384 1384 1384 1386 1387 1387 1389 1389 1390 1390 1390 1389 1387 1386 1383 1380 1377 1376 1376 1376 1373 1371 1367 1363 1358 1355 1355 1355 1355 1355 1354 1350 1348 1345 1344 1343 1339 1331 1322 1318 1317 1317 1314 1309 1297 1289 1283 1277 1265 1252 1248 1237 1228 1223 1220 1214 1211 1203 1192 1189 1184 1182 1179 1169 1158 1154 1139 1119 1117 1114 1113 0 0 0 0 0 0 0 0 0 0 0 0 0 999 999 984 0 0 0 874 874
619 619 620 621 624 624 625 625 626 626 626 626 626 626 625 624 623 622 619 613 606 592 573 557 556 556 556 556 556 556 556 556 557 559 560 562 563 565 567 571 574 575 577 579 581 583 585 588 592 596 598 601 604 610 615 619 619 619 620 620 627 632 636 636 637 637 637 643 650 657 666 670 672 672 674 678 679 688 691 693 693 693 693 684 673 665 664 664 662 661 660 659 659 659 659 660 660 660 660 660 662 664 665 666 666 667 667 668 669 671 672 672 674 676 677 679 681 682 684 686 688 690 692 694 696 698 701 701 703 704 706 710 717 723 730 730 0 0 0 0 0 0 0 0 0 0 0 0 0 0 0 0 0 0 0 0 0 0 0 0 0 0 0 0 0 0 0 0 0 0 0 0 0 0 0 0 0 0 802 802 798 793 787 782 768 768 768 769 769 770 770 770 770 770 771 771 771 771 772 774 779 782 784 793 801 810 818 826 832 837 841 848 854 856 857 857 860 862 864 866 868 870 872 873 875 877 878 880 881 882 883 884 886 888 890 893 896 898 899 900 901 903 905 906 910 911 912 914 915 917 919 920 922 923 924 925 927 928 929 931 932 934 936 938 939 942 945 949 953 957 960 962 962 965 977 978 981 991 998 1001 1008 1009 0 0 0 0 0 0 0 0 0 0 0 0 0 0 0 0 0 0 0 0 1668 1651 1647 1634 1614 1599 1595 1594 1589 1584 1577 1577 1570 1561 1554 1544 1520 1490 0 0 0 1379 1374 1365 1365 1365 1365 1366 1366 1366 1366 1366 1364 1364 1364 1365 1366 1366 1366 1364 1363 1363 1363 1363 1363 1363 1363 1363 1363 1363 1362 1362 1361 1360 1360 1360 1360 1359 1358 1358 1358 1358 1358 1358 1359 1359 1360 1360 1360 1360 1358 1358 1358 1359 1359 1359 1357 1357 1357 1357 1357 1357 1356 1355 1354 1352 1350 1349 1346 1343 1342 1342 1342 1342 1342 1341 1340 1340 1340 1340 1342 1342 1343 1344 1344 1344 1344 1344 1346 1347 1349 1350 1350 1350 1350 1350 1350 1350 1348 1348 1348 1350 1352 1352 1353 1353 1354 1354 1355 1356 1356 1358 1359 1361 1362 1363 1363 1363 1362 1362 1361 1360 1360 1359 1359 1357 1354 1353 1353 1352 1352 1352 1352 1352 1352 1353 1355 1356 1357 1359 1360 1361 1361 1362 1366 1366 1366 1365 1363 1360 1359 1359 1358 1358 1357 1355 1352 1349 1347 1346 1344 1343 1343 1343 1343 1350 1355 1358 1359 1365 1372 1375 1376 1376 1376 1373 1372 1372 1367 1361 1361 1360 1360 1359 1359 1359 1360 1364 1366 1370 1370 1370 1368 1367 1365 1364 1363 1362 1362 1361 1360 1358 1358 1358 1358 1359 1360 1360 1360 1358 1358 1358 1365 1371 1377 1379 1381 1381 1381 1380 1379 1379 1379 1381 1381 1381 1381 1381 1381 1382 1385 1387 1387 1387 1387 1387 1387 1386 1385 1383 1381 1377 1373 1373 1373 1372 1369 1367 1364 1360 1355 1354 1354 1354 1354 1354 1354 1350 1348 1345 1344 1343 1339 1337 1328 1321 1318 1317 1314 1309 1300 1290 1284 1277 1269 1265 1254 1243 1232 1226 1220 1214 1211 1203 1196 1195 1193 1193 1190 1185 1178 1176 1161 1141 1137 1136 1134 1128 0 0 0 0 0 0 0 0 0 0 0 0 0 0 0 0 0 0 848 848
617 617 620 621 624 624 625 625 627 627 627 626 626 626 625 625 624 622 619 614 606 593 574 557 556 556 556 557 557 558 558 558 558 559 561 562 563 565 567 571 574 577 578 581 582 584 587 589 592 597 600 607 614 620 622 623 626 630 631 634 637 639 640 643 648 651 657 662 665 671 676 680 681 684 686 686 688 692 695 695 695 695 693 685 670 665 664 663 662 661 660 659 659 659 659 659 660 660 660 661 662 664 665 665 666 667 667 669 669 671 672 672 674 675 677 679 681 682 684 686 688 690 692 695 697 699 701 702 704 706 707 712 717 723 730 730 0 0 0 0 0 0 0 0 0 0 0 0 0 0 0 0 0 0 0 0 0 0 0 0 0 0 0 0 0 0 0 0 0 0 0 0 0 0 0 0 0 0 805 805 800 793 788 782 768 768 768 769 769 770 770 771 771 771 771 772 772 772 773 781 788 795 802 813 822 829 834 836 837 844 847 850 855 857 859 859 861 863 865 867 868 871 872 874 875 877 879 880 881 883 883 885 888 890 892 895 897 898 900 901 901 903 905 906 910 911 913 915 917 918 920 921 922 923 924 925 927 927 928 931 932 934 936 939 942 944 948 952 957 963 963 963 963 965 978 980 982 0 0 0 0 0 0 0 0 0 0 0 0 0 0 0 0 0 0 0 0 0 0 0 0 0 1667 1649 1647 1634 1613 1598 1595 1594 1589 1585 1579 1577 1577 1575 1571 1563 1546 1538 0 0 0 0 0 1388 1373 1370 1368 1368 1368 1368 1367 1367 1366 1365 1365 1365 1366 1366 1366 1363 1363 1363 1363 1363 1363 1363 1364 1363 1363 1363 1363 1362 1361 1360 1360 1360 1360 1359 1358 1358 1358 1358 1358 1358 1359 1359 1359 1359 1359 1359 1358 1358 1358 1359 1359 1359 1356 1356 1356 1358 1358 1358 1358 1356 1354 1352 1352 1350 1348 1346 1343 1343 1343 1342 1342 1341 1340 1340 1340 1340 1343 1344 1345 1346 1346 1346 1346 1346 1347 1348 1350 1350 1350 1351 1351 1351 1351 1351 1351 1351 1351 1351 1353 1354 1354 1354 1355 1356 1357 1357 1358 1358 1360 1361 1362 1363 1363 1363 1363 1363 1362 1360 1360 1360 1359 1357 1354 1354 1354 1354 1354 1353 1353 1353 1355 1355 1355 1356 1357 1359 1360 1361 1361 1361 1362 1363 1363 1363 1363 1359 1359 1359 1359 1359 1357 1356 1355 1355 1351 1346 1344 1343 1343 1343 1343 1346 1346 1347 1349 1355 1366 1374 1375 1376 1376 1376 1374 1374 1374 1369 1368 1368 1365 1361 1360 1360 1360 1360 1362 1367 1368 1368 1368 1366 1363 1363 1362 1362 1361 1361 1359 1358 1357 1357 1356 1356 1356 1356 1356 1357 1357 1357 1362 1369 1374 1377 1377 1377 1377 1376 1376 1376 1376 1377 1379 1379 1379 1379 1379 1380 1384 1385 1387 1387 1387 1386 1384 1383 1382 1381 1379 1376 1371 1368 1368 1366 1364 1361 1358 1357 1353 1350 1350 1350 1352 1352 1352 1350 1348 1345 1344 1343 1339 1337 1330 1324 1318 1317 1314 1309 1300 1291 1284 1277 1271 1266 1258 1247 1236 1227 1220 1214 1210 1203 1199 1198 1198 1197 1197 1190 1186 1176 1161 1151 1149 1149 1147 1143 0 0 0 0 0 0 0 0 0 0 0 0 0 0 0 0 0 0 825 825
617 617 620 621 623 625 626 626 627 627 627 627 626 626 625 625 624 622 619 614 606 594 575 557 556 556 556 557 558 558 558 558 558 560 561 562 564 567 571 573 575 577 579 582 584 586 589 592 596 600 604 609 621 628 630 631 634 639 643 644 644 644 647 649 660 668 668 671 672 675 676 680 681 684 686 686 688 692 696 696 696 695 693 685 670 665 664 662 662 661 660 658 658 658 659 659 659 659 660 661 662 664 665 665 666 667 668 669 670 671 672 673 674 675 677 679 681 682 685 686 688 691 693 695 697 700 702 704 704 706 707 712 717 721 730 730 0 0 0 0 0 0 0 0 0 0 0 0 0 0 0 0 0 0 0 0 0 0 0 0 0 0 0 0 0 0 0 0 0 0 0 0 0 0 0 0 0 0 808 808 802 799 792 782 770 770 770 770 770 770 772 774 774 775 777 779 780 781 782 787 798 809 817 826 831 836 840 842 845 850 852 855 856 857 859 861 862 864 866 868 869 871 872 874 876 877 879 881 882 883 885 888 889 891 892 895 897 898 900 901 902 904 906 906 910 912 914 915 917 918 920 921 923 923 924 926 927 927 928 931 933 938 938 939 945 950 956 960 964 968 972 972 974 984 0 0 0 0 0 0 0 0 0 0 0 0 0 0 0 0 0 0 0 0 0 0 0 0 0 0 0 0 1665 1647 1646 1631 1604 1592 1591 1590 1588 1585 1579 1577 1577 1577 1573 1568 1565 1564 1559 0 0 0 0 0 0 1374 1374 1373 1370 1370 1370 1370 1370 1365 1365 1365 1364 1364 1363 1363 1363 1363 1363 1363 1363 1363 1364 1363 1363 1363 1363 1362 1361 1360 1360 1360 1360 1359 1358 1358 1358 1358 1358 1359 1359 1359 1359 1359 1359 1359 1358 1357 1357 1356 1356 1356 1356 1356 1356 1357 1358 1358 1358 1357 1354 1353 1352 1351 1350 1350 1344 1343 1343 1343 1343 1343 1341 1340 1340 1340 1343 1345 1346 1346 1347 1347 1348 1348 1349 1350 1350 1350 1351 1352 1352 1352 1352 1352 1353 1353 1353 1354 1355 1355 1355 1356 1356 1357 1358 1358 1359 1359 1360 1362 1363 1363 1364 1364 1364 1364 1363 1362 1360 1360 1359 1357 1356 1355 1355 1355 1354 1354 1355 1355 1356 1358 1358 1358 1359 1360 1361 1361 1361 1361 1361 1362 1362 1361 1361 1359 1359 1358 1358 1358 1358 1357 1356 1356 1355 1353 1346 1343 1343 1343 1343 1346 1346 1347 1349 1354 1364 1365 1372 1376 1376 1376 1375 1374 1374 1373 1372 1371 1366 1361 1360 1360 1360 1360 1361 1362 1364 1365 1365 1365 1363 1363 1362 1362 1361 1360 1359 1358 1356 1355 1355 1354 1354 1353 1353 1353 1353 1356 1360 1369 1374 1377 1377 1377 1374 1373 1373 1373 1374 1375 1376 1376 1377 1377 1377 1379 1383 1385 1387 1387 1387 1386 1384 1382 1382 1380 1377 1374 1371 1367 1363 1360 1356 1355 1354 1352 1350 1346 1345 1345 1344 1344 1344 1343 1342 1341 1340 1339 1339 1337 1330 1324 1317 1311 1306 1305 1300 1291 1284 1277 1272 1267 1261 1250 1237 1228 1221 1214 1210 1203 1200 1200 1199 1197 1197 1190 1186 1176 1161 1151 1149 1149 1148 1143 0 0 0 0 0 0 0 0 0 0 0 0 0 918 918 918 879 834 810 810
617 617 620 621 624 625 626 626 627 627 627 627 627 626 626 625 624 622 619 614 607 596 576 558 557 557 557 558 558 559 559 559 560 561 563 565 567 569 572 574 577 579 581 583 584 586 590 595 601 604 609 616 624 632 637 639 642 647 649 650 653 658 665 669 675 678 678 0 0 0 0 0 0 0 0 0 0 0 0 0 0 696 693 685 670 665 665 663 662 661 661 659 658 658 658 659 659 659 660 661 662 664 665 665 666 667 668 669 671 671 672 673 674 675 677 679 681 682 685 686 689 691 693 695 698 700 703 704 704 706 707 712 718 723 731 731 0 0 0 0 0 0 0 0 0 0 0 0 0 0 0 0 0 0 0 0 0 0 0 0 0 0 0 0 0 0 0 0 0 0 0 0 0 0 0 0 0 0 810 810 807 802 795 788 775 774 774 773 774 774 774 778 778 779 782 789 794 797 802 807 813 820 828 834 839 840 841 845 850 853 854 855 858 859 860 863 863 865 867 868 870 872 873 875 876 877 879 881 882 884 885 888 890 892 895 896 898 898 900 901 902 904 906 906 910 912 915 916 917 918 920 921 923 923 924 926 927 927 928 931 935 943 945 945 949 955 958 963 970 973 980 988 0 0 0 0 0 0 0 0 0 0 0 0 0 0 0 0 0 0 0 0 0 0 0 0 0 0 0 0 0 0 1649 1642 1636 1620 1596 1587 1587 1587 1587 1585 1579 1578 1577 1577 1577 1578 1578 1578 1572 1566 1558 1545 0 0 0 0 0 1396 1377 1374 1374 1373 1373 1368 1364 1364 1363 1363 1363 1364 1364 1364 1364 1364 1364 1365 1365 1365 1364 1363 1363 1362 1361 1360 1360 1360 1360 1359 1358 1358 1358 1359 1359 1359 1359 1359 1359 1359 1359 1359 1358 1357 1357 1356 1356 1355 1355 1355 1356 1357 1359 1359 1359 1357 1354 1353 1353 1353 1352 1352 1345 1344 1344 1344 1344 1344 1342 1341 1341 1341 1343 1345 1346 1347 1347 1348 1348 1349 1351 1351 1352 1352 1353 1353 1354 1354 1354 1355 1355 1356 1357 1357 1357 1357 1357 1357 1358 1359 1360 1360 1360 1361 1361 1362 1363 1363 1364 1365 1365 1365 1365 1363 1361 1360 1359 1358 1357 1357 1356 1356 1356 1356 1356 1356 1358 1359 1359 1360 1360 1362 1362 1362 1362 1362 1361 1360 1357 1357 1357 1357 1357 1357 1357 1357 1357 1357 1357 1357 1357 1356 1351 1344 1344 1344 1345 1345 1345 1345 1348 1354 1357 1360 1364 1368 1374 1375 1375 1374 1374 1373 1372 1371 1368 1364 1360 1360 1360 1360 1361 1362 1363 1363 1363 1363 1363 1362 1362 1362 1361 1359 1357 1356 1354 1354 1354 1353 1349 1349 1349 1349 1349 1353 1358 1364 1371 1374 1374 1374 1373 1371 1371 1371 1371 1372 1373 1375 1376 1376 1377 1378 1379 1382 1383 1383 1382 1382 1381 1377 1374 1374 1372 1370 1367 1362 1359 1352 1348 1348 1346 1346 1346 1342 1338 1338 1337 1336 1334 1333 1333 1333 1333 1333 1332 1331 1330 1324 1315 1307 1304 1304 1300 1291 1284 1276 1272 1267 1261 1250 1237 1231 1222 1214 1210 1203 1203 1202 1201 1201 1198 1195 1186 1168 1152 1151 1149 1149 1148 1143 0 0 0 0 0 0 0 0 0 0 0 0 897 905 905 905 878 833 809 809
618 618 620 621 624 625 626 626 627 627 627 627 627 627 626 625 624 622 619 614 608 596 579 564 560 559 559 559 559 559 560 560 562 565 567 569 571 571 573 574 577 579 583 587 590 592 597 604 609 612 619 629 634 637 641 646 650 653 655 657 661 664 674 678 679 681 679 0 0 0 0 0 0 0 0 0 0 0 0 0 0 695 695 686 677 667 665 663 663 662 662 660 658 658 658 659 659 659 660 661 662 664 665 665 666 667 668 669 671 671 673 674 675 676 678 679 681 682 685 687 690 692 695 696 699 702 704 704 704 706 708 712 718 724 731 731 0 0 0 0 0 0 0 0 0 0 0 0 0 0 0 0 0 0 0 0 0 0 0 0 0 0 0 0 0 0 0 0 0 0 0 0 0 0 0 0 0 0 810 810 808 802 796 793 781 780 779 779 780 780 782 783 783 785 795 804 805 805 813 820 826 833 838 842 843 844 845 848 851 854 855 855 858 861 862 863 865 866 868 868 870 873 874 875 876 878 880 883 883 884 886 889 891 894 895 896 898 898 900 901 902 904 905 906 910 913 915 916 916 917 920 921 923 923 925 926 928 930 932 936 940 943 945 954 955 956 960 971 977 980 994 0 0 0 0 0 0 0 0 0 0 0 0 0 0 0 0 0 0 0 0 0 0 0 0 0 0 0 0 0 0 0 1642 1641 1634 1610 1588 1586 1584 1583 1582 1581 1579 1578 1578 1578 1578 1578 1578 1578 1572 1569 1566 1565 1561 1551 0 0 0 1417 1398 1389 1387 1382 1377 1368 1365 1364 1363 1363 1364 1365 1365 1365 1365 1366 1366 1366 1366 1366 1364 1364 1363 1361 1361 1360 1360 1360 1360 1360 1359 1359 1359 1359 1359 1360 1360 1360 1360 1360 1360 1360 1359 1359 1357 1356 1356 1355 1355 1355 1355 1356 1359 1359 1359 1357 1354 1353 1353 1353 1353 1352 1348 1345 1345 1345 1345 1345 1344 1342 1342 1342 1344 1346 1346 1347 1347 1348 1349 1350 1352 1353 1354 1354 1354 1355 1355 1355 1355 1356 1357 1359 1359 1359 1359 1359 1359 1359 1360 1361 1361 1362 1362 1362 1362 1362 1362 1363 1364 1365 1365 1365 1365 1363 1362 1360 1360 1358 1358 1357 1357 1357 1357 1357 1357 1357 1359 1359 1359 1360 1362 1363 1363 1363 1363 1362 1362 1360 1357 1357 1356 1355 1355 1355 1355 1356 1356 1357 1357 1357 1357 1356 1354 1351 1346 1345 1345 1345 1345 1345 1348 1352 1354 1359 1364 1365 1366 1374 1374 1374 1374 1373 1372 1371 1368 1366 1366 1365 1364 1361 1361 1361 1362 1363 1363 1363 1362 1362 1362 1361 1359 1357 1355 1354 1354 1353 1351 1350 1348 1347 1347 1347 1348 1350 1355 1360 1366 1368 1370 1370 1370 1370 1370 1370 1370 1371 1372 1372 1374 1375 1376 1377 1378 1379 1379 1379 1379 1378 1376 1373 1370 1369 1369 1367 1362 1361 1355 1351 1345 1342 1339 1338 1337 1337 1335 1333 1330 1325 1325 1325 1325 1327 1327 1327 1325 1324 1323 1318 1310 1304 1302 1301 1296 1287 1284 1276 1272 1267 1261 1250 1237 1231 1227 1220 1213 1211 1211 1208 1205 1204 1200 1195 1186 1168 1152 1149 1148 1146 1142 1141 0 0 0 0 0 0 0 0 0 0 0 0 880 891 891 891 876 833 805 805
620 620 620 622 624 626 626 627 627 627 627 627 627 627 626 625 624 622 619 616 611 596 581 571 565 562 561 561 561 561 561 562 566 569 571 572 573 573 574 575 583 591 596 598 601 605 612 616 619 622 631 637 639 643 648 650 657 660 664 666 668 672 679 679 680 682 679 0 0 0 0 0 0 0 0 0 0 0 0 0 0 693 693 686 680 669 665 663 663 662 662 660 658 658 658 658 659 659 660 661 662 664 665 666 666 667 669 670 671 672 673 675 675 676 678 679 681 683 685 688 691 693 695 698 700 702 704 704 705 706 708 712 716 721 730 730 0 0 0 0 0 0 0 0 0 0 0 0 0 0 0 0 0 0 0 0 0 0 0 0 0 0 0 0 0 0 0 0 0 0 0 0 0 0 0 0 0 811 811 810 808 802 800 795 789 789 787 789 789 791 795 796 798 805 814 819 820 821 823 827 831 837 843 844 845 847 849 851 853 855 856 858 860 862 863 864 865 867 868 870 871 873 875 877 879 879 881 883 883 884 886 890 892 894 895 896 898 898 900 901 902 904 904 906 910 914 915 915 915 915 920 922 923 923 925 928 929 933 936 941 942 946 948 956 964 967 972 985 990 1005 1031 0 0 0 0 0 0 0 0 0 0 0 0 0 0 0 0 0 0 0 0 0 0 0 0 0 0 0 0 0 0 1645 1642 1641 1629 1605 1588 1585 1582 1582 1581 1579 1579 1578 1578 1578 1578 1578 1578 1578 1573 1570 1569 1566 1566 1562 1547 0 0 1481 1411 1402 1401 1397 1387 1376 1367 1364 1364 1364 1365 1366 1366 1365 1365 1366 1368 1368 1368 1367 1365 1364 1364 1362 1361 1361 1361 1361 1361 1361 1359 1359 1359 1359 1361 1361 1362 1362 1362 1361 1361 1360 1359 1359 1357 1356 1356 1355 1355 1355 1355 1356 1359 1359 1359 1357 1354 1353 1353 1353 1353 1353 1350 1348 1347 1347 1347 1347 1346 1344 1344 1344 1346 1347 1347 1348 1348 1348 1349 1351 1353 1354 1355 1355 1356 1356 1356 1356 1357 1358 1359 1359 1360 1360 1360 1360 1361 1361 1362 1363 1363 1364 1364 1364 1364 1363 1363 1363 1364 1365 1365 1365 1365 1363 1362 1361 1361 1359 1359 1359 1358 1358 1358 1357 1358 1358 1359 1361 1362 1362 1363 1365 1365 1365 1365 1364 1362 1360 1357 1357 1356 1354 1352 1352 1352 1354 1355 1355 1357 1357 1357 1356 1354 1353 1353 1352 1352 1347 1347 1347 1348 1350 1351 1358 1361 1362 1363 1363 1366 1369 1369 1369 1369 1369 1368 1367 1367 1366 1366 1363 1361 1361 1361 1361 1362 1362 1362 1361 1361 1360 1358 1356 1354 1352 1352 1352 1350 1348 1346 1345 1345 1345 1347 1348 1350 1356 1362 1363 1366 1367 1367 1368 1368 1369 1369 1369 1369 1370 1373 1374 1374 1375 1376 1376 1376 1376 1374 1374 1369 1368 1366 1365 1364 1362 1359 1356 1354 1349 1343 1340 1337 1333 1330 1328 1326 1324 1319 1318 1318 1318 1323 1324 1324 1324 1318 1315 1314 1311 1303 1298 1295 1291 1286 1280 1274 1270 1270 1265 1259 1244 1237 1231 1228 1222 1218 1216 1216 1216 1211 1205 1200 1195 1186 1168 1152 1146 1145 1138 1137 1135 1101 0 0 0 0 0 0 0 0 0 0 0 880 884 884 884 876 833 804 804
620 620 621 623 624 626 627 627 627 628 628 628 627 627 627 625 624 622 621 620 614 597 584 578 570 564 562 562 562 562 562 564 569 572 573 574 579 586 588 589 594 600 605 606 609 611 619 624 629 635 638 640 647 654 658 659 661 664 671 673 675 679 681 682 682 684 684 0 0 0 0 0 0 0 0 0 0 0 0 0 0 693 693 685 680 672 665 664 663 663 662 660 658 658 658 658 659 659 660 662 662 664 665 666 667 668 669 670 671 672 674 675 676 677 678 679 681 683 686 689 692 694 696 699 701 704 706 706 706 707 708 712 717 721 730 730 0 0 0 0 0 0 0 0 0 0 0 0 0 0 0 0 0 0 0 0 0 0 0 0 0 0 0 0 0 0 0 0 0 0 0 0 0 808 808 811 812 812 812 811 810 804 800 795 795 793 793 793 796 801 805 806 812 821 824 825 827 828 828 831 834 839 843 845 848 850 851 853 854 856 858 860 861 862 863 864 865 867 869 870 872 873 876 878 880 882 883 883 884 886 890 890 892 894 895 897 897 898 898 899 0 0 0 906 910 914 915 915 915 915 920 922 923 926 930 931 935 938 942 942 943 947 952 958 0 0 0 0 0 0 0 0 0 0 0 0 0 0 0 1837 1846 1856 1868 1884 1894 1894 1894 0 0 0 0 0 0 0 0 0 0 0 0 1640 1641 1640 1640 1640 1629 1601 1588 1584 1582 1581 1580 1580 1580 1578 1577 1577 1577 1577 1577 1577 1573 1570 1569 1569 1566 1562 1554 1552 1541 1518 0 0 0 0 0 0 0 1377 1372 1368 1367 1366 1366 1366 1366 1366 1371 1372 1372 1372 1367 1367 1364 1364 1363 1363 1363 1363 1362 1362 1360 1360 1360 1360 1361 1362 1362 1362 1362 1362 1361 1360 1359 1359 1357 1356 1356 1355 1355 1355 1355 1356 1359 1359 1359 1357 1355 1354 1354 1353 1353 1353 1351 1349 1349 1349 1349 1349 1348 1346 1346 1346 1346 1348 1348 1349 1349 1349 1351 1352 1353 1354 1355 1356 1356 1356 1357 1358 1358 1358 1360 1360 1360 1361 1361 1361 1362 1364 1364 1364 1364 1365 1365 1364 1364 1363 1363 1363 1364 1365 1365 1365 1365 1364 1363 1362 1362 1362 1361 1361 1360 1359 1359 1359 1359 1359 1360 1361 1364 1365 1365 1365 1365 1365 1365 1365 1365 1363 1360 1358 1356 1354 1352 1352 1351 1351 1351 1351 1352 1353 1353 1353 1353 1353 1353 1353 1352 1350 1349 1349 1349 1349 1351 1354 1355 1356 1358 1359 1361 1367 1367 1367 1367 1367 1367 1367 1367 1367 1367 1363 1362 1362 1362 1362 1362 1360 1360 1359 1359 1359 1357 1355 1353 1351 1350 1350 1347 1346 1344 1343 1343 1343 1346 1348 1348 1351 1355 1359 1360 1362 1363 1366 1367 1367 1367 1367 1367 1370 1371 1372 1373 1373 1374 1374 1373 1373 1372 1371 1366 1365 1365 1363 1361 1358 1356 1353 1352 1348 1343 1337 1336 1329 1325 1322 1319 1315 1313 1313 1313 1313 1316 1322 1322 1322 1311 1308 1305 1300 1293 1288 1287 1286 1278 1271 1268 1268 1261 1253 1243 1235 1231 1230 1228 1226 1221 1220 1218 1217 1217 1211 1201 1199 1188 1179 1163 1141 1136 1134 1132 1116 1101 1083 0 0 0 0 0 0 0 0 0 0 0 0 876 876 874 833 802 802
620 620 622 625 625 626 627 627 627 628 628 628 627 627 627 626 624 624 621 620 614 597 585 580 573 566 562 562 562 563 563 570 575 579 580 583 586 591 599 601 603 607 614 616 617 619 621 631 639 644 646 652 660 663 663 665 666 669 672 675 679 680 682 682 684 685 685 0 0 0 0 0 0 0 0 0 0 0 0 0 0 693 693 686 680 672 666 664 663 662 660 660 658 658 658 658 659 659 660 662 663 664 665 666 667 669 670 670 671 672 674 675 676 677 678 679 681 684 686 690 692 694 697 699 702 705 707 708 708 708 709 713 718 719 730 737 0 0 0 0 0 0 0 0 0 0 0 0 0 0 0 0 0 0 0 0 0 0 0 0 0 0 0 0 0 0 0 0 0 0 0 0 0 808 808 811 815 815 813 811 811 808 804 803 803 803 806 808 812 813 814 817 820 826 828 829 831 831 833 839 841 843 845 848 850 852 853 854 855 857 859 860 861 863 863 865 866 867 869 871 872 873 876 878 880 883 885 887 888 890 891 892 892 894 895 895 896 896 896 898 0 0 0 906 908 914 915 915 915 916 921 926 929 932 934 935 935 938 944 946 947 948 956 0 0 0 0 0 0 0 0 0 0 0 0 0 0 0 0 1883 1887 1891 1898 1908 1924 1924 1924 1918 1897 0 0 0 0 0 0 0 0 0 0 1640 1641 1640 1640 1640 1614 1594 1588 1584 1582 1580 1580 1579 1579 1579 1577 1577 1577 1577 1577 1575 1572 1569 1569 1569 1566 1562 1561 1561 1560 1550 1544 1535 0 0 0 0 0 0 1396 1382 1375 1369 1367 1367 1367 1369 1375 1375 1375 1375 1374 1371 1369 1367 1367 1366 1366 1366 1364 1362 1360 1360 1360 1360 1361 1362 1363 1363 1363 1362 1362 1361 1359 1359 1357 1356 1356 1356 1355 1355 1356 1356 1359 1359 1359 1358 1356 1355 1354 1354 1354 1354 1353 1351 1351 1351 1351 1350 1350 1349 1349 1349 1349 1349 1350 1350 1350 1350 1352 1352 1354 1354 1355 1356 1357 1357 1358 1358 1359 1359 1360 1360 1361 1361 1361 1361 1362 1364 1365 1365 1365 1365 1365 1365 1364 1364 1364 1364 1364 1365 1365 1365 1365 1364 1363 1362 1362 1362 1362 1361 1360 1359 1359 1359 1360 1360 1360 1362 1364 1365 1366 1367 1367 1368 1368 1368 1368 1366 1364 1361 1359 1355 1352 1352 1351 1351 1351 1351 1349 1350 1351 1351 1352 1352 1353 1353 1354 1354 1354 1350 1350 1350 1351 1351 1351 1352 1354 1354 1357 1362 1364 1365 1366 1366 1367 1367 1367 1367 1367 1363 1362 1362 1360 1360 1360 1358 1357 1357 1357 1357 1356 1354 1352 1350 1349 1347 1344 1341 1340 1340 1340 1340 1341 1343 1346 1347 1350 1353 1356 1357 1359 1362 1365 1365 1365 1366 1367 1368 1371 1371 1371 1372 1372 1372 1372 1372 1369 1365 1364 1362 1361 1360 1360 1357 1354 1351 1348 1345 1343 1337 1334 1328 1322 1318 1314 1309 1307 1305 1305 1305 1308 1309 1309 1309 1302 1300 1298 1292 1282 1278 1275 1271 1264 1260 1257 1254 1253 1243 1233 1227 1227 1226 1226 1226 1221 1221 1221 1219 1219 1217 1214 1201 1188 1179 1163 1141 1133 1124 1120 1114 1101 1083 0 0 0 0 0 0 0 0 0 0 0 0 859 859 859 829 800 800
623 623 624 625 626 626 627 627 627 628 628 628 628 628 627 626 625 624 622 620 614 605 588 580 573 566 564 564 564 569 574 574 581 581 583 589 598 601 605 609 612 619 629 632 633 635 636 643 649 650 656 661 668 670 670 670 671 673 675 677 680 681 682 682 684 686 686 0 0 0 0 0 0 0 0 0 0 0 0 0 0 692 692 686 681 673 668 664 662 661 660 659 658 658 658 658 659 659 660 662 663 664 665 666 667 669 670 671 672 673 674 675 676 677 678 680 682 684 686 690 692 695 697 700 703 706 708 709 709 710 710 717 719 719 730 738 738 0 0 0 0 0 0 0 0 0 0 0 0 0 0 0 0 0 0 0 0 0 0 0 0 0 0 0 0 0 0 0 0 0 0 0 0 808 808 814 815 816 816 815 815 813 811 811 811 811 812 812 816 819 821 823 825 828 832 833 835 836 838 840 843 845 847 849 851 852 854 855 856 857 859 860 862 863 864 865 866 868 870 871 872 873 876 878 880 883 885 887 888 890 891 892 0 0 0 0 0 0 0 0 0 900 901 905 909 914 915 919 919 922 926 930 933 935 937 937 939 944 948 953 961 0 0 0 0 0 0 0 0 0 0 0 0 0 0 0 0 1876 1903 1915 1919 1920 1921 1935 1949 1959 1959 1959 1936 1918 0 0 0 0 0 0 0 0 0 1640 1641 1640 1627 1627 1604 1591 1588 1584 1582 1580 1580 1579 1579 1579 1577 1576 1576 1575 1575 1575 1572 1569 1569 1569 1565 1562 1562 1561 1561 1561 1558 1551 1540 1540 1528 0 0 0 0 0 1395 1388 1378 1377 1377 1377 1378 1379 1379 1379 1378 1375 1371 1369 1369 1369 1368 1368 1366 1364 1361 1361 1361 1361 1361 1363 1364 1364 1364 1362 1362 1361 1359 1359 1357 1356 1356 1356 1356 1356 1357 1357 1359 1359 1359 1359 1358 1355 1355 1354 1354 1354 1353 1353 1352 1351 1351 1351 1351 1351 1350 1350 1350 1351 1351 1351 1351 1352 1352 1354 1354 1355 1356 1357 1357 1358 1358 1359 1359 1360 1360 1360 1361 1361 1361 1361 1362 1364 1365 1366 1366 1366 1366 1366 1366 1366 1366 1365 1365 1365 1365 1365 1365 1364 1363 1362 1362 1362 1362 1361 1360 1359 1359 1359 1360 1360 1361 1363 1364 1365 1366 1367 1367 1368 1368 1368 1368 1366 1364 1362 1361 1359 1356 1353 1351 1350 1350 1349 1349 1349 1349 1349 1352 1352 1352 1353 1354 1354 1354 1351 1351 1351 1351 1351 1351 1351 1350 1350 1350 1354 1356 1360 1363 1366 1366 1366 1366 1366 1365 1360 1360 1360 1360 1360 1360 1358 1356 1356 1356 1355 1353 1352 1352 1350 1347 1345 1341 1338 1338 1338 1338 1338 1338 1340 1343 1345 1347 1347 1349 1353 1354 1356 1360 1362 1362 1363 1365 1367 1369 1369 1369 1369 1369 1370 1370 1370 1368 1363 1358 1358 1358 1357 1357 1356 1352 1348 1346 1344 1338 1335 1333 1328 1321 1317 1314 1309 1307 1302 1300 1299 1298 1298 1298 1291 1283 1282 1281 1277 1265 1258 1256 1253 1250 1245 1245 1244 1242 1242 1230 1223 1223 1223 1223 1223 1221 1221 1221 1221 1221 1221 1217 1201 1188 1179 1163 1141 1116 1112 1110 1108 1101 1083 0 0 0 0 0 0 0 0 0 0 0 0 846 846 846 826 801 801
623 623 625 625 626 626 627 627 627 628 628 628 628 628 627 627 626 625 623 620 614 605 590 583 574 572 572 572 575 578 583 585 586 588 588 599 607 608 612 620 624 632 640 642 645 648 652 654 656 660 666 666 668 670 670 672 674 675 678 679 681 682 682 683 686 0 0 0 0 0 0 0 0 0 0 0 0 0 0 0 0 698 692 686 681 676 669 664 662 660 660 659 658 658 658 658 658 659 661 662 663 664 666 667 668 670 671 671 672 673 674 675 676 677 679 680 682 684 687 690 692 695 697 700 704 706 709 711 712 714 715 719 721 722 730 739 739 0 0 0 0 0 0 0 0 0 0 0 0 0 0 0 0 0 0 0 0 0 0 0 0 0 0 0 0 0 0 0 0 0 0 0 0 810 810 814 815 816 817 817 817 816 816 816 817 817 817 819 822 824 826 827 829 830 832 834 836 838 841 842 844 846 848 850 852 852 854 855 857 858 859 860 862 864 866 867 869 870 870 871 872 873 876 879 881 883 885 887 888 890 890 890 0 0 0 0 0 0 0 0 0 900 901 907 913 914 915 919 921 926 929 932 935 935 937 939 942 946 948 0 0 0 0 0 0 0 0 0 0 0 0 0 0 0 0 0 1880 1905 1924 1936 1938 1939 1943 1955 1968 1972 1972 1972 1955 1930 0 0 0 0 0 0 0 0 0 1650 1650 1644 1641 1622 1597 1586 1584 1584 1582 1580 1580 1579 1579 1579 1577 1576 1574 1573 1572 1571 1571 1569 1568 1566 1565 1562 1562 1561 1561 1561 1558 1555 1552 1550 1542 1525 1510 1504 0 0 0 1431 1408 1394 1393 1390 1385 1383 1383 1382 1381 1379 1374 1371 1371 1371 1369 1369 1369 1366 1363 1363 1362 1363 1363 1364 1365 1365 1365 1365 1364 1362 1360 1359 1358 1358 1358 1357 1358 1358 1358 1358 1360 1360 1360 1360 1360 1359 1356 1355 1355 1354 1354 1353 1353 1352 1352 1351 1351 1351 1351 1351 1351 1352 1352 1352 1352 1353 1353 1354 1355 1355 1356 1357 1357 1358 1358 1359 1359 1359 1359 1360 1360 1360 1361 1361 1362 1365 1366 1367 1367 1369 1369 1369 1369 1368 1367 1365 1365 1365 1365 1365 1365 1364 1363 1362 1362 1362 1361 1361 1360 1359 1359 1359 1360 1360 1361 1363 1365 1365 1366 1367 1367 1368 1368 1368 1368 1366 1364 1362 1361 1359 1356 1353 1351 1350 1350 1349 1349 1348 1348 1348 1350 1350 1351 1352 1354 1354 1354 1352 1351 1351 1351 1351 1351 1351 1350 1347 1347 1347 1349 1351 1354 1356 1359 1361 1361 1361 1360 1359 1359 1359 1360 1360 1360 1357 1355 1355 1354 1353 1351 1351 1350 1349 1346 1343 1340 1338 1337 1336 1336 1336 1338 1339 1339 1342 1342 1343 1344 1346 1348 1351 1355 1358 1359 1359 1359 1362 1367 1367 1367 1367 1367 1366 1366 1366 1363 1356 1353 1353 1353 1356 1356 1356 1349 1345 1342 1340 1337 1332 1328 1324 1321 1317 1313 1309 1306 1301 1296 1293 1291 1289 1281 1263 1252 1250 1248 1248 1247 1244 1239 1233 1233 1231 1231 1231 1231 1231 1225 1215 1215 1215 1215 1216 1216 1219 1219 1221 1221 1221 1217 1201 1182 1171 1149 1126 1112 1109 1104 1102 1101 0 0 0 0 0 0 0 0 0 0 0 0 0 845 845 845 820 801 801
623 623 625 625 625 626 627 627 628 628 628 628 628 628 628 627 626 625 623 621 615 605 596 586 583 583 583 584 587 593 593 595 595 600 607 614 617 619 626 633 637 646 652 653 653 656 657 659 661 665 670 670 670 671 672 674 677 679 680 680 681 682 682 686 690 0 0 0 0 0 0 0 0 0 0 0 0 0 0 0 704 699 692 687 686 676 669 665 662 660 660 659 658 658 658 658 658 659 661 662 664 665 666 667 669 670 671 672 673 674 674 676 676 677 679 681 683 684 687 690 692 695 698 700 704 707 711 712 713 717 718 721 722 726 732 739 739 0 0 0 0 0 0 0 0 0 0 0 0 0 0 0 0 0 0 0 0 0 0 0 0 0 0 0 0 0 0 0 0 0 0 0 0 811 813 815 815 816 817 818 818 818 818 818 820 821 821 822 825 827 828 829 831 832 834 835 838 840 842 843 846 848 849 850 852 854 855 857 858 859 860 861 863 864 866 867 870 870 871 871 872 873 876 879 881 881 883 883 886 890 890 890 0 0 0 0 0 0 894 896 899 907 907 907 913 913 915 919 921 926 929 932 935 935 937 939 0 0 0 0 0 0 0 0 0 0 0 0 0 0 0 0 0 0 1876 1888 1906 1923 1937 1949 1952 1954 1957 1965 1978 1978 1978 1972 1955 1930 0 0 0 0 0 0 0 0 1666 1666 1650 1644 1636 1611 1590 1584 1584 1583 1582 1580 1579 1578 1578 1577 1576 1575 1574 1571 1569 1569 1569 1568 1567 1566 1564 1561 1561 1561 1561 1561 1558 1555 1553 1552 1547 1537 1531 1529 1521 1508 1488 1469 1454 1433 1424 1408 1398 1393 1391 1390 1387 1383 1380 1376 1375 1375 1374 1374 1373 1370 1367 1367 1367 1368 1368 1369 1369 1369 1369 1367 1365 1364 1362 1361 1360 1360 1360 1360 1359 1359 1359 1360 1360 1361 1361 1361 1361 1361 1359 1358 1358 1356 1356 1355 1354 1354 1354 1353 1353 1352 1352 1352 1352 1353 1353 1353 1353 1353 1353 1354 1355 1355 1356 1357 1357 1358 1358 1359 1359 1359 1359 1359 1359 1359 1360 1361 1362 1364 1366 1367 1368 1369 1369 1369 1369 1368 1367 1365 1365 1365 1365 1365 1364 1363 1362 1362 1361 1361 1361 1360 1358 1358 1358 1358 1359 1360 1361 1363 1364 1365 1366 1366 1367 1368 1368 1368 1367 1365 1363 1362 1361 1359 1356 1353 1351 1350 1349 1349 1349 1348 1348 1348 1350 1350 1350 1351 1354 1354 1354 1352 1351 1351 1351 1351 1351 1351 1350 1347 1342 1341 1341 1342 1342 1343 1344 1345 1351 1353 1353 1353 1354 1356 1359 1359 1359 1354 1354 1353 1353 1351 1350 1349 1349 1348 1346 1342 1339 1338 1336 1336 1336 1336 1337 1337 1337 1339 1340 1340 1340 1342 1343 1347 1351 1353 1354 1355 1356 1356 1363 1363 1363 1360 1357 1356 1355 1355 1352 1347 1347 1347 1351 1354 1354 1354 1349 1343 1342 1337 1333 1327 1320 1320 1318 1315 1312 1308 1305 1301 1296 1288 1285 1283 1271 1261 1250 1239 1214 1214 1214 1220 1220 1220 1217 1217 1217 1219 1219 1219 1213 1201 1196 1196 1196 1202 1202 1208 1212 1221 1221 1221 1217 1194 1169 1157 1142 1123 1111 1098 1096 1095 1091 0 0 0 0 0 0 0 0 0 0 0 0 0 845 845 845 820 801 801
621 621 625 625 625 626 627 628 629 629 629 629 629 629 629 628 627 625 624 621 617 608 601 592 592 592 593 594 594 599 603 605 608 614 621 626 633 637 641 645 648 653 657 657 658 660 662 664 665 668 671 672 673 674 676 677 678 679 680 682 683 683 685 687 690 694 696 696 697 697 697 697 696 696 697 698 700 702 704 704 704 699 696 694 686 676 669 665 662 660 660 659 658 658 658 658 658 659 661 662 664 665 666 667 669 670 671 672 673 674 675 676 677 678 680 681 683 685 687 690 692 695 698 701 704 707 711 712 714 717 719 721 722 726 738 746 746 0 0 0 0 0 0 0 0 0 0 0 0 0 0 0 0 0 0 0 0 0 0 0 0 0 0 0 0 0 0 0 0 0 0 0 0 812 813 815 815 816 818 818 818 819 820 820 822 822 822 824 827 828 829 831 833 835 837 838 840 841 843 845 847 849 850 851 853 854 855 857 858 859 861 861 863 864 866 867 870 871 871 872 873 875 878 880 881 881 882 883 884 888 888 888 0 0 0 0 0 0 897 900 900 907 907 908 910 913 914 917 921 926 929 931 931 932 935 939 0 0 0 0 0 0 0 0 0 0 0 0 0 0 1807 1833 1858 1884 1907 1918 1927 1935 1945 1955 1964 1966 1967 1976 1979 1979 1979 1972 1955 1930 0 0 0 0 0 0 0 1666 1666 1666 1650 1641 1621 1604 1585 1584 1584 1583 1581 1580 1579 1577 1577 1576 1575 1574 1573 1571 1569 1568 1568 1567 1566 1564 1563 1561 1561 1560 1560 1559 1556 1555 1553 1552 1550 1548 1546 1544 1542 1531 1521 1507 1495 1478 1449 1435 1426 1413 1402 1401 1398 1394 1391 1386 1380 1378 1378 1377 1375 1373 1371 1371 1371 1373 1376 1376 1376 1376 1373 1370 1369 1367 1366 1364 1362 1362 1361 1361 1361 1361 1361 1362 1362 1362 1361 1361 1361 1361 1361 1360 1359 1359 1357 1355 1355 1355 1355 1355 1354 1354 1354 1354 1354 1354 1354 1354 1354 1354 1354 1354 1355 1355 1356 1357 1357 1358 1358 1359 1359 1359 1359 1359 1359 1359 1360 1361 1362 1364 1366 1367 1368 1369 1369 1369 1369 1368 1367 1365 1365 1365 1365 1364 1363 1361 1361 1361 1361 1360 1359 1359 1357 1357 1357 1358 1358 1359 1361 1363 1364 1365 1366 1366 1366 1368 1368 1368 1367 1364 1363 1361 1360 1359 1355 1352 1350 1349 1349 1349 1349 1347 1347 1347 1347 1348 1348 1348 1351 1352 1352 1352 1351 1351 1351 1351 1351 1351 1350 1345 1341 1338 1334 1334 1334 1334 1334 1334 1334 1337 1345 1348 1349 1352 1357 1357 1357 1354 1353 1352 1352 1349 1349 1347 1344 1344 1341 1339 1338 1337 1336 1335 1334 1334 1333 1333 1333 1335 1337 1338 1338 1340 1340 1343 1348 1350 1350 1350 1351 1351 1352 1352 1352 1349 1346 1345 1344 1343 1342 1342 1342 1347 1351 1352 1352 1352 1347 1342 1338 1333 1327 1321 1317 1316 1315 1313 1311 1308 1305 1301 1294 1285 1277 1274 1270 1261 1250 1237 1214 1212 1211 1210 1208 1207 1207 1206 1206 1206 1206 1206 1201 1170 1170 1170 1180 1180 1181 1181 1185 1208 1208 1208 1202 1173 1149 1137 1133 1121 1108 1094 1085 1082 1057 0 0 0 0 0 0 0 0 0 0 0 0 0 845 845 845 816 806 806
620 620 620 624 625 627 628 629 630 630 630 630 630 630 629 629 628 626 624 622 619 614 605 598 598 598 599 602 603 609 618 624 626 629 632 636 643 649 654 655 656 659 662 663 664 666 666 668 670 672 673 675 676 677 678 678 679 680 681 683 684 684 686 687 690 694 696 697 698 698 698 697 697 697 697 698 701 702 702 702 702 700 698 694 686 676 670 665 662 661 660 659 659 659 659 659 659 660 661 663 664 666 667 668 669 670 671 673 674 674 675 676 677 679 680 682 683 685 687 690 692 695 698 701 704 708 711 713 714 718 720 720 722 727 739 746 751 0 0 0 0 0 0 0 0 0 0 0 0 0 0 0 0 0 0 0 0 0 0 0 0 0 0 0 0 0 0 0 0 0 0 0 809 812 813 815 816 816 818 818 819 819 820 821 823 824 824 826 828 829 831 832 834 837 838 839 841 843 844 846 847 849 850 851 854 855 857 857 858 860 861 861 863 864 865 867 870 871 872 873 875 875 878 880 881 881 0 0 0 887 887 887 0 0 0 0 0 0 901 904 904 907 910 910 912 912 913 913 916 919 920 926 930 931 931 939 0 0 0 0 0 0 0 0 0 0 0 0 0 1813 1832 1845 1864 1884 1907 1918 1933 1945 1958 1963 1969 1971 1978 1979 1979 1979 1976 1967 1955 1930 0 0 0 0 0 0 0 1663 1663 1663 1648 1630 1616 1592 1583 1583 1583 1583 1580 1578 1577 1577 1576 1575 1573 1573 1571 1570 1569 1567 1567 1565 1563 1561 1560 1560 1560 1560 1560 1557 1555 1554 1552 1552 1550 1548 1546 1546 1546 1545 1542 1531 1521 1508 1489 1464 1455 0 0 1428 1414 1411 1408 1403 1394 1386 1384 1384 1381 1377 1375 1375 1375 1378 1382 1382 1382 1382 1377 1375 1373 1371 1370 1369 1365 1364 1363 1362 1362 1362 1363 1363 1363 1362 1362 1362 1362 1362 1362 1361 1360 1359 1357 1356 1356 1356 1357 1357 1357 1357 1356 1355 1355 1355 1356 1356 1356 1355 1355 1355 1355 1356 1356 1357 1357 1357 1358 1358 1358 1358 1358 1358 1359 1359 1359 1361 1361 1362 1365 1366 1368 1368 1368 1368 1368 1365 1365 1364 1364 1364 1364 1363 1362 1361 1361 1361 1359 1358 1358 1357 1357 1357 1357 1357 1357 1357 1359 1362 1364 1365 1365 1365 1365 1366 1366 1366 1366 1364 1362 1361 1360 1357 1354 1352 1349 1349 1349 1348 1348 1347 1347 1347 1347 1347 1346 1346 1346 1346 1346 1347 1349 1349 1349 1349 1349 1348 1348 1345 1341 1336 1334 1332 1331 1330 1330 1330 1330 1330 1330 1339 1343 1346 1353 1353 1353 1352 1352 1350 1349 1348 1346 1344 1341 1339 1337 1337 1336 1336 1335 1333 1332 1332 1331 1331 1331 1332 1335 1335 1335 1336 1336 1339 1342 1342 1344 1344 1344 1340 1340 1340 1340 1340 1338 1337 1336 1336 1336 1336 1336 1340 1344 1344 1344 1344 1343 1339 1334 1328 1325 1318 1314 1312 1312 1310 1307 1304 1301 1299 1293 1285 1275 1270 1264 1258 1251 1237 1214 1212 1211 1210 1205 1203 1199 1198 1198 1198 1198 1198 1188 1168 1165 1165 1165 1165 1166 1168 1168 1183 1183 1183 1174 1143 1118 1114 1112 1099 1086 1075 1070 1044 1028 1025 0 0 0 0 0 0 0 0 0 0 0 0 837 837 837 820 811 811
620 620 620 623 625 627 628 629 630 630 630 630 630 630 630 630 630 628 626 626 623 618 612 607 607 607 607 608 609 626 632 637 639 641 642 647 650 655 657 658 658 661 664 666 667 668 669 670 672 674 674 676 677 678 680 681 681 682 684 685 686 686 687 687 690 694 696 697 698 698 698 697 697 697 697 699 701 702 702 702 701 700 698 694 687 676 671 666 664 662 660 659 659 659 659 659 660 661 662 663 664 666 667 668 669 670 671 673 674 674 675 676 678 679 680 682 683 685 688 690 693 695 698 701 704 708 711 713 714 718 720 720 722 728 739 746 752 752 0 0 0 0 0 0 0 0 0 0 0 0 0 0 0 0 0 0 0 0 0 0 0 0 0 0 0 0 0 0 0 0 0 808 810 813 815 815 817 818 818 819 819 819 820 822 824 825 826 828 829 831 832 834 835 837 839 840 842 843 845 846 848 849 851 852 854 856 857 857 858 860 861 863 865 865 865 868 870 871 873 0 0 0 0 0 881 881 0 0 0 886 886 887 888 892 892 893 894 894 901 904 907 908 910 910 911 910 910 907 907 907 919 923 926 0 0 0 0 0 0 0 0 0 0 0 0 0 0 0 0 1813 1832 1845 1864 1884 1907 1918 1933 1945 1958 1963 1969 1971 1978 1978 1978 1978 1975 1967 1955 1927 0 0 0 0 0 0 1672 1672 1672 1656 1639 1627 1602 1582 1582 1582 1580 1580 1580 1578 1577 1576 1575 1574 1573 1572 1570 1568 1567 1566 1565 1563 1561 1559 1559 1557 1556 1556 1556 1555 1552 1551 1551 1550 1550 1548 1546 1546 1546 1545 1542 1539 1532 1525 1513 1507 1505 0 0 1489 1462 1430 1427 1418 1414 1406 1395 1389 1388 1384 1379 1379 1379 1381 1385 1385 1385 1385 1379 1376 1374 1372 1372 1372 1370 1367 1366 1364 1364 1364 1364 1364 1363 1362 1362 1362 1362 1362 1362 1362 1361 1359 1358 1358 1358 1359 1361 1361 1361 1359 1358 1357 1356 1356 1356 1356 1356 1356 1355 1355 1355 1356 1356 1357 1357 1357 1357 1357 1357 1357 1358 1358 1358 1358 1359 1360 1360 1361 1361 1361 1361 1358 1358 1358 1358 1359 1359 1360 1362 1362 1362 1361 1360 1360 1359 1359 1358 1358 1357 1357 1357 1357 1356 1356 1356 1357 1358 1362 1364 1364 1364 1364 1364 1365 1365 1365 1365 1363 1361 1359 1358 1355 1352 1350 1349 1348 1347 1347 1347 1347 1347 1347 1346 1346 1346 1345 1343 1343 1343 1343 1344 1344 1344 1344 1344 1344 1344 1344 1340 1335 1332 1331 1330 1329 1328 1326 1320 1320 1320 1323 1329 1338 1345 1347 1347 1347 1347 1346 1344 1342 1341 1338 1334 1333 1332 1332 1332 1332 1331 1331 1331 1331 1331 1331 1331 1332 1332 1332 1333 1333 1333 1337 1338 1339 1339 1339 1339 1336 1332 1331 1330 1329 1328 1327 1327 1327 1327 1330 1331 1333 1335 1337 1337 1337 1337 1331 1328 1324 1319 1312 1310 1308 1308 1305 1302 1298 1297 1296 1293 1284 1274 1266 1261 1258 1254 1239 1228 1221 1218 1209 1204 1200 1196 1193 1193 1193 1193 1193 1185 1165 1161 1161 1158 1158 1158 1157 1154 1154 1154 1154 1144 1116 1086 1080 1072 1066 1061 1057 1056 1034 1012 1005 988 0 0 0 0 0 0 0 0 0 0 0 837 837 837 820 811 811
620 620 620 623 625 627 628 630 630 630 631 631 631 631 631 631 631 630 630 629 627 624 621 620 620 620 623 623 624 629 640 642 646 647 650 651 652 655 658 659 661 663 666 668 669 669 671 672 675 675 677 678 679 680 681 682 683 684 684 686 687 687 687 688 691 693 695 697 698 698 698 698 698 698 698 700 701 702 702 702 701 700 698 694 687 676 672 667 664 662 660 659 659 659 659 660 661 661 662 663 665 666 667 668 669 670 671 673 673 675 675 676 678 679 680 682 684 685 688 691 694 696 698 701 704 708 711 713 715 718 720 720 722 728 739 746 752 752 0 0 0 0 0 0 0 0 0 0 0 0 0 0 0 0 0 0 0 0 0 0 0 796 796 798 800 804 805 806 807 808 809 810 811 813 815 817 818 818 819 820 821 821 822 823 824 826 827 828 829 831 833 835 837 838 839 841 842 843 845 847 849 849 850 852 854 856 857 858 858 860 862 865 865 865 866 868 870 872 872 0 0 0 0 0 0 879 877 877 877 886 886 888 890 896 896 898 899 905 906 907 907 908 908 908 909 908 907 904 904 904 919 923 0 0 0 0 0 0 0 0 0 0 0 0 0 0 0 0 0 1813 1832 1845 1864 1874 1893 1912 1933 1945 1958 1963 1969 1971 1978 1978 1978 1978 1973 1966 1951 0 0 0 0 0 0 1626 1654 1654 1654 1644 1631 1609 1596 1582 1581 1581 1579 1579 1579 1578 1575 1574 1574 1573 1572 1571 1569 1568 1566 1565 1563 1562 1560 1558 1557 1556 1556 1555 1554 1552 1551 1550 1549 1548 1548 1547 1546 1546 1545 1545 1542 1539 1535 1532 1527 1525 1524 1523 1522 1517 1502 1484 1479 1466 1434 1430 1417 1412 1406 1399 1392 1388 1385 1385 1385 1388 1388 1388 1379 1376 1374 1374 1374 1373 1373 1371 1368 1367 1367 1366 1366 1366 1363 1363 1362 1362 1362 1363 1363 1363 1362 1360 1360 1360 1360 1361 1362 1362 1362 1361 1359 1358 1358 1358 1358 1357 1357 1356 1356 1356 1355 1355 1355 1355 1355 1355 1357 1357 1357 1357 1357 1358 1358 1358 1359 1359 1359 1359 1358 1358 1357 1351 1351 1351 1350 1351 1351 1353 1356 1357 1357 1358 1358 1358 1358 1358 1358 1357 1357 1357 1357 1357 1356 1356 1356 1357 1358 1361 1362 1362 1362 1362 1362 1362 1362 1362 1362 1362 1359 1357 1355 1352 1351 1350 1349 1348 1346 1346 1346 1346 1346 1346 1346 1346 1345 1344 1343 1342 1340 1340 1339 1339 1339 1339 1339 1339 1339 1339 1337 1335 1332 1330 1329 1329 1328 1325 1320 1318 1318 1318 1322 1326 1332 1339 1339 1339 1339 1337 1333 1332 1331 1330 1329 1329 1328 1328 1329 1328 1328 1329 1329 1329 1329 1330 1330 1331 1331 1331 1329 1329 1329 1329 1333 1334 1334 1334 1330 1327 1326 1325 1325 1323 1322 1319 1317 1317 1317 1319 1322 1325 1327 1327 1327 1326 1325 1323 1322 1319 1312 1306 1306 1305 1302 1300 1296 1293 1291 1290 1283 1280 1273 1266 1260 1257 1254 1244 1230 1224 1218 1212 1203 1194 1191 1185 1185 1185 1184 1184 1181 1165 1156 1156 1151 1151 1151 1137 1129 1129 1126 1126 1116 1096 1073 1059 1047 1043 1041 1040 1039 1032 1010 993 987 0 0 0 0 0 0 0 0 0 0 0 837 837 837 828 811 811
620 620 620 623 625 627 628 630 630 630 631 631 631 632 632 632 632 632 632 632 632 630 626 626 626 629 634 636 637 639 643 645 649 651 653 654 656 658 660 661 662 666 666 668 670 670 672 675 676 676 678 679 680 682 682 683 684 685 685 687 687 688 689 689 691 693 695 696 698 699 699 699 699 699 700 702 702 702 702 702 701 700 698 694 687 679 674 668 664 662 661 659 659 659 659 660 661 662 663 663 665 666 667 668 669 670 671 673 673 674 675 676 678 679 680 682 684 685 689 691 694 696 698 701 705 708 711 713 715 718 720 723 728 729 739 746 753 753 0 0 0 0 0 0 0 0 0 0 0 0 0 0 0 0 0 0 0 0 0 0 795 796 797 799 800 803 805 806 809 810 811 811 812 814 816 817 819 819 819 820 821 822 823 824 825 826 827 829 830 832 835 835 837 839 840 841 843 843 845 847 849 849 850 852 854 856 857 858 858 861 863 865 866 867 867 868 870 871 0 0 0 0 0 0 0 879 882 882 882 886 887 889 894 897 897 898 900 905 906 907 907 907 906 900 892 886 878 878 878 887 893 0 0 0 0 0 0 0 0 0 0 0 0 0 0 0 0 0 0 0 1816 1834 1846 1859 1875 1895 1916 1936 1944 1951 1952 1963 1974 1974 1974 1972 1972 1965 1951 0 0 0 0 1558 1558 1647 1647 1647 1644 1631 1616 1598 1588 1582 1579 1579 1579 1578 1578 1576 1574 1573 1571 1571 1571 1570 1569 1567 1565 1564 1563 1561 1560 1557 1556 1555 1555 1555 1553 1551 1549 1548 1547 1546 1546 1546 1545 1544 1543 1543 1541 1539 1536 1532 1529 1527 1524 1523 1522 1522 1520 1519 1510 1491 1468 1458 1458 1444 1428 1410 1402 1400 1394 1394 1394 1389 1388 1388 1380 1377 1377 1377 1377 1377 1376 1373 1370 1369 1368 1368 1367 1366 1366 1365 1364 1363 1363 1364 1364 1364 1364 1362 1361 1361 1361 1361 1362 1362 1362 1362 1360 1359 1359 1359 1358 1357 1357 1356 1356 1356 1355 1355 1354 1354 1354 1354 1355 1356 1356 1356 1356 1357 1358 1359 1359 1359 1359 1358 1357 1357 1355 1351 1347 1347 1347 1349 1350 1353 1355 1355 1355 1355 1355 1355 1356 1357 1357 1357 1357 1357 1356 1356 1356 1356 1356 1356 1358 1358 1360 1360 1360 1360 1360 1359 1359 1359 1359 1359 1359 1356 1353 1351 1349 1349 1348 1347 1345 1343 1343 1343 1344 1344 1344 1344 1344 1343 1342 1340 1340 1338 1337 1335 1333 1333 1333 1335 1335 1335 1331 1330 1330 1328 1327 1327 1326 1322 1320 1318 1318 1318 1321 1324 1329 1333 1333 1333 1333 1330 1327 1326 1326 1326 1326 1325 1325 1325 1325 1325 1326 1326 1326 1327 1328 1328 1329 1330 1330 1329 1329 1327 1327 1327 1332 1332 1332 1327 1322 1320 1319 1319 1319 1316 1315 1313 1311 1311 1311 1312 1316 1317 1320 1322 1322 1322 1321 1320 1320 1316 1311 1305 1304 1302 1302 1299 1295 1291 1287 1284 1279 1276 1272 1264 1258 1256 1254 1244 1236 1226 1219 1212 1204 1194 1185 1177 1177 1177 1177 1177 1171 1150 1140 1140 1132 1131 1130 1113 1094 1093 1091 1089 1083 1083 1062 1050 1036 1034 1030 1024 1023 1019 1005 990 985 0 0 0 0 0 0 0 0 0 0 0 850 850 850 849 825 825
620 620 622 624 625 627 629 630 630 630 631 631 632 632 633 633 633 633 634 633 633 633 633 633 635 635 635 639 642 644 647 650 651 653 655 656 659 661 661 663 664 667 668 670 670 671 674 676 677 678 679 680 681 682 684 684 684 686 687 687 689 689 690 690 692 693 695 696 698 699 700 700 700 701 702 702 702 702 702 702 701 700 697 694 688 682 675 670 666 663 660 659 659 659 659 660 661 662 663 664 665 666 667 668 669 670 671 673 673 674 675 676 678 679 680 682 684 686 689 692 694 696 698 701 705 708 711 714 716 719 723 728 733 737 740 746 753 753 0 0 0 0 0 0 0 0 0 0 0 0 0 0 0 0 0 0 0 0 0 795 795 796 798 799 800 802 805 807 809 811 812 812 812 814 816 818 819 820 821 821 822 823 823 825 826 827 828 830 832 833 835 836 838 839 841 841 843 844 845 847 848 849 851 852 854 856 857 858 860 862 864 866 867 867 867 868 868 0 0 0 0 0 0 0 878 882 882 884 885 887 889 894 895 898 898 899 900 905 905 905 904 898 891 882 862 853 850 850 850 861 0 0 0 0 0 0 0 0 0 0 0 0 0 0 0 0 0 0 0 0 0 0 0 0 1838 1866 1891 1913 1921 1925 1936 1955 1963 1963 1963 1962 1960 1959 1944 0 0 0 1603 1603 1603 1653 1653 1653 1640 1618 1601 1589 1581 1578 1577 1576 1576 1575 1574 1573 1572 1572 1570 1570 1569 1569 1568 1566 1565 1563 1562 1560 1558 1557 1555 1555 1554 1554 1552 1550 1547 1546 1543 1543 1542 1542 1542 1542 1541 1541 1541 1539 1536 1532 1529 1527 1524 1523 1523 1522 1521 1520 1517 1508 1502 1496 1495 1488 1450 1420 1416 1414 1406 1405 1404 1403 1396 1388 1383 1383 1383 1383 1383 1383 1381 1378 1374 1372 1369 1369 1368 1367 1367 1365 1365 1365 1365 1365 1365 1365 1365 1363 1362 1361 1361 1361 1362 1362 1362 1362 1360 1360 1360 1359 1358 1357 1357 1356 1356 1356 1354 1354 1353 1353 1353 1353 1354 1354 1354 1355 1356 1357 1358 1358 1358 1358 1358 1358 1357 1355 1355 1351 1347 1347 1347 1349 1350 1353 1353 1354 1354 1354 1354 1354 1355 1356 1356 1356 1355 1355 1355 1355 1355 1355 1356 1356 1356 1355 1355 1355 1356 1357 1357 1357 1356 1356 1356 1355 1355 1355 1352 1347 1347 1347 1346 1346 1345 1343 1342 1341 1341 1341 1343 1343 1343 1342 1341 1340 1339 1338 1335 1332 1331 1329 1329 1329 1327 1327 1326 1325 1325 1325 1326 1326 1326 1322 1320 1317 1317 1317 1318 1321 1329 1329 1329 1329 1325 1323 1322 1322 1322 1322 1322 1322 1322 1322 1323 1323 1323 1324 1324 1326 1327 1328 1328 1328 1328 1328 1327 1327 1327 1327 1328 1328 1328 1322 1317 1314 1314 1313 1313 1313 1311 1309 1309 1308 1308 1308 1311 1311 1313 1315 1316 1316 1316 1315 1314 1312 1309 1303 1301 1301 1300 1297 1294 1288 1284 1281 1277 1273 1267 1261 1257 1255 1251 1244 1236 1228 1221 1212 1204 1194 1185 1176 1176 1176 1176 1176 1162 1138 1117 1115 1115 1112 1099 1085 1070 1067 1059 1052 1050 1050 1050 1042 1030 1025 1019 1008 1007 1005 1002 988 970 0 0 0 0 0 0 0 0 0 0 0 850 850 850 849 825 825
621 621 623 625 626 627 629 630 630 631 631 632 633 633 633 634 635 635 635 635 636 636 637 641 641 641 642 642 644 647 649 650 653 655 656 659 661 662 663 664 666 667 669 670 672 673 675 676 678 679 680 680 681 683 684 685 686 687 687 689 689 690 691 692 693 694 695 696 698 699 700 701 701 701 702 702 702 702 702 702 701 700 697 694 689 682 675 670 666 663 660 659 659 659 660 660 661 662 663 664 665 666 667 668 669 670 671 672 673 674 675 676 678 679 680 682 683 686 689 692 694 697 698 702 705 708 711 714 716 719 724 729 735 743 746 749 753 758 0 0 0 0 0 0 0 0 0 0 0 0 0 0 0 0 0 0 0 0 0 796 797 798 799 799 800 802 805 807 809 811 812 812 813 814 816 819 820 820 821 822 822 823 824 826 826 828 830 831 832 834 835 836 838 839 841 841 843 844 846 847 849 849 851 852 854 856 857 858 861 863 865 0 0 0 0 0 0 0 0 0 0 0 0 0 879 882 883 887 894 894 894 895 895 898 898 898 897 894 893 892 881 861 850 849 841 838 838 838 847 861 0 0 0 0 0 0 0 0 0 0 0 0 0 0 0 0 0 0 0 0 0 0 0 0 0 0 0 0 0 0 0 1933 1944 1944 1944 1937 1927 1914 0 0 0 0 1595 1595 1640 1652 1652 1652 1633 1616 1600 1584 1579 1575 1573 1572 1572 1571 1570 1570 1569 1569 1569 1568 1567 1567 1566 1565 1564 1563 1561 1558 1556 1555 1554 1553 1553 1551 1550 1548 1546 1544 1543 1541 1540 1540 1540 1540 1540 1540 1539 1538 1536 1532 1529 1527 1525 1524 1523 1523 1522 1521 1520 1518 1516 1516 1514 1507 1498 1491 1474 1447 1438 1428 1427 1418 1409 1397 1389 1389 1389 1389 1389 1388 1385 1382 1377 1376 1374 1369 1368 1368 1367 1365 1365 1365 1365 1365 1365 1365 1365 1363 1362 1362 1362 1362 1362 1362 1362 1362 1360 1360 1360 1359 1358 1356 1356 1356 1355 1355 1354 1353 1353 1353 1353 1353 1353 1353 1354 1354 1356 1357 1358 1358 1358 1358 1357 1357 1356 1355 1355 1352 1347 1347 1347 1349 1353 1353 1353 1353 1353 1353 1353 1353 1354 1354 1354 1354 1354 1352 1352 1352 1352 1352 1353 1353 1353 1353 1351 1351 1351 1352 1353 1353 1353 1353 1353 1353 1353 1351 1346 1346 1346 1346 1346 1346 1345 1342 1342 1341 1341 1341 1341 1341 1341 1340 1339 1338 1337 1336 1333 1330 1330 1327 1325 1325 1325 1324 1323 1321 1319 1319 1319 1322 1322 1322 1318 1317 1317 1317 1317 1320 1325 1325 1325 1324 1320 1318 1318 1318 1318 1318 1318 1318 1318 1318 1319 1320 1321 1321 1322 1324 1325 1326 1326 1326 1325 1323 1322 1322 1322 1323 1322 1322 1319 1316 1312 1310 1310 1309 1309 1308 1307 1307 1306 1306 1305 1305 1305 1305 1306 1307 1309 1309 1309 1309 1307 1304 1302 1299 1296 1296 1293 1292 1290 1285 1280 1275 1271 1270 1264 1260 1254 1253 1248 1241 1236 1228 1221 1213 1209 1201 1185 1175 1173 1173 1170 1163 1148 1129 1115 1099 1095 1094 1088 1073 1068 1049 1024 1024 1024 1027 1027 1027 1026 1015 996 996 996 992 989 978 968 0 0 0 0 0 0 0 0 0 0 0 0 849 849 849 825 825
623 623 624 625 626 627 629 630 631 631 631 632 633 633 634 635 636 637 637 638 638 638 640 641 644 645 646 647 647 649 651 653 656 656 658 659 662 663 664 666 667 668 670 671 672 673 675 676 678 679 680 681 683 683 684 685 686 687 688 689 690 691 692 693 694 695 696 696 698 699 700 701 701 702 702 702 702 702 702 701 701 699 697 694 689 683 675 670 666 663 660 659 659 659 660 660 661 661 663 664 665 666 667 668 669 670 670 671 672 674 675 676 678 679 680 682 684 686 688 691 694 697 699 701 704 708 711 714 716 719 724 730 737 744 746 750 753 758 763 766 766 773 776 0 0 0 0 0 0 0 786 789 793 794 794 795 795 796 796 797 797 799 800 801 801 804 806 807 809 811 812 813 813 815 817 819 821 821 822 823 824 824 825 826 827 829 830 831 832 834 835 836 838 839 841 841 842 844 846 847 849 849 851 852 854 856 856 858 861 863 863 0 0 0 0 0 0 0 0 0 0 0 0 0 881 883 888 891 894 894 894 895 895 890 890 886 876 874 867 848 836 836 836 833 834 835 835 835 838 853 0 0 0 0 0 0 0 0 0 0 0 0 0 0 0 0 0 0 0 0 0 0 0 0 0 0 0 0 0 0 0 0 0 0 1891 1891 1889 0 0 0 0 0 1588 1588 1661 1661 1661 1652 1633 1597 1583 1578 1573 1572 1570 1569 1569 1567 1567 1567 1567 1567 1567 1566 1565 1565 1565 1563 1562 1561 1559 1557 1555 1552 1552 1551 1551 1549 1548 1547 1545 1543 1542 1541 1540 1538 1538 1538 1537 1537 1537 1536 1536 1532 1529 1527 1525 1524 1523 1523 1523 1524 1524 1524 1524 1523 1520 1518 1516 1511 1499 1489 1478 1463 1450 1440 1421 1413 1407 1403 1398 1397 1394 1393 1389 1385 1384 1382 1379 1373 1369 1368 1367 1365 1365 1365 1365 1366 1366 1366 1365 1364 1363 1362 1362 1362 1363 1363 1363 1362 1360 1360 1359 1359 1358 1356 1355 1355 1354 1354 1354 1353 1353 1353 1353 1352 1352 1352 1352 1352 1354 1357 1358 1358 1358 1356 1356 1355 1355 1355 1355 1355 1354 1354 1354 1354 1354 1354 1354 1353 1353 1353 1353 1353 1353 1353 1352 1352 1352 1351 1350 1350 1350 1350 1351 1351 1351 1349 1349 1348 1347 1347 1347 1348 1349 1349 1350 1350 1350 1348 1345 1344 1344 1344 1344 1344 1343 1342 1340 1339 1339 1338 1338 1338 1338 1337 1336 1336 1333 1332 1329 1328 1327 1326 1325 1324 1324 1324 1322 1319 1315 1314 1314 1314 1314 1313 1313 1313 1313 1317 1317 1320 1321 1321 1321 1320 1317 1314 1314 1314 1316 1317 1317 1317 1316 1316 1316 1317 1317 1318 1320 1320 1321 1324 1324 1324 1319 1319 1319 1319 1319 1319 1318 1312 1312 1310 1307 1307 1307 1307 1307 1304 1303 1302 1302 1302 1300 1300 1299 1299 1299 1299 1303 1303 1303 1303 1301 1296 1294 1291 1290 1289 1287 1285 1280 1277 1273 1269 1268 1264 1260 1255 1250 1245 1241 1234 1230 1228 1221 1213 1209 1201 1185 1175 1173 1171 1163 1155 1144 1129 1111 1099 1090 1090 1085 1072 1067 1047 1010 1004 1004 1004 1020 1020 1020 1005 991 990 990 988 980 971 961 0 0 0 0 0 0 0 0 0 0 0 0 0 0 833 805 805
623 623 624 625 627 627 629 630 631 631 632 632 633 635 636 636 637 639 640 641 641 643 644 645 646 648 649 649 650 652 654 655 656 658 660 662 663 664 666 666 668 669 671 672 673 675 675 677 678 680 680 681 683 684 685 685 686 687 688 690 691 692 693 694 694 695 696 697 698 699 700 701 701 702 702 702 702 702 702 701 700 699 697 694 689 683 675 669 665 662 660 659 659 659 660 660 661 661 663 664 665 666 666 668 668 669 670 671 672 674 675 676 678 679 680 682 684 686 688 691 694 697 700 702 704 708 711 714 716 719 724 730 737 744 746 750 753 758 760 768 769 775 777 779 0 0 0 0 0 786 787 789 793 794 795 795 796 797 797 797 798 801 802 803 803 804 806 808 809 811 812 813 815 816 818 819 821 821 822 823 824 825 825 827 828 829 830 831 833 834 835 836 838 839 840 841 842 844 847 848 849 849 851 853 854 856 856 857 861 863 863 0 0 0 0 0 0 0 0 872 873 875 876 879 884 884 890 891 891 891 891 891 887 882 882 869 851 851 843 820 820 820 830 830 830 833 833 833 838 853 875 0 0 0 0 0 0 0 0 0 0 0 0 0 0 0 0 0 0 0 0 0 0 0 0 0 0 0 0 0 0 0 0 0 0 0 0 0 0 0 0 0 1622 1633 1666 1666 1666 1651 1629 1597 1575 1566 1566 1564 1565 1565 1565 1565 1565 1564 1564 1564 1564 1564 1564 1563 1562 1562 1560 1559 1557 1555 1554 1552 1551 1549 1549 1548 1546 1545 1543 1543 1542 1540 1539 1538 1537 1537 1537 1536 1534 1532 1532 1531 1529 1527 1526 1524 1524 1524 1524 1525 1525 1525 1525 1525 1524 1524 1523 1520 1513 1504 1503 1503 1490 1474 1450 1432 1429 1420 1412 1405 1402 1400 1398 1393 1391 1386 1383 1378 1372 1368 1367 1364 1364 1364 1365 1367 1367 1367 1366 1364 1363 1362 1362 1362 1363 1363 1363 1362 1360 1360 1358 1358 1357 1356 1354 1354 1354 1353 1354 1354 1354 1354 1354 1352 1351 1351 1351 1351 1352 1355 1355 1355 1355 1355 1355 1355 1355 1355 1355 1355 1354 1354 1354 1354 1354 1354 1353 1353 1353 1353 1353 1352 1352 1352 1349 1349 1349 1348 1348 1348 1347 1347 1347 1346 1346 1344 1344 1342 1342 1342 1342 1342 1346 1346 1347 1348 1348 1348 1345 1343 1342 1342 1341 1341 1340 1340 1337 1336 1336 1335 1335 1335 1335 1333 1332 1331 1330 1328 1325 1325 1325 1325 1325 1324 1324 1323 1322 1318 1314 1314 1314 1313 1312 1312 1311 1311 1310 1310 1310 1311 1311 1314 1314 1314 1311 1308 1308 1308 1314 1316 1316 1316 1313 1313 1313 1313 1313 1316 1317 1318 1319 1319 1319 1318 1315 1315 1315 1314 1314 1314 1313 1305 1302 1302 1302 1304 1304 1304 1304 1301 1298 1298 1297 1297 1297 1296 1296 1296 1298 1299 1300 1300 1300 1299 1295 1292 1288 1285 1284 1281 1279 1277 1274 1271 1270 1266 1261 1257 1254 1249 1245 1244 1241 1234 1224 1222 1218 1213 1209 1201 1185 1175 1172 1169 1162 1151 1141 1128 1111 1096 1087 1085 1083 1070 1051 1046 1000 979 979 979 996 996 996 992 988 979 973 972 965 962 942 0 0 0 0 0 0 0 0 0 0 0 0 0 798 797 775 775
624 624 625 626 627 627 629 630 631 632 632 633 634 635 636 638 639 640 641 642 643 645 646 646 648 650 650 651 652 655 656 657 657 660 661 662 664 665 667 668 669 670 671 673 674 675 676 677 678 680 681 682 683 684 685 686 687 688 689 690 691 692 693 694 695 695 696 697 699 699 700 701 701 702 703 703 703 703 702 701 700 699 697 694 687 683 675 669 662 660 660 659 659 659 659 660 661 661 663 664 664 666 666 667 668 669 670 671 672 674 675 676 678 679 680 682 684 685 688 690 694 697 700 702 704 707 710 713 716 719 724 729 737 744 746 750 753 758 760 768 772 775 777 781 781 0 0 0 785 786 787 789 793 794 795 795 797 797 797 797 799 801 803 803 803 805 807 808 809 811 812 813 815 816 818 820 821 822 823 823 824 825 826 827 828 829 830 832 833 834 835 836 838 839 840 841 842 844 849 851 851 852 852 853 853 856 856 857 862 865 865 0 0 0 0 0 866 872 872 873 874 877 883 886 889 889 889 889 888 883 880 873 863 861 0 0 814 813 809 809 809 820 828 828 828 833 833 833 838 853 867 885 0 0 0 0 0 0 0 0 0 0 0 0 0 0 0 0 0 0 0 0 0 0 0 0 0 0 0 0 0 0 0 0 0 0 0 0 0 0 0 0 1598 1681 1681 1681 1665 1649 1627 1596 1568 1563 1563 1562 1561 1561 1561 1562 1562 1562 1562 1562 1561 1561 1561 1561 1560 1559 1558 1557 1556 1554 1552 1551 1549 1549 1547 1546 1545 1544 1542 1542 1540 1540 1538 1538 1536 1536 1536 1535 1534 1532 1531 1530 1529 1527 1527 1526 1525 1525 1525 1525 1525 1525 1525 1525 1524 1524 1524 1524 1518 1518 1517 1515 1512 1507 1498 1476 1453 1438 1428 1423 1421 1419 1410 1403 1397 1393 1388 1383 1374 1368 1367 1364 1364 1364 1366 1369 1369 1369 1367 1364 1363 1363 1363 1363 1363 1364 1364 1364 1361 1360 1358 1358 1357 1355 1353 1353 1353 1353 1354 1354 1354 1354 1354 1352 1350 1348 1348 1348 1348 1350 1353 1354 1354 1354 1354 1354 1354 1355 1355 1355 1354 1354 1354 1354 1354 1354 1353 1353 1353 1352 1352 1352 1351 1350 1349 1347 1347 1347 1346 1345 1345 1344 1342 1341 1340 1339 1336 1334 1334 1334 1339 1339 1339 1341 1343 1346 1346 1346 1345 1342 1341 1340 1340 1339 1339 1338 1335 1334 1333 1333 1333 1333 1332 1331 1329 1327 1326 1323 1323 1323 1323 1323 1323 1323 1323 1323 1322 1318 1311 1311 1311 1310 1310 1310 1310 1309 1306 1304 1303 1303 1303 1303 1303 1304 1304 1305 1306 1306 1308 1308 1308 1308 1308 1308 1310 1311 1312 1313 1314 1315 1316 1316 1316 1314 1312 1312 1311 1310 1310 1306 1301 1295 1295 1295 1296 1300 1300 1300 1299 1294 1294 1294 1294 1294 1294 1294 1294 1294 1297 1299 1300 1300 1300 1297 1293 1291 1286 1279 1276 1273 1271 1268 1268 1268 1266 1265 1261 1253 1242 1242 1242 1241 1240 1232 1224 1207 1204 1197 1195 1189 1181 1174 1172 1166 1156 1147 1140 1127 1111 1088 1083 1082 1074 1070 1050 1021 999 979 979 979 981 982 982 981 980 967 952 942 931 928 0 0 0 0 0 0 0 0 0 0 0 0 775 776 776 775 771 771
624 624 625 626 627 627 628 630 630 632 632 634 634 635 637 638 639 640 642 643 644 645 646 647 650 650 652 652 654 655 657 658 659 661 662 663 665 666 668 669 670 671 672 673 675 676 676 678 679 680 681 683 684 685 686 687 688 689 690 691 692 693 693 694 695 696 697 698 699 700 700 701 702 702 703 703 703 703 702 701 700 699 697 694 687 683 675 669 662 660 659 659 659 659 659 659 660 661 663 664 664 665 666 667 668 669 670 671 672 673 675 675 677 679 680 682 684 685 688 690 694 697 700 702 704 707 710 713 716 717 723 729 737 743 744 747 752 758 760 768 772 775 777 779 781 781 782 782 785 787 788 789 792 794 795 796 797 798 798 799 800 802 803 803 804 806 807 809 809 811 812 813 815 817 818 820 821 822 823 824 824 825 826 828 828 829 831 832 833 834 834 836 838 840 840 841 842 844 849 852 853 853 853 854 854 854 854 857 862 866 866 0 0 0 0 0 867 872 873 873 874 877 883 886 888 888 888 887 882 878 873 857 0 0 0 0 784 784 794 801 806 820 828 828 828 833 833 833 838 847 849 855 873 0 0 0 0 0 0 0 0 0 0 0 0 0 0 0 0 0 0 0 0 0 0 0 0 0 0 0 0 0 0 0 0 0 0 0 0 0 0 0 0 1680 1680 1680 1665 1639 1611 1580 1567 1563 1562 1561 1558 1558 1558 1558 1559 1559 1559 1559 1559 1559 1558 1558 1557 1556 1556 1554 1554 1552 1550 1548 1548 1548 1546 1544 1544 1542 1541 1540 1540 1539 1538 1538 1536 1536 1535 1534 1533 1531 1531 1530 1529 1527 1527 1526 1525 1525 1525 1525 1525 1525 1525 1525 1524 1524 1524 1524 1522 1522 1521 1520 1517 1508 1504 1494 1481 1473 1463 1454 1438 1438 1426 1415 1403 1394 1391 1385 1379 1372 1367 1364 1364 1364 1366 1372 1372 1372 1370 1369 1364 1364 1364 1364 1365 1365 1365 1365 1363 1361 1358 1358 1357 1355 1353 1353 1353 1354 1354 1355 1355 1355 1354 1352 1350 1348 1348 1348 1348 1350 1351 1353 1353 1353 1353 1354 1354 1355 1355 1355 1354 1354 1353 1353 1352 1352 1352 1352 1352 1352 1352 1352 1351 1350 1348 1347 1347 1346 1346 1345 1344 1342 1339 1339 1338 1337 1333 1331 1331 1331 1333 1334 1334 1335 1339 1343 1343 1343 1342 1341 1340 1340 1339 1339 1338 1337 1335 1333 1332 1332 1332 1331 1330 1328 1325 1324 1323 1323 1323 1323 1322 1322 1321 1321 1320 1320 1319 1315 1310 1309 1308 1308 1308 1307 1307 1305 1303 1303 1302 1302 1301 1301 1301 1302 1302 1302 1299 1298 1298 1298 1299 1300 1302 1303 1304 1304 1308 1309 1310 1310 1311 1311 1311 1310 1307 1307 1307 1306 1306 1301 1292 1287 1287 1287 1292 1294 1294 1294 1290 1287 1287 1287 1289 1292 1292 1292 1293 1294 1295 1298 1298 1298 1295 1292 1290 1286 1278 1273 1270 1268 1266 1265 1265 1265 1265 1263 1261 1252 1241 1241 1239 1238 1238 1231 1220 1207 1199 1189 1185 1177 1173 1172 1171 1165 1153 1142 1134 1112 1099 1088 1082 1071 1051 1046 1022 1006 996 983 976 976 973 973 973 973 963 953 948 942 925 0 0 0 0 0 0 0 0 0 0 0 0 748 767 767 768 768 768 768
625 625 625 626 626 628 628 629 630 632 633 634 635 636 637 639 640 642 643 645 646 647 648 649 650 651 653 655 656 657 658 659 661 662 663 665 666 667 668 669 671 672 672 674 675 677 677 679 679 681 682 683 684 685 686 687 688 689 690 691 692 693 694 694 695 697 698 699 699 700 701 701 702 703 703 703 703 703 703 701 700 699 697 694 687 683 675 669 662 659 658 658 658 658 659 659 660 661 662 664 664 665 666 667 668 668 669 671 671 672 674 675 676 679 680 682 684 685 688 690 694 697 700 702 704 707 710 713 716 717 722 729 733 738 744 747 752 758 760 768 772 773 775 780 780 781 782 782 785 786 788 789 791 793 795 796 798 798 799 799 800 802 803 804 806 807 809 809 810 811 812 814 816 817 818 820 821 822 823 824 825 827 827 828 829 830 831 832 833 834 834 836 840 840 841 841 842 845 849 852 853 853 853 854 0 0 0 857 860 862 862 0 0 0 0 0 871 872 872 873 874 877 883 886 886 886 882 871 869 867 852 807 0 0 762 762 767 779 794 800 806 820 830 830 830 833 833 833 838 847 849 855 873 0 0 0 0 0 0 0 0 0 0 0 0 0 0 0 0 0 0 0 0 0 0 0 0 0 0 0 0 0 0 0 0 0 0 0 0 0 0 0 0 1677 1677 1677 1658 1625 1603 1577 1567 1563 1561 1561 1557 1556 1556 1556 1556 1556 1556 1556 1556 1556 1555 1555 1554 1554 1553 1552 1551 1549 1548 1547 1546 1545 1545 1542 1542 1541 1539 1538 1538 1537 1537 1536 1535 1535 1534 1533 1532 1531 1530 1529 1527 1527 1527 1526 1525 1525 1525 1525 1525 1525 1525 1525 1524 1524 1524 1524 1524 1523 1523 1521 1517 1513 1508 1502 1496 1492 1489 1488 1488 1469 1444 1432 1423 1404 1391 1386 1384 1381 1376 1370 1369 1369 1369 1373 1373 1373 1372 1370 1369 1368 1368 1368 1367 1367 1367 1367 1365 1362 1360 1358 1358 1355 1355 1355 1355 1356 1356 1357 1357 1356 1355 1353 1350 1348 1348 1348 1348 1350 1350 1352 1353 1353 1353 1354 1354 1354 1354 1354 1354 1354 1353 1353 1352 1352 1352 1352 1352 1352 1352 1351 1351 1349 1348 1347 1347 1346 1346 1345 1344 1342 1339 1337 1335 1334 1331 1329 1329 1329 1329 1331 1332 1335 1337 1339 1339 1339 1339 1339 1339 1339 1339 1339 1338 1337 1334 1332 1331 1331 1331 1331 1328 1325 1324 1324 1323 1323 1322 1322 1322 1322 1320 1318 1317 1316 1313 1310 1308 1307 1305 1305 1305 1304 1304 1303 1303 1302 1302 1301 1299 1299 1299 1299 1299 1296 1292 1289 1289 1289 1290 1293 1297 1299 1299 1299 1299 1302 1302 1303 1303 1303 1303 1303 1301 1301 1300 1299 1298 1286 1282 1282 1282 1287 1288 1288 1288 1286 1281 1281 1281 1284 1287 1287 1287 1287 1287 1287 1290 1293 1293 1293 1289 1287 1285 1281 1271 1267 1266 1264 1263 1263 1263 1262 1261 1261 1255 1244 1235 1235 1235 1234 1234 1229 1218 1202 1199 1189 1183 1175 1172 1171 1169 1165 1149 1138 1125 1107 1082 1072 1069 1046 1011 1007 992 988 987 983 974 973 969 968 966 957 951 950 945 928 920 0 0 0 0 0 0 0 0 0 0 0 0 749 759 766 766 766 763 763
625 625 627 627 627 628 628 629 630 632 633 634 635 636 638 639 641 642 644 645 647 648 649 651 652 653 654 656 656 658 659 660 662 663 664 666 667 668 668 670 671 673 673 674 675 677 678 679 680 681 682 683 684 685 686 687 688 689 690 691 692 694 694 695 696 697 698 699 700 701 702 702 702 703 703 703 703 703 703 702 701 699 698 695 689 682 674 669 662 659 658 658 658 658 658 659 659 660 661 662 664 665 666 666 667 668 669 670 671 672 674 675 676 679 680 683 684 686 688 691 694 698 700 702 704 707 711 713 716 717 722 729 733 738 744 747 752 758 760 768 772 773 775 777 780 780 782 783 785 786 788 789 790 793 795 796 798 798 799 799 800 802 804 805 806 807 809 810 810 811 813 815 816 817 819 820 821 822 824 825 826 827 828 829 830 831 831 833 834 834 834 837 840 841 842 842 842 845 849 852 853 853 855 855 0 0 0 857 860 865 865 867 867 867 867 868 873 873 874 874 873 873 874 877 879 879 879 867 858 855 821 800 774 762 762 762 767 779 790 800 807 820 830 830 830 833 833 837 847 849 849 855 873 0 0 0 0 0 0 0 0 0 0 0 0 0 0 0 0 0 0 0 0 0 0 0 0 0 0 0 0 0 0 0 0 0 0 0 0 0 0 0 0 1672 1672 1672 1655 1623 1595 1569 1562 1562 1561 1560 1557 1554 1553 1553 1553 1554 1554 1554 1554 1554 1553 1551 1550 1550 1550 1548 1548 1547 1546 1545 1544 1543 1543 1541 1540 1539 1537 1537 1536 1535 1535 1535 1534 1534 1533 1531 1531 1530 1529 1528 1527 1526 1526 1525 1525 1525 1524 1524 1524 1524 1524 1524 1524 1524 1524 1524 1524 1523 1523 1521 1517 1514 1510 1508 1507 1506 1502 1501 1498 1494 1486 1486 1465 0 0 0 1401 1392 1391 1385 1384 1380 1379 1377 1375 1375 1372 1371 1371 1371 1372 1372 1372 1370 1369 1368 1365 1363 1361 1360 1360 1360 1356 1356 1356 1356 1356 1357 1357 1356 1356 1354 1351 1350 1349 1349 1349 1350 1350 1351 1352 1353 1353 1354 1354 1354 1354 1354 1354 1354 1354 1354 1352 1352 1352 1352 1352 1352 1352 1351 1351 1349 1348 1346 1346 1345 1345 1344 1343 1342 1339 1337 1334 1333 1331 1329 1327 1327 1327 1329 1331 1334 1334 1334 1336 1336 1336 1336 1336 1337 1338 1337 1337 1337 1333 1331 1330 1330 1330 1328 1326 1325 1324 1323 1322 1322 1322 1322 1322 1322 1320 1318 1315 1314 1312 1310 1307 1306 1305 1304 1304 1304 1304 1303 1302 1302 1301 1299 1293 1290 1290 1290 1289 1289 1289 1287 1287 1287 1290 1291 1292 1292 1292 1294 1294 1298 1298 1298 1296 1295 1295 1295 1297 1297 1297 1294 1284 1278 1278 1278 1280 1286 1286 1286 1285 1276 1276 1276 1278 1281 1283 1283 1283 1283 1283 1283 1287 1287 1287 1285 1282 1281 1279 1276 1264 1262 1262 1262 1261 1261 1261 1261 1261 1261 1255 1241 1234 1233 1228 1222 1222 1220 1212 1201 1196 1186 1181 1174 1171 1169 1167 1159 1142 1132 1118 1100 1076 1066 1054 1026 1005 990 985 983 981 977 974 968 954 950 950 950 949 945 945 923 0 0 0 0 0 0 0 0 0 0 0 0 747 753 753 757 757 757 745 745
625 625 627 627 628 628 628 629 631 632 633 635 636 637 639 640 642 644 644 646 647 649 650 651 653 654 655 657 658 659 660 661 662 664 665 666 667 668 669 670 671 673 673 674 675 677 678 679 680 681 682 683 684 685 686 687 688 690 691 692 692 694 695 696 696 697 699 699 700 701 702 703 703 703 704 704 704 704 703 702 701 700 699 696 690 681 673 670 663 659 658 658 658 658 658 658 659 660 661 662 663 664 665 665 667 667 668 669 671 672 674 675 676 679 681 683 685 687 690 691 695 699 702 704 706 709 713 716 717 718 722 729 733 738 745 749 755 762 764 768 771 773 775 777 779 780 782 783 786 786 788 789 790 793 795 796 798 798 799 800 801 802 804 805 807 807 809 810 811 812 813 815 817 818 820 821 822 823 824 826 826 827 828 829 830 831 832 833 834 834 835 838 840 842 842 842 843 846 850 0 0 0 0 0 854 854 854 857 862 867 868 868 869 869 870 874 875 876 876 876 874 874 874 877 879 879 879 867 858 851 821 800 774 762 762 762 767 778 789 796 807 820 832 832 832 835 835 840 859 862 864 872 877 0 0 0 0 0 0 0 0 0 0 0 0 0 0 0 0 0 0 0 0 0 0 0 0 0 0 0 0 0 0 0 0 0 0 0 0 0 0 0 0 1666 1666 1666 1653 1620 1590 1567 1562 1561 1560 1560 1556 1554 1552 1551 1551 1551 1551 1551 1551 1551 1551 1550 1547 1547 1547 1546 1546 1545 1543 1543 1543 1542 1541 1539 1537 1537 1536 1535 1535 1535 1534 1533 1532 1532 1531 1530 1529 1529 1528 1527 1526 1526 1525 1524 1524 1523 1523 1523 1523 1523 1523 1523 1523 1523 1523 1523 1523 1523 1523 1521 1517 1514 1511 1511 1511 1509 1509 1507 1506 1504 1504 1504 1495 1480 1477 1472 1456 1435 1414 1411 1400 1396 1391 1389 1387 1376 1374 1373 1373 1373 1376 1376 1376 1373 1369 1368 1365 1363 1363 1362 1362 1362 1356 1356 1356 1357 1357 1357 1357 1357 1356 1356 1354 1352 1350 1350 1350 1350 1350 1351 1352 1353 1353 1354 1354 1354 1354 1354 1354 1354 1354 1354 1353 1352 1352 1351 1351 1352 1352 1351 1351 1349 1348 1346 1346 1345 1344 1343 1342 1342 1339 1336 1334 1332 1331 1328 1326 1325 1325 1325 1326 1331 1331 1331 1329 1329 1329 1333 1334 1334 1335 1334 1334 1334 1333 1331 1329 1328 1326 1325 1324 1323 1323 1322 1322 1322 1322 1322 1321 1321 1320 1317 1315 1313 1311 1309 1306 1304 1304 1304 1304 1304 1304 1302 1302 1302 1301 1296 1291 1288 1286 1286 1286 1286 1286 1286 1286 1287 1289 1290 1291 1291 1291 1289 1289 1289 1289 1290 1290 1292 1292 1292 1290 1285 1282 1278 1272 1272 1272 1273 1280 1285 1285 1285 1282 1274 1274 1274 1275 1279 1281 1281 1281 1280 1280 1280 1283 1283 1283 1280 1276 1271 1269 1265 1259 1259 1259 1259 1259 1260 1259 1259 1259 1258 1251 1241 1233 1224 1218 1211 1210 1208 1205 1201 1196 1185 1180 1173 1164 1159 1153 1142 1132 1124 1113 1095 1073 1057 1028 1017 1005 989 984 984 980 976 976 968 950 936 935 927 0 0 0 0 0 0 0 0 0 0 0 0 0 0 0 748 750 750 750 742 738 736 732 732
625 625 628 628 628 628 629 630 631 632 633 635 636 638 639 641 643 644 645 646 648 650 651 653 653 655 656 657 658 659 660 661 663 664 665 666 668 669 670 671 672 673 674 675 676 677 678 679 680 681 682 683 684 686 686 688 688 690 691 692 693 694 696 696 697 698 699 700 701 701 702 703 703 704 704 704 704 704 704 702 702 700 699 696 690 681 673 670 664 662 659 658 658 658 658 658 659 659 660 661 662 663 665 665 666 667 668 669 671 672 674 675 678 679 681 684 686 688 691 693 696 699 702 705 707 711 714 718 719 720 722 730 734 741 747 749 756 763 766 768 771 774 776 777 779 780 782 784 786 787 789 789 790 793 796 797 798 799 800 800 801 802 804 805 807 808 809 810 811 813 814 815 817 819 820 821 822 823 824 826 826 827 828 830 830 831 832 834 835 836 837 838 840 842 842 842 844 846 846 0 0 0 0 0 854 854 854 856 863 868 869 869 869 871 872 874 878 879 879 879 874 874 874 0 0 0 0 0 858 851 821 800 790 778 772 772 772 778 789 795 807 822 835 835 835 835 835 842 866 878 884 892 0 0 0 0 0 0 0 0 0 0 0 0 0 0 0 0 0 0 0 0 0 0 0 0 0 0 0 0 0 0 0 0 0 0 0 0 0 0 0 0 0 1664 1664 1664 1645 1616 1586 1563 1559 1559 1559 1559 1556 1553 1549 1549 1549 1549 1549 1549 1549 1549 1548 1547 1545 1545 1544 1544 1544 1543 1542 1542 1540 1540 1539 1537 1537 1536 1536 1535 1534 1533 1532 1532 1531 1531 1530 1529 1528 1527 1526 1525 1524 1524 1524 1523 1523 1523 1522 1522 1522 1522 1522 1522 1521 1521 1521 1521 1521 1521 1521 1518 1517 1515 1512 1512 1512 1512 1512 1511 1509 1508 1507 1504 1499 1497 1494 1490 1487 1480 1473 1465 1447 1416 1409 1406 1396 1382 1374 1374 1374 1374 1377 1377 1377 1374 1370 1368 1365 1364 1364 1363 1363 1363 1359 1357 1357 1356 1355 1355 1355 1356 1356 1356 1354 1352 1350 1350 1350 1350 1350 1351 1352 1353 1353 1354 1354 1354 1354 1354 1354 1354 1354 1354 1353 1352 1351 1351 1351 1351 1351 1351 1351 1349 1348 1346 1345 1344 1343 1342 1341 1340 1338 1336 1333 1331 1329 1328 1326 1323 1322 1322 1322 1323 1323 1323 1322 1322 1322 1325 1326 1326 1327 1327 1327 1327 1327 1326 1326 1325 1323 1323 1323 1323 1323 1322 1321 1321 1321 1321 1321 1321 1319 1316 1314 1313 1310 1307 1304 1302 1302 1302 1303 1303 1303 1302 1302 1300 1298 1294 1290 1284 1281 1281 1281 1282 1282 1283 1284 1287 1290 1290 1290 1290 1290 1289 1288 1288 1287 1286 1285 1281 1278 1274 1271 1270 1269 1269 1264 1264 1264 1265 1272 1275 1275 1275 1275 1269 1269 1269 1269 1270 1273 1275 1275 1275 1274 1274 1274 1275 1275 1275 1268 1262 1260 1259 1257 1255 1255 1255 1259 1259 1259 1258 1255 1250 1240 1230 1221 1215 1210 1204 1202 1202 1194 1191 1187 1185 1180 1165 1152 1136 1112 1111 1109 1104 1098 1087 1071 1048 1027 1011 1005 989 984 984 984 980 980 972 950 935 918 899 0 0 0 0 0 0 0 0 0 0 0 0 0 0 0 763 758 756 750 742 736 729 723 723
625 625 628 628 628 629 631 631 632 632 633 635 637 638 640 642 644 645 646 648 649 650 652 653 654 655 657 657 659 660 661 662 663 664 666 666 668 669 670 672 672 673 675 675 676 677 678 680 680 682 682 683 685 686 686 688 689 690 691 693 693 695 696 697 698 698 699 700 701 702 703 703 704 704 705 705 705 704 704 703 702 701 700 696 690 681 673 670 667 665 662 659 658 658 658 658 658 659 660 661 662 663 664 665 666 667 668 669 671 673 674 676 678 679 681 685 688 690 693 694 696 699 703 706 709 712 717 722 722 723 725 731 737 742 747 752 757 763 766 769 772 774 776 777 779 780 782 784 786 788 789 790 792 794 796 797 798 799 800 800 802 803 804 806 807 808 810 811 812 813 815 816 817 819 820 822 823 824 825 826 827 827 828 830 830 831 833 834 836 837 837 839 840 842 842 843 844 848 848 0 0 0 0 0 854 854 854 854 858 872 872 872 872 872 872 876 882 882 882 0 0 0 0 0 0 0 0 0 0 0 821 802 796 789 782 778 778 778 784 793 807 822 835 835 835 835 835 842 866 878 885 0 0 0 0 0 0 0 0 0 0 0 0 0 0 0 0 0 0 0 0 0 0 0 0 0 0 0 0 0 0 0 0 0 0 0 0 0 0 0 0 0 0 1664 1664 1664 1642 1606 1576 1561 1558 1558 1557 1557 1556 1552 1548 1548 1548 1547 1547 1547 1547 1547 1545 1543 1542 1542 1542 1542 1542 1541 1540 1540 1539 1538 1537 1537 1536 1535 1534 1534 1533 1532 1531 1530 1530 1529 1528 1527 1526 1526 1524 1524 1523 1523 1523 1522 1522 1522 1521 1520 1520 1520 1521 1521 1521 1521 1521 1521 1521 1521 1520 1518 1516 1515 1514 1514 1514 1514 1512 1511 1509 1508 1507 1506 1503 1503 1502 1502 1501 1501 1501 1498 1484 1465 1448 1439 1422 1404 1382 1377 1377 1377 1377 1377 1377 1374 1371 1368 1365 1365 1365 1365 1365 1365 1361 1360 1358 1357 1355 1355 1355 1356 1356 1356 1354 1352 1350 1350 1350 1350 1350 1350 1352 1353 1354 1354 1354 1354 1354 1354 1354 1354 1354 1354 1353 1352 1352 1351 1350 1350 1350 1350 1350 1349 1347 1346 1344 1344 1343 1341 1340 1338 1337 1334 1332 1331 1328 1328 1327 1325 1321 1321 1321 1321 1321 1321 1321 1318 1316 1316 1316 1317 1319 1320 1320 1320 1320 1321 1321 1321 1322 1323 1323 1323 1323 1322 1321 1321 1321 1320 1318 1317 1315 1314 1313 1311 1308 1306 1304 1302 1302 1302 1303 1303 1303 1301 1300 1299 1297 1294 1289 1284 1280 1279 1279 1279 1279 1279 1283 1286 1290 1290 1290 1290 1290 1289 1286 1286 1285 1285 1284 1275 1269 1266 1266 1264 1264 1264 1256 1255 1255 1255 1256 1256 1258 1258 1266 1266 1266 1265 1265 1265 1265 1265 1265 1265 1265 1265 1267 1267 1267 1265 1258 1258 1256 1255 1253 1251 1251 1251 1255 1255 1255 1254 1248 1232 1224 1217 1212 1207 1200 1196 1194 1186 1185 1177 1173 1166 1156 1137 1122 1102 1080 1076 1076 1076 1076 1076 1052 1034 1020 1015 1011 990 985 985 985 987 987 987 964 935 915 891 0 0 0 0 0 0 0 0 0 0 0 0 0 0 773 773 758 755 748 742 736 729 708 708
624 624 627 628 629 630 632 633 633 634 635 635 637 639 640 642 644 645 646 648 649 650 652 653 654 656 657 658 659 661 661 663 663 665 666 667 669 669 671 672 673 674 675 676 676 678 679 680 680 682 682 684 685 686 687 688 689 690 691 693 694 695 696 697 698 699 700 701 702 702 703 704 704 705 705 705 705 705 704 704 702 701 700 696 690 681 674 672 669 667 663 660 658 658 658 658 658 659 660 661 662 662 663 665 666 667 668 669 672 674 675 676 679 680 682 685 688 691 694 696 699 701 704 707 710 713 720 725 725 726 729 735 739 743 748 752 757 764 768 770 772 774 776 778 779 781 783 784 786 788 790 791 793 794 796 797 798 799 800 801 803 803 805 806 807 808 810 811 812 813 815 817 818 819 821 822 823 825 826 827 827 827 829 829 830 831 833 835 837 837 839 839 840 843 843 844 846 848 0 0 0 0 0 0 854 855 855 856 862 872 877 877 877 877 877 878 0 0 0 0 0 0 0 0 0 0 0 0 0 0 821 802 798 791 782 772 772 772 780 792 807 822 834 834 834 834 834 841 866 878 885 0 0 0 0 0 1999 0 0 0 0 0 0 0 0 0 0 0 0 0 0 0 0 0 0 0 0 0 0 0 0 0 0 0 0 0 0 0 0 0 0 0 0 1657 1657 1657 1631 1599 1573 1561 1557 1556 1556 1555 1553 1551 1548 1546 1546 1546 1546 1546 1546 1545 1544 1542 1541 1541 1540 1540 1540 1540 1539 1538 1538 1537 1536 1536 1535 1534 1533 1533 1531 1530 1530 1529 1529 1529 1527 1526 1526 1524 1524 1523 1522 1521 1521 1521 1521 1521 1520 1520 1519 1519 1519 1520 1520 1520 1520 1520 1520 1520 1519 1518 1516 1516 1516 1515 1515 1514 1512 1511 1510 1509 1507 1506 1505 1504 1504 1504 1504 1504 1503 1501 1491 1482 1479 1477 1470 1445 1410 1389 1388 1385 1384 1384 1380 1377 1371 1368 1365 1365 1365 1366 1366 1366 1362 1361 1361 1358 1355 1355 1355 1355 1355 1355 1354 1352 1350 1350 1350 1350 1350 1350 1352 1354 1354 1354 1354 1354 1354 1354 1354 1354 1354 1354 1353 1352 1352 1350 1350 1350 1350 1350 1350 1348 1346 1345 1344 1344 1342 1341 1340 1338 1337 1334 1332 1331 1328 1328 1327 1325 1321 1321 1321 1321 1321 1321 1321 1318 1316 1312 1312 1312 1317 1319 1319 1319 1318 1318 1317 1317 1318 1319 1319 1319 1320 1320 1320 1320 1320 1317 1315 1313 1312 1310 1309 1309 1307 1304 1303 1301 1300 1300 1300 1300 1298 1298 1298 1298 1296 1292 1286 1282 1280 1277 1276 1276 1276 1276 1282 1286 1290 1290 1290 1290 1290 1289 1286 1285 1284 1284 1282 1274 1269 1264 1261 1260 1258 1252 1247 1247 1247 1246 1246 1246 1246 1246 1247 1258 1258 1258 1256 1255 1255 1254 1254 1254 1254 1254 1258 1258 1258 1253 1253 1252 1252 1252 1252 1249 1246 1246 1246 1246 1245 1244 1228 1214 1205 1203 1203 1198 1187 1177 1171 1170 1168 1160 1151 1124 0 1091 1086 1074 1062 1054 1042 1039 1037 1033 1021 1014 1014 1014 1014 1011 1010 999 999 999 999 999 964 935 914 891 0 0 0 0 0 0 0 0 0 0 0 0 0 773 773 773 755 755 750 747 740 727 706 706
623 623 627 629 629 630 632 633 633 634 635 636 638 640 641 643 644 645 647 648 649 651 652 654 655 656 657 658 660 661 661 663 664 665 666 668 669 671 671 672 674 675 675 676 678 678 679 680 681 682 683 684 685 686 687 688 689 690 691 693 694 695 696 697 698 700 701 701 703 703 704 704 704 705 706 706 706 706 705 705 703 702 700 696 690 681 674 672 669 667 663 660 658 658 658 658 658 659 659 661 661 662 663 665 666 667 668 670 672 674 676 678 679 681 683 685 688 692 694 698 701 704 707 709 712 717 723 727 727 729 732 738 742 747 750 756 762 767 769 771 772 775 777 778 779 781 784 785 786 788 791 791 793 794 796 797 798 799 801 801 803 803 805 806 807 808 810 811 812 814 816 817 818 820 821 822 824 825 826 827 827 828 829 829 830 831 833 835 837 838 839 840 840 843 843 844 846 846 0 0 0 0 0 0 854 855 857 857 863 872 882 897 897 897 0 0 0 0 0 0 0 0 0 0 0 0 0 0 0 0 814 802 798 791 782 769 769 769 777 787 801 816 819 819 825 825 825 841 862 877 885 0 0 0 0 0 2011 2011 0 0 0 0 0 0 0 0 0 0 0 0 0 0 0 0 0 0 0 0 0 0 0 0 0 0 0 0 0 0 0 0 0 0 0 1643 1643 1643 1606 1578 1566 1560 1557 1554 1553 1553 1553 1550 1548 1545 1545 1545 1545 1544 1544 1544 1542 1541 1540 1539 1539 1539 1538 1538 1538 1537 1536 1535 1534 1534 1533 1533 1532 1530 1529 1529 1529 1528 1528 1528 1526 1525 1524 1523 1522 1521 1521 1521 1521 1520 1520 1520 1520 1518 1518 1518 1518 1518 1518 1518 1518 1519 1519 1519 1518 1518 1516 1516 1516 1515 1515 1514 1512 1511 1511 1510 1510 1509 1507 1507 1506 1506 1506 1505 1504 1503 1498 1498 1498 1493 1490 1485 1458 0 0 1422 1403 1403 1397 1390 1386 1376 1371 1371 1371 1370 1370 1368 1366 1365 1364 1360 1355 1353 1353 1353 1352 1352 1349 1348 1348 1348 1349 1350 1350 1350 1352 1354 1354 1354 1354 1354 1353 1353 1353 1353 1353 1353 1353 1352 1351 1350 1349 1349 1348 1348 1347 1346 1346 1344 1344 1343 1342 1341 1340 1338 1337 1334 1332 1331 1328 1328 1327 1325 1321 1321 1321 1321 1321 1321 1321 1318 1316 1312 1312 1312 1317 1319 1319 1319 1318 1316 1316 1316 1316 1318 1318 1319 1319 1319 1319 1319 1318 1315 1312 1311 1309 1308 1307 1306 1305 1303 1301 1300 1299 1298 1297 1296 1296 1296 1296 1295 1295 1292 1286 1281 1280 1277 1276 1276 1276 1276 1280 1285 1289 1290 1290 1290 1290 1287 1283 1282 1282 1282 1280 1274 1269 1264 1260 1259 1255 1252 1247 1247 1247 1246 1246 1246 1246 1246 1246 1248 1253 1253 1253 1250 1246 1246 1246 1246 1246 1246 1241 1241 1241 1244 1244 1244 1243 1241 1241 1239 1238 1238 1238 1236 1226 1212 1203 1193 1193 1191 1191 1191 1181 1166 1158 1149 1146 1137 1117 1097 1074 1066 1065 1063 1061 1053 1039 1006 0 0 998 998 1006 1010 1016 1023 1023 1023 1019 1012 1008 1005 973 935 915 891 0 0 0 0 0 0 0 0 0 0 0 0 765 773 773 773 758 756 750 747 747 725 660 660
623 623 627 629 630 630 632 633 633 635 636 636 638 640 641 643 645 646 647 649 650 651 652 654 655 656 658 659 660 661 662 663 665 666 667 668 670 671 672 673 674 675 676 677 678 679 679 681 681 682 683 684 685 686 687 688 689 691 691 693 694 695 696 697 699 700 701 702 703 703 705 705 705 706 706 706 706 706 706 705 705 703 700 696 691 687 678 672 669 667 663 661 659 659 658 658 658 659 659 660 661 662 663 664 665 666 668 670 672 674 677 678 681 682 683 686 689 692 696 698 703 707 710 714 717 723 727 728 728 732 739 742 747 750 754 758 764 768 769 771 774 776 777 779 780 782 784 785 787 789 791 792 793 795 796 797 798 800 801 802 803 804 805 806 808 810 810 811 813 814 816 817 818 820 821 823 824 825 826 827 828 829 829 831 831 831 834 837 838 840 0 0 0 843 843 844 846 847 849 0 0 0 0 0 854 855 857 859 863 872 886 897 899 0 0 0 0 0 0 0 0 0 0 0 0 0 0 0 0 0 810 801 798 791 773 767 767 767 773 783 794 808 819 819 819 821 825 841 856 872 883 0 0 0 0 0 2011 2011 1999 0 0 0 0 0 0 0 0 0 0 0 0 0 0 0 0 0 0 0 0 0 0 0 0 0 0 0 0 0 0 0 0 0 0 1620 1620 1612 1579 1568 1566 1560 1556 1554 1552 1552 1551 1548 1546 1545 1544 1544 1543 1543 1543 1543 1541 1540 1539 1538 1538 1537 1537 1537 1536 1534 1533 1533 1532 1531 1531 1530 1530 1529 1529 1528 1527 1527 1527 1525 1524 1524 1524 1523 1522 1521 1521 1520 1520 1519 1519 1519 1518 1518 1517 1517 1517 1517 1517 1517 1517 1517 1517 1518 1518 1517 1516 1516 1516 1515 1515 1514 1512 1511 1511 1510 1510 1509 1509 1509 1508 1508 1507 1506 1505 1504 1502 1502 1502 1502 1502 1499 1488 1484 1482 1472 1452 1435 1427 1414 1405 1395 1385 1383 1383 1380 1379 1371 1368 1367 1367 1363 1356 1353 1353 1350 1350 1349 1345 1345 1345 1348 1349 1349 1350 1350 1352 1355 1355 1355 1354 1353 1352 1352 1352 1353 1353 1353 1352 1352 1351 1350 1347 1346 1346 1346 1345 1345 1345 1344 1344 1343 1342 1341 1340 1339 1339 1336 1334 1334 1333 1332 1331 1330 1327 1325 1325 1325 1325 1325 1325 1320 1316 1312 1312 1312 1317 1319 1319 1319 1318 1316 1316 1316 1316 1318 1318 1318 1318 1318 1316 1315 1314 1312 1312 1310 1309 1307 1305 1304 1303 1303 1301 1300 1299 1298 1295 1295 1295 1295 1295 1295 1295 1292 1286 1281 1280 1277 1276 1276 1276 1276 1280 1283 1286 1288 1288 1288 1288 1285 1283 1282 1280 1280 1279 1274 1270 1268 1260 1259 1255 1252 1247 1247 1247 1246 1246 1246 1246 1246 1246 1248 1253 1253 1253 1249 1245 1245 1245 1243 1243 1243 1237 1237 1237 1237 1237 1233 1231 1229 1226 1225 1225 1222 1220 1220 1207 1204 1193 1181 1181 1181 1181 1181 1178 1162 1150 1140 1127 1117 1111 1097 1074 1066 1056 1050 1047 1047 1032 0 0 0 0 982 984 997 1015 1030 1030 1030 1019 1017 1014 1005 977 941 918 893 0 0 0 0 0 0 0 0 0 0 0 0 786 781 781 773 758 756 755 752 748 0 658 658
