674 674 681 705 733 766 789 807 824 848 873 890 890 0 0 0 0 0 0 0 0 0 0 0 0 0 0 0 1057 1060 1073 1077 1077 1082 0 0 0 0 0 0 0 1228 1226 1226 1226 1229 1236 1249 1269 1286 1301 1311 1320 1330 1340 1348 1354 1360 1372 1389 1406 1424 1435 1444 1447 1457 1466 1478 1496 1525 0 1622 1655 1668 1674 1678 1678 1678 1667 1658 1658 1658 1673 1680 1680 1680 1673 1666 1665 1661 1655 1651 1643 1632 1620 1609 1609 1609 1648 1677 1695 1710 1724 1733 1738 1746 1761 1779 1794 1805 1811 1817 1825 1833 1839 1846 1855 1860 1860 1861 1861 1862 1875 1902 1906 1934 0 0 0 2461 2637 2695 2716 2735 2741 2755 2767 2778 2786 2789 2789 2789 2789 2789 2789 2789 2789 2787 2782 2773 2757 2752 2749 2749 2752 2754 2861 3011 3104 3104 3104 3023 2906 2705 0 0 2268 2268 2268 2305 2326 2356 0 0 2610 2650 2662 2674 2676 2676 2676 2663 2652 2643 2638 2634 2627 2614 2597 2579 2568 2554 2538 2521 2505 2495 2485 2481 2476 2471 2462 2447 2432 2422 2417 2411 2401 2391 2380 2372 2364 2356 2348 2340 2330 2324 2316 2305 2294 2281 2262 2243 2221 2199 2183 2166 0 0 0 0 0 1816 1801 1801 1799 1799 1799 1791 1768 0 0 0 0 0 1241 1223 1206 1202 1200 1199 1198 1195 1193 1192 1190 1188 1185 1183 1182 1180 1178 1177 1175 1173 1171 1169 1167 1165 1164 1161 1160 1158 1156 1153 1150 1148 1146 1144 1140 1135 1130 1127 1121 1111 1093 1080 1076 1073 1070 1066 1063 1060 1059 1057 1055 1051 1049 1048 1048 1046 1046 1046 1046 1050 1054 1055 1059 1065 1069 1071 1074 1074 1075 1075 1075 1074 1074 1074 1073 1072 1070 1069 1068 1066 1064 1062 1060 1058 1057 1054 1052 1049 1046 1044 1040 1036 1028 1017 1002 994 988 983 978 975 974 973 973 972 971 969 968 967 966 965 963 962 960 958 957 957 956 956 956 959 964 971 975 978 980 981 982 982 982 982 982 982 981 980 979 978 977 976 974 974 972 970 969 967 966 966 964 962 961 959 957 956 954 950 946 942 936 931 922 906 903 901 899 897 895 895 894 893 891 890 888 888 888 887 887 885 884 882 881 880 880 880 880 880 880 880 880 881 881 881 881 888 894 899 900 900 0 0 0 0 0 0 0 0 0 0 0 0 0 0 0 0 0 0 0 0 0 0 0 0 0 0 0 0 0 0 0 0 0 0 0 0 0 0 0 0 0 0 0 0 0 0 0 0 0 0 0 0 0 0 0 0 0 0 0 0 0 0 0 0 0 846 846 847 847 849 851 852 854 856 861 864 876 908 0 0 0 0 0 1342 1362 1373 1375 1379 1383 1387 1387 1387 1388 1388 1391 1396 1401 1404 1405 1405 1406 1406 1406 1407 1407 1407 1407 1406 1406 1406 1408 1409 1409 1409 1409 1409 1408 1407 1407 1407 1407 1408 1410 1411 1411 1411 1413 1414 1417 1417 1417 1417 1416 1416 1415 1415 1415 1413 1411 1409 1409 1409 1409 1408 1408 1407 1406 1403 1399 1395 1390 1385 1382 1379 1377 1377 1375 1375 1373 1373 1373 1373 1371 1361 1336 1330 1327 1323 1312 1298 1293 1272 1250 1232 1219 1207 1198 1194 1185 1181 1176 1168 1153 1135 1103 1085 1080 1078 1078 1078 1078 1078 1058 0 0 0 0 0 0 0
663 663 686 696 721 752 783 807 824 849 874 895 916 0 0 0 0 0 0 0 0 0 0 0 0 0 0 0 0 1041 1073 1075 1075 1082 1086 1095 1118 1147 1174 1189 1205 1213 1222 1223 1226 1229 1236 1249 1276 1294 1308 1319 1329 1338 1348 1354 1362 1369 1381 1397 1414 1429 1443 1451 1455 1462 1470 1487 1502 1526 0 1628 1662 1675 1681 1689 1689 1689 1689 1680 1677 1674 1674 1674 1674 1664 1661 1660 1660 1658 1655 1651 1643 1632 1620 1609 1609 1609 1661 1685 1701 1716 1732 1745 1751 1757 1765 1779 1794 1805 1813 1820 1827 1834 1840 1846 1856 1857 1857 1861 1861 1862 1875 1906 1910 0 0 0 2377 2557 2656 2697 2722 2735 2746 2756 2769 2782 2791 2791 2791 2790 2790 2790 2790 2789 2789 2787 2782 2770 2757 2747 2743 2738 2738 2738 2749 2824 2913 3013 3013 3013 2827 0 0 2302 2302 2302 2316 2334 2348 0 0 2566 2669 2692 2695 2699 2699 2699 2698 2683 2667 2658 2649 2642 2636 2624 2609 2596 2587 2575 2561 2539 2523 2510 2499 2495 2490 2484 2475 2458 2441 2427 2419 2412 2402 2395 2389 2384 2375 2364 2353 2340 2332 2327 2323 2316 2301 2283 2264 2242 2220 2198 2179 2153 0 0 0 0 1847 1813 1801 1801 1799 1799 1799 1782 1757 0 0 0 0 0 1236 1216 1203 1201 1200 1199 1197 1195 1192 1191 1189 1186 1184 1182 1181 1178 1178 1175 1174 1171 1170 1168 1166 1164 1162 1159 1158 1156 1154 1152 1150 1147 1146 1143 1140 1135 1130 1126 1120 1105 1089 1080 1076 1072 1070 1066 1063 1060 1058 1057 1055 1053 1051 1049 1048 1047 1046 1046 1046 1050 1056 1056 1059 1065 1068 1071 1074 1074 1074 1074 1074 1074 1074 1072 1072 1071 1069 1068 1066 1065 1063 1061 1059 1057 1056 1052 1050 1048 1045 1043 1039 1033 1026 1015 1000 993 988 983 980 975 974 973 972 972 971 969 968 967 966 965 963 961 959 957 957 957 956 956 956 959 964 971 976 978 980 981 982 982 982 982 981 981 980 979 977 977 976 975 974 972 971 969 967 966 966 965 962 961 960 958 956 954 952 948 945 942 935 925 916 904 903 901 899 896 895 895 894 893 891 890 888 888 887 886 885 884 883 882 881 880 880 879 879 879 879 879 879 879 879 880 880 887 893 902 902 902 0 0 0 0 0 0 0 0 0 0 0 0 0 0 0 0 0 0 0 0 0 0 0 0 0 0 0 0 0 0 0 0 0 0 0 0 0 0 0 0 0 0 0 0 0 0 0 0 0 0 0 0 0 0 0 0 0 0 0 0 0 0 0 0 0 846 846 847 847 849 851 852 853 856 864 865 884 908 0 0 0 0 0 1342 1362 1368 1371 1377 1382 1383 1385 1386 1386 1388 1390 1393 1398 1403 1404 1404 1404 1405 1405 1405 1406 1406 1406 1404 1404 1404 1406 1408 1408 1409 1409 1409 1407 1407 1405 1405 1405 1405 1406 1408 1409 1410 1412 1414 1416 1416 1416 1416 1413 1413 1413 1412 1412 1411 1409 1406 1406 1405 1405 1405 1404 1404 1404 1401 1396 1390 1386 1383 1380 1375 1374 1374 1373 1373 1373 1373 1373 1373 1372 1361 1336 1330 1329 1323 1322 1309 1305 1289 1267 1251 1237 1223 1213 1209 1205 1197 1187 1172 1151 1120 1097 1085 1078 1078 1078 1078 1078 1078 1058 1013 990 0 0 0 0 0
660 660 686 695 719 749 779 807 824 850 880 902 925 950 963 965 0 0 0 0 0 0 0 0 0 0 0 0 0 1003 1045 1071 1074 1074 1075 1095 1118 1145 1166 1188 1205 1213 1222 1223 1231 1234 1242 1256 1277 1296 1312 1325 1336 1346 1356 1364 1369 1377 1389 1404 1419 1433 1445 1455 1459 1467 1481 1495 1509 1534 0 1631 1666 1678 1687 1695 1705 1705 1705 1700 1690 1677 1674 1673 1673 1650 1650 1650 1651 1651 1651 1647 1643 1637 1637 1637 1639 1659 1678 1690 1705 1719 1736 1753 1763 1767 1774 1784 1795 1805 1813 1821 1830 1835 1843 1850 1858 1858 1858 1861 1861 1862 1875 1923 1927 0 0 0 2486 2611 2670 2705 2722 2735 2747 2758 2770 2783 2795 2796 2796 2796 2796 2796 2793 2793 2793 2787 2782 2770 2759 2747 2743 2738 2738 2738 2749 2754 2769 2769 2754 2716 0 0 0 2333 2333 2333 2353 2365 0 0 2561 2657 2699 2711 2718 2718 2719 2719 2719 2713 2691 2671 2659 2649 2640 2627 2613 2603 2596 2587 2577 2563 2545 2529 2512 2504 2496 2492 2486 2471 2452 2434 2423 2412 2402 2395 2392 2391 2388 2378 2361 2347 2335 2330 2325 2316 2303 2284 2264 2243 2219 2197 2167 0 0 0 0 0 1823 1804 1804 1804 1798 1798 1798 1781 1752 0 0 0 0 1248 1228 1210 1202 1200 1200 1199 1195 1194 1191 1189 1188 1186 1183 1181 1179 1177 1177 1175 1173 1171 1168 1167 1164 1162 1160 1158 1157 1155 1153 1151 1149 1147 1145 1143 1139 1134 1129 1124 1118 1100 1086 1080 1075 1072 1069 1065 1061 1059 1057 1056 1055 1053 1051 1051 1048 1047 1047 1047 1047 1050 1056 1057 1061 1065 1069 1071 1073 1073 1073 1073 1073 1073 1072 1071 1070 1070 1068 1066 1065 1064 1062 1060 1058 1056 1054 1051 1048 1046 1043 1042 1039 1031 1023 1013 998 991 987 983 980 978 975 972 972 971 970 969 968 967 966 963 962 961 959 958 957 957 956 956 956 959 964 971 976 978 980 981 981 981 981 981 981 980 979 978 976 975 975 973 972 971 970 968 967 966 964 964 962 960 958 957 955 953 951 948 945 941 933 925 913 904 903 901 898 896 894 894 894 893 891 890 888 887 885 885 883 883 883 881 880 880 879 879 879 878 878 878 878 878 878 880 881 889 893 897 900 900 0 0 0 0 0 0 0 0 0 0 0 0 0 0 0 0 0 0 0 0 0 0 0 0 0 0 0 0 0 0 0 0 0 0 0 0 0 0 0 0 0 0 0 0 0 0 0 0 0 0 0 0 0 0 0 0 0 0 0 0 0 0 0 0 0 846 846 846 846 849 849 849 852 857 865 866 884 911 0 0 0 0 0 1337 1357 1361 1364 1369 1374 1377 1379 1381 1384 1387 1390 1393 1397 1400 1402 1402 1402 1402 1402 1402 1403 1403 1403 1402 1402 1402 1403 1404 1405 1406 1406 1406 1406 1405 1403 1402 1402 1402 1402 1405 1407 1408 1410 1412 1415 1415 1415 1414 1412 1411 1411 1410 1410 1408 1406 1405 1404 1404 1404 1402 1402 1401 1399 1397 1392 1385 1377 1374 1371 1369 1368 1368 1368 1370 1372 1373 1373 1372 1367 1349 1329 1329 1329 1326 1326 1326 1322 1308 1286 1269 1258 1245 1230 1223 1215 1209 1193 1172 1146 1120 1097 1085 1078 1073 1068 1060 1053 1052 1033 1006 980 961 0 0 0 0
660 660 686 689 717 748 779 802 830 855 886 907 926 953 972 975 989 1002 0 0 0 0 0 0 0 0 930 948 975 1002 1021 1048 1062 1074 1080 1095 1118 1145 1165 1186 1202 1213 1222 1229 1237 1240 1247 1257 1277 1298 1315 1330 1342 1354 1364 1372 1377 1385 1397 1413 1427 1437 1447 1457 1461 1475 1490 1505 1517 1536 0 1633 1667 1680 1690 1698 1705 1708 1708 1708 1702 1691 1677 1674 1673 1650 1644 1643 1643 1643 1643 1643 1643 1644 1644 1650 1660 1673 1683 1695 1707 1723 1738 1758 1775 1781 1785 1787 1795 1805 1813 1821 1830 1837 1845 1853 1860 1860 1860 1861 1861 1863 1897 1954 0 0 0 0 2531 2637 2685 2705 2722 2738 2750 2760 2774 2789 2800 2803 2803 2803 2800 2799 2799 2798 2793 2787 2782 2770 2760 2749 2743 2738 2738 2738 2749 2749 2749 2725 2673 2515 0 0 2352 2352 2358 2375 2390 0 0 2544 2654 2721 2727 2729 2732 2734 2734 2734 2734 2733 2719 2691 2667 2657 2646 2634 2620 2612 2605 2598 2592 2577 2563 2546 2527 2512 2508 2504 2497 2484 2461 2440 2429 2415 2406 2401 2398 2395 2393 2383 2372 2356 2344 2333 2325 2317 2306 2287 2265 2243 2219 2190 2145 0 0 0 0 1832 1801 1799 1799 1799 1799 1799 1797 1778 0 0 0 0 0 1242 1224 1208 1202 1200 1198 1198 1195 1192 1190 1188 1187 1184 1182 1180 1178 1177 1175 1173 1171 1169 1167 1165 1163 1161 1159 1157 1155 1154 1152 1149 1148 1145 1144 1142 1139 1134 1128 1119 1110 1096 1083 1078 1074 1072 1068 1064 1061 1059 1056 1055 1055 1053 1051 1051 1049 1047 1047 1047 1047 1050 1056 1059 1061 1066 1068 1070 1072 1073 1073 1073 1073 1072 1071 1070 1070 1068 1067 1066 1064 1062 1061 1059 1057 1054 1052 1050 1047 1044 1040 1038 1037 1031 1021 1006 993 990 987 983 980 979 976 972 971 969 968 967 967 965 964 962 961 960 959 959 958 958 957 958 958 960 965 972 976 978 979 981 981 981 980 980 980 979 978 977 976 975 974 972 971 970 968 967 965 965 963 962 961 959 957 955 954 952 950 948 945 940 933 924 913 906 903 901 898 895 893 892 892 891 890 890 888 887 885 884 883 882 882 881 880 879 879 879 879 878 878 878 877 877 877 878 882 889 894 897 899 899 0 0 0 0 0 0 0 0 0 0 0 0 0 0 0 0 0 0 0 0 0 0 0 0 0 0 0 0 0 0 0 0 0 0 0 0 0 0 0 0 0 0 0 0 0 0 0 0 0 0 0 0 0 0 0 0 0 0 0 0 0 0 0 0 0 846 846 846 846 847 848 848 852 856 865 865 882 908 0 0 0 0 0 1335 1352 1355 1359 1362 1366 1369 1373 1378 1384 1387 1389 1392 1396 1397 1398 1398 1398 1398 1398 1398 1399 1399 1399 1398 1397 1397 1397 1397 1397 1397 1398 1399 1400 1400 1399 1399 1399 1399 1399 1403 1404 1405 1406 1409 1410 1411 1411 1411 1408 1408 1408 1408 1407 1406 1406 1405 1403 1402 1401 1400 1400 1399 1397 1389 1382 1380 1374 1371 1368 1367 1366 1365 1365 1365 1366 1366 1366 1365 1355 1336 1329 1329 1329 1326 1326 1326 1322 1308 1286 1279 1274 1258 1240 1228 1220 1210 1195 1174 1146 1119 1088 1085 1075 1071 1067 1057 1034 1024 1008 983 967 960 946 0 0 0
659 659 686 686 715 0 779 802 830 855 886 907 926 953 972 976 994 1013 1028 0 0 0 0 0 0 903 930 948 975 1002 1017 1040 1062 1074 1090 1108 1126 1141 1165 1183 1200 1213 1222 1229 1237 1242 1247 1261 1282 1303 1322 1339 1351 1363 1374 1384 1390 1396 1410 1424 1437 1446 1453 1465 1469 1484 1499 1511 1523 1542 0 1633 1667 1680 1690 1698 1705 1708 1708 1708 1704 1699 1693 1685 1673 1650 1644 1641 1641 1641 1643 1644 1645 1646 1651 1658 1667 1673 1683 1695 1713 1726 1742 1759 1786 1790 1792 1793 1796 1803 1813 1821 1830 1837 1848 1857 1865 1866 1868 1868 1868 1885 0 0 0 0 0 0 2607 2674 2702 2719 2734 2748 2760 2769 2784 2795 2803 2805 2805 2805 2803 2801 2801 2798 2793 2783 2771 2769 2762 2752 2752 2752 2755 2769 2769 2769 2749 2718 2647 2514 0 2368 2368 2381 2413 2440 2460 0 2528 2596 2703 2736 2740 2741 2741 2746 2746 2746 2746 2739 2722 2705 2684 2665 2655 2644 2635 2627 2622 2614 2605 2590 2576 2561 2549 2533 2522 2517 2508 2493 2469 2448 2435 2424 2416 2410 2407 2402 2396 2388 2375 2363 2350 2336 2325 2317 2311 2293 2272 2246 2219 2183 0 0 0 0 0 1808 1791 1791 1791 1799 1799 1799 1793 1765 0 0 0 0 0 1238 1215 1207 1202 1199 1196 1196 1193 1190 1189 1187 1185 1183 1181 1179 1177 1175 1173 1171 1170 1167 1166 1163 1162 1161 1159 1156 1154 1153 1151 1149 1146 1144 1142 1140 1137 1133 1127 1118 1105 1082 1077 1074 1071 1069 1067 1064 1061 1058 1055 1054 1053 1053 1051 1051 1049 1048 1048 1048 1048 1050 1057 1060 1063 1066 1068 1070 1071 1072 1072 1072 1072 1070 1069 1069 1068 1067 1065 1065 1062 1062 1059 1058 1056 1053 1051 1048 1045 1043 1040 1037 1033 1030 1020 1002 992 990 987 983 981 979 976 972 969 968 967 967 966 964 963 962 961 960 959 959 959 959 959 960 960 962 966 973 976 978 979 979 980 980 980 979 979 977 977 976 974 973 973 971 970 969 968 966 965 963 962 961 959 958 956 954 953 950 949 946 942 936 930 922 913 907 903 901 898 895 893 892 892 891 890 890 888 887 885 883 883 882 882 880 880 879 879 879 879 879 878 878 876 876 876 878 882 889 893 896 898 0 0 0 0 0 0 0 0 0 0 0 0 0 0 0 0 0 0 0 0 0 0 0 0 0 0 0 0 0 0 0 0 0 0 0 0 0 0 0 0 0 0 0 0 0 0 0 0 0 0 0 0 0 0 0 0 0 0 0 0 0 0 0 0 0 0 845 845 845 846 846 847 848 852 856 864 866 882 908 0 0 0 0 0 1334 1348 1353 1358 1360 1364 1368 1370 1374 1380 1384 1387 1390 1392 1394 1394 1394 1395 1395 1395 1395 1395 1395 1395 1394 1392 1390 1390 1390 1391 1392 1394 1396 1396 1396 1396 1396 1396 1396 1398 1400 1402 1403 1404 1404 1405 1405 1405 1403 1403 1403 1403 1404 1404 1404 1404 1403 1402 1400 1399 1398 1398 1394 1391 1385 1381 1378 1374 1370 1368 1363 1362 1359 1359 1359 1363 1363 1363 1358 1350 1335 1328 1328 1328 1326 1326 1326 1322 1308 1286 1279 1274 1258 1242 1232 1221 1211 1195 1174 1142 1111 1088 1085 1074 1070 1064 1054 1034 1018 1001 983 967 960 942 0 0 0
659 659 682 685 713 0 773 796 830 855 886 907 926 953 972 980 994 1013 1028 0 0 0 0 0 945 945 945 948 975 1003 1017 1040 1062 1080 1099 1116 1130 1138 1158 1180 1199 1213 1222 1229 1237 1242 1247 1261 1285 1313 1334 1351 1364 1376 1389 1402 1412 1419 1427 1438 1449 1455 1462 1473 1476 1490 1504 1514 1528 1544 0 1633 1667 1680 1690 1698 1705 1708 1708 1708 1707 1707 1704 1698 1687 1668 1644 1641 1641 1641 1643 1646 1648 1651 1655 1662 1667 1673 1683 1695 1716 1736 1754 1773 1796 1798 1798 1800 1800 1800 1803 1811 1824 1837 1849 1862 1877 1880 1881 1882 1890 0 0 0 0 0 0 2547 2677 2706 2720 2731 2742 2753 2764 2771 2784 2796 2803 2806 2807 2807 2807 2804 2801 2794 2785 2776 2770 2769 2767 2764 2764 2764 2775 2775 2775 2769 2743 2698 2586 0 0 2364 2364 2387 2426 2448 2470 2500 2574 2695 2743 2752 2752 2757 2757 2757 2757 2757 2754 2742 2724 2706 2695 2685 2668 2660 2653 2650 2645 2632 2621 2606 2589 2573 2560 2550 2541 2532 2517 2498 2477 2459 2442 2433 2424 2418 2413 2407 2401 2392 2375 2365 2353 2337 2325 2317 2311 2299 2280 2246 2219 0 0 0 0 0 1817 1795 1793 1793 1793 1799 1799 1799 1791 1762 0 0 0 0 0 1230 1211 1204 1201 1197 1195 1193 1192 1190 1188 1186 1183 1181 1178 1177 1174 1173 1172 1169 1168 1166 1165 1163 1161 1159 1157 1155 1154 1152 1150 1148 1145 1142 1140 1138 1134 1131 1125 1117 1101 1077 1073 1071 1069 1067 1063 1061 1061 1058 1055 1054 1053 1052 1050 1049 1049 1049 1049 1050 1050 1051 1057 1060 1065 1066 1068 1070 1070 1071 1071 1071 1071 1070 1069 1068 1066 1065 1064 1063 1061 1060 1058 1055 1053 1052 1050 1046 1044 1041 1038 1034 1029 1023 1014 1000 992 990 987 984 982 980 976 972 967 967 966 966 965 964 963 962 961 960 960 960 961 961 961 961 962 962 969 973 976 977 979 979 979 979 979 978 978 976 976 974 973 972 971 970 969 968 967 965 964 962 961 960 958 956 955 952 951 949 945 943 939 935 927 919 913 907 903 901 898 895 893 892 892 891 890 890 889 887 885 883 883 882 882 880 879 879 879 879 879 879 878 877 876 876 876 878 882 891 892 895 0 0 0 0 0 0 0 0 0 0 0 0 0 0 0 0 0 0 0 0 0 0 0 0 0 0 0 0 0 0 0 0 0 0 0 0 0 0 0 0 0 0 0 0 0 0 0 0 0 0 0 0 0 0 0 0 0 0 0 0 0 0 0 0 0 0 0 844 845 845 845 845 845 846 851 856 861 866 882 902 0 0 0 0 0 1330 1343 1353 1357 1360 1364 1367 1370 1373 1376 1378 1383 1385 1389 1392 1393 1393 1393 1393 1393 1392 1392 1391 1391 1388 1387 1387 1387 1387 1389 1391 1394 1396 1396 1396 1396 1396 1396 1396 1397 1398 1399 1400 1400 1400 1400 1400 1399 1399 1398 1398 1398 1400 1400 1400 1400 1399 1397 1396 1395 1395 1393 1389 1385 1384 1378 1376 1373 1368 1366 1360 1356 1353 1353 1353 1353 1353 1353 1346 1338 1326 1319 1319 1319 1314 1314 1305 1302 1287 1280 1279 1274 1258 1242 1232 1221 1210 1195 1174 1138 1104 1068 1063 1063 1061 1060 1051 1033 1011 1000 983 967 961 942 0 0 0
649 649 676 677 706 0 769 795 822 851 877 897 917 942 967 980 994 1013 1028 0 0 0 0 0 971 969 969 969 988 1013 1017 1040 1063 1086 1107 1122 1130 1138 1153 1170 1187 1203 1217 1226 1234 1242 1245 1261 1285 1313 1345 1363 1378 1390 1402 1417 1427 1435 1441 1449 1458 1465 1472 1479 1482 1493 1504 1515 1528 1544 1584 1633 1663 1680 1690 1699 1705 1709 1710 1711 1714 1714 1714 1710 1695 1682 1660 1641 1641 1641 1645 1653 1657 1660 1663 1667 1668 1674 1683 1699 1719 1753 1774 1793 1811 1811 1811 1804 1798 1788 1788 1788 1821 1837 1854 1870 1881 1887 1894 1904 1922 0 0 0 0 0 2519 2651 2698 2717 2733 2739 2749 2757 2764 2773 2785 2797 2803 2806 2809 2809 2809 2807 2800 2789 2776 2770 2768 2768 2768 2776 2777 2778 2779 2779 2779 2769 2734 2657 0 0 2370 2370 2370 2392 2428 2450 2480 2563 2694 2791 2826 2826 2826 2805 2792 2787 2779 2769 2760 2745 2725 2707 2695 2691 2681 2673 2669 2664 2659 2650 2638 2621 2600 2583 2571 2559 2549 2539 2528 2503 2481 2464 2449 2439 2430 2423 2418 2409 2402 2394 2383 2366 2354 2338 2325 2316 2311 2299 2280 2246 0 0 0 0 0 1832 1804 1795 1795 1795 1796 1798 1798 1798 1783 0 0 0 0 0 0 1223 1207 1199 1198 1196 1194 1193 1192 1189 1187 1184 1182 1180 1177 1175 1174 1171 1169 1168 1166 1165 1162 1161 1159 1158 1156 1154 1152 1150 1148 1147 1144 1141 1138 1136 1133 1128 1122 1114 1098 1075 1071 1069 1067 1065 1062 1061 1061 1058 1055 1054 1053 1052 1050 1049 1048 1048 1048 1051 1053 1054 1058 1060 1065 1066 1068 1069 1070 1070 1070 1070 1070 1068 1067 1067 1065 1063 1063 1061 1060 1058 1057 1055 1052 1050 1048 1045 1042 1039 1038 1034 1026 1019 1008 997 992 991 990 987 983 981 976 972 967 967 966 965 965 964 963 962 962 961 961 961 961 961 961 961 962 965 971 973 976 977 978 978 978 977 977 977 977 975 974 974 972 971 970 969 968 966 965 964 962 961 959 958 956 954 953 951 949 946 944 940 936 933 927 919 913 908 903 901 898 896 896 896 894 893 893 891 890 888 885 883 882 882 882 880 878 878 878 878 878 878 877 874 874 874 876 879 882 891 894 894 0 0 0 0 0 0 0 0 0 0 0 0 0 0 0 0 0 0 0 0 0 0 0 0 0 0 0 0 0 0 0 0 0 0 0 0 0 0 0 0 0 0 0 0 0 0 0 0 0 0 0 0 0 0 0 0 0 0 0 0 0 0 0 0 0 0 0 844 845 845 845 845 845 845 848 853 858 865 880 893 0 0 0 0 0 1330 1341 1350 1357 1360 1363 1366 1369 1370 1372 1375 1378 1381 1387 1391 1392 1392 1392 1390 1389 1388 1388 1388 1386 1385 1384 1384 1384 1386 1387 1390 1394 1395 1395 1395 1395 1395 1395 1395 1396 1396 1396 1395 1395 1395 1396 1396 1396 1396 1396 1396 1396 1395 1395 1395 1394 1391 1391 1391 1391 1391 1391 1385 1380 1375 1374 1374 1370 1366 1362 1357 1353 1350 1347 1344 1340 1339 1337 1326 1321 1313 1306 1299 1297 1296 1295 1285 1281 1275 1270 1267 1263 1250 1242 1232 1220 1210 1195 1170 1138 1104 1068 1063 1061 1061 1058 1051 1029 1011 990 983 975 974 967 0 0 0
649 649 675 676 699 0 0 791 817 844 864 883 903 926 956 980 983 1008 0 0 0 0 0 989 971 971 971 986 1007 1027 1030 1052 1072 1091 1108 1123 1131 1138 1153 1170 1187 1202 1210 1218 1226 1235 1238 1256 1285 1313 1345 1370 1388 1401 1414 1425 1437 1447 1455 1461 1469 1474 1479 1486 1490 1500 1509 1517 1529 1547 1577 1624 1661 1680 1690 1700 1705 1709 1711 1714 1721 1727 1727 1727 1721 1703 1674 1654 1654 1654 1654 1663 1667 1671 1675 1675 1677 1678 1683 1702 1724 1766 1793 1808 1818 1818 1818 1813 1802 1788 1788 1788 1821 1837 1858 1878 1887 1895 1907 1924 1946 0 0 0 0 0 2553 2672 2698 2717 2733 2739 2749 2757 2764 2774 2786 2797 2801 2805 2809 2809 2809 2807 2798 2776 2768 2767 2767 2767 2767 2777 2780 2783 2783 2780 2779 2769 2711 2614 0 2416 2398 2398 2398 2420 2446 2477 2537 2662 2774 2873 2873 2873 2868 2843 2832 2831 2817 2795 2767 2747 2726 2708 2700 2696 2693 2687 2680 2677 2668 2660 2646 2630 2609 2591 2579 2568 2554 2543 2530 2513 2486 2468 2455 2446 2438 2430 2423 2412 2403 2394 2384 2371 2355 2338 2325 2315 2308 2299 2280 0 0 0 0 0 0 1810 1798 1795 1795 1795 1798 1798 1798 1796 1773 0 0 0 0 0 1239 1215 1201 1196 1196 1196 1193 1192 1189 1187 1185 1182 1180 1178 1175 1173 1172 1170 1168 1166 1165 1163 1161 1160 1159 1157 1155 1153 1151 1149 1147 1145 1143 1140 1137 1136 1132 1125 1121 1114 1096 1073 1067 1065 1063 1063 1062 1062 1061 1060 1058 1057 1054 1052 1050 1048 1048 1048 1048 1052 1054 1055 1059 1063 1065 1066 1068 1069 1069 1069 1069 1068 1068 1067 1066 1065 1063 1062 1060 1060 1058 1057 1054 1053 1050 1048 1045 1042 1040 1038 1035 1030 1023 1015 1006 997 992 992 992 989 986 981 976 972 967 967 966 965 964 964 963 963 963 962 961 961 961 961 961 962 964 967 972 973 974 975 977 977 977 977 977 976 975 974 973 972 971 970 969 967 967 965 964 962 960 959 958 956 954 953 951 949 947 945 943 940 936 931 927 919 913 908 903 901 899 898 898 897 897 895 893 891 890 888 885 883 882 882 882 880 878 878 878 878 878 878 876 873 873 873 876 879 881 891 894 894 0 0 0 0 0 0 0 0 0 0 0 0 0 0 0 0 0 0 0 0 0 0 0 0 0 0 0 0 0 0 0 0 0 0 0 0 0 0 0 0 0 0 0 0 0 0 0 0 0 0 0 0 0 0 0 0 0 0 0 0 0 0 0 0 0 0 0 843 845 845 845 845 843 843 843 852 856 865 878 0 0 0 0 0 0 1330 1340 1349 1357 1359 1361 1364 1364 1365 1367 1370 1372 1373 1376 1383 1386 1386 1386 1384 1384 1383 1383 1382 1379 1379 1379 1380 1382 1384 1386 1390 1392 1393 1394 1394 1394 1394 1393 1392 1391 1391 1390 1390 1391 1391 1391 1391 1392 1392 1394 1394 1394 1391 1391 1389 1384 1384 1384 1385 1388 1388 1388 1381 1374 1371 1370 1370 1368 1364 1361 1356 1352 1348 1345 1338 1334 1328 1321 1313 1306 1301 1294 1289 1288 1288 1284 1281 1274 1266 1263 1258 1253 1243 1235 1228 1220 1210 1180 1167 1138 1104 1068 1063 1058 1052 1050 1039 1028 1010 991 990 985 983 981 0 0 0
649 649 671 673 691 0 0 786 803 828 852 869 892 915 935 966 968 0 0 0 0 0 972 971 972 974 980 995 1007 1027 1030 1052 1072 1091 1108 1123 1134 1140 1153 1170 1187 1202 1206 1209 1213 1225 1227 1246 1276 1312 1345 1370 1388 1406 1421 1432 1444 1453 1462 1470 1477 1483 1487 1495 1505 1509 1518 1525 1529 1547 1577 1624 1661 1682 1694 1701 1708 1713 1717 1722 1729 1734 1741 1741 1741 1735 1719 1676 1664 1664 1664 1671 1677 1682 1686 1691 1694 1695 1700 1715 1741 1785 1804 1815 1822 1822 1822 1821 1814 1788 1788 1788 1821 1852 1873 1884 1894 1904 1917 1939 0 0 0 0 0 0 2616 2674 2698 2717 2733 2739 2749 2757 2764 2773 2786 2796 2799 2803 2807 2807 2807 2807 2788 2766 2762 2762 2762 2762 2767 2777 2780 2780 2780 2771 2754 2725 2670 2573 0 2460 2455 2455 2459 2460 2472 2504 2566 2713 2850 2914 2914 2914 2897 2876 2859 2857 2841 2822 2797 2768 2745 2727 2716 2710 2709 2703 2691 2683 2674 2664 2652 2635 2616 2598 2585 2577 2560 2545 2530 2513 2492 2475 2461 2455 2446 2437 2429 2417 2406 2395 2385 2375 2361 2342 2327 2315 2304 2293 2275 0 0 0 0 0 1817 1803 1803 1801 1801 1801 1798 1798 1798 1791 1768 0 0 0 0 0 1238 1209 1196 1194 1194 1193 1192 1189 1187 1185 1183 1181 1178 1176 1173 1172 1170 1168 1166 1165 1164 1162 1161 1159 1158 1156 1153 1152 1149 1147 1145 1144 1141 1138 1136 1135 1131 1125 1119 1110 1091 1073 1067 1065 1063 1063 1063 1063 1062 1062 1062 1059 1055 1052 1049 1047 1047 1047 1048 1052 1054 1056 1059 1063 1064 1066 1067 1067 1068 1068 1067 1067 1066 1065 1065 1063 1062 1060 1059 1057 1056 1054 1052 1051 1049 1046 1044 1041 1039 1037 1034 1029 1023 1015 1005 997 993 992 992 989 987 981 977 972 969 967 966 965 964 964 963 963 963 962 961 961 961 961 962 964 966 968 972 973 974 974 977 977 977 976 976 975 974 973 972 971 969 968 967 965 965 963 961 960 958 957 956 954 952 952 950 948 946 944 943 940 935 931 926 919 913 908 905 903 900 899 898 897 897 895 893 891 890 888 884 883 881 880 880 880 878 876 876 876 876 876 876 870 870 870 876 880 881 889 892 892 0 0 0 0 0 0 0 0 0 0 0 0 0 0 0 0 0 0 0 0 0 0 0 0 0 0 0 0 0 0 0 0 0 0 0 0 0 0 0 0 0 0 0 0 0 0 0 0 0 0 0 0 0 0 0 0 0 0 0 0 0 0 0 0 0 0 839 842 842 843 843 843 843 843 843 847 854 865 873 0 0 0 0 0 0 1335 1340 1346 1352 1354 1355 1355 1355 1356 1359 1365 1367 1368 1368 1370 1373 1374 1375 1376 1379 1379 1379 1376 1373 1373 1373 1374 1378 1381 1386 1386 1386 1389 1390 1390 1390 1390 1389 1387 1386 1386 1386 1386 1386 1386 1386 1386 1387 1388 1389 1389 1389 1388 1387 1382 1379 1379 1379 1383 1386 1386 1386 1379 1374 1371 1369 1368 1366 1363 1360 1356 1352 1347 1342 1336 1332 1326 1321 1313 1306 1301 1294 1289 1288 1288 1284 1281 1274 1266 1255 1249 1246 1242 1230 1220 1210 1193 1180 1167 1140 1121 1084 1078 1058 1052 1050 1039 1028 1008 1003 1003 1000 991 987 0 0 0
647 647 665 666 683 0 0 779 791 811 835 855 876 897 919 0 0 0 0 0 0 0 946 957 964 971 980 995 1007 1027 1030 1052 1072 1091 1108 1126 1137 1152 1167 1184 1196 1202 1202 1203 1206 1206 1206 1222 1253 1298 1339 1370 1388 1406 1421 1436 1449 1457 1464 1472 1480 1486 1492 1504 1515 1519 1531 1535 1537 1547 1577 1624 1661 1686 1700 1707 1713 1719 1725 1730 1736 1745 1753 1754 1754 1754 1748 1725 1681 1681 1681 1681 1682 1688 1693 1701 1711 1719 1731 1748 1776 1799 1814 1823 1828 1832 1832 1832 1836 1836 1843 1852 1865 1878 1889 1897 1906 1915 1932 0 0 0 0 0 2568 2572 2651 2675 2698 2712 2725 2737 2748 2756 2764 2773 2786 2795 2797 2797 2798 2805 2805 2805 2788 2766 2759 2756 2756 2756 2761 2774 2779 2779 2779 2769 2743 2674 2583 2489 0 2463 2463 2467 2474 2478 2495 2548 2652 2815 2913 2940 2940 2940 2934 2911 2883 2866 2851 2833 2811 2789 2769 2753 2738 2729 2728 2725 2708 2692 2678 2667 2654 2638 2622 2604 2594 2585 2569 2549 2533 2513 2492 2475 2465 2456 2450 2441 2433 2423 2411 2400 2390 2381 2369 2351 2333 2315 2301 2288 0 0 0 0 0 0 1801 1801 1801 1802 1802 1802 1802 1801 1798 1790 1758 0 0 0 0 1258 1234 1206 1194 1192 1192 1191 1188 1186 1185 1183 1181 1179 1177 1173 1171 1170 1168 1166 1164 1164 1162 1161 1160 1158 1156 1154 1152 1149 1147 1145 1143 1141 1139 1136 1135 1134 1131 1125 1116 1106 1091 1073 1067 1065 1063 1063 1063 1063 1062 1062 1062 1059 1055 1052 1049 1047 1047 1047 1047 1051 1054 1056 1059 1063 1063 1065 1066 1066 1066 1066 1065 1065 1064 1064 1062 1061 1060 1059 1057 1056 1054 1052 1050 1049 1048 1045 1042 1040 1037 1037 1034 1028 1019 1015 1005 997 993 992 992 990 987 982 977 974 971 969 967 965 964 964 964 964 963 962 961 961 961 961 962 964 966 968 971 973 974 974 975 975 975 975 974 973 973 971 970 968 968 967 965 964 963 961 960 958 957 955 954 952 950 949 948 946 944 943 940 937 935 929 925 919 913 909 906 904 901 900 898 898 897 895 893 890 889 886 884 883 881 881 880 880 878 876 875 875 874 874 874 870 870 870 872 883 884 894 895 895 0 0 0 0 0 0 0 0 0 0 0 0 0 0 0 0 0 0 0 0 0 0 0 0 0 0 0 0 0 0 0 0 0 0 0 0 0 0 0 0 0 0 0 0 0 0 0 0 0 0 0 0 0 0 0 0 0 0 0 0 0 0 0 0 0 833 837 841 841 842 842 843 843 844 844 845 849 861 865 0 0 0 0 0 1311 1335 1340 1345 1349 1351 1351 1351 1352 1353 1357 1360 1362 1364 1365 1367 1368 1369 1371 1374 1376 1376 1376 1372 1370 1370 1370 1370 1373 1376 1378 1380 1380 1385 1385 1387 1387 1387 1385 1384 1384 1384 1386 1386 1386 1386 1386 1385 1384 1383 1383 1383 1382 1382 1382 1377 1377 1377 1379 1380 1383 1383 1383 1378 1374 1371 1367 1367 1366 1363 1360 1356 1350 1346 1342 1336 1332 1326 1321 1313 1306 1301 1294 1289 1288 1288 1284 1281 1274 1266 1255 1249 1246 1242 1230 1220 1205 1193 1180 1167 1152 1136 1107 1102 1062 1052 1050 1039 1028 1008 1008 1008 1001 1001 987 0 0 0
645 645 663 663 682 0 0 770 781 801 823 841 0 0 0 0 0 0 0 0 0 913 928 944 958 971 980 995 1007 1028 1032 1054 1074 1091 1108 1126 1144 1165 1181 1195 1202 1206 1206 1206 1206 1206 1206 1214 1237 0 1328 1361 1386 1406 1421 1436 1450 1458 1467 1474 1480 1486 1497 1509 1522 1526 1536 1544 1551 1565 1593 1626 1661 1688 1704 1712 1719 1726 1733 1737 1744 1755 1764 1767 1767 1767 1764 1758 1748 1748 1710 1693 1693 1693 1697 1708 1721 1731 1746 1768 1791 1811 1820 1830 1838 1847 1855 1859 1863 1870 1876 1880 1885 1897 1908 1920 1923 1933 1953 0 0 0 0 2531 2616 2618 2659 2678 2698 2712 2720 2729 2738 2747 2759 2770 2782 2792 2792 2793 2793 2796 2796 2796 2780 2766 2759 2756 2756 2756 2758 2767 2776 2776 2776 2762 2727 2658 2552 2489 2463 0 2463 2469 2481 2505 2576 2650 2777 2883 2947 2949 2949 2949 2942 2933 2916 2880 2853 2834 2813 2797 2785 2771 2758 2745 2740 2736 2727 2710 2696 2677 2657 2641 2629 2614 2601 2591 2579 2558 2535 2513 2492 2475 2469 2462 2454 2445 2433 2423 2411 2403 2395 2386 2375 2359 2336 2314 2300 2282 0 0 0 0 0 1803 1803 1803 1803 1803 1803 1803 1803 1802 1798 1789 1753 0 0 0 0 1257 1227 1202 1193 1190 1188 1187 1187 1185 1184 1182 1180 1177 1175 1171 1169 1168 1166 1164 1162 1161 1160 1160 1159 1156 1154 1152 1149 1147 1144 1141 1140 1138 1136 1134 1131 1131 1126 1120 1114 1100 1086 1076 1072 1069 1066 1066 1065 1064 1063 1063 1062 1059 1055 1052 1049 1047 1047 1047 1047 1052 1056 1058 1059 1060 1063 1065 1065 1065 1065 1064 1064 1063 1062 1061 1059 1058 1058 1056 1055 1053 1051 1049 1048 1047 1045 1043 1041 1039 1036 1034 1032 1028 1018 1011 1005 998 995 994 993 990 987 982 978 974 972 970 969 967 967 966 965 965 964 963 961 961 961 961 963 965 966 968 969 971 973 973 973 973 973 973 972 972 972 970 968 967 965 964 963 962 961 959 957 957 954 953 952 950 948 946 945 944 942 940 938 937 933 929 923 919 913 909 907 905 903 903 900 898 897 895 893 890 888 885 884 883 881 881 880 880 878 876 875 875 874 874 874 870 870 870 872 880 880 889 890 890 0 0 0 0 0 0 0 0 0 0 0 0 0 0 0 0 0 0 0 0 0 0 0 0 0 0 0 0 0 0 0 0 0 0 0 0 0 0 0 0 0 0 0 0 0 0 0 0 0 0 0 0 0 0 0 0 0 0 0 0 0 0 0 0 0 833 834 840 840 840 840 841 841 841 841 842 842 851 858 0 0 0 0 0 1314 1335 1339 1343 1345 1347 1348 1349 1349 1352 1356 1358 1359 1360 1361 1362 1362 1364 1367 1371 1372 1372 1372 1371 1370 1370 1370 1370 1372 1374 1376 1377 1378 1380 1382 1384 1384 1384 1382 1382 1382 1383 1384 1385 1385 1385 1385 1384 1382 1381 1379 1379 1379 1379 1379 1377 1377 1377 1379 1379 1379 1379 1379 1377 1373 1371 1367 1365 1365 1362 1360 1354 1350 1346 1342 1336 1332 1326 1321 1321 1321 1320 1305 1297 1297 1296 1295 1292 1282 1268 1255 1249 1246 1242 1230 1220 1205 1193 1189 1179 1163 1139 1116 1111 1081 1068 1062 1047 1028 1013 1013 1013 1013 1013 987 0 0 0
638 638 658 658 676 0 0 0 772 788 802 0 0 0 0 0 0 0 0 863 879 895 912 932 951 966 978 994 1007 1028 1032 1054 1074 1091 1108 1128 1153 1174 1191 1201 1208 1210 1210 1210 1206 1206 1206 1214 1237 1274 1314 1351 1378 1400 1419 1436 1450 1462 1470 1476 1481 1488 1500 1514 1527 1531 1542 1549 1560 1578 1599 1626 1661 1692 1710 1720 1725 1732 1738 1747 1756 1767 1771 1773 1773 1773 1773 1773 1771 1770 1754 1719 1704 1704 1704 1709 1721 1731 1749 1774 1800 1818 1829 1836 1844 1855 1867 1876 1886 1894 1898 1903 1912 1920 1933 1950 1961 1971 0 0 0 0 0 2589 2652 2657 2675 2686 2700 2712 2720 2726 2731 2744 2757 2769 2777 2786 2790 2791 2792 2795 2795 2795 2781 2767 2759 2756 2756 2756 2758 2767 2767 2767 2765 2742 2711 2647 2535 2489 2485 2485 0 2488 2521 2599 2693 2780 2849 2923 2958 2958 2958 2953 2948 2939 2917 2883 2859 2840 2818 2802 2792 2781 2771 2763 2754 2747 2737 2722 2712 2701 2670 2648 2637 2628 2615 2600 2583 2561 2535 2511 2484 2475 2469 2462 2454 2445 2433 2423 2412 2404 2397 2386 2375 2361 2336 2313 2295 0 0 0 0 0 0 1799 1799 1799 1803 1803 1803 1803 1803 1802 1793 1768 0 0 0 0 0 1242 1214 1197 1191 1187 1185 1184 1183 1183 1183 1180 1178 1177 1173 1169 1166 1165 1164 1162 1160 1158 1158 1157 1155 1154 1152 1148 1146 1144 1142 1139 1137 1136 1134 1132 1128 1126 1123 1120 1113 1100 1086 1077 1075 1073 1071 1071 1070 1066 1064 1064 1062 1059 1055 1052 1051 1049 1047 1047 1047 1051 1056 1058 1059 1059 1061 1063 1063 1063 1063 1063 1062 1062 1061 1059 1057 1056 1055 1054 1052 1049 1048 1047 1046 1046 1043 1041 1039 1036 1033 1030 1025 1020 1017 1008 1005 999 997 997 994 990 987 982 979 976 973 971 969 968 968 967 967 966 964 963 963 963 963 963 963 965 966 968 969 970 971 972 972 972 972 972 972 970 970 968 966 965 964 962 961 960 958 957 956 955 952 951 949 947 946 944 942 941 940 940 938 935 933 929 922 918 913 909 907 905 904 904 901 898 897 895 893 890 888 885 884 883 883 882 882 881 880 876 875 875 874 874 874 873 872 872 873 877 880 888 888 888 0 0 0 0 0 0 0 0 0 0 0 0 0 0 0 0 0 0 0 0 0 0 0 0 0 0 0 0 0 0 0 0 0 0 0 0 0 0 0 0 0 0 0 0 0 0 0 0 0 0 0 0 0 0 0 0 0 0 0 0 0 0 0 0 0 834 835 839 839 839 839 839 840 841 841 841 841 842 850 0 0 0 0 0 1316 1332 1335 1338 1341 1343 1346 1347 1348 1351 1356 1358 1358 1358 1359 1359 1359 1359 1363 1367 1371 1371 1371 1371 1370 1370 1370 1370 1372 1374 1376 1376 1376 1376 1378 1379 1381 1381 1381 1381 1381 1382 1384 1384 1384 1384 1384 1384 1382 1379 1379 1379 1379 1379 1379 1380 1379 1379 1379 1379 1379 1379 1376 1375 1373 1371 1366 1364 1363 1360 1358 1354 1348 1345 1343 1340 1337 1334 1331 1331 1330 1329 1320 1307 1301 1301 1295 1292 1283 1275 1268 1263 1260 1253 1238 1220 1205 1199 1192 1183 1163 1142 1125 1120 1108 1097 1087 1067 1042 1019 1019 1018 1013 1013 970 0 0 0
623 623 646 648 670 0 0 0 0 0 0 0 0 0 0 796 800 808 824 844 864 882 903 923 946 964 978 994 1007 1028 1032 1057 1080 1097 1113 1134 1155 1175 1193 1204 1212 1219 1219 1219 1217 1214 1214 1214 1237 1274 1314 1351 1378 1400 1418 1434 1451 1463 1473 1479 1485 1493 1507 1522 1533 1536 1546 1555 1564 1579 1600 1626 1663 1701 1720 1729 1733 1740 1747 1757 1769 1777 1777 1777 1777 1777 1781 1787 1787 1787 1778 1753 1724 1711 1711 1711 1721 1732 1750 1776 1806 1827 1835 1840 1851 1862 1875 1888 1898 1907 1914 1921 1931 1945 1956 1968 1980 0 0 0 0 0 2561 2670 2695 2697 2703 2703 2715 2718 2720 2726 2731 2744 2757 2769 2777 2786 2790 2791 2791 2792 2792 2792 2781 2771 2765 2759 2758 2758 2758 2767 2767 2767 2757 2732 2672 2612 2537 2537 2537 2585 2594 2602 2630 2665 2743 2862 2942 2961 2963 2966 2966 2966 2955 2943 2929 2886 2864 2855 2851 2843 2828 2804 2782 2775 2768 2759 2747 2730 2719 2709 2693 2664 2651 2642 2628 2612 2588 2561 2535 2507 2484 2475 2469 2462 2454 2445 2431 2423 2413 2404 2397 2386 2375 2361 2336 2312 0 0 0 0 0 0 1816 1803 1803 1803 1803 1803 1806 1805 1805 1805 1793 1766 0 0 0 0 0 1231 1204 1193 1190 1186 1184 1182 1181 1180 1180 1179 1175 1174 1170 1166 1164 1162 1161 1160 1159 1158 1157 1156 1152 1149 1147 1145 1145 1141 1138 1136 1135 1132 1131 1129 1126 1124 1120 1116 1111 1100 1086 1083 1081 1080 1079 1076 1073 1068 1067 1065 1064 1059 1057 1055 1054 1054 1050 1050 1050 1051 1058 1058 1058 1058 1060 1060 1060 1060 1060 1059 1059 1059 1057 1056 1055 1052 1051 1050 1048 1046 1044 1043 1043 1042 1041 1038 1035 1033 1031 1027 1024 1020 1017 1014 1005 999 999 997 995 994 992 988 986 983 982 982 979 977 975 974 971 969 967 967 967 967 965 965 965 965 966 968 969 969 969 968 968 968 968 969 969 969 967 965 963 963 961 960 958 956 955 955 954 953 951 949 947 946 944 942 941 939 939 939 938 935 932 928 920 917 917 915 911 910 909 907 904 901 899 897 894 891 888 885 884 884 884 885 887 887 887 881 881 881 881 881 881 881 879 877 877 877 880 889 889 889 887 884 880 880 880 880 880 875 874 874 0 0 0 0 0 0 0 0 0 0 0 0 0 0 0 0 0 0 0 0 0 0 0 0 0 0 0 0 0 0 0 0 0 0 0 0 0 0 0 0 0 0 0 0 0 0 0 0 0 0 0 0 0 0 0 834 835 836 837 837 837 836 836 836 840 840 841 841 846 0 0 0 0 0 1318 1328 1335 1338 1341 1343 1345 1347 1348 1351 1356 1358 1358 1358 1359 1359 1359 1359 1363 1367 1371 1371 1371 1371 1371 1371 1371 1371 1372 1374 1374 1374 1374 1374 1376 1377 1379 1380 1380 1381 1381 1382 1383 1384 1384 1384 1384 1383 1381 1379 1379 1379 1379 1379 1379 1379 1379 1379 1379 1379 1379 1379 1375 1373 1371 1368 1366 1363 1362 1360 1357 1353 1348 1345 1343 1340 1337 1334 1334 1334 1333 1333 1326 1314 1303 1301 1296 1292 1285 1275 1268 1263 1260 1253 1238 1224 1209 1204 1202 1191 1167 1146 1133 1127 1116 1109 1097 1082 1049 1026 1020 1013 1013 1003 969 0 0 0
615 615 635 636 656 0 0 0 0 0 0 0 0 751 766 780 783 796 813 834 853 875 902 923 946 964 978 994 1013 1036 1039 1061 1080 1100 1121 1140 1158 1177 1193 1205 1215 1226 1234 1234 1236 1236 1236 1236 1252 1279 1314 1351 1378 1400 1418 1434 1451 1464 1474 1483 1491 1502 1515 1527 1537 1541 1549 1556 1566 1581 1601 1626 1664 1708 1734 1744 1745 1750 1756 1768 1781 1784 1784 1784 1784 1784 1792 1801 1803 1803 1803 1794 1774 1747 1723 1723 1723 1732 1754 1781 1810 1829 1838 1846 1857 1868 1881 1894 1908 1918 1926 1934 1945 1957 1974 1997 2015 0 0 0 0 0 2621 2686 2707 2710 2723 2724 2725 2725 2726 2727 2731 2744 2757 2769 2777 2786 2790 2790 2790 2789 2788 2785 2780 2776 2770 2765 2760 2760 2760 2765 2765 2765 2757 2730 2642 2595 2586 2586 2586 2610 2623 2636 2650 2668 2785 2931 3011 3028 3028 3028 3019 3010 2991 2970 2952 2928 2890 2877 2867 2859 2854 2835 2797 2788 2778 2772 2758 2738 2723 2711 2694 2675 2662 2655 2636 2615 2591 2562 2535 2507 2484 2475 2469 2461 2452 2445 2431 2423 2413 2405 2398 2388 2374 2361 2336 2310 0 0 0 0 0 0 1798 1798 1798 1803 1805 1806 1806 1806 1806 1805 1786 1761 0 0 0 0 0 1216 1194 1189 1188 1186 1183 1182 1180 1179 1176 1175 1173 1170 1167 1166 1164 1162 1160 1160 1158 1157 1156 1155 1151 1148 1146 1144 1143 1140 1135 1134 1133 1131 1130 1127 1125 1120 1117 1114 1111 1101 1094 1091 1088 1085 1081 1079 1078 1076 1072 1069 1065 1063 1061 1060 1057 1054 1052 1052 1052 1052 1058 1058 1059 1059 1059 1059 1059 1056 1056 1056 1055 1055 1054 1053 1051 1049 1047 1045 1043 1041 1040 1040 1039 1039 1038 1036 1034 1032 1029 1025 1024 1019 1017 1014 1007 1004 1001 999 998 998 995 992 991 989 988 987 984 981 979 977 974 972 969 969 968 968 966 965 965 965 966 968 968 968 968 968 966 965 965 964 964 962 962 961 960 960 959 957 955 952 951 951 950 949 947 945 944 943 942 940 939 937 936 936 936 934 931 925 920 918 917 915 911 910 909 908 906 903 902 901 898 892 889 886 886 886 886 887 888 891 891 891 888 885 884 884 883 883 882 877 877 877 880 884 887 887 884 884 880 880 880 880 880 875 874 874 870 869 869 869 869 868 868 867 866 862 862 862 864 865 865 865 863 863 857 850 848 848 848 848 848 848 0 0 0 0 0 0 0 0 0 0 0 0 0 0 0 0 0 0 0 0 0 0 0 0 0 0 0 0 0 835 836 836 836 836 836 835 833 833 833 838 839 841 845 0 0 0 0 0 1318 1328 1335 1338 1341 1343 1345 1347 1349 1351 1356 1360 1360 1360 1359 1359 1359 1359 1363 1367 1371 1371 1371 1371 1371 1371 1373 1373 1373 1373 1372 1372 1372 1372 1374 1376 1377 1378 1379 1379 1380 1380 1380 1383 1383 1383 1382 1382 1378 1378 1378 1379 1379 1379 1379 1379 1379 1379 1380 1380 1379 1378 1375 1373 1370 1366 1365 1363 1361 1358 1356 1350 1348 1345 1343 1340 1337 1335 1335 1335 1335 1335 1327 1316 1307 1301 1297 1293 1285 1276 1269 1266 1260 1253 1238 1227 1219 1214 1206 1195 1176 1155 1134 1129 1118 1110 1102 1085 1057 1033 1019 1015 1008 989 968 0 0 0
604 604 619 620 628 0 0 0 0 0 693 702 716 737 753 773 776 794 813 829 850 874 902 923 946 964 984 1003 1020 1039 1041 1061 1080 1100 1121 1140 1163 1179 1196 1210 1221 1231 1241 1251 1256 1256 1259 1260 1276 1304 1328 1362 1389 1404 1418 1434 1454 1470 1481 1488 1496 1508 1520 1530 1540 1544 1553 1560 1570 1583 1600 1626 1659 1708 1734 1744 1745 1750 1756 1768 1781 1790 1792 1792 1797 1797 1807 1815 1819 1821 1821 1821 1812 1786 1743 1732 1732 1732 1757 1783 1810 1829 1838 1849 1861 1874 1886 1899 1916 1926 1937 1945 1956 1971 1990 2014 2043 0 0 0 0 2541 2639 2686 2707 2710 2723 2724 2725 2728 2731 2735 2742 2754 2769 2781 2789 2789 2789 2789 2787 2785 2784 2781 2780 2776 2773 2768 2761 2761 2761 2765 2765 2765 2754 2726 2641 2595 2595 2595 2608 2631 2644 2651 2662 2705 2849 2988 3078 3082 3082 3082 3049 3044 3039 3021 3000 2977 2942 2907 2889 2881 2867 2855 2832 2820 2803 2789 2763 2745 2728 2712 2696 2679 2670 2662 2645 2618 2591 2564 2535 2507 2488 2475 2469 2461 2452 2445 2431 2424 2416 2409 2398 2388 2372 2355 2333 0 0 0 0 0 0 1798 1798 1798 1798 1805 1807 1807 1808 1808 1807 1805 1786 1756 0 0 0 0 1237 1210 1191 1186 1185 1185 1183 1182 1179 1177 1173 1171 1170 1168 1166 1165 1163 1161 1158 1158 1152 1151 1147 1146 1146 1141 1138 1134 1132 1132 1129 1127 1123 1123 1122 1121 1120 1119 1117 1113 1108 1103 1099 1096 1093 1091 1088 1085 1084 1082 1080 1074 1070 1070 1069 1069 1067 1065 1062 1061 1060 1060 1059 1059 1058 1058 1057 1056 1056 1056 1055 1054 1054 1053 1052 1051 1048 1045 1044 1042 1042 1039 1038 1036 1034 1033 1031 1031 1030 1029 1025 1022 1019 1018 1016 1014 1013 1010 1009 1005 1000 998 996 995 995 993 993 992 988 984 981 979 979 978 977 975 973 973 971 969 968 968 968 968 967 967 966 966 965 962 961 960 960 958 957 956 956 955 954 951 950 948 948 946 945 944 942 940 939 938 938 936 934 934 932 932 932 932 931 925 921 921 918 916 914 912 910 909 909 908 907 905 905 901 897 895 894 894 894 891 891 891 891 891 890 890 888 884 884 884 884 883 882 882 882 883 885 885 883 883 876 876 876 873 873 874 871 871 870 870 870 871 871 871 869 867 866 863 863 863 864 866 866 866 866 864 860 854 852 852 850 850 851 851 849 0 0 0 0 0 0 0 0 0 0 0 0 0 0 0 0 0 0 0 0 0 0 0 0 0 0 0 0 832 832 832 832 834 834 834 833 833 833 835 838 841 845 0 0 0 0 0 1316 1328 1336 1339 1345 1345 1345 1347 1351 1355 1358 1362 1362 1362 1362 1362 1362 1362 1365 1367 1371 1371 1371 1371 1371 1371 1373 1373 1373 1373 1372 1371 1371 1371 1372 1374 1376 1377 1377 1377 1377 1377 1378 1380 1381 1381 1381 1380 1378 1378 1378 1379 1379 1379 1379 1379 1379 1379 1379 1379 1379 1378 1375 1372 1369 1366 1364 1362 1359 1357 1354 1350 1345 1343 1341 1339 1338 1337 1337 1337 1336 1335 1327 1317 1307 1301 1297 1293 1286 1279 1269 1266 1258 1248 1238 1227 1219 1214 1206 1195 1176 1155 1138 1129 1119 1112 1104 1093 1075 1047 1022 1010 998 983 967 0 0 0
586 586 590 592 596 0 0 0 0 660 674 691 707 726 753 773 776 794 813 829 850 874 902 929 952 970 990 1009 1025 1039 1045 1061 1080 1100 1121 1140 1163 1186 1203 1218 1230 1240 1248 1259 1269 1277 1282 1290 1306 1330 1357 1380 1400 1413 1425 1440 1459 1476 1487 1495 1502 1513 1524 1534 1542 1546 1553 1561 1570 1583 1600 1623 1656 1708 1734 1744 1745 1750 1756 1768 1781 1790 1797 1801 1805 1814 1821 1827 1828 1829 1830 1830 1830 1819 1787 1747 1747 1747 1760 1787 1810 1829 1838 1849 1865 1881 1897 1910 1925 1936 1947 1958 1971 1983 2004 2031 2068 0 0 0 0 2583 2639 2686 2707 2710 2723 2724 2725 2728 2735 2742 2753 2766 2778 2781 2789 2789 2789 2789 2787 2784 2781 2779 2778 2776 2774 2769 2764 2764 2764 2761 2761 2756 2740 2702 2641 2602 2602 2602 2620 2637 2665 2696 2728 2814 2944 3068 3119 3119 3119 3098 3077 3060 3056 3045 3022 2999 2968 2938 2921 2908 2894 2873 2856 2843 2830 2802 2773 2752 2736 2719 2703 2687 2677 2668 2649 2626 2601 2576 2550 2525 2503 2488 2471 2461 2452 2447 2441 2435 2425 2413 2400 2388 2371 2352 0 0 0 0 0 0 1801 1798 1798 1798 1801 1805 1807 1807 1807 1806 1806 1803 1786 0 0 0 0 0 1237 1203 1190 1186 1184 1182 1181 1180 1178 1175 1171 1169 1169 1167 1161 1149 1145 1143 1139 1139 1139 1136 1132 1131 1128 1123 1119 1119 1117 1116 1116 1111 1111 1111 1114 1115 1115 1115 1115 1112 1108 1104 1102 1101 1100 1098 1094 1090 1087 1083 1082 1079 1078 1078 1076 1073 1072 1072 1071 1070 1068 1067 1064 1062 1055 1053 1053 1053 1053 1053 1051 1050 1048 1046 1046 1043 1039 1038 1038 1038 1036 1036 1035 1033 1031 1029 1025 1023 1022 1021 1020 1019 1019 1019 1016 1014 1013 1011 1009 1006 1003 1001 999 997 996 995 995 994 992 988 985 984 984 982 980 978 977 976 975 973 971 970 968 965 964 962 959 958 958 957 957 957 956 955 954 954 952 950 948 947 946 945 944 942 939 936 929 928 928 928 928 929 929 929 929 929 929 929 929 925 921 921 921 920 920 917 911 911 909 909 909 907 907 907 908 909 910 910 0 0 0 0 0 891 890 890 0 0 0 0 0 886 886 886 884 883 883 881 881 881 875 875 875 871 870 870 869 869 869 869 869 870 870 870 868 866 865 862 862 862 864 866 867 867 867 866 863 856 852 852 852 852 852 851 849 848 0 0 0 0 0 0 0 0 0 0 0 0 0 0 0 0 0 0 0 0 0 0 0 0 0 0 0 832 832 832 832 832 832 832 832 832 832 833 838 842 845 0 0 0 0 0 1316 1328 1336 1339 1345 1346 1347 1348 1352 1355 1359 1362 1364 1364 1364 1364 1364 1364 1365 1367 1371 1371 1371 1371 1371 1371 1373 1373 1373 1373 1372 1371 1371 1371 1372 1372 1374 1374 1374 1375 1375 1375 1378 1379 1379 1379 1377 1377 1374 1374 1374 1379 1379 1379 1378 1378 1378 1378 1379 1379 1379 1378 1375 1371 1367 1365 1363 1360 1357 1354 1350 1349 1345 1343 1341 1339 1338 1337 1337 1337 1337 1337 1329 1319 1307 1301 1297 1292 1288 1282 1274 1266 1258 1246 1236 1227 1219 1214 1206 1195 1176 1155 1138 1129 1119 1116 1115 1108 1097 1079 1039 1007 989 970 964 0 0 0
565 565 566 566 569 577 590 611 628 641 657 680 698 722 751 773 776 794 813 829 850 875 904 929 952 971 991 1010 1025 1039 1045 1056 1070 1090 1111 1138 1163 1188 1208 1225 1238 1247 1256 1266 1281 1295 1299 1315 1330 1350 1369 1387 1404 1419 1427 1440 1459 1476 1488 1498 1506 1515 1524 1534 1542 1547 1553 1561 1570 1583 1600 1617 1640 0 0 0 0 0 1751 1764 1777 1789 1797 1801 1805 1822 1829 1833 1835 1836 1836 1838 1838 1838 1814 1769 1767 1767 1767 1787 1808 1824 1838 1851 1873 1891 1905 1919 1931 1942 1956 1974 1982 1995 2017 2050 2085 0 0 0 0 2583 2639 2666 2695 2697 2714 2721 2724 2728 2737 2745 2755 2766 2778 2781 2789 2789 2789 2789 2786 2780 2778 2778 2777 2776 2775 2771 2766 2764 2762 2758 2754 2744 2714 2676 2639 2639 2639 2668 2689 2691 2706 2753 2820 2943 3059 3150 3150 3150 3128 3116 3106 3091 3082 3062 3033 3017 2998 2966 2944 2929 2919 2896 2881 2863 2848 2822 2808 2795 2779 2756 2737 2709 2687 2675 2658 2635 2614 2587 2564 2547 2520 2499 2480 2469 2462 2460 2453 2443 2429 2418 2404 2389 2370 2349 0 0 0 0 0 0 1797 1797 1797 1800 1802 1806 1809 1809 1809 1806 1804 1801 1784 0 0 0 0 0 1223 1198 1190 1186 1184 1181 1179 1178 1175 1173 1170 1169 1166 1162 1152 1137 1130 1125 1122 1119 1116 1113 1109 1109 1109 1106 1101 1100 1099 1099 1095 1095 1095 1099 1106 1110 1112 1112 1112 1110 1108 1106 1105 1104 1104 1101 1099 1094 1091 1088 1086 1084 1084 1083 1080 1076 1075 1073 1072 1071 1070 1067 1064 1063 1058 1048 1046 1036 1036 1036 1037 1038 1038 1038 1037 1035 1032 1030 1030 1029 1028 1025 1024 1023 1023 1023 1021 1016 1013 1013 1013 1016 1016 1016 1016 1014 1013 1012 1010 1008 1007 1006 1002 1000 998 997 996 994 993 992 990 989 987 986 983 980 980 979 976 974 973 970 968 965 962 962 958 957 955 953 952 951 950 950 949 948 947 945 943 940 938 936 933 931 928 925 922 918 917 917 917 917 919 921 924 926 926 926 927 926 926 926 923 921 921 920 917 915 914 914 914 913 912 911 911 911 911 911 0 0 0 0 0 0 0 0 0 0 0 0 0 0 886 886 884 879 876 876 874 872 867 867 867 866 866 867 867 868 868 868 869 869 869 869 867 865 863 862 861 861 861 865 867 867 867 866 864 861 856 855 854 853 854 854 851 851 0 0 0 0 0 0 0 0 0 0 0 0 0 0 0 0 0 0 0 0 0 0 0 0 0 0 0 831 832 832 831 831 832 831 831 831 831 831 835 845 855 0 0 0 0 0 1312 1328 1336 1339 1345 1346 1349 1351 1352 1355 1359 1362 1364 1364 1365 1365 1365 1365 1366 1367 1370 1371 1371 1372 1372 1372 1373 1373 1373 1373 1373 1371 1370 1370 1370 1371 1372 1372 1372 1373 1373 1374 1375 1378 1378 1378 1377 1376 1373 1373 1373 1376 1376 1376 1376 1375 1375 1375 1376 1376 1376 1375 1372 1369 1366 1364 1362 1359 1357 1354 1350 1349 1345 1343 1341 1339 1338 1338 1338 1340 1340 1340 1335 1322 1309 1301 1297 1292 1288 1282 1274 1266 1256 1245 1234 1221 1213 1206 1197 1181 1162 1145 1138 1129 1125 1122 1121 1121 1116 1087 1040 1007 984 961 956 0 0 0
542 543 543 549 552 561 579 600 618 638 652 674 693 721 751 774 778 799 818 834 854 878 904 931 953 972 991 1010 1025 1036 1045 1049 1064 1083 1108 1134 1163 1188 1210 1229 1244 1255 1263 1276 1292 1306 1311 1328 1344 1359 1373 1388 1405 1419 1428 1441 1460 1476 1488 1498 1506 1515 1524 1534 1542 1548 1553 1561 1569 1569 1570 1570 1571 0 0 0 0 0 0 0 1756 1775 1787 1801 1805 1822 1829 1835 1840 1840 1843 1844 1844 1844 1831 1797 1779 1779 1779 1787 1803 1819 1837 1858 1881 1899 1913 1927 1935 1949 1966 1980 1991 2004 2029 2065 2110 0 0 0 0 0 2593 2623 2673 2697 2701 2716 2723 2728 2737 2745 2755 2766 2778 2781 2784 2785 2786 2786 2786 2778 2778 2777 2776 2776 2775 2773 2771 2764 2761 2758 2750 2730 2701 2667 2647 2647 2647 2707 2709 2718 2744 2828 2938 3064 3144 3172 3172 3172 3144 3143 3142 3142 3122 3088 3062 3047 3017 2976 2956 2943 2932 2924 2901 2872 2854 2846 2829 2814 2797 2779 2756 2734 2706 2687 2668 2650 2621 2601 2576 2552 2532 2507 2487 2477 2471 2465 2456 2443 2429 2418 2404 2389 2366 2336 0 0 0 0 0 1798 1796 1796 1796 1800 1802 1806 1809 1809 1809 1806 1804 1800 1783 0 0 0 0 0 1219 1196 1189 1185 1184 1180 1178 1174 1172 1171 1170 1169 1166 1159 1151 1135 1127 1113 1101 1092 1089 1089 1089 1090 1094 1094 1094 1091 1087 1085 1085 1085 1089 1095 1095 1098 1104 1105 1108 1108 1108 1108 1106 1106 1104 1102 1100 1096 1094 1092 1089 1087 1085 1084 1082 1079 1076 1074 1073 1072 1070 1068 1064 1063 1055 1047 1040 1023 1021 1021 1021 1021 1022 1022 1022 1019 1010 1006 1006 1006 1009 1009 1009 1007 1007 1006 1005 1005 1005 1006 1010 1013 1016 1016 1016 1015 1014 1013 1012 1010 1009 1008 1006 1004 1001 999 999 998 995 993 992 991 988 986 984 982 981 980 978 975 973 970 968 964 961 960 953 950 949 947 946 946 945 944 941 939 939 939 937 934 930 928 926 924 920 919 918 915 915 915 915 915 915 915 917 920 924 925 926 926 926 926 924 924 924 921 919 919 918 918 918 918 913 911 911 911 911 0 0 0 0 0 0 0 0 0 0 0 0 0 0 0 887 887 884 879 876 870 867 867 865 865 865 865 866 866 866 867 867 867 867 867 867 867 866 865 863 862 861 861 861 863 864 866 866 866 864 861 856 855 855 854 854 854 853 852 0 0 0 0 0 0 0 0 0 0 0 0 0 0 0 0 0 0 0 0 0 0 0 0 0 0 0 831 831 831 830 831 830 830 830 830 830 830 833 864 881 0 0 0 0 0 1306 1324 1332 1339 1344 1346 1349 1351 1352 1355 1359 1362 1364 1366 1367 1367 1367 1367 1367 1367 1369 1371 1371 1371 1372 1372 1373 1373 1373 1373 1373 1371 1370 1369 1369 1369 1369 1369 1370 1371 1373 1374 1375 1378 1378 1378 1377 1376 1373 1373 1373 1375 1375 1375 1375 1374 1370 1370 1370 1370 1370 1370 1369 1367 1366 1364 1362 1359 1357 1354 1350 1349 1348 1345 1342 1342 1341 1341 1342 1342 1341 1341 1337 1328 1309 1301 1297 1292 1288 1282 1274 1266 1256 1245 1234 1221 1211 1202 1197 1181 1160 1143 1139 1129 1129 1128 1124 1124 1116 1087 1045 1015 984 961 948 923 921 0
527 527 532 543 544 555 572 592 609 629 649 671 693 721 753 778 782 803 823 840 860 880 905 934 953 973 992 1010 1023 1036 1045 1049 1064 1083 1108 1134 1163 1188 1212 1231 1251 1261 1269 1284 1299 1315 1330 1334 1349 1361 1375 1389 1407 1420 1431 1443 1460 1476 1488 1498 1506 1515 1523 1533 1542 1548 1552 1559 1562 1563 1565 1568 1569 1570 1570 1571 1572 0 0 0 0 0 0 1784 1803 1822 1829 1835 1840 1843 1844 1845 1845 1845 1832 1818 1802 1788 1788 1788 1796 1811 1836 1858 1887 1909 1924 1933 1941 1954 1970 1988 2002 2016 2042 2081 2133 0 0 0 0 0 0 2518 2611 2681 2683 2705 2719 2728 2737 2745 2755 2761 2764 2767 2771 2778 2783 2783 2783 2776 2776 2776 2776 2776 2776 2776 2771 2764 2760 2756 2750 2725 2693 2667 2667 2667 2708 2718 2726 2727 2782 2919 3044 3141 3190 3190 3190 3185 3174 3167 3167 3165 3151 3112 3077 3061 3033 2983 2965 2947 2939 2926 2904 2878 2857 2849 2841 2824 2804 2789 2768 2746 2725 2698 2680 2660 2639 2609 2579 2563 2546 2523 2498 2484 2477 2468 2457 2443 2429 2418 2404 2389 2361 0 0 0 0 0 1810 1793 1793 1793 1796 1800 1802 1808 1809 1809 1809 1808 1801 1795 1777 0 0 0 0 0 1212 1191 1186 1185 1181 1179 1177 1174 1171 1170 1168 1168 1164 1159 1146 1132 1119 1105 1098 1092 1089 1086 1082 1082 1082 1082 1082 1082 1081 1081 1081 1081 1088 1095 1095 1097 1103 1105 1108 1108 1108 1108 1107 1106 1104 1102 1100 1097 1096 1093 1090 1089 1087 1085 1085 1082 1079 1076 1075 1073 1072 1069 1064 1062 1054 1047 1027 1023 1019 1019 1016 1015 1015 1014 1014 1010 1004 1002 1002 1002 1006 1006 1006 1002 1002 1002 1002 1002 1003 1005 1008 1013 1015 1015 1015 1014 1014 1013 1012 1011 1010 1008 1007 1004 1002 1001 1000 999 996 994 992 991 990 988 985 984 983 980 979 977 973 970 968 963 957 953 945 942 942 941 941 941 939 938 936 933 933 932 930 926 924 922 922 920 917 916 915 915 914 914 914 913 913 914 915 918 920 924 926 926 926 926 926 925 925 922 920 919 919 919 918 918 917 0 0 0 0 0 0 0 0 0 0 0 0 0 0 0 0 0 0 0 885 885 883 879 876 867 867 864 864 865 864 865 865 865 865 867 867 867 867 867 867 867 867 865 863 862 861 861 861 861 862 863 864 864 864 861 856 855 855 855 855 854 853 853 0 0 0 0 0 0 0 0 0 0 0 0 0 0 0 0 0 0 0 0 0 0 0 0 0 0 0 832 832 831 831 829 829 829 828 828 828 828 828 864 881 0 0 0 0 0 1303 1317 1325 1333 1340 1346 1349 1350 1351 1352 1357 1361 1362 1366 1367 1368 1368 1368 1368 1368 1368 1370 1371 1371 1372 1372 1373 1373 1373 1373 1373 1371 1370 1368 1368 1368 1368 1368 1369 1371 1373 1374 1375 1378 1378 1378 1377 1376 1374 1374 1374 1375 1375 1375 1374 1373 1368 1367 1367 1367 1367 1367 1366 1365 1365 1364 1362 1359 1358 1355 1353 1352 1351 1347 1344 1344 1344 1343 1344 1344 1342 1341 1337 1328 1317 1301 1297 1292 1289 1281 1272 1262 1256 1243 1234 1221 1211 1201 1195 1180 1157 1143 1139 1132 1131 1129 1128 1128 1116 1087 1065 1034 984 961 946 923 921 0
519 519 525 536 538 552 569 590 605 625 649 671 693 722 753 784 808 812 828 846 864 884 908 934 953 973 994 1010 1023 1036 1045 1049 1064 1083 1108 1134 1163 1190 1215 1236 1254 1267 1277 1289 1303 1318 1333 1337 1353 1368 1382 1394 1414 1425 1433 1443 1460 1475 1488 1495 1503 1511 1521 1532 1541 1547 1551 1555 1556 1561 1565 1568 1569 1570 1570 1571 1571 1571 1571 0 0 0 0 0 0 0 0 1835 1840 1843 1844 1845 1845 1845 1835 1824 1818 1802 1796 1796 1796 1800 1822 1858 1887 1909 1930 1939 1950 1963 1978 1995 2011 2033 2068 2103 2133 0 0 0 0 0 0 0 0 2562 2567 2662 2699 2722 2736 2742 2748 2749 2751 2757 2766 2778 2781 2781 2781 2776 2776 2776 2777 2777 2777 2776 2771 2760 2749 2744 2734 2710 2689 2689 2689 2714 2766 2771 2778 2781 2837 2944 3117 3243 3243 3243 3233 3212 3199 3192 3177 3165 3162 3143 3107 3082 3047 2994 2971 2951 2943 2933 2907 2880 2859 2852 2846 2836 2814 2799 2779 2759 2742 2709 2689 2672 2656 2632 2595 2575 2560 2539 2514 2497 2486 2475 2458 2443 2426 2410 2392 2369 0 0 0 0 0 0 1789 1789 1789 1792 1795 1800 1803 1808 1809 1809 1809 1809 1799 1788 0 0 0 0 0 1243 1205 1188 1184 1181 1180 1178 1175 1172 1170 1167 1163 1160 1159 1154 1139 1125 1108 1102 1096 1092 1088 1084 1078 1075 1075 1075 1077 1077 1077 1077 1077 1078 1088 1093 1094 1097 1103 1105 1107 1108 1108 1107 1107 1106 1104 1102 1100 1099 1096 1095 1093 1090 1088 1088 1086 1083 1081 1078 1075 1073 1072 1069 1063 1058 1054 1043 1026 1023 1019 1018 1013 1010 1010 1008 1008 1005 1002 1000 1000 1000 1002 1002 1002 1000 1000 1000 1001 1001 1001 1004 1008 1012 1013 1014 1014 1014 1014 1013 1012 1011 1010 1008 1007 1005 1003 1001 1001 999 997 995 994 993 991 989 987 986 984 982 979 977 973 969 966 963 954 948 941 939 938 938 936 936 933 932 931 930 927 924 921 919 917 917 917 916 915 913 913 912 911 910 910 911 911 911 914 917 920 923 926 926 926 925 924 924 924 922 920 919 919 919 918 918 918 0 0 0 0 0 0 0 0 0 0 0 0 0 0 0 0 0 0 0 885 885 883 879 876 867 863 863 863 864 864 864 864 864 864 864 864 864 865 866 867 867 867 865 863 862 861 861 861 860 860 860 860 860 860 858 856 855 855 855 855 853 852 0 0 0 0 0 0 0 0 0 0 0 0 0 0 0 0 0 0 0 0 0 0 0 0 0 0 0 0 830 831 830 829 829 827 827 827 826 827 828 828 864 0 0 0 0 0 1269 1303 1317 1325 1333 1339 1344 1345 1346 1348 1351 1354 1358 1361 1366 1367 1368 1369 1369 1369 1369 1369 1370 1371 1371 1372 1372 1372 1372 1371 1370 1370 1368 1368 1368 1368 1368 1368 1368 1369 1371 1374 1375 1377 1378 1378 1378 1378 1376 1376 1375 1375 1375 1375 1375 1374 1372 1367 1367 1367 1367 1367 1367 1367 1366 1366 1366 1364 1361 1358 1356 1354 1354 1352 1350 1346 1346 1345 1344 1344 1342 1339 1338 1337 1331 1323 1303 1297 1292 1289 1281 1267 1257 1251 1245 1234 1222 1211 1200 1195 1177 1155 1140 1137 1132 1131 1131 1128 1128 1104 1086 1065 1042 1009 967 945 920 919 0
519 519 521 533 535 552 568 587 604 624 649 671 0 729 762 784 811 816 834 846 865 889 913 937 963 983 999 1011 1023 1037 1054 1059 1082 1102 1121 1144 1171 1195 1218 1237 1256 1271 1283 1296 1309 1321 1335 1340 1358 1377 1395 1415 1425 1433 1442 1451 1463 1475 1488 1494 1501 1511 1521 1531 1541 1546 1550 1551 1554 1561 1565 1569 1572 1572 1572 1572 1571 1571 1571 1579 1591 0 0 0 0 0 0 0 1829 1843 1844 1845 1845 1845 1835 1832 1831 1825 1808 1797 1797 1797 1816 1845 1887 1909 1930 1944 1960 1975 1991 2008 2027 2056 2082 2103 2133 0 0 0 0 0 0 0 0 0 0 0 2585 2669 2724 2734 2738 2739 2744 2753 2766 2777 2778 2778 2778 2776 2776 2776 2777 2777 2777 2776 2766 2752 2744 2733 2717 2700 2700 2700 2721 2780 2828 2836 2844 2858 2941 3049 3201 3287 3287 3287 3287 3267 3240 3220 3194 3173 3169 3153 3120 3094 3053 3003 2983 2959 2950 2936 2915 2880 2863 2858 2852 2841 2826 2813 2796 2770 2747 2719 2697 2679 2665 2647 2623 2591 2572 2553 2529 2510 2496 2479 2461 2443 2426 2405 2380 0 0 0 0 0 0 0 1784 1784 1784 1787 1793 1800 1803 1808 1809 1809 1809 1809 1799 1783 0 0 0 0 0 1231 1199 1188 1183 1179 1177 1175 1173 1171 1169 1165 1162 1159 1158 1151 1127 1110 1104 1101 1096 1092 1087 1083 1077 1071 1071 1071 1073 1073 1074 1074 1074 1078 1085 1093 1094 1098 1102 1105 1107 1108 1108 1107 1107 1106 1104 1102 1100 1099 1097 1095 1093 1091 1089 1088 1086 1084 1081 1078 1076 1073 1072 1069 1062 1056 1054 1037 1024 1022 1019 1018 1013 1008 1005 1005 1003 1003 999 997 997 997 997 997 997 997 997 999 999 999 1001 1003 1008 1012 1013 1014 1014 1014 1014 1013 1012 1011 1010 1008 1007 1005 1003 1001 1001 999 998 996 994 993 991 990 988 986 984 982 979 977 973 968 965 962 952 944 939 935 934 934 933 932 930 929 927 926 923 920 917 915 915 915 915 915 913 911 909 908 907 907 907 908 908 910 914 916 918 921 923 923 924 924 924 924 921 920 920 919 919 919 918 918 918 0 0 0 0 0 0 0 0 0 0 0 0 0 0 0 0 0 0 0 884 884 879 879 876 866 863 863 863 863 863 863 863 863 863 864 864 864 865 865 867 867 867 865 864 862 861 861 861 860 860 860 860 859 859 858 856 855 855 854 854 853 853 0 0 0 0 0 0 0 0 0 0 0 0 0 0 0 0 0 0 0 0 0 0 0 0 0 0 0 0 828 830 828 828 827 826 826 826 825 825 826 827 864 0 0 0 0 0 1269 1303 1317 1325 1333 1339 1343 1345 1346 1348 1351 1354 1358 1360 1364 1367 1368 1369 1369 1369 1369 1369 1369 1371 1371 1373 1373 1373 1371 1369 1366 1366 1366 1368 1368 1368 1368 1368 1368 1369 1372 1376 1378 1378 1379 1379 1379 1379 1377 1377 1377 1377 1377 1377 1375 1374 1370 1367 1367 1367 1367 1367 1367 1367 1368 1368 1368 1365 1361 1359 1357 1355 1354 1352 1350 1346 1346 1345 1344 1344 1341 1337 1336 1335 1331 1329 1319 1314 1301 1292 1281 1267 1257 1251 1245 1235 1226 1211 1199 1186 1169 1154 1140 1137 1132 1131 1131 1126 1106 1083 1077 1065 1042 1009 973 945 920 919 0
519 519 521 533 535 552 568 583 599 621 649 0 0 736 762 784 811 816 834 846 867 891 918 945 974 993 1005 1014 1026 1043 1065 1069 1094 1112 1130 1153 1177 1200 1220 1240 1258 1273 1290 1303 1316 1327 1340 1345 1362 1382 1402 1420 1431 1439 1448 1455 1466 1475 1484 1493 1501 1511 1521 1530 1537 1541 1546 1550 1554 1560 1567 1572 1577 1582 1582 1582 1580 1579 1579 1579 1590 1594 1595 1598 1616 0 0 0 0 0 0 0 1837 1837 1835 1832 1831 1825 1808 1795 1795 1795 1812 1835 1869 1909 1930 1948 1967 1989 2010 2029 2050 2069 2082 2103 2103 2103 2074 2038 2002 1980 1980 0 0 0 0 0 2389 2516 2661 2718 2724 2731 2737 2749 2765 2773 2775 2777 2781 2781 2782 2782 2782 2782 2779 2772 2761 2748 2738 2724 2708 2708 2708 2721 2789 2872 2872 2873 2891 2915 3033 3154 3252 3289 3302 3306 3306 3306 3282 3241 3218 3197 3178 3155 3125 3101 3078 3052 3028 3003 2988 2974 2951 2920 2881 2869 2858 2848 2828 2816 2802 2779 2760 2732 2704 2685 2668 2648 2624 2602 2582 2563 2542 2520 2499 2480 2463 2444 2425 2404 2378 0 0 0 0 0 0 1785 1784 1784 1784 1787 1787 1794 1803 1806 1807 1808 1808 1808 1794 1774 0 0 0 0 0 1218 1191 1185 1182 1177 1174 1173 1170 1168 1166 1165 1160 1156 1153 1143 1119 1105 1099 1098 1094 1092 1087 1082 1077 1071 1069 1069 1069 1072 1073 1073 1074 1078 1085 1093 1095 1100 1102 1105 1107 1107 1107 1107 1107 1105 1104 1102 1100 1099 1097 1095 1093 1091 1090 1088 1086 1084 1081 1078 1076 1073 1072 1069 1061 1053 1050 1037 1022 1022 1019 1017 1013 1007 1005 1003 1002 1000 997 995 994 994 994 993 993 993 994 996 999 999 1001 1003 1005 1008 1010 1012 1013 1013 1013 1013 1012 1011 1009 1008 1007 1005 1003 1002 1001 999 998 996 994 993 991 990 988 986 984 982 979 976 972 968 963 956 949 941 935 932 931 931 930 930 928 926 924 923 919 916 913 913 913 913 913 912 912 910 908 906 904 904 904 906 906 910 914 917 918 921 923 923 924 924 924 924 0 0 0 0 0 919 918 918 918 0 0 0 0 0 0 0 0 0 0 0 0 0 0 0 0 0 0 0 885 885 881 874 869 866 863 863 863 863 863 863 863 863 863 863 863 863 864 865 866 866 866 865 864 863 862 861 861 861 860 860 859 859 859 858 856 855 855 854 854 853 853 0 0 0 0 0 0 0 0 0 0 0 0 0 0 0 0 0 0 0 0 0 0 0 0 0 0 0 0 828 828 828 827 826 825 826 826 825 825 826 827 0 0 0 0 0 0 1271 1309 1325 1330 1337 1339 1343 1345 1346 1348 1351 1354 1358 1360 1361 1362 1363 1367 1368 1368 1369 1369 1369 1371 1371 1372 1372 1372 1370 1366 1365 1365 1365 1368 1368 1368 1368 1368 1368 1370 1373 1376 1378 1379 1379 1379 1379 1379 1377 1377 1377 1377 1377 1377 1376 1374 1370 1368 1368 1368 1368 1368 1368 1368 1368 1368 1368 1365 1362 1360 1358 1355 1354 1354 1351 1346 1346 1346 1345 1344 1339 1336 1333 1333 1333 1332 1331 1328 1309 1295 1282 1267 1257 1251 1245 1238 1230 1211 1190 1167 1154 1144 1140 1137 1131 1126 1120 1094 1071 1069 1069 1065 1042 1009 976 948 923 922 0
521 524 524 533 535 552 566 577 592 620 0 0 0 736 762 783 811 816 834 847 869 897 923 950 977 998 1012 1021 1031 1047 1071 1074 1098 1117 1139 1159 1182 1201 1220 1240 1259 1276 1292 1308 1319 1333 1345 1350 1365 1383 1402 1420 1435 1446 1455 1464 1467 1476 1483 1493 1501 1512 1520 1525 1532 1538 1541 1548 1554 1560 1567 1574 1580 1587 1590 1590 1590 1584 1584 1584 1590 1594 1595 1598 1610 1619 0 0 0 0 0 0 0 0 1823 1825 1825 1825 1808 1795 1795 1795 1805 1825 1858 1898 1928 1955 1983 2011 2030 2051 2068 2069 2082 2082 2082 2063 2051 2038 2002 1980 1977 1973 0 0 0 0 0 0 0 2621 2685 2708 2727 2742 2758 2762 2763 2770 2777 2784 2788 2788 2788 2783 2779 2772 2761 2748 2738 2724 2708 2708 2708 2772 2892 2916 2920 2928 2944 3027 3147 3245 3325 3337 3337 3337 3323 3319 3302 3276 3255 3226 3199 3182 3160 3126 3094 3079 3055 3027 3006 2981 2968 2937 2894 2872 2859 2849 2833 2819 2802 2779 2760 2744 2727 2700 2672 2650 2626 2603 2584 2570 2554 2534 2509 2484 2464 2444 2425 2404 0 0 0 0 0 0 1794 1785 1784 1784 1784 1787 1787 1794 1802 1805 1806 1806 1806 1804 1788 1760 0 0 0 0 0 1210 1188 1183 1178 1174 1173 1170 1169 1167 1165 1162 1157 1148 1137 1131 1116 1100 1096 1094 1091 1087 1083 1080 1077 1073 1069 1069 1069 1070 1071 1072 1073 1078 1085 1093 1095 1100 1102 1104 1105 1106 1106 1106 1106 1105 1104 1102 1100 1099 1097 1095 1093 1091 1090 1088 1086 1084 1080 1078 1076 1073 1070 1066 1060 1052 1044 1027 1022 1022 1018 1015 1011 1007 1005 1003 1001 998 996 994 994 992 991 989 989 989 990 993 994 995 999 1003 1005 1008 1010 1011 1012 1012 1012 1012 1012 1011 1009 1008 1006 1005 1003 1002 1000 999 998 996 994 992 991 990 988 986 984 981 979 976 971 967 961 955 949 940 933 930 929 928 927 925 923 922 921 919 916 912 912 912 911 911 911 909 908 906 905 902 902 902 902 904 905 909 911 917 918 921 923 923 924 924 924 924 0 0 0 0 0 918 918 918 918 0 0 0 0 0 0 0 0 0 0 0 0 0 0 0 0 0 0 0 884 884 881 874 869 865 863 863 863 863 863 863 862 862 862 862 863 863 864 864 865 865 865 865 864 863 862 861 861 861 861 860 859 859 859 858 857 855 855 853 853 853 853 0 0 0 0 0 0 0 0 0 0 0 0 0 0 0 0 0 0 0 0 0 0 0 0 0 0 0 0 826 826 826 826 826 825 825 825 823 823 823 827 0 0 0 0 0 0 1305 1322 1333 1339 1341 1341 1343 1349 1352 1354 1354 1356 1360 1360 1361 1361 1361 1363 1365 1365 1366 1367 1369 1370 1371 1372 1372 1372 1369 1366 1365 1365 1365 1368 1368 1368 1369 1369 1370 1371 1373 1376 1378 1379 1379 1379 1379 1379 1377 1377 1377 1377 1377 1377 1377 1374 1370 1368 1368 1368 1368 1368 1368 1368 1368 1368 1368 1365 1362 1361 1360 1357 1354 1354 1351 1347 1346 1346 1342 1340 1337 1334 1331 1331 1331 1331 1331 1331 1317 1298 1284 1274 1262 1251 1248 1240 1230 1211 1190 1167 1154 1144 1135 1131 1120 1110 1095 1078 1069 1069 1065 1059 1033 1000 976 953 931 930 0
527 527 531 538 540 553 566 577 589 616 0 0 0 736 761 781 809 812 830 848 870 900 928 951 977 999 1014 1025 1035 1051 1073 1076 1101 1121 1140 1163 1182 1201 1220 1243 1264 1282 1295 1309 1324 1337 1350 1355 1369 1384 1403 1420 1435 1446 1458 1464 1469 1476 1483 1493 1503 1512 1519 1523 1529 1536 1541 1547 1553 1561 1568 1574 1581 1590 1595 1595 1595 1592 1590 1590 1590 1594 1595 1598 1610 1619 1630 1644 1655 1672 1674 1701 1719 0 0 1770 1795 1795 1795 1794 1794 1794 1798 1819 1843 1886 1924 1962 1998 2028 2046 2053 2068 2068 2068 2066 2051 2048 2047 2033 2027 2011 1993 1980 1966 1956 1952 1952 0 0 0 0 0 2567 2663 2725 2742 2747 2749 2761 2776 2790 2790 2790 2788 2783 2779 2772 2761 2748 2738 2724 2708 2708 2708 2814 2915 2934 2936 2947 3026 3131 3272 3382 3398 3398 3398 3387 3358 3333 3318 3296 3284 3268 3243 3222 3196 3157 3118 3085 3075 3044 3006 2986 2970 2943 2907 2884 2862 2849 2833 2819 2806 2786 2761 2746 2732 2714 2682 2658 2629 2607 2587 2571 2554 2534 2509 2486 2465 2444 2425 2402 0 0 0 0 0 1805 1792 1786 1786 1786 1787 1787 1788 1793 1800 1800 1804 1804 1804 1799 1781 1745 0 0 0 0 1235 1203 1185 1178 1176 1173 1171 1169 1166 1166 1163 1159 1153 1142 1133 1113 1101 1097 1094 1091 1088 1085 1081 1080 1077 1073 1072 1070 1070 1070 1071 1072 1073 1076 1085 1093 1095 1100 1102 1103 1105 1105 1105 1105 1105 1104 1103 1101 1099 1098 1096 1095 1093 1091 1090 1087 1086 1082 1080 1078 1076 1072 1068 1063 1056 1049 1035 1022 1021 1017 1014 1010 1009 1006 1004 1002 1000 997 996 994 994 991 989 986 986 986 988 988 990 993 997 1002 1005 1008 1010 1011 1012 1012 1012 1012 1011 1010 1009 1007 1006 1005 1003 1001 1000 999 997 995 994 992 991 989 987 985 983 981 978 975 971 966 960 954 944 936 931 927 927 925 923 920 918 918 917 916 913 912 911 910 910 910 909 907 905 903 902 901 900 900 900 902 903 908 911 916 921 923 924 924 924 924 924 924 921 919 919 919 918 918 918 918 0 0 0 0 0 0 0 0 0 0 0 0 0 0 0 0 0 0 0 0 884 884 881 874 868 865 863 863 862 862 862 861 860 860 860 861 862 863 863 864 864 864 864 864 864 863 862 861 861 860 860 859 859 859 858 858 857 855 854 854 854 853 853 0 0 0 0 0 0 0 0 0 0 0 0 0 0 0 0 0 0 0 0 0 0 0 0 0 0 0 0 825 825 825 825 825 827 827 827 826 826 826 834 0 0 0 0 0 0 1307 1322 1333 1339 1344 1345 1348 1354 1356 1358 1359 1360 1360 1360 1361 1361 1361 1360 1360 1360 1360 1363 1365 1367 1370 1371 1371 1371 1368 1366 1366 1366 1366 1367 1367 1368 1369 1369 1370 1371 1373 1373 1375 1378 1379 1379 1379 1379 1377 1377 1377 1377 1377 1377 1377 1374 1370 1369 1368 1368 1368 1368 1367 1367 1367 1365 1365 1365 1363 1362 1360 1359 1357 1355 1351 1347 1346 1346 1340 1338 1336 1332 1328 1328 1328 1331 1331 1331 1324 1308 1292 1279 1266 1258 1248 1240 1230 1205 1190 1167 1154 1144 1135 1131 1120 1110 1095 1078 1069 1069 1065 1041 1009 987 976 974 957 956 0
529 529 538 549 551 563 566 577 589 607 0 0 0 732 754 777 801 805 830 848 870 900 928 954 978 1000 1018 1030 1043 1060 1079 1081 1105 1124 1143 1164 1183 1201 1221 1243 1268 1287 1297 1311 1326 1342 1356 1361 1372 1388 1403 1420 1435 1446 1458 1464 1469 1476 1483 1493 1504 1512 1518 1523 1529 1536 1541 1547 1553 1561 1568 1574 1583 1591 1596 1598 1598 1599 1599 1599 1600 1603 1605 1607 1610 1619 1630 1644 1655 1667 1672 1682 1693 1705 1717 1731 1741 1750 1763 1772 1780 1784 1793 1810 1835 1866 1923 1962 1998 2028 2046 2053 2056 2056 2056 2038 2038 2033 2033 2033 2027 2011 1997 1980 1966 1935 1916 1916 0 0 0 0 0 0 0 2596 2657 2695 2725 2750 2776 2793 2793 2793 2788 2783 2780 2772 2759 2745 2736 2728 2728 2728 2819 2902 2941 2975 2978 3028 3107 3238 3386 3447 3448 3448 3447 3441 3412 3375 3331 3307 3293 3283 3273 3257 3227 3189 3152 3113 3096 3070 3033 2996 2976 2958 2939 2915 2884 2861 2843 2823 2806 2786 2761 2747 2733 2720 2700 2667 2640 2613 2591 2571 2554 2534 2509 2486 2465 2441 2415 0 0 0 0 0 0 1800 1791 1788 1788 1788 1788 1790 1793 1794 1798 1798 1798 1798 1798 1793 1764 0 0 0 0 0 1223 1196 1177 1176 1175 1173 1171 1168 1166 1164 1162 1157 1147 1137 1131 1112 1096 1091 1089 1087 1085 1083 1081 1079 1077 1073 1072 1070 1070 1070 1071 1072 1073 1076 1085 1090 1095 1099 1101 1103 1104 1104 1104 1104 1104 1103 1102 1100 1099 1097 1095 1095 1092 1091 1088 1087 1084 1082 1080 1078 1076 1071 1067 1063 1055 1048 1034 1020 1017 1014 1009 1007 1006 1004 1004 1001 999 996 995 994 993 991 988 985 985 985 986 988 988 992 997 1001 1005 1009 1011 1011 1012 1012 1012 1012 1011 1010 1009 1007 1006 1004 1003 1001 999 998 996 995 993 992 990 989 986 985 983 980 977 974 970 965 959 948 940 930 927 925 924 922 920 917 915 914 914 913 912 911 909 908 908 907 906 906 904 902 901 900 898 898 898 898 903 908 911 916 921 923 925 926 926 926 925 924 922 919 919 919 918 0 0 0 0 0 0 0 0 0 0 0 0 0 0 0 0 0 0 0 0 0 0 0 884 884 881 873 868 864 864 864 863 863 862 861 860 860 860 861 862 862 862 863 863 864 864 864 863 863 862 861 860 860 859 859 858 858 858 858 858 856 851 851 851 853 853 0 0 0 0 0 0 0 0 0 0 0 0 0 0 0 0 0 0 0 0 0 0 0 0 0 0 0 0 825 825 825 825 825 826 826 826 826 826 826 850 881 0 0 0 0 0 1307 1322 1333 1339 1344 1345 1348 1354 1356 1358 1359 1360 1360 1360 1360 1360 1360 1359 1359 1359 1360 1361 1363 1365 1367 1369 1369 1369 1366 1365 1365 1365 1366 1367 1367 1367 1368 1368 1370 1371 1373 1373 1375 1376 1378 1378 1378 1378 1374 1374 1374 1376 1377 1377 1377 1374 1370 1369 1369 1368 1368 1368 1367 1365 1365 1365 1365 1364 1363 1362 1360 1359 1357 1356 1354 1352 1349 1345 1340 1336 1333 1329 1326 1326 1326 1328 1328 1328 1324 1316 1301 1284 1269 1258 1248 1240 1227 1205 1192 1173 1159 1145 1135 1131 1120 1108 1095 1078 1071 1069 1065 1035 1008 982 976 974 957 956 0
530 530 538 549 564 577 579 581 589 607 627 0 0 719 746 770 799 802 830 848 870 900 928 954 979 1003 1020 1036 1050 1068 1085 1089 1111 1129 1149 1167 1184 1201 1221 1243 1268 1289 1301 1314 1331 1347 1362 1366 1380 1391 1403 1420 1431 1446 1458 1464 1471 1476 1485 1494 1504 1512 1518 1523 1529 1536 1541 1547 1553 1562 1569 1576 1583 1591 1599 1604 1605 1605 1608 1609 1610 1611 1614 1617 1621 1631 1636 1644 1655 1667 1672 1680 1685 1695 1701 1710 1719 1728 1739 1747 1757 1769 1781 1801 1823 1853 1898 1962 1998 2028 2039 2039 2039 2028 2005 2005 2005 2018 2027 2027 2027 2011 1997 1980 1953 1920 1898 1897 0 0 0 0 0 0 0 0 0 0 2599 2722 2779 2793 2793 2793 2786 2782 2780 2772 2759 2745 2736 2736 2736 2782 2883 2961 2992 3017 3048 3105 3228 3367 3451 3493 3493 3493 3492 3456 3431 3393 3340 3314 3298 3289 3276 3263 3246 3227 3182 3138 3111 3080 3052 3029 3011 2993 2961 2933 2903 2876 2859 2841 2821 2786 2761 2750 2738 2723 2702 2676 2640 2613 2591 2571 2549 2527 2507 2486 2465 2436 2404 0 0 0 0 0 0 1794 1790 1790 1790 1791 1792 1793 1793 1795 1796 1796 1797 1796 1796 1785 1756 0 0 0 0 0 1218 1188 1177 1175 1174 1173 1171 1168 1166 1164 1161 1154 1146 1136 1127 1109 1087 1084 1083 1082 1082 1082 1080 1078 1076 1073 1072 1071 1071 1071 1073 1073 1073 1076 1083 1087 1092 1097 1100 1103 1103 1103 1103 1103 1103 1102 1101 1100 1098 1097 1095 1093 1092 1089 1087 1085 1083 1082 1079 1078 1076 1071 1065 1061 1051 1047 1032 1017 1014 1009 1006 1003 1003 1002 1001 1000 997 995 995 994 993 990 988 984 984 984 986 987 987 992 997 1002 1005 1009 1011 1011 1012 1012 1012 1011 1011 1009 1008 1007 1005 1004 1002 1000 999 997 995 994 992 991 990 988 986 983 981 979 977 974 969 962 955 944 935 930 927 925 924 921 919 917 914 913 911 911 910 909 908 906 906 905 904 904 902 901 900 899 898 898 898 898 903 910 911 917 924 925 926 926 926 926 926 924 922 919 919 0 0 0 0 0 0 0 0 0 0 0 0 0 0 0 0 0 0 0 0 0 0 0 0 0 884 884 881 877 869 864 864 864 863 863 862 861 860 860 860 861 862 862 862 862 863 863 863 863 863 863 862 860 860 860 859 859 858 858 858 858 858 856 851 851 851 853 853 0 0 0 0 0 0 0 0 0 0 0 0 0 0 0 0 0 0 0 0 0 0 0 0 0 0 0 0 0 825 825 824 824 824 826 826 826 826 826 850 881 0 0 0 0 1275 1307 1320 1332 1338 1344 1345 1348 1354 1356 1358 1359 1360 1360 1360 1360 1359 1359 1359 1359 1359 1360 1360 1361 1363 1364 1366 1366 1366 1364 1364 1364 1365 1366 1366 1366 1367 1367 1368 1369 1371 1373 1373 1375 1376 1376 1376 1375 1374 1374 1374 1374 1376 1376 1376 1376 1374 1370 1369 1369 1368 1368 1368 1367 1365 1365 1365 1364 1364 1363 1362 1360 1359 1357 1356 1354 1352 1349 1343 1338 1334 1331 1327 1323 1323 1323 1323 1324 1324 1324 1316 1305 1290 1274 1258 1247 1234 1226 1205 1195 1180 1168 1157 1143 1138 1124 1108 1094 1076 1071 1069 1061 1033 1003 982 974 974 957 956 0
531 531 548 564 564 578 582 589 597 607 627 649 676 0 735 766 796 801 829 848 869 900 927 954 982 1004 1025 1042 1057 1074 1093 1096 1113 1135 1151 1169 1185 1201 1221 1242 1268 1289 1305 1320 1338 1355 1369 1372 1385 1397 1408 1420 1431 1443 1454 1464 1471 1477 1487 1498 1505 1513 1518 1525 1533 1540 1544 1551 1557 1565 1573 1582 1589 1596 1602 1608 1611 1616 1618 1620 1622 1625 1627 1631 1639 1645 1649 1651 1657 1667 1672 1680 1685 1691 1696 1700 1708 1717 1725 1730 1735 1741 1756 1785 1813 1845 1882 0 0 0 0 0 0 0 1964 1964 1981 1996 2007 2007 2007 2003 1997 1968 1934 1903 1886 1886 0 0 0 0 0 0 0 0 0 0 2584 2722 2779 2787 2787 2787 2783 2780 2780 2772 2759 2744 2733 2733 2733 2785 2889 2974 3011 3047 3100 3206 3347 3454 3523 3531 3531 3531 3501 3467 3440 3416 3382 3345 3328 3301 3287 3275 3266 3258 3222 3178 3143 3106 3068 3052 3037 3006 2965 2935 2910 2887 2871 2856 2829 2802 2771 2756 2741 2724 2704 2676 2643 2613 2592 2567 2544 2522 2500 2478 2452 2426 0 0 0 0 0 0 1795 1792 1790 1790 1790 1793 1794 1795 1795 1796 1796 1795 1795 1795 1794 1775 0 0 0 0 0 0 1202 1182 1176 1174 1171 1169 1168 1167 1165 1163 1158 1153 1146 1133 1118 1103 1087 1084 1082 1081 1081 1077 1076 1075 1073 1072 1072 1072 1072 1072 1073 1073 1073 1076 1080 1086 1092 1097 1100 1102 1102 1102 1102 1102 1101 1101 1100 1098 1097 1095 1094 1093 1090 1089 1087 1085 1082 1080 1079 1078 1073 1069 1065 1060 1050 1046 1030 1017 1011 1009 1006 1001 1000 999 999 999 997 995 994 994 992 989 985 983 983 983 985 987 987 992 997 1002 1006 1009 1011 1011 1011 1011 1011 1010 1009 1009 1008 1006 1005 1003 1001 999 999 997 995 993 992 990 988 987 984 983 981 978 977 973 967 959 953 943 935 930 927 925 924 921 919 916 914 912 909 908 908 907 906 904 904 903 903 902 901 901 899 897 897 897 898 898 903 911 916 919 924 924 925 926 926 926 926 924 922 919 919 0 0 0 0 0 0 0 0 0 0 0 0 0 0 0 0 0 0 0 0 0 0 0 0 0 882 882 878 877 869 864 864 864 863 863 863 861 861 861 861 861 862 862 862 862 862 862 863 863 863 861 861 860 860 859 859 859 857 857 857 857 857 856 850 850 850 853 0 0 0 0 0 0 0 0 0 0 0 0 0 0 0 0 0 0 0 0 0 0 0 0 0 0 0 0 0 0 0 825 825 825 825 825 824 823 823 823 850 876 0 0 0 0 1275 1302 1318 1328 1336 1340 1346 1348 1352 1354 1356 1359 1359 1359 1357 1357 1357 1357 1358 1358 1359 1359 1360 1361 1361 1362 1363 1363 1363 1362 1362 1362 1364 1366 1366 1366 1367 1367 1368 1369 1371 1373 1373 1375 1376 1376 1376 1375 1374 1374 1374 1374 1375 1375 1375 1375 1374 1370 1368 1368 1368 1368 1368 1367 1366 1365 1365 1364 1363 1362 1361 1360 1359 1358 1356 1354 1352 1349 1343 1337 1334 1329 1325 1322 1322 1322 1321 1321 1321 1320 1316 1305 1290 1274 1258 1245 1231 1225 1213 1202 1191 1182 1174 1169 1156 1132 1108 1094 1076 1071 1069 1054 1033 1003 979 977 977 974 960 0
541 541 558 577 579 595 595 597 602 616 627 649 675 703 0 756 786 798 812 836 862 891 922 954 984 1010 1032 1047 1063 1079 1095 1115 1120 1137 1155 1170 1185 1202 1221 1242 1268 1289 1308 1326 1345 1362 1377 1391 1395 1407 1416 1424 1431 1443 1454 1464 1471 1480 1493 1504 1511 1515 1521 1527 1536 1545 1554 1559 1564 1573 1581 1591 1598 1603 1608 1613 1621 1626 1630 1633 1637 1639 1643 1648 1653 1658 1662 1662 1665 1672 1678 1680 1685 1691 1696 1699 1705 1716 1722 1724 1728 1737 1750 1774 1803 1836 1865 0 0 0 0 0 0 1900 1914 1930 1957 1977 1987 1987 1987 1981 1972 1940 1907 1891 1880 1879 0 0 0 0 0 0 0 0 0 0 2584 2722 2784 2787 2787 2787 2783 2780 2778 2766 2747 2733 2733 2733 2745 2850 2940 3006 3035 3064 3161 3290 3432 3535 3558 3558 3558 3531 3507 3481 3462 3437 3422 3404 3379 3344 3307 3287 3276 3267 3234 3203 3170 3132 3080 3059 3037 3007 2965 2937 2911 2894 2882 2870 2850 2820 2782 2758 2743 2726 2704 2679 2644 2617 2592 2567 2542 2518 2497 2470 2442 0 0 0 0 0 0 1796 1795 1792 1790 1790 1790 1794 1796 1796 1796 1796 1795 1795 1795 1793 1788 1760 0 0 0 0 0 1222 1187 1175 1175 1172 1168 1166 1165 1163 1163 1161 1158 1152 1143 1130 1109 1097 1087 1083 1082 1081 1079 1076 1073 1072 1072 1072 1071 1072 1072 1072 1074 1074 1074 1076 1080 1086 1092 1097 1100 1101 1101 1102 1101 1101 1101 1100 1099 1097 1095 1094 1092 1091 1090 1088 1085 1083 1081 1079 1077 1076 1071 1066 1064 1058 1050 1037 1024 1016 1011 1009 1006 1001 999 999 998 998 996 994 994 992 991 987 983 982 982 982 984 985 986 992 997 1002 1007 1009 1010 1010 1010 1010 1010 1009 1009 1008 1006 1006 1003 1002 1000 999 997 996 994 993 991 990 988 986 984 982 979 977 976 972 964 958 951 942 935 930 927 925 923 921 918 915 912 910 908 907 906 905 904 904 902 902 901 900 899 898 898 897 897 897 898 899 903 911 916 916 924 924 924 925 925 925 925 924 922 920 0 0 0 0 0 0 0 0 0 0 0 0 0 0 0 0 0 0 0 0 0 0 0 0 0 0 879 879 878 874 868 864 864 864 863 863 863 862 862 862 862 862 862 862 862 862 861 861 861 861 861 861 860 859 859 859 858 858 857 856 855 855 853 851 850 850 850 844 0 0 0 0 0 0 0 0 0 0 0 0 0 0 0 0 0 0 0 0 0 0 0 0 0 0 0 0 0 0 0 0 825 825 826 825 824 825 825 825 848 863 0 0 0 0 1275 1302 1318 1328 1336 1340 1345 1348 1352 1353 1354 1355 1355 1355 1355 1355 1355 1357 1357 1358 1358 1359 1359 1360 1360 1360 1360 1360 1359 1359 1359 1361 1363 1366 1366 1366 1367 1367 1368 1369 1372 1374 1376 1377 1377 1377 1377 1375 1374 1374 1374 1375 1375 1375 1374 1374 1374 1370 1368 1368 1368 1368 1368 1367 1366 1366 1366 1365 1363 1361 1360 1358 1358 1357 1356 1354 1350 1345 1341 1337 1334 1328 1324 1321 1318 1318 1317 1317 1317 1316 1315 1305 1290 1274 1256 1242 1230 1222 1221 1216 1206 1197 1184 1179 1163 1134 1110 1094 1074 1065 1054 1039 1010 989 979 977 977 974 960 0
554 554 571 589 601 601 607 613 613 617 627 649 675 697 0 0 772 792 800 826 857 887 920 951 984 1010 1032 1050 1068 1083 1101 1121 1125 1143 1158 1172 1185 1203 1222 1242 1268 1289 1308 1326 1345 1362 1381 1399 1403 1414 1423 1428 1433 1443 1454 1465 1475 1487 1499 1510 1517 1521 1525 1531 1539 1549 1559 1564 1572 1579 1589 1597 1605 1610 1614 1621 1630 1636 1641 1644 1648 1651 1654 1657 1660 1664 1670 1674 1680 1683 1688 1691 1691 1691 1696 1699 1705 1715 1721 1723 1726 1735 1750 1770 1796 1823 1849 0 0 0 1855 1855 1865 1878 1893 1912 1932 1945 1947 1947 1947 1936 1928 1908 1888 1881 1873 1871 0 0 0 0 0 0 0 0 0 0 2584 2737 2784 2787 2787 2787 2783 2780 2778 2766 2744 2728 2728 2728 2829 2913 2982 3042 3069 3117 3202 3377 3523 3596 3601 3601 3601 3580 3566 3535 3498 3481 3469 3441 3405 3370 3327 3307 3298 3276 3241 3209 3173 3141 3110 3063 3042 3013 2975 2937 2916 2898 2889 2880 2869 2833 2794 2762 2743 2727 2706 2680 2647 2617 2593 2567 2542 2515 2491 2461 2435 0 0 0 0 0 0 1794 1793 1792 1792 1792 1793 1797 1797 1797 1797 1796 1796 1795 1795 1793 1787 1750 0 0 0 0 0 1208 1180 1174 1172 1169 1167 1165 1163 1162 1160 1159 1158 1151 1138 1122 1109 1097 1087 1086 1086 1082 1079 1076 1073 1072 1072 1072 1072 1072 1072 1072 1074 1075 1076 1076 1080 1087 1092 1097 1100 1101 1101 1101 1101 1101 1100 1100 1098 1096 1094 1093 1091 1089 1088 1086 1084 1082 1079 1076 1075 1074 1068 1065 1062 1057 1048 1029 1022 1015 1011 1008 1005 1001 999 998 998 997 994 993 992 991 987 984 982 982 982 982 982 983 983 992 997 1003 1007 1009 1009 1010 1010 1010 1009 1009 1009 1007 1006 1005 1002 1001 999 998 996 995 993 991 990 989 987 985 983 981 979 975 971 969 964 957 948 941 935 930 927 925 923 920 917 913 911 908 907 906 905 903 903 902 901 900 899 899 897 896 895 895 895 897 899 899 903 911 916 916 920 921 923 924 924 924 924 924 922 920 0 0 0 0 0 0 0 0 0 0 0 0 0 0 0 0 0 0 0 0 0 0 0 0 0 0 878 878 874 872 868 864 864 864 864 864 864 864 863 862 862 862 862 862 862 861 861 861 861 861 860 859 859 859 858 858 858 856 855 854 852 851 849 849 848 848 848 847 0 0 0 0 0 0 0 0 0 0 0 0 0 0 0 0 0 0 0 0 0 0 0 0 0 0 0 0 0 0 0 0 824 824 824 819 816 816 819 825 840 0 0 0 0 0 1275 1302 1318 1328 1336 1340 1344 1347 1348 1348 1348 1348 1348 1349 1353 1354 1355 1357 1357 1358 1358 1359 1359 1359 1359 1358 1356 1356 1356 1356 1356 1357 1362 1366 1367 1367 1368 1369 1369 1370 1372 1375 1376 1378 1381 1384 1385 1385 1385 1382 1379 1377 1375 1374 1374 1374 1374 1370 1368 1368 1368 1368 1367 1367 1367 1366 1366 1365 1363 1361 1358 1358 1357 1357 1356 1352 1347 1344 1341 1337 1334 1328 1324 1318 1315 1313 1313 1312 1312 1311 1307 1296 1281 1262 1246 1235 1224 1222 1221 1216 1206 1197 1184 1179 1163 1134 1111 1094 1074 1062 1045 1030 1007 989 983 979 978 977 960 0
0 0 595 611 619 620 630 631 635 637 643 653 675 697 0 0 771 791 796 826 855 882 916 951 984 1010 1032 1050 1068 1089 1108 1128 1131 1148 1165 1179 1193 1210 1228 1248 1268 1289 1309 1326 1345 1362 1381 1399 1403 1414 1424 1431 1437 1446 1458 1470 1482 1493 1506 1515 1521 1526 1530 1535 1543 1555 1565 1569 1576 1583 1591 1601 1609 1615 1621 1628 1634 1642 1646 1651 1654 1657 1660 1662 1664 1668 1673 1680 1688 1694 1698 1698 1698 1697 1697 1697 1703 1714 1721 1721 1723 1730 1747 1764 1779 1798 1798 1798 1802 1807 1818 1835 1849 1861 1875 1894 1909 1916 1916 1916 1900 1885 1878 1878 1875 1868 1854 1829 0 0 0 0 0 0 0 0 0 0 2654 2760 2787 2797 2797 2797 2794 2788 2778 2765 2744 2744 2744 2749 2851 2938 2997 3060 3124 3196 3336 3508 3614 3666 3666 3666 3635 3612 3587 3560 3528 3516 3496 3476 3445 3415 3366 3326 3309 3277 3251 3221 3187 3160 3127 3093 3059 3032 2998 2971 2930 2904 2893 2883 2870 2845 2805 2767 2750 2730 2710 2680 2651 2631 2603 2574 2542 2515 2485 2452 0 0 0 0 0 0 1798 1795 1795 1795 1797 1797 1798 1798 1798 1798 1798 1797 1797 1796 1795 1792 1779 0 0 0 0 0 0 1198 1177 1173 1171 1168 1165 1164 1162 1160 1157 1153 1153 1147 1136 1122 1107 1097 1092 1087 1086 1082 1079 1076 1073 1072 1072 1072 1072 1073 1073 1074 1074 1075 1076 1076 1081 1088 1092 1097 1100 1100 1100 1100 1100 1099 1099 1099 1096 1094 1093 1090 1089 1088 1087 1084 1083 1080 1077 1075 1073 1070 1067 1064 1060 1051 1037 1025 1018 1015 1010 1008 1005 1000 998 998 997 995 993 991 989 987 985 984 982 982 982 981 982 982 983 992 997 1003 1007 1009 1009 1009 1009 1009 1009 1008 1008 1006 1005 1004 1002 1001 999 998 996 994 993 991 990 988 986 984 982 980 978 973 970 966 962 957 947 940 935 930 927 925 922 919 917 913 910 907 906 905 904 902 901 900 899 898 897 897 896 895 895 895 895 897 899 899 903 905 908 915 920 921 921 923 924 924 924 923 922 0 0 0 0 0 0 0 0 0 0 0 0 0 0 0 0 0 0 0 0 0 0 0 0 0 0 0 877 877 874 868 868 864 864 864 864 864 864 864 864 863 863 863 863 862 862 861 861 861 861 861 860 859 858 858 858 857 857 855 854 853 851 850 849 848 848 848 847 847 0 0 0 0 0 0 0 0 0 0 0 0 0 0 0 0 0 0 0 0 0 0 0 0 0 0 0 0 0 0 0 0 824 824 824 819 816 816 819 824 837 0 0 0 0 0 1275 1307 1321 1329 1337 1340 1344 1347 1347 1347 1347 1347 1347 1349 1353 1354 1355 1357 1357 1358 1358 1359 1359 1359 1359 1356 1356 1356 1356 1356 1356 1357 1360 1364 1367 1367 1370 1371 1371 1373 1375 1377 1378 1380 1383 1384 1385 1385 1385 1383 1382 1379 1376 1374 1374 1374 1374 1371 1369 1369 1368 1368 1367 1367 1367 1366 1366 1365 1362 1361 1357 1357 1355 1355 1353 1349 1346 1344 1340 1336 1332 1327 1322 1316 1309 1306 1305 1302 1302 1297 1286 1279 1272 1262 1246 1235 1224 1222 1221 1216 1206 1197 1184 1179 1163 1134 1111 1094 1074 1060 1045 1027 1005 992 989 988 979 977 961 0
609 609 623 632 640 642 651 661 662 664 665 672 678 0 0 0 771 792 796 826 855 882 911 946 981 1009 1032 1050 1068 1089 1110 1131 1134 1150 1165 1182 1200 1217 1236 1255 1273 1291 1309 1327 1342 1359 1381 1399 1403 1414 1424 1432 1442 1454 1465 1475 1486 1494 1506 1515 1521 1528 1533 1541 1550 1561 1569 1574 1578 1584 1593 1602 1612 1619 1626 1631 1637 1643 1647 1654 1657 1660 1662 1665 1669 1673 1677 1685 1694 1699 1700 1700 1700 1698 1698 1698 1702 1709 1709 1709 1709 1709 1709 1742 1749 1749 1753 1756 1756 1773 1800 1822 1836 1849 1865 1881 1893 1893 1893 1886 1873 1863 1861 1860 1856 0 0 0 0 0 0 0 0 0 0 0 0 2556 2735 2789 2800 2800 2800 2800 2799 2792 2783 2764 2744 2744 2744 2757 2862 2974 3064 3108 3167 3307 3456 3595 3689 3689 3689 3681 3660 3626 3593 3574 3566 3548 3526 3498 3465 3425 3386 3339 3312 3292 3276 3243 3202 3160 3130 3104 3061 3036 3016 2992 2957 2915 2895 2884 2871 2846 2810 2780 2759 2737 2714 2682 2651 2632 2615 2583 2546 2515 2482 0 0 0 0 0 0 1803 1798 1795 1795 1795 1798 1798 1799 1801 1801 1802 1802 1801 1801 1798 1797 1785 1759 0 0 0 0 0 1196 1188 1177 1173 1168 1166 1165 1163 1162 1159 1155 1153 1150 1143 1133 1121 1102 1097 1092 1088 1086 1081 1078 1075 1073 1072 1072 1072 1072 1074 1075 1075 1077 1077 1078 1079 1084 1088 1093 1097 1099 1099 1099 1099 1098 1098 1098 1097 1095 1093 1091 1090 1088 1087 1084 1083 1081 1078 1075 1073 1071 1068 1065 1063 1057 1045 1026 1019 1016 1013 1010 1008 1005 1000 997 997 995 994 991 989 987 987 985 984 982 981 981 981 981 981 983 994 996 1003 1007 1008 1008 1008 1008 1008 1008 1008 1007 1005 1004 1002 1002 1000 998 997 995 993 992 991 989 987 985 983 981 979 977 973 970 965 962 957 944 939 933 930 925 923 920 917 915 912 909 907 905 904 903 902 900 899 898 897 897 895 895 894 894 894 894 897 898 899 900 905 908 915 920 920 921 921 921 922 922 922 0 0 0 0 0 0 0 0 0 0 0 0 0 0 0 0 0 0 0 0 0 0 0 0 0 0 0 0 876 876 873 868 867 866 866 866 866 866 865 865 865 864 864 864 864 863 862 862 861 861 861 860 859 858 857 857 857 856 855 854 853 853 851 850 849 848 845 845 844 843 0 0 0 0 0 0 0 0 0 0 0 0 0 0 0 0 0 0 0 0 0 0 0 0 0 0 0 0 0 0 0 0 824 824 824 819 817 817 819 824 831 0 0 0 0 0 1276 1310 1323 1331 1337 1340 1343 1345 1345 1345 1346 1346 1347 1349 1353 1354 1356 1359 1359 1359 1360 1360 1359 1359 1359 1356 1356 1356 1356 1356 1356 1357 1360 1362 1365 1367 1370 1373 1373 1374 1376 1378 1380 1381 1383 1384 1385 1385 1385 1383 1382 1380 1377 1374 1374 1374 1374 1373 1371 1369 1369 1368 1367 1367 1367 1366 1365 1364 1362 1360 1357 1355 1354 1353 1350 1346 1342 1340 1339 1336 1332 1327 1318 1309 1301 1297 1294 1290 1287 1279 1270 1270 1268 1262 1246 1235 1222 1215 1206 1203 1198 1189 1173 1168 1149 1127 1111 1094 1072 1060 1044 1026 1005 993 990 990 990 990 983 0
609 609 626 646 668 668 685 686 687 688 0 0 0 0 0 0 771 792 796 828 855 882 909 939 968 992 1014 1037 1063 1089 1110 1131 1134 1150 1165 1182 1203 1223 1242 1261 1278 1296 1311 1327 1342 1359 1376 1388 1394 1410 1424 1434 1447 1460 1469 1479 1487 1497 1506 1515 1521 1528 1537 1547 1557 1567 1573 1577 1582 1588 1597 1605 1615 1623 1630 1633 1638 1643 1649 1654 1659 1662 1666 1671 1674 1678 1685 1689 1694 1699 1700 1700 1700 1698 1696 1696 1695 1695 1683 1672 1672 1672 1688 1707 1713 1720 1726 1742 1753 1773 1788 1810 1825 1840 1854 1866 1874 1874 1874 1861 1852 1846 1845 1839 0 0 0 0 0 0 0 0 0 0 0 0 0 2672 2763 2789 2800 2801 2801 2801 2799 2792 2783 2765 2764 2764 2764 2865 2957 3055 3097 3109 3243 3410 3585 3691 3713 3713 3713 3684 3672 3649 3620 3602 3597 3569 3527 3503 3470 3428 3389 3357 3337 3323 3286 3243 3202 3160 3130 3114 3078 3053 3031 3003 2978 2939 2909 2894 2874 2847 2819 2782 2772 2755 2721 2683 2654 2634 2617 2594 2557 2519 0 0 0 0 0 0 0 1798 1798 1796 1796 1796 1799 1799 1800 1802 1803 1803 1803 1803 1803 1799 1797 1782 1753 0 0 0 0 0 1192 1181 1175 1170 1167 1165 1164 1162 1160 1158 1154 1152 1149 1141 1131 1121 1102 1097 1092 1088 1083 1080 1077 1075 1073 1072 1072 1072 1072 1074 1076 1076 1077 1078 1080 1081 1086 1090 1093 1095 1098 1098 1098 1098 1098 1098 1097 1095 1094 1092 1090 1088 1086 1085 1084 1081 1079 1076 1074 1071 1069 1066 1063 1060 1053 1042 1024 1017 1012 1009 1008 1006 1001 996 994 993 993 991 989 987 987 986 985 983 982 981 981 981 981 981 987 992 996 1002 1006 1007 1007 1007 1007 1007 1007 1006 1006 1005 1004 1002 1001 999 997 996 994 993 991 989 988 986 984 983 980 978 977 973 969 964 961 956 943 937 932 929 925 920 918 916 914 910 908 906 904 904 902 901 899 899 897 896 896 895 895 894 892 892 892 894 894 894 900 905 908 915 920 920 0 0 0 0 0 0 0 0 0 0 0 0 0 0 0 0 0 0 0 0 0 0 0 0 0 0 0 0 0 0 0 0 0 0 883 876 873 868 867 867 867 867 867 867 866 865 865 864 864 864 864 863 863 862 861 861 860 860 859 858 857 857 856 855 854 853 852 851 851 850 849 848 848 848 845 843 0 0 0 0 0 0 0 0 0 0 0 0 0 0 0 0 0 0 0 0 0 0 0 0 0 0 0 0 0 0 0 0 823 823 823 819 818 818 818 825 831 0 0 0 0 0 1285 1313 1325 1331 1338 1339 1339 1341 1343 1344 1344 1345 1347 1350 1353 1354 1357 1360 1360 1360 1361 1360 1360 1360 1359 1357 1357 1357 1357 1357 1357 1357 1360 1362 1365 1367 1370 1373 1373 1374 1376 1378 1380 1381 1383 1383 1383 1383 1383 1383 1382 1380 1377 1376 1376 1375 1374 1373 1371 1370 1369 1368 1367 1367 1367 1366 1365 1363 1362 1360 1356 1353 1351 1349 1347 1343 1337 1334 1333 1329 1326 1320 1311 1304 1297 1289 1286 1282 1279 1272 1268 1267 1267 1262 1254 1240 1222 1205 1194 1191 1187 1178 1162 1157 1139 1121 1108 1094 1072 1060 1044 1027 1005 993 993 993 993 993 990 0
609 609 626 646 668 668 685 704 716 725 0 0 0 0 0 0 0 806 809 829 855 892 909 937 956 977 996 1021 1050 1084 1110 1131 1134 1150 1165 1183 1204 1227 1247 1269 1291 1305 1317 1330 1342 1359 1376 1388 1394 1410 1424 1436 1449 1461 1473 1482 1487 1497 1507 1513 1521 1529 1539 1553 1562 1570 1576 1581 1587 1594 1602 1610 1618 1626 1633 1636 1639 1645 1649 1654 1659 1663 1668 1673 1677 1681 1685 1689 1694 1698 1699 1699 1698 1698 1693 1684 1682 1657 1639 1639 1639 1655 1675 1688 1709 1720 1726 1742 1753 1771 1788 1802 1817 1832 1841 1845 1847 1847 1847 1838 1831 1827 1821 0 0 0 0 0 0 0 0 0 0 0 0 0 0 2688 2763 2789 2800 2801 2801 2801 2799 2792 2783 2764 2764 2764 2826 2959 3051 3074 3106 3180 3354 3543 3678 3721 3727 3727 3727 3700 3682 3669 3647 3625 3609 3571 3532 3504 3472 3440 3390 3369 3345 3323 3286 3248 3209 3162 3142 3117 3090 3055 3037 3014 2996 2965 2933 2910 2887 2849 2819 2785 2775 2766 2740 2685 2654 2636 2619 2594 2558 2519 0 0 0 0 0 0 1799 1798 1798 1798 1798 1799 1800 1801 1802 1803 1803 1803 1803 1803 1803 1799 1797 1780 0 0 0 0 0 1201 1190 1176 1168 1167 1165 1164 1162 1161 1158 1156 1153 1152 1147 1140 1126 1107 1099 1094 1090 1087 1082 1078 1075 1074 1073 1072 1071 1071 1071 1074 1076 1076 1077 1078 1080 1081 1087 1092 1093 1094 1097 1097 1097 1097 1097 1096 1096 1095 1093 1091 1089 1087 1084 1083 1082 1080 1078 1076 1073 1070 1066 1063 1058 1056 1053 1040 1022 1013 1009 1007 1006 1004 998 995 993 993 992 990 988 987 987 985 985 983 982 981 981 981 981 981 987 993 996 1002 1006 1006 1007 1007 1007 1006 1006 1005 1005 1003 1002 1001 999 998 997 996 993 992 990 988 987 985 983 981 979 977 975 971 966 962 957 951 943 937 932 928 924 920 917 914 911 908 907 905 904 902 900 900 899 898 897 895 894 894 894 893 891 891 891 891 893 893 900 909 910 913 920 920 0 0 0 0 0 0 0 0 0 0 0 0 0 0 0 0 0 0 0 0 0 0 0 0 0 0 0 0 0 0 0 0 0 883 883 876 868 867 866 866 867 867 867 867 866 865 865 864 864 864 864 863 863 862 861 861 860 860 859 858 857 857 856 855 854 852 851 851 851 850 850 849 849 848 845 843 0 0 0 0 0 0 0 0 0 0 0 0 0 0 0 0 0 0 0 0 0 0 0 0 0 0 0 0 0 0 0 0 822 824 824 824 818 818 818 825 831 0 0 0 0 0 1296 1317 1327 1335 1338 1339 1339 1341 1343 1344 1344 1346 1347 1351 1354 1356 1362 1362 1362 1361 1361 1361 1361 1361 1359 1359 1358 1358 1358 1357 1357 1357 1360 1362 1365 1367 1371 1373 1373 1374 1376 1378 1380 1381 1381 1381 1382 1382 1382 1382 1381 1380 1377 1377 1376 1376 1374 1373 1371 1370 1369 1368 1367 1367 1367 1366 1363 1362 1360 1358 1355 1350 1346 1345 1343 1339 1335 1328 1324 1322 1320 1315 1309 1302 1295 1288 1284 1280 1276 1272 1268 1267 1266 1262 1254 1243 1224 1200 1186 1182 1181 1172 1154 1149 1133 1121 1107 1087 1065 1060 1044 1027 1005 993 993 993 993 993 990 0
611 611 627 646 668 668 685 704 725 745 0 0 0 0 0 0 0 0 0 0 0 0 909 937 956 975 989 1011 1041 1075 1104 1124 1126 1143 1162 1182 1207 1231 1254 1279 1300 1315 1328 1341 1353 1364 1376 1388 1394 1410 1424 1440 1453 1466 1476 1484 1493 1501 1507 1513 1521 1529 1544 1556 1563 1570 1578 1583 1592 1601 1606 1613 1621 1628 1635 1639 1643 1646 1651 1655 1660 1665 1670 1674 1679 1681 1685 1689 1694 1694 1694 1694 1692 1690 1683 1670 1637 1618 1618 1618 1639 1655 1675 1688 1709 1720 1726 1742 1758 1770 1780 1792 1805 1818 1818 1818 1810 1798 1789 1789 1783 1781 0 0 0 0 0 0 0 0 0 0 0 0 0 0 2538 2707 2763 2781 2794 2798 2798 2798 2794 2790 2776 2764 2764 2764 2855 3003 3054 3094 3146 3280 3484 3641 3678 3721 3727 3727 3727 3725 3699 3683 3664 3645 3615 3572 3540 3509 3485 3448 3408 3383 3345 3323 3286 3259 3211 3170 3151 3126 3094 3059 3040 3028 3012 2981 2944 2914 2897 2866 2837 2808 2789 2771 2740 2694 2663 2641 2619 2594 2558 2519 0 0 0 0 0 1805 1799 1799 1799 1800 1802 1802 1802 1802 1803 1803 1803 1803 1803 1803 1803 1799 1795 1779 0 0 0 0 0 1200 1186 1172 1164 1164 1163 1162 1161 1160 1158 1156 1151 1149 1147 1139 1122 1104 1097 1090 1087 1085 1081 1075 1074 1074 1073 1072 1071 1071 1071 1073 1076 1076 1078 1078 1080 1082 1087 1092 1093 1094 1095 1096 1096 1096 1096 1096 1094 1094 1091 1089 1087 1085 1083 1082 1080 1078 1076 1074 1072 1068 1064 1062 1057 1051 1047 1034 1009 1007 1006 1006 1006 1002 998 995 993 993 991 989 987 986 985 984 983 982 981 980 980 980 981 983 987 993 996 1002 1005 1006 1006 1006 1006 1006 1006 1005 1004 1003 1001 1000 998 997 995 994 993 991 989 988 986 985 983 980 978 976 974 970 966 962 957 951 943 936 931 928 924 920 917 914 911 908 907 905 902 901 900 899 897 897 896 895 894 893 893 891 891 891 891 891 891 891 901 909 913 916 920 920 0 0 0 0 0 0 0 0 0 0 0 0 0 0 0 0 0 0 0 0 0 0 0 0 0 0 0 0 0 0 0 0 0 883 883 870 867 866 865 866 867 867 867 867 867 866 865 864 864 863 863 863 862 861 860 859 859 859 858 857 856 855 855 854 853 852 851 851 851 850 850 849 849 846 846 844 0 0 0 0 0 0 0 0 0 0 0 0 0 0 0 0 0 0 0 0 0 0 0 0 0 0 0 0 0 0 0 0 823 824 824 824 818 818 818 825 834 0 0 0 0 0 1309 1322 1333 1338 1339 1339 1341 1341 1343 1344 1344 1346 1347 1351 1358 1361 1365 1365 1365 1361 1361 1361 1361 1361 1361 1361 1360 1359 1359 1359 1359 1359 1361 1363 1366 1367 1371 1373 1373 1374 1376 1378 1380 1381 1381 1381 1381 1382 1382 1382 1381 1380 1378 1377 1376 1376 1374 1373 1372 1370 1369 1368 1368 1367 1367 1365 1362 1360 1357 1354 1350 1343 1342 1341 1340 1338 1333 1327 1322 1316 1313 1308 1305 1299 1292 1287 1283 1280 1276 1272 1268 1267 1267 1262 1254 1244 1225 1200 1181 1175 1171 1162 1149 1144 1131 1121 1100 1087 1064 1049 1040 1027 1005 993 993 993 993 993 990 0
