0 0 0 0 0 895 905 912 915 927 943 954 963 970 970 970 955 939 931 930 924 906 0 0 0 0 826 847 856 857 904 934 936 937 940 944 947 959 985 0 0 0 1127 1127 1127 0 0 0 0 0 0 0 809 797 787 782 773 765 765 765 768 773 777 781 784 785 786 790 794 794 794 783 0 0 0 551 549 544 542 542 533 519 494 488 488 487 486 486 490 490 504 0 0 583 583 574 549 538 538 538 544 549 555 555 0 0 0 0 0 0 714 714 714 696 684 684 0 0 784 792 792 792 792 792 0 0 0 0 0 0 0 0 1552 1557 1559 1564 1566 1568 1569 1569 1569 1568 1568 1567 1567 1566 1566 1565 1563 1561 1559 1556 1553 1549 1545 1535 1520 1502 1491 1480 1452 0 0 0 0 0 0 862 850 846 845 845 845 844 843 843 842 840 840 839 838 838 838 837 837 837 836 836 836 835 835 835 834 834 834 833 832 831 831 831 830 829 829 828 827 827 826 826 825 825 825 824 824 824 824 824 824 823 823 823 823 823 822 822 821 821 821 820 820 819 818 818 817 816 816 815 815 814 813 812 812 811 811 810 810 809 809 808 808 807 807 806 806 805 804 804 803 803 802 801 800 799 798 797 796 796 796 796 795 795 795 794 794 794 794 793 792 792 791 791 791 790 790 790 789 788 787 787 786 786 786 785 784 783 783 783 782 780 780 0 0 0 0 0 0 0 0 0 0 0 0 777 777 777 776 776 776 779 779 780 780 779 777 777 777 777 792 0 0 0 0 0 0 0 0 0 1485 1487 1490 1490 1490 1497 1499 1502 1504 1505 1508 1511 1515 1518 1521 1523 1523 1524 1524 1524 1524 1524 1524 1524 1524 1525 1525 1525 1525 1525 1525 1525 1525 1525 1526 1526 1526 1526 1526 1526 1526 1526 1526 1526 1526 1526 1526 1526 1526 1527 1529 1530 1532 1533 1533 1533 1533 1533 1532 1531 1530 1530 1530 1529 1529 1528 1527 1526 1526 1526 1526 1525 1525 1524 1524 1524 1523 1523 1523 1523 1522 1521 1520 1520 1520 1520 1520 1520 1520 1520 1520 1520 1520 1520 1521 1521 1521 1520 1519 1519 1519 1519 1518 1517 1517 1515 1515 1513 1513 1513 1513 1513 1513 1512 1512 1511 1509 1507 1506 1506 1506 1506 1506 1506 1506 1503 1502 1502 1503 1503 1502 1499 1496 1477 1475 1469 0 0 0 0 0 0 0 0 0 0 0 0 0 0 0 0 0 0 0 1340 1340 1342 1345 1353 1354 1359 1361 1361 1361 1345 1305 1293 1293 1293 1295 1295 1295 1295 1296 1306 1311 1311 1311 1295 1283 1283 1283 1283 1283 1282 1282 1282 1282 1282 1281 1280 1278 1275 1265 1260 1256 1244 1234 1222 1214 1214 1210 1204 1194 1179 1177 1171 1169 1169 1169 1170 1172 1172 1172 1163 1160 1159 1152 1141 1128 1114 1114 1114 1118 1118 1118 1100 1090 1083 1083 1062 1049 1030 1023 1014 1014 1014 1030 1038 1038 1038 1037 1019 1002 1002 1002 1000 1000 1000 982 936 931 929 908 896 896 896 900 923 933 933 933 925 910 0 0 811 807 807 807 813 813 813 818 818 812 811 794 771 765 746 0 0 0 0 0 0 0 0 0 0 0 0 0 0 0 0 0 0 0 0 0 0
0 0 0 0 0 895 905 917 918 931 943 952 952 952 949 937 0 0 906 891 891 0 0 0 0 826 826 847 0 0 0 0 930 936 937 944 968 983 0 0 0 0 0 0 0 0 0 0 0 0 0 829 814 797 787 782 773 765 765 765 776 783 786 787 787 787 787 790 794 795 795 795 0 0 0 0 551 551 551 549 549 540 515 502 502 500 490 490 490 490 507 0 573 573 573 555 533 533 533 535 535 535 534 534 0 0 0 0 0 0 0 718 718 718 702 702 702 749 782 790 790 790 790 790 0 0 0 0 0 0 0 0 1552 1557 1559 1560 1563 1565 1566 1568 1568 1568 1568 1567 1567 1566 1566 1564 1563 1561 1559 1556 1553 1552 1548 1540 1526 1509 1491 1480 1452 1439 0 0 0 0 0 0 853 846 844 844 844 844 843 842 841 840 839 838 838 837 837 836 836 836 835 835 835 835 835 834 834 833 833 832 831 831 830 830 829 829 828 828 827 827 826 825 825 825 824 824 824 824 824 823 823 823 823 823 823 822 822 822 821 820 820 819 819 818 818 817 816 816 815 815 814 814 813 812 811 810 810 810 809 809 809 808 807 807 807 806 806 805 804 804 803 802 801 800 800 798 798 797 796 796 796 796 795 795 795 794 794 793 793 793 792 791 791 791 790 790 789 789 788 788 787 787 786 785 784 784 784 783 783 783 783 783 0 0 0 0 0 0 0 0 0 0 0 0 779 779 779 779 776 771 770 768 768 768 775 777 777 777 777 777 0 0 0 0 0 0 0 0 0 1487 1487 1488 1488 1488 1494 1501 1503 1504 1505 1506 1508 1511 1515 1517 1520 1522 1523 1524 1524 1524 1524 1524 1524 1525 1525 1525 1525 1525 1524 1525 1525 1525 1525 1525 1525 1525 1525 1525 1525 1525 1525 1525 1525 1525 1525 1525 1524 1524 1524 1525 1526 1528 1530 1531 1531 1531 1530 1530 1529 1529 1528 1528 1527 1527 1527 1525 1524 1524 1523 1523 1523 1523 1522 1522 1522 1522 1522 1521 1520 1520 1519 1519 1519 1518 1518 1517 1517 1517 1517 1517 1517 1517 1518 1518 1518 1518 1518 1518 1518 1518 1518 1518 1517 1516 1515 1513 1513 1513 1512 1512 1512 1512 1512 1511 1509 1507 1506 1506 1506 1506 1506 1507 1507 1506 1506 1506 1505 1504 1503 1503 1502 1499 1497 1494 1487 1486 1486 1482 1480 1470 1463 1461 1458 1456 1450 1436 0 0 0 0 0 0 0 0 0 0 0 0 0 0 1378 1380 1382 1382 1380 1371 0 0 0 0 0 0 0 0 1323 1323 1344 1344 1344 1330 1321 1312 1310 1290 1290 1290 1295 1317 1317 1317 1301 1297 1293 1288 1278 1272 1265 1250 1235 1222 1221 1221 1218 1216 1196 1182 1177 1171 1169 1169 1169 1170 1172 1172 1172 1169 1164 1162 1152 1141 1128 1116 1116 1116 1130 1130 1130 1107 1099 1094 1083 1062 1049 1030 1023 1023 1023 1024 1036 1036 1036 1025 1013 1002 992 992 992 993 993 993 965 936 931 914 898 892 892 892 896 898 908 911 911 911 881 839 815 807 807 811 807 807 801 801 801 803 803 803 783 769 762 742 0 0 0 0 0 0 0 0 0 0 0 0 0 0 0 0 0 0 0 0 0 0
0 0 0 0 0 892 905 919 928 932 943 943 943 942 932 907 868 868 868 0 0 0 0 0 811 811 826 847 856 0 0 0 0 0 0 0 0 0 0 0 0 0 0 0 0 0 0 0 0 0 821 817 814 797 785 774 770 768 768 768 776 789 790 790 790 790 790 790 794 795 795 795 0 0 0 0 551 551 551 569 569 569 0 516 511 510 506 502 502 502 509 534 570 570 570 543 524 524 524 528 528 528 511 511 511 0 0 0 0 0 0 727 732 732 732 732 732 755 782 790 790 794 798 0 0 0 0 0 0 0 0 1540 1552 1557 1558 1559 1563 1565 1566 1567 1567 1567 1567 1566 1566 1566 1566 1564 1563 1561 1560 1558 1555 1553 1549 1543 1529 1511 1495 1483 1464 1450 0 0 0 0 0 0 0 848 844 843 843 843 843 842 841 839 838 837 837 836 836 835 835 834 834 834 834 834 833 833 833 833 832 832 831 830 829 829 829 828 828 827 827 826 826 825 825 825 824 824 824 824 823 823 822 822 822 822 822 821 821 820 820 820 819 819 818 818 817 817 816 815 815 814 814 813 812 811 811 810 810 809 809 808 808 808 807 807 806 806 805 804 804 803 802 802 801 800 799 798 798 797 796 796 795 795 795 795 794 794 794 793 793 792 792 791 791 790 790 789 788 788 788 787 786 786 785 784 784 784 783 783 783 783 783 0 0 0 0 0 0 0 0 0 0 0 0 778 779 785 785 785 776 770 770 767 767 767 774 774 774 780 780 784 0 0 0 0 0 0 0 0 0 1491 1491 1488 1488 1488 1494 1501 1504 1506 1506 1507 1509 1511 1515 1517 1520 1522 1523 1523 1524 1524 1524 1524 1524 1524 1524 1524 1524 1524 1524 1524 1524 1524 1524 1524 1524 1524 1524 1524 1524 1524 1524 1524 1524 1524 1524 1524 1524 1524 1524 1524 1525 1526 1528 1528 1528 1528 1528 1528 1528 1527 1527 1526 1525 1525 1525 1524 1523 1521 1521 1521 1521 1521 1521 1521 1521 1521 1521 1520 1519 1518 1517 1517 1516 1516 1515 1515 1514 1514 1514 1514 1515 1515 1516 1516 1516 1517 1517 1517 1517 1517 1517 1517 1517 1515 1514 1513 1512 1511 1511 1511 1511 1511 1511 1510 1508 1507 1506 1506 1506 1506 1506 1506 1506 1506 1506 1506 1505 1504 1503 1503 1502 1500 1499 1498 1497 1495 1490 1483 1481 1481 1481 1483 1483 1483 1477 1473 1469 1468 1463 1462 1460 1460 1460 1459 1459 0 0 0 0 0 1439 1430 1430 1424 1418 1410 0 0 0 0 0 0 0 0 0 0 1368 1365 1364 1363 1360 1359 1315 1312 1312 1312 1312 1319 1322 1322 1322 1309 1307 1299 1293 1282 1271 1258 1243 1242 1236 1234 1234 1229 1207 1183 1177 1171 1169 1169 1169 1170 1172 1172 1172 1170 1169 1162 1160 1151 1134 1117 1117 1117 1132 1132 1132 1115 1112 1108 1085 1066 1049 1030 1023 1023 1023 1037 1037 1037 1037 1025 1004 993 992 989 981 980 979 973 961 940 931 914 893 889 876 867 867 867 867 883 883 883 843 814 803 803 803 807 807 807 796 796 796 800 800 800 779 769 761 741 0 0 0 0 0 0 0 586 586 566 0 0 0 0 0 0 0 0 0 0 0 0
0 0 0 0 0 890 905 919 928 932 941 941 941 929 917 907 868 867 864 853 0 0 774 773 773 773 800 825 825 0 0 0 0 0 0 0 0 0 0 0 0 0 0 0 0 0 0 0 0 814 814 814 814 789 765 764 763 763 764 768 778 789 793 794 796 796 796 801 803 803 803 795 0 0 0 0 562 562 562 582 582 0 0 525 517 517 514 511 511 511 511 536 556 556 556 542 523 523 523 523 523 521 511 511 511 530 0 0 0 0 0 0 732 732 733 734 747 766 782 790 794 798 801 0 0 0 0 0 0 0 0 1544 1552 1557 1557 1558 1560 1563 1565 1565 1565 1565 1565 1566 1566 1566 1565 1564 1563 1561 1560 1558 1556 1553 1549 1546 1539 1526 1504 1483 1482 1450 0 0 0 0 0 0 0 848 843 843 842 842 842 841 840 839 838 836 836 835 835 834 834 834 834 834 833 833 833 832 832 832 832 832 830 830 829 829 828 828 827 827 826 825 825 825 824 824 824 823 823 823 822 822 822 822 821 821 821 821 821 820 820 819 819 818 818 817 816 816 816 815 814 813 812 812 811 810 810 810 810 809 809 808 808 807 807 807 806 805 804 804 803 803 801 801 800 800 798 798 797 797 796 796 795 795 794 794 794 794 793 793 792 792 792 791 790 790 789 789 788 788 787 786 786 786 785 784 784 784 783 783 783 784 784 0 0 0 0 0 0 0 0 0 0 0 780 781 782 785 785 785 774 770 770 765 759 759 759 761 774 787 796 0 0 0 0 0 0 0 0 0 1496 1496 1482 1482 1482 1488 1494 1501 1504 1506 1507 1508 1510 1512 1515 1517 1520 1522 1522 1523 1523 1523 1524 1524 1524 1524 1524 1524 1524 1524 1524 1524 1524 1524 1524 1523 1523 1523 1523 1523 1523 1523 1523 1523 1523 1523 1523 1523 1523 1523 1523 1523 1524 1525 1525 1526 1526 1527 1527 1527 1525 1525 1524 1524 1524 1523 1522 1522 1521 1521 1521 1521 1521 1520 1520 1520 1520 1520 1519 1518 1518 1517 1516 1514 1514 1514 1513 1513 1513 1512 1512 1512 1512 1514 1514 1515 1515 1515 1515 1515 1516 1516 1516 1515 1515 1515 1514 1512 1511 1511 1511 1510 1510 1509 1509 1509 1508 1506 1506 1506 1506 1505 1506 1506 1506 1506 1506 1506 1505 1503 1502 1500 1500 1500 1499 1498 1497 1495 1491 1490 1490 1490 1491 1494 1494 1494 1493 1487 1481 1481 1481 1480 1478 1478 1474 1473 1469 1469 1469 1470 1470 1470 1470 1470 1465 1463 1462 1458 1449 1449 1449 1453 1453 1453 1453 0 0 0 1427 1423 1415 1410 1365 1363 1360 1359 1353 1347 1347 1347 1348 1348 1348 1346 1340 1328 1314 1300 0 0 0 0 0 1265 1262 1261 1245 1224 1214 1204 1198 1195 1183 1176 1173 1173 1172 1172 1172 1170 1170 1151 1135 1128 1128 1128 1141 1141 1141 1116 1116 1112 1107 1088 1075 1061 1059 1054 1051 1050 1047 1039 1037 1025 1004 993 992 989 981 979 969 967 956 948 931 914 900 888 876 867 852 852 852 854 854 854 820 803 801 791 791 789 784 783 784 784 796 796 796 794 770 756 753 733 0 0 0 0 0 0 578 578 578 558 555 0 0 0 0 0 0 0 0 0 0 495
0 0 0 0 871 888 904 919 928 932 933 933 933 929 917 907 868 867 860 853 0 774 773 773 773 773 773 774 787 787 796 0 0 0 0 0 0 0 0 0 0 0 0 0 0 0 0 0 777 774 774 774 774 755 755 755 761 762 763 768 778 789 795 797 804 806 808 819 821 821 821 0 0 0 0 592 592 592 596 603 603 603 0 0 526 524 524 523 520 520 520 536 549 549 549 535 523 523 523 522 522 521 511 511 511 526 539 563 0 0 0 0 719 732 733 734 747 766 782 794 801 807 824 0 0 0 0 0 1493 1533 1535 1547 1552 1556 1556 1557 1560 1561 1562 1563 1563 1563 1563 1563 1564 1564 1564 1564 1562 1561 1559 1557 1555 1553 1549 1546 1539 1532 1520 1498 1483 1461 0 0 0 0 0 0 0 0 841 841 841 840 840 840 839 838 836 835 835 835 834 833 833 833 833 833 832 832 832 832 831 831 831 830 830 829 829 829 827 827 827 826 825 825 824 824 824 823 823 823 822 822 822 821 821 821 821 821 820 820 820 820 820 819 818 817 817 817 816 815 815 814 813 813 812 811 811 810 810 809 809 808 808 808 807 807 807 806 805 805 804 803 803 802 801 800 800 799 798 797 797 796 796 795 795 794 794 794 793 793 793 793 792 791 791 791 790 789 788 788 788 787 787 786 786 785 785 784 784 784 784 784 785 785 785 0 0 0 0 0 0 0 0 778 778 778 781 782 782 785 785 785 776 774 771 768 759 759 759 761 774 790 813 0 0 0 0 0 0 0 0 1483 1483 1483 1482 1482 1482 1488 1494 1500 1504 1506 1507 1509 1510 1513 1516 1517 1519 1521 1521 1521 1522 1523 1524 1524 1524 1524 1524 1524 1524 1524 1524 1524 1524 1523 1523 1523 1523 1523 1522 1522 1522 1522 1522 1522 1522 1522 1522 1522 1522 1522 1522 1523 1523 1523 1523 1524 1524 1525 1525 1525 1524 1523 1523 1522 1521 1521 1521 1520 1520 1519 1519 1519 1519 1519 1519 1519 1518 1518 1517 1517 1516 1516 1515 1512 1511 1511 1511 1510 1510 1510 1510 1510 1511 1512 1512 1512 1512 1512 1512 1512 1512 1513 1513 1513 1513 1512 1511 1511 1510 1509 1509 1508 1508 1508 1508 1508 1507 1506 1506 1506 1506 1505 1505 1506 1506 1506 1506 1506 1505 1503 1501 1499 1499 1498 1498 1498 1498 1496 1492 1492 1492 1492 1492 1495 1495 1495 1494 1492 1489 1486 1486 1486 1486 1486 1485 1485 1481 1477 1473 1473 1473 1475 1477 1477 1475 1475 1467 1464 1462 1462 1462 1466 1466 1466 1464 1462 1459 1451 1446 1441 1420 1414 1406 1406 1406 1405 1405 1405 1401 1400 1399 1399 1398 1394 1377 1366 0 0 0 0 0 0 0 0 0 0 0 0 0 0 0 0 0 0 0 0 1199 1201 1199 1199 1182 1171 1148 1144 1144 1144 1144 1144 1142 1117 1117 1117 1117 1107 1095 1086 1086 1086 1082 1074 1066 1053 1045 1027 1004 995 993 992 981 979 969 963 956 948 936 914 900 888 876 867 844 835 835 827 827 826 806 801 800 798 789 783 773 773 773 778 807 807 807 790 769 748 730 717 689 653 651 641 0 0 574 566 556 554 554 0 0 0 0 0 0 0 0 0 495 495
0 0 0 0 871 887 900 917 927 932 932 932 932 929 918 917 905 902 873 0 0 773 773 771 771 773 773 774 776 778 787 787 0 0 0 0 0 0 0 0 0 0 0 0 0 0 0 764 763 762 758 747 743 743 743 750 757 761 761 766 778 789 795 801 804 806 818 828 828 828 828 0 0 0 0 592 592 592 615 625 625 625 0 0 0 0 0 0 0 0 0 536 549 549 549 535 523 523 523 522 522 521 516 516 516 530 531 546 559 0 0 0 0 719 727 733 747 766 782 794 811 818 0 0 0 0 0 0 1507 1533 1540 1547 1552 1555 1556 1557 1557 1558 1559 1560 1561 1561 1561 1561 1562 1562 1562 1562 1560 1560 1558 1557 1555 1553 1549 1546 1539 1534 1526 1509 1489 1481 1466 0 0 0 0 0 0 0 841 839 839 839 837 837 837 837 836 835 834 833 833 833 832 832 832 832 832 832 831 831 831 830 830 830 829 829 828 828 827 826 826 825 824 824 823 823 823 823 822 822 822 822 821 821 821 821 821 821 820 820 819 819 818 818 817 817 816 816 815 814 813 813 812 812 811 811 810 810 810 809 809 808 808 807 807 807 807 806 805 805 804 803 803 802 801 800 799 798 798 797 796 796 795 795 794 794 793 793 793 792 792 792 791 791 790 790 789 789 788 788 787 787 786 786 785 785 785 785 785 785 785 785 786 786 786 0 0 0 0 0 0 0 778 782 782 782 785 785 785 785 785 783 776 774 771 770 763 761 761 761 779 803 0 0 0 0 0 0 0 0 0 1492 1492 1483 1482 1482 1482 1488 1494 1500 1503 1505 1507 1509 1511 1514 1516 1517 1519 1520 1521 1521 1521 1522 1523 1523 1523 1523 1523 1523 1523 1524 1524 1523 1523 1523 1523 1523 1523 1522 1522 1522 1521 1521 1521 1521 1521 1521 1521 1521 1521 1521 1521 1521 1521 1521 1521 1522 1522 1522 1522 1522 1521 1521 1521 1521 1520 1519 1518 1518 1518 1518 1518 1518 1518 1518 1517 1517 1517 1516 1516 1515 1514 1514 1512 1510 1510 1509 1509 1508 1508 1508 1508 1508 1508 1508 1509 1509 1509 1510 1510 1510 1510 1509 1509 1509 1509 1509 1509 1509 1508 1507 1507 1507 1507 1507 1507 1507 1507 1506 1506 1505 1505 1504 1504 1504 1505 1505 1505 1505 1504 1503 1501 1499 1499 1498 1498 1498 1498 1496 1493 1492 1492 1492 1493 1495 1495 1495 1494 1492 1490 1488 1488 1487 1487 1487 1487 1488 1488 1488 1484 1483 1482 1482 1481 1481 1480 1479 1477 1474 1472 1469 1468 1468 1467 1467 1467 1465 1465 1464 1448 1443 1442 1441 1439 1436 1432 1432 1432 1436 1436 1436 1432 1428 1428 1421 1413 1413 1405 1401 1397 1393 1385 1381 0 0 0 0 0 0 0 0 0 0 0 0 0 0 0 0 1218 1215 1205 1204 1180 1171 1171 1168 1168 1168 1144 1126 1123 1121 1120 1120 1112 1112 0 0 0 0 0 1063 1058 1049 1035 1023 1017 1011 1011 987 969 963 956 947 936 914 900 888 876 867 844 828 826 820 806 803 801 801 800 798 770 765 765 765 773 796 807 807 807 774 756 725 720 717 689 677 650 640 615 0 572 549 549 543 537 517 0 0 0 0 0 0 0 0 495 495
0 0 0 0 871 882 892 905 922 928 929 929 929 929 929 928 928 902 0 0 0 762 759 759 759 759 763 774 775 777 784 787 0 0 0 0 0 0 0 0 0 0 0 0 0 0 0 763 763 758 751 743 740 740 740 746 753 757 757 762 774 790 797 806 812 816 818 828 828 828 828 0 0 0 0 591 591 591 615 633 633 633 0 0 0 0 0 0 0 0 0 0 565 565 549 535 524 524 524 522 524 524 523 523 527 531 533 545 547 563 0 0 0 0 704 715 732 753 777 794 814 0 0 0 0 0 0 0 1512 1533 1540 1547 1552 1555 1556 1556 1556 1556 1557 1558 1558 1558 1558 1559 1560 1560 1560 1558 1558 1558 1556 1555 1553 1550 1546 1543 1541 1536 1531 1516 1497 1491 1468 1453 0 0 0 0 0 0 0 839 839 837 835 835 835 835 835 834 833 832 832 832 832 832 832 831 831 831 831 830 830 830 829 829 828 828 827 827 826 825 825 824 824 823 823 823 823 822 822 822 821 821 821 821 821 820 820 819 819 819 818 818 818 817 816 816 816 815 815 814 813 813 812 811 811 811 810 810 809 808 808 808 808 807 807 806 806 806 805 804 803 802 802 802 801 800 799 797 797 796 796 795 795 794 794 794 793 793 792 792 792 791 791 790 790 789 789 788 788 787 786 786 786 786 785 785 785 785 785 785 785 785 786 786 786 0 0 0 0 0 0 779 781 782 785 786 787 787 787 783 782 777 774 772 771 770 763 763 763 768 790 0 0 0 0 0 0 0 0 0 1491 1491 1491 1484 1484 1484 1486 1492 1496 1500 1503 1505 1507 1509 1513 1514 1516 1517 1518 1519 1520 1520 1521 1521 1522 1522 1522 1523 1523 1523 1523 1523 1523 1523 1523 1522 1522 1522 1522 1520 1520 1520 1520 1520 1520 1520 1520 1519 1519 1519 1519 1519 1519 1519 1519 1520 1520 1520 1520 1520 1520 1520 1520 1520 1520 1519 1518 1518 1517 1516 1516 1516 1516 1516 1516 1516 1516 1515 1515 1514 1513 1513 1512 1512 1511 1509 1507 1507 1507 1506 1506 1505 1505 1505 1505 1505 1505 1506 1506 1506 1506 1506 1506 1506 1506 1506 1506 1506 1506 1505 1505 1505 1505 1505 1505 1505 1505 1505 1505 1505 1505 1504 1504 1503 1503 1504 1504 1504 1504 1504 1503 1502 1500 1499 1498 1498 1498 1498 1498 1497 1494 1492 1492 1492 1493 1494 1494 1494 1494 1492 1491 1491 1490 1489 1487 1487 1487 1488 1488 1488 1487 1485 1484 1483 1481 1481 1481 1479 1479 1478 1478 1476 1473 1473 1473 1470 1469 1467 1467 1465 1456 1448 1444 1443 1442 1442 1440 1440 1440 1440 1440 1439 1434 1433 1429 1428 1427 1425 1423 1422 1421 1421 1420 1414 1402 1402 1402 0 0 0 0 0 0 0 0 0 0 0 0 0 0 1234 1234 1222 1210 1209 1207 1203 1201 1188 0 0 0 0 0 0 0 0 0 0 0 0 0 0 0 0 0 0 0 0 0 0 0 963 958 948 936 928 918 902 876 867 853 839 828 826 806 806 803 801 800 798 770 765 765 765 782 799 799 799 777 770 756 725 720 717 689 678 650 640 0 0 0 539 532 529 514 506 501 0 0 0 0 0 0 503 509 509
0 0 0 0 868 878 887 896 911 921 926 926 926 927 928 928 928 0 0 0 0 762 759 759 759 759 763 774 774 777 784 787 0 0 0 0 0 0 0 0 0 0 0 0 0 0 768 762 761 756 747 736 735 735 735 741 746 748 750 750 772 789 804 811 818 825 830 830 830 828 827 0 0 0 0 589 589 589 615 633 633 633 588 585 585 585 608 608 613 0 0 0 0 577 552 540 531 528 528 528 528 528 528 532 532 533 541 545 547 563 0 0 0 0 0 695 717 744 775 794 0 0 0 0 0 0 0 0 1515 1529 1540 1546 1547 1550 1553 1553 1554 1553 1553 1554 1555 1555 1556 1557 1557 1557 1557 1556 1556 1555 1553 1552 1550 1548 1545 1543 1541 1537 1534 1527 1514 1494 1469 1455 1415 0 0 0 0 0 0 0 838 837 835 834 833 833 833 833 832 831 831 831 831 831 830 830 830 830 829 829 829 828 828 827 827 827 827 826 826 824 824 823 823 822 822 822 822 822 821 821 821 821 820 820 820 820 819 819 819 819 818 818 817 817 816 815 815 814 814 813 812 812 811 811 811 811 810 809 809 808 808 807 807 807 806 806 806 805 804 804 803 802 802 801 801 799 798 797 796 796 795 795 794 794 794 793 793 792 792 792 791 791 790 790 789 788 788 788 787 787 786 786 786 785 785 785 784 784 784 785 785 785 786 786 785 0 0 0 0 0 781 781 782 782 787 788 788 788 787 781 779 777 771 771 768 760 760 768 768 771 792 0 0 0 0 0 0 0 0 1495 1495 1495 1490 1490 1490 1490 1491 1495 1497 1499 1503 1505 1507 1509 1513 1514 1516 1516 1517 1519 1519 1519 1520 1520 1521 1521 1522 1522 1523 1523 1523 1523 1522 1522 1522 1522 1521 1520 1520 1519 1519 1519 1519 1518 1518 1518 1518 1517 1517 1517 1517 1517 1517 1517 1518 1518 1518 1518 1518 1518 1518 1518 1518 1518 1518 1517 1516 1516 1515 1515 1515 1514 1514 1514 1514 1514 1513 1513 1512 1511 1511 1510 1510 1509 1509 1507 1506 1505 1505 1505 1504 1503 1503 1503 1503 1503 1503 1503 1503 1504 1504 1504 1504 1504 1504 1504 1504 1504 1504 1504 1503 1502 1502 1502 1502 1502 1503 1503 1503 1503 1503 1503 1503 1503 1502 1502 1502 1502 1502 1502 1502 1501 1500 1499 1498 1498 1498 1498 1498 1497 1495 1493 1493 1493 1493 1494 1494 1494 1494 1493 1492 1491 1490 1489 1487 1487 1487 1488 1488 1488 1487 1485 1484 1483 1482 1481 1480 1479 1479 1479 1478 1478 1474 1474 1473 1472 1469 1469 1467 1465 1458 1451 1449 1447 1447 1446 1446 1442 1441 1441 1440 1439 1437 1433 1429 1428 1428 1425 1423 1422 1422 1421 1421 1421 1421 1425 1427 1427 1427 1418 1417 1414 1408 0 0 0 0 0 0 0 0 0 0 0 0 0 0 0 0 0 0 0 0 0 0 0 0 0 0 0 0 0 0 0 0 0 0 0 0 0 0 0 0 0 959 959 952 948 944 902 885 885 861 841 835 826 818 818 814 814 814 811 771 771 771 794 795 800 800 800 777 769 756 725 720 717 706 702 651 0 0 0 0 537 526 507 507 507 507 0 0 0 0 0 0 0 538 538
0 0 0 0 865 877 885 896 907 917 921 922 923 923 928 928 928 0 0 0 0 738 738 754 759 759 763 774 774 777 784 787 0 0 0 0 0 0 0 0 0 0 0 0 756 756 757 757 757 752 738 730 730 730 735 738 746 747 747 750 770 787 804 817 826 835 836 836 836 827 826 0 0 0 0 0 581 581 607 633 633 633 595 585 585 585 608 634 634 634 633 624 608 581 554 543 541 539 536 536 530 530 530 532 542 545 547 548 548 563 574 0 0 0 0 0 713 744 0 0 0 0 0 0 0 0 0 1511 1519 1529 1533 1537 1541 1542 1545 1550 1550 1550 1551 1551 1553 1554 1554 1554 1554 1554 1554 1553 1553 1553 1552 1551 1549 1547 1545 1542 1541 1537 1535 1529 1517 1494 1469 1456 1427 1414 0 0 0 0 0 0 838 836 835 833 832 832 831 831 831 831 830 830 830 830 829 829 829 829 828 828 828 827 827 826 826 826 825 825 824 824 824 823 822 822 822 821 821 821 821 820 820 820 819 819 819 819 819 818 818 818 818 817 817 816 815 814 814 814 813 813 812 811 811 811 810 809 809 809 808 808 807 807 807 806 806 806 805 804 804 804 803 802 801 801 800 799 798 797 796 796 795 795 794 793 793 793 792 792 791 791 791 791 790 789 788 788 788 788 786 786 785 785 785 785 784 784 784 784 784 785 785 785 785 785 784 784 784 783 781 782 782 782 783 783 787 788 788 788 788 781 779 777 766 766 766 762 764 768 768 778 796 0 0 0 0 0 0 0 0 1495 1495 1495 1491 1491 1491 1492 1495 1496 1497 1499 1502 1504 1507 1509 1513 1514 1515 1516 1517 1518 1518 1519 1519 1520 1520 1520 1520 1521 1521 1522 1522 1521 1521 1521 1521 1520 1520 1519 1518 1518 1517 1517 1517 1517 1516 1516 1516 1516 1516 1516 1516 1516 1516 1517 1517 1517 1517 1517 1517 1517 1517 1517 1516 1516 1516 1515 1515 1515 1514 1514 1514 1513 1513 1513 1513 1512 1511 1511 1510 1510 1510 1508 1508 1507 1507 1506 1504 1504 1503 1502 1502 1502 1501 1502 1502 1501 1501 1502 1502 1502 1502 1502 1502 1502 1503 1503 1503 1502 1501 1501 1501 1501 1501 1500 1500 1500 1500 1501 1501 1501 1502 1502 1502 1502 1501 1501 1501 1501 1501 1501 1501 1500 1500 1499 1498 1498 1498 1498 1497 1497 1495 1493 1493 1493 1493 1493 1493 1493 1492 1492 1492 1491 1490 1489 1487 1487 1487 1487 1487 1487 1487 1485 1484 1483 1482 1481 1479 1479 1479 1478 1478 1478 1475 1474 1474 1473 1470 1469 1468 1465 1460 1454 1451 1451 1451 1450 1449 1446 1444 1442 1441 1440 1437 1433 1429 1428 1428 1426 1424 1422 1422 1421 1421 1421 1422 1426 1427 1427 1427 1423 1422 1421 1421 1418 1418 1399 1399 0 0 0 0 0 0 0 0 0 0 0 0 0 0 0 0 0 0 0 0 0 0 0 0 0 0 0 0 0 0 0 0 0 0 0 0 0 0 0 0 0 0 0 0 0 0 0 0 0 0 0 0 0 0 0 0 0 0 813 813 813 812 807 771 768 759 744 735 729 713 703 693 0 0 0 0 528 526 501 514 514 514 0 0 0 0 0 0 0 554 554
0 0 0 0 865 877 885 896 906 912 912 912 912 912 911 911 906 0 0 0 0 713 713 725 733 746 746 758 758 763 765 0 0 0 0 0 0 0 0 0 0 0 0 741 741 741 741 741 741 736 729 729 729 730 735 738 744 747 747 750 770 789 804 817 826 835 835 835 835 820 795 0 0 0 0 0 564 564 601 625 625 625 599 588 588 588 610 638 639 639 639 635 617 586 561 551 550 548 545 541 538 538 538 543 549 550 551 562 563 565 572 583 0 0 0 0 0 0 0 0 0 0 0 0 0 0 1491 1516 1522 1529 1533 1534 1536 1537 1541 1544 1547 1548 1548 1549 1551 1552 1553 1553 1553 1553 1553 1552 1551 1550 1550 1550 1548 1546 1545 1541 1541 1540 1537 1530 1520 1498 1478 1456 1431 1417 0 0 0 0 0 0 839 837 835 832 832 830 830 830 830 830 829 829 829 829 829 829 828 827 827 827 827 827 827 826 825 825 825 824 824 823 823 822 822 822 821 821 820 820 820 820 819 819 819 819 818 818 818 818 817 817 816 816 816 815 814 814 814 812 812 812 811 811 811 810 809 809 809 808 808 807 807 807 806 806 806 805 805 804 803 803 802 801 800 800 799 799 797 797 796 795 795 794 794 793 792 792 792 792 791 790 790 789 789 788 788 787 787 786 786 785 785 785 785 784 784 784 784 784 783 783 783 783 783 784 784 784 784 785 784 784 785 783 783 786 787 788 788 788 788 781 779 777 760 760 760 763 772 773 776 793 0 0 0 0 0 0 0 0 1497 1497 1497 1493 1491 1491 1491 1492 1495 1496 1497 1499 1502 1505 1507 1509 1512 1514 1515 1516 1517 1518 1518 1518 1518 1518 1519 1519 1520 1521 1521 1521 1521 1521 1521 1521 1520 1519 1519 1519 1517 1517 1516 1515 1515 1514 1514 1514 1514 1514 1515 1514 1515 1515 1515 1515 1516 1516 1516 1516 1516 1515 1515 1515 1515 1514 1514 1514 1513 1513 1513 1513 1512 1512 1511 1511 1510 1510 1510 1509 1509 1509 1508 1508 1507 1506 1505 1504 1503 1502 1501 1501 1501 1500 1500 1500 1500 1500 1500 1500 1500 1500 1500 1500 1500 1500 1500 1500 1500 1499 1499 1498 1498 1498 1498 1498 1498 1498 1498 1499 1500 1500 1500 1500 1500 1500 1500 1500 1500 1500 1499 1499 1499 1499 1499 1499 1498 1497 1497 1497 1496 1496 1495 1493 1493 1493 1493 1493 1492 1492 1492 1492 1492 1491 1490 1488 1487 1486 1486 1486 1486 1486 1486 1485 1484 1483 1482 1481 1479 1479 1479 1479 1479 1478 1476 1474 1474 1473 1471 1470 1468 1465 1460 1456 1453 1453 1452 1451 1450 1449 1446 1444 1442 1440 1437 1432 1428 1428 1427 1426 1426 1423 1422 1422 1422 1422 1423 1426 1427 1427 1427 1427 1427 1427 1427 1427 1418 1417 1416 1415 1415 1411 1410 1406 1402 1389 1378 0 0 0 0 0 0 0 1363 1363 1362 1360 1342 1331 1325 1316 1310 1310 1309 1309 0 0 0 0 0 0 0 0 0 0 0 0 0 0 0 0 0 0 0 0 0 0 0 0 0 0 0 0 0 0 0 0 0 838 823 806 771 768 763 759 735 730 723 721 0 0 0 0 0 0 526 501 523 523 0 0 0 0 0 0 0 0 0 568
0 0 0 0 865 878 887 897 903 903 903 901 901 900 900 898 0 0 0 0 0 0 713 725 733 746 746 758 758 763 765 0 0 0 0 0 0 0 0 0 0 0 0 738 736 734 732 732 728 728 727 727 728 729 735 737 743 745 747 752 770 788 804 817 826 833 833 833 823 806 0 0 0 0 0 0 562 562 587 615 615 615 605 590 590 590 612 638 645 645 645 641 627 599 576 564 560 555 549 546 543 543 543 549 555 562 563 564 565 567 572 578 593 0 0 0 0 0 0 0 0 0 0 0 0 0 1503 1518 1525 1529 1532 1532 1533 1535 1537 1540 1542 1544 1546 1546 1548 1550 1551 1551 1551 1550 1550 1549 1549 1549 1549 1548 1546 1543 1542 1541 1541 1540 1537 1530 1520 1507 1490 1466 1431 1417 1399 0 0 0 0 0 0 837 835 832 832 830 830 829 829 829 829 828 828 828 828 828 827 827 827 827 826 826 825 825 825 824 824 823 823 823 822 821 821 820 820 820 819 819 819 819 819 819 819 818 818 817 817 817 816 816 816 815 814 814 813 813 812 812 812 811 811 810 810 809 809 808 808 807 807 807 806 806 806 805 805 805 804 803 803 802 802 800 800 800 798 798 797 797 795 795 794 794 793 793 792 792 791 791 790 790 789 789 788 788 788 787 787 786 785 785 785 785 784 784 783 783 783 783 783 783 783 783 782 782 782 782 782 782 783 783 785 783 783 784 786 786 790 790 790 790 785 777 762 762 762 766 772 776 0 0 0 0 0 0 0 0 0 0 1492 1492 1492 1489 1489 1489 1491 1492 1495 1496 1497 1499 1502 1505 1507 1509 1511 1512 1514 1516 1517 1517 1517 1517 1517 1517 1518 1518 1519 1520 1521 1521 1521 1520 1520 1519 1519 1519 1518 1518 1517 1515 1514 1514 1513 1512 1512 1512 1512 1512 1512 1512 1512 1513 1513 1513 1513 1514 1514 1514 1515 1515 1514 1514 1514 1513 1513 1512 1512 1512 1511 1511 1510 1510 1510 1509 1509 1508 1508 1507 1506 1506 1506 1506 1505 1504 1503 1502 1502 1501 1500 1500 1499 1499 1499 1499 1499 1499 1499 1499 1499 1499 1499 1499 1498 1498 1498 1498 1497 1497 1497 1496 1496 1496 1496 1496 1496 1496 1497 1497 1497 1498 1499 1499 1499 1499 1499 1499 1498 1498 1498 1498 1498 1498 1498 1498 1498 1497 1496 1495 1495 1495 1494 1493 1493 1493 1493 1493 1492 1492 1492 1492 1491 1490 1489 1488 1487 1486 1486 1485 1485 1485 1485 1485 1484 1484 1482 1481 1479 1479 1479 1479 1479 1478 1476 1474 1474 1473 1471 1470 1467 1465 1461 1458 1454 1453 1452 1451 1450 1449 1446 1444 1442 1439 1436 1432 1428 1428 1427 1426 1426 1423 1422 1422 1422 1424 1425 1426 1427 1427 1427 1427 1427 1427 1427 1427 1424 1419 1417 1416 1415 1415 1413 1407 1404 1400 1397 1395 1391 1390 1384 1382 1381 1380 1379 1373 1364 1362 1358 1356 1355 1351 1349 1345 1340 1340 1340 1338 0 0 0 0 0 0 0 0 0 0 0 0 0 0 0 0 0 0 0 0 0 0 0 0 0 0 0 0 0 0 0 0 0 0 771 769 763 760 748 747 727 0 0 0 0 0 0 0 0 0 0 0 0 0 0 0 0 0 0 0 0 0
0 0 0 0 866 883 888 897 897 897 895 895 895 895 895 886 0 0 0 0 0 0 0 0 0 0 746 758 758 763 765 0 0 0 0 0 0 0 0 0 0 0 0 738 736 732 727 721 721 721 727 727 728 729 735 737 743 745 747 757 770 787 801 812 821 821 821 815 809 795 0 0 0 0 0 561 561 561 579 606 620 620 620 604 604 604 610 638 645 645 645 641 627 604 590 580 571 559 551 548 548 548 548 551 555 562 564 567 567 568 572 578 592 0 0 0 0 0 0 0 0 0 0 0 0 1487 1509 1518 1525 1529 1531 1532 1532 1533 1534 1536 1538 1540 1542 1543 1544 1545 1547 1548 1548 1548 1548 1548 1547 1547 1547 1545 1543 1541 1540 1540 1540 1540 1537 1530 1525 1514 1497 1474 1449 1417 1399 0 0 0 0 0 0 838 835 831 831 830 829 829 829 829 828 828 828 827 827 826 826 826 826 826 826 825 825 824 824 824 823 823 823 822 821 821 820 820 819 819 819 818 818 818 818 818 817 817 817 817 816 816 816 815 814 814 813 813 813 812 811 811 811 810 810 810 809 809 808 807 807 807 807 806 806 805 805 805 804 804 804 803 803 802 801 800 800 799 798 798 797 796 795 794 794 794 793 793 792 791 791 790 790 789 789 788 788 788 787 786 786 785 785 784 784 784 784 783 783 783 783 783 782 782 782 782 782 782 782 782 782 782 785 785 785 785 785 784 784 784 790 791 792 792 792 784 769 769 769 777 778 787 0 0 0 0 0 0 0 0 0 1486 1486 1486 1486 1486 1486 1487 1491 1492 1494 1496 1497 1499 1502 1505 1508 1509 1510 1512 1514 1515 1516 1516 1516 1516 1516 1517 1517 1517 1519 1519 1519 1519 1519 1519 1519 1519 1518 1518 1517 1517 1516 1514 1513 1512 1511 1511 1510 1510 1510 1510 1510 1511 1511 1512 1512 1512 1512 1512 1513 1513 1513 1513 1513 1513 1512 1512 1511 1511 1510 1510 1510 1509 1509 1508 1508 1507 1506 1506 1506 1505 1505 1503 1503 1503 1503 1502 1501 1501 1501 1500 1499 1499 1499 1498 1498 1498 1498 1498 1498 1498 1498 1498 1498 1498 1497 1496 1496 1496 1496 1496 1495 1495 1495 1495 1495 1495 1495 1495 1495 1495 1496 1497 1497 1497 1497 1497 1497 1497 1497 1496 1496 1496 1496 1496 1496 1496 1496 1496 1495 1494 1493 1493 1493 1493 1493 1493 1493 1493 1492 1492 1492 1491 1490 1490 1488 1488 1487 1486 1485 1485 1485 1485 1484 1484 1484 1484 1482 1482 1480 1480 1480 1480 1479 1478 1476 1474 1473 1472 1471 1470 1467 1464 1461 1458 1454 1453 1452 1451 1450 1449 1446 1444 1442 1439 1436 1432 1428 1428 1428 1427 1426 1425 1424 1424 1424 1424 1425 1426 1427 1427 1427 1427 1427 1427 1427 1427 1424 1421 1418 1417 1415 1415 1413 1410 1406 1402 1398 1396 1393 1390 1388 1383 1382 1381 1380 1373 1372 1370 1368 1362 1357 1352 1349 1346 1340 1340 1340 1338 1338 0 0 0 0 0 0 0 0 0 0 0 0 0 0 0 0 0 0 0 0 0 0 0 0 0 0 0 0 0 0 0 0 0 0 0 0 0 0 0 0 0 0 0 0 0 0 0 0 0 0 0 0 0 0 0 0 0 0 0 0 0
0 0 0 0 866 883 888 897 897 897 895 895 895 895 895 880 0 0 0 0 0 0 0 0 0 0 0 775 775 776 0 0 0 0 0 0 0 0 0 0 0 0 0 737 734 731 724 716 716 716 723 727 728 728 732 737 738 743 747 757 770 785 795 796 799 801 801 801 795 0 0 0 0 0 0 561 561 561 579 605 622 624 624 624 611 611 611 638 644 644 644 641 627 609 598 590 585 575 559 556 555 552 552 552 560 562 564 567 568 571 575 577 592 0 0 0 0 0 0 0 0 0 0 0 0 1495 1509 1518 1525 1529 1531 1531 1531 1532 1532 1533 1534 1536 1537 1539 1539 1541 1544 1545 1546 1546 1546 1546 1545 1544 1544 1543 1541 1538 1538 1537 1536 1536 1534 1530 1525 1514 1501 1478 1450 1418 1406 0 0 0 0 0 0 0 836 831 830 829 829 829 829 828 828 828 826 826 826 826 826 825 825 825 824 824 824 824 823 823 822 822 821 821 820 820 820 819 819 819 818 818 817 817 817 817 817 816 816 816 815 815 815 814 814 813 812 812 812 812 811 811 810 809 809 809 808 808 808 807 807 807 806 806 805 805 805 805 804 804 804 803 802 801 801 800 799 799 798 798 797 796 795 794 794 793 793 792 791 791 790 790 789 789 788 787 787 786 786 785 785 785 785 784 784 784 784 783 783 782 782 782 782 782 782 782 781 781 781 782 782 782 783 785 785 785 785 784 784 784 793 796 796 796 795 787 787 787 787 799 809 826 0 0 0 0 0 0 0 0 0 1482 1482 1482 1482 1482 1486 1487 1491 1492 1494 1496 1497 1499 1502 1505 1508 1509 1510 1511 1514 1514 1515 1515 1515 1515 1515 1515 1516 1517 1517 1518 1518 1518 1518 1518 1517 1517 1517 1517 1517 1516 1515 1514 1512 1511 1510 1510 1510 1509 1509 1509 1509 1509 1510 1510 1511 1511 1512 1512 1511 1511 1511 1511 1511 1511 1511 1511 1510 1510 1509 1509 1508 1507 1507 1506 1506 1506 1505 1504 1504 1503 1501 1501 1501 1501 1501 1500 1500 1499 1499 1498 1498 1498 1497 1497 1497 1497 1497 1497 1497 1496 1496 1496 1496 1496 1496 1495 1495 1494 1494 1494 1494 1494 1493 1493 1493 1493 1494 1494 1494 1494 1494 1494 1494 1494 1494 1494 1494 1495 1495 1495 1494 1494 1493 1493 1493 1493 1493 1493 1492 1491 1491 1491 1491 1491 1492 1492 1492 1492 1492 1491 1491 1490 1490 1489 1488 1488 1487 1486 1485 1485 1485 1484 1484 1484 1484 1484 1482 1482 1481 1480 1480 1480 1479 1478 1475 1474 1472 1471 1470 1468 1467 1464 1461 1458 1454 1453 1452 1451 1450 1447 1445 1444 1441 1438 1435 1432 1429 1428 1428 1428 1427 1425 1424 1424 1424 1424 1425 1426 1427 1427 1427 1424 1424 1424 1424 1424 1424 1421 1418 1417 1415 1415 1415 1410 1406 1403 1400 1396 1395 1394 1392 1386 1384 1384 1382 1378 1375 1374 1370 1363 1357 1354 1352 1346 1341 1340 1340 1338 1338 1338 1330 1328 1324 1321 0 0 0 0 0 0 0 0 0 0 0 0 0 0 0 0 0 0 0 0 0 0 0 0 0 0 0 0 0 0 0 0 0 0 0 0 0 0 0 0 0 0 0 0 0 0 0 0 0 0 0 0 0 0 0 0
0 0 0 0 866 883 888 891 894 894 894 895 895 895 893 867 0 0 0 0 0 0 0 0 0 0 0 0 0 0 0 0 0 0 0 0 0 0 0 0 0 0 736 736 734 731 722 715 715 715 718 718 719 719 721 728 735 736 746 757 766 778 782 782 783 782 780 780 0 0 0 0 0 0 573 562 562 562 579 601 620 624 624 624 611 611 611 618 624 624 624 624 623 610 610 0 0 0 0 0 0 563 561 561 561 568 570 572 575 577 580 582 591 0 0 0 0 0 0 0 0 0 0 0 1474 1495 1509 1513 1517 1520 1523 1525 1529 1529 1529 1530 1531 1532 1534 1535 1536 1537 1540 1542 1543 1543 1543 1543 1542 1540 1538 1537 1537 1536 1536 1533 1532 1531 1531 1528 1525 1514 1506 1480 1457 1432 1408 1387 0 0 0 0 0 0 841 831 829 829 829 829 827 827 827 826 826 826 825 825 825 824 824 824 823 823 823 823 823 822 822 821 821 820 820 820 819 818 818 817 817 817 817 817 816 816 816 816 815 815 815 814 814 814 813 813 812 812 811 811 810 810 810 809 809 808 808 807 807 807 807 806 805 805 805 804 804 804 803 803 803 802 802 801 800 799 799 799 797 797 796 796 794 794 793 793 792 792 791 791 789 789 789 788 787 787 786 786 785 785 785 785 784 784 783 783 783 783 783 782 782 782 782 782 782 782 781 781 781 782 782 782 784 785 786 786 786 786 786 791 796 801 804 805 805 801 817 817 817 825 833 849 0 0 0 0 0 0 0 0 0 1482 1482 1482 1482 1482 1486 1489 1491 1492 1494 1496 1498 1499 1502 1505 1508 1509 1510 1511 1512 1513 1513 1513 1513 1514 1514 1514 1515 1516 1516 1516 1516 1516 1516 1517 1516 1516 1516 1516 1515 1514 1513 1512 1512 1511 1510 1509 1508 1508 1508 1508 1508 1508 1508 1509 1510 1510 1510 1510 1510 1510 1509 1509 1509 1509 1509 1509 1508 1508 1508 1507 1506 1506 1505 1504 1504 1504 1502 1502 1502 1500 1500 1500 1499 1499 1499 1498 1498 1498 1497 1497 1496 1496 1495 1495 1495 1495 1495 1495 1495 1495 1495 1495 1495 1495 1494 1494 1494 1494 1493 1493 1493 1492 1492 1492 1492 1492 1492 1492 1493 1493 1493 1493 1493 1492 1492 1492 1492 1492 1492 1492 1492 1491 1491 1491 1491 1491 1491 1491 1491 1490 1490 1490 1490 1490 1489 1489 1489 1491 1491 1491 1491 1490 1489 1489 1488 1487 1487 1486 1485 1485 1485 1484 1484 1484 1483 1483 1482 1482 1481 1480 1480 1479 1479 1477 1475 1473 1471 1470 1469 1467 1466 1463 1460 1457 1454 1452 1451 1448 1447 1445 1442 1441 1439 1437 1435 1432 1431 1430 1428 1428 1427 1425 1424 1424 1424 1424 1424 1425 1425 1425 1424 1422 1421 1421 1421 1421 1421 1420 1420 1419 1415 1415 1415 1413 1409 1407 1403 1398 1395 1394 1392 1389 1386 1384 1382 1378 1375 1374 1370 1363 1357 1355 1352 1347 1341 1336 1335 1335 1335 1334 1330 1328 1324 1321 1307 1306 1304 1298 1287 1279 1279 1277 1272 1267 1254 1239 1223 1216 1205 1181 1179 1161 1154 1154 1154 1159 1159 1159 1154 0 0 0 0 0 0 0 0 0 0 0 0 0 0 0 0 0 0 0 0 0 0 0 0 0 0 0 0 0 0 0
0 0 0 0 865 876 882 886 888 894 895 896 896 895 892 858 0 0 0 0 0 0 0 890 890 859 825 817 817 0 0 0 0 0 0 0 0 0 0 0 0 727 727 727 726 724 719 713 713 713 715 717 718 718 721 728 735 736 740 742 752 760 767 767 767 764 0 0 0 0 0 0 0 583 572 570 570 570 579 601 617 624 624 624 611 611 611 613 618 621 622 622 621 623 623 0 0 0 0 0 0 0 0 0 570 570 571 572 584 585 586 591 591 0 0 0 0 0 0 0 0 0 0 1450 1474 1495 1507 1508 1508 1508 1514 1517 1521 1525 1527 1528 1530 1530 1531 1531 1533 1534 1536 1538 1539 1539 1539 1539 1537 1536 1535 1534 1533 1533 1531 1530 1530 1527 1526 1524 1520 1515 1507 1491 1473 1443 1428 1405 0 0 0 0 0 0 0 832 829 829 828 828 827 826 826 825 825 824 824 823 823 823 823 822 822 822 822 822 821 821 821 821 820 820 819 819 818 818 817 817 817 817 817 816 816 816 816 815 815 815 814 814 814 813 813 812 811 810 810 810 809 809 809 808 808 808 807 807 807 806 806 806 805 805 805 804 803 803 803 802 802 802 801 800 799 799 798 798 797 796 796 796 794 794 793 793 792 792 791 790 789 789 788 788 787 787 786 785 785 785 785 784 784 783 783 783 783 783 783 782 782 782 782 782 782 782 781 781 781 783 783 784 784 785 785 785 785 785 793 799 808 0 0 0 0 0 0 0 0 0 0 0 0 0 0 0 0 0 0 0 1483 1483 1483 1482 1482 1482 1488 1491 1491 1493 1495 1496 1498 1500 1502 1505 1507 1509 1510 1511 1511 1511 1511 1511 1511 1512 1512 1512 1513 1514 1514 1515 1516 1516 1516 1515 1515 1515 1515 1515 1514 1513 1512 1512 1511 1511 1509 1508 1507 1507 1507 1507 1506 1506 1506 1506 1507 1508 1508 1508 1508 1508 1508 1508 1508 1507 1507 1507 1507 1507 1506 1506 1505 1504 1504 1503 1502 1500 1500 1500 1499 1498 1497 1497 1497 1497 1497 1496 1496 1495 1495 1495 1495 1495 1495 1494 1494 1494 1494 1494 1494 1493 1493 1493 1493 1493 1493 1493 1493 1492 1492 1492 1492 1492 1492 1491 1491 1491 1491 1491 1491 1491 1491 1491 1491 1490 1489 1489 1489 1489 1489 1489 1489 1489 1489 1489 1489 1489 1488 1488 1488 1488 1488 1488 1488 1488 1488 1488 1489 1489 1489 1489 1489 1489 1488 1488 1487 1486 1486 1485 1485 1484 1483 1483 1482 1482 1482 1482 1481 1481 1481 1480 1479 1479 1478 1477 1475 1473 1471 1469 1468 1466 1464 1462 1459 1456 1453 1452 1449 1447 1446 1443 1442 1441 1439 1437 1435 1432 1431 1430 1428 1428 1427 1425 1423 1423 1423 1423 1423 1423 1423 1423 1422 1420 1420 1420 1420 1420 1421 1421 1421 1419 1418 1415 1415 1414 1410 1407 1403 1398 1395 1394 1392 1389 1386 1384 1382 1378 1375 1374 1370 1362 1357 1355 1352 1349 1343 1336 1335 1333 1332 1331 1330 1328 1324 1321 1307 1306 1304 1298 1287 1280 1280 1279 1279 1271 1255 1242 1229 1221 1216 1213 1200 1190 1187 1186 1174 1165 1163 1161 1155 1145 0 0 0 0 0 0 0 0 0 0 0 0 0 0 0 0 0 0 0 0 0 0 0 0 0 0 0 0 0 0
0 0 0 849 864 870 873 878 885 892 894 894 894 885 884 0 0 0 0 0 0 0 890 890 890 863 834 834 834 835 0 0 0 0 0 0 0 0 0 0 715 715 715 716 716 716 716 713 713 713 714 716 716 718 721 728 735 736 736 736 739 740 745 745 0 0 0 0 0 0 0 0 572 571 569 570 570 570 578 601 617 621 621 621 605 605 605 609 617 619 621 623 623 630 654 0 0 0 0 0 0 0 0 0 0 0 0 0 600 600 600 600 600 0 0 0 0 0 0 0 0 0 0 1455 1472 1489 1502 1503 1504 1504 1505 1510 1514 1521 1523 1525 1526 1527 1528 1528 1529 1531 1533 1533 1533 1534 1534 1534 1534 1534 1532 1531 1530 1530 1528 1528 1527 1525 1524 1519 1518 1514 1507 1498 1483 1459 1434 1410 0 0 0 0 0 0 0 833 829 828 828 828 826 825 825 824 824 823 823 823 822 822 822 822 822 822 822 821 821 821 820 820 820 820 819 819 818 818 817 816 816 816 816 815 815 815 815 814 814 814 814 813 813 812 812 811 811 810 810 809 809 808 808 807 807 807 806 806 806 805 805 805 805 804 804 804 803 803 802 802 801 801 800 799 799 799 797 797 796 796 796 795 794 794 793 792 792 790 790 789 789 788 788 787 787 786 786 785 785 784 784 784 783 783 783 783 783 783 782 782 782 782 782 782 782 782 783 783 783 783 783 784 784 783 783 785 786 791 800 813 0 0 0 0 0 0 0 0 0 0 0 0 0 0 0 0 0 0 0 0 1489 1489 1489 1484 1484 1484 1488 1491 1491 1493 1495 1496 1498 1500 1501 1504 1507 1509 1510 1510 1510 1510 1510 1510 1510 1510 1510 1511 1511 1511 1512 1512 1513 1514 1514 1514 1514 1513 1513 1513 1513 1512 1511 1510 1509 1509 1509 1508 1507 1506 1505 1504 1504 1504 1504 1505 1506 1506 1506 1507 1507 1507 1507 1507 1506 1506 1505 1505 1505 1505 1505 1504 1503 1503 1502 1501 1499 1499 1498 1497 1497 1496 1495 1495 1494 1494 1494 1494 1494 1494 1494 1494 1493 1493 1492 1492 1492 1492 1492 1492 1492 1492 1492 1492 1492 1491 1491 1492 1492 1492 1492 1491 1491 1491 1491 1490 1490 1490 1490 1489 1489 1490 1490 1490 1490 1488 1488 1488 1488 1487 1487 1487 1487 1486 1486 1486 1486 1486 1486 1486 1486 1487 1487 1487 1487 1487 1487 1487 1487 1488 1488 1488 1488 1487 1486 1486 1485 1485 1484 1483 1483 1482 1481 1481 1481 1481 1481 1481 1481 1481 1481 1480 1479 1478 1477 1477 1475 1473 1470 1469 1468 1466 1463 1461 1458 1455 1453 1451 1448 1447 1444 1443 1441 1440 1439 1437 1434 1432 1431 1430 1428 1427 1425 1424 1422 1420 1420 1420 1422 1422 1422 1422 1421 1419 1418 1418 1418 1420 1420 1420 1420 1419 1418 1417 1416 1415 1410 1407 1403 1398 1394 1391 1390 1390 1387 1384 1381 1375 1371 1369 1365 1361 1356 1355 1352 1349 1343 1340 1335 1331 1327 1323 1323 1320 1318 1312 1307 1306 1304 1298 1287 1280 1280 1279 1279 1271 1255 1242 1233 1226 1221 1218 1213 1205 1204 1197 1179 1166 1163 1162 1158 1157 1156 1155 1155 1150 1139 1136 1109 1089 1080 1064 1041 0 0 0 0 0 0 0 0 0 0 0 0 0 0 0 0 756 753 753
754 0 0 847 859 866 872 877 883 892 894 894 894 868 868 0 0 0 0 0 0 0 896 896 891 871 836 836 836 0 0 0 0 0 0 0 0 0 0 707 707 707 709 709 711 711 711 711 711 711 714 716 716 718 726 732 737 737 737 737 727 727 727 722 0 0 0 0 0 0 0 576 564 564 564 564 566 570 575 584 591 613 613 613 598 598 598 608 615 617 618 622 627 641 668 696 708 722 722 722 0 0 0 0 0 0 0 0 0 631 619 619 0 0 0 0 0 0 0 0 0 0 0 1461 1470 1480 1488 1495 1502 1502 1504 1506 1508 1514 1518 1520 1521 1521 1522 1523 1525 1527 1528 1529 1529 1529 1530 1532 1532 1532 1532 1531 1529 1528 1527 1526 1525 1523 1520 1518 1516 1514 1508 1500 1490 1473 1435 1417 1373 0 0 0 0 0 0 0 829 828 828 827 824 823 823 822 822 822 822 822 822 822 821 821 821 821 821 821 821 820 820 819 819 819 819 818 817 817 816 816 816 816 815 815 815 814 814 814 814 813 813 812 811 811 811 810 810 809 809 808 808 808 807 807 807 806 806 806 805 805 804 804 804 804 803 803 803 802 801 801 801 800 799 799 798 798 797 797 796 795 795 795 794 793 793 792 791 790 790 789 788 788 787 787 786 785 785 785 784 784 783 783 783 783 783 783 783 783 782 782 782 782 782 782 782 782 783 784 784 784 783 783 783 783 783 784 787 801 814 824 0 0 0 0 0 0 0 0 0 0 0 0 0 0 0 0 0 0 0 0 1489 1489 1489 1486 1486 1486 1488 1491 1491 1493 1495 1496 1498 1499 1501 1503 1506 1508 1509 1509 1509 1509 1509 1509 1509 1508 1509 1509 1509 1509 1510 1511 1512 1512 1512 1512 1512 1512 1512 1511 1511 1510 1509 1508 1508 1508 1507 1507 1506 1505 1505 1503 1502 1502 1502 1502 1503 1504 1504 1505 1505 1505 1505 1505 1505 1505 1505 1504 1504 1504 1503 1502 1501 1500 1500 1498 1497 1497 1496 1496 1495 1495 1494 1492 1492 1492 1492 1492 1492 1492 1492 1492 1492 1492 1491 1491 1491 1490 1490 1490 1491 1491 1491 1490 1490 1490 1490 1490 1490 1490 1490 1490 1490 1490 1490 1490 1489 1489 1488 1488 1488 1488 1488 1488 1488 1487 1487 1486 1486 1486 1486 1485 1485 1484 1484 1484 1484 1484 1484 1484 1484 1484 1485 1485 1486 1486 1486 1486 1486 1486 1486 1486 1486 1486 1485 1484 1483 1482 1482 1482 1482 1481 1480 1480 1480 1480 1479 1479 1479 1479 1479 1479 1478 1477 1476 1475 1474 1472 1470 1468 1466 1464 1462 1460 1457 1455 1452 1449 1448 1446 1444 1442 1440 1438 1437 1435 1434 1432 1430 1429 1427 1425 1424 1422 1421 1419 1419 1419 1419 1420 1420 1420 1419 1418 1418 1418 1418 1419 1420 1420 1420 1418 1418 1417 1416 1415 1410 1406 1402 1397 1393 1390 1390 1390 1387 1384 1381 1373 1367 1365 1362 1360 1356 1352 1350 1347 1343 1340 1335 1330 1321 1318 1315 1312 1308 1299 1298 1297 1294 1292 1285 1280 1280 1278 1278 1271 1255 1242 1233 1227 1224 1219 1216 1213 1207 1199 1180 1168 1163 1162 1161 1157 1156 1155 1155 1150 1144 1136 1111 1091 1080 1064 1041 1013 988 977 973 0 0 0 0 0 0 0 0 0 0 801 793 783 767 767
770 770 827 845 853 864 870 876 882 889 889 889 880 860 859 0 0 0 0 0 0 0 896 896 891 863 844 844 844 0 0 0 0 0 0 0 0 0 0 701 701 702 703 703 706 706 706 710 711 711 714 716 718 730 734 739 739 739 737 737 727 719 712 697 690 675 653 632 623 605 598 576 558 547 547 547 551 566 575 584 591 609 609 609 599 599 599 607 607 608 610 622 638 645 668 696 708 722 731 731 731 722 704 0 0 0 0 0 0 0 0 0 0 0 0 0 0 0 0 0 0 0 1456 1463 1469 1471 1476 1485 1494 1500 1500 1500 1502 1504 1510 1514 1514 1516 1518 1519 1519 1521 1522 1524 1525 1527 1529 1531 1531 1531 1530 1528 1527 1527 1526 1524 1523 1520 1518 1516 1515 1513 1508 1500 1490 1474 1450 1419 1391 0 0 0 0 0 0 0 832 828 828 827 824 822 822 821 821 821 821 821 820 820 820 820 820 820 820 820 820 820 819 819 819 818 818 818 817 816 816 815 815 815 815 814 814 814 813 813 813 812 812 812 811 810 810 810 809 808 808 808 807 807 807 806 806 805 805 805 805 805 804 804 803 803 803 802 802 802 801 801 800 799 799 799 797 797 796 796 796 795 794 794 793 793 792 792 790 790 789 788 788 787 787 786 786 785 785 784 784 783 783 783 783 783 783 783 783 783 783 783 783 783 783 783 783 783 783 784 784 784 784 784 784 784 784 787 795 813 829 0 0 0 0 0 0 0 0 0 0 0 0 0 0 0 0 0 0 0 0 1491 1491 1491 1489 1486 1486 1486 1488 1491 1491 1493 1495 1496 1496 1498 1500 1503 1504 1507 1508 1508 1508 1508 1508 1507 1507 1507 1507 1507 1507 1508 1508 1509 1509 1511 1511 1511 1511 1510 1510 1510 1510 1510 1509 1508 1508 1507 1506 1506 1505 1504 1503 1502 1501 1500 1500 1500 1500 1501 1502 1502 1502 1502 1503 1503 1503 1503 1503 1502 1502 1502 1501 1500 1498 1497 1497 1496 1495 1495 1494 1493 1493 1493 1492 1491 1490 1490 1490 1490 1490 1490 1490 1489 1489 1489 1489 1489 1489 1489 1489 1489 1489 1489 1489 1488 1488 1488 1488 1488 1489 1489 1490 1490 1489 1489 1489 1489 1489 1487 1487 1487 1487 1487 1487 1487 1486 1486 1485 1485 1485 1485 1485 1484 1482 1482 1482 1482 1481 1481 1481 1482 1482 1482 1482 1483 1483 1484 1484 1484 1485 1485 1485 1485 1484 1484 1484 1483 1482 1480 1480 1480 1480 1479 1479 1478 1478 1478 1478 1478 1477 1477 1476 1476 1476 1474 1473 1472 1471 1470 1468 1467 1465 1463 1461 1458 1456 1453 1451 1448 1446 1445 1443 1441 1439 1438 1436 1435 1432 1430 1428 1427 1425 1423 1422 1420 1418 1417 1417 1417 1417 1417 1417 1417 1417 1417 1417 1417 1417 1418 1418 1418 1418 1418 1417 1417 1416 1415 1408 1404 1400 1395 1392 1390 1389 1389 1387 1383 1377 1370 1364 1363 1361 1357 1354 1349 1346 1343 1343 1340 1335 1330 1319 1312 1308 1304 1301 1297 1292 1289 1288 1286 1281 1278 1277 1276 1276 1270 1252 1240 1233 1227 1224 1219 1216 1213 1208 1199 1183 1172 1163 1162 1161 1157 1156 1155 1155 1150 1144 1136 1111 1091 1080 1064 1041 1014 991 978 978 978 963 944 924 915 908 905 897 862 841 825 813 790 771 771
770 770 811 834 846 856 864 869 874 876 876 876 866 851 822 809 0 0 0 0 0 0 897 897 893 859 850 850 0 0 0 0 0 0 0 0 0 0 0 683 683 695 696 697 697 697 701 710 711 714 720 722 726 731 735 739 739 739 737 735 723 713 698 678 655 645 632 625 623 605 598 576 558 547 547 547 551 566 575 584 591 609 609 609 599 599 599 600 601 608 610 623 640 645 670 686 708 722 731 734 734 734 728 728 0 0 0 0 0 0 0 0 0 0 0 0 0 0 0 0 0 0 1456 1463 1467 1471 1472 1478 1485 1488 1491 1493 1495 1498 1501 1502 1506 1509 1512 1514 1515 1515 1516 1518 1520 1523 1526 1527 1528 1528 1528 1527 1526 1525 1524 1522 1520 1518 1517 1516 1514 1512 1508 1500 1490 1475 1453 1423 1411 1393 0 0 0 0 0 0 0 828 827 826 824 822 821 821 820 820 820 820 820 819 819 819 819 819 819 819 819 819 819 819 818 818 817 817 817 816 815 815 815 814 814 813 813 813 813 812 812 812 812 811 811 810 810 809 808 808 808 807 807 807 806 806 806 805 805 805 804 804 804 803 803 803 802 801 801 800 800 800 799 798 798 797 796 796 796 795 795 794 794 793 793 792 791 791 790 789 789 788 787 787 786 786 786 785 784 783 783 783 783 783 783 783 783 783 783 783 783 784 784 784 783 783 783 783 783 784 784 784 785 784 784 787 792 798 813 0 0 0 0 0 0 0 0 0 0 0 0 0 0 0 0 0 0 0 0 0 0 1490 1490 1490 1489 1486 1486 1486 1488 1491 1491 1492 1493 1494 1495 1497 1499 1500 1502 1504 1506 1506 1506 1506 1506 1505 1505 1505 1506 1506 1506 1506 1506 1507 1507 1509 1509 1509 1509 1509 1509 1509 1509 1508 1508 1507 1507 1506 1506 1505 1504 1503 1502 1500 1499 1499 1498 1498 1498 1499 1499 1500 1500 1501 1501 1501 1501 1501 1501 1500 1500 1499 1498 1497 1496 1496 1494 1494 1493 1493 1492 1491 1491 1490 1490 1489 1488 1488 1488 1488 1488 1488 1488 1488 1488 1488 1488 1488 1487 1487 1487 1487 1487 1487 1487 1487 1487 1487 1487 1488 1488 1488 1488 1488 1488 1488 1488 1488 1487 1487 1487 1486 1486 1486 1485 1485 1485 1485 1485 1484 1484 1483 1483 1481 1480 1479 1479 1479 1479 1479 1479 1479 1479 1479 1480 1480 1481 1481 1482 1482 1482 1483 1483 1483 1482 1482 1482 1481 1480 1479 1479 1478 1477 1477 1477 1476 1476 1476 1475 1475 1475 1475 1474 1474 1473 1472 1471 1470 1468 1467 1466 1465 1464 1462 1459 1457 1454 1452 1449 1447 1445 1444 1443 1440 1438 1437 1435 1433 1431 1429 1427 1425 1423 1421 1419 1418 1416 1415 1415 1415 1415 1414 1414 1414 1414 1414 1414 1415 1416 1417 1418 1418 1418 1418 1417 1417 1416 1413 1407 1403 1399 1395 1391 1389 1389 1387 1384 1379 1375 1369 1364 1362 1359 1356 1351 1347 1343 1341 1338 1336 1332 1327 1317 1309 1307 1302 1301 1297 1292 1286 1282 1280 1277 1274 1272 1270 1267 1258 1246 1235 1232 1227 1224 1219 1216 1213 1208 1199 1188 1180 1169 1164 1161 1156 1151 1150 1147 1146 1144 1135 1111 1091 1071 1052 1039 1019 996 986 984 978 963 944 934 923 919 915 903 890 862 844 825 802 779 779
777 777 804 826 841 852 857 863 864 864 864 862 854 832 815 806 758 0 0 0 0 897 897 897 893 869 869 0 0 0 0 0 0 0 0 0 0 0 678 678 678 683 686 687 690 693 701 710 719 723 727 731 738 743 744 744 744 735 727 720 720 703 685 641 629 629 625 625 625 623 614 587 558 547 547 547 551 566 0 0 613 613 609 609 602 602 601 601 601 608 610 623 642 655 671 676 694 709 722 734 738 745 750 752 755 755 755 0 0 0 0 0 0 0 0 0 0 0 0 0 0 0 1456 1463 1465 1469 1472 1474 1479 1481 1483 1487 1491 1492 1492 1493 1495 1498 1502 1506 1506 1507 1508 1509 1512 1516 1520 1524 1524 1524 1524 1524 1524 1523 1521 1519 1519 1517 1515 1513 1510 1508 1506 1499 1490 1475 1453 1431 1412 1400 0 0 0 0 0 0 0 836 828 827 823 822 821 820 819 819 819 819 819 819 819 819 819 819 819 819 819 818 818 818 818 818 817 817 816 816 815 815 814 814 813 813 812 812 812 812 811 811 811 810 810 810 809 808 808 808 807 806 806 805 805 805 805 805 804 804 804 804 803 803 803 802 802 801 801 800 799 799 798 798 797 796 796 795 795 794 794 793 793 793 793 792 791 791 790 789 788 788 787 786 786 786 785 784 783 782 782 782 782 782 782 782 783 783 783 783 784 784 784 784 783 783 783 783 783 784 784 784 785 785 787 802 806 811 0 0 0 0 0 0 0 0 0 0 0 0 0 0 0 0 0 0 0 0 0 0 0 1489 1489 1489 1488 1485 1485 1485 1486 1489 1489 1491 1492 1493 1494 1495 1497 1499 1501 1502 1504 1504 1504 1504 1504 1504 1503 1503 1503 1503 1504 1504 1504 1505 1506 1507 1507 1507 1507 1507 1507 1506 1506 1507 1507 1506 1506 1505 1504 1503 1503 1502 1500 1498 1497 1497 1497 1497 1498 1498 1498 1498 1498 1498 1498 1498 1499 1498 1498 1498 1498 1497 1496 1495 1494 1494 1492 1491 1491 1491 1489 1489 1489 1487 1487 1487 1486 1486 1485 1485 1485 1485 1485 1485 1485 1485 1486 1486 1486 1486 1486 1486 1486 1486 1486 1485 1485 1485 1486 1487 1487 1487 1487 1487 1487 1487 1487 1487 1486 1486 1485 1484 1484 1484 1484 1483 1483 1483 1482 1482 1482 1481 1481 1479 1478 1477 1477 1477 1477 1477 1477 1476 1476 1476 1476 1477 1478 1478 1479 1480 1480 1480 1480 1480 1480 1480 1479 1478 1478 1476 1476 1475 1475 1475 1474 1474 1473 1473 1473 1473 1472 1471 1471 1470 1470 1469 1469 1468 1466 1465 1464 1464 1462 1460 1458 1455 1453 1451 1448 1446 1445 1442 1442 1439 1438 1436 1434 1432 1430 1427 1425 1423 1422 1420 1418 1416 1414 1414 1414 1413 1413 1413 1412 1412 1412 1412 1412 1413 1414 1416 1416 1416 1416 1416 1415 1414 1414 1411 1406 1403 1399 1394 1391 1388 1386 1383 1379 1375 1374 1368 1363 1362 1358 1354 1351 1347 1343 1339 1336 1334 1330 1324 1316 1309 1307 1302 1301 1296 1292 1285 1279 1274 1271 1268 1263 1260 1257 1248 1239 1232 1231 1227 1223 1219 1216 1213 1207 1199 1189 1182 1171 1164 1159 1150 1141 1136 1135 1132 1126 1114 1094 1067 1046 1044 1038 1025 1011 999 984 978 963 944 938 932 928 925 904 890 871 850 828 807 779 779
778 778 802 825 838 850 853 855 856 857 857 857 850 832 815 806 0 0 0 0 0 899 899 899 893 893 893 0 0 0 0 0 0 0 0 0 0 0 672 672 672 674 680 683 690 693 701 717 728 736 739 744 750 750 750 750 743 735 710 0 0 0 0 625 625 625 625 636 636 636 614 0 0 556 556 556 558 0 0 0 644 645 645 644 638 634 625 610 610 610 627 632 642 656 671 676 687 698 709 721 738 745 750 774 775 775 775 770 0 0 0 0 0 0 0 0 0 0 0 0 0 1442 1454 1459 1461 1466 1469 1474 1475 1477 1478 1479 1481 1483 1483 1483 1483 1484 1488 1495 1496 1503 1504 1504 1504 1504 1508 1515 1517 1517 1518 1518 1518 1519 1519 1519 1517 1516 1514 1510 1506 1504 1504 1499 1490 1475 1455 1433 1412 1400 0 0 0 0 0 0 0 0 836 828 823 821 820 818 818 818 818 818 818 818 818 818 818 818 818 818 818 818 818 818 818 817 817 816 816 815 815 814 814 813 813 812 812 812 812 811 811 811 810 810 809 809 809 808 808 807 807 806 805 805 805 804 804 804 803 803 803 803 802 802 802 802 800 800 800 800 798 798 797 796 796 795 795 795 795 794 793 793 792 792 792 791 791 790 789 789 788 787 787 786 785 785 784 783 783 782 782 782 782 782 782 782 782 782 783 784 784 784 784 784 783 783 783 783 783 785 785 785 785 794 804 804 808 831 0 0 0 0 0 0 0 0 0 0 0 0 0 0 0 0 0 0 0 0 0 0 0 1482 1484 1484 1482 1482 1482 1482 1484 1487 1488 1489 1490 1490 1492 1494 1495 1497 1499 1500 1501 1502 1502 1502 1502 1502 1502 1502 1502 1502 1502 1502 1502 1503 1503 1504 1504 1504 1504 1504 1503 1503 1503 1505 1505 1505 1504 1504 1503 1502 1501 1501 1500 1498 1496 1496 1496 1496 1496 1496 1496 1496 1496 1496 1496 1496 1496 1497 1497 1497 1496 1495 1494 1493 1492 1490 1489 1489 1489 1488 1488 1487 1486 1486 1485 1484 1483 1483 1483 1483 1482 1482 1483 1483 1483 1483 1483 1484 1484 1484 1484 1484 1484 1484 1484 1484 1484 1484 1485 1485 1486 1486 1486 1486 1486 1486 1486 1485 1485 1484 1484 1483 1483 1482 1482 1482 1481 1481 1480 1479 1479 1479 1478 1477 1476 1476 1476 1476 1475 1475 1474 1474 1474 1474 1474 1474 1475 1476 1476 1476 1476 1477 1477 1477 1477 1477 1477 1476 1475 1474 1474 1473 1473 1472 1472 1471 1471 1470 1470 1470 1469 1469 1469 1468 1468 1466 1466 1465 1464 1463 1463 1462 1461 1459 1456 1454 1451 1449 1447 1446 1444 1442 1441 1438 1437 1435 1432 1431 1429 1426 1424 1421 1419 1418 1416 1413 1412 1412 1411 1410 1410 1410 1410 1410 1410 1410 1411 1411 1411 1412 1414 1414 1414 1414 1413 1411 1410 1409 1406 1402 1398 1393 1390 1386 1384 1379 1377 1374 1371 1368 1363 1361 1356 1353 1348 1346 1341 1338 1335 1334 1330 1321 1316 1309 1307 1302 1301 1296 1290 1284 1278 1272 1266 1261 1257 1255 1252 1244 1236 1229 1226 1225 1223 1219 1215 1211 1207 1199 1189 1182 1171 1164 1154 1141 1133 1130 1125 1122 1114 1103 1078 1054 1033 1029 1029 1025 1011 999 984 975 960 949 939 933 929 925 905 890 871 850 828 807 779 779
780 780 801 821 837 848 852 852 855 856 856 856 849 832 815 806 806 0 0 0 893 893 893 892 869 869 869 0 0 0 0 0 0 0 0 0 0 668 667 666 666 667 674 683 690 693 706 724 739 755 760 762 768 768 768 753 741 723 708 0 0 0 625 618 618 625 658 658 658 636 0 0 0 0 0 0 0 0 0 0 671 671 671 669 666 664 644 623 623 623 629 633 662 665 673 676 683 690 698 704 724 745 750 774 777 783 783 782 777 771 0 0 0 0 0 0 0 0 0 0 0 1447 1453 1456 1459 1463 1467 1469 1472 1473 1473 1473 1473 1473 1473 1472 1472 1472 1476 1486 1492 1492 1492 1492 1492 1492 1494 1504 1508 1510 1510 1510 1512 1515 1515 1515 1515 1513 1511 1508 1502 1501 1500 1499 1492 1479 1463 1439 1417 1400 1380 0 0 0 0 0 0 0 844 829 823 821 820 818 817 817 817 817 817 817 817 817 817 818 818 818 818 818 817 817 817 817 816 816 815 815 814 814 814 813 812 812 812 811 811 811 810 809 809 808 808 808 808 807 807 807 806 805 805 804 804 804 803 803 803 802 802 802 802 801 801 800 800 799 799 799 798 797 797 796 794 794 794 794 794 793 792 792 792 791 791 791 790 789 788 788 787 786 786 785 785 784 784 783 782 782 782 782 782 782 782 782 782 782 783 784 785 785 785 784 783 783 783 783 785 785 785 787 795 805 809 818 827 0 0 0 0 0 0 0 1120 1143 1152 1165 0 0 0 0 0 0 0 0 0 0 0 0 1471 1478 1480 1480 1480 1480 1481 1481 1482 1484 1484 1487 1488 1489 1490 1491 1494 1496 1497 1499 1500 1500 1500 1499 1499 1499 1499 1499 1499 1499 1499 1499 1500 1500 1501 1501 1501 1501 1501 1501 1501 1501 1502 1503 1503 1503 1503 1502 1502 1501 1500 1500 1498 1497 1496 1495 1495 1494 1494 1494 1494 1494 1494 1494 1494 1494 1494 1494 1494 1494 1494 1493 1492 1491 1490 1488 1486 1486 1486 1486 1486 1485 1485 1484 1484 1483 1482 1481 1481 1481 1481 1481 1481 1481 1481 1481 1482 1482 1482 1482 1482 1482 1482 1482 1482 1482 1482 1482 1482 1483 1483 1483 1484 1484 1484 1484 1484 1484 1484 1483 1482 1482 1481 1480 1480 1479 1479 1478 1478 1478 1477 1476 1476 1475 1475 1473 1473 1473 1473 1473 1472 1472 1471 1470 1470 1470 1471 1473 1473 1473 1473 1473 1473 1473 1473 1474 1474 1474 1474 1472 1471 1471 1471 1471 1470 1470 1469 1468 1467 1467 1467 1467 1467 1466 1465 1464 1463 1462 1461 1461 1460 1460 1458 1456 1453 1451 1450 1448 1446 1445 1443 1442 1440 1438 1435 1433 1431 1429 1427 1424 1422 1420 1418 1416 1413 1412 1410 1409 1408 1406 1406 1406 1407 1408 1408 1408 1408 1408 1408 1409 1412 1412 1412 1411 1409 1408 1407 1406 1404 1401 1396 1392 1387 1384 1380 1378 1374 1370 1367 1365 1363 1359 1356 1351 1347 1343 1339 1336 1335 1334 1330 1318 1314 1309 1307 1305 1301 1295 1287 1281 1275 1267 1261 1257 1255 1252 1249 1242 1234 1229 1225 1222 1221 1216 1210 1206 1201 1197 1188 1180 1171 1161 1145 1137 1130 1127 1123 1119 1111 1096 1073 1047 1031 1027 1027 1025 1011 999 984 972 958 949 940 936 936 926 905 878 871 850 828 807 779 779
780 780 796 819 836 843 847 850 852 854 854 854 849 837 835 835 835 851 869 890 894 894 894 885 869 869 869 908 0 0 0 0 0 0 0 0 0 662 661 661 661 665 674 683 691 704 707 731 757 774 784 785 785 785 783 760 741 719 0 0 0 634 625 625 625 658 658 658 658 0 0 0 0 0 0 0 0 0 0 684 694 695 695 694 689 677 651 651 651 0 663 667 675 675 676 677 683 690 698 704 714 727 743 774 777 783 783 783 783 783 784 0 0 0 0 0 0 0 0 0 1445 1451 1452 1455 1457 1460 1463 1465 1466 1467 1467 1467 1467 1466 1464 1464 1464 1465 1469 1475 1479 1479 1479 1479 1479 1479 1480 1490 1499 1499 1501 1502 1502 1505 1509 1510 1510 1510 1508 1504 1501 1499 1498 1497 1492 1487 1471 1449 1422 1400 1387 0 0 0 0 0 0 0 0 830 823 821 820 818 817 817 817 816 816 816 816 816 816 817 817 817 817 817 817 817 817 817 816 816 815 815 814 814 813 812 811 811 811 810 810 810 809 809 808 808 808 807 807 807 806 806 806 805 804 803 803 803 802 802 802 802 801 801 801 801 800 800 799 799 798 798 797 796 795 794 794 793 793 793 792 792 792 792 791 790 790 790 789 789 788 788 787 786 786 785 784 784 783 783 782 781 781 781 781 781 781 781 782 782 784 784 785 785 785 784 784 784 784 784 785 786 787 790 799 806 816 835 0 0 0 0 0 0 0 1110 1130 1141 1145 1152 1155 0 0 0 0 0 0 0 0 0 0 0 1478 1478 1479 1479 1478 1478 1478 1478 1479 1481 1483 1485 1486 1488 1489 1490 1492 1493 1495 1497 1497 1497 1497 1497 1497 1497 1497 1497 1497 1497 1497 1497 1497 1497 1497 1498 1498 1499 1499 1499 1499 1499 1500 1501 1501 1501 1501 1501 1500 1500 1499 1499 1498 1496 1496 1494 1493 1493 1492 1492 1492 1492 1492 1492 1492 1492 1492 1492 1492 1492 1492 1490 1490 1488 1486 1486 1484 1484 1484 1484 1484 1484 1483 1483 1482 1481 1480 1480 1479 1479 1479 1479 1479 1479 1479 1479 1479 1479 1479 1479 1480 1480 1480 1480 1479 1479 1479 1480 1480 1481 1481 1482 1482 1482 1482 1481 1481 1481 1481 1481 1480 1480 1480 1479 1479 1478 1477 1477 1476 1475 1475 1474 1474 1473 1473 1472 1471 1471 1471 1471 1471 1471 1470 1469 1469 1469 1469 1470 1470 1470 1470 1470 1470 1470 1471 1471 1471 1471 1471 1470 1469 1468 1468 1468 1468 1468 1467 1466 1466 1465 1465 1465 1465 1464 1462 1461 1460 1459 1459 1459 1459 1457 1455 1454 1451 1449 1448 1446 1445 1443 1442 1440 1439 1436 1434 1431 1430 1427 1425 1423 1421 1418 1415 1411 1410 1409 1408 1408 1405 1402 1402 1402 1403 1403 1404 1405 1405 1405 1406 1407 1408 1408 1408 1408 1407 1406 1405 1405 1403 1400 1395 1390 1386 1382 1378 1376 1372 1366 1363 1360 1358 1356 1353 1350 1346 1341 1336 1334 1334 1332 1321 1318 1313 1309 1307 1305 1301 1294 1284 1277 1271 1265 1259 1256 1252 1249 1246 1240 1234 1229 1225 1222 1218 1214 1205 1197 1191 1186 1183 1174 1162 1141 1132 1128 1124 1123 1119 1115 1105 1088 1066 1045 1031 1026 1022 1016 999 984 975 967 958 947 944 940 936 926 904 877 855 831 805 786 772 772
780 780 786 807 824 834 839 842 844 845 845 844 844 844 844 849 857 858 869 890 890 890 890 878 872 872 872 913 928 0 0 0 0 0 0 0 653 653 653 658 661 665 674 685 694 705 710 731 767 792 801 805 807 807 807 776 0 0 0 0 623 622 622 622 660 663 663 663 0 0 0 0 0 0 0 0 0 0 0 699 713 716 716 713 707 689 661 661 661 700 700 700 696 684 683 683 683 690 698 704 711 714 715 737 764 777 777 783 784 784 786 0 0 0 0 0 0 0 0 1442 1448 1451 1452 1453 1456 1458 1461 1462 1462 1462 1462 1462 1462 1460 1460 1460 1460 1460 1461 1463 1464 1464 1464 1464 1464 1465 1465 1471 1477 1483 1487 1487 1489 1494 1498 1503 1503 1503 1503 1502 1498 1496 1496 1495 1492 1487 1476 1457 1432 1403 1394 0 0 0 0 0 0 0 0 832 823 822 819 817 816 816 816 816 816 816 816 816 816 816 816 816 816 816 816 816 816 815 815 815 815 814 814 813 813 812 811 810 810 810 810 809 808 808 808 808 807 807 806 806 805 805 805 804 804 803 803 802 802 802 801 801 801 800 800 800 799 799 798 798 797 797 796 795 794 794 793 793 792 792 791 791 791 791 790 790 789 789 788 787 787 787 786 786 785 784 783 782 782 782 781 781 780 780 780 780 780 781 782 782 784 785 785 785 785 784 784 784 789 796 797 797 800 800 800 813 0 0 0 0 0 0 0 0 1091 1118 1130 1138 1138 1138 1132 1132 1132 0 0 0 0 0 0 0 0 0 1476 1477 1476 1476 1476 1477 1477 1477 1478 1479 1480 1481 1484 1485 1486 1488 1490 1490 1492 1493 1494 1495 1495 1495 1495 1494 1494 1494 1494 1495 1495 1495 1495 1495 1495 1495 1495 1496 1496 1497 1497 1497 1497 1498 1499 1500 1500 1500 1499 1498 1498 1497 1497 1496 1494 1493 1492 1491 1490 1490 1490 1490 1490 1490 1490 1490 1490 1490 1490 1489 1489 1488 1488 1486 1486 1484 1484 1483 1483 1483 1483 1482 1482 1481 1481 1479 1479 1478 1477 1477 1477 1477 1477 1477 1477 1477 1477 1477 1477 1477 1477 1477 1477 1477 1477 1477 1477 1477 1478 1478 1478 1479 1479 1479 1479 1479 1479 1479 1479 1479 1478 1478 1477 1477 1476 1476 1475 1474 1474 1473 1472 1472 1472 1472 1470 1470 1469 1469 1469 1469 1469 1469 1468 1468 1468 1468 1468 1468 1468 1468 1468 1468 1467 1467 1467 1468 1468 1468 1468 1468 1466 1465 1465 1465 1465 1465 1465 1465 1464 1464 1464 1464 1464 1462 1461 1459 1458 1458 1457 1457 1456 1455 1453 1452 1450 1449 1447 1445 1444 1442 1441 1438 1438 1435 1433 1430 1428 1426 1423 1421 1419 1416 1413 1409 1409 1408 1406 1405 1403 1399 1399 1399 1400 1400 1402 1403 1403 1404 1405 1406 1406 1406 1406 1406 1405 1405 1404 1403 1400 1396 1392 1387 1384 1380 1378 1375 1372 1365 1361 1358 1354 1352 1349 1346 1343 1337 1334 1332 1330 1324 1319 1314 1312 1309 1307 1305 1300 1293 1284 1273 1266 1260 1256 1253 1249 1246 1243 1239 1232 1229 1225 1222 1218 1209 1202 1192 1181 1170 1165 1156 1137 1128 1120 1115 1111 1110 1106 1104 1093 1074 1056 1040 1031 1024 1012 996 982 971 963 957 953 947 944 940 936 925 904 877 833 804 789 774 772 772
778 778 786 795 812 825 835 839 839 839 840 843 843 844 847 849 857 858 869 889 889 889 885 863 863 863 877 917 917 917 0 0 0 0 0 643 643 643 651 658 663 669 679 693 698 708 737 0 0 0 0 0 0 0 0 0 0 0 0 0 623 623 623 623 662 662 0 0 0 0 565 557 557 0 0 0 0 0 0 724 732 732 732 727 711 697 685 685 685 724 725 725 725 709 690 690 690 699 705 711 711 712 712 712 740 756 765 772 784 784 790 0 0 0 0 0 0 0 0 1442 1448 1450 1451 1451 1454 1456 1457 1458 1458 1458 1458 1458 1458 1456 1454 1454 1452 1452 1452 1452 1455 1456 1457 1457 1457 1458 1459 1461 1463 1466 1469 1473 1477 1483 1489 1493 1495 1499 1499 1499 1496 1495 1493 1493 1491 1487 1476 1461 1443 1420 1401 0 0 0 0 0 0 0 0 0 826 823 819 815 815 815 816 816 816 815 815 815 815 815 816 816 816 816 816 815 815 815 815 815 814 813 812 812 812 811 811 810 809 809 808 808 807 807 807 807 806 806 806 805 805 804 804 804 803 803 802 802 802 801 801 800 800 800 800 799 798 798 797 797 796 796 795 794 794 792 792 792 792 791 791 791 790 790 789 789 789 788 788 787 787 786 786 785 784 783 783 782 782 781 780 780 780 780 780 780 780 781 782 783 785 785 786 786 786 787 787 788 793 812 812 812 818 818 818 0 0 0 0 0 0 0 0 1098 1108 1120 1130 1130 1130 1121 1121 1121 1122 1138 1155 1175 0 0 0 0 0 1476 1476 1476 1476 1476 1476 1476 1476 1477 1477 1478 1478 1480 1481 1483 1485 1486 1487 1488 1489 1491 1492 1492 1493 1493 1493 1493 1492 1492 1492 1493 1493 1493 1493 1493 1494 1494 1494 1494 1494 1494 1494 1494 1494 1496 1497 1497 1498 1498 1498 1497 1496 1496 1495 1495 1493 1492 1491 1490 1490 1489 1489 1489 1489 1489 1489 1489 1489 1489 1488 1488 1486 1486 1486 1486 1485 1484 1483 1482 1482 1481 1481 1481 1480 1479 1478 1478 1477 1476 1475 1475 1475 1476 1476 1476 1475 1475 1475 1475 1475 1475 1475 1474 1474 1474 1474 1475 1475 1476 1476 1476 1476 1476 1476 1476 1477 1477 1477 1477 1477 1476 1476 1476 1476 1474 1474 1474 1473 1473 1472 1471 1470 1469 1469 1469 1468 1467 1467 1467 1467 1467 1467 1467 1466 1466 1466 1466 1466 1466 1466 1466 1466 1465 1465 1465 1465 1465 1465 1465 1465 1465 1465 1463 1463 1463 1462 1462 1462 1462 1462 1461 1461 1461 1461 1461 1460 1458 1457 1457 1457 1456 1454 1452 1450 1450 1449 1447 1446 1444 1443 1441 1439 1436 1435 1433 1431 1429 1427 1424 1421 1419 1417 1414 1410 1408 1406 1405 1403 1402 1400 1398 1397 1397 1397 1397 1399 1400 1401 1402 1403 1404 1404 1404 1403 1403 1403 1402 1402 1400 1397 1393 1389 1384 1382 1379 1377 1374 1369 1365 1361 1358 1354 1350 1346 1342 1339 1334 1331 1329 1324 1321 1315 1312 1307 1302 1302 1300 1296 1290 1282 1272 1263 1257 1251 1249 1246 1243 1240 1238 1232 1229 1225 1222 1217 1207 1197 1188 1181 1169 1156 1135 1123 1113 1107 1101 1099 1095 1092 1086 1074 1059 1044 1030 1023 1016 1003 982 968 958 949 947 945 944 940 940 930 925 905 878 833 804 789 774 772 772
775 775 785 789 803 818 829 834 838 838 838 841 843 845 847 849 857 858 861 877 877 877 868 844 844 844 872 907 907 907 0 0 0 0 0 641 641 642 651 659 665 673 685 703 717 0 0 0 0 0 0 0 0 0 0 0 0 0 0 648 648 648 649 650 669 669 0 0 0 554 550 550 554 561 0 0 0 0 736 737 737 737 737 731 712 698 698 698 709 733 740 740 740 728 715 703 703 703 705 711 711 712 712 712 730 744 754 766 780 783 792 0 0 0 0 0 0 1422 1424 1442 1447 1448 1448 1448 1450 1452 1454 1454 1454 1454 1454 1453 1453 1452 1451 1447 1446 1446 1446 1447 1449 1450 1450 1450 1451 1451 1453 1454 1455 1459 1462 1464 1467 1471 1480 1485 1488 1490 1493 1494 1494 1494 1492 1491 1488 1484 1476 1463 1448 1429 1406 1388 0 0 0 0 0 0 0 0 835 826 819 819 817 816 816 816 816 815 814 814 814 815 815 815 815 815 815 814 814 814 814 813 813 812 812 811 810 810 810 809 809 808 808 807 807 807 807 806 806 805 805 805 804 803 803 803 803 802 802 801 801 800 800 800 800 799 799 798 798 797 797 796 795 795 794 793 793 792 791 791 791 790 790 789 789 789 789 788 788 788 787 787 786 786 785 785 784 783 783 781 781 780 780 780 780 780 780 780 780 781 782 783 786 786 786 786 786 787 789 789 796 829 829 829 829 829 0 0 0 0 0 0 0 0 0 1122 1123 1124 1130 1130 1130 1121 1121 1121 1122 1138 1155 1175 0 0 0 0 0 1476 1476 1476 1475 1472 1472 1472 1474 1476 1477 1477 1477 1478 1480 1481 1483 1485 1486 1487 1487 1488 1490 1492 1492 1492 1491 1490 1490 1490 1491 1492 1492 1492 1492 1492 1492 1492 1493 1493 1492 1492 1492 1492 1492 1494 1494 1495 1495 1495 1495 1494 1494 1493 1492 1492 1491 1490 1489 1489 1489 1488 1488 1488 1487 1487 1487 1487 1487 1487 1486 1486 1485 1485 1485 1484 1484 1482 1482 1481 1480 1480 1480 1480 1479 1478 1477 1477 1475 1475 1474 1473 1473 1473 1473 1473 1473 1473 1473 1473 1473 1473 1473 1472 1472 1472 1472 1473 1473 1474 1474 1474 1474 1474 1474 1474 1474 1474 1474 1474 1474 1474 1474 1474 1474 1472 1471 1471 1471 1470 1468 1468 1467 1467 1466 1466 1466 1465 1465 1465 1465 1465 1465 1465 1465 1464 1464 1464 1464 1464 1464 1464 1463 1463 1463 1464 1464 1464 1464 1464 1464 1464 1464 1462 1462 1461 1460 1460 1460 1460 1460 1459 1459 1459 1459 1458 1457 1457 1456 1455 1455 1454 1452 1451 1449 1449 1448 1447 1445 1443 1442 1439 1437 1434 1433 1431 1429 1428 1426 1422 1419 1416 1414 1412 1409 1406 1404 1401 1399 1398 1397 1397 1395 1395 1395 1395 1396 1397 1398 1398 1401 1402 1402 1402 1402 1400 1400 1400 1400 1399 1394 1390 1386 1382 1379 1376 1374 1371 1367 1363 1360 1358 1352 1348 1345 1340 1334 1330 1327 1325 1321 1317 1312 1308 1299 1293 1292 1291 1289 1283 1278 1270 1262 1252 1249 1246 1245 1242 1239 1234 1231 1229 1225 1222 1215 1203 1193 1187 1179 1167 1148 1130 1114 1107 1105 1101 1098 1093 1086 1077 1061 1047 1031 1022 1017 1005 989 972 956 946 943 939 937 934 931 929 929 925 910 879 833 804 789 774 772 772
774 774 783 789 799 809 818 829 833 836 838 840 842 844 844 845 845 845 847 856 856 856 828 828 828 844 871 880 880 0 0 0 0 0 0 635 635 642 651 659 665 673 685 703 0 0 0 0 0 0 0 0 0 0 0 0 0 0 0 655 655 655 680 680 680 0 0 0 0 0 545 554 555 0 0 0 0 0 750 750 750 746 738 731 717 704 704 704 716 734 751 751 751 748 744 0 0 742 742 741 735 728 728 728 730 739 746 759 773 781 0 0 0 0 0 0 1409 1422 1424 1439 1441 1443 1445 1445 1447 1449 1449 1450 1450 1450 1450 1450 1449 1448 1446 1444 1443 1442 1442 1442 1444 1445 1445 1445 1445 1445 1445 1445 1446 1449 1452 1452 1453 1457 1470 1479 1482 1484 1486 1489 1489 1489 1489 1488 1485 1481 1474 1465 1452 1438 1416 1396 1370 0 0 0 0 0 0 0 836 827 819 818 817 816 816 816 815 815 814 814 814 814 815 815 815 814 814 814 814 813 813 813 812 812 812 811 810 809 809 809 808 807 807 806 806 806 805 805 805 805 805 804 803 803 803 803 802 802 801 800 800 800 799 799 799 798 797 797 796 796 796 795 795 794 794 793 791 791 791 790 790 790 790 789 788 788 787 787 787 787 786 785 785 785 784 784 783 782 781 781 781 780 780 779 779 779 779 780 780 781 782 783 788 788 788 788 788 790 790 791 800 833 848 851 0 0 0 0 0 0 0 0 0 0 0 1149 1139 1135 1133 1130 1130 1121 1121 1121 1132 1148 1155 1175 0 0 0 0 0 1478 1478 1469 1468 1468 1468 1470 1470 1472 1473 1474 1474 1475 1478 1480 1482 1484 1484 1485 1486 1488 1488 1489 1489 1489 1489 1489 1489 1489 1489 1489 1489 1489 1489 1489 1489 1490 1490 1490 1490 1490 1490 1490 1491 1491 1493 1494 1494 1494 1493 1492 1492 1492 1491 1490 1489 1488 1488 1488 1487 1487 1487 1487 1487 1486 1486 1485 1485 1485 1484 1484 1483 1483 1483 1482 1482 1481 1481 1479 1479 1479 1478 1478 1478 1477 1476 1474 1474 1473 1472 1472 1471 1471 1471 1471 1471 1471 1471 1471 1471 1471 1471 1471 1471 1471 1471 1471 1471 1471 1471 1471 1471 1471 1471 1472 1472 1472 1472 1472 1472 1472 1472 1471 1470 1469 1469 1469 1467 1466 1466 1465 1464 1464 1464 1463 1463 1463 1463 1463 1463 1464 1464 1464 1464 1462 1462 1462 1462 1462 1462 1462 1462 1462 1461 1461 1461 1461 1461 1461 1461 1461 1461 1461 1459 1459 1458 1458 1458 1457 1457 1457 1457 1456 1456 1456 1455 1455 1453 1453 1453 1453 1451 1450 1448 1447 1447 1444 1443 1441 1439 1437 1435 1432 1431 1429 1428 1427 1425 1421 1417 1415 1413 1411 1407 1404 1401 1397 1396 1395 1394 1394 1393 1393 1394 1394 1394 1394 1395 1395 1396 1398 1398 1398 1398 1398 1398 1398 1398 1397 1393 1388 1384 1381 1377 1374 1372 1368 1365 1361 1358 1352 1348 1346 1341 1334 1328 1325 1323 1321 1316 1311 1308 1302 1292 1286 1283 1282 1279 1274 1272 1265 1260 1249 1245 1243 1243 1241 1234 1230 1227 1223 1220 1215 1211 1201 1190 1179 1170 1158 1142 1126 1114 1106 1102 1100 1096 1091 1085 1072 1057 1034 1017 1008 1000 989 972 961 949 946 943 939 937 934 931 929 929 922 916 900 875 856 829 792 775 775
774 774 783 786 795 803 809 820 829 832 835 836 842 842 842 843 843 843 844 844 844 832 823 823 823 844 871 871 871 0 0 0 0 0 616 626 634 642 651 659 665 673 685 708 0 0 0 0 0 0 0 0 0 0 0 0 0 0 0 0 668 680 681 681 0 0 0 0 0 0 0 0 0 0 0 0 0 0 762 762 762 756 749 733 717 713 713 713 729 745 759 764 768 768 771 0 0 767 757 757 743 732 730 730 732 739 746 751 762 0 0 0 0 0 0 0 1415 1422 1424 1432 1433 1438 1441 1442 1442 1442 1444 1446 1447 1447 1448 1448 1448 1445 1442 1440 1440 1440 1440 1440 1441 1442 1442 1442 1441 1441 1440 1438 1438 1437 1436 1437 1438 1440 1445 1449 1461 1473 1479 1483 1483 1483 1483 1483 1481 1478 1474 1465 1456 1444 1427 1396 1372 1335 0 0 0 0 0 0 0 829 819 818 817 816 816 816 814 814 813 813 813 814 814 814 814 814 813 813 813 813 812 812 812 811 810 810 809 808 808 808 807 806 806 806 805 805 805 805 804 804 803 803 802 802 802 801 801 801 801 800 799 799 799 798 798 797 797 796 796 795 794 794 794 793 792 792 791 790 790 790 789 789 788 788 788 787 787 787 786 786 786 785 784 783 783 782 782 782 781 780 779 779 779 779 779 779 779 780 781 781 782 783 788 788 788 789 791 797 799 802 0 0 0 0 0 0 0 0 0 0 0 0 0 0 0 0 1167 1151 1139 1139 1138 1136 1136 1136 1146 1161 1169 1175 0 0 0 0 1477 1477 1477 1468 1464 1463 1463 1463 1465 1467 1469 1470 1471 1473 1475 1478 1480 1481 1482 1483 1484 1485 1487 1487 1487 1487 1487 1487 1487 1487 1487 1487 1487 1487 1487 1487 1487 1487 1487 1487 1486 1486 1486 1486 1488 1490 1491 1492 1493 1493 1493 1492 1491 1490 1488 1487 1487 1486 1486 1486 1486 1485 1485 1485 1484 1484 1484 1484 1484 1483 1482 1482 1482 1481 1481 1481 1481 1480 1479 1479 1478 1477 1477 1477 1476 1475 1474 1473 1472 1471 1470 1470 1470 1470 1471 1471 1471 1471 1470 1470 1470 1470 1469 1469 1469 1469 1469 1469 1469 1469 1469 1469 1469 1469 1469 1470 1471 1471 1471 1470 1470 1469 1469 1469 1468 1468 1466 1466 1465 1464 1464 1463 1463 1462 1462 1462 1462 1461 1461 1461 1461 1462 1462 1462 1462 1460 1460 1460 1460 1460 1460 1460 1460 1459 1458 1458 1458 1457 1457 1457 1458 1458 1458 1458 1456 1456 1455 1455 1455 1455 1455 1454 1454 1453 1453 1452 1452 1452 1450 1450 1450 1450 1450 1450 1448 1447 1444 1442 1440 1437 1437 1435 1432 1430 1428 1427 1426 1426 1424 1421 1417 1414 1411 1409 1405 1401 1397 1395 1393 1392 1392 1390 1390 1390 1390 1391 1391 1392 1392 1392 1393 1394 1394 1394 1395 1396 1396 1396 1396 1396 1393 1388 1383 1380 1376 1373 1369 1366 1362 1356 1351 1346 1342 1336 1332 1327 1322 1320 1317 1314 1310 1307 1303 1297 1287 1279 1275 1274 1270 1268 1267 1263 1256 1246 1240 1238 1237 1234 1228 1225 1218 1213 1208 1206 1202 1191 1177 1160 1152 1139 1131 1122 1113 1105 1098 1095 1094 1091 1081 1070 1052 1029 1010 999 989 973 959 958 946 945 943 939 937 933 929 926 924 922 916 900 875 856 840 812 776 776
773 773 780 784 787 798 807 816 822 828 830 831 835 840 840 840 840 840 840 840 835 821 821 821 829 847 857 857 0 0 0 0 0 607 607 620 632 642 651 659 663 671 684 0 0 0 0 0 1006 1007 1007 0 0 0 0 0 0 0 0 0 0 0 698 681 0 0 0 0 0 0 0 0 0 0 0 0 0 0 0 776 771 770 764 749 730 729 729 729 753 767 785 785 790 792 792 792 0 783 772 771 760 746 746 739 739 746 747 751 762 0 0 0 0 0 0 1396 1415 1422 1422 1427 1428 1433 1436 1437 1438 1438 1439 1441 1443 1444 1445 1445 1445 1443 1438 1436 1436 1436 1436 1436 1436 1436 1436 1436 1435 1435 1434 1433 1432 1429 1429 1429 1430 1431 1432 1435 1444 1456 1466 1471 1475 1476 1476 1476 1476 1476 1474 1468 1459 1449 1434 1411 1374 1336 1326 0 0 0 0 0 0 0 824 818 818 817 815 815 814 813 813 812 812 812 812 812 812 812 812 812 812 812 812 811 811 810 809 808 808 808 807 807 806 805 805 805 804 804 804 804 804 803 803 802 802 802 801 801 800 800 800 800 799 798 798 797 797 796 796 795 795 794 794 793 793 792 792 791 791 790 789 789 788 788 788 787 787 786 786 786 786 785 785 784 784 783 782 781 781 781 780 779 779 779 778 778 778 779 780 780 781 782 782 783 786 788 789 791 800 802 803 817 0 0 0 0 0 0 0 0 0 0 0 0 0 0 0 0 0 0 1186 1177 1165 1159 1159 1159 1163 1176 1184 1185 0 0 0 0 1471 1471 1471 1465 1462 1460 1460 1460 1463 1465 1466 1467 1469 1471 1473 1476 1478 1479 1479 1480 1482 1483 1484 1485 1485 1486 1486 1486 1486 1486 1486 1486 1486 1483 1483 1483 1483 1483 1483 1483 1483 1483 1483 1483 1485 1487 1489 1491 1492 1492 1492 1491 1489 1488 1486 1486 1485 1484 1484 1483 1483 1483 1483 1483 1483 1482 1482 1482 1482 1482 1481 1481 1481 1479 1479 1479 1479 1479 1478 1477 1477 1477 1476 1475 1474 1474 1472 1471 1470 1469 1469 1469 1469 1469 1468 1469 1469 1469 1469 1469 1469 1469 1469 1468 1467 1467 1467 1467 1467 1467 1467 1467 1466 1466 1466 1467 1467 1467 1467 1467 1467 1467 1466 1465 1465 1465 1465 1464 1464 1462 1462 1461 1461 1461 1460 1460 1460 1460 1460 1460 1460 1460 1460 1460 1460 1459 1459 1459 1459 1459 1459 1459 1457 1457 1456 1456 1455 1455 1454 1454 1454 1454 1454 1454 1454 1454 1453 1452 1452 1452 1452 1451 1450 1450 1449 1449 1448 1447 1447 1447 1447 1447 1447 1447 1446 1443 1440 1438 1437 1435 1434 1432 1430 1428 1426 1425 1425 1424 1423 1419 1416 1413 1410 1406 1402 1397 1395 1394 1392 1391 1389 1387 1387 1387 1387 1388 1389 1389 1389 1389 1390 1390 1390 1392 1393 1393 1393 1394 1394 1394 1390 1384 1382 1377 1376 1371 1366 1362 1358 1352 1347 1341 1337 1332 1326 1322 1318 1315 1312 1308 1305 1301 1298 1291 1284 1276 1270 1267 1267 1264 1260 1256 1249 1241 1236 1231 1228 1221 1213 1209 1208 1206 1201 1194 1185 1170 1154 1141 1133 1129 1124 1116 1109 1104 1096 1092 1088 1080 1070 1058 1038 1013 998 986 979 969 955 946 946 943 942 939 936 930 929 925 924 922 916 900 875 856 842 817 781 781
755 755 770 783 786 797 801 806 813 822 825 827 831 837 837 837 834 832 826 825 817 806 806 806 838 847 847 847 0 0 0 0 0 597 597 605 622 635 649 658 663 671 684 0 0 0 0 986 1006 1007 1007 1007 0 0 0 0 0 0 0 0 0 0 0 0 0 0 0 0 0 0 0 0 0 0 0 0 0 0 0 0 0 789 781 769 752 752 752 0 0 0 812 812 812 802 800 800 0 788 784 782 782 774 763 754 754 751 751 760 0 0 0 0 0 0 0 1396 1415 1420 1421 1421 1423 1424 1427 1430 1431 1432 1434 1437 1439 1440 1441 1441 1441 1441 1433 1432 1432 1432 1432 1432 1432 1432 1432 1431 1430 1429 1428 1428 1427 1424 1422 1422 1422 1425 1427 1429 1431 1435 1448 1456 1459 1460 1461 1466 1470 1470 1470 1468 1459 1450 1440 1422 1390 1342 1335 0 0 0 0 0 0 0 840 819 818 817 817 815 814 813 812 812 812 812 812 811 811 811 811 811 811 810 810 810 810 810 809 808 807 807 806 806 805 805 804 804 804 803 803 803 803 803 802 802 802 801 801 800 800 799 799 798 798 797 797 796 796 795 795 794 794 793 793 792 792 792 791 790 789 789 789 789 787 787 786 786 786 785 785 785 785 784 784 783 783 782 781 781 780 780 780 778 778 778 778 778 778 779 779 781 781 781 781 781 783 786 788 794 800 807 815 0 0 0 0 0 0 0 0 0 0 0 0 0 0 0 0 0 0 0 0 0 0 1190 1184 1184 1184 1194 1199 1207 0 0 0 0 1465 1465 1465 1464 1461 1460 1460 1460 1462 1464 1466 1467 1467 1469 1473 1475 1476 1476 1476 1478 1480 1481 1482 1483 1483 1483 1484 1484 1484 1484 1484 1484 1482 1480 1479 1479 1479 1479 1479 1479 1479 1479 1479 1480 1482 1484 1487 1488 1489 1489 1489 1489 1487 1486 1485 1483 1483 1483 1482 1482 1481 1481 1481 1481 1481 1481 1481 1481 1481 1481 1480 1480 1479 1478 1478 1478 1476 1476 1476 1476 1476 1475 1475 1473 1473 1472 1471 1470 1469 1468 1468 1467 1467 1467 1467 1467 1467 1467 1467 1467 1467 1467 1467 1466 1465 1465 1465 1465 1465 1465 1465 1464 1464 1464 1464 1465 1465 1465 1465 1464 1464 1464 1464 1464 1463 1463 1462 1462 1462 1461 1460 1460 1460 1459 1459 1458 1458 1458 1458 1458 1458 1458 1458 1458 1458 1457 1457 1456 1456 1456 1456 1456 1455 1455 1454 1453 1453 1453 1453 1453 1451 1451 1451 1451 1451 1450 1450 1450 1450 1450 1449 1449 1448 1447 1447 1446 1445 1444 1443 1443 1443 1444 1444 1444 1441 1438 1438 1436 1434 1432 1431 1430 1427 1426 1424 1422 1422 1421 1420 1417 1414 1412 1408 1404 1398 1395 1392 1390 1390 1388 1386 1385 1384 1384 1384 1385 1386 1386 1386 1386 1387 1388 1388 1389 1390 1390 1391 1391 1390 1389 1383 1377 1374 1371 1367 1363 1360 1356 1352 1347 1344 1340 1334 1329 1325 1321 1317 1312 1307 1303 1300 1296 1294 1287 1278 1269 1263 1263 1263 1259 1255 1249 1244 1237 1233 1227 1221 1209 1205 1200 1200 1199 1194 1185 1171 1155 1140 1130 1125 1120 1115 1109 1102 1094 1086 1082 1074 1066 1055 1041 1022 1002 985 983 975 964 952 943 943 939 939 939 936 930 929 922 918 907 898 879 865 853 842 821 783 783
755 755 766 781 785 796 799 805 809 819 823 826 831 832 832 832 829 821 806 793 793 793 801 822 839 852 852 0 0 0 0 0 587 587 587 594 612 628 640 653 662 671 0 0 0 0 0 986 1006 1007 1007 1007 0 0 0 0 0 0 0 0 0 0 0 0 0 0 0 0 0 0 0 0 0 0 0 0 0 0 0 0 0 0 0 0 0 0 0 0 0 0 0 0 838 824 815 0 0 799 799 802 803 805 0 0 0 0 0 0 0 0 0 0 0 0 1381 1396 1407 1410 1410 1414 1414 1414 1416 1419 1422 1425 1429 1432 1436 1436 1437 1437 1437 1433 1427 1427 1427 1427 1428 1428 1428 1428 1428 1428 1425 1425 1425 1425 1425 1422 1420 1420 1420 1422 1424 1425 1426 1427 1430 1442 1448 1449 1450 1455 1462 1468 1468 1468 1459 1450 1440 1431 1404 1365 1335 0 0 0 0 0 0 0 847 825 818 817 816 815 814 812 811 811 811 811 811 811 811 811 811 810 810 810 809 809 809 808 807 806 806 805 805 805 804 804 804 804 803 803 803 802 802 802 802 802 801 801 800 800 799 799 799 798 797 797 796 795 795 794 794 794 793 792 792 791 791 791 790 789 788 788 788 787 787 787 786 785 785 785 784 784 784 784 783 783 781 781 781 780 780 779 778 778 778 778 778 778 778 779 779 781 781 781 781 781 783 786 788 800 814 830 0 0 0 0 0 0 0 0 0 0 0 0 0 0 0 0 0 0 0 0 0 0 0 0 1208 1208 1208 1212 1216 1233 0 0 0 1453 1453 1457 1458 1458 1458 1458 1459 1460 1462 1463 1464 1465 1466 1469 1471 1473 1473 1473 1474 1476 1477 1479 1480 1481 1481 1481 1482 1482 1483 1483 1483 1483 1481 1479 1477 1476 1476 1476 1476 1476 1476 1476 1477 1477 1479 1481 1483 1487 1487 1487 1487 1486 1484 1483 1482 1481 1480 1480 1480 1479 1478 1478 1478 1478 1478 1478 1479 1479 1479 1479 1479 1479 1478 1477 1476 1475 1475 1474 1474 1474 1474 1473 1472 1471 1470 1470 1469 1468 1467 1467 1467 1466 1466 1466 1465 1465 1465 1465 1466 1466 1466 1466 1464 1464 1463 1463 1463 1463 1463 1463 1463 1463 1463 1463 1463 1463 1463 1462 1462 1462 1462 1462 1462 1462 1462 1461 1461 1460 1460 1460 1458 1458 1457 1457 1457 1457 1456 1456 1456 1456 1456 1457 1457 1457 1456 1456 1455 1455 1455 1454 1454 1454 1453 1453 1453 1453 1452 1451 1450 1450 1450 1448 1448 1448 1448 1448 1448 1447 1447 1447 1447 1446 1446 1445 1444 1444 1443 1442 1440 1439 1437 1437 1437 1437 1437 1436 1435 1433 1432 1431 1430 1428 1425 1423 1421 1420 1419 1418 1417 1416 1413 1408 1404 1399 1395 1391 1389 1389 1387 1385 1384 1383 1382 1382 1382 1382 1382 1383 1383 1384 1384 1385 1385 1386 1386 1386 1385 1384 1381 1378 1374 1372 1369 1366 1363 1359 1355 1350 1346 1343 1342 1339 1333 1329 1324 1319 1315 1311 1306 1299 1296 1293 1289 1282 1274 1266 1260 1260 1259 1258 1253 1246 1240 1235 1230 1222 1212 1205 1201 1196 1195 1195 1190 1178 1162 1147 1134 1127 1121 1115 1108 1101 1093 1083 1073 1070 1062 1053 1042 1028 1012 998 981 967 960 958 941 941 941 939 939 939 936 927 919 914 910 898 883 870 861 852 841 821 783 783
755 755 765 778 784 789 794 799 806 817 822 825 826 826 826 823 819 808 791 790 790 790 804 824 842 842 842 0 0 0 0 0 585 585 586 591 603 617 629 646 661 0 0 0 0 0 955 980 995 995 995 991 0 0 0 0 0 0 0 0 0 0 0 0 0 0 0 0 0 0 0 0 0 0 0 0 0 0 0 0 0 0 0 0 0 0 0 0 0 0 0 0 0 0 0 0 0 0 823 826 839 0 0 0 0 0 0 0 0 0 0 0 0 0 1381 1389 1394 1400 1400 1401 1405 1408 1410 1414 1418 1420 1421 1427 1431 1431 1431 1430 1428 1422 1421 1421 1421 1423 1423 1423 1423 1423 1423 1421 1421 1421 1422 1422 1422 1420 1420 1420 1420 1422 1423 1424 1424 1424 1426 1432 1440 1443 1446 1450 1451 1452 1452 1452 1452 1450 1440 1431 1418 1392 1368 1338 0 0 0 0 0 0 847 825 817 814 814 814 813 812 811 811 810 810 810 810 810 810 809 809 809 808 808 808 807 807 806 805 805 805 804 803 803 803 802 802 802 802 801 801 801 801 801 801 800 800 799 799 799 799 798 797 796 796 795 795 794 793 793 793 792 791 791 791 790 790 790 789 788 787 787 786 786 786 785 785 785 784 784 783 783 783 782 782 781 780 780 780 779 778 778 778 778 777 777 778 778 779 779 781 781 781 781 781 783 786 788 820 845 869 0 0 0 0 0 0 0 0 0 0 1801 1801 1801 1793 0 0 0 0 0 0 0 0 0 0 0 0 0 0 0 0 0 0 0 1456 1456 1456 1453 1453 1453 1455 1457 1460 1462 1462 1463 1463 1465 1468 1469 1470 1471 1472 1472 1474 1475 1478 1478 1479 1480 1480 1480 1480 1482 1482 1482 1481 1479 1478 1476 1475 1474 1474 1474 1475 1475 1475 1475 1475 1478 1479 1481 1484 1484 1484 1484 1482 1481 1479 1479 1478 1477 1477 1477 1476 1476 1476 1476 1476 1476 1476 1477 1477 1477 1477 1477 1477 1477 1476 1475 1473 1473 1472 1472 1472 1471 1471 1470 1469 1469 1469 1468 1466 1465 1465 1465 1465 1464 1464 1463 1463 1463 1463 1464 1464 1463 1463 1462 1462 1462 1461 1461 1461 1461 1461 1461 1461 1461 1461 1461 1461 1461 1461 1461 1460 1460 1460 1460 1460 1460 1459 1459 1458 1458 1457 1457 1456 1456 1455 1455 1455 1455 1455 1455 1455 1455 1455 1455 1455 1455 1455 1454 1454 1453 1452 1452 1452 1452 1452 1451 1451 1451 1450 1449 1448 1447 1447 1446 1446 1446 1445 1445 1445 1445 1444 1444 1444 1444 1442 1442 1442 1442 1440 1438 1436 1434 1434 1434 1434 1432 1432 1432 1431 1430 1429 1427 1425 1424 1421 1420 1418 1416 1415 1415 1414 1408 1404 1399 1395 1390 1389 1387 1386 1386 1384 1382 1381 1379 1379 1379 1379 1380 1380 1381 1381 1381 1381 1382 1382 1382 1382 1380 1378 1377 1376 1374 1372 1369 1364 1361 1357 1351 1344 1340 1340 1338 1336 1331 1327 1323 1318 1313 1309 1303 1297 1294 1290 1285 1279 1270 1261 1255 1255 1254 1253 1253 1245 1236 1230 1225 1214 1205 1201 1194 1193 1192 1191 1181 1170 1155 1141 1130 1126 1118 1110 1102 1094 1087 1074 1071 1059 1050 1040 1029 1024 1008 998 981 964 950 943 936 933 933 933 933 933 927 919 911 907 901 887 872 861 853 851 840 818 796 796
755 755 765 774 783 789 790 798 804 813 819 822 822 822 822 819 808 800 785 785 785 787 806 828 842 842 0 0 0 0 0 565 565 565 576 591 595 609 619 631 0 0 0 0 0 940 955 966 981 981 981 0 0 0 0 0 0 0 0 0 0 0 0 0 0 0 0 0 0 0 0 0 0 0 0 0 0 0 0 0 0 0 0 0 0 0 0 0 0 0 0 0 0 0 0 0 0 0 0 0 0 0 0 0 0 0 0 0 0 0 0 0 0 1373 1381 1381 1383 1388 1393 1397 1402 1405 1409 1410 1413 1413 1413 1414 1414 1424 1424 1424 1422 1416 1416 1416 1416 1417 1418 1418 1417 1417 1417 1417 1417 1418 1419 1420 1420 1419 1419 1420 1420 1422 1423 1424 1424 1424 1424 1427 1431 1432 1432 1432 1433 1433 1435 1436 1436 1436 1435 1431 1420 1400 1372 1344 0 0 0 0 0 0 847 825 816 814 814 812 812 812 811 811 810 810 809 809 809 809 809 808 808 807 807 807 807 806 805 804 804 803 803 802 802 802 802 801 801 801 801 801 801 800 800 800 800 799 799 799 798 798 797 797 796 795 794 794 793 793 792 792 791 791 790 790 789 789 789 788 788 786 786 786 785 785 785 785 784 783 783 783 782 782 781 781 780 780 780 779 778 778 778 777 777 777 777 778 778 779 779 781 781 781 782 792 798 800 802 822 846 0 0 0 0 0 0 0 0 0 0 1808 1808 1808 1805 1802 1800 1796 0 0 0 0 0 0 0 0 0 0 0 0 0 0 0 0 0 1449 1449 1449 1449 1449 1449 1452 1454 1457 1459 1460 1461 1461 1463 1465 1466 1467 1469 1469 1470 1471 1474 1475 1476 1477 1477 1477 1477 1479 1480 1480 1480 1478 1477 1476 1474 1473 1472 1472 1472 1472 1472 1472 1473 1473 1475 1477 1479 1481 1481 1481 1481 1479 1476 1475 1475 1475 1475 1475 1475 1474 1474 1474 1474 1474 1474 1474 1474 1474 1475 1475 1474 1474 1474 1473 1473 1472 1471 1471 1470 1470 1470 1470 1468 1468 1466 1466 1465 1465 1463 1463 1463 1463 1463 1462 1462 1462 1461 1461 1461 1461 1461 1461 1461 1461 1460 1460 1460 1461 1461 1461 1461 1461 1460 1460 1459 1459 1458 1458 1458 1458 1458 1458 1458 1458 1458 1458 1457 1457 1456 1456 1456 1456 1454 1454 1453 1452 1452 1452 1454 1454 1454 1453 1453 1453 1453 1453 1453 1453 1452 1451 1450 1450 1449 1449 1449 1449 1448 1447 1446 1445 1445 1444 1443 1443 1443 1443 1443 1443 1443 1442 1442 1442 1441 1439 1439 1439 1439 1438 1436 1434 1432 1431 1431 1430 1429 1429 1429 1429 1428 1427 1425 1423 1420 1418 1416 1415 1414 1413 1411 1407 1402 1399 1395 1392 1388 1386 1385 1385 1383 1382 1380 1377 1376 1376 1375 1375 1376 1376 1378 1378 1378 1377 1377 1377 1376 1376 1376 1374 1373 1373 1371 1369 1368 1364 1358 1354 1347 1340 1337 1336 1334 1332 1326 1323 1318 1315 1308 1304 1301 1297 1292 1285 1281 1277 1266 1253 1248 1248 1247 1247 1247 1239 1230 1225 1219 1209 1202 1195 1186 1179 1179 1176 1169 1156 1137 1126 1123 1121 1114 1101 1095 1088 1080 1067 1063 1052 1042 1037 1025 1014 1008 995 981 962 949 938 931 926 926 926 925 925 919 907 901 894 882 881 872 861 850 837 830 818 796 796
755 755 764 773 783 789 790 798 804 809 814 816 819 819 819 814 802 787 785 785 785 787 808 832 832 0 0 0 0 0 0 562 562 562 576 591 595 609 619 631 0 0 0 0 0 948 954 960 960 960 947 0 0 0 0 0 0 0 0 0 0 0 0 0 0 0 0 0 0 0 0 0 0 0 0 0 0 0 0 0 0 0 0 0 0 0 0 0 0 0 0 0 0 0 0 0 0 0 0 0 0 0 0 0 0 0 0 0 0 0 0 0 0 1375 1377 1377 1377 1380 1385 1391 1394 1398 1403 1405 1405 1405 1405 1405 1405 1408 1414 1414 1414 1411 1411 1411 1411 1411 1411 1411 1411 1412 1412 1412 1413 1416 1417 1418 1418 1419 1419 1419 1421 1422 1422 1424 1424 1424 1424 1424 1424 1424 1423 1421 1421 1421 1424 1426 1426 1426 1426 1425 1420 1400 1375 1347 1316 0 0 0 0 0 0 822 812 812 812 812 812 812 811 810 809 809 809 809 808 808 808 807 807 807 807 805 805 804 804 803 803 802 802 801 801 801 801 801 801 800 800 800 800 800 799 799 799 799 798 798 797 797 796 795 795 794 794 793 793 792 791 791 790 790 790 789 788 788 787 787 786 786 785 785 785 784 783 783 783 783 782 782 781 781 781 780 780 779 779 778 777 777 777 777 777 777 777 778 778 778 779 781 781 781 792 806 807 815 838 839 864 0 0 0 0 0 0 0 0 0 1793 1808 1808 1808 1805 1804 1803 1797 1797 1796 1789 1789 0 0 0 0 0 0 0 0 0 0 0 0 1432 1449 1449 1449 1447 1447 1447 1449 1452 1453 1456 1457 1458 1460 1461 1462 1463 1465 1467 1468 1469 1470 1471 1472 1474 1474 1475 1475 1475 1476 1477 1477 1477 1476 1475 1473 1471 1471 1470 1470 1470 1471 1471 1471 1472 1472 1473 1476 1477 1478 1478 1478 1477 1476 1474 1473 1473 1472 1472 1472 1472 1472 1472 1472 1472 1472 1472 1472 1472 1472 1472 1472 1472 1472 1472 1472 1471 1470 1469 1468 1468 1468 1468 1467 1467 1466 1465 1464 1464 1463 1462 1461 1461 1461 1461 1461 1461 1460 1460 1460 1460 1460 1460 1460 1460 1460 1460 1460 1459 1459 1459 1459 1459 1459 1458 1458 1457 1456 1456 1456 1456 1456 1456 1456 1456 1456 1455 1455 1455 1454 1454 1454 1453 1453 1453 1452 1450 1450 1450 1450 1451 1451 1451 1451 1451 1451 1451 1452 1452 1452 1450 1449 1448 1448 1447 1446 1446 1446 1445 1445 1444 1443 1443 1442 1441 1441 1441 1441 1440 1440 1440 1440 1439 1438 1437 1437 1436 1436 1436 1435 1434 1431 1430 1429 1429 1428 1427 1427 1426 1426 1425 1424 1420 1418 1417 1415 1414 1412 1412 1412 1409 1404 1399 1394 1391 1388 1386 1384 1384 1383 1381 1378 1376 1374 1372 1371 1371 1371 1371 1372 1373 1373 1373 1371 1371 1371 1372 1372 1372 1371 1369 1367 1365 1364 1362 1357 1353 1349 1343 1336 1333 1331 1329 1326 1320 1315 1311 1305 1301 1299 1295 1293 1288 1282 1275 1268 1259 1243 1242 1242 1240 1240 1240 1232 1223 1220 1215 1206 1199 1190 1177 1169 1160 1155 1146 1132 1120 1120 1113 1113 1113 1099 1090 1075 1058 1051 1049 1046 1040 1030 1021 1013 1004 994 977 960 942 932 928 924 922 922 921 919 915 905 895 889 882 881 872 861 850 837 830 814 796 796
755 755 764 773 783 789 790 798 802 809 810 810 814 814 814 811 794 780 780 780 785 787 813 816 816 0 0 0 0 0 575 559 559 559 573 591 595 609 619 631 0 0 0 0 0 948 953 957 957 957 0 0 0 0 0 0 0 0 0 0 0 0 0 0 0 0 0 0 0 0 0 0 0 0 0 0 0 0 0 0 0 0 0 0 0 0 0 0 0 0 0 0 0 0 0 0 0 0 0 0 0 0 0 0 0 0 0 0 0 0 0 0 0 1374 1375 1375 1375 1378 1381 1383 1384 1388 1394 1397 1398 1398 1398 1398 1398 1398 1401 1401 1402 1403 1404 1406 1406 1407 1407 1407 1407 1408 1409 1409 1411 1414 1416 1417 1418 1419 1419 1419 1421 1422 1422 1423 1423 1423 1423 1423 1421 1420 1418 1418 1418 1418 1420 1422 1424 1424 1424 1424 1420 1400 1375 1347 1311 1278 0 0 0 0 0 813 811 811 811 812 812 812 811 809 809 808 808 808 807 807 807 807 806 806 805 805 804 803 803 802 802 801 800 800 800 800 800 800 800 799 799 799 799 799 798 798 798 798 797 797 797 796 796 795 794 794 793 792 792 791 791 790 789 789 788 788 788 787 787 786 786 785 785 784 783 783 783 783 782 782 781 781 780 780 779 779 779 778 777 777 777 776 776 776 776 777 777 777 777 777 777 777 781 781 794 809 831 853 865 869 870 0 0 0 0 0 0 0 0 0 1793 1808 1808 1808 1805 1805 1805 1803 1801 1801 1798 1790 1771 1759 0 0 0 0 0 0 0 0 0 0 1433 1449 1449 1449 1446 1446 1446 1448 1450 1452 1453 1455 1456 1457 1458 1459 1462 1463 1464 1465 1467 1469 1469 1470 1471 1472 1472 1473 1473 1474 1475 1475 1475 1473 1472 1471 1470 1469 1468 1468 1468 1469 1470 1470 1470 1471 1471 1473 1474 1474 1474 1474 1473 1472 1472 1471 1471 1470 1470 1469 1469 1469 1469 1469 1469 1469 1469 1469 1470 1469 1470 1470 1470 1470 1470 1470 1470 1468 1466 1466 1466 1465 1465 1465 1465 1464 1463 1462 1461 1461 1460 1460 1459 1459 1459 1459 1458 1458 1458 1458 1458 1458 1458 1458 1458 1458 1458 1458 1458 1458 1458 1458 1457 1457 1457 1455 1454 1453 1453 1453 1453 1453 1453 1454 1454 1453 1452 1452 1452 1452 1452 1452 1451 1451 1450 1449 1449 1448 1448 1448 1449 1449 1449 1449 1449 1449 1449 1450 1450 1450 1449 1448 1447 1446 1445 1444 1444 1443 1442 1441 1441 1441 1440 1440 1439 1438 1438 1438 1438 1438 1438 1438 1436 1436 1435 1434 1434 1434 1433 1432 1431 1431 1430 1428 1427 1425 1425 1424 1422 1422 1421 1419 1417 1416 1415 1413 1411 1411 1411 1410 1407 1401 1394 1390 1387 1384 1381 1381 1380 1379 1377 1375 1371 1369 1368 1368 1367 1367 1368 1368 1368 1368 1368 1366 1364 1364 1364 1365 1366 1366 1366 1365 1361 1357 1354 1350 1346 1343 1339 1334 1330 1327 1326 1321 1315 1308 1302 1298 1295 1294 1291 1288 1280 1273 1267 1257 1245 1240 1240 1240 1238 1238 1238 1229 1217 1214 1212 1204 1198 1189 1176 1164 1151 1139 1121 1101 1101 1101 1111 1111 1111 1097 1085 1066 1058 1049 1046 1046 1037 1025 1014 1006 998 985 967 947 932 924 921 919 918 918 916 915 913 905 895 889 882 881 880 867 850 837 830 814 791 791
