466 466 468 479 494 504 509 511 516 530 545 559 571 580 588 592 604 619 636 656 668 679 693 705 715 722 729 738 756 759 782 802 824 840 853 859 866 0 0 0 0 0 0 0 0 0 0 0 0 0 0 0 1359 1370 1370 1370 1353 0 0 0 0 0 0 0 942 938 938 938 941 942 944 946 946 946 946 946 946 948 951 953 955 957 960 963 966 968 970 972 974 974 976 977 977 979 980 981 982 982 983 983 984 985 986 987 987 987 988 988 988 988 988 988 988 987 986 986 979 974 971 971 971 974 974 974 971 971 971 968 968 968 965 960 950 950 950 951 951 951 951 946 946 946 945 945 944 929 928 906 891 878 878 0 0 0 971 988 994 994 995 998 1003 1005 1007 1007 1005 1005 1007 1006 1006 1006 1006 1006 1006 1006 1005 1003 993 993 993 999 1003 1004 1005 1005 1006 1006 1006 1004 1002 996 993 989 989 983 980 975 972 968 968 968 970 971 971 973 973 973 976 978 978 978 976 972 969 965 961 961 961 962 963 967 970 973 985 999 1006 1013 1021 1023 1026 1027 1027 1027 1027 1028 1029 1033 1035 1037 1037 1037 1036 1036 1036 1037 1037 1039 1039 1039 1042 1046 1046 1048 1053 1053 1053 1049 1047 1041 1040 1039 1033 1026 1025 1025 1024 1024 1024 1024 1024 1024 1023 1023 1023 1023 1024 1026 1027 1029 1031 1031 1033 1035 1035 1036 1036 1036 1039 1042 1046 1050 1051 1058 1067 1072 1074 1075 1077 1077 1077 1077 1077 1079 1079 1079 1077 1077 1077 1077 1078 1078 1079 1080 1080 1080 1079 1079 1078 1078 1077 1076 1075 1074 1072 1071 1067 1064 1061 1056 1053 1051 1046 1041 1036 1031 1030 1029 1028 1027 1026 1024 1024 1023 1023 1023 1023 1025 1028 1033 1037 1037 1038 1038 1038 1041 1047 1051 1051 1051 1057 1065 1076 1085 1089 1091 1091 1093 1095 1095 1095 1095 1095 1095 1095 1095 1095 1095 1095 1095 1094 1093 1093 1093 1092 1091 1091 1090 1090 1088 1086 1085 1085 1080 1071 1066 1061 1049 1042 1029 1025 1024 1021 1018 1015 1014 1013 1008 1002 1002 1002 1006 1007 1008 1009 1012 1019 1025 1030 1035 1039 1042 1043 1051 1057 1066 1078 1089 1100 1107 1110 1111 1111 1112 1113 1115 1115 1115 1115 1116 1116 1117 1118 1119 1119 1119 1120 1122 1123 1123 1124 1124 1124 1126 1126 1127 1127 1127 1130 1130 1130 1130 1131 1132 1132 1132 1133 1133 1133 1133 1133 1133 1133 1133 1134 1135 1137 1138 1138 1138 1137 1137 1136 1136 1135 1132 1132 1131 1128 1128 1126 1126 1129 0 0 0 0 0 0 0 0 0 0 1135 1128 1123 1123 1122 1119 1116 1113 1111 1111 1109 1107 1105 1103 1102 1100 1100 1099 1098 1095 1094 1094 1093 1091 1088 1086 1084 1082 1081 1079 1077 1075 1073 1071 1070 1068 1067 1066 1064 1063 1061 1059 1058 1056 1054 1053 1051 1049 1047 1046 1044 1042 1039 1036 1036 1034 1033 1032 1030 1029 1026 1026 1025 1024 1023 1021 1019 1018 1016 1016 1014 1014 1013 1012 1011 1011 1010 1010 1010 1009 1009 1008 1008 1007 1007 1006 1006 1005 1004 1004 1003 1003 1003 1002 1002 1002 1003 1003 1004 1005 1005 1005 1005 1005 1004 1000 1000 1000 1002 1002 1002 1002 998 995 993 991 991 989 989 987 984 980 975 963 954 950 946 937 933 919 894 872 835 822 822 0 0 0 0
461 461 464 479 494 504 510 511 516 531 547 559 571 580 587 592 602 617 635 656 668 679 693 707 717 722 729 738 756 759 782 804 824 841 856 868 0 0 0 0 0 0 0 0 0 0 0 0 0 0 0 0 0 1350 1350 1350 1349 1330 0 0 0 0 0 0 945 943 942 942 942 943 945 945 946 946 946 946 947 948 951 953 954 956 960 960 963 965 967 969 970 972 973 974 975 976 977 979 979 981 982 982 982 983 984 985 985 985 985 986 986 986 986 987 987 986 986 985 982 981 981 981 981 982 985 986 986 986 986 986 986 984 984 984 981 975 975 975 974 971 970 967 967 959 958 958 952 952 940 921 900 0 0 0 0 0 0 0 0 0 0 0 0 0 0 0 0 0 0 0 0 0 0 0 0 0 0 966 966 966 975 982 989 996 999 999 1000 1004 1004 1004 1003 997 997 996 995 991 991 991 990 984 984 984 984 984 981 980 980 980 980 982 983 983 983 979 974 968 965 965 965 965 965 963 963 963 969 988 997 1000 1007 1012 1014 1018 1019 1019 1020 1022 1024 1026 1026 1026 1026 1026 1026 1027 1027 1028 1028 1029 1030 1032 1037 1042 1044 1046 1049 1049 1049 1048 1047 1046 1043 1041 1035 1031 1030 1027 1026 1026 1026 1027 1027 1027 1027 1027 1027 1027 1027 1029 1030 1031 1032 1032 1034 1035 1035 1036 1036 1036 1036 1039 1039 1043 1043 1049 1060 1061 1063 1064 1069 1070 1070 1070 1070 1073 1073 1073 1072 1071 1071 1071 1071 1072 1075 1075 1075 1075 1074 1074 1073 1073 1073 1073 1072 1072 1071 1071 1068 1065 1062 1056 1054 1052 1049 1044 1038 1034 1033 1032 1032 1032 1030 1026 1026 1025 1025 1025 1025 1028 1031 1034 1037 1037 1038 1039 1040 1040 1041 1047 1050 1051 1053 1061 1073 1081 1086 1087 1087 1087 1087 1090 1091 1091 1091 1092 1092 1092 1093 1093 1093 1092 1091 1090 1090 1090 1090 1090 1090 1089 1087 1086 1085 1084 1082 1079 1071 1066 1062 1051 1043 1040 1031 1027 1026 1022 1020 1019 1018 1016 1013 1011 1011 1011 1015 1015 1015 1015 1019 1025 1032 1035 1039 1042 1043 1051 1056 1060 1076 1086 1093 1100 1105 1106 1107 1109 1110 1111 1111 1112 1112 1112 1113 1114 1115 1115 1116 1116 1117 1119 1119 1120 1120 1120 1121 1122 1123 1124 1125 1125 1126 1127 1127 1127 1128 1128 1129 1129 1129 1129 1129 1129 1129 1129 1129 1130 1130 1131 1133 1133 1135 1135 1135 1134 1132 1132 1132 1131 1131 1130 1126 1122 1122 1122 1123 1124 0 0 0 0 0 0 0 0 1136 1131 1122 1121 1120 1120 1118 1115 1111 1109 1109 1109 1106 1104 1101 1100 1098 1097 1097 1095 1092 1091 1091 1088 1087 1086 1084 1081 1080 1079 1077 1074 1073 1071 1069 1068 1066 1065 1064 1062 1061 1059 1058 1056 1054 1052 1050 1048 1047 1044 1042 1040 1038 1036 1035 1033 1033 1031 1029 1028 1026 1025 1024 1024 1022 1021 1019 1018 1016 1016 1015 1014 1013 1012 1012 1011 1011 1010 1010 1009 1009 1009 1008 1007 1007 1007 1007 1006 1005 1005 1005 1005 1005 1005 1004 1003 1003 1003 1003 1004 1005 1006 1007 1007 1007 1005 1005 1004 1003 1003 1003 1003 1003 1002 999 998 998 997 993 992 987 984 980 978 971 958 953 938 938 937 935 929 906 0 0 0 0 0 0 0
458 458 461 478 494 504 510 514 518 531 548 560 572 580 585 589 597 609 625 645 663 679 693 709 721 728 729 738 758 760 786 804 825 844 860 0 0 0 0 0 0 0 0 0 0 0 0 0 0 0 0 0 0 0 1341 1341 1341 0 0 0 0 0 0 0 968 946 943 943 943 944 945 945 945 946 946 946 947 948 951 952 953 956 958 959 961 963 965 967 968 970 971 972 972 973 975 976 977 978 979 980 980 981 982 983 984 984 984 984 985 985 985 986 986 985 985 985 985 985 984 984 985 985 985 986 987 987 987 988 988 988 987 986 984 984 982 982 981 980 978 975 973 969 965 965 965 965 950 950 949 0 0 0 0 0 0 0 0 0 0 0 0 0 0 0 0 0 0 0 0 0 0 0 0 0 0 934 938 946 957 968 973 980 991 997 999 1002 1004 1004 1004 1000 1000 1000 1000 1000 1001 1002 1003 1003 1003 1003 1002 1002 1001 999 997 997 997 997 997 996 991 985 981 981 981 980 980 975 970 963 958 958 958 977 990 993 1005 1005 1010 1013 1013 1005 1001 1001 1001 1003 1006 1010 1013 1013 1013 1012 1012 1012 1013 1017 1023 1029 1033 1034 1037 1039 1042 1042 1043 1046 1046 1046 1043 1041 1038 1038 1037 1036 1035 1033 1033 1033 1033 1031 1030 1030 1030 1031 1032 1033 1033 1033 1033 1033 1034 1035 1035 1036 1036 1035 1036 1036 1035 1035 1036 1042 1046 1048 1050 1050 1057 1061 1062 1062 1062 1064 1064 1064 1062 1061 1060 1060 1060 1062 1064 1065 1067 1067 1068 1068 1068 1068 1068 1068 1069 1070 1070 1070 1068 1065 1062 1058 1054 1052 1051 1050 1044 1041 1039 1039 1039 1039 1039 1038 1035 1032 1032 1031 1031 1032 1032 1035 1037 1038 1039 1039 1040 1041 1041 1045 1047 1049 1049 1058 1068 1075 1079 1080 1081 1081 1082 1084 1086 1089 1089 1090 1090 1090 1090 1089 1089 1088 1088 1088 1088 1089 1089 1089 1088 1086 1085 1084 1083 1083 1082 1078 1071 1071 1063 1054 1046 1044 1038 1035 1030 1026 1024 1022 1019 1016 1015 1015 1015 1017 1017 1017 1018 1018 1019 1026 1033 1038 1039 1043 1047 1051 1056 1058 1071 1079 1081 1087 1096 1099 1102 1103 1105 1106 1107 1107 1108 1109 1110 1110 1112 1112 1112 1112 1113 1114 1116 1116 1116 1117 1118 1120 1120 1122 1122 1123 1124 1124 1125 1125 1126 1126 1126 1126 1126 1126 1126 1126 1125 1126 1126 1126 1127 1128 1128 1130 1130 1130 1130 1129 1128 1127 1127 1127 1127 1126 1126 1122 1120 1119 1119 1120 1120 0 0 0 0 0 1140 1134 1132 1127 1120 1120 1118 1116 1116 1112 1109 1108 1108 1106 1104 1102 1100 1098 1096 1094 1093 1091 1090 1089 1088 1086 1085 1083 1080 1078 1078 1076 1074 1072 1070 1069 1067 1065 1064 1063 1062 1060 1059 1057 1055 1054 1052 1050 1049 1046 1045 1043 1040 1039 1038 1035 1033 1032 1031 1030 1027 1026 1025 1024 1022 1022 1021 1019 1018 1017 1016 1015 1015 1014 1013 1012 1012 1011 1011 1010 1010 1009 1009 1009 1008 1007 1007 1007 1007 1007 1006 1006 1006 1006 1006 1006 1006 1005 1005 1005 1005 1006 1006 1007 1009 1009 1009 1009 1008 1008 1006 1006 1005 1004 1004 1003 1001 1000 999 999 999 995 990 984 980 978 972 958 953 940 940 938 937 932 923 0 0 0 0 0 0 0
457 457 460 475 490 504 513 518 524 534 548 561 572 580 585 589 595 600 610 629 652 673 692 711 725 737 748 763 777 780 795 809 828 852 0 0 0 0 0 0 0 0 0 0 0 0 0 0 0 0 0 0 0 0 0 0 0 0 0 0 0 0 0 0 969 949 943 943 943 944 945 945 945 946 946 947 947 949 950 950 952 953 955 958 959 962 963 965 966 968 969 970 970 972 972 974 974 975 977 977 978 979 980 981 982 982 982 982 983 983 984 984 985 985 985 985 985 985 984 985 985 985 985 986 987 987 988 988 988 988 987 986 984 984 982 982 981 980 978 976 974 969 967 967 967 965 967 965 953 0 0 0 0 820 820 831 0 0 0 0 0 0 846 856 856 856 0 0 0 0 0 0 0 0 0 905 915 926 937 939 943 963 985 993 994 998 1003 1004 1004 1005 1007 1007 1007 1006 1006 1006 1006 1008 1008 1009 1009 1009 1008 1007 1005 1005 1004 1003 1003 1003 998 994 993 992 990 990 988 980 976 967 957 956 956 956 966 974 981 981 988 989 998 998 998 985 980 980 980 982 984 988 991 994 996 997 1001 1005 1011 1018 1025 1029 1034 1034 1036 1039 1042 1046 1046 1046 1043 1041 1039 1039 1038 1038 1038 1036 1036 1035 1035 1035 1034 1032 1032 1032 1034 1036 1036 1036 1036 1037 1037 1037 1037 1036 1036 1035 1035 1035 1034 1034 1034 1034 1041 1043 1043 1044 1049 1057 1058 1058 1058 1056 1053 1049 1049 1049 1049 1049 1049 1049 1049 1052 1052 1052 1053 1053 1061 1063 1064 1064 1066 1069 1069 1069 1068 1065 1062 1058 1057 1057 1057 1055 1055 1046 1043 1043 1043 1043 1043 1042 1041 1041 1040 1037 1035 1035 1035 1035 1037 1037 1037 1038 1039 1039 1039 1042 1042 1043 1044 1049 1059 1065 1071 1075 1076 1076 1077 1077 1079 1082 1083 1083 1084 1084 1084 1081 1081 1081 1081 1083 1084 1084 1084 1083 1081 1080 1079 1079 1079 1079 1078 1078 1074 1071 1066 1055 1047 1044 1039 1037 1034 1030 1027 1026 1024 1020 1020 1020 1021 1023 1023 1023 1019 1019 1019 1026 1033 1039 1046 1049 1050 1051 1055 1058 1062 1068 1071 1084 1091 1093 1093 1097 1099 1100 1101 1101 1103 1105 1106 1107 1107 1108 1108 1109 1109 1111 1111 1112 1113 1114 1114 1116 1117 1118 1119 1119 1120 1120 1122 1122 1124 1124 1124 1124 1123 1123 1123 1123 1123 1123 1122 1122 1122 1124 1125 1125 1125 1125 1125 1125 1124 1124 1123 1123 1123 1123 1123 1122 1119 1118 1118 1118 1118 1129 1147 1147 1147 1132 1131 1130 1125 1118 1114 1114 1112 1111 1111 1106 1104 1104 1104 1103 1101 1100 1098 1096 1093 1091 1090 1089 1088 1086 1086 1085 1083 1080 1077 1077 1075 1073 1071 1069 1068 1066 1064 1062 1061 1061 1060 1058 1057 1054 1054 1053 1050 1049 1047 1045 1043 1041 1039 1037 1034 1033 1032 1030 1029 1028 1026 1024 1024 1023 1022 1021 1020 1018 1018 1016 1015 1015 1014 1013 1013 1012 1012 1011 1011 1010 1010 1009 1009 1009 1008 1007 1007 1007 1007 1007 1006 1006 1006 1008 1008 1008 1008 1007 1007 1007 1007 1007 1008 1008 1010 1010 1010 1010 1010 1009 1009 1008 1007 1006 1005 1003 1002 1001 1001 1001 1000 998 998 998 997 997 988 958 953 941 941 938 937 935 934 931 914 896 0 0 0 0
457 457 460 472 490 504 514 523 532 542 551 562 573 580 585 589 595 600 610 629 652 673 692 714 731 745 759 771 789 791 806 820 0 0 0 0 0 0 0 0 0 0 0 0 0 0 0 0 0 0 0 0 0 0 0 0 0 0 0 0 0 0 0 0 974 949 943 943 943 944 945 945 945 946 947 947 947 948 950 950 951 953 954 957 959 960 962 964 965 966 967 968 969 970 970 971 972 973 974 974 975 976 978 979 979 979 980 980 981 981 982 983 983 983 984 984 984 984 984 985 985 985 985 986 987 987 988 988 988 988 987 986 984 984 982 982 981 981 978 976 974 970 967 967 967 966 967 965 965 0 0 0 800 800 800 804 804 804 804 804 806 816 825 833 833 833 831 824 818 818 818 822 833 850 867 878 893 906 914 918 931 941 962 968 982 993 1000 1004 1004 1006 1008 1008 1008 1007 1007 1007 1007 1008 1008 1009 1009 1009 1008 1008 1007 1007 1006 1005 1004 1004 1002 1002 1000 996 995 992 988 985 984 974 959 952 948 948 952 956 960 960 960 960 960 960 964 964 964 964 963 963 964 968 976 980 982 987 991 998 1000 1008 1014 1021 1025 1030 1033 1039 1041 1042 1042 1042 1039 1039 1039 1040 1040 1040 1039 1039 1038 1037 1036 1036 1036 1036 1036 1037 1037 1037 1037 1037 1037 1038 1038 1038 1037 1036 1036 1035 1035 1035 1032 1031 1031 1031 1038 1038 1038 1038 1038 1044 1044 1045 1045 1044 1043 1044 1044 1044 1047 1047 1047 1047 1047 1045 1047 1047 1046 1046 1047 1049 1055 1058 1062 1063 1064 1064 1064 1064 1062 1058 1058 1057 1057 1057 1055 1047 1044 1044 1044 1044 1044 1044 1043 1042 1042 1041 1041 1039 1037 1037 1037 1039 1039 1039 1039 1039 1039 1039 1039 1039 1040 1040 1047 1054 1059 1063 1063 1064 1064 1064 1067 1070 1070 1071 1071 1071 1071 1071 1069 1069 1069 1071 1072 1075 1075 1075 1074 1073 1073 1073 1074 1077 1077 1077 1075 1074 1071 1065 1055 1048 1040 1037 1036 1035 1033 1032 1032 1031 1029 1029 1029 1032 1032 1032 1028 1026 1026 1026 1033 1040 1046 1049 1050 1051 1052 1053 1058 1067 1071 1083 1085 1087 1089 1089 1092 1095 1097 1098 1100 1100 1102 1102 1102 1102 1102 1105 1106 1107 1108 1108 1109 1110 1111 1111 1112 1114 1116 1116 1116 1116 1119 1120 1120 1120 1120 1120 1120 1120 1120 1120 1120 1119 1119 1119 1119 1119 1120 1121 1121 1121 1121 1120 1120 1119 1119 1119 1119 1120 1120 1119 1118 1118 1118 1118 1118 1118 1119 1121 1121 1121 1120 1119 1116 1111 1106 1105 1104 1104 1103 1102 1100 1098 1097 1096 1095 1095 1094 1094 1090 1086 1086 1086 1085 1084 1084 1082 1079 1079 1077 1076 1073 1071 1069 1068 1065 1063 1061 1060 1059 1058 1056 1056 1055 1053 1051 1050 1048 1046 1045 1044 1041 1039 1037 1035 1032 1030 1029 1028 1027 1026 1025 1024 1023 1022 1021 1020 1019 1018 1017 1016 1015 1015 1014 1013 1013 1013 1012 1011 1011 1010 1010 1010 1010 1009 1008 1008 1008 1007 1007 1007 1007 1007 1007 1009 1010 1010 1010 1009 1009 1009 1009 1009 1009 1010 1011 1013 1013 1013 1012 1012 1011 1011 1010 1009 1007 1006 1005 1003 1002 1002 1001 1001 1001 1000 999 997 995 976 973 964 962 961 959 958 943 932 921 918 910 0 0 0
457 457 460 472 489 506 519 530 539 549 555 562 573 584 588 592 595 600 610 629 652 673 692 715 736 751 765 779 791 794 810 0 0 0 0 0 0 0 0 0 1463 1473 1473 0 0 0 0 0 0 0 0 0 0 0 0 0 0 1335 1335 1335 0 0 0 0 0 0 951 945 945 945 945 945 945 946 947 948 948 949 949 949 950 952 954 956 959 960 960 962 963 963 965 965 967 967 968 969 969 969 971 972 972 973 975 976 976 978 978 979 979 980 981 982 982 982 982 982 983 983 983 983 984 985 985 985 986 987 988 988 988 987 987 986 983 982 981 981 980 980 978 976 974 970 968 967 967 967 967 966 965 0 0 0 797 797 797 804 804 804 804 804 806 815 821 823 823 823 813 813 813 815 818 822 832 843 857 869 888 898 901 916 926 940 951 966 981 993 1000 1004 1004 1006 1008 1008 1008 1008 1007 1007 1007 1008 1008 1009 1009 1009 1008 1008 1008 1007 1007 1006 1005 1004 1002 1002 1000 997 995 992 988 986 984 977 961 952 948 937 936 936 937 937 936 936 936 936 939 947 950 950 955 955 958 962 966 970 971 972 975 982 990 995 1001 1008 1014 1021 1029 1034 1038 1038 1038 1038 1038 1038 1039 1040 1040 1040 1039 1039 1039 1039 1039 1039 1039 1040 1040 1041 1041 1040 1040 1040 1039 1039 1039 1038 1037 1036 1035 1035 1035 1035 1030 1023 1023 1023 1027 1028 1028 1028 1028 1029 1029 1029 1030 1030 1031 1031 1033 1035 1038 1038 1038 1038 1038 1038 1040 1041 1041 1041 1041 1041 1047 1052 1057 1059 1059 1059 1059 1058 1058 1058 1057 1057 1057 1057 1055 1050 1049 1049 1049 1052 1052 1052 1050 1045 1044 1044 1044 1044 1041 1040 1040 1040 1041 1041 1041 1041 1041 1039 1039 1039 1039 1040 1042 1044 1048 1048 1049 1051 1052 1052 1057 1057 1057 1055 1055 1055 1059 1059 1059 1060 1061 1061 1064 1065 1065 1066 1067 1069 1069 1069 1071 1075 1075 1075 1075 1074 1071 1065 1062 1055 1046 1042 1042 1042 1040 1038 1037 1035 1034 1034 1034 1036 1036 1036 1036 1036 1036 1037 1039 1042 1047 1051 1051 1051 1051 1051 1056 1064 1067 1072 1077 1082 1082 1082 1085 1088 1090 1091 1091 1094 1094 1094 1095 1095 1095 1098 1100 1101 1101 1102 1104 1105 1107 1107 1109 1110 1110 1112 1112 1113 1114 1115 1115 1115 1115 1115 1115 1115 1116 1116 1116 1116 1116 1116 1116 1116 1116 1116 1117 1117 1117 1117 1117 1117 1117 1117 1117 1117 1117 1117 1117 1117 1117 1116 1116 1116 1115 1115 1114 1112 1112 1107 1105 1105 1103 1101 1100 1100 1098 1097 1096 1096 1094 1090 1090 1089 1089 1087 1084 1082 1082 1081 1081 1081 1080 1078 1076 1075 1075 1072 1071 1070 1067 1065 1063 1060 1059 1057 1057 1055 1054 1053 1051 1050 1049 1048 1046 1044 1044 1041 1040 1037 1035 1033 1031 1029 1028 1026 1025 1024 1024 1022 1022 1021 1020 1020 1019 1018 1017 1016 1015 1015 1014 1013 1013 1013 1012 1011 1011 1010 1010 1010 1010 1009 1009 1008 1008 1008 1008 1008 1008 1008 1008 1009 1010 1010 1010 1010 1010 1010 1010 1010 1011 1012 1014 1014 1014 1014 1013 1012 1012 1012 1012 1011 1010 1008 1006 1004 1003 1003 1003 1003 1002 1002 999 997 995 993 991 972 969 966 966 966 966 940 923 922 911 0 0 0
462 462 463 472 489 506 519 530 540 549 555 562 573 584 594 599 607 618 629 634 653 674 699 719 738 755 769 782 792 796 0 0 0 0 0 0 0 0 0 1454 1473 1475 1475 1475 1472 0 0 0 0 0 0 0 0 0 0 0 1282 1317 1321 1321 1321 0 0 0 0 0 0 961 955 946 945 945 946 946 947 948 948 949 949 949 950 952 953 956 957 958 959 960 960 961 962 963 964 965 966 966 967 967 968 969 969 971 972 974 974 975 976 977 978 978 979 979 980 981 981 981 981 981 982 982 982 983 984 985 986 987 988 988 988 987 986 984 983 982 981 981 980 980 977 976 973 969 967 967 966 966 965 963 0 0 0 0 794 794 797 804 804 804 804 804 806 811 815 816 816 816 811 811 811 815 818 821 826 842 857 869 886 893 897 910 925 936 951 966 981 991 999 1004 1004 1006 1008 1008 1008 1008 1007 1007 1007 1007 1007 1008 1008 1008 1008 1008 1008 1008 1007 1006 1005 1004 1002 1002 1000 997 995 991 987 986 984 979 974 950 950 931 907 906 906 906 907 909 910 914 918 918 925 932 935 939 940 940 940 941 946 952 956 966 970 974 984 993 997 1008 1016 1023 1029 1035 1036 1036 1037 1037 1038 1038 1039 1039 1039 1039 1039 1039 1039 1040 1040 1040 1040 1041 1041 1040 1040 1040 1039 1039 1039 1037 1037 1036 1035 1035 1034 1032 1028 1021 1021 1021 1019 1019 1018 1017 1017 1017 1018 1018 1019 1023 1023 1023 1024 1024 1024 1026 1026 1028 1029 1029 1030 1030 1030 1028 1028 1028 1032 1040 1049 1055 1056 1056 1056 1055 1056 1056 1056 1057 1057 1057 1055 1053 1053 1052 1052 1052 1052 1052 1050 1050 1048 1046 1045 1044 1042 1040 1040 1040 1041 1041 1041 1041 1041 1039 1039 1039 1039 1039 1039 1037 1037 1037 1039 1040 1041 1041 1042 1042 1042 1042 1042 1043 1047 1051 1053 1054 1054 1054 1054 1054 1055 1055 1062 1063 1068 1069 1070 1072 1073 1074 1074 1074 1071 1065 1062 1057 1056 1049 1048 1047 1047 1046 1042 1038 1037 1037 1037 1043 1043 1043 1045 1045 1045 1045 1046 1047 1048 1051 1051 1051 1050 1050 1050 1050 1052 1057 1064 1069 1070 1071 1071 1071 1073 1074 1077 1080 1082 1083 1084 1084 1084 1087 1088 1088 1091 1092 1094 1096 1097 1099 1102 1102 1102 1105 1108 1109 1109 1109 1109 1109 1109 1111 1112 1112 1113 1114 1114 1114 1114 1114 1114 1113 1113 1113 1113 1113 1114 1114 1114 1114 1114 1114 1114 1114 1114 1114 1114 1112 1112 1112 1111 1111 1109 1109 1109 1108 1107 1104 1101 1100 1099 1098 1097 1096 1096 1095 1094 1094 1090 1089 1087 1086 1086 1084 1080 1079 1078 1078 1078 1078 1077 1075 1074 1072 1072 1069 1068 1066 1065 1062 1060 1059 1058 1056 1054 1053 1052 1051 1050 1049 1047 1046 1044 1042 1040 1039 1038 1036 1033 1032 1030 1029 1028 1026 1025 1023 1023 1022 1021 1021 1020 1020 1019 1018 1017 1016 1015 1015 1015 1014 1014 1014 1012 1012 1011 1011 1011 1010 1010 1010 1009 1009 1009 1009 1009 1009 1009 1009 1009 1010 1011 1011 1011 1011 1011 1011 1011 1011 1012 1013 1015 1015 1015 1014 1014 1013 1013 1013 1012 1012 1011 1010 1009 1006 1005 1004 1004 1003 1003 1003 1001 996 995 994 992 975 969 968 968 968 966 962 926 925 919 0 0 0
471 471 472 473 491 508 519 530 540 549 555 561 573 584 594 599 612 622 630 638 655 680 702 720 740 757 773 789 797 0 0 0 0 0 0 0 0 1420 1442 1460 1473 1475 1476 1478 1476 1475 0 0 0 0 0 0 0 0 0 0 1279 1305 1340 1340 1340 0 0 0 0 0 0 0 977 946 946 946 946 946 947 948 948 948 948 948 949 951 952 955 956 956 957 957 959 959 959 961 961 962 963 963 964 965 965 967 967 969 969 970 972 974 974 975 976 977 977 977 979 979 979 979 980 980 981 981 981 983 983 984 984 986 986 986 986 985 983 983 982 982 981 980 978 978 976 974 972 969 967 966 965 965 962 961 0 0 0 790 790 790 797 803 803 804 805 805 806 808 809 809 809 809 807 807 807 814 818 821 822 835 857 868 880 887 897 902 904 926 951 966 982 991 999 1004 1004 1006 1006 1007 1007 1007 1007 1006 1006 1006 1007 1007 1008 1008 1008 1008 1008 1008 1007 1006 1005 1004 1002 1001 999 997 994 990 986 986 981 980 974 950 950 920 895 893 893 893 893 894 896 896 900 905 906 915 923 929 933 936 936 937 938 944 952 955 957 959 970 978 988 993 997 1006 1017 1028 1035 1035 1035 1036 1038 1038 1039 1039 1039 1039 1039 1039 1039 1040 1040 1040 1040 1041 1041 1040 1040 1040 1039 1039 1039 1036 1036 1034 1034 1033 1032 1026 1021 1020 1020 1019 1018 1018 1011 1009 1009 1009 1011 1012 1014 1015 1015 1014 1013 1013 1013 1017 1017 1018 1017 1017 1017 1017 1017 1017 1017 1022 1027 1040 1047 1047 1048 1048 1048 1052 1053 1053 1054 1054 1054 1053 1053 1053 1053 1053 1053 1053 1052 1052 1050 1050 1049 1047 1046 1045 1045 1045 1045 1045 1045 1045 1045 1045 1045 1044 1042 1041 1040 1040 1038 1033 1030 1030 1030 1030 1030 1030 1027 1023 1022 1022 1022 1029 1036 1042 1044 1044 1044 1045 1045 1044 1044 1045 1045 1048 1048 1056 1058 1066 1066 1071 1071 1071 1068 1064 1062 1058 1057 1057 1057 1057 1057 1057 1053 1050 1048 1048 1048 1049 1051 1052 1052 1052 1052 1052 1050 1050 1050 1051 1051 1051 1050 1050 1050 1050 1050 1056 1057 1059 1059 1062 1062 1062 1063 1065 1066 1066 1067 1069 1070 1074 1078 1079 1080 1080 1081 1082 1083 1088 1091 1093 1094 1095 1095 1099 1103 1104 1104 1104 1104 1104 1105 1106 1108 1109 1110 1110 1110 1111 1111 1110 1110 1110 1110 1110 1110 1110 1110 1111 1111 1112 1112 1112 1112 1111 1110 1110 1110 1110 1110 1110 1110 1107 1106 1106 1106 1106 1105 1103 1100 1099 1096 1096 1095 1095 1094 1093 1092 1090 1088 1086 1085 1084 1083 1082 1080 1078 1077 1075 1074 1073 1073 1072 1071 1070 1069 1066 1065 1064 1061 1059 1058 1057 1056 1053 1052 1050 1050 1049 1048 1047 1045 1044 1041 1040 1039 1037 1036 1034 1033 1031 1029 1027 1026 1025 1024 1023 1023 1022 1021 1021 1020 1020 1019 1018 1018 1017 1017 1016 1015 1015 1014 1014 1013 1012 1012 1012 1011 1011 1011 1011 1011 1010 1010 1010 1010 1010 1010 1010 1010 1012 1012 1012 1012 1012 1012 1012 1012 1012 1013 1014 1015 1015 1015 1015 1015 1014 1013 1013 1013 1012 1012 1011 1010 1009 1007 1007 1007 1006 1004 1003 1001 997 996 996 994 987 969 968 968 968 966 965 961 954 946 0 0 0
474 474 476 479 493 508 519 527 540 548 552 559 570 583 594 599 612 624 630 638 655 680 702 720 741 761 779 0 0 0 0 0 0 0 0 0 1415 1431 1445 1460 1473 1476 1479 1479 1479 1481 1481 0 0 0 0 0 0 0 0 0 0 1284 1332 1340 0 0 0 0 0 0 0 0 987 951 946 946 946 946 947 948 948 948 948 948 949 950 952 952 954 954 955 956 956 956 957 959 959 959 960 961 962 962 963 965 965 966 967 968 970 971 972 973 974 974 975 976 976 976 977 977 977 978 980 980 981 982 982 983 983 984 984 984 984 983 982 981 981 981 979 978 976 975 973 973 971 969 967 964 964 964 964 953 0 0 0 795 795 795 797 803 805 806 806 806 806 806 808 809 809 809 809 809 809 814 818 821 822 835 857 868 876 885 895 902 904 926 951 969 981 991 999 1002 1004 1004 1005 1006 1006 1006 1006 1006 1006 1006 1006 1007 1007 1007 1008 1008 1008 1008 1006 1005 1004 1004 1001 999 998 995 993 990 986 985 980 978 974 950 927 916 892 892 892 893 893 894 895 896 899 905 906 910 916 922 930 934 934 934 935 935 938 947 948 951 963 973 985 989 994 1006 1012 1023 1029 1031 1033 1035 1035 1036 1038 1038 1038 1038 1039 1039 1039 1040 1040 1040 1040 1040 1040 1040 1040 1039 1038 1037 1037 1035 1033 1033 1032 1031 1029 1025 1020 1018 1018 1017 1013 1009 993 993 993 996 1000 1000 1000 999 999 999 998 998 999 999 1000 1001 1002 1004 1004 1004 1004 1006 1012 1016 1023 1035 1038 1038 1043 1045 1045 1046 1050 1052 1052 1052 1052 1052 1053 1053 1053 1053 1053 1052 1052 1052 1050 1050 1049 1049 1048 1047 1047 1047 1047 1045 1045 1045 1046 1046 1046 1044 1043 1041 1041 1040 1038 1032 1028 1021 1020 1019 1019 1018 1015 1011 1010 1010 1010 1010 1010 1013 1019 1027 1029 1035 1035 1035 1033 1027 1027 1027 1029 1037 1042 1044 1048 1056 1062 1062 1062 1060 1060 1060 1060 1060 1060 1060 1060 1060 1059 1059 1058 1057 1055 1055 1055 1055 1057 1057 1057 1057 1057 1057 1057 1058 1058 1058 1052 1050 1050 1050 1050 1052 1052 1052 1052 1051 1051 1051 1051 1051 1052 1053 1055 1061 1064 1067 1068 1070 1071 1071 1071 1071 1073 1073 1077 1085 1086 1086 1087 1089 1094 1099 1101 1101 1101 1101 1101 1102 1103 1104 1105 1106 1107 1107 1107 1107 1107 1106 1106 1106 1106 1107 1107 1107 1107 1109 1109 1109 1108 1108 1106 1106 1106 1108 1108 1108 1108 1106 1103 1102 1102 1102 1102 1102 1098 1097 1095 1095 1094 1093 1092 1091 1089 1087 1085 1083 1082 1080 1079 1077 1076 1074 1073 1071 1070 1070 1069 1069 1068 1067 1066 1063 1063 1061 1059 1057 1057 1053 1051 1049 1049 1048 1047 1047 1045 1043 1043 1041 1041 1039 1038 1036 1034 1032 1031 1030 1028 1027 1026 1025 1024 1023 1023 1022 1021 1021 1020 1020 1020 1018 1018 1018 1017 1016 1016 1015 1015 1014 1014 1013 1013 1012 1012 1012 1012 1011 1011 1011 1011 1011 1011 1011 1011 1011 1012 1012 1012 1012 1012 1013 1013 1014 1014 1014 1014 1015 1016 1016 1016 1016 1015 1015 1015 1014 1014 1012 1012 1011 1011 1010 1010 1010 1009 1009 1008 1006 1001 1000 997 996 996 993 969 968 968 968 966 966 961 954 946 0 0 0
474 474 476 483 495 508 518 526 539 548 552 559 569 581 594 598 612 625 636 646 655 680 702 722 741 768 0 0 0 0 0 0 0 0 0 0 1418 1433 1445 1460 1469 1474 1476 1479 1484 1485 1499 1499 0 0 0 0 0 0 0 0 0 0 0 0 0 0 1340 1282 0 0 0 0 1000 962 946 946 946 946 947 947 947 947 947 947 947 948 950 951 951 952 953 953 954 954 955 955 956 956 957 958 958 960 960 961 962 964 964 966 967 969 970 971 972 972 973 974 974 974 975 975 975 977 978 979 980 980 981 982 982 982 982 982 982 981 980 979 979 978 978 976 974 973 972 971 968 967 966 964 964 961 957 0 0 0 806 797 797 797 797 801 804 807 807 807 807 807 808 809 809 809 809 809 809 813 814 816 825 842 857 866 876 885 894 902 904 917 941 969 981 990 997 1001 1002 1003 1004 1004 1004 1004 1004 1005 1005 1005 1005 1006 1006 1006 1006 1006 1006 1006 1005 1004 1004 1002 1000 999 997 995 992 988 986 984 977 977 956 947 922 909 892 892 892 893 893 893 895 895 899 902 906 910 914 919 926 933 933 933 935 935 937 945 948 951 963 971 984 989 994 1006 1011 1017 1024 1029 1032 1033 1034 1035 1036 1036 1037 1037 1037 1038 1038 1039 1039 1039 1039 1038 1038 1038 1038 1037 1037 1035 1035 1033 1032 1031 1031 1029 1027 1024 1020 1018 1017 1014 1011 1002 993 993 993 995 995 995 994 992 992 991 989 988 988 988 988 988 989 993 997 998 998 998 1000 1003 1005 1020 1029 1033 1034 1037 1042 1045 1048 1052 1052 1052 1052 1052 1053 1053 1053 1053 1053 1052 1051 1051 1050 1050 1049 1049 1049 1048 1048 1047 1047 1046 1046 1046 1046 1046 1046 1044 1043 1042 1041 1040 1038 1032 1028 1019 1014 1012 1009 1004 998 994 991 991 990 991 991 992 999 1004 1011 1018 1018 1018 1015 1015 1015 1015 1016 1025 1029 1032 1035 1048 1056 1056 1057 1057 1057 1060 1060 1060 1061 1061 1061 1061 1061 1061 1060 1060 1060 1060 1060 1060 1060 1060 1059 1058 1058 1058 1059 1059 1059 1059 1057 1054 1052 1052 1050 1049 1049 1047 1046 1043 1041 1037 1036 1036 1037 1039 1045 1048 1049 1059 1059 1059 1053 1052 1052 1052 1052 1055 1060 1063 1064 1069 1074 1079 1084 1090 1096 1097 1097 1097 1098 1098 1100 1100 1101 1102 1102 1102 1103 1103 1103 1103 1103 1103 1103 1104 1104 1104 1104 1105 1105 1105 1105 1104 1104 1104 1104 1104 1104 1104 1104 1102 1102 1102 1101 1100 1100 1099 1095 1094 1094 1094 1093 1091 1089 1088 1087 1085 1081 1080 1079 1076 1075 1074 1072 1071 1070 1068 1067 1067 1066 1066 1064 1064 1063 1061 1060 1059 1057 1056 1055 1052 1049 1048 1048 1046 1044 1044 1042 1041 1040 1039 1039 1037 1037 1035 1033 1032 1031 1029 1028 1026 1026 1025 1024 1023 1023 1022 1022 1022 1021 1021 1020 1020 1019 1018 1018 1018 1017 1017 1016 1015 1015 1014 1013 1013 1013 1013 1012 1012 1012 1012 1013 1013 1013 1013 1013 1014 1014 1014 1013 1013 1013 1014 1014 1014 1015 1015 1015 1016 1017 1017 1017 1017 1016 1016 1016 1015 1014 1013 1013 1012 1011 1010 1010 1010 1010 1010 1009 1007 1003 1000 1000 998 997 995 978 965 965 965 965 965 963 954 946 0 0 0
475 475 477 484 495 508 516 525 539 548 552 559 569 581 594 598 614 625 636 646 655 680 702 722 746 777 0 0 0 0 0 0 0 0 0 1398 1418 1433 1445 1455 1465 1473 1476 1480 1489 1491 1501 1507 1507 1507 0 0 0 0 0 0 0 0 0 0 0 1333 1333 1324 0 0 0 0 1010 962 946 946 946 946 947 947 947 946 946 946 947 947 949 949 950 951 951 951 951 953 953 954 954 954 955 956 956 957 958 959 960 961 962 963 964 965 966 968 969 970 970 971 972 972 972 972 973 975 976 977 978 979 979 979 980 980 980 980 980 979 979 979 977 977 976 974 972 970 968 968 966 966 964 959 955 954 953 0 0 0 799 797 797 797 798 801 804 807 807 807 807 807 808 812 812 812 809 809 809 813 814 816 825 842 857 866 876 884 894 902 907 917 951 971 981 989 995 997 998 1000 1002 1003 1003 1003 1003 1003 1004 1004 1004 1004 1004 1004 1005 1005 1005 1005 1004 1003 1002 1001 999 998 995 992 990 985 982 977 976 976 956 943 922 905 892 892 892 894 894 894 895 896 899 902 905 910 914 919 925 931 932 932 934 935 937 943 946 951 959 970 982 989 994 1005 1010 1017 1023 1025 1029 1031 1032 1033 1034 1035 1035 1036 1036 1037 1038 1038 1038 1038 1038 1038 1037 1036 1036 1036 1036 1035 1033 1032 1030 1029 1029 1028 1025 1022 1020 1017 1016 1011 1011 999 993 993 993 993 993 992 989 987 986 985 980 980 980 980 981 981 983 989 994 995 995 995 995 995 997 1007 1015 1021 1022 1029 1038 1041 1043 1049 1051 1051 1051 1051 1052 1052 1052 1052 1052 1052 1051 1050 1050 1050 1049 1049 1049 1048 1048 1047 1047 1046 1046 1046 1046 1045 1045 1044 1043 1042 1040 1035 1029 1028 1019 1004 1000 1000 994 989 978 970 970 969 969 969 971 972 977 981 985 990 990 990 990 990 997 998 998 999 1001 1003 1012 1032 1043 1043 1044 1051 1056 1060 1061 1061 1061 1061 1061 1061 1061 1061 1060 1060 1060 1060 1060 1060 1060 1060 1060 1059 1059 1059 1059 1059 1059 1059 1057 1054 1052 1051 1049 1049 1048 1042 1038 1035 1033 1029 1022 1019 1019 1019 1023 1023 1024 1033 1033 1033 1033 1033 1033 1033 1033 1038 1044 1046 1049 1054 1062 1072 1073 1074 1086 1092 1092 1093 1094 1094 1096 1097 1097 1097 1098 1098 1099 1099 1099 1100 1100 1100 1101 1101 1101 1101 1102 1102 1102 1102 1102 1102 1102 1102 1102 1102 1102 1102 1100 1100 1100 1100 1099 1099 1098 1097 1095 1092 1091 1091 1089 1087 1084 1083 1082 1080 1079 1076 1075 1073 1072 1071 1070 1069 1068 1067 1067 1065 1064 1063 1062 1061 1060 1059 1058 1057 1057 1054 1052 1050 1048 1046 1045 1044 1042 1042 1040 1039 1038 1038 1037 1036 1034 1033 1032 1031 1030 1029 1028 1026 1026 1025 1024 1023 1023 1023 1022 1022 1022 1021 1021 1020 1020 1020 1020 1019 1019 1018 1017 1017 1016 1015 1014 1014 1014 1013 1013 1013 1013 1013 1014 1014 1015 1015 1016 1016 1016 1016 1016 1015 1015 1015 1016 1016 1017 1017 1017 1017 1018 1018 1018 1018 1018 1017 1017 1016 1015 1015 1014 1013 1012 1010 1010 1010 1010 1010 1009 1007 1005 1000 1000 998 997 995 983 961 961 961 961 961 961 946 939 0 0 0
477 477 479 484 495 508 515 525 539 549 553 559 569 581 594 598 614 627 639 647 655 680 702 722 754 790 0 0 0 0 0 0 0 0 1373 1398 1418 1433 1442 1451 1462 1473 1479 1485 1493 1495 1501 1507 1510 1510 1510 0 0 0 0 0 0 0 0 0 1270 1322 1324 1324 0 0 0 0 1016 971 948 946 946 946 946 946 945 945 945 945 946 947 947 948 949 949 949 950 950 951 951 951 951 952 953 953 954 954 955 957 958 959 960 961 961 963 963 964 966 966 968 969 969 969 969 970 972 972 974 976 976 977 977 978 978 978 978 978 977 977 977 976 975 974 973 972 970 968 967 965 963 962 960 957 957 955 954 0 0 0 799 798 798 798 798 801 804 808 808 808 808 808 808 812 816 816 816 815 815 815 815 816 825 844 857 866 876 884 894 903 908 927 958 971 981 988 991 995 996 997 999 1001 1001 1001 1002 1002 1002 1002 1002 1002 1002 1003 1003 1003 1003 1003 1002 1001 1000 999 998 997 995 991 987 983 979 973 972 968 956 943 922 905 893 893 893 894 894 894 895 896 899 902 905 910 914 919 924 929 930 931 932 932 935 940 945 949 959 970 978 989 999 1005 1009 1015 1021 1022 1023 1029 1031 1031 1032 1033 1033 1034 1034 1035 1036 1037 1037 1037 1037 1036 1036 1036 1035 1035 1034 1032 1032 1029 1029 1028 1026 1025 1023 1020 1018 1014 1012 1011 1006 999 993 993 991 991 991 988 985 984 982 980 976 976 976 976 976 976 980 987 991 991 991 989 989 989 992 1001 1006 1014 1015 1023 1033 1034 1037 1043 1047 1048 1050 1050 1051 1051 1051 1051 1051 1051 1051 1050 1050 1050 1049 1049 1049 1048 1048 1047 1046 1046 1046 1046 1046 1045 1044 1043 1042 1042 1037 1034 1029 1026 1019 1004 998 995 981 972 963 963 963 967 967 967 967 967 970 975 975 975 975 975 975 980 982 982 982 981 981 981 1000 1014 1017 1027 1031 1047 1055 1060 1061 1061 1061 1061 1061 1061 1061 1061 1060 1060 1060 1060 1060 1060 1060 1060 1060 1059 1059 1059 1059 1059 1058 1058 1057 1054 1052 1049 1049 1044 1039 1037 1033 1029 1025 1025 1007 1003 1001 1001 1000 999 999 999 999 999 1000 1001 1005 1013 1024 1024 1024 1025 1025 1030 1038 1047 1053 1054 1071 1083 1084 1084 1086 1090 1091 1092 1094 1094 1094 1095 1095 1095 1096 1096 1097 1097 1098 1098 1098 1098 1099 1099 1099 1099 1099 1099 1099 1099 1100 1100 1099 1099 1098 1098 1097 1096 1096 1096 1094 1093 1092 1091 1089 1088 1086 1083 1081 1080 1078 1076 1074 1073 1071 1070 1070 1069 1068 1068 1066 1065 1063 1063 1062 1060 1059 1059 1057 1055 1054 1053 1052 1052 1050 1047 1045 1044 1042 1042 1041 1040 1039 1038 1037 1037 1035 1034 1034 1033 1032 1031 1030 1029 1028 1026 1026 1025 1024 1023 1023 1023 1022 1022 1022 1022 1022 1022 1022 1021 1021 1021 1020 1020 1019 1019 1018 1017 1016 1016 1016 1014 1014 1014 1015 1016 1016 1016 1017 1017 1018 1019 1019 1019 1018 1018 1018 1017 1017 1018 1018 1018 1018 1019 1019 1019 1019 1019 1019 1019 1019 1018 1016 1015 1015 1014 1012 1010 1010 1010 1010 1010 1009 1007 1005 1005 999 999 997 995 994 961 961 961 959 959 959 934 913 0 0 0
475 475 477 484 495 508 515 525 539 551 558 567 575 585 595 599 615 631 646 659 670 0 0 0 0 0 0 0 0 0 0 1296 1326 1353 1374 1397 1416 1430 1442 1451 1462 1474 1485 1493 1495 1498 1501 1504 1510 1514 1514 1514 0 0 0 0 0 0 0 0 0 0 0 0 0 0 0 0 0 971 947 946 946 945 945 945 944 944 944 944 944 945 946 946 947 947 947 948 948 949 949 949 949 950 950 950 951 951 952 953 955 956 957 958 959 960 961 962 963 964 965 965 966 967 967 968 968 970 972 973 973 974 974 974 974 975 975 975 975 975 975 974 972 971 970 969 967 965 963 960 958 958 958 958 954 954 0 883 858 816 799 799 798 798 799 801 806 809 809 809 809 809 809 813 817 823 823 823 824 827 837 838 842 849 858 866 878 886 894 905 916 933 958 971 981 987 991 994 995 995 996 998 999 999 1000 1000 999 999 999 999 1000 1000 1000 1000 1000 1000 1000 999 998 997 996 995 992 988 985 981 976 971 971 967 962 943 922 905 898 896 896 896 896 896 896 897 899 902 905 910 916 920 923 926 929 931 931 932 934 939 942 949 959 965 976 989 999 1005 1009 1015 1021 1021 1021 1024 1028 1029 1030 1030 1031 1032 1032 1033 1034 1034 1034 1034 1034 1034 1034 1033 1033 1032 1031 1030 1029 1027 1026 1024 1024 1022 1021 1017 1014 1012 1009 1006 1004 994 993 990 990 990 986 984 981 979 978 974 972 971 971 971 971 973 979 987 987 987 987 987 987 987 990 995 1001 1007 1009 1015 1024 1026 1032 1039 1043 1045 1046 1047 1048 1048 1048 1049 1050 1050 1050 1049 1048 1048 1048 1048 1047 1047 1047 1046 1046 1046 1046 1045 1045 1045 1043 1041 1040 1040 1036 1033 1028 1021 1015 1003 998 993 979 969 956 956 956 967 967 967 967 967 970 973 973 973 973 973 973 976 976 977 977 977 977 979 995 1005 1013 1024 1028 1041 1053 1060 1060 1061 1061 1061 1061 1061 1061 1061 1060 1060 1060 1060 1060 1060 1060 1060 1059 1059 1059 1059 1059 1059 1058 1058 1057 1054 1051 1049 1044 1042 1038 1033 1025 1020 1015 1006 991 988 986 984 981 978 969 966 961 960 960 966 966 989 1008 1008 1008 1004 1000 1000 1000 1012 1023 1042 1055 1067 1068 1075 1078 1085 1089 1089 1090 1090 1090 1091 1092 1092 1093 1093 1093 1095 1095 1095 1095 1095 1096 1096 1096 1096 1097 1097 1097 1097 1097 1096 1096 1095 1094 1094 1094 1094 1093 1092 1090 1089 1089 1088 1086 1084 1082 1080 1078 1077 1075 1074 1073 1071 1070 1069 1068 1067 1065 1065 1063 1062 1061 1059 1059 1057 1057 1055 1054 1052 1051 1050 1049 1048 1047 1045 1043 1042 1041 1040 1039 1038 1037 1036 1035 1034 1034 1033 1033 1033 1032 1031 1030 1029 1028 1027 1026 1026 1025 1025 1024 1024 1024 1024 1024 1024 1024 1024 1024 1022 1022 1022 1022 1022 1021 1020 1019 1019 1019 1018 1017 1016 1016 1016 1017 1017 1018 1018 1018 1019 1019 1021 1021 1021 1020 1020 1020 1019 1019 1019 1020 1020 1020 1021 1021 1021 1021 1021 1021 1020 1019 1018 1017 1017 1015 1015 1013 1011 1010 1010 1010 1009 1008 1006 1005 1005 1000 998 996 995 994 975 961 960 956 950 945 923 908 0 0 0
474 474 476 481 490 503 513 524 539 551 558 567 575 586 598 602 618 633 653 671 687 0 0 0 0 0 0 0 0 0 0 1317 1339 1361 1376 1396 1413 1429 1440 1451 1462 1476 1485 1493 1495 1498 1498 1499 1509 1514 1530 1532 0 0 0 0 0 0 0 0 0 0 0 0 0 0 0 0 0 964 946 946 946 943 943 943 941 941 941 942 943 943 944 944 944 945 945 945 946 946 947 947 947 947 948 948 948 948 949 951 952 952 954 956 957 958 959 960 961 962 962 963 963 964 965 966 967 967 969 971 971 971 972 972 972 972 972 972 972 972 971 970 968 968 967 966 964 963 961 958 957 956 954 954 954 953 0 875 852 822 808 803 801 801 801 805 808 809 809 809 809 809 811 815 818 824 826 827 833 839 842 847 850 857 864 873 880 890 904 912 932 947 962 972 981 987 991 992 993 994 994 995 996 997 997 997 997 996 996 997 997 997 997 997 997 997 997 996 995 993 992 991 989 986 982 978 973 971 965 964 963 947 922 906 901 898 898 897 896 896 896 898 899 902 905 912 917 920 922 924 926 928 931 931 934 938 942 947 953 964 975 989 999 1000 1004 1010 1013 1018 1020 1022 1024 1028 1029 1029 1029 1029 1030 1032 1032 1032 1032 1032 1032 1032 1032 1031 1030 1030 1028 1028 1026 1025 1024 1023 1022 1021 1019 1014 1012 1009 1008 1004 999 993 988 986 986 984 982 979 975 970 968 968 968 965 965 965 966 972 979 984 984 984 984 984 984 986 989 995 1000 1002 1004 1012 1018 1021 1027 1035 1039 1040 1043 1044 1044 1045 1045 1046 1047 1047 1047 1047 1046 1046 1046 1046 1046 1046 1045 1045 1045 1045 1044 1044 1044 1044 1042 1039 1038 1036 1032 1032 1027 1020 1014 1003 996 988 974 964 952 952 952 957 965 966 967 967 969 972 972 972 969 969 969 971 972 973 975 976 976 979 992 1001 1007 1019 1023 1030 1044 1053 1057 1059 1060 1060 1060 1061 1061 1061 1060 1060 1060 1060 1060 1060 1060 1060 1059 1059 1059 1059 1058 1058 1057 1056 1055 1053 1051 1048 1044 1041 1037 1033 1025 1020 1004 991 983 982 981 981 975 964 948 948 948 953 953 954 955 960 979 980 980 980 978 978 978 987 1002 1015 1030 1032 1049 1063 1066 1076 1082 1082 1083 1084 1086 1086 1088 1088 1089 1090 1090 1090 1091 1092 1092 1092 1093 1093 1093 1093 1093 1094 1094 1094 1094 1093 1093 1093 1092 1091 1091 1091 1091 1088 1087 1087 1086 1084 1082 1080 1079 1078 1076 1074 1072 1071 1070 1069 1068 1067 1066 1064 1063 1062 1061 1059 1058 1057 1056 1054 1054 1052 1051 1050 1050 1047 1046 1046 1045 1044 1041 1038 1038 1037 1037 1036 1035 1034 1034 1033 1033 1033 1032 1032 1031 1031 1030 1029 1028 1028 1027 1027 1027 1026 1026 1026 1026 1026 1026 1025 1025 1025 1025 1025 1025 1025 1025 1024 1024 1023 1022 1021 1021 1020 1018 1018 1018 1019 1020 1020 1020 1020 1020 1020 1021 1022 1023 1023 1023 1022 1021 1020 1020 1020 1020 1021 1021 1021 1023 1023 1023 1022 1021 1021 1021 1019 1017 1017 1016 1015 1014 1013 1011 1010 1010 1009 1007 1005 1005 1005 1000 998 995 995 994 975 957 942 940 936 933 923 908 0 0 0
472 472 474 475 483 494 509 523 539 551 558 567 575 587 600 603 620 637 658 679 0 0 0 0 0 0 0 0 0 0 1297 1318 1339 1361 1376 1395 1412 1427 1440 1452 1466 1477 1485 1493 1495 1497 1497 1498 1507 1514 1532 1558 1558 0 0 0 0 0 0 0 0 0 0 0 0 0 0 0 0 958 940 940 940 940 940 940 939 939 939 940 940 941 941 942 942 942 942 943 943 944 944 944 945 945 945 945 946 946 946 947 948 950 951 953 955 956 957 957 959 960 961 961 961 961 962 962 963 963 965 967 969 970 970 970 970 969 969 969 969 968 968 967 965 965 964 962 960 959 958 955 953 950 950 950 950 950 900 875 852 823 814 807 802 802 802 806 811 811 812 813 813 814 814 815 818 824 832 835 837 841 843 848 853 859 865 873 888 900 909 915 937 948 962 973 983 986 990 990 991 992 993 993 993 994 994 994 994 994 994 994 994 994 994 994 994 994 994 993 991 990 989 988 986 982 979 974 971 970 964 963 962 943 922 907 905 902 900 900 897 897 897 898 901 902 906 914 920 920 921 923 926 928 930 931 933 937 941 946 953 961 971 986 996 997 999 1004 1009 1015 1019 1020 1023 1025 1027 1027 1027 1027 1027 1028 1029 1029 1029 1029 1029 1029 1029 1028 1028 1028 1026 1024 1024 1023 1022 1021 1020 1018 1016 1013 1010 1008 1005 1001 998 992 986 984 981 981 977 971 968 968 966 966 966 963 963 963 965 971 977 979 980 982 983 984 984 986 989 993 996 999 1004 1011 1017 1018 1021 1027 1031 1035 1038 1040 1041 1042 1043 1045 1045 1045 1045 1045 1045 1045 1045 1045 1045 1044 1044 1044 1043 1043 1043 1042 1042 1041 1039 1037 1035 1032 1030 1027 1025 1020 1014 1003 995 988 972 960 951 951 951 957 965 966 967 967 969 969 969 968 966 966 966 967 969 972 975 975 976 981 989 997 999 1008 1019 1025 1040 1051 1053 1058 1058 1058 1059 1060 1060 1060 1060 1060 1059 1059 1059 1059 1059 1059 1059 1059 1059 1058 1058 1057 1056 1055 1054 1052 1050 1046 1043 1039 1036 1033 1027 1019 1003 988 981 978 977 974 968 958 948 948 948 953 953 953 954 954 960 971 972 973 973 975 978 982 993 1005 1014 1017 1029 1049 1057 1063 1069 1074 1079 1079 1080 1083 1084 1085 1086 1087 1088 1088 1089 1089 1089 1090 1090 1090 1091 1091 1091 1091 1091 1091 1091 1091 1091 1090 1090 1089 1089 1088 1087 1085 1085 1085 1083 1080 1078 1078 1077 1075 1073 1071 1070 1070 1068 1067 1066 1064 1062 1061 1061 1059 1058 1057 1057 1055 1055 1052 1052 1051 1049 1047 1046 1046 1044 1043 1042 1040 1039 1037 1037 1036 1036 1035 1034 1033 1033 1033 1033 1032 1032 1032 1031 1031 1030 1030 1029 1029 1029 1029 1029 1029 1029 1029 1029 1028 1028 1028 1028 1028 1028 1028 1028 1028 1028 1028 1027 1026 1024 1023 1023 1022 1021 1021 1021 1022 1022 1022 1022 1022 1022 1023 1024 1025 1025 1025 1025 1024 1024 1022 1022 1022 1021 1021 1021 1023 1023 1023 1023 1023 1022 1022 1022 1021 1020 1020 1018 1016 1015 1014 1013 1011 1010 1008 1006 1004 1004 1003 1000 998 995 994 990 975 957 942 928 926 925 914 902 0 0 0
461 461 464 467 474 485 500 519 536 551 557 565 575 587 601 604 622 644 665 0 0 0 0 0 0 0 0 0 1275 1278 1297 1318 1342 1361 1377 1395 1411 1427 1442 1454 1466 1478 1484 1489 1490 1492 1493 1493 1500 1503 1532 1558 1558 0 0 0 0 0 0 0 0 0 0 0 0 0 0 924 925 928 928 931 933 937 937 937 937 937 938 938 938 939 939 940 940 940 941 941 941 941 942 943 943 943 943 943 943 941 941 941 943 945 946 947 950 951 952 953 954 954 955 956 956 956 958 959 959 959 960 962 964 966 966 966 966 967 966 966 966 966 964 964 963 961 960 957 956 954 954 951 948 946 946 942 932 926 898 871 852 834 824 816 810 810 810 810 817 818 818 820 822 824 824 827 828 834 841 844 844 846 851 856 858 859 865 873 891 904 910 917 937 953 966 973 983 986 988 989 990 990 990 991 991 992 992 992 992 992 992 991 991 991 991 991 991 991 991 990 988 987 986 985 983 980 976 970 968 967 964 963 961 943 922 910 907 903 902 902 900 900 900 900 902 906 911 915 920 920 921 923 925 928 929 931 933 937 941 946 953 960 970 980 987 992 994 1000 1008 1012 1015 1018 1020 1022 1024 1024 1024 1024 1024 1025 1026 1027 1027 1027 1027 1026 1026 1026 1025 1025 1024 1023 1021 1021 1020 1019 1017 1016 1014 1012 1008 1005 1002 1000 996 990 983 981 979 973 967 966 966 966 966 966 966 963 963 963 965 971 974 975 979 982 983 984 984 986 990 993 995 999 1002 1009 1015 1017 1020 1024 1027 1030 1034 1037 1039 1040 1041 1042 1043 1043 1043 1043 1043 1043 1043 1043 1043 1042 1042 1042 1042 1042 1042 1041 1040 1039 1037 1035 1033 1029 1027 1026 1024 1020 1014 1003 994 988 970 954 951 951 951 957 966 967 967 967 967 967 967 963 961 961 961 964 969 972 974 975 977 981 988 993 996 1000 1009 1018 1036 1047 1050 1053 1054 1054 1056 1057 1058 1058 1058 1058 1058 1058 1058 1057 1057 1057 1057 1058 1058 1057 1057 1056 1055 1054 1053 1051 1050 1046 1042 1038 1036 1033 1029 1020 1003 988 980 972 972 969 964 958 948 948 948 953 953 953 954 954 954 963 967 968 972 975 977 979 983 993 1003 1005 1017 1027 1043 1056 1063 1071 1074 1075 1075 1079 1081 1082 1083 1084 1085 1086 1086 1086 1087 1087 1087 1087 1088 1088 1088 1088 1088 1088 1088 1088 1088 1088 1088 1087 1086 1084 1084 1084 1083 1083 1081 1079 1076 1076 1075 1072 1071 1070 1068 1068 1066 1065 1064 1063 1060 1059 1059 1057 1056 1055 1055 1053 1052 1051 1050 1047 1047 1045 1043 1042 1041 1041 1040 1038 1037 1037 1036 1035 1035 1034 1034 1033 1033 1033 1033 1032 1032 1032 1031 1031 1031 1031 1031 1030 1030 1030 1030 1030 1031 1031 1031 1031 1030 1030 1030 1031 1031 1031 1032 1032 1033 1033 1033 1029 1028 1027 1027 1025 1023 1023 1022 1022 1022 1025 1025 1025 1025 1025 1027 1027 1027 1027 1027 1025 1025 1025 1024 1023 1023 1023 1023 1024 1025 1025 1025 1024 1024 1024 1023 1022 1021 1020 1018 1017 1015 1014 1013 1011 1010 1008 1006 1003 1002 1002 998 993 989 989 985 975 960 942 927 926 925 912 902 0 0 0
448 448 450 459 465 471 487 506 524 538 549 561 574 586 601 604 622 0 0 0 0 0 0 0 0 0 0 1259 1277 1280 1297 1322 1342 1361 1378 1395 1411 1427 1442 1455 1468 1478 1481 1484 1484 1484 1487 1488 1494 1500 1530 1558 1558 0 0 0 0 0 0 0 0 911 911 911 911 915 917 919 919 926 927 927 932 932 935 935 935 935 935 936 936 936 937 937 937 938 938 938 938 939 939 940 941 941 941 940 939 938 937 937 937 938 938 939 940 940 944 945 945 946 946 946 949 949 950 950 951 952 953 955 956 958 959 960 961 962 963 963 963 961 960 960 959 957 953 951 951 951 950 949 948 946 942 937 930 918 896 875 852 843 838 833 824 824 824 826 831 831 831 831 831 834 837 841 843 847 850 853 854 858 862 869 870 870 872 881 891 904 911 924 937 953 966 973 983 985 985 986 987 987 987 988 989 989 989 990 990 990 989 989 989 989 989 989 988 988 987 986 985 983 983 983 980 977 975 970 968 966 963 960 953 933 917 911 908 907 904 902 900 900 900 903 905 908 911 916 920 920 921 923 925 928 930 931 934 937 941 946 953 961 968 973 979 988 993 1000 1006 1010 1012 1014 1017 1018 1020 1020 1021 1021 1021 1023 1023 1024 1024 1024 1024 1024 1024 1024 1023 1023 1022 1020 1019 1018 1017 1016 1014 1013 1011 1009 1007 1005 1002 999 995 989 983 977 970 964 964 964 965 966 966 966 966 963 963 963 965 969 971 975 979 982 984 984 984 987 991 993 995 998 1000 1005 1012 1017 1018 1022 1026 1029 1032 1035 1037 1037 1039 1039 1041 1041 1041 1041 1041 1040 1040 1040 1041 1041 1041 1040 1040 1039 1039 1038 1038 1037 1035 1034 1031 1027 1025 1024 1022 1018 1012 1003 994 989 970 955 955 955 962 966 967 968 968 968 968 967 965 961 960 960 960 961 966 970 973 975 977 981 988 991 995 1000 1003 1011 1022 1034 1044 1048 1049 1051 1053 1055 1056 1056 1056 1057 1057 1056 1056 1056 1056 1056 1057 1057 1056 1056 1056 1055 1054 1053 1051 1049 1048 1046 1042 1038 1035 1033 1030 1020 1003 988 980 969 968 965 964 958 954 954 954 955 955 955 954 954 954 958 961 966 970 974 977 979 983 991 998 1000 1008 1015 1026 1049 1061 1065 1068 1071 1073 1076 1078 1079 1080 1081 1082 1082 1083 1083 1083 1084 1084 1084 1085 1086 1086 1086 1086 1086 1086 1086 1085 1085 1085 1084 1083 1083 1083 1083 1082 1079 1077 1077 1075 1074 1073 1072 1070 1069 1067 1065 1064 1063 1062 1061 1059 1058 1057 1056 1055 1053 1052 1051 1049 1049 1047 1045 1044 1043 1042 1040 1040 1038 1037 1036 1036 1036 1035 1035 1034 1034 1034 1033 1033 1033 1033 1033 1032 1032 1032 1032 1032 1032 1032 1033 1033 1033 1033 1033 1033 1033 1033 1033 1033 1033 1033 1034 1034 1035 1036 1036 1036 1036 1036 1035 1034 1033 1032 1029 1025 1024 1023 1023 1023 1027 1027 1027 1027 1027 1027 1028 1028 1028 1028 1026 1026 1026 1026 1026 1026 1026 1026 1027 1027 1027 1027 1026 1026 1025 1024 1024 1022 1020 1019 1018 1017 1015 1013 1012 1010 1007 1005 1003 1001 1000 996 990 988 984 981 975 965 949 927 926 925 906 899 0 0 0
448 448 450 450 450 454 467 487 505 520 533 552 570 584 601 604 0 0 0 0 0 0 0 0 0 0 1229 1259 1279 1283 1304 1322 1343 1361 1379 1395 1411 1430 1450 1457 1468 1478 1481 1481 1481 1483 1483 1483 1483 1499 1530 1530 1530 0 0 0 0 0 0 0 907 907 907 909 909 914 917 917 918 923 924 925 927 928 932 933 933 933 933 934 935 935 935 935 935 935 935 936 936 936 936 937 937 937 936 936 935 935 934 934 934 937 938 938 940 940 941 943 943 943 943 943 942 941 942 943 943 943 944 944 945 945 947 950 952 954 954 954 953 951 951 951 948 947 946 946 946 947 947 947 947 945 941 937 930 918 896 879 861 855 846 842 842 842 842 846 846 846 844 842 842 842 848 852 853 854 858 861 865 866 872 876 880 880 880 882 891 904 911 924 932 948 962 968 975 979 979 980 981 982 984 984 984 984 984 984 984 984 984 985 985 985 985 985 985 985 984 983 981 981 980 979 977 975 973 970 967 966 960 952 946 933 917 912 909 908 904 904 904 904 905 907 909 909 912 918 920 920 921 923 925 928 931 932 934 937 941 946 954 962 965 969 972 986 993 1000 1006 1008 1010 1012 1014 1015 1017 1018 1018 1019 1019 1019 1020 1020 1020 1021 1021 1021 1020 1020 1020 1020 1019 1017 1016 1016 1014 1014 1011 1011 1009 1008 1005 1004 1001 999 994 989 983 974 969 964 964 964 965 968 968 968 966 965 965 965 966 969 971 975 979 982 984 984 984 987 991 992 995 997 998 1003 1009 1015 1017 1020 1024 1027 1031 1032 1033 1035 1037 1037 1038 1038 1038 1038 1038 1038 1038 1038 1038 1038 1038 1037 1037 1037 1037 1035 1035 1034 1033 1032 1030 1026 1022 1021 1019 1015 1007 1003 995 990 970 967 967 967 970 971 971 971 970 968 966 964 962 961 960 960 960 961 966 970 973 974 977 981 985 988 993 997 1002 1009 1016 1027 1038 1044 1046 1049 1051 1052 1053 1054 1054 1054 1055 1055 1055 1055 1055 1054 1054 1055 1055 1055 1055 1053 1052 1051 1049 1048 1045 1043 1041 1038 1034 1033 1030 1022 1008 995 980 968 965 963 963 960 958 958 958 958 958 957 955 955 955 958 961 964 969 973 976 979 983 990 998 1000 1006 1014 1024 1045 1056 1060 1064 1067 1070 1074 1076 1077 1078 1078 1079 1080 1080 1080 1081 1081 1082 1082 1082 1082 1083 1084 1084 1084 1084 1084 1083 1083 1082 1082 1081 1081 1080 1080 1079 1077 1075 1074 1073 1073 1071 1070 1068 1067 1065 1064 1062 1061 1060 1059 1057 1055 1055 1053 1053 1052 1050 1049 1047 1047 1046 1044 1043 1042 1041 1040 1038 1037 1036 1036 1036 1035 1035 1035 1034 1034 1034 1033 1033 1033 1033 1033 1033 1033 1033 1033 1034 1034 1034 1035 1035 1035 1034 1034 1034 1035 1036 1036 1036 1036 1038 1038 1039 1039 1040 1042 1042 1042 1041 1040 1038 1036 1034 1032 1028 1025 1025 1025 1025 1027 1027 1027 1027 1027 1027 1028 1028 1028 1028 1027 1027 1027 1027 1027 1027 1027 1028 1029 1029 1029 1028 1027 1027 1026 1026 1025 1024 1022 1020 1019 1017 1015 1014 1012 1010 1007 1004 1003 1001 998 995 990 987 984 981 975 967 954 932 925 921 903 890 0 0 0
448 448 450 450 450 454 464 467 487 492 0 0 0 0 0 0 0 0 0 0 0 0 0 0 0 1190 1229 1259 1283 1285 1310 1331 1351 1370 1387 1403 1421 1438 1450 1457 1468 1475 1477 1478 1478 1478 1480 1480 1480 1495 1495 1495 0 0 0 0 0 0 0 905 904 905 905 909 909 913 915 915 916 919 921 922 924 927 929 930 930 931 932 932 932 933 933 933 933 933 933 933 933 934 934 934 934 933 932 932 932 930 930 930 933 935 937 937 937 937 938 943 943 943 943 943 942 941 942 943 943 943 944 944 944 943 943 943 943 943 943 943 943 943 943 940 939 939 939 941 944 945 946 946 946 945 941 937 930 918 896 880 864 856 849 849 849 851 856 858 859 859 859 857 857 857 858 861 864 866 867 869 872 876 880 882 882 882 882 882 891 899 911 924 931 944 959 966 969 971 973 974 976 977 978 978 978 978 979 979 979 980 980 980 980 980 981 981 981 981 981 979 977 977 977 976 974 973 972 969 966 966 960 952 946 933 917 916 915 913 911 909 909 909 909 909 910 912 913 918 921 922 923 927 930 934 938 939 939 939 942 947 955 962 965 967 972 985 992 998 1004 1004 1006 1009 1011 1012 1014 1014 1015 1015 1015 1015 1016 1016 1017 1017 1017 1017 1017 1017 1017 1017 1015 1014 1014 1013 1013 1011 1009 1008 1007 1006 1005 1003 1001 998 994 989 984 974 969 966 966 966 967 968 969 969 969 967 967 967 968 969 971 975 979 982 984 984 984 987 991 992 994 996 996 999 1006 1011 1015 1019 1023 1026 1027 1031 1032 1033 1034 1035 1035 1035 1035 1035 1035 1035 1035 1035 1035 1035 1035 1034 1034 1034 1034 1033 1032 1031 1030 1030 1028 1026 1022 1019 1016 1012 1007 1003 996 990 978 971 971 971 972 972 972 971 970 968 966 964 962 961 960 960 960 961 966 969 971 973 977 981 983 984 991 996 1002 1008 1015 1025 1038 1043 1044 1048 1049 1050 1051 1052 1052 1053 1053 1053 1053 1053 1053 1053 1052 1052 1052 1052 1052 1051 1050 1048 1048 1046 1044 1042 1040 1038 1033 1032 1030 1022 1009 996 978 964 963 963 960 960 959 959 959 959 959 957 956 956 956 958 961 964 969 973 976 979 983 986 988 997 1004 1012 1023 1036 1048 1054 1058 1061 1065 1069 1072 1073 1074 1075 1076 1077 1078 1078 1078 1079 1079 1080 1080 1080 1080 1081 1081 1081 1081 1081 1081 1081 1080 1080 1080 1078 1077 1077 1076 1075 1074 1073 1071 1069 1068 1067 1065 1064 1064 1063 1060 1060 1059 1057 1056 1055 1053 1052 1052 1049 1048 1047 1047 1046 1045 1044 1043 1042 1041 1039 1038 1037 1036 1036 1035 1035 1035 1035 1034 1034 1034 1034 1034 1034 1034 1034 1034 1034 1035 1036 1036 1036 1036 1036 1036 1037 1037 1037 1037 1037 1038 1038 1040 1040 1040 1043 1043 1044 1046 1049 1049 1049 1045 1043 1042 1042 1041 1040 1035 1031 1031 1030 1030 1029 1029 1028 1027 1027 1027 1029 1029 1029 1029 1029 1029 1029 1028 1028 1029 1029 1030 1031 1031 1031 1029 1029 1028 1027 1026 1026 1024 1023 1021 1019 1017 1016 1014 1012 1010 1007 1004 1002 1000 996 993 989 986 984 981 980 971 960 939 929 919 901 885 0 0 0
0 0 0 0 454 454 464 467 468 0 0 0 0 0 0 0 0 0 0 0 0 0 0 0 0 1190 1223 1259 1283 1285 1311 1334 1351 1370 1387 1403 1421 1438 1450 1457 1463 1464 1466 1469 1472 1472 1472 1472 1467 1463 0 0 0 0 0 0 0 0 904 904 904 904 904 909 909 910 913 913 915 918 919 922 922 925 927 927 928 929 929 930 930 931 931 931 931 931 931 931 931 931 931 931 930 929 929 928 926 926 926 926 930 936 936 936 936 936 936 939 940 940 941 941 941 941 941 941 941 942 942 942 942 942 942 943 943 943 943 943 943 943 943 940 934 934 934 937 941 942 946 946 946 945 941 937 936 928 908 890 879 867 861 861 861 863 866 870 875 877 877 877 875 875 875 875 877 878 878 879 882 887 893 893 893 885 885 885 888 893 903 920 929 935 947 953 955 959 964 968 970 972 972 972 972 971 971 971 971 973 973 973 975 975 975 975 975 975 975 976 976 976 975 974 972 971 970 969 966 966 960 952 946 936 927 927 926 925 920 917 917 917 917 917 919 923 927 928 928 929 929 933 937 940 944 945 945 946 946 951 959 964 965 967 972 984 990 998 999 999 1004 1007 1011 1011 1011 1010 1010 1010 1010 1011 1011 1012 1013 1013 1014 1014 1014 1014 1013 1013 1012 1012 1012 1011 1011 1010 1008 1006 1004 1004 1002 1002 1000 998 995 992 987 974 973 973 972 972 973 973 973 973 973 971 971 971 971 972 974 976 979 982 983 983 984 986 988 990 991 993 995 997 1001 1006 1013 1019 1023 1024 1026 1027 1029 1030 1031 1032 1033 1033 1033 1033 1033 1033 1032 1031 1031 1031 1031 1031 1031 1031 1031 1031 1030 1029 1028 1027 1025 1024 1021 1019 1016 1012 1007 1003 997 989 980 977 973 973 973 973 972 971 970 968 966 964 962 962 962 962 963 966 968 969 971 972 977 980 982 982 986 995 1001 1008 1011 1023 1033 1038 1042 1046 1046 1047 1047 1048 1049 1050 1050 1051 1051 1051 1051 1050 1050 1050 1050 1049 1049 1048 1047 1046 1045 1044 1041 1040 1037 1036 1032 1032 1030 1022 1010 996 978 963 963 960 959 959 960 960 959 959 959 958 958 958 959 960 962 964 969 973 976 980 983 986 988 991 998 1003 1009 1016 1032 1048 1055 1058 1061 1064 1068 1070 1071 1073 1074 1075 1075 1076 1076 1077 1077 1077 1077 1077 1078 1078 1078 1078 1078 1079 1079 1079 1079 1078 1078 1076 1076 1075 1075 1073 1071 1070 1069 1067 1066 1065 1063 1063 1062 1060 1059 1058 1058 1056 1055 1053 1052 1052 1051 1049 1048 1046 1046 1045 1044 1043 1042 1041 1041 1039 1038 1037 1036 1036 1036 1035 1035 1035 1035 1035 1034 1034 1034 1034 1034 1034 1035 1035 1036 1037 1037 1038 1039 1040 1040 1040 1040 1040 1041 1041 1042 1044 1046 1046 1046 1046 1046 1054 1059 1060 1060 1060 1057 1057 1055 1055 1055 1048 1040 1039 1038 1038 1036 1033 1032 1030 1029 1029 1029 1031 1031 1031 1031 1030 1030 1030 1030 1030 1030 1030 1031 1032 1032 1032 1031 1030 1029 1029 1028 1026 1025 1023 1021 1020 1017 1016 1015 1012 1010 1007 1004 1002 999 995 991 988 986 986 986 980 971 961 948 932 917 893 881 0 0 0
0 0 0 0 0 0 0 0 0 0 0 0 0 0 0 0 0 0 0 0 0 0 0 0 0 1186 1212 1246 1283 1285 1311 1334 1351 1370 1387 1403 1421 1438 1446 1449 1451 1452 1453 1455 1455 1455 0 0 0 0 0 0 0 0 0 0 0 904 904 904 904 905 907 909 909 910 910 912 915 917 919 920 922 924 925 925 927 927 927 928 928 928 929 929 929 930 930 930 929 929 929 928 927 926 926 924 922 922 922 925 928 934 934 934 933 933 933 936 939 939 939 937 936 936 936 936 939 939 939 939 939 939 941 942 942 942 943 943 943 943 943 940 933 932 932 933 933 936 937 940 941 941 941 939 936 932 921 911 906 889 877 876 875 876 877 884 890 890 890 890 890 889 888 888 888 888 891 893 897 899 899 899 899 890 888 888 888 890 891 897 917 929 937 942 942 948 953 955 958 960 963 963 963 963 960 959 959 959 962 964 964 964 964 964 964 965 967 968 970 971 971 971 971 970 969 968 966 964 961 957 951 938 934 933 933 930 928 928 928 930 931 931 931 931 931 932 934 936 937 938 940 944 948 950 951 952 953 956 963 964 965 966 970 982 990 991 992 995 1000 1004 1006 1006 1006 1006 1005 1005 1005 1005 1006 1007 1009 1009 1010 1011 1011 1011 1010 1009 1009 1009 1008 1008 1008 1006 1006 1005 1003 1003 1002 1001 1000 997 997 992 989 984 979 979 979 978 977 976 976 976 976 976 974 974 974 975 975 976 979 980 983 983 983 985 986 988 989 992 994 996 998 1000 1009 1016 1022 1023 1023 1025 1026 1027 1029 1029 1029 1029 1030 1030 1030 1030 1029 1027 1027 1027 1028 1028 1029 1029 1029 1028 1028 1027 1026 1024 1023 1020 1018 1017 1016 1012 1006 1003 998 990 981 978 975 973 973 973 972 971 970 968 967 965 964 964 964 966 970 970 970 971 971 972 977 980 981 982 985 993 1001 1008 1009 1020 1029 1034 1037 1042 1042 1043 1043 1045 1046 1047 1047 1048 1049 1049 1049 1048 1047 1047 1047 1047 1047 1047 1046 1044 1042 1041 1040 1039 1036 1035 1033 1029 1028 1022 1011 997 978 963 958 958 958 958 959 960 959 959 959 959 959 959 961 962 964 966 969 973 978 981 983 986 987 988 992 997 1001 1005 1017 1040 1051 1051 1052 1059 1064 1067 1069 1071 1071 1072 1072 1073 1073 1073 1073 1074 1074 1075 1075 1075 1076 1076 1076 1076 1076 1076 1076 1076 1075 1075 1073 1073 1072 1071 1069 1067 1067 1066 1065 1063 1062 1061 1061 1060 1059 1058 1056 1055 1054 1053 1050 1049 1049 1048 1046 1045 1044 1043 1043 1041 1041 1040 1039 1039 1038 1037 1036 1036 1036 1036 1035 1035 1035 1035 1035 1035 1035 1035 1036 1036 1037 1038 1038 1039 1040 1041 1042 1042 1044 1045 1045 1045 1046 1048 1048 1051 1051 1051 1051 1051 1055 1064 1065 1066 1067 1066 1067 1068 1067 1066 1066 1059 1053 1050 1049 1044 1041 1039 1037 1035 1032 1032 1032 1032 1032 1032 1032 1031 1031 1031 1031 1032 1032 1032 1032 1033 1033 1033 1032 1030 1030 1029 1029 1029 1027 1025 1023 1020 1018 1017 1015 1013 1010 1008 1004 1002 999 995 991 988 987 986 986 980 971 961 948 932 916 899 881 0 0 0
0 0 0 0 0 0 0 0 0 0 0 0 0 0 0 0 0 0 0 0 0 0 0 0 0 0 1200 1239 1274 1285 1311 1334 1351 1368 1383 1401 1418 1430 1433 1433 1433 1433 1430 1429 1424 0 0 0 0 0 0 0 0 0 0 0 899 899 899 904 904 907 907 909 909 909 910 911 913 914 918 920 920 921 922 923 925 925 925 926 926 927 927 927 927 927 927 927 926 926 926 925 925 925 923 920 919 918 918 919 920 930 930 930 928 928 928 933 938 938 938 937 936 936 936 936 936 936 936 935 935 935 935 938 938 938 940 940 938 935 935 934 931 930 930 930 930 934 937 938 940 940 940 939 936 936 928 925 925 921 916 910 899 895 895 895 898 898 899 899 900 901 902 903 905 907 907 907 906 906 906 905 904 898 892 891 888 888 888 891 895 917 934 936 939 945 945 946 947 948 952 958 958 958 958 955 953 952 952 952 953 955 955 955 955 957 958 960 963 964 966 966 967 967 967 966 966 965 964 961 952 945 941 941 940 940 939 939 938 938 937 937 936 936 936 937 941 943 944 945 946 948 951 953 955 957 959 960 963 964 965 966 970 981 985 986 988 992 995 996 998 998 999 999 999 999 999 999 999 1000 1002 1004 1007 1008 1008 1008 1008 1007 1006 1005 1005 1005 1004 1003 1003 1002 1002 1002 1001 1001 998 998 997 993 991 988 985 983 981 979 977 977 977 978 979 979 979 977 976 976 976 977 979 980 983 983 983 983 985 986 989 992 992 993 994 997 1007 1014 1019 1019 1020 1021 1022 1023 1023 1024 1024 1024 1025 1025 1025 1025 1025 1024 1024 1024 1026 1026 1026 1026 1026 1025 1024 1023 1022 1021 1019 1018 1016 1016 1014 1012 1006 1004 999 992 985 979 976 975 975 975 974 971 970 968 968 968 968 969 969 972 973 973 973 972 972 972 977 980 981 982 984 990 998 1003 1005 1014 1027 1031 1035 1036 1036 1037 1040 1042 1043 1043 1044 1045 1046 1046 1046 1046 1045 1045 1045 1044 1044 1044 1044 1042 1041 1040 1037 1036 1034 1034 1033 1029 1025 1021 1014 1002 980 967 958 958 958 959 959 959 959 959 959 959 959 962 965 967 967 969 972 976 979 983 985 986 987 987 989 992 996 1005 1015 1033 1047 1047 1051 1058 1061 1064 1066 1067 1068 1069 1070 1070 1070 1070 1071 1071 1071 1071 1072 1072 1073 1073 1073 1074 1074 1074 1074 1074 1074 1073 1072 1071 1071 1069 1067 1067 1066 1065 1064 1063 1062 1060 1059 1059 1058 1057 1056 1055 1054 1051 1049 1048 1048 1047 1046 1044 1043 1042 1042 1041 1041 1040 1039 1039 1038 1037 1036 1036 1036 1036 1036 1036 1036 1036 1036 1036 1036 1036 1037 1037 1038 1039 1040 1041 1042 1042 1044 1044 1047 1047 1048 1049 1051 1052 1052 1052 1054 1054 1054 1059 1066 1073 1074 1074 1074 1074 1075 1075 1075 1075 1075 1073 1068 1066 1061 1053 1048 1048 1047 1044 1040 1036 1036 1035 1035 1034 1034 1033 1033 1033 1033 1033 1033 1033 1033 1033 1033 1033 1032 1031 1031 1030 1030 1029 1028 1026 1024 1022 1020 1017 1015 1013 1010 1008 1005 1002 999 995 991 988 987 986 986 975 964 961 948 932 913 899 881 0 0 0
0 0 0 0 0 0 0 0 0 0 0 0 0 0 0 0 0 0 0 0 0 0 0 0 0 0 0 1233 1272 1285 1308 1331 1347 1360 1373 1387 1399 1400 1400 1408 1409 0 0 0 0 0 0 0 0 0 0 0 0 0 0 908 900 900 900 903 903 905 906 907 908 908 909 910 912 913 915 917 918 919 920 921 921 923 923 924 924 925 925 925 925 925 925 925 925 924 923 922 922 922 920 918 915 915 915 916 919 926 926 926 0 0 0 0 0 0 0 0 0 0 0 0 0 0 0 0 0 0 0 0 0 0 0 0 0 0 0 0 925 917 917 917 920 925 933 937 940 940 940 939 939 936 928 928 927 925 925 924 924 922 919 914 914 914 917 919 919 920 921 921 924 924 924 924 922 920 919 917 911 905 900 894 893 891 886 886 886 900 924 936 938 940 941 942 944 944 945 945 946 947 952 952 952 942 942 942 943 944 945 945 947 950 951 953 956 959 959 961 964 965 965 966 966 966 966 966 960 953 948 946 946 946 947 947 947 945 941 941 941 943 943 944 946 948 948 948 948 950 952 956 959 960 961 962 963 963 964 964 966 972 977 978 980 984 989 991 992 992 992 992 992 992 992 992 993 993 997 1001 1003 1003 1003 1003 1003 1003 1002 1002 1002 1002 1002 1002 1001 1001 1001 1000 1000 999 998 998 997 993 991 988 985 983 982 979 978 978 978 979 980 980 980 979 978 978 978 979 980 980 983 983 983 983 985 986 988 991 992 992 992 997 1004 1010 1010 1011 1014 1016 1017 1018 1019 1019 1019 1020 1021 1021 1021 1021 1021 1021 1021 1021 1021 1021 1022 1022 1021 1021 1021 1020 1020 1019 1017 1014 1014 1013 1012 1011 1006 1004 1002 993 986 980 980 980 979 979 979 978 974 973 972 971 972 972 972 975 976 977 977 977 977 978 979 980 982 982 984 988 993 1000 1004 1009 1021 1025 1028 1029 1030 1032 1036 1038 1040 1040 1041 1041 1041 1042 1042 1042 1042 1042 1042 1042 1042 1042 1041 1040 1039 1038 1037 1035 1034 1033 1032 1029 1024 1019 1014 1004 988 981 976 960 960 960 960 960 959 957 957 957 959 965 969 971 972 972 975 978 979 983 986 987 987 987 988 989 995 1005 1014 1026 1037 1045 1051 1056 1059 1062 1063 1064 1065 1066 1067 1067 1067 1067 1068 1068 1069 1070 1070 1070 1070 1070 1071 1071 1071 1071 1071 1071 1071 1070 1069 1068 1068 1067 1066 1065 1065 1064 1063 1061 1060 1059 1059 1058 1056 1055 1054 1053 1053 1051 1049 1048 1047 1046 1045 1044 1043 1042 1042 1041 1041 1040 1039 1038 1038 1038 1037 1037 1037 1037 1037 1037 1037 1037 1037 1037 1037 1037 1039 1040 1041 1041 1042 1042 1043 1046 1048 1049 1050 1050 1050 1052 1053 1054 1055 1055 1059 1062 1065 1070 1073 1076 1076 1076 1076 1080 1091 1091 1091 1091 1081 1080 1078 1075 1070 1064 1057 1055 1054 1053 1050 1045 1039 1038 1038 1036 1036 1035 1034 1034 1034 1034 1034 1034 1034 1034 1034 1034 1034 1032 1032 1032 1031 1031 1030 1028 1025 1023 1021 1018 1015 1013 1010 1008 1005 1002 999 997 992 989 988 987 986 975 963 950 944 922 913 899 895 0 0 0
635 635 653 0 0 0 0 0 0 0 0 0 0 0 0 0 0 0 0 0 0 0 0 0 0 0 0 0 1270 1278 1304 1329 1346 1359 1367 1373 1373 1373 0 0 0 0 0 0 0 0 0 1232 1225 1218 0 0 0 0 0 910 900 900 900 900 903 905 906 907 907 907 907 909 910 912 914 915 916 917 918 919 920 920 921 922 922 922 923 923 923 923 923 922 922 921 920 920 920 918 917 914 912 912 912 915 915 916 915 0 0 0 0 0 0 0 0 0 0 0 0 0 0 0 0 0 0 0 0 0 0 0 0 0 0 0 0 0 878 887 897 912 917 921 927 933 936 937 937 939 937 937 937 937 933 933 933 933 933 933 933 936 937 938 938 938 935 935 935 935 934 934 934 932 930 930 930 929 926 917 910 904 901 893 886 886 886 894 906 930 930 930 929 929 929 933 943 943 943 935 934 933 933 933 934 934 934 934 935 935 938 942 945 947 948 951 953 953 958 960 962 964 964 965 965 964 960 956 955 954 952 952 952 950 949 949 949 949 953 953 954 954 954 956 956 957 957 957 958 961 962 962 962 960 960 960 960 960 960 960 962 967 970 975 978 981 983 985 985 985 982 982 982 984 985 987 993 997 997 997 996 994 994 994 994 995 996 998 998 998 998 998 998 998 998 997 997 996 995 993 991 988 985 984 982 980 979 979 979 979 982 982 982 982 982 982 983 984 984 984 983 983 983 983 985 986 988 990 990 991 991 995 996 1001 1004 1005 1009 1012 1013 1013 1013 1014 1014 1015 1016 1017 1017 1017 1018 1018 1018 1017 1016 1016 1016 1016 1017 1017 1017 1017 1016 1015 1014 1012 1012 1011 1011 1010 1006 1004 1003 996 988 986 983 981 981 981 981 981 979 977 977 976 976 976 977 978 978 979 981 981 981 981 981 981 982 983 984 987 993 997 1002 1002 1009 1019 1024 1027 1029 1030 1032 1035 1037 1037 1037 1038 1038 1038 1038 1038 1038 1038 1038 1039 1039 1039 1038 1037 1036 1036 1035 1034 1033 1033 1032 1027 1022 1019 1014 1009 1003 999 987 972 969 967 965 964 959 957 957 957 960 966 971 974 975 976 976 978 980 983 986 987 988 988 988 989 994 1003 1010 1023 1030 1039 1049 1052 1055 1058 1061 1062 1063 1064 1064 1065 1065 1065 1065 1066 1066 1067 1067 1068 1068 1068 1068 1069 1069 1069 1069 1069 1068 1068 1067 1066 1065 1064 1064 1064 1063 1063 1061 1061 1059 1058 1057 1056 1055 1054 1054 1052 1052 1050 1049 1048 1046 1045 1044 1044 1043 1042 1041 1041 1040 1040 1039 1038 1038 1038 1038 1038 1038 1038 1038 1038 1038 1038 1039 1039 1039 1040 1041 1043 1043 1044 1044 1045 1049 1051 1052 1053 1053 1055 1056 1057 1058 1064 1068 1069 1073 1075 1078 1079 1079 1079 1079 1079 1079 1096 1101 1101 1101 1097 1094 1092 1090 1088 1084 1077 1071 1067 1061 1060 1057 1050 1044 1043 1041 1039 1039 1036 1035 1035 1035 1035 1035 1035 1035 1035 1034 1034 1034 1033 1033 1033 1033 1031 1030 1028 1025 1025 1021 1018 1015 1013 1010 1008 1005 1004 1002 997 992 989 988 987 986 975 963 950 944 922 914 913 908 0 0 0
640 640 664 664 0 0 0 0 0 0 0 0 0 0 0 0 0 0 0 0 0 0 0 0 0 0 0 0 0 0 1296 1325 1342 1353 1353 1353 0 0 0 0 0 0 0 1221 1218 1218 1218 1218 1218 1218 1204 0 0 0 0 926 909 900 900 900 902 905 906 907 907 907 907 908 910 911 912 914 915 916 916 917 918 919 920 920 920 921 921 921 921 921 920 920 919 919 918 917 916 914 913 910 910 909 909 908 908 908 0 0 0 0 744 744 744 747 750 753 758 0 0 0 0 0 0 0 0 0 0 0 0 0 0 816 822 826 834 847 855 866 868 877 899 908 918 925 929 933 935 936 937 941 941 941 941 940 939 939 939 939 942 943 944 944 944 942 942 942 942 942 942 941 939 937 934 931 931 931 931 931 922 913 908 900 886 886 885 884 885 885 892 893 893 893 897 910 916 918 918 918 917 914 914 914 914 915 916 916 919 924 926 931 935 940 940 943 943 946 950 953 958 961 964 965 965 964 962 958 958 958 958 958 957 957 954 954 954 954 955 955 956 958 961 962 962 962 962 961 961 961 962 962 962 960 960 960 960 960 959 957 957 957 963 966 971 973 973 974 975 975 976 976 977 978 979 980 985 992 992 992 991 985 985 985 987 989 990 990 992 993 994 995 995 995 994 994 993 993 993 990 987 987 985 985 984 983 983 983 983 984 984 984 984 984 985 985 986 986 986 986 985 984 984 984 985 986 988 989 989 989 990 991 992 993 997 1001 1003 1006 1006 1006 1006 1006 1006 1007 1010 1011 1011 1011 1013 1013 1013 1012 1012 1012 1012 1012 1012 1012 1012 1012 1012 1012 1011 1011 1010 1010 1009 1009 1006 1004 1003 998 993 986 983 982 982 982 982 981 981 981 981 981 981 981 981 981 984 984 984 983 983 983 983 984 984 985 986 987 990 993 995 998 1004 1014 1022 1026 1026 1026 1030 1031 1033 1034 1034 1034 1035 1035 1035 1036 1036 1036 1036 1036 1036 1036 1035 1034 1032 1032 1032 1031 1031 1030 1030 1026 1021 1019 1014 1010 1005 1000 993 985 976 973 972 968 959 957 957 957 962 966 972 975 976 977 977 978 980 983 986 988 988 988 988 989 994 1003 1009 1016 1027 1037 1048 1052 1055 1056 1059 1059 1060 1062 1062 1063 1063 1063 1063 1064 1065 1065 1065 1065 1065 1065 1065 1066 1066 1066 1066 1066 1066 1065 1065 1064 1063 1062 1062 1062 1062 1061 1060 1059 1058 1057 1056 1055 1054 1053 1052 1051 1050 1049 1048 1046 1045 1045 1044 1043 1043 1041 1041 1041 1040 1040 1039 1039 1039 1038 1039 1039 1039 1039 1039 1040 1040 1040 1040 1041 1041 1042 1044 1044 1045 1046 1048 1050 1054 1056 1057 1058 1059 1061 1065 1067 1069 1075 1080 1081 1081 1084 1086 1089 1091 1095 1100 1107 1107 1107 1107 1105 1103 1102 1101 1101 1098 1095 1089 1085 1083 1078 1069 1063 1057 1052 1048 1045 1044 1043 1041 1040 1038 1037 1035 1035 1035 1035 1035 1035 1034 1034 1034 1033 1033 1033 1033 1031 1030 1028 1026 1025 1023 1019 1016 1014 1010 1008 1007 1004 1002 998 995 992 988 987 985 976 963 950 944 923 922 922 0 0 0 0
644 644 665 666 0 0 0 777 794 811 825 0 0 0 0 0 0 0 0 0 0 0 0 0 0 0 0 0 0 0 0 0 1320 1327 1327 0 0 0 0 0 0 0 1216 1216 1216 1217 1218 1222 1222 1222 1212 0 0 0 0 0 920 907 902 902 902 905 905 906 906 906 907 908 908 909 910 911 913 914 915 915 916 917 918 918 919 919 919 919 919 918 918 918 917 916 916 915 913 912 909 909 908 907 907 907 907 902 0 0 0 732 732 732 741 743 744 747 752 754 755 756 759 763 766 771 775 780 783 783 785 785 786 795 803 807 814 828 838 843 856 876 892 900 911 915 925 931 935 937 941 941 942 943 943 943 943 943 943 943 943 944 944 945 945 945 945 945 945 944 944 942 941 939 936 933 933 933 932 932 929 918 915 911 909 886 883 880 869 869 869 878 878 878 881 881 881 883 886 889 889 891 891 892 897 899 900 901 906 910 913 916 920 923 928 931 933 939 946 952 957 960 961 963 963 963 962 962 962 962 963 963 963 963 963 960 959 958 958 958 960 962 964 964 964 964 964 964 964 964 964 963 962 960 960 960 960 960 959 957 957 957 958 961 963 965 966 966 968 970 972 974 975 977 977 978 980 986 986 986 984 978 978 978 978 978 980 981 982 984 987 989 989 991 991 992 992 992 992 990 987 987 986 986 985 986 986 986 987 987 987 987 986 986 986 986 986 987 987 987 987 987 987 987 987 987 988 988 988 989 987 987 988 988 988 994 994 994 994 994 994 995 997 999 1000 1001 1001 1003 1005 1005 1005 1004 1004 1004 1004 1006 1006 1007 1007 1008 1008 1008 1008 1007 1007 1007 1007 1007 1006 1004 1002 998 995 989 988 987 986 985 984 983 983 983 982 983 983 984 986 986 986 986 986 986 985 984 984 984 985 986 986 988 990 991 992 993 999 1005 1011 1016 1019 1020 1023 1025 1028 1028 1028 1030 1030 1030 1030 1031 1031 1031 1032 1032 1031 1030 1030 1030 1029 1029 1029 1029 1028 1028 1024 1023 1020 1019 1016 1011 1006 1002 993 986 983 978 977 975 972 972 972 974 974 975 976 977 977 978 978 980 983 986 987 989 990 990 991 991 995 1002 1007 1010 1012 1016 1041 1051 1052 1052 1055 1056 1057 1058 1060 1060 1060 1061 1061 1062 1062 1062 1063 1063 1063 1063 1063 1063 1063 1064 1063 1064 1064 1063 1062 1062 1062 1061 1061 1060 1060 1059 1059 1057 1057 1056 1055 1054 1053 1053 1051 1050 1049 1048 1047 1046 1045 1045 1044 1043 1042 1041 1041 1041 1040 1040 1039 1039 1039 1039 1039 1039 1040 1040 1040 1041 1041 1042 1043 1043 1043 1044 1045 1047 1049 1050 1051 1052 1054 1060 1065 1068 1069 1069 1073 1077 1081 1082 1082 1083 1088 1089 1091 1102 1106 1113 1113 1113 1113 1111 1111 1107 1104 1103 1103 1102 1099 1095 1089 1087 1085 1082 1073 1063 1058 1052 1048 1046 1045 1043 1042 1040 1039 1037 1037 1036 1036 1035 1035 1035 1034 1034 1034 1033 1033 1033 1033 1031 1030 1028 1026 1025 1023 1020 1017 1015 1013 1011 1008 1005 1003 999 995 992 988 985 985 976 964 962 945 942 936 928 0 0 0 0
645 645 666 667 694 0 756 777 794 814 840 858 880 0 0 0 0 0 0 0 0 0 0 0 0 0 0 0 0 0 0 0 0 0 0 0 0 0 1197 1197 1197 1203 1207 1210 1216 1217 1218 1222 1222 1222 1215 1196 0 0 0 0 930 913 903 903 903 905 905 906 906 906 906 907 907 908 909 910 911 913 913 914 915 915 916 917 917 917 917 917 917 917 917 915 915 915 914 914 911 909 907 905 905 905 907 905 905 0 0 0 734 731 731 731 738 742 743 745 745 745 745 745 746 755 763 768 773 774 777 777 777 777 785 795 803 807 814 825 837 843 855 872 887 897 908 915 925 931 935 940 941 941 942 943 943 943 943 943 943 944 944 944 944 945 945 945 945 945 945 944 944 943 942 941 938 937 935 934 933 933 929 921 915 913 909 886 880 871 853 853 853 858 864 864 864 861 861 861 862 868 870 871 871 871 873 876 883 888 891 896 897 898 901 904 911 918 922 930 939 945 950 952 955 958 960 961 961 962 962 963 964 964 964 965 965 965 964 963 963 963 963 965 966 966 966 966 966 966 966 965 964 964 963 962 961 960 960 960 958 951 951 951 951 954 955 955 956 956 958 961 966 967 968 968 968 968 969 972 977 977 977 973 972 972 972 972 975 976 976 977 980 981 983 987 990 991 991 991 991 990 989 988 988 988 988 988 988 988 988 989 989 989 989 988 987 987 987 987 987 987 987 987 987 987 987 987 987 987 987 986 983 981 981 981 981 981 982 982 984 986 987 988 988 990 991 993 994 996 996 996 994 991 990 990 990 990 993 996 996 997 997 999 1000 1000 1001 1003 1004 1004 1004 1002 1000 998 996 991 990 989 988 987 985 985 985 985 985 985 986 986 988 988 988 988 988 987 987 986 986 986 986 986 987 988 989 989 990 990 994 999 1000 1003 1007 1009 1014 1016 1018 1020 1020 1021 1026 1027 1028 1028 1028 1027 1025 1024 1024 1024 1024 1026 1026 1026 1026 1026 1025 1025 1022 1020 1019 1018 1016 1011 1008 1005 997 991 988 983 981 980 980 980 983 983 983 983 982 982 982 981 981 981 986 987 988 990 990 991 991 993 998 1001 1006 1009 1010 1016 1030 1045 1046 1047 1051 1052 1054 1054 1055 1056 1057 1057 1058 1058 1059 1059 1060 1060 1060 1060 1061 1061 1061 1061 1061 1061 1061 1061 1061 1061 1060 1059 1059 1059 1059 1058 1057 1056 1056 1055 1054 1053 1052 1051 1050 1049 1048 1047 1046 1045 1045 1044 1043 1043 1042 1042 1041 1041 1041 1041 1041 1041 1040 1041 1041 1041 1041 1041 1041 1042 1043 1043 1044 1044 1044 1045 1047 1050 1051 1051 1053 1055 1060 1068 1070 1071 1073 1081 1086 1088 1088 1088 1091 1097 1102 1104 1106 1108 1113 1114 1117 1117 1117 1117 1116 1116 1114 1111 1107 1102 1099 1095 1090 1088 1085 1082 1074 1064 1058 1052 1048 1046 1045 1044 1042 1041 1039 1038 1037 1037 1036 1035 1035 1035 1034 1034 1034 1033 1033 1033 1032 1030 1029 1028 1026 1025 1023 1020 1019 1017 1014 1012 1010 1007 1004 1002 996 993 988 984 984 976 965 962 947 947 947 947 0 0 0 0
651 651 667 668 688 0 750 774 791 815 845 867 887 912 930 951 954 0 0 0 0 0 0 0 0 0 0 0 0 0 0 0 0 0 0 0 0 1209 1193 1193 1193 1198 1205 1210 1216 1220 1220 1224 1224 1224 1219 1201 1177 0 0 0 0 916 907 903 903 903 904 905 905 905 906 906 906 906 908 909 910 911 911 912 913 914 914 914 915 915 915 915 915 914 914 914 914 913 913 911 909 906 905 904 904 904 904 903 901 0 0 0 731 730 730 730 735 736 739 740 740 740 740 740 742 751 760 768 771 773 774 775 777 777 784 792 802 807 814 825 837 843 855 872 887 896 908 915 925 931 936 940 941 941 942 943 943 943 943 943 943 944 944 944 944 945 945 945 945 945 945 944 943 943 942 941 939 937 936 934 933 933 929 921 919 915 909 880 870 854 845 844 844 844 844 844 844 842 842 842 842 843 849 850 852 857 860 862 863 867 871 878 884 887 888 892 902 913 920 930 936 937 940 948 954 957 958 961 961 961 962 963 964 964 965 965 965 965 965 965 965 965 965 965 966 966 966 967 967 966 966 966 965 964 964 963 961 960 960 959 956 951 951 946 945 945 945 946 946 947 947 950 959 959 959 955 955 955 955 960 963 964 964 964 964 964 964 964 967 967 967 968 968 968 979 983 986 989 990 990 990 990 989 988 988 989 989 989 989 989 989 989 991 991 991 990 989 989 988 988 988 988 988 987 987 987 987 986 986 985 985 985 983 980 979 979 978 975 975 974 974 973 973 973 974 976 977 980 985 986 986 986 983 983 982 981 982 983 984 988 989 990 993 994 994 997 1000 1002 1002 1002 1002 1002 1000 998 996 995 994 994 992 988 986 986 986 988 989 989 989 989 989 988 988 988 988 988 987 986 986 986 987 987 988 989 989 989 989 990 993 995 996 997 997 999 1003 1007 1007 1008 1009 1012 1016 1019 1020 1020 1020 1018 1014 1014 1014 1014 1016 1016 1016 1017 1017 1017 1018 1018 1019 1019 1019 1017 1016 1011 1008 1005 1004 1000 996 990 990 990 989 990 990 988 987 987 987 987 987 987 986 986 986 990 990 991 991 992 992 995 999 1001 1006 1009 1010 1014 1026 1037 1041 1045 1047 1047 1049 1050 1051 1052 1053 1054 1055 1055 1056 1056 1057 1058 1058 1058 1058 1058 1058 1058 1059 1059 1060 1060 1060 1059 1058 1057 1057 1056 1056 1056 1055 1054 1054 1053 1053 1052 1050 1049 1049 1048 1047 1047 1046 1045 1044 1044 1043 1043 1043 1042 1042 1041 1041 1041 1041 1042 1042 1042 1042 1042 1042 1043 1043 1045 1046 1046 1046 1046 1047 1049 1053 1054 1056 1056 1060 1063 1066 1071 1073 1075 1082 1091 1094 1099 1100 1102 1105 1106 1109 1110 1114 1116 1118 1118 1118 1118 1117 1117 1116 1116 1114 1111 1107 1101 1099 1093 1090 1088 1085 1082 1074 1066 1058 1052 1049 1046 1045 1044 1042 1042 1040 1040 1038 1037 1036 1035 1035 1034 1034 1033 1033 1032 1032 1031 1030 1029 1029 1027 1025 1025 1023 1020 1019 1017 1015 1012 1010 1007 1005 1002 997 995 988 984 982 976 970 964 957 957 957 957 0 0 0 0
651 651 667 668 684 0 0 774 791 817 849 870 887 912 930 951 954 979 1000 0 0 0 0 0 0 0 0 0 0 0 0 0 0 0 0 0 1209 1209 1193 1192 1192 1192 1204 1210 1216 1227 1228 1228 1228 1228 1216 1202 1187 0 0 0 0 0 911 906 904 904 904 904 905 905 905 905 905 906 907 908 908 909 910 911 912 912 912 912 913 913 913 913 913 913 912 912 912 911 911 907 906 904 901 901 901 900 900 900 0 0 0 743 730 730 730 730 735 736 737 740 740 740 740 740 742 747 756 762 765 768 769 772 776 777 783 792 802 807 814 825 836 847 856 872 880 897 911 915 925 931 936 940 941 941 942 942 942 943 943 943 943 944 944 944 944 944 944 945 945 945 945 944 943 943 942 941 939 937 936 934 931 931 924 921 919 915 898 868 857 843 840 840 840 840 840 840 837 833 833 833 833 837 839 839 842 846 848 848 850 855 860 869 876 880 882 889 894 903 913 922 929 935 939 947 953 955 957 959 960 961 962 963 964 964 965 965 965 965 965 965 965 965 965 966 966 967 967 967 967 967 967 966 965 964 964 963 961 960 959 957 955 950 949 942 940 938 938 937 936 937 938 942 953 953 953 945 944 944 944 945 949 950 952 953 955 957 957 958 958 958 959 960 961 965 975 979 983 986 988 989 989 989 989 988 988 989 989 989 989 989 990 990 991 991 991 990 989 989 989 989 988 988 988 987 987 987 987 986 986 985 985 983 982 980 978 977 976 974 973 971 966 961 961 961 963 965 967 973 973 973 973 970 970 970 973 973 974 979 981 982 982 983 986 987 987 987 991 996 996 997 997 997 997 996 996 995 994 994 993 989 989 989 990 992 992 992 992 991 991 991 990 989 989 989 989 988 988 988 988 988 989 990 990 990 990 989 989 990 992 993 995 997 998 998 998 999 1001 1005 1007 1007 1007 1006 1005 1003 1002 1002 1002 1003 1007 1007 1007 1007 1007 1007 1009 1010 1014 1014 1014 1011 1010 1010 1008 1007 1006 1001 998 994 991 991 991 993 994 995 995 995 992 991 991 992 993 993 993 992 992 992 992 993 994 995 999 1002 1007 1009 1010 1014 1026 1036 1041 1041 1042 1044 1045 1047 1049 1050 1051 1051 1052 1053 1053 1054 1055 1055 1055 1055 1055 1055 1056 1056 1056 1056 1056 1056 1056 1056 1055 1055 1055 1054 1054 1053 1053 1053 1053 1053 1052 1051 1050 1049 1048 1047 1046 1046 1045 1045 1044 1044 1043 1043 1043 1043 1042 1042 1042 1042 1042 1043 1043 1043 1044 1044 1044 1044 1044 1046 1047 1047 1049 1052 1053 1054 1056 1057 1059 1063 1067 1069 1073 1077 1083 1086 1093 1101 1108 1110 1110 1110 1111 1111 1111 1113 1115 1117 1118 1118 1118 1118 1117 1117 1116 1116 1114 1111 1107 1101 1099 1093 1090 1087 1085 1081 1074 1067 1060 1056 1053 1047 1045 1044 1042 1042 1040 1040 1038 1037 1036 1035 1035 1034 1034 1033 1032 1032 1031 1030 1029 1028 1027 1026 1025 1023 1021 1020 1019 1017 1015 1012 1010 1009 1005 1002 997 995 989 984 982 976 970 964 960 960 960 960 960 0 0 0
651 651 666 667 682 0 0 773 791 816 849 870 887 912 930 951 954 979 1005 1034 1058 0 0 0 0 0 0 0 0 0 0 0 0 0 0 0 1205 1205 1193 1187 1187 1187 1199 1210 1216 1227 1228 1228 1228 1228 1216 1204 1200 1181 0 0 0 0 922 909 903 903 903 903 904 905 905 905 905 905 906 906 907 907 908 909 910 910 911 911 911 912 912 912 911 911 911 910 910 910 908 905 904 903 897 897 895 893 892 889 0 0 0 738 730 730 730 730 735 736 737 740 740 740 740 740 742 745 750 756 758 762 768 770 774 777 783 792 799 807 815 825 836 850 861 872 880 897 912 920 925 931 936 939 940 940 941 942 942 942 942 943 943 943 943 944 944 944 944 944 944 944 943 943 942 942 942 941 939 937 936 932 930 924 924 921 918 915 893 868 850 830 830 830 834 834 834 833 830 828 828 828 832 836 837 838 841 843 844 846 848 850 856 860 864 867 873 881 891 902 912 922 929 932 938 944 952 955 956 957 957 960 961 962 963 964 965 965 965 965 965 965 965 965 965 966 966 967 967 967 967 967 967 966 965 964 964 963 960 959 957 955 952 947 942 942 940 937 931 930 930 930 930 932 939 939 939 928 928 928 930 931 936 939 942 943 944 945 947 947 947 947 952 954 957 965 970 974 981 982 983 985 987 987 987 987 988 989 989 989 989 989 990 990 990 990 990 990 989 989 989 989 988 988 988 987 987 987 986 986 985 985 984 983 982 980 977 977 975 973 968 965 962 959 958 956 956 956 961 962 962 962 962 962 961 960 960 960 961 965 968 969 970 971 971 972 975 975 977 985 991 993 993 993 994 994 994 994 994 994 994 993 993 993 994 994 994 994 994 994 994 994 994 992 992 992 992 992 992 992 992 992 991 991 991 990 990 989 988 989 991 991 991 991 991 989 989 989 995 995 995 990 989 989 989 993 994 996 996 997 997 997 999 999 1000 1001 1001 1003 1004 1005 1006 1007 1006 1006 1007 1006 1005 1002 1000 996 992 992 992 995 999 999 999 998 997 996 996 996 1000 1000 1000 1000 998 998 998 999 1001 1003 1005 1008 1009 1009 1011 1016 1025 1033 1040 1040 1040 1042 1044 1045 1046 1047 1047 1049 1050 1050 1051 1051 1052 1052 1052 1052 1052 1052 1053 1053 1053 1053 1054 1054 1054 1054 1053 1053 1053 1052 1052 1052 1052 1051 1051 1051 1050 1050 1049 1048 1047 1046 1046 1045 1045 1045 1044 1044 1043 1043 1043 1043 1043 1043 1043 1043 1043 1044 1044 1045 1045 1046 1046 1046 1046 1047 1048 1049 1053 1054 1054 1055 1058 1061 1065 1070 1075 1078 1082 1087 1091 1099 1108 1111 1111 1112 1112 1112 1112 1115 1115 1115 1117 1117 1118 1118 1118 1118 1116 1116 1116 1115 1113 1110 1107 1101 1099 1093 1091 1086 1082 1078 1073 1067 1060 1056 1053 1047 1045 1044 1042 1042 1040 1040 1038 1037 1036 1035 1035 1034 1033 1032 1032 1030 1030 1029 1028 1027 1026 1024 1023 1022 1021 1019 1018 1017 1015 1012 1011 1009 1005 1001 997 995 990 986 982 981 977 970 960 960 958 958 958 0 0 0
648 648 663 664 681 0 0 773 791 815 849 870 885 898 922 949 952 979 1006 1035 1061 1081 1095 0 0 0 0 0 0 0 0 0 0 0 0 0 1203 1203 1203 1190 1190 1190 1192 1201 1216 1227 1228 1228 1228 1228 1221 1208 1200 1194 1178 0 0 0 0 914 904 903 903 903 904 904 904 904 904 904 904 905 905 907 907 908 908 909 910 910 910 910 910 910 910 909 909 908 908 908 905 902 900 900 892 892 892 892 892 0 0 0 737 729 729 729 730 730 733 735 736 740 740 740 742 742 743 745 746 748 753 757 765 770 774 777 780 783 794 807 815 826 837 850 862 873 880 897 913 921 927 931 935 937 939 939 940 940 941 941 942 942 943 943 943 943 943 943 943 943 943 943 943 942 941 941 941 940 938 936 933 930 927 924 919 917 915 914 887 866 847 829 829 829 829 829 829 827 826 826 826 828 830 833 835 838 841 843 843 845 848 850 853 855 858 862 869 878 890 902 912 921 927 930 937 944 947 952 955 956 957 959 960 961 962 963 964 964 964 964 964 964 965 965 965 966 966 967 967 967 967 967 967 966 964 963 961 959 957 957 956 954 950 944 941 940 940 929 928 927 927 924 924 924 923 923 922 922 922 924 924 924 925 928 936 940 940 941 941 941 941 943 945 949 951 959 963 969 975 978 980 983 985 985 986 986 987 987 987 988 988 989 990 990 990 990 990 990 989 989 989 989 988 988 988 987 987 986 985 985 985 984 983 982 981 980 977 975 974 969 963 957 951 950 947 947 947 947 950 952 952 952 952 952 951 948 948 948 949 954 958 963 963 963 964 964 964 967 973 980 984 987 988 989 990 991 992 992 993 994 994 995 995 995 995 996 996 996 996 995 995 995 995 995 995 995 995 994 993 992 992 992 992 991 990 990 989 988 988 986 985 984 980 977 976 976 976 977 978 978 978 973 973 973 973 975 979 984 985 986 986 986 986 986 986 988 989 989 990 994 1000 1004 1004 1005 1005 1005 1005 1003 1003 1003 1003 1003 1004 1004 1004 1004 1003 1002 999 999 999 999 1000 1001 1003 1003 1006 1007 1007 1008 1008 1009 1009 1009 1010 1010 1011 1016 1025 1030 1037 1038 1039 1039 1042 1043 1044 1044 1044 1046 1046 1046 1047 1048 1049 1049 1049 1049 1049 1050 1050 1050 1051 1051 1051 1051 1051 1051 1051 1051 1051 1051 1051 1051 1050 1050 1050 1050 1049 1048 1048 1047 1046 1046 1045 1045 1044 1044 1044 1044 1043 1043 1043 1043 1043 1043 1043 1044 1044 1044 1046 1047 1047 1047 1047 1047 1049 1049 1050 1052 1056 1056 1056 1059 1066 1071 1074 1080 1080 1082 1089 1100 1107 1111 1112 1112 1113 1116 1116 1116 1116 1116 1116 1116 1117 1117 1118 1118 1118 1117 1116 1115 1114 1113 1111 1109 1105 1101 1096 1092 1091 1086 1081 1076 1070 1067 1060 1056 1053 1047 1045 1043 1042 1041 1040 1039 1037 1036 1035 1035 1034 1034 1033 1032 1031 1029 1029 1027 1026 1025 1025 1023 1021 1020 1020 1019 1018 1015 1013 1012 1011 1009 1005 1001 997 994 990 989 986 983 981 970 960 957 956 951 930 0 0 0
624 624 650 650 0 0 0 772 791 815 837 863 875 890 918 948 951 979 1008 1036 1063 1085 1109 1125 0 0 0 0 0 0 0 0 0 0 0 0 0 1199 1199 1199 1178 1178 1178 1186 1200 1216 1217 1226 1226 1226 1221 1217 1210 1208 1208 0 0 0 0 0 908 903 903 903 904 904 904 903 903 903 903 904 905 905 906 906 907 907 908 908 909 909 909 909 907 907 906 906 905 904 901 899 898 892 892 892 891 890 0 0 0 0 725 721 721 725 728 730 733 735 736 740 742 742 743 744 744 745 746 748 749 753 761 767 771 773 777 783 792 804 815 827 840 853 862 874 884 899 913 921 927 930 933 936 938 938 939 939 940 941 941 941 942 942 942 942 942 942 942 942 942 942 941 941 940 939 938 938 936 933 932 928 924 921 918 912 911 910 884 865 840 829 829 828 828 828 826 825 825 825 826 828 829 830 833 837 840 842 843 845 847 849 849 851 854 862 869 878 889 901 910 917 924 929 936 941 945 949 952 955 956 958 959 960 962 963 964 964 964 964 964 964 964 965 965 965 965 966 966 966 966 965 964 964 962 961 959 957 957 955 953 952 946 941 940 940 933 926 926 924 919 919 919 921 921 921 916 916 916 921 922 922 923 925 930 934 935 935 935 936 938 938 941 946 951 956 959 965 971 975 977 980 982 983 984 985 986 986 987 987 987 987 988 988 988 989 989 989 988 988 988 988 988 988 987 987 986 985 985 984 984 983 982 981 981 980 976 972 970 967 959 951 945 940 940 940 941 941 943 947 947 947 945 942 939 938 938 938 938 940 947 953 956 956 956 957 958 962 965 969 971 975 979 988 988 990 991 992 992 993 994 995 995 995 995 996 996 996 996 996 996 996 996 996 995 995 995 994 993 992 992 992 992 991 990 990 988 988 988 986 984 982 973 972 972 970 970 970 970 970 970 967 962 962 962 962 963 966 969 975 976 976 976 977 977 978 982 983 984 984 988 992 994 996 1001 1003 1004 1005 1005 1006 1007 1008 1008 1008 1007 1007 1006 1006 1007 1007 1007 1008 1008 1008 1008 1009 1011 1012 1013 1013 1014 1014 1015 1016 1016 1017 1019 1021 1024 1028 1034 1035 1036 1036 1039 1040 1041 1041 1041 1042 1042 1043 1044 1045 1045 1045 1046 1046 1046 1046 1046 1047 1048 1048 1048 1049 1049 1049 1049 1049 1049 1049 1049 1049 1049 1049 1049 1049 1048 1047 1047 1047 1046 1045 1045 1045 1044 1044 1044 1044 1044 1044 1044 1044 1044 1045 1045 1045 1045 1047 1048 1049 1050 1050 1051 1051 1051 1053 1054 1055 1059 1063 1064 1066 1069 1077 1085 1088 1088 1092 1105 1110 1111 1112 1113 1115 1117 1117 1117 1117 1117 1117 1117 1117 1117 1117 1118 1118 1118 1116 1114 1113 1110 1110 1108 1107 1105 1101 1096 1092 1091 1086 1079 1073 1066 1061 1058 1055 1051 1046 1044 1042 1041 1040 1038 1037 1037 1036 1035 1034 1033 1033 1033 1032 1031 1028 1027 1026 1025 1024 1023 1021 1020 1020 1018 1017 1016 1014 1011 1011 1011 1009 1006 1001 997 994 990 989 988 985 981 972 957 951 949 939 929 0 0 0
610 610 630 0 0 0 0 0 788 808 829 853 864 888 915 946 948 980 1009 1036 1065 1090 1115 1140 1155 1171 1185 0 0 0 0 0 0 0 0 0 0 1213 1213 1213 1196 1178 1178 1178 1179 1198 1198 1209 1221 1221 1221 1221 1214 1212 1209 1181 0 0 0 0 909 902 902 902 902 902 902 902 901 901 902 902 903 904 905 905 905 906 906 907 907 907 907 907 905 904 903 903 901 900 898 897 896 891 891 891 890 890 0 0 0 716 715 715 716 718 724 729 733 735 736 740 741 742 743 744 744 746 746 748 749 753 756 762 770 771 777 783 790 804 816 829 840 853 861 874 884 900 912 920 926 929 933 935 936 937 937 939 940 940 940 940 940 941 941 941 941 941 941 941 941 941 940 939 939 938 936 935 935 933 931 927 924 919 915 909 908 888 869 851 835 829 829 828 828 828 826 825 825 825 826 827 828 829 831 835 839 842 843 845 845 846 847 847 854 862 869 877 889 897 905 915 922 927 933 937 941 947 951 954 955 956 958 958 960 961 962 962 963 963 963 964 964 964 964 965 965 965 965 965 964 964 963 962 961 960 958 957 955 953 950 947 943 940 936 931 930 925 921 917 917 917 917 919 919 919 911 911 911 915 917 919 921 924 927 927 928 928 931 932 934 935 939 943 949 952 957 962 968 972 974 976 980 981 982 983 984 985 985 986 986 986 987 987 987 987 987 987 987 987 987 987 987 987 987 986 985 985 984 983 982 981 980 980 978 977 974 972 969 965 957 947 943 939 939 939 939 939 939 939 939 938 935 934 934 934 934 934 934 936 936 943 943 943 943 943 945 949 953 959 961 965 970 980 988 988 990 990 991 993 994 995 995 995 995 996 996 996 996 996 996 996 996 996 995 995 995 994 993 992 992 992 992 991 990 989 988 987 987 986 983 976 971 970 966 961 959 959 959 958 956 954 951 951 951 952 952 953 956 960 964 964 966 967 967 970 973 976 977 977 981 985 986 988 994 1000 1003 1003 1006 1006 1007 1008 1008 1009 1009 1009 1009 1010 1011 1012 1013 1013 1013 1013 1013 1013 1013 1014 1014 1015 1015 1015 1016 1017 1017 1018 1020 1021 1024 1026 1030 1034 1034 1034 1036 1038 1038 1038 1038 1039 1039 1039 1040 1041 1042 1042 1042 1042 1042 1043 1043 1044 1044 1045 1046 1046 1047 1047 1047 1047 1048 1048 1047 1047 1047 1047 1047 1047 1047 1046 1046 1046 1045 1045 1045 1044 1044 1044 1044 1044 1044 1044 1044 1045 1045 1046 1046 1046 1047 1049 1050 1051 1051 1052 1052 1053 1053 1058 1059 1064 1067 1070 1072 1075 1075 1083 1091 1097 1101 1107 1109 1111 1115 1115 1115 1117 1117 1117 1118 1118 1118 1117 1117 1117 1117 1118 1118 1118 1115 1113 1110 1109 1108 1108 1108 1106 1102 1101 1096 1092 1087 1083 1076 1070 1063 1058 1055 1052 1048 1044 1043 1042 1041 1040 1038 1037 1036 1035 1033 1032 1031 1031 1031 1030 1029 1028 1026 1026 1023 1022 1021 1020 1019 1018 1016 1015 1014 1012 1011 1010 1010 1009 1006 1003 998 994 990 989 988 986 983 973 960 951 936 930 925 0 0 0
0 0 0 0 0 0 0 0 0 798 815 839 855 885 914 945 948 980 1009 1036 1066 1094 1119 1144 1166 1182 1197 1209 1221 1237 0 0 0 0 0 0 0 1213 1234 1234 1234 1188 1178 1168 1168 1168 1168 1192 1210 1224 1224 1224 1227 1223 1220 1190 0 0 0 0 909 902 901 901 901 901 900 900 900 900 900 902 902 903 903 903 904 905 906 906 906 905 905 904 903 902 902 900 898 897 895 895 893 891 891 890 889 886 0 0 0 714 714 714 714 718 724 729 731 733 733 734 738 742 743 744 746 747 749 750 750 753 756 762 770 771 777 783 790 804 817 831 845 853 860 874 891 901 912 919 925 929 931 933 934 935 936 937 937 938 939 939 939 939 939 939 939 939 939 939 939 939 938 938 937 935 934 932 932 931 929 925 922 915 908 908 901 869 852 834 827 827 827 827 827 827 826 825 825 825 825 827 828 829 831 833 838 842 843 845 845 846 846 847 854 863 869 876 887 892 902 915 922 927 933 937 941 947 951 952 953 954 955 957 958 959 961 961 962 962 962 962 962 962 962 962 962 962 962 962 962 962 961 960 959 957 955 955 953 950 947 943 939 937 933 928 926 923 914 913 913 913 915 915 915 914 909 909 909 909 910 913 916 921 924 924 925 925 926 928 931 932 936 940 945 949 955 962 967 969 971 974 978 978 980 982 983 983 983 985 985 985 985 985 985 986 986 986 986 986 986 986 986 985 985 985 984 983 982 981 981 980 979 977 975 973 970 967 964 961 953 944 941 938 936 936 936 936 936 934 931 929 929 929 929 931 931 931 931 931 931 934 937 937 940 940 940 945 950 954 956 961 968 974 980 986 987 989 991 993 993 994 994 994 994 995 995 996 996 996 996 996 996 996 995 994 994 994 993 992 992 991 991 990 990 988 987 986 985 981 976 972 967 965 961 952 940 940 939 938 936 935 935 936 937 938 940 946 949 950 951 953 955 956 956 956 958 958 959 962 973 977 979 982 987 993 993 1001 1006 1006 1007 1009 1009 1009 1009 1010 1010 1010 1011 1013 1013 1013 1013 1013 1013 1013 1013 1015 1015 1015 1015 1015 1017 1017 1018 1019 1020 1021 1024 1025 1027 1028 1030 1033 1034 1034 1035 1035 1035 1036 1036 1037 1037 1038 1039 1039 1040 1040 1040 1040 1040 1041 1041 1043 1044 1044 1044 1044 1044 1045 1046 1046 1046 1045 1045 1045 1045 1045 1045 1045 1045 1044 1044 1044 1044 1044 1044 1044 1044 1044 1045 1045 1045 1046 1046 1046 1047 1049 1049 1051 1052 1053 1053 1054 1057 1058 1060 1065 1067 1071 1072 1076 1081 1083 1087 1092 1101 1106 1107 1110 1112 1113 1115 1115 1116 1117 1117 1117 1117 1117 1117 1117 1117 1117 1117 1118 1118 1118 1111 1109 1107 1107 1107 1107 1107 1102 1096 1092 1090 1086 1084 1078 1074 1069 1062 1056 1053 1050 1046 1042 1042 1040 1040 1038 1037 1035 1033 1032 1030 1030 1030 1029 1029 1028 1027 1026 1025 1023 1022 1020 1019 1018 1017 1015 1014 1014 1012 1011 1010 1009 1009 1009 1006 1003 998 994 990 988 987 986 983 972 961 951 930 924 922 0 0 0
