0 0 0 0 0 927 927 933 935 949 971 986 991 1003 1023 1054 1084 1108 1117 1122 1124 1126 1130 1138 1149 1164 1179 1188 1199 1213 1227 1238 1243 1252 1259 1267 1282 1300 1317 1329 1341 1351 1364 1380 1396 1414 1429 1435 1448 1461 1471 1479 1486 1505 1525 1546 1561 1574 1587 1602 1614 1621 1623 1625 1627 1639 1653 1666 1676 1684 1694 1704 1714 1723 1736 1753 1770 1789 1804 1817 1820 1820 1823 1826 1831 1839 1845 1851 1860 1870 1879 1889 1908 1936 1961 1982 1998 2011 2020 2029 2040 2053 2068 2081 2091 2107 2122 2144 2166 2203 2232 2253 2272 2286 2294 2301 2315 2334 2351 2357 2363 2367 2378 2390 2398 2403 2405 2412 2422 2436 2456 2460 2472 2472 2473 2474 2474 2489 2503 2513 2523 2534 2545 2553 2558 2565 2566 2570 2577 2589 2604 2608 2612 2617 2626 2633 2634 2634 2634 2634 2634 2634 2654 2675 2692 2701 2706 2716 2731 2740 2740 2740 2740 2743 2745 2753 2759 2759 2759 2756 2756 2756 2758 2774 2786 2797 2809 2821 2833 2838 2841 2842 2850 2857 2866 2879 2893 2898 2901 2902 2906 2919 2933 2946 2953 2956 2963 2977 2992 3005 3009 3010 3015 3022 3031 3037 3045 3064 3064 3064 3062 3062 3062 3077 3081 3081 3081 3080 3080 3080 3085 3086 3086 3088 3089 3094 3099 3103 3114 3126 3133 3147 3159 3159 3159 3157 3157 3157 3157 3157 3132 3007 2777 2548 0 0 0 0 2549 2793 2914 3018 3071 3095 3118 3124 3128 3128 3128 3118 3105 3076 3076 3074 3066 3056 3028 2893 2868 2868 2868 2964 2998 2998 2998 2984 2974 2966 2948 2940 2929 2900 2861 2793 2718 2608 2570 0 0 0 0 0 0 0 0 0 0 0 0 0 0 0 0 0 0 0 0 0 0 0 1263 1263 1244 1236 1226 1222 1220 1210 1206 1202 1202 1196 1193 1191 1189 1187 1182 1181 1180 1178 1176 1176 1176 1175 1170 1166 1162 1158 1155 1152 1149 1145 1142 1139 1135 1131 1129 1127 1124 1122 1119 1117 1115 1113 1112 1111 1110 1109 1109 1107 1107 1105 1103 1102 1101 1099 1098 1095 1094 1092 1090 1088 1086 1085 1083 1081 1080 1077 1076 1074 1072 1071 1069 1067 1065 1063 1061 1060 1057 1056 1055 1053 1051 1049 1047 1045 1043 1042 1040 1038 1036 1034 1032 1031 1030 1027 1025 1023 1022 1020 1018 1017 1016 1014 1012 1010 1009 1006 1004 1002 1000 998 996 994 992 990 988 987 985 983 982 980 979 977 976 974 972 971 968 965 963 962 961 961 960 959 959 958 957 955 954 954 953 952 950 948 947 945 944 941 940 939 937 936 935 934 933 932 931 929 928 927 925 924 923 921 919 918 917 915 914 914 912 911 909 909 907 907 906 905 904 902 900 899 898 897 896 895 893 892 891 889 888 888 886 885 884 884 882 880 880 878 876 875 869 862 862 862 879 895 917 948 0 0 0 0 0 0 0 1944 1958 1961 1973 1977 1978 1988 2003 2012 2012 2012 2004 1997 1991 1984 1981 1967 1956 1954 1953 1952 1938 1919 1908 1901 1895 1878 1872 1865 1865 1858 1850 1841 1827 1806 1800 1781 1767 1767 1767 1767 1767 1759 1751 1733 1719 1687 1637 1584 1545 1510 1483 1469 1447 1439 1415 1379 1343 1308 1289 1288 1288 1289 1305 1305 1305 1299 1281 1266 1260 1260 1260 1258 1258 1257 1247 1245 1245 1242 1229 1214 1196 1177 1173 1170 1157 0 1075 1063 1048 1025 1020 1016 1016 1016 1032 1032 1032 1019 1014 1014
877 877 896 905 906 908 925 927 935 949 971 993 1005 1016 1036 1066 1096 1108 1120 1124 1126 1128 1130 1137 1147 1159 1171 1182 1193 1209 1226 1238 1246 1254 1260 1270 1285 1301 1317 1331 1342 1351 1366 1380 1396 1413 1419 1435 1448 1468 1483 1493 1502 1513 1527 1546 1563 1577 1591 1608 1620 1623 1627 1631 1638 1647 1658 1671 1682 1690 1700 1713 1722 1730 1744 1759 1774 1790 1804 1817 1820 1826 1828 1829 1834 1840 1845 1846 1853 1866 1882 1900 1915 1936 1961 1982 1998 2012 2025 2038 2053 2064 2069 2081 2094 2107 2122 2138 2157 2181 2218 2244 2272 2286 2294 2318 2330 2351 2367 2376 2380 2384 2393 2406 2413 2421 2423 2425 2439 2455 2456 2472 2483 2489 2492 2492 2494 2501 2509 2520 2530 2538 2550 2557 2559 2566 2572 2576 2586 2603 2617 2623 2624 2628 2634 2640 2640 2640 2641 2641 2644 2651 2664 2684 2700 2709 2718 2724 2735 2745 2749 2751 2752 2753 2755 2761 2761 2761 2759 2756 2756 2756 2758 2774 2786 2801 2814 2823 2834 2844 2850 2857 2864 2870 2873 2881 2896 2904 2908 2910 2914 2924 2940 2955 2964 2970 2973 2979 2992 3006 3013 3021 3026 3033 3036 3039 3049 3064 3071 3071 3071 3071 3071 3077 3080 3080 3081 3081 3086 3092 3093 3093 3096 3096 3096 3099 3102 3111 3126 3126 3133 3147 3159 3159 3159 3157 3157 3157 3157 3157 3088 2930 2675 0 0 0 2393 2460 2691 2859 2976 3042 3083 3109 3133 3135 3135 3135 3134 3118 3105 3086 3078 3077 3070 3056 3021 2893 2893 2893 2920 2996 2996 2996 2989 2976 2960 2945 2925 2908 2885 2841 2779 2719 2600 0 0 0 0 0 0 0 0 0 0 0 0 0 0 0 0 0 0 0 0 0 1250 1250 1245 1245 1245 1237 1220 1212 1210 1206 1206 1203 1202 1201 1200 1196 1193 1191 1189 1187 1183 1181 1180 1178 1176 1174 1173 1171 1169 1165 1162 1158 1155 1152 1149 1146 1144 1141 1137 1134 1131 1128 1127 1124 1121 1120 1119 1118 1116 1115 1113 1112 1111 1110 1108 1107 1105 1103 1102 1100 1098 1097 1095 1093 1091 1089 1087 1086 1084 1082 1080 1078 1076 1074 1073 1071 1070 1068 1066 1064 1061 1060 1058 1057 1055 1053 1052 1050 1048 1045 1044 1043 1041 1039 1037 1035 1033 1031 1030 1028 1026 1024 1022 1020 1018 1017 1016 1014 1012 1011 1009 1007 1005 1002 1000 998 996 994 992 990 988 987 985 983 982 980 979 977 976 973 972 971 968 965 963 962 961 960 960 959 958 958 957 956 955 955 953 952 951 950 947 946 945 942 941 940 938 937 936 934 934 932 931 930 928 928 926 925 924 922 921 919 917 916 915 914 913 911 910 909 908 907 906 905 904 902 901 900 899 898 897 895 894 893 891 890 889 888 887 886 885 884 883 881 880 879 878 876 872 861 861 861 878 890 913 939 972 0 0 0 0 0 0 0 1948 1961 1973 1978 1979 1988 2002 2012 2013 2015 2015 2013 2008 1997 1995 1984 1980 1977 1976 1969 1948 1927 1913 1905 1900 1895 1885 1875 1868 1858 1851 1841 1829 1806 1800 1781 1767 1767 1767 1767 1767 1762 1751 1734 1709 1674 1630 1584 1544 1510 1488 1485 1471 1440 0 0 1343 1308 1289 1288 1288 1289 1305 1305 1305 1299 1281 1266 1249 1249 1249 1249 1249 1249 1238 1233 1232 1229 1226 1214 1196 1177 1173 1170 1151 1145 0 1063 1048 1033 1025 1009 1009 1009 1023 1040 1040 1043 1050 1050
873 873 884 887 889 908 925 934 948 962 987 1013 1028 1041 1054 1078 1101 1108 1125 1125 1126 1129 1129 1137 1147 1159 1171 1181 1193 1207 1225 1230 1249 1258 1263 1274 1289 1302 1317 1331 1343 1358 1372 1383 1399 1413 1419 1434 1448 1468 1492 1501 1505 1513 1527 1548 1570 1588 1604 1613 1622 1628 1632 1638 1646 1655 1665 1676 1685 1695 1707 1719 1727 1737 1750 1762 1776 1791 1804 1817 1820 1826 1834 1838 1843 1844 1845 1846 1853 1866 1885 1908 1930 1949 1966 1982 1998 2016 2031 2046 2057 2066 2074 2087 2097 2108 2124 2138 2157 2181 2199 2240 2272 2286 2294 2318 2330 2364 2379 2385 2389 2395 2407 2420 2431 2437 2443 2450 2458 2470 2473 2487 2494 2501 2507 2509 2512 2514 2517 2522 2532 2542 2550 2559 2563 2567 2574 2580 2592 2612 2625 2635 2640 2644 2644 2644 2645 2645 2645 2656 2667 2675 2683 2693 2708 2724 2730 2732 2739 2754 2758 2761 2761 2761 2761 2766 2767 2767 2767 2762 2758 2758 2758 2776 2793 2806 2815 2825 2835 2848 2860 2873 2879 2879 2881 2884 2897 2911 2913 2915 2917 2930 2945 2957 2970 2979 2981 2986 2993 3006 3014 3027 3030 3033 3036 3040 3050 3066 3077 3077 3077 3077 3077 3077 3079 3079 3079 3081 3086 3092 3107 3107 3108 3109 3109 3110 3117 3125 3126 3127 3133 3147 3159 3159 3159 3159 3159 3153 3153 3153 3041 2851 2628 0 0 0 2420 2648 2801 2946 3029 3086 3104 3125 3135 3135 3135 3135 3134 3118 3107 3093 3081 3078 3071 3056 3021 2917 2917 2917 2929 2986 2986 2986 2962 2953 2943 2933 2900 2833 2799 2771 0 0 0 0 0 0 0 0 0 0 0 0 0 0 0 1283 1283 1276 1271 1271 1268 1265 1264 1250 1245 1245 1242 1240 1240 1226 1220 1212 1210 1206 1206 1204 1203 1202 1202 1196 1193 1191 1189 1187 1183 1182 1180 1178 1176 1174 1173 1171 1169 1166 1162 1158 1156 1153 1150 1147 1145 1142 1139 1136 1133 1131 1128 1126 1124 1123 1122 1120 1119 1117 1116 1115 1114 1112 1109 1108 1107 1105 1103 1101 1099 1097 1095 1094 1092 1090 1089 1087 1085 1083 1081 1079 1077 1075 1073 1072 1070 1069 1066 1064 1062 1061 1059 1057 1056 1054 1052 1050 1048 1047 1044 1043 1041 1039 1038 1036 1033 1032 1030 1028 1027 1024 1022 1020 1019 1017 1016 1014 1013 1011 1010 1007 1005 1003 1000 998 995 994 990 989 988 986 985 983 981 979 977 975 973 970 970 969 966 963 961 961 960 960 960 959 958 957 957 956 956 955 954 953 951 950 948 946 945 943 942 940 939 937 936 934 934 933 931 931 930 928 927 925 924 923 921 919 918 917 916 914 913 912 910 909 909 908 906 905 905 903 902 900 899 898 897 896 894 893 892 891 890 889 888 886 886 884 883 881 880 879 878 877 872 862 862 862 878 889 913 939 972 0 0 0 0 0 0 0 1948 1961 1973 1978 1982 1991 2003 2012 2015 2015 2015 2015 2008 2004 1996 1993 1993 1993 1990 1984 1961 1941 1928 1922 1917 1908 1895 1885 1876 1869 1866 1853 1840 1826 1803 1782 1777 1771 1771 1767 1767 1764 1754 1734 1709 1674 1630 1584 1544 1511 1506 1502 1488 1482 0 0 0 1318 1302 1294 1294 1294 1305 1305 1305 1299 1281 1265 1247 1247 1247 1249 1249 1249 1238 1233 1229 1229 1229 1229 1229 1203 1190 1178 1151 1147 1093 1077 1067 1056 1045 1029 1023 1023 1023 1044 1063 0 0 0
868 868 879 887 889 908 925 948 963 979 1005 1026 1042 1053 1066 1081 1101 1108 1125 1125 1126 1129 1129 1138 1147 1159 1171 1181 1193 1207 1225 1230 1250 1265 1271 1283 1294 1306 1317 1331 1348 1365 1378 1391 1403 1413 1419 1429 1447 1469 1492 1501 1506 1515 1529 1549 1575 1595 1610 1615 1622 1628 1632 1638 1649 1660 1670 1680 1691 1705 1714 1722 1728 1739 1754 1768 1779 1792 1803 1812 1816 1825 1834 1843 1848 1848 1849 1851 1853 1866 1888 1916 1939 1956 1971 1988 2004 2020 2037 2053 2060 2069 2077 2088 2102 2113 2127 2138 2157 2181 2199 2218 2257 2262 2293 2318 2330 2364 2379 2389 2397 2403 2418 2432 2444 2453 2460 2467 2478 2479 2493 2500 2506 2508 2513 2518 2528 2528 2530 2531 2538 2551 2559 2565 2566 2569 2575 2583 2599 2617 2631 2642 2649 2654 2654 2654 2658 2658 2660 2674 2689 2696 2698 2703 2719 2735 2738 2739 2746 2758 2762 2764 2764 2766 2767 2771 2774 2774 2774 2771 2771 2771 2774 2787 2799 2810 2816 2825 2836 2852 2871 2886 2890 2890 2893 2893 2902 2914 2922 2922 2926 2933 2945 2959 2970 2982 2993 3000 3003 3012 3020 3027 3030 3033 3036 3042 3051 3067 3073 3075 3075 3077 3077 3077 3077 3079 3079 3079 3086 3092 3107 3110 3113 3120 3130 3135 3135 3135 3133 3133 3133 3141 3154 3154 3154 3159 3159 3153 3153 3136 2928 2649 0 0 0 0 2540 2738 2928 3011 3074 3107 3123 3131 3135 3135 3135 3134 3123 3118 3107 3098 3090 3078 3071 3056 3021 2948 2948 2948 2971 2971 2971 2944 2929 2924 2920 2883 2651 0 0 0 0 0 0 0 0 0 0 0 0 0 0 1323 1303 1283 1280 1276 1271 1270 1268 1262 1261 1256 1253 1245 1244 1242 1241 1239 1231 1226 1220 1212 1210 1206 1206 1205 1203 1202 1201 1198 1193 1191 1189 1187 1185 1184 1182 1179 1176 1174 1173 1171 1168 1166 1162 1159 1157 1155 1152 1150 1147 1144 1141 1139 1137 1133 1131 1129 1127 1126 1124 1123 1121 1120 1119 1117 1116 1113 1112 1110 1108 1107 1104 1103 1100 1098 1096 1094 1093 1091 1090 1088 1086 1084 1083 1080 1078 1075 1074 1073 1071 1069 1067 1066 1063 1061 1059 1058 1056 1055 1053 1051 1049 1048 1045 1043 1042 1040 1038 1036 1034 1033 1031 1029 1027 1024 1022 1021 1019 1017 1016 1015 1013 1011 1010 1007 1005 1003 1000 998 995 993 990 988 987 985 983 983 981 978 975 974 972 969 968 967 966 963 960 957 957 957 958 958 958 957 957 956 956 955 954 953 952 950 949 947 945 944 942 941 939 938 937 935 934 933 932 931 930 928 927 925 925 923 922 920 919 917 916 915 914 912 911 910 909 908 906 906 905 903 902 901 900 898 897 896 895 894 893 892 890 889 888 887 886 885 883 881 881 880 880 880 879 879 881 881 881 890 913 939 972 0 0 0 0 0 0 0 0 1974 1995 1998 2000 2003 2004 2011 2014 2016 2016 2016 2010 2006 2001 2001 2001 2000 2000 1994 1977 1959 1943 1930 1924 1918 1904 1891 1884 1883 1877 1865 1853 1839 1822 1800 1796 1778 1772 1772 1771 1766 1755 1734 1709 1674 1630 1584 1544 1524 1523 1522 1521 1487 0 0 0 0 0 1327 1326 1320 1319 1312 1309 1307 1290 1262 1245 1245 1245 1249 1249 1249 1238 1233 1229 1229 1229 1229 1229 1203 1190 1179 1151 1147 1110 1090 1088 1080 1065 1038 1023 1023 0 0 0 0 0 0
866 866 879 887 889 912 941 967 981 994 1013 1026 1042 1053 1066 1081 1101 1106 1125 1125 1126 1129 1129 1138 1150 1161 1172 1181 1193 1207 1225 1230 1251 1268 1280 1292 1302 1312 1321 1335 1351 1369 1383 1393 1403 1411 1419 1429 1447 1475 1494 1502 1508 1517 1529 1550 1576 1597 1612 1618 1622 1628 1632 1639 1651 1665 1676 1685 1695 1709 1719 1723 1729 1740 1758 1772 1783 1794 1803 1812 1816 1825 1835 1845 1853 1856 1858 1858 1862 1874 1897 1920 1942 1959 1978 1994 2008 2023 2041 2054 2062 2070 2079 2092 2104 2113 2127 2143 2161 2184 2199 2217 2231 2247 2267 2297 2327 2364 2379 2389 2397 2403 2423 2440 2453 2463 2471 2481 2488 2499 2509 2512 2514 2515 2515 2522 2539 2544 2544 2545 2550 2564 2568 2570 2571 2571 2578 2588 2604 2621 2636 2644 2649 2654 2658 2661 2661 2662 2675 2695 2710 2710 2711 2714 2724 2740 2749 2751 2752 2758 2763 2764 2765 2767 2768 2772 2777 2778 2778 2778 2778 2778 2784 2797 2807 2815 2821 2826 2839 2857 2881 2896 2899 2900 2902 2902 2908 2918 2927 2929 2931 2935 2947 2960 2971 2987 3004 3009 3013 3016 3022 3027 3030 3033 3036 3046 3056 3067 3073 3075 3075 3077 3077 3077 3077 3079 3079 3079 3084 3096 3107 3111 3115 3121 3138 3142 3142 3142 3133 3133 3133 3141 3150 3152 3155 3156 3157 3157 3155 3106 2906 2573 0 0 0 0 2611 2869 2960 3049 3085 3113 3131 3139 3139 3139 3132 3128 3122 3115 3107 3100 3090 3081 3071 3060 3039 2995 2972 2960 2943 2943 2943 2919 2808 2700 0 0 0 0 0 0 0 0 0 0 0 0 0 0 0 1326 1324 1304 1286 1277 1273 1269 1268 1265 1261 1261 1258 1252 1252 1245 1244 1241 1239 1230 1228 1227 1222 1220 1215 1210 1208 1204 1204 1203 1202 1198 1194 1192 1189 1187 1185 1184 1182 1180 1178 1176 1173 1171 1168 1166 1163 1161 1158 1156 1154 1151 1148 1145 1143 1141 1139 1136 1134 1132 1130 1128 1127 1125 1124 1122 1121 1119 1117 1115 1113 1111 1109 1107 1105 1103 1101 1099 1096 1095 1094 1091 1091 1088 1087 1085 1083 1081 1079 1077 1075 1073 1072 1070 1068 1066 1064 1062 1061 1059 1057 1055 1054 1052 1050 1048 1046 1044 1042 1040 1039 1037 1035 1033 1031 1029 1028 1026 1024 1021 1020 1018 1016 1015 1013 1011 1010 1007 1005 1003 999 996 994 992 989 986 985 983 981 981 978 976 975 973 971 969 967 965 961 959 956 953 953 953 956 956 956 956 956 956 956 955 954 954 952 950 949 948 945 945 943 941 940 938 937 936 935 933 933 931 930 929 927 926 925 924 922 921 920 918 917 915 914 912 911 910 909 908 907 906 905 904 902 901 900 900 898 896 896 894 894 892 891 889 888 887 886 886 884 883 882 880 880 880 879 879 881 881 881 889 913 939 0 0 0 0 0 0 0 0 0 2008 2017 2024 2024 2024 2014 2014 2014 2016 2016 2016 2010 2010 2009 2009 2010 2010 2009 2005 1993 1974 1954 1938 1930 1929 1917 1900 1891 1889 1882 1873 1865 1854 1838 1816 1812 1794 1783 1779 1774 1766 1758 1746 1724 1692 1646 1599 1560 1546 1546 1546 1542 1536 1533 0 0 0 0 0 1360 1342 1329 1326 1325 1313 1292 1263 1240 1240 1240 1259 1259 1259 1254 1239 1239 1239 1239 1239 1239 1203 1194 1191 1179 1164 1162 1137 0 0 0 0 0 0 0 0 0 0 0 0
866 866 879 888 898 922 956 983 994 1001 1013 1026 1042 1053 1066 1082 1101 1105 1121 1125 1126 1127 1129 1138 1150 1162 1177 1190 1203 1212 1225 1241 1257 1271 1285 1294 1304 1312 1324 1339 1354 1371 1383 1393 1403 1411 1420 1429 1447 1476 1495 1504 1508 1517 1529 1551 1578 1599 1612 1618 1622 1626 1630 1639 1652 1669 1682 1690 1699 1710 1720 1728 1734 1745 1760 1775 1787 1797 1803 1812 1816 1825 1835 1846 1854 1864 1869 1872 1874 1885 1906 1928 1948 1967 1984 1997 2011 2027 2044 2054 2063 2071 2083 2093 2104 2114 2127 2144 2165 2184 2199 2216 2231 2247 2265 2284 2308 2332 2367 2389 2397 2403 2423 2440 2453 2463 2471 2481 2488 2501 2526 2526 2526 2526 2526 2526 2543 2554 2557 2558 2566 2573 2579 2581 2582 2582 2586 2596 2617 2632 2643 2644 2649 2654 2661 2668 2671 2680 2690 2715 2725 2725 2729 2729 2729 2747 2758 2760 2760 2761 2765 2766 2767 2767 2770 2773 2777 2780 2780 2781 2781 2781 2792 2805 2819 2827 2835 2840 2851 2869 2887 2900 2904 2904 2906 2907 2915 2924 2929 2933 2936 2945 2956 2963 2972 2988 3004 3012 3016 3018 3024 3028 3030 3033 3037 3047 3058 3067 3072 3073 3074 3075 3078 3081 3081 3081 3081 3081 3084 3096 3108 3115 3117 3121 3138 3146 3146 3146 3140 3140 3140 3141 3150 3152 3155 3155 3155 3155 3084 2909 2586 0 0 0 0 2562 2802 2914 2991 3062 3096 3114 3132 3139 3139 3139 3132 3124 3120 3112 3108 3100 3092 3082 3082 3081 3068 3035 2995 2982 2975 2952 2870 0 0 0 0 0 0 0 0 0 0 0 0 0 0 1345 1336 1329 1318 1311 1300 1294 1282 1277 1273 1269 1258 1256 1256 1255 1253 1248 1245 1245 1240 1235 1232 1229 1227 1227 1223 1222 1215 1210 1208 1206 1205 1204 1202 1198 1195 1193 1191 1188 1186 1184 1183 1181 1179 1176 1173 1171 1169 1166 1164 1162 1160 1157 1154 1152 1149 1146 1144 1142 1140 1138 1136 1134 1132 1131 1129 1127 1125 1123 1121 1120 1118 1115 1113 1113 1110 1108 1107 1105 1102 1100 1098 1096 1094 1093 1091 1089 1087 1086 1084 1082 1080 1078 1076 1074 1072 1070 1069 1067 1064 1062 1061 1060 1058 1056 1054 1052 1051 1049 1047 1045 1043 1041 1039 1038 1036 1034 1032 1030 1028 1026 1024 1022 1020 1018 1016 1015 1013 1011 1010 1007 1005 1002 997 993 991 989 985 985 985 981 980 979 977 974 972 968 966 964 963 962 957 955 953 952 952 952 954 955 955 956 956 956 956 955 955 954 952 951 950 948 947 945 944 943 941 939 938 936 935 934 933 932 931 929 928 926 925 924 922 921 920 919 917 916 915 913 912 911 909 908 907 906 905 904 903 901 900 900 898 898 896 895 894 893 892 890 889 888 887 886 885 883 882 881 881 881 881 881 882 882 882 889 919 0 0 0 0 0 0 0 0 0 0 0 2035 2035 2035 2033 2018 2017 2016 2014 2014 2014 2013 2013 2013 2014 2014 2014 2012 2006 1993 1981 1962 1946 1943 1942 1938 1917 1904 1895 1885 1878 1874 1871 1859 1843 1821 1816 1795 1785 1778 1771 1764 1754 1736 1706 1666 1616 1576 1573 1573 1573 1573 1573 1547 0 0 0 0 0 0 1378 1367 1358 1341 1318 1293 1263 1263 1263 1279 1282 1282 1279 1272 1254 1252 1249 1249 1249 1218 1203 1203 1203 1203 1203 1201 0 0 0 0 0 0 0 0 0 0 0 0 0
866 866 885 895 906 932 958 983 994 1003 1014 1025 1036 1044 1059 1082 1090 1102 1114 1114 1117 1119 1129 1138 1150 1162 1179 1192 1207 1220 1228 1242 1258 1275 1288 1297 1304 1313 1327 1343 1359 1373 1384 1394 1400 1411 1425 1435 1453 1479 1495 1511 1517 1525 1531 1553 1578 1599 1612 1618 1622 1626 1630 1639 1656 1675 1687 1696 1703 1711 1724 1733 1740 1749 1763 1779 1789 1800 1804 1813 1821 1829 1838 1846 1857 1869 1878 1885 1894 1906 1918 1934 1954 1974 1991 2003 2013 2027 2044 2054 2065 2074 2087 2096 2104 2114 2127 2144 2166 2184 2199 2216 2229 2247 2265 2278 2295 2312 2328 2348 2366 2402 2423 2440 2453 2463 2471 2481 2488 2501 2527 2528 2528 2529 2529 2529 2544 2557 2565 2571 2577 2581 2586 2590 2593 2596 2600 2608 2621 2638 2645 2646 2649 2649 2660 2671 2681 2690 2702 2726 2730 2730 2735 2735 2737 2752 2764 2769 2769 2769 2770 2770 2770 2770 2771 2775 2778 2781 2781 2781 2783 2785 2796 2813 2828 2836 2844 2853 2863 2877 2891 2902 2904 2906 2906 2911 2917 2925 2929 2933 2936 2946 2961 2967 2976 2988 3005 3014 3017 3019 3024 3028 3030 3033 3038 3050 3063 3070 3072 3073 3074 3075 3079 3083 3083 3083 3083 3083 3084 3096 3108 3115 3117 3125 3138 3146 3148 3149 3149 3150 3150 3151 3151 3151 3152 3152 3151 3124 2993 2631 0 0 0 0 2636 2822 2910 2985 3034 3081 3103 3116 3133 3156 3156 3156 3132 3123 3115 3112 3108 3100 3095 3095 3095 3095 3095 3072 3020 3016 2995 2925 0 0 0 0 0 0 0 0 0 0 0 0 0 0 1318 1312 1303 1303 1300 1298 1297 1285 1275 1272 1267 1264 1258 1256 1255 1255 1250 1248 1245 1243 1240 1236 1232 1229 1227 1226 1223 1222 1216 1210 1208 1207 1206 1204 1202 1199 1196 1194 1191 1189 1187 1185 1184 1181 1179 1176 1174 1171 1169 1167 1165 1163 1161 1158 1155 1153 1150 1148 1146 1143 1141 1139 1137 1135 1133 1132 1131 1129 1126 1124 1122 1120 1119 1117 1115 1113 1111 1109 1107 1105 1103 1100 1099 1097 1095 1093 1091 1089 1087 1086 1084 1082 1080 1078 1076 1074 1073 1071 1069 1067 1065 1064 1062 1060 1058 1057 1055 1053 1051 1050 1047 1046 1044 1042 1040 1039 1036 1035 1032 1030 1028 1026 1025 1022 1020 1018 1016 1014 1013 1011 1010 1007 1002 998 990 989 988 988 983 981 979 979 979 978 975 972 968 964 960 957 956 956 953 951 950 950 950 950 952 953 954 956 956 956 956 955 955 954 953 952 950 948 947 946 944 943 941 940 938 937 936 935 934 932 931 930 928 927 926 924 923 921 920 919 918 916 915 914 912 911 910 908 907 906 905 904 903 902 901 900 899 898 897 896 895 893 892 891 890 888 887 886 885 883 883 883 883 883 885 885 885 885 885 909 922 0 0 0 0 0 0 0 0 0 0 0 2035 2035 2035 2033 2022 2017 2017 2016 2015 2014 2014 2014 2015 2015 2015 2014 2012 2006 1993 1983 1965 1957 1957 1956 1956 1939 1914 1900 1890 1890 1890 1887 1887 1883 1850 1827 1810 1788 1781 1773 1765 1755 1744 1717 1666 1628 1596 1591 1591 1591 1604 1604 1604 0 0 0 0 0 0 0 1404 1387 1364 1329 1303 1263 1263 1263 1281 1283 1295 1295 1295 1279 1272 1269 1266 1249 1218 1218 1218 1215 1215 1215 0 0 0 0 0 0 0 0 0 0 0 0 0 1303
879 879 889 896 914 932 958 983 994 1003 1014 1025 1036 1044 1059 1081 1089 1100 1106 1110 1113 1113 1124 1139 1152 1163 1179 1194 1207 1220 1229 1243 1260 1277 1293 1301 1308 1317 1333 1351 1368 1378 1384 1394 1400 1411 1429 1444 1469 1489 1503 1516 1525 1527 1539 1558 1580 1599 1612 1614 1622 1626 1630 1645 1663 1680 1693 1700 1707 1718 1731 1740 1748 1756 1769 1785 1798 1808 1812 1822 1829 1839 1849 1855 1865 1875 1889 1901 1911 1919 1929 1942 1962 1982 1998 2009 2016 2029 2045 2050 2063 2076 2089 2101 2107 2114 2127 2147 2168 2186 2196 2213 2230 2248 2265 2277 2290 2303 2315 2326 2347 2367 2399 2425 2438 2446 2459 2463 2479 2501 2527 2534 2534 2534 2541 2546 2556 2567 2579 2583 2586 2587 2591 2598 2604 2610 2613 2619 2623 2638 2648 2648 2649 2649 2658 2671 2688 2701 2717 2733 2742 2743 2744 2746 2746 2759 2765 2769 2771 2776 2776 2776 2776 2776 2776 2777 2778 2782 2782 2783 2784 2788 2801 2817 2832 2841 2847 2855 2868 2884 2895 2902 2906 2907 2908 2912 2917 2925 2929 2933 2936 2946 2961 2972 2981 2994 3005 3014 3021 3027 3031 3031 3032 3033 3044 3057 3069 3074 3074 3077 3077 3077 3083 3086 3086 3087 3088 3090 3094 3102 3110 3117 3121 3128 3136 3145 3148 3152 3159 3160 3160 3160 3159 3152 3146 3134 3111 3047 2818 0 0 0 0 0 2682 2856 2978 3031 3072 3099 3122 3132 3150 3156 3156 3156 3132 3119 3111 3110 3108 3100 3095 3095 3095 3095 3095 3072 3033 3016 2995 2828 0 0 0 0 0 0 0 0 0 0 1331 1330 1325 1316 1314 1309 1299 1296 1294 1290 1288 1278 1275 1273 1270 1265 1259 1256 1255 1254 1250 1248 1245 1243 1240 1236 1232 1230 1227 1226 1223 1220 1216 1210 1209 1207 1206 1205 1202 1200 1197 1194 1193 1190 1188 1185 1184 1182 1180 1177 1174 1173 1170 1168 1166 1163 1162 1159 1156 1153 1152 1149 1147 1144 1143 1141 1138 1136 1135 1133 1132 1130 1129 1126 1123 1121 1119 1117 1116 1114 1112 1110 1108 1106 1103 1102 1099 1097 1095 1093 1091 1089 1087 1086 1084 1082 1080 1078 1076 1075 1073 1071 1069 1067 1065 1064 1063 1061 1059 1058 1056 1054 1053 1050 1048 1046 1045 1043 1041 1039 1037 1035 1033 1031 1029 1027 1025 1023 1021 1018 1016 1014 1013 1011 1009 1004 1001 993 988 986 986 985 983 979 977 977 976 974 972 970 965 961 956 952 951 951 950 950 950 949 950 950 951 952 954 955 955 955 955 955 955 954 953 952 951 949 948 946 945 944 942 941 939 938 936 936 934 933 932 930 929 928 927 925 924 922 921 919 918 917 915 914 913 911 910 909 907 907 905 905 904 903 901 900 900 899 898 897 895 894 892 892 890 889 888 886 885 884 884 884 886 889 891 891 892 893 893 914 948 0 0 0 0 0 0 0 0 0 0 0 2035 2035 2035 2035 2026 2025 2025 2019 2016 2016 2016 2016 2017 2017 2017 2014 2012 2006 1996 1984 1968 1968 1968 1962 1958 1944 1921 1908 1902 1902 1902 1916 1916 1916 1873 1845 1823 1792 1781 1774 1768 1761 1744 1717 1666 1628 1596 1596 1596 1610 1629 1629 1629 1605 0 0 0 0 0 0 0 0 0 0 0 0 0 0 0 1324 1325 1325 1324 1310 1296 1290 1269 1249 1218 1218 1218 1227 1227 0 0 0 0 0 0 0 0 0 0 0 0 0 1332 1329
884 884 893 897 914 937 958 980 994 1003 1014 1025 1036 1044 1059 1080 1085 1096 1105 1110 1113 1113 1124 1139 1152 1163 1180 1199 1215 1224 1232 1244 1261 1282 1298 1311 1317 1327 1342 1361 1375 1381 1385 1394 1400 1416 1436 1454 1480 1499 1512 1522 1527 1538 1551 1566 1583 1599 1612 1614 1622 1626 1637 1654 1671 1687 1696 1703 1716 1727 1740 1750 1756 1766 1778 1790 1803 1810 1819 1828 1839 1852 1863 1869 1876 1887 1899 1911 1922 1930 1938 1950 1966 1982 1999 2009 2016 2029 2045 2050 2064 2076 2091 2105 2116 2123 2134 2151 2170 2186 2196 2213 2231 2249 2265 2277 2289 2297 2303 2314 2329 2349 2374 2401 2422 2434 2446 2450 2466 2493 2512 2527 2534 2534 2548 2557 2568 2580 2591 2592 2592 2594 2594 2599 2609 2618 2620 2622 2626 2638 2652 2652 2657 2658 2658 2671 2692 2708 2720 2737 2750 2753 2754 2755 2756 2759 2765 2769 2771 2776 2777 2778 2778 2779 2781 2782 2783 2786 2789 2790 2790 2797 2809 2825 2836 2842 2849 2856 2868 2884 2895 2902 2906 2906 2908 2914 2919 2925 2929 2932 2938 2950 2962 2977 2986 2996 3005 3017 3026 3035 3038 3039 3039 3044 3053 3065 3076 3079 3079 3081 3081 3081 3089 3090 3091 3091 3095 3098 3102 3107 3116 3125 3129 3132 3136 3142 3148 3158 3159 3163 3163 3160 3159 3152 3129 3110 3050 2903 2635 0 0 0 0 2595 2746 2909 3013 3060 3092 3123 3142 3154 3168 3168 3168 3156 3132 3119 3109 3108 3103 3096 3095 3095 3095 3095 3095 3072 3033 3016 2964 2735 0 0 0 0 0 0 0 0 1345 1336 1328 1327 1315 1313 1311 1300 1296 1293 1290 1287 1284 1278 1275 1272 1270 1265 1259 1256 1255 1253 1250 1248 1245 1243 1240 1236 1232 1230 1227 1226 1223 1220 1216 1211 1209 1207 1206 1205 1203 1200 1198 1196 1193 1191 1189 1187 1184 1182 1180 1178 1176 1173 1172 1169 1167 1164 1162 1160 1158 1154 1153 1150 1148 1146 1144 1142 1140 1138 1136 1135 1133 1132 1130 1127 1125 1123 1121 1119 1117 1114 1112 1110 1108 1106 1104 1102 1100 1097 1095 1093 1091 1089 1088 1086 1084 1082 1080 1078 1076 1075 1073 1071 1069 1067 1066 1065 1064 1062 1060 1058 1057 1055 1053 1051 1049 1047 1045 1043 1041 1039 1037 1036 1033 1031 1030 1027 1025 1023 1022 1018 1016 1014 1013 1010 1007 1000 996 990 987 984 983 982 981 977 975 974 973 972 971 967 963 959 954 950 949 949 949 948 948 948 949 949 951 952 954 955 955 955 955 955 955 954 954 952 952 950 949 947 946 944 943 941 941 938 937 936 935 934 933 931 930 928 928 926 924 924 922 920 918 918 916 914 913 911 911 910 908 907 906 905 904 903 902 901 900 899 898 897 896 895 893 892 891 890 889 888 887 887 887 887 888 891 893 897 900 901 904 926 948 954 0 0 0 0 0 0 0 0 0 0 2030 2037 2037 2037 2035 2032 2032 2032 2026 2026 2026 2023 2023 2023 2019 2012 2009 2000 1996 1984 1978 1975 1973 1971 1968 1944 1922 1911 1911 1911 1917 1931 1931 1931 1894 1846 1828 1802 1783 1776 1768 1761 1744 1717 1665 1628 1621 1621 1621 1631 1644 1652 1652 1652 0 0 0 0 0 0 0 0 0 0 0 0 0 0 0 0 0 1345 1345 1344 1322 1304 1277 0 0 0 0 0 0 0 0 0 0 0 0 0 0 0 0 0 0 0 1336 1336
887 887 893 901 915 938 958 968 986 1001 1014 1027 1041 1056 1068 1076 1084 1094 1103 1110 1113 1113 1124 1139 1153 1168 1187 1211 1224 1235 1247 1258 1270 1287 1305 1323 1334 1350 1360 1369 1379 1384 1390 1395 1408 1426 1447 1468 1494 1510 1513 1526 1536 1548 1561 1576 1589 1599 1612 1614 1622 1634 1648 1663 1678 1692 1701 1709 1721 1736 1748 1758 1764 1773 1781 1791 1803 1812 1825 1837 1849 1864 1877 1885 1891 1899 1910 1921 1931 1937 1944 1954 1968 1983 1999 2009 2016 2029 2045 2050 2064 2076 2091 2105 2124 2139 2149 2165 2174 2186 2196 2213 2233 2251 2265 2276 2285 2288 2296 2306 2321 2339 2361 2382 2411 2422 2427 2443 2466 2485 2502 2512 2521 2534 2548 2564 2577 2589 2598 2598 2598 2600 2600 2602 2612 2618 2621 2623 2627 2639 2653 2655 2658 2663 2663 2671 2692 2711 2728 2742 2756 2761 2761 2761 2761 2761 2765 2769 2771 2777 2778 2778 2779 2780 2782 2783 2790 2796 2800 2800 2802 2809 2821 2835 2844 2845 2849 2858 2868 2884 2895 2902 2906 2906 2908 2914 2919 2924 2929 2932 2938 2950 2963 2977 2990 2998 3007 3018 3031 3040 3045 3045 3047 3055 3063 3065 3076 3083 3083 3085 3085 3085 3090 3095 3096 3096 3100 3104 3109 3114 3122 3128 3130 3132 3136 3142 3148 3159 3159 3163 3163 3160 3159 3145 3121 3093 3014 2835 0 0 0 0 0 2704 2877 2955 3039 3090 3128 3149 3159 3169 3169 3169 3167 3151 3134 3113 3105 3103 3096 3087 3086 3085 3084 3084 3077 3060 3033 2997 2929 2676 0 0 0 0 0 1354 1339 1338 1332 1331 1325 1323 1315 1313 1311 1307 1299 1293 1290 1286 1282 1278 1275 1272 1269 1265 1262 1258 1256 1254 1251 1249 1246 1243 1240 1236 1233 1230 1227 1226 1223 1220 1216 1213 1210 1208 1207 1205 1203 1201 1199 1196 1194 1191 1189 1187 1184 1183 1180 1178 1177 1174 1172 1170 1167 1164 1163 1160 1158 1156 1153 1151 1148 1147 1145 1143 1141 1139 1137 1136 1134 1133 1130 1128 1127 1124 1122 1120 1119 1115 1112 1110 1108 1106 1104 1102 1100 1097 1095 1093 1091 1089 1088 1086 1084 1081 1079 1078 1076 1074 1073 1071 1069 1067 1066 1065 1064 1062 1061 1060 1058 1055 1053 1052 1050 1048 1046 1045 1042 1040 1038 1036 1034 1032 1030 1028 1026 1024 1022 1020 1017 1014 1013 1011 1001 995 991 988 982 979 979 979 977 977 974 970 970 970 969 965 960 955 952 950 948 947 947 947 947 948 949 949 951 952 954 955 955 956 956 955 955 955 954 953 952 951 949 948 946 945 943 942 941 939 938 937 936 934 933 932 930 930 928 927 926 924 923 920 919 918 916 914 913 913 911 910 908 907 906 905 905 904 902 901 900 900 899 897 896 895 894 892 891 890 889 888 888 888 888 888 888 892 894 897 901 904 910 926 948 954 0 0 0 0 0 0 0 0 0 0 2030 2041 2041 2041 2040 2039 2038 2038 2037 2035 2034 2034 2031 2026 2019 2012 2009 2000 1996 1994 1989 1979 1975 1973 1968 1945 1922 1911 1911 1911 1917 1931 1931 1931 1904 1863 1841 1823 1801 1789 1768 1761 1743 1703 1654 1625 1625 1625 1635 1638 1650 1664 1664 1664 1654 1652 1635 1611 1592 1582 1582 1560 0 0 0 0 0 0 0 0 0 0 0 0 0 0 0 0 0 0 0 0 0 0 0 0 0 0 0 0 0 1448 1448 1448 1431 1379 1347 1347
887 887 890 904 919 938 958 968 986 1001 1014 1027 1041 1056 1068 1073 1081 1089 1103 1113 1133 1147 1156 1163 1164 1176 1193 1219 1228 1246 1262 1272 1285 1300 1316 1329 1346 1359 1368 1375 1382 1390 1401 1407 1421 1442 1460 1481 1502 1512 1525 1534 1544 1556 1571 1585 1597 1608 1616 1621 1632 1646 1658 1673 1685 1697 1707 1715 1726 1739 1753 1764 1772 1777 1781 1792 1805 1814 1831 1846 1861 1876 1891 1900 1906 1915 1922 1931 1936 1941 1949 1958 1970 1984 1998 2009 2016 2029 2032 2049 2063 2076 2091 2105 2124 2143 2165 2177 2187 2199 2211 2223 2237 2252 2264 2271 2276 2282 2288 2298 2312 2331 2353 2376 2401 2416 2420 2429 2452 2476 2489 2502 2512 2529 2548 2564 2577 2590 2602 2607 2607 2608 2608 2608 2613 2620 2621 2623 2627 2639 2654 2660 2662 2663 2664 2675 2692 2711 2728 2751 2764 2764 2764 2764 2763 2763 2763 2766 2769 2774 2778 2778 2779 2780 2783 2785 2795 2803 2808 2813 2815 2823 2838 2854 2854 2856 2858 2858 2868 2878 2890 2900 2907 2911 2914 2918 2919 2924 2929 2932 2941 2953 2967 2980 2990 2999 3007 3018 3033 3040 3047 3052 3056 3060 3063 3065 3076 3086 3088 3089 3090 3090 3092 3097 3100 3101 3106 3112 3116 3121 3127 3128 3130 3133 3137 3142 3152 3166 3166 3166 3153 3152 3151 3141 3116 3047 2918 2618 0 0 0 0 2614 2810 2910 2985 3068 3125 3154 3172 3179 3179 3179 3179 3167 3151 3134 3094 3089 3085 3084 3073 3064 3061 3056 3048 3040 3019 3001 2971 2894 2676 0 0 0 0 1364 1346 1339 1338 1329 1327 1325 1321 1316 1313 1312 1304 1296 1292 1288 1286 1281 1278 1275 1272 1270 1267 1264 1259 1257 1254 1252 1249 1247 1244 1241 1236 1234 1232 1229 1226 1224 1220 1217 1215 1211 1210 1208 1206 1204 1201 1199 1197 1195 1193 1191 1188 1185 1183 1182 1180 1178 1175 1174 1171 1167 1165 1163 1161 1159 1156 1154 1152 1150 1148 1146 1144 1143 1141 1139 1137 1135 1133 1131 1129 1127 1125 1123 1121 1119 1115 1112 1110 1108 1106 1104 1102 1100 1097 1095 1093 1090 1089 1087 1085 1083 1081 1078 1077 1076 1074 1072 1071 1069 1068 1066 1066 1064 1063 1061 1060 1058 1056 1054 1052 1050 1049 1047 1045 1043 1041 1038 1036 1035 1032 1031 1028 1026 1024 1023 1020 1018 1015 1013 1009 996 987 984 980 978 978 977 977 977 974 971 968 967 967 967 964 959 955 950 948 947 946 945 945 945 948 949 949 950 952 953 954 955 956 956 955 955 955 954 953 952 951 950 948 947 945 944 943 941 940 939 938 937 935 934 932 932 930 929 927 926 924 923 921 920 918 917 915 914 913 911 910 909 908 907 906 905 904 903 901 901 900 899 897 897 895 894 892 891 890 889 889 888 888 888 888 889 892 894 897 901 904 910 925 926 927 939 0 0 0 0 0 0 0 0 0 2029 2045 2049 2049 2049 2045 2045 2045 2044 2044 2041 2039 2034 2028 2021 2012 2009 2000 2000 1995 1989 1982 1976 1973 1964 1945 1926 1912 1912 1912 1917 1931 1931 1931 1904 1863 1841 1823 1807 1789 1768 1761 1729 1686 1646 1639 1639 1639 1643 1645 1656 1668 1668 1668 1666 1655 1646 1641 1627 1604 1589 1589 1589 1589 0 0 0 0 0 0 0 0 0 0 0 0 0 0 0 0 0 0 0 0 0 0 0 0 0 1457 1470 1470 1470 1467 1448 1415 1385 1385
887 887 889 907 929 949 965 968 985 1001 1014 1027 1041 1056 1068 1073 1079 1084 1098 1113 1134 1154 1164 1171 1178 1186 1201 1219 1230 1249 1270 1283 1294 1305 1319 1337 1361 1379 1387 1388 1390 1399 1411 1418 1439 1456 1474 1493 1506 1523 1536 1546 1553 1565 1579 1591 1606 1617 1622 1632 1650 1659 1670 1682 1692 1703 1713 1722 1732 1745 1753 1766 1776 1781 1787 1796 1808 1818 1837 1855 1872 1890 1906 1917 1923 1927 1932 1936 1941 1946 1957 1966 1973 1984 1998 2009 2016 2024 2032 2045 2062 2074 2085 2104 2124 2143 2165 2186 2199 2209 2219 2233 2246 2256 2264 2271 2276 2279 2286 2294 2304 2323 2343 2363 2387 2390 2408 2413 2419 2450 2472 2487 2501 2523 2548 2564 2577 2590 2602 2615 2616 2616 2616 2616 2619 2622 2625 2628 2633 2640 2654 2663 2665 2668 2668 2676 2694 2712 2732 2752 2767 2769 2769 2769 2763 2763 2763 2766 2769 2774 2778 2779 2780 2781 2783 2785 2796 2804 2812 2817 2823 2831 2853 2865 2865 2865 2868 2868 2868 2878 2890 2900 2908 2916 2921 2922 2924 2924 2929 2937 2948 2962 2977 2984 2992 3001 3009 3020 3034 3042 3047 3053 3057 3060 3063 3065 3071 3083 3093 3098 3099 3100 3103 3105 3106 3107 3111 3116 3121 3126 3127 3129 3131 3135 3145 3152 3159 3168 3168 3168 3153 3142 3139 3135 3102 2977 2753 2509 0 0 0 2567 2864 2881 2945 3031 3098 3143 3170 3187 3187 3187 3187 3179 3167 3151 3134 3094 3050 3048 3048 3045 3036 3035 3032 3017 2996 2975 2956 2929 2875 2676 0 0 0 0 1351 1343 1339 1334 1330 1329 1321 1320 1318 1315 1311 1300 1296 1291 1288 1285 1282 1278 1275 1273 1271 1267 1265 1261 1258 1254 1253 1250 1248 1245 1241 1238 1235 1233 1230 1228 1225 1222 1219 1216 1213 1210 1209 1207 1204 1202 1200 1198 1196 1193 1191 1189 1187 1184 1183 1180 1178 1177 1175 1172 1169 1167 1165 1162 1160 1158 1155 1153 1151 1149 1148 1146 1144 1142 1140 1138 1136 1134 1132 1130 1128 1126 1124 1122 1119 1116 1112 1110 1108 1106 1104 1102 1099 1097 1095 1092 1090 1088 1087 1085 1083 1081 1078 1075 1075 1073 1071 1071 1069 1068 1067 1066 1064 1063 1062 1060 1058 1057 1055 1053 1051 1050 1048 1046 1043 1042 1039 1037 1036 1034 1032 1029 1028 1026 1025 1023 1020 1015 1013 1008 995 979 977 975 974 974 974 974 972 971 968 966 964 963 963 961 958 952 948 947 945 945 944 944 944 945 947 948 950 951 952 954 955 956 956 956 955 955 954 954 952 951 950 949 947 946 945 944 942 941 939 938 937 936 934 933 932 930 929 928 927 925 923 922 920 919 917 916 914 913 912 910 909 909 908 906 905 904 903 902 901 900 899 898 897 895 894 892 891 890 890 889 888 888 888 889 890 892 893 897 900 904 910 910 914 920 920 939 0 0 0 0 0 0 0 0 2028 2045 2052 2061 2061 2061 2050 2049 2049 2047 2044 2039 2038 2034 2025 2015 2010 2007 2003 1998 1989 1984 1978 1973 1964 1945 1934 1918 1917 1917 1917 1918 1918 1918 1904 1863 1836 1823 1807 1789 1765 1739 1710 1673 1633 1633 1633 1647 1652 1656 1663 1670 1670 1670 1669 1665 1665 1659 1652 1638 1618 1605 1605 1605 1605 1603 0 0 0 0 0 0 0 0 0 0 0 0 0 0 0 0 0 1489 1489 1485 1482 1476 1476 1476 1490 1490 1490 1480 1458 1430 1403 1403
872 872 890 911 932 950 965 969 984 998 1012 1021 1036 1052 1056 1072 1078 1084 1097 1116 1135 1155 1164 1174 1182 1193 1208 1223 1234 1254 1273 1286 1296 1307 1320 1344 1370 1393 1403 1404 1407 1407 1414 1429 1450 1468 1476 1495 1513 1531 1545 1553 1561 1570 1582 1592 1607 1617 1629 1644 1661 1672 1682 1691 1705 1716 1726 1733 1742 1752 1761 1772 1781 1789 1796 1808 1813 1830 1848 1869 1891 1907 1922 1930 1935 1936 1938 1940 1945 1955 1966 1970 1980 1989 1999 2009 2016 2024 2032 2045 2058 2070 2083 2099 2120 2143 2165 2186 2199 2209 2219 2233 2246 2256 2264 2271 2276 2279 2286 2294 2304 2318 2335 2353 2372 2378 2392 2398 2401 2410 2438 2460 2480 2510 2542 2559 2574 2590 2602 2615 2627 2627 2627 2623 2623 2623 2627 2632 2639 2645 2654 2663 2669 2671 2673 2679 2695 2715 2737 2753 2767 2772 2772 2772 2768 2766 2766 2766 2769 2774 2781 2785 2786 2786 2787 2791 2798 2807 2814 2821 2828 2839 2855 2871 2879 2879 2879 2878 2878 2878 2890 2900 2911 2922 2925 2926 2926 2926 2932 2942 2953 2967 2977 2986 2993 3003 3012 3024 3035 3042 3047 3054 3060 3062 3064 3065 3071 3083 3096 3108 3114 3114 3114 3113 3113 3113 3117 3122 3125 3128 3129 3131 3131 3141 3153 3162 3165 3169 3169 3169 3153 3142 3124 3117 3057 2862 2599 2483 0 0 2506 2712 2911 2968 3022 3069 3123 3157 3178 3187 3187 3187 3187 3182 3172 3162 3144 3094 3050 3048 3048 3045 3036 3013 3005 2984 2960 2925 2910 2882 2850 2682 0 0 0 0 1364 1346 1342 1334 1330 1329 1321 1319 1318 1315 1311 1299 1296 1292 1288 1285 1282 1278 1275 1274 1271 1267 1265 1261 1258 1254 1253 1251 1249 1245 1242 1239 1237 1234 1232 1230 1226 1224 1220 1218 1214 1212 1210 1207 1205 1203 1200 1199 1197 1194 1193 1191 1189 1186 1184 1182 1180 1178 1175 1172 1170 1168 1165 1163 1161 1159 1156 1155 1153 1151 1149 1148 1146 1144 1141 1139 1137 1136 1133 1131 1129 1127 1124 1122 1119 1116 1112 1109 1108 1105 1103 1101 1099 1096 1093 1091 1089 1087 1086 1084 1083 1080 1077 1074 1073 1071 1070 1070 1069 1068 1067 1066 1065 1063 1062 1060 1059 1057 1056 1054 1053 1050 1048 1047 1045 1043 1040 1039 1036 1035 1033 1030 1028 1026 1025 1023 1020 1015 1013 1006 995 975 974 973 971 971 971 970 968 966 963 962 960 959 957 956 952 950 946 945 944 944 944 944 944 944 944 947 949 951 952 954 955 956 956 956 956 955 955 954 953 952 951 949 948 946 945 944 943 941 940 939 938 937 935 934 933 932 930 928 927 925 924 922 921 919 917 916 915 914 912 910 910 909 908 907 906 904 903 903 901 900 900 898 897 895 895 893 892 891 890 889 888 888 888 889 891 892 893 896 898 898 908 908 909 915 915 939 0 0 0 0 0 0 0 0 2026 2044 2052 2068 2068 2068 2064 2053 2050 2047 2046 2045 2043 2043 2036 2026 2019 2016 2010 2000 1994 1985 1978 1973 1964 1962 1952 1938 1917 1917 1917 1916 1916 1903 1886 1861 1836 1811 1807 1768 1740 1713 1687 1659 1637 1637 1637 1654 1662 1669 1675 1679 1680 1682 1690 1690 1690 1684 1669 1654 1642 1630 1630 1628 1628 1630 1632 1632 1632 1622 1599 1595 1581 1569 1559 1559 1557 0 0 0 0 1525 1525 1520 1517 1517 1514 1498 1498 1498 1514 1514 1514 1495 1469 1444 1422 1422
872 872 890 911 932 950 965 969 983 995 1004 1013 1027 1049 1054 1069 1077 1084 1097 1116 1136 1155 1164 1174 1183 1196 1214 1223 1237 1258 1277 1287 1296 1308 1321 1345 1379 1414 1419 1419 1423 1423 1423 1440 1462 1472 1488 1504 1520 1536 1548 1558 1568 1574 1582 1594 1610 1624 1631 1649 1673 1683 1692 1708 1721 1732 1741 1746 1754 1761 1768 1778 1787 1797 1806 1811 1826 1845 1863 1885 1904 1922 1934 1940 1944 1946 1948 1949 1955 1968 1970 1981 1990 2001 2008 2014 2021 2024 2032 2044 2055 2067 2081 2098 2116 2139 2165 2186 2199 2209 2219 2233 2246 2257 2267 2273 2276 2279 2286 2294 2304 2316 2324 2342 2347 2366 2379 2385 2387 2398 2407 2427 2448 2475 2512 2543 2563 2582 2601 2615 2627 2627 2627 2627 2627 2627 2627 2632 2640 2647 2656 2665 2672 2674 2678 2684 2695 2715 2732 2753 2767 2775 2775 2775 2775 2772 2772 2772 2772 2778 2785 2791 2794 2797 2797 2797 2803 2811 2819 2827 2838 2849 2863 2877 2881 2883 2885 2886 2887 2889 2893 2904 2918 2927 2928 2928 2929 2929 2934 2945 2956 2968 2977 2988 2994 3004 3018 3028 3036 3042 3050 3056 3061 3062 3064 3065 3071 3083 3097 3112 3122 3122 3122 3116 3116 3116 3123 3129 3133 3133 3133 3134 3135 3143 3157 3166 3168 3168 3168 3168 3158 3142 3105 3073 2969 2701 2548 0 0 0 2641 2794 2926 3021 3082 3116 3147 3165 3178 3187 3187 3187 3187 3184 3182 3178 3167 3110 3050 3048 3048 3045 3036 3013 3005 2984 2960 2925 2910 2882 2850 2683 0 0 0 0 1364 1346 1342 1338 1332 1327 1321 1319 1318 1315 1306 1299 1296 1292 1288 1285 1283 1279 1276 1274 1271 1269 1265 1262 1259 1255 1254 1252 1249 1246 1243 1241 1239 1235 1232 1231 1227 1224 1221 1218 1215 1213 1210 1208 1206 1203 1202 1199 1198 1195 1193 1192 1190 1187 1185 1183 1181 1178 1176 1173 1171 1169 1167 1164 1162 1160 1158 1156 1155 1153 1150 1149 1147 1145 1142 1140 1139 1136 1134 1132 1129 1127 1124 1122 1119 1116 1112 1109 1107 1105 1102 1100 1098 1094 1092 1090 1087 1085 1084 1082 1080 1077 1074 1072 1071 1070 1070 1069 1067 1067 1067 1066 1066 1064 1063 1061 1060 1059 1057 1055 1053 1052 1049 1047 1046 1044 1041 1040 1038 1035 1033 1031 1029 1027 1025 1023 1020 1015 1013 1005 996 975 973 972 968 968 968 966 964 963 959 958 957 955 954 953 951 947 945 944 944 943 943 943 943 943 944 946 949 951 953 954 955 956 956 956 956 956 955 954 953 952 951 950 949 948 946 944 943 942 941 940 939 937 936 934 933 932 930 929 927 926 924 922 921 919 918 917 916 914 913 911 911 909 908 907 906 904 904 903 902 901 900 898 897 895 895 893 892 891 890 889 889 889 890 890 891 892 893 896 898 898 901 901 907 909 909 940 0 0 0 0 0 0 0 0 0 2036 2053 2069 2079 2079 2079 2066 2052 2052 2052 2052 2052 2052 2047 2038 2028 2020 2016 2009 1995 1987 1986 1985 1982 1977 1977 1968 1938 1919 1918 1917 1908 1889 1867 1838 1807 0 0 0 1695 1672 1657 1640 1637 1637 1637 1655 1668 1677 1683 1691 1693 1696 1696 1696 1690 1685 1674 1659 1659 1659 1663 1663 1663 1663 1657 1652 1645 1637 1621 1609 1604 1591 1581 1581 1581 1581 1581 1565 1555 1550 1547 1546 1546 1538 1527 1524 1524 1524 1526 1526 1526 1495 1469 1456 1438 1438
872 872 890 911 932 950 961 969 977 985 995 1005 1020 1041 1046 1063 1074 1084 1097 1118 1136 1155 1164 1174 1184 1199 1219 1229 1244 1264 1278 1287 1296 1309 1322 1345 1391 1433 1433 1437 1437 1437 1437 1442 1463 1483 1502 1512 1524 1539 1552 1563 1574 1581 1589 1600 1612 1627 1637 1659 1680 1694 1704 1721 1734 1745 1753 1759 1764 1769 1774 1784 1795 1806 1817 1821 1836 1852 1870 1888 1906 1924 1934 1946 1952 1956 1959 1959 1962 1971 1987 1998 2004 2013 2020 2025 2028 2032 2035 2044 2047 2063 2081 2097 2115 2139 2165 2184 2197 2204 2212 2225 2244 2259 2270 2280 2284 2288 2292 2299 2304 2316 2324 2338 2344 2360 2375 2379 2387 2398 2407 2419 2427 2447 2472 2507 2544 2563 2584 2608 2627 2629 2629 2629 2627 2627 2627 2633 2640 2649 2658 2666 2672 2677 2680 2691 2699 2712 2732 2751 2763 2770 2777 2781 2781 2781 2779 2779 2779 2781 2787 2795 2802 2807 2811 2812 2812 2819 2826 2838 2850 2862 2874 2877 2881 2883 2887 2895 2897 2899 2900 2912 2923 2930 2932 2933 2933 2937 2941 2949 2957 2970 2981 2989 3002 3010 3021 3030 3038 3047 3053 3058 3061 3062 3067 3072 3079 3086 3097 3113 3123 3123 3123 3116 3116 3116 3127 3139 3144 3144 3144 3144 3144 3148 3159 3169 3169 3171 3171 3171 3168 3153 3095 3002 2868 2654 2503 0 0 2550 2820 2967 3007 3078 3126 3152 3167 3174 3178 3185 3185 3185 3185 3189 3186 3186 3186 3170 3125 3078 3073 3065 3062 3013 3005 2984 2960 2925 2910 2882 2850 2686 2631 0 0 0 0 1351 1346 1339 1330 1327 1321 1317 1312 1307 1303 1299 1296 1292 1288 1286 1283 1279 1277 1274 1272 1269 1266 1264 1260 1256 1255 1253 1250 1248 1245 1242 1240 1237 1233 1231 1228 1225 1222 1218 1216 1213 1212 1209 1207 1205 1202 1200 1199 1196 1195 1193 1190 1188 1185 1184 1181 1179 1177 1174 1173 1169 1167 1165 1163 1162 1160 1157 1155 1154 1152 1150 1148 1146 1143 1141 1139 1137 1135 1132 1130 1127 1125 1122 1120 1116 1112 1109 1106 1104 1101 1098 1096 1094 1092 1089 1085 1082 1080 1078 1076 1072 1071 1070 1070 1069 1069 1068 1066 1066 1066 1066 1066 1064 1063 1062 1060 1059 1058 1056 1055 1052 1051 1048 1046 1044 1042 1041 1038 1036 1034 1032 1029 1027 1025 1022 1020 1015 1013 1005 995 986 971 969 967 966 966 964 962 960 958 957 956 955 954 953 950 946 944 944 943 943 943 942 942 942 944 946 949 950 953 954 956 956 956 956 956 956 955 955 953 953 951 950 949 948 946 946 944 942 942 941 940 939 937 936 934 932 931 929 928 926 924 922 921 920 918 917 916 914 913 912 911 909 908 907 906 905 904 903 902 901 900 898 897 895 895 893 893 892 891 890 890 890 890 891 892 893 893 896 897 897 897 897 901 903 909 0 0 0 0 0 0 0 0 0 0 2036 2053 2072 2089 2089 2089 2077 2067 2060 2060 2060 2060 2060 2055 2046 2037 2027 2024 2015 2007 1999 1990 1990 1990 1993 1993 1993 1966 1944 1924 1918 1908 1889 1851 1819 0 0 0 0 1641 1629 1620 1620 1620 1620 1637 1657 1670 1682 1692 1698 1700 1700 1700 1696 1690 1685 1675 1665 1665 1665 1671 1671 1671 1671 1671 1669 1663 1648 1627 1612 1607 1593 1587 1587 1587 1587 1587 1587 1580 1572 1567 1567 1562 1552 1542 1540 1540 1540 1537 1537 1526 1495 1469 1457 1450 1450
873 873 890 906 921 939 950 962 972 980 989 999 1014 1020 1038 1061 1074 1085 1105 1122 1136 1148 1160 1174 1189 1206 1220 1229 1252 1272 1281 1290 1301 1314 1331 1356 1407 1433 1445 1448 1448 1445 1445 1448 1470 1494 1511 1525 1532 1546 1558 1570 1581 1591 1605 1617 1628 1631 1647 1665 1684 1700 1714 1727 1741 1752 1762 1770 1774 1776 1780 1787 1799 1814 1824 1829 1841 1854 1871 1889 1907 1925 1936 1949 1960 1964 1967 1969 1977 1994 2008 2014 2016 2021 2029 2033 2036 2039 2040 2044 2047 2060 2077 2096 2115 2139 2163 2184 2197 2204 2212 2225 2243 2260 2276 2288 2294 2297 2300 2307 2312 2316 2324 2338 2344 2360 2369 2379 2387 2398 2407 2416 2419 2429 2444 2471 2511 2536 2563 2591 2614 2629 2629 2629 2627 2627 2627 2633 2640 2649 2661 2674 2685 2690 2692 2694 2699 2712 2732 2750 2758 2766 2775 2781 2782 2782 2782 2784 2784 2785 2791 2800 2809 2817 2825 2827 2828 2832 2839 2847 2860 2873 2878 2880 2880 2883 2887 2896 2902 2905 2910 2916 2925 2932 2936 2940 2946 2949 2953 2959 2966 2972 2983 2997 3009 3017 3024 3032 3039 3048 3053 3059 3064 3071 3076 3086 3091 3092 3099 3113 3124 3124 3124 3119 3119 3119 3130 3145 3152 3153 3153 3153 3153 3153 3159 3169 3169 3173 3175 3173 3168 3153 3076 2914 2645 2573 2481 0 0 2660 2939 3013 3075 3115 3149 3173 3183 3187 3187 3187 3185 3185 3185 3189 3192 3192 3192 3187 3170 3140 3128 3128 3128 3119 3119 3103 3084 3042 2948 2904 2850 2771 2678 0 0 0 0 1351 1346 1339 1330 1327 1321 1315 1311 1307 1303 1299 1297 1293 1290 1286 1283 1279 1277 1275 1272 1269 1267 1264 1261 1257 1255 1254 1252 1249 1247 1244 1241 1238 1235 1233 1229 1225 1223 1219 1217 1214 1213 1210 1207 1205 1203 1201 1200 1198 1196 1194 1192 1189 1186 1184 1181 1180 1177 1176 1173 1171 1167 1166 1165 1163 1161 1159 1157 1155 1153 1151 1148 1147 1144 1142 1140 1138 1135 1132 1130 1128 1125 1123 1120 1116 1112 1107 1105 1104 1100 1096 1094 1092 1088 1084 1083 1082 1078 1076 1073 1069 1069 1068 1067 1065 1065 1064 1064 1065 1065 1065 1065 1065 1063 1062 1062 1060 1058 1057 1055 1054 1051 1049 1048 1045 1044 1041 1039 1037 1034 1033 1030 1027 1025 1022 1020 1016 1013 1005 996 986 969 968 966 966 966 964 961 959 958 957 956 955 954 953 950 946 943 943 943 942 942 942 942 942 944 946 948 950 952 954 956 957 957 957 957 957 956 955 954 953 952 951 950 948 947 946 944 944 943 941 940 939 938 937 935 932 931 930 928 926 925 923 922 920 918 917 916 915 914 912 912 910 909 907 906 905 904 903 902 901 900 898 897 895 895 893 893 892 891 891 891 891 891 891 892 893 893 895 896 897 897 897 899 903 909 0 0 0 0 0 0 0 0 0 0 2036 2053 2071 2095 2095 2095 2091 2081 2075 2075 2074 2074 2072 2068 2063 2054 2036 2029 2023 2020 2012 2000 2000 2000 2005 2005 2005 1974 1956 1943 1920 1908 1888 0 0 0 0 0 0 1614 1597 1593 1593 1593 1606 1628 1655 1671 1683 1692 1699 1703 1703 1703 1696 1686 1686 1678 1675 1675 1675 1678 1678 1678 1678 1677 1669 1663 1648 1632 1614 1609 1597 1596 1596 1596 1602 1602 1602 1600 1592 1584 1577 1570 1559 1552 1548 1544 1544 1542 1537 1526 1490 1469 1458 1455 1455
878 878 890 904 918 931 940 952 966 980 987 999 1014 1020 1038 1061 1074 1093 1112 1126 1136 1148 1160 1174 1193 1214 1220 1239 1260 1278 1287 1295 1309 1324 1344 1374 1407 1433 1448 1451 1451 1451 1451 1451 1477 1502 1524 1538 1551 1559 1568 1575 1589 1603 1618 1628 1632 1643 1655 1669 1687 1704 1719 1733 1744 1758 1770 1779 1780 1781 1783 1790 1803 1814 1825 1835 1847 1859 1873 1890 1909 1927 1946 1962 1968 1972 1972 1979 1990 2003 2014 2020 2021 2026 2034 2038 2042 2044 2046 2047 2047 2060 2077 2097 2115 2140 2163 2184 2196 2204 2212 2225 2243 2260 2276 2292 2303 2304 2308 2314 2322 2328 2334 2338 2344 2360 2369 2379 2396 2414 2416 2419 2422 2424 2439 2465 2491 2515 2538 2563 2598 2619 2624 2624 2627 2627 2627 2631 2640 2651 2667 2686 2700 2700 2700 2703 2703 2709 2725 2743 2757 2764 2770 2781 2782 2788 2788 2788 2789 2789 2795 2803 2811 2821 2834 2845 2848 2849 2849 2857 2868 2875 2880 2880 2882 2883 2887 2896 2905 2909 2913 2919 2926 2939 2949 2955 2960 2961 2963 2969 2979 2986 2991 3002 3015 3026 3032 3037 3042 3048 3054 3060 3067 3082 3093 3100 3102 3102 3104 3113 3124 3124 3124 3123 3123 3123 3135 3146 3152 3159 3162 3162 3163 3164 3166 3176 3181 3182 3185 3182 3181 3153 3001 2709 2586 2498 2498 2498 2636 2907 2998 3059 3091 3127 3158 3182 3194 3194 3194 3190 3189 3188 3188 3189 3192 3192 3192 3187 3182 3169 3151 3142 3142 3141 3139 3132 3119 3099 3047 2987 2928 2854 2792 0 0 0 0 1352 1346 1339 1328 1322 1317 1315 1311 1307 1303 1300 1298 1294 1291 1287 1283 1280 1277 1275 1274 1270 1267 1264 1263 1260 1257 1255 1253 1251 1249 1246 1244 1240 1237 1234 1231 1227 1224 1221 1219 1216 1214 1211 1209 1206 1204 1203 1200 1198 1196 1194 1192 1189 1187 1185 1183 1180 1178 1176 1173 1171 1169 1167 1165 1163 1161 1160 1158 1156 1154 1151 1149 1148 1145 1143 1141 1138 1136 1133 1131 1129 1125 1123 1119 1115 1111 1106 1101 1100 1099 1096 1090 1088 1083 1080 1079 1079 1074 1069 1065 1063 1063 1063 1062 1062 1062 1062 1063 1063 1064 1065 1065 1065 1063 1063 1062 1061 1059 1058 1056 1054 1052 1050 1048 1046 1044 1042 1039 1037 1036 1034 1031 1029 1026 1022 1020 1015 1013 1005 996 986 970 967 967 966 966 964 961 959 958 957 956 955 954 953 950 946 943 942 942 942 941 941 941 941 944 946 948 950 951 954 956 957 957 957 957 957 956 956 955 954 953 952 951 950 948 946 946 944 943 942 941 939 938 937 935 933 931 930 928 927 925 924 922 921 919 918 916 915 914 913 912 911 909 908 907 906 905 903 902 901 900 898 897 896 895 894 893 892 891 891 891 891 891 892 892 893 893 895 896 897 897 897 899 903 907 950 980 0 0 0 0 0 0 0 0 2044 2057 2072 2095 2102 2102 2102 2093 2092 2092 2090 2090 2092 2090 2089 2078 2046 2035 2029 2026 2015 2005 2005 2005 2006 2006 2006 1983 1964 1943 1925 1903 1882 0 0 0 0 0 1619 1590 1574 1574 1574 1581 1601 1627 1654 1671 1683 1692 1699 1701 1701 1701 1692 1686 1686 1686 1686 1683 1683 1683 1682 1681 1679 1677 1669 1663 1648 1634 1621 1610 1603 1603 1603 1603 1609 1617 1617 1617 1615 1599 1586 1574 1559 1553 1548 1545 1542 1537 1533 1513 1484 1468 1466 1466 1464
879 879 888 899 916 930 939 947 961 976 986 997 1011 1020 1038 1061 1085 1103 1116 1126 1136 1148 1160 1175 1193 1214 1220 1239 1260 1278 1288 1298 1313 1332 1356 1382 1407 1425 1441 1448 1450 1451 1451 1460 1482 1506 1530 1548 1561 1567 1575 1582 1594 1608 1619 1628 1632 1644 1657 1672 1691 1709 1725 1737 1753 1763 1777 1786 1787 1787 1790 1793 1805 1817 1825 1839 1851 1865 1879 1894 1910 1930 1950 1964 1972 1976 1980 1986 1997 2007 2015 2020 2025 2032 2040 2043 2049 2054 2056 2056 2057 2060 2077 2097 2115 2143 2163 2181 2196 2205 2214 2227 2244 2260 2276 2292 2303 2309 2312 2320 2333 2340 2345 2351 2356 2361 2369 2382 2400 2414 2416 2422 2422 2424 2439 2465 2491 2515 2538 2550 2574 2606 2623 2625 2627 2627 2627 2631 2639 2651 2672 2694 2708 2708 2708 2708 2708 2709 2725 2742 2756 2764 2770 2778 2782 2789 2795 2795 2795 2795 2799 2805 2813 2822 2835 2847 2854 2857 2858 2864 2871 2875 2880 2880 2882 2883 2887 2896 2908 2912 2915 2921 2931 2949 2961 2970 2973 2974 2974 2979 2982 2991 2999 3010 3025 3035 3043 3046 3049 3051 3054 3062 3075 3095 3110 3114 3114 3115 3116 3116 3124 3128 3128 3128 3128 3128 3135 3146 3153 3159 3169 3173 3174 3176 3176 3184 3203 3203 3203 3195 3185 3102 2882 2648 2567 2537 2537 2537 2772 2940 3026 3081 3114 3140 3168 3194 3203 3203 3203 3195 3195 3195 3198 3198 3198 3198 3192 3187 3184 3175 3163 3151 3150 3150 3147 3137 3134 3132 3109 3059 2996 2950 2884 2607 0 0 0 0 1345 1337 1328 1322 1317 1315 1311 1307 1304 1302 1299 1296 1292 1288 1284 1281 1279 1277 1274 1271 1268 1266 1264 1262 1259 1257 1255 1252 1251 1248 1244 1241 1239 1236 1232 1229 1226 1222 1220 1218 1215 1212 1209 1207 1205 1203 1200 1198 1196 1194 1192 1189 1187 1185 1183 1180 1178 1176 1174 1172 1170 1168 1167 1164 1163 1161 1159 1157 1155 1153 1150 1148 1146 1144 1142 1139 1136 1134 1132 1129 1125 1123 1118 1114 1110 1104 1098 1097 1096 1093 1086 1083 1081 1078 1074 1071 1069 1065 1060 1058 1058 1058 1058 1058 1058 1059 1062 1063 1064 1065 1065 1065 1064 1063 1062 1062 1059 1058 1056 1054 1053 1050 1048 1047 1044 1042 1041 1039 1037 1035 1033 1030 1027 1024 1021 1016 1013 1006 997 987 976 967 967 966 966 964 961 959 958 958 957 957 956 954 950 946 944 942 942 940 940 940 940 941 944 946 948 949 951 954 956 957 958 958 958 958 957 957 956 954 954 952 951 950 948 947 946 945 943 943 941 940 939 937 935 934 932 931 929 928 926 924 923 922 920 918 917 916 915 913 912 911 909 908 907 906 905 903 903 901 900 899 897 896 895 894 893 893 892 891 891 891 891 892 892 892 893 893 893 893 897 897 899 904 906 937 964 1000 0 0 0 0 0 0 0 2050 2060 2072 2095 2102 2104 2104 2104 2104 2104 2108 2113 2113 2113 2102 2080 2049 2037 2031 2026 2016 2006 2006 2006 2007 2007 2007 1986 1964 1943 1925 1903 1882 0 0 0 0 0 1550 1549 1549 1549 1550 1572 1587 1627 1650 1671 1683 1690 1699 1699 1699 1696 1692 1686 1686 1686 1686 1690 1690 1690 1686 1681 1679 1677 1670 1663 1650 1636 1625 1616 1611 1611 1611 1611 1620 1620 1620 1619 1618 1609 1589 1575 1562 1554 1551 1546 1544 1528 1520 1501 1477 1471 1468 1468 1468
879 879 888 897 913 930 938 947 958 969 984 995 1004 1020 1042 1067 1087 1104 1116 1126 1136 1147 1160 1175 1193 1214 1219 1239 1260 1278 1289 1298 1314 1334 1358 1382 1407 1425 1439 1447 1448 1452 1458 1467 1487 1511 1534 1553 1564 1573 1581 1586 1597 1609 1620 1628 1632 1644 1657 1672 1695 1714 1731 1749 1762 1770 1780 1790 1793 1793 1794 1798 1808 1820 1826 1840 1853 1865 1883 1900 1918 1934 1953 1967 1975 1980 1986 1993 2003 2012 2020 2025 2031 2039 2043 2049 2055 2062 2069 2072 2073 2073 2079 2098 2128 2144 2159 2177 2194 2208 2220 2231 2244 2262 2276 2292 2303 2309 2316 2327 2340 2352 2357 2365 2369 2374 2378 2384 2401 2414 2419 2422 2422 2424 2439 2465 2491 2515 2535 2549 2562 2583 2609 2623 2625 2627 2627 2631 2639 2652 2672 2694 2708 2708 2708 2708 2708 2709 2725 2742 2755 2764 2769 2776 2782 2790 2797 2802 2804 2805 2806 2808 2814 2822 2836 2848 2857 2862 2864 2869 2871 2875 2879 2880 2882 2883 2887 2896 2911 2915 2917 2924 2941 2959 2974 2980 2980 2981 2981 2981 2985 2992 3004 3018 3033 3044 3051 3053 3054 3055 3056 3063 3076 3095 3110 3117 3117 3117 3118 3122 3129 3135 3135 3135 3136 3136 3142 3147 3153 3160 3169 3173 3174 3176 3176 3184 3203 3203 3203 3195 3144 2971 2730 2600 2556 2556 2556 2684 2840 2955 3032 3095 3127 3147 3169 3194 3205 3205 3205 3197 3197 3197 3198 3198 3198 3196 3187 3185 3185 3179 3176 3169 3167 3159 3147 3137 3134 3133 3120 3081 3021 2963 2895 2784 0 0 0 0 1345 1337 1328 1322 1317 1315 1311 1309 1305 1303 1301 1297 1293 1289 1286 1284 1281 1278 1275 1273 1270 1268 1265 1263 1262 1259 1256 1254 1251 1249 1246 1243 1239 1237 1234 1230 1227 1224 1221 1218 1216 1213 1210 1207 1205 1203 1200 1198 1196 1194 1192 1189 1187 1185 1183 1180 1178 1176 1174 1172 1170 1169 1167 1164 1163 1161 1160 1158 1156 1153 1151 1150 1147 1145 1143 1140 1138 1134 1132 1129 1125 1120 1116 1114 1110 1102 1095 1093 1089 1083 1076 1076 1075 1073 1071 1068 1065 1060 1057 1054 1054 1054 1053 1053 1054 1055 1060 1061 1061 1064 1064 1064 1064 1064 1063 1062 1060 1059 1057 1055 1053 1051 1049 1047 1046 1043 1042 1040 1037 1036 1033 1030 1027 1025 1022 1018 1013 1006 997 987 980 971 967 967 966 965 962 959 958 958 958 958 958 955 951 947 944 942 942 940 940 940 940 942 945 946 947 948 951 954 956 957 958 958 958 958 958 957 956 955 954 952 951 950 949 947 946 945 944 943 942 940 939 938 936 934 933 931 930 928 927 925 923 922 920 919 917 916 915 914 912 911 909 909 907 906 905 904 903 901 901 899 897 896 895 894 893 893 892 891 891 891 891 891 892 892 893 893 893 893 899 899 900 904 906 937 956 971 1000 0 0 0 0 0 0 2054 2065 2076 2100 2104 2111 2111 2111 2111 2111 2114 2114 2114 2114 2102 2087 2066 2048 2034 2028 2018 2006 2006 2006 2007 2007 2007 1986 1964 1943 1925 1903 1852 0 0 0 0 1540 1521 1521 1521 1521 1534 1555 1568 1574 1614 1663 1681 1688 1692 1695 1695 1695 1692 1691 1688 1688 1688 1691 1691 1691 1687 1681 1679 1676 1670 1663 1650 1644 1635 1627 1625 1621 1621 1624 1621 1621 1620 1619 1618 1609 1595 1578 1564 1556 1552 1548 1544 1528 1507 1489 1475 1471 1468 1468 1468
880 880 888 897 906 923 935 945 952 963 976 995 1000 1020 1042 1067 1087 1104 1116 1126 1135 1147 1160 1175 1193 1197 1215 1235 1257 1278 1291 1301 1314 1335 1358 1383 1407 1425 1439 1447 1451 1454 1459 1472 1494 1516 1539 1558 1568 1578 1587 1595 1603 1610 1621 1631 1638 1647 1657 1673 1696 1715 1731 1749 1762 1770 1780 1790 1796 1797 1800 1804 1814 1822 1829 1842 1854 1865 1885 1906 1927 1945 1957 1973 1981 1987 1994 2002 2010 2019 2025 2030 2037 2048 2052 2059 2063 2071 2082 2090 2091 2096 2106 2124 2137 2145 2159 2177 2194 2210 2222 2235 2247 2261 2276 2291 2301 2309 2319 2331 2343 2352 2365 2374 2383 2385 2386 2390 2401 2414 2420 2422 2422 2430 2447 2471 2498 2514 2534 2548 2557 2569 2585 2622 2624 2625 2627 2629 2639 2655 2672 2694 2710 2710 2710 2710 2710 2712 2727 2742 2755 2764 2769 2776 2782 2791 2800 2808 2814 2817 2817 2818 2820 2828 2837 2850 2859 2864 2866 2869 2872 2872 2877 2884 2888 2890 2893 2901 2911 2915 2919 2928 2946 2967 2981 2985 2985 2985 2985 2985 2986 2993 3008 3028 3042 3049 3056 3056 3057 3059 3061 3063 3076 3095 3110 3117 3117 3117 3118 3123 3131 3138 3142 3145 3145 3146 3150 3152 3153 3160 3173 3173 3174 3176 3176 3184 3203 3203 3203 3195 3055 2872 2656 2580 2580 2580 2623 2836 2940 2989 3056 3106 3138 3152 3169 3194 3207 3207 3207 3200 3200 3199 3198 3198 3198 3188 3185 3184 3184 3183 3181 3177 3167 3159 3147 3138 3136 3133 3128 3101 3052 2984 2895 2786 0 0 0 0 1345 1337 1329 1323 1318 1315 1312 1309 1305 1304 1301 1297 1294 1291 1288 1285 1282 1280 1277 1274 1272 1270 1267 1265 1262 1259 1257 1255 1252 1249 1247 1244 1241 1238 1234 1232 1229 1225 1222 1219 1216 1213 1210 1207 1205 1203 1200 1198 1196 1194 1192 1188 1186 1184 1182 1180 1178 1176 1174 1172 1170 1169 1167 1165 1163 1162 1161 1159 1157 1155 1152 1151 1149 1146 1143 1141 1138 1134 1132 1129 1125 1120 1116 1110 1098 1091 1089 1087 1086 1081 1076 1070 1069 1067 1065 1063 1057 1055 1055 1054 1051 1051 1051 1051 1051 1054 1057 1058 1061 1064 1064 1064 1064 1064 1063 1062 1061 1060 1058 1056 1054 1052 1051 1048 1046 1044 1043 1040 1038 1036 1033 1030 1027 1025 1022 1018 1013 1007 1001 996 989 975 970 968 968 965 963 961 961 961 960 960 959 957 953 948 945 943 942 939 939 939 940 943 945 946 947 948 951 953 956 957 958 958 958 958 958 957 956 956 954 953 952 950 949 948 947 945 944 943 942 940 939 938 936 935 933 932 930 929 927 926 924 922 920 919 918 917 915 914 912 912 910 909 908 907 906 904 903 902 901 899 898 897 896 895 894 893 893 891 891 891 891 891 891 892 893 893 893 893 896 896 900 904 906 937 954 955 982 0 0 0 0 0 0 2067 2077 2084 2100 2104 2112 2112 2112 2114 2114 2114 2116 2116 2116 2102 2087 2073 2056 2041 2028 2018 2006 2005 2005 2005 2005 2005 1986 1940 1912 0 0 0 0 0 0 0 1520 1513 1513 1520 1521 1533 1546 1560 1568 1584 1644 1667 1681 1688 1691 1695 1695 1695 1695 1690 1690 1690 1692 1692 1692 1687 1681 1678 1676 1670 1666 1661 1654 1648 1641 1633 1629 1628 1627 1626 1626 1623 1619 1618 1609 1595 1581 1566 1566 1563 1561 1558 1528 1507 1489 1475 1471 1469 1469 1469
885 885 890 897 906 917 929 939 946 956 968 989 994 1017 1042 1067 1087 1104 1113 1123 1132 1143 1157 1172 1190 1194 1213 1234 1257 1278 1291 1301 1315 1335 1359 1383 1407 1425 1441 1447 1451 1454 1459 1473 1496 1519 1543 1562 1575 1583 1592 1600 1609 1614 1621 1631 1638 1647 1660 1678 1699 1716 1731 1749 1762 1770 1780 1790 1797 1802 1808 1815 1823 1827 1837 1846 1855 1868 1887 1910 1934 1946 1964 1978 1990 2000 2007 2013 2018 2025 2031 2037 2047 2055 2059 2067 2073 2081 2091 2101 2107 2114 2125 2138 2146 2151 2159 2177 2194 2210 2225 2238 2247 2260 2276 2289 2299 2309 2322 2336 2343 2353 2365 2374 2383 2385 2387 2390 2400 2411 2416 2421 2424 2432 2450 2475 2498 2514 2534 2541 2546 2550 2584 2604 2613 2620 2623 2628 2639 2655 2672 2689 2705 2706 2708 2716 2717 2719 2731 2743 2755 2764 2770 2776 2784 2795 2804 2813 2821 2827 2829 2829 2831 2835 2843 2852 2860 2865 2871 2872 2872 2873 2876 2886 2895 2897 2899 2905 2911 2917 2922 2933 2951 2973 2986 2987 2987 2987 2987 2987 2988 2997 3018 3040 3051 3055 3056 3060 3060 3061 3063 3064 3078 3091 3106 3117 3117 3117 3118 3123 3138 3142 3145 3148 3153 3160 3163 3163 3164 3165 3173 3173 3173 3177 3177 3183 3198 3198 3198 3141 2959 2732 2620 2557 2557 2557 2695 2903 2976 3023 3064 3115 3140 3152 3169 3188 3203 3204 3204 3204 3204 3204 3202 3199 3188 3183 3183 3183 3183 3183 3181 3177 3167 3159 3145 3138 3136 3135 3133 3111 3067 3000 2909 2791 2573 0 0 0 0 1337 1332 1326 1321 1319 1316 1310 1306 1304 1303 1299 1296 1293 1290 1286 1283 1280 1279 1276 1273 1271 1268 1266 1263 1260 1258 1256 1253 1251 1248 1245 1242 1239 1236 1232 1230 1226 1223 1219 1216 1213 1210 1207 1204 1201 1199 1198 1196 1193 1190 1188 1185 1183 1182 1179 1177 1175 1174 1172 1170 1169 1168 1166 1165 1163 1162 1160 1159 1156 1154 1153 1149 1147 1145 1141 1139 1135 1132 1129 1125 1120 1116 1105 1091 1085 1084 1083 1080 1080 1074 1067 1066 1064 1059 1058 1055 1052 1052 1051 1051 1051 1050 1050 1051 1053 1056 1057 1061 1064 1064 1064 1064 1064 1064 1063 1062 1060 1058 1057 1054 1053 1052 1050 1047 1046 1044 1042 1040 1038 1034 1031 1028 1026 1023 1018 1015 1008 1001 998 997 984 973 971 970 968 964 963 963 963 961 961 960 958 956 952 948 945 942 939 939 939 940 943 945 946 947 947 950 953 957 958 959 959 959 959 958 957 957 956 954 953 952 951 949 948 947 946 945 943 942 941 940 938 936 935 934 932 931 929 928 926 924 923 922 920 919 917 916 914 913 912 910 909 908 907 906 905 903 902 901 899 899 897 896 895 894 893 893 892 891 891 891 891 891 892 893 893 893 894 896 896 900 900 915 937 954 955 974 0 0 0 0 0 0 0 2091 2097 2100 2104 2112 2114 2114 2115 2115 2115 2118 2118 2118 2102 2088 2075 2061 2042 2028 2018 2005 1998 1998 1996 1992 1991 1968 1940 0 0 0 0 0 0 0 1509 1509 1509 1513 1520 1521 1533 1543 1555 1561 1579 1607 1636 1663 1681 1689 1693 1696 1696 1696 1696 1696 1696 1694 1694 1694 1688 1681 1677 1675 1673 1673 1669 1663 1659 1654 1648 1644 1636 1631 1630 1628 1623 1617 1610 1607 1595 1581 1566 1566 1563 1563 1558 1540 1507 1489 1475 1470 1468 1468 1468
885 885 890 897 906 912 923 935 945 956 968 984 988 1008 1031 1056 1078 1095 1108 1119 1130 1140 1150 1165 1183 1188 1209 1234 1257 1280 1297 1309 1319 1335 1359 1383 1409 1431 1438 1448 1455 1457 1460 1474 1496 1519 1543 1562 1578 1586 1594 1603 1614 1624 1627 1631 1638 1648 1665 1683 1701 1716 1728 1740 1753 1764 1776 1789 1800 1806 1813 1816 1823 1829 1837 1850 1861 1874 1891 1914 1936 1955 1966 1979 1993 2007 2017 2021 2026 2030 2037 2045 2054 2058 2068 2078 2084 2089 2098 2108 2115 2124 2141 2155 2162 2167 2173 2179 2195 2210 2225 2238 2247 2260 2274 2286 2296 2308 2322 2336 2343 2353 2365 2374 2383 2385 2387 2390 2399 2407 2414 2420 2424 2433 2451 2476 2499 2515 2521 2524 2545 2549 2566 2580 2594 2602 2615 2628 2639 2655 2671 2684 2699 2715 2718 2722 2724 2730 2736 2749 2756 2764 2774 2781 2789 2798 2808 2818 2825 2830 2834 2836 2837 2840 2844 2852 2860 2866 2875 2875 2875 2876 2876 2887 2896 2901 2902 2906 2912 2920 2930 2943 2965 2987 2992 2993 2993 2993 2995 2996 3000 3010 3029 3047 3054 3056 3057 3061 3061 3064 3064 3064 3076 3088 3102 3112 3112 3114 3116 3124 3140 3145 3146 3148 3154 3168 3177 3177 3177 3180 3177 3174 3173 3175 3175 3175 3175 3175 3118 2978 2749 2603 2564 2564 2564 2638 2833 2947 3008 3049 3082 3118 3142 3153 3169 3188 3201 3207 3207 3208 3207 3207 3204 3199 3188 3183 3183 3183 3183 3183 3183 3182 3174 3159 3145 3145 3145 3141 3141 3126 3085 3024 2922 2850 2717 0 0 0 0 1347 1334 1329 1325 1323 1318 1313 1307 1305 1303 1301 1297 1294 1291 1287 1285 1283 1280 1277 1275 1273 1270 1267 1265 1262 1259 1257 1255 1252 1249 1246 1243 1240 1237 1234 1230 1226 1223 1220 1216 1212 1209 1205 1204 1200 1198 1198 1195 1193 1190 1188 1184 1183 1181 1178 1176 1175 1174 1172 1170 1169 1168 1167 1165 1165 1163 1162 1160 1158 1156 1153 1150 1148 1145 1143 1140 1136 1132 1130 1128 1124 1116 1100 1084 1080 1080 1080 1079 1076 1070 1066 1064 1060 1055 1053 1052 1051 1050 1050 1050 1050 1050 1050 1050 1052 1056 1057 1060 1064 1064 1064 1064 1064 1064 1063 1062 1060 1059 1057 1055 1054 1053 1050 1049 1047 1045 1042 1041 1038 1035 1033 1030 1028 1025 1022 1016 1010 1003 1001 999 989 977 974 972 970 967 965 964 964 963 962 960 959 956 954 952 947 942 939 939 939 940 943 945 947 947 947 950 953 957 958 959 959 959 959 959 958 957 956 955 954 953 951 950 948 947 946 945 944 942 941 940 938 937 936 934 933 931 930 928 926 925 923 922 921 919 918 916 915 913 912 911 910 908 908 906 905 904 902 902 901 899 898 897 895 895 894 894 893 892 891 891 891 891 892 893 894 894 896 896 900 900 900 915 937 951 953 972 0 0 0 0 0 0 0 2106 2108 2111 2115 2118 2119 2119 2119 2119 2119 2118 2118 2118 2102 2089 2076 2065 2042 2021 2017 2001 1986 1959 0 0 0 0 0 0 0 0 0 1589 1545 1520 1509 1509 1509 1519 1521 1529 1529 1541 1555 1561 1562 1577 1597 1622 1660 1685 1691 1696 1696 1698 1699 1699 1700 1700 1699 1698 1693 1681 1677 1677 1677 1675 1675 1673 1668 1664 1659 1655 1647 1640 1633 1630 1623 1617 1609 1602 1594 1581 1566 1566 1563 1563 1558 1540 1527 1503 1475 1468 1468 1468 1468
885 885 890 897 902 908 919 933 943 955 968 970 984 1001 1022 1040 1063 1083 1100 1117 1130 1140 1150 1165 1178 1188 1209 1234 1259 1280 1302 1312 1320 1335 1359 1383 1409 1431 1438 1453 1462 1463 1463 1474 1496 1520 1545 1563 1578 1589 1599 1610 1621 1630 1634 1641 1645 1656 1671 1689 1704 1716 1728 1740 1752 1764 1776 1789 1801 1808 1813 1817 1823 1829 1837 1851 1863 1878 1893 1916 1940 1956 1966 1979 1993 2007 2017 2025 2026 2030 2037 2048 2054 2066 2078 2089 2096 2101 2110 2116 2122 2134 2151 2165 2177 2182 2187 2193 2201 2214 2225 2238 2246 2255 2266 2279 2290 2304 2322 2336 2342 2353 2361 2369 2376 2382 2387 2390 2397 2403 2414 2420 2426 2437 2454 2479 2500 2515 2521 2524 2525 2530 2546 2560 2572 2581 2589 2613 2632 2653 2666 2679 2690 2708 2718 2723 2731 2734 2741 2752 2756 2767 2778 2781 2789 2798 2808 2818 2825 2832 2835 2837 2838 2841 2845 2852 2860 2866 2876 2877 2877 2880 2881 2888 2899 2904 2909 2913 2920 2928 2939 2956 2981 2999 2999 3000 3002 3002 3007 3011 3017 3024 3037 3049 3056 3057 3057 3061 3063 3064 3064 3067 3076 3088 3102 3110 3111 3113 3113 3123 3141 3150 3152 3155 3159 3169 3181 3189 3189 3189 3188 3182 3177 3164 3164 3164 3163 3150 3038 2793 2610 2547 2547 2547 2603 2832 2986 3021 3061 3095 3114 3129 3144 3153 3169 3188 3201 3208 3212 3212 3212 3211 3206 3199 3188 3185 3185 3185 3185 3185 3185 3185 3174 3159 3150 3150 3150 3150 3150 3144 3102 3047 2962 2886 2803 0 0 0 0 1353 1335 1330 1328 1325 1320 1314 1308 1306 1304 1301 1299 1297 1293 1289 1287 1284 1282 1279 1277 1275 1272 1269 1267 1263 1260 1258 1256 1253 1250 1247 1243 1241 1238 1234 1231 1227 1223 1220 1216 1212 1209 1205 1202 1198 1197 1196 1195 1192 1190 1186 1183 1183 1180 1178 1176 1175 1174 1172 1170 1169 1168 1167 1166 1166 1164 1163 1162 1159 1156 1154 1151 1148 1146 1144 1141 1137 1134 1133 1131 1125 1116 1100 1079 1075 1074 1074 1073 1073 1069 1066 1063 1059 1055 1052 1052 1051 1049 1049 1049 1049 1049 1049 1049 1051 1055 1057 1060 1063 1064 1064 1064 1064 1064 1063 1062 1061 1060 1058 1057 1055 1053 1051 1050 1047 1046 1043 1042 1039 1037 1034 1031 1029 1027 1023 1018 1014 1008 1004 999 989 981 978 974 972 969 967 966 965 963 962 960 959 957 955 953 947 942 939 939 939 941 942 944 947 947 948 950 954 957 958 960 960 960 960 959 958 958 957 955 954 953 951 950 949 948 947 945 944 943 941 940 938 937 936 934 933 932 930 928 926 925 924 922 921 919 918 917 915 915 913 911 910 909 908 906 905 905 904 902 901 899 899 897 896 895 895 894 893 893 893 892 892 892 892 893 894 894 896 896 900 900 902 915 933 944 951 959 0 0 0 0 0 0 0 2128 2128 2128 2126 2125 2125 2124 2119 2119 2119 2118 2118 2116 2104 2094 2089 2076 2041 2013 1983 0 0 0 0 0 0 0 0 0 0 0 0 1556 1527 1520 1512 1512 1512 1521 1522 1529 1529 1540 1551 1556 1556 1557 1574 1598 1628 1657 1684 1692 1696 1699 1702 1705 1706 1706 1705 1703 1701 1687 1677 1677 1677 1679 1679 1679 1677 1671 1666 1660 1656 1649 1640 1633 1626 1617 1609 1597 1587 1578 1569 1563 1560 1557 1551 1543 1528 1503 1475 1470 1468 1465 1465
877 877 882 890 896 901 913 928 942 953 964 967 980 996 1014 1031 1063 1083 1100 1117 1130 1140 1150 1165 1178 1188 1209 1236 1259 1280 1302 1314 1323 1335 1354 1379 1409 1431 1438 1453 1463 1463 1467 1478 1496 1520 1545 1565 1581 1593 1603 1615 1627 1631 1637 1644 1653 1664 1678 1696 1709 1720 1728 1740 1752 1764 1776 1789 1802 1808 1814 1820 1824 1831 1840 1851 1866 1880 1902 1922 1940 1957 1969 1981 1995 2008 2018 2025 2026 2030 2037 2048 2054 2066 2079 2095 2107 2116 2122 2126 2132 2143 2158 2173 2183 2190 2198 2203 2211 2217 2226 2231 2238 2250 2263 2274 2285 2300 2317 2322 2338 2348 2356 2362 2370 2375 2381 2385 2392 2403 2414 2420 2426 2441 2462 2485 2502 2515 2521 2524 2525 2526 2537 2546 2557 2564 2574 2588 2619 2641 2656 2671 2687 2702 2718 2723 2731 2734 2742 2752 2757 2770 2778 2781 2789 2798 2808 2818 2825 2832 2836 2838 2839 2842 2847 2852 2860 2867 2876 2881 2883 2883 2884 2891 2905 2916 2924 2927 2933 2939 2949 2969 2991 3001 3002 3004 3004 3008 3014 3021 3031 3035 3037 3049 3056 3060 3060 3061 3064 3064 3065 3069 3078 3088 3102 3110 3111 3111 3113 3123 3141 3155 3159 3162 3167 3175 3182 3191 3198 3198 3198 3190 3182 3172 3164 3162 3159 3125 3002 2723 2543 2533 2533 2533 2702 2888 3028 3072 3115 3134 3140 3141 3144 3153 3172 3189 3201 3212 3214 3214 3214 3212 3209 3201 3188 3185 3185 3185 3189 3189 3189 3187 3178 3162 3153 3153 3153 3153 3153 3145 3118 3081 3023 2935 2876 2580 0 0 0 1361 1339 1331 1329 1326 1323 1316 1311 1307 1305 1302 1300 1297 1294 1291 1288 1285 1283 1281 1278 1276 1273 1270 1268 1265 1262 1259 1257 1254 1251 1248 1246 1242 1239 1234 1231 1228 1224 1220 1216 1210 1207 1204 1201 1195 1195 1194 1191 1191 1185 1184 1183 1182 1180 1175 1175 1174 1174 1172 1170 1169 1168 1168 1167 1166 1165 1164 1163 1160 1157 1154 1152 1150 1147 1145 1143 1139 1137 1133 1131 1126 1116 1100 1075 1069 1069 1069 1069 1069 1068 1065 1062 1059 1054 1052 1051 1050 1048 1047 1047 1047 1047 1048 1048 1049 1051 1054 1056 1062 1064 1064 1064 1064 1064 1064 1063 1062 1060 1058 1057 1056 1053 1052 1050 1048 1046 1045 1042 1040 1038 1035 1033 1029 1027 1023 1018 1014 1008 1004 999 992 983 980 976 973 972 970 967 966 964 962 960 959 957 955 953 949 943 939 939 939 941 942 944 946 946 948 951 956 957 959 960 960 960 960 960 960 958 957 957 955 953 952 951 949 949 947 946 944 943 941 940 938 937 936 934 933 932 930 929 927 926 924 923 921 920 919 917 916 915 913 912 911 910 908 907 905 905 904 903 902 900 899 898 897 896 895 895 894 894 893 893 893 893 893 893 894 894 896 897 900 900 903 906 921 929 935 939 0 0 0 0 0 0 0 2154 2154 2154 2150 2137 2132 2124 2119 2119 2119 2118 2118 2116 2104 2094 2089 2076 2040 0 0 0 0 0 0 0 0 0 0 0 0 0 0 1555 1527 1524 1522 1522 1522 1522 1522 1529 1529 1537 1550 1550 1553 1556 1556 1573 1598 1628 1653 1678 1691 1698 1710 1714 1714 1714 1709 1707 1704 1697 1684 1680 1680 1680 1680 1680 1680 1674 1668 1661 1660 1652 1646 1640 1630 1618 1609 1597 1587 1578 1569 1563 1560 1556 1550 1543 1531 1510 1488 1476 1470 1465 1465
873 877 877 880 886 892 904 921 938 954 958 967 980 996 1014 1031 1063 1083 1100 1117 1131 1145 1157 1173 1178 1197 1215 1237 1259 1278 1302 1317 1325 1336 1352 1378 1405 1430 1433 1453 1463 1465 1476 1485 1499 1520 1545 1572 1587 1597 1608 1618 1627 1632 1637 1645 1655 1667 1686 1705 1719 1728 1733 1741 1752 1764 1777 1791 1802 1809 1815 1821 1825 1831 1840 1852 1868 1886 1908 1927 1945 1958 1969 1981 1995 2008 2020 2025 2027 2030 2036 2048 2052 2066 2079 2095 2112 2125 2133 2138 2140 2148 2163 2173 2183 2190 2199 2208 2213 2218 2226 2231 2238 2250 2263 2274 2285 2299 2311 2315 2329 2341 2349 2356 2363 2368 2373 2379 2392 2403 2417 2426 2437 2452 2470 2490 2503 2516 2523 2524 2525 2526 2537 2546 2554 2560 2569 2584 2595 2623 2642 2661 2682 2700 2714 2723 2731 2734 2742 2752 2758 2770 2778 2780 2784 2792 2804 2814 2824 2832 2836 2838 2842 2843 2847 2852 2860 2867 2876 2884 2888 2890 2891 2897 2910 2924 2936 2945 2948 2951 2959 2974 2992 3001 3004 3004 3006 3010 3014 3021 3031 3035 3037 3049 3056 3061 3064 3064 3065 3065 3066 3071 3082 3094 3103 3110 3111 3111 3113 3122 3141 3155 3165 3171 3176 3182 3183 3192 3198 3198 3198 3190 3185 3180 3167 3159 3125 3034 2897 2661 2536 2536 2536 2613 2804 3000 3065 3117 3148 3154 3154 3159 3159 3166 3178 3191 3201 3212 3218 3218 3218 3213 3210 3204 3193 3193 3193 3199 3203 3203 3203 3199 3196 3181 3166 3157 3157 3157 3155 3146 3127 3106 3077 2979 2918 2642 0 0 0 0 1342 1335 1330 1326 1323 1317 1312 1310 1306 1303 1302 1299 1296 1292 1289 1286 1284 1281 1280 1277 1274 1272 1269 1266 1263 1261 1259 1256 1254 1250 1247 1245 1240 1235 1231 1228 1224 1220 1215 1208 1207 1202 1201 1195 1190 1188 1186 1184 1181 1181 1181 1181 1179 1173 1171 1171 1171 1171 1171 1170 1169 1168 1167 1167 1166 1165 1163 1160 1158 1155 1153 1150 1147 1145 1144 1140 1137 1134 1131 1126 1116 1102 1074 1067 1067 1067 1068 1068 1068 1064 1060 1056 1053 1051 1051 1050 1046 1043 1043 1043 1043 1045 1046 1046 1047 1051 1056 1061 1064 1064 1064 1064 1064 1064 1063 1062 1060 1059 1057 1056 1054 1052 1050 1049 1048 1046 1044 1041 1039 1036 1033 1030 1027 1024 1021 1014 1010 1005 999 993 984 980 978 975 973 971 968 967 964 964 960 958 957 955 953 948 943 942 941 941 942 942 944 946 946 948 952 956 958 959 960 960 961 961 961 960 959 959 957 956 954 953 951 950 949 947 946 945 943 942 940 939 937 936 934 933 932 931 929 927 926 924 923 922 920 919 918 916 916 914 913 911 911 909 908 907 906 905 903 902 901 899 899 897 897 896 895 895 894 894 894 893 893 893 895 895 895 896 898 898 898 903 906 921 928 935 939 0 0 0 0 0 0 0 2154 2154 2154 2150 2137 2132 2123 2113 2112 2112 2111 2111 2111 2104 2094 2089 0 0 0 0 0 0 0 0 0 0 0 0 0 0 0 1541 1531 1531 1530 1529 1529 1522 1522 1522 1524 1524 1532 1545 1550 1550 1550 1550 1550 1566 1614 1627 1643 1675 1695 1710 1725 1725 1725 1717 1708 1704 1701 1691 1683 1680 1680 1680 1680 1680 1674 1668 1661 1660 1657 1653 1646 1632 1619 1610 1597 1587 1578 1569 1563 1560 1556 1550 1543 1535 1512 1493 1478 1474 1465 1465
871 872 872 875 875 882 895 917 938 953 957 967 980 996 1014 1031 1065 1086 1103 1118 1131 1148 1167 1173 1187 1201 1216 1237 1259 1276 1300 1317 1328 1336 1352 1375 1405 1426 1430 1447 1460 1473 1485 1494 1507 1527 1555 1576 1594 1604 1613 1620 1629 1633 1640 1646 1655 1670 1690 1709 1726 1735 1743 1751 1762 1772 1784 1795 1805 1811 1818 1821 1826 1831 1840 1855 1869 1888 1914 1937 1951 1960 1969 1981 1995 2008 2020 2025 2027 2030 2036 2046 2052 2066 2079 2095 2112 2127 2142 2147 2148 2154 2163 2174 2183 2192 2200 2208 2216 2222 2226 2231 2238 2250 2263 2274 2285 2299 2308 2312 2320 2331 2340 2350 2356 2362 2369 2379 2392 2405 2423 2438 2449 2463 2478 2491 2509 2523 2527 2527 2528 2529 2537 2546 2554 2560 2569 2581 2588 2600 2630 2655 2676 2696 2706 2713 2722 2731 2741 2752 2758 2770 2776 2777 2777 2779 2789 2804 2819 2827 2836 2842 2844 2845 2847 2852 2860 2867 2876 2886 2893 2896 2897 2903 2913 2930 2946 2958 2962 2962 2969 2980 2994 3001 3003 3004 3006 3011 3015 3021 3031 3035 3036 3043 3055 3063 3066 3066 3067 3067 3071 3082 3095 3104 3108 3110 3111 3113 3114 3122 3141 3158 3170 3177 3187 3191 3191 3193 3198 3198 3198 3191 3187 3184 3167 3138 3035 2932 2701 2601 2546 2546 2546 2687 2893 3009 3094 3134 3162 3162 3166 3166 3166 3177 3186 3194 3202 3214 3220 3220 3220 3215 3213 3209 3206 3206 3206 3211 3212 3212 3212 3208 3205 3197 3180 3166 3158 3158 3157 3154 3147 3138 3094 3024 2950 2750 0 0 0 0 1343 1335 1330 1326 1324 1318 1315 1311 1308 1305 1302 1301 1297 1293 1290 1288 1286 1283 1281 1279 1276 1274 1271 1268 1265 1263 1260 1258 1255 1252 1248 1245 1241 1235 1231 1226 1224 1218 1210 1207 1206 1202 1196 1195 1186 1185 1184 1174 1168 1168 1167 1167 1167 1168 1168 1169 1170 1170 1170 1170 1169 1169 1168 1167 1166 1165 1163 1161 1159 1157 1155 1151 1148 1147 1144 1141 1137 1134 1130 1126 1116 1102 1074 1066 1066 1066 1066 1066 1065 1062 1058 1053 1051 1051 1051 1049 1046 1042 1041 1041 1041 1042 1044 1045 1047 1051 1056 1059 1064 1064 1064 1064 1064 1063 1063 1062 1060 1059 1058 1057 1055 1054 1052 1050 1048 1047 1045 1043 1040 1038 1034 1032 1029 1026 1022 1016 1011 1006 999 993 986 984 980 977 976 973 971 969 966 964 961 958 957 955 953 947 945 944 943 943 943 943 944 946 947 949 953 956 958 959 961 962 962 962 962 962 961 959 958 957 954 954 952 951 949 948 946 945 944 942 941 939 938 936 935 934 932 931 929 928 926 925 923 922 920 919 918 917 916 915 913 912 911 910 909 907 907 905 904 902 902 901 899 898 897 897 895 895 895 895 894 894 894 894 895 895 896 896 898 898 898 903 906 907 921 927 930 0 0 0 0 0 0 0 2154 2154 2154 2150 2137 2132 2119 2111 2097 2089 2084 2084 2080 2075 0 0 0 0 0 0 0 0 0 0 0 0 0 0 0 0 1527 1527 1527 1530 1530 1530 1529 1519 1519 1519 1519 1520 1524 1533 1550 1550 1550 1547 1547 1547 1593 1611 1616 1624 1663 1710 1725 1725 1725 1717 1708 1705 1703 1697 1684 1679 1679 1679 1679 1679 1674 1668 1661 1660 1657 1656 1650 1633 1619 1610 1601 1588 1588 1580 1572 1564 1556 1550 1543 1535 1517 1503 1486 1482 1470 1470
867 867 867 872 872 880 894 917 936 952 957 967 982 998 1018 1041 1067 1088 1103 1118 1131 1148 1167 1173 1192 1201 1218 1237 1259 1276 1300 1317 1328 1337 1352 1375 1401 1407 1427 1443 1458 1473 1488 1500 1516 1537 1561 1580 1595 1610 1618 1626 1629 1633 1641 1648 1656 1671 1690 1710 1726 1737 1750 1762 1773 1784 1791 1798 1810 1817 1822 1829 1832 1834 1844 1861 1878 1907 1934 1950 1959 1966 1979 1993 2007 2018 2025 2028 2030 2031 2036 2046 2052 2066 2080 2095 2112 2127 2142 2153 2154 2158 2165 2174 2183 2192 2200 2212 2219 2227 2233 2238 2247 2258 2271 2281 2292 2299 2308 2312 2320 2327 2334 2342 2349 2357 2369 2379 2393 2407 2423 2439 2449 2467 2480 2498 2512 2523 2528 2530 2532 2533 2541 2549 2553 2560 2569 2578 2584 2594 2617 2646 2672 2690 2698 2705 2714 2730 2734 2750 2757 2770 2775 2776 2777 2779 2789 2804 2819 2827 2836 2844 2845 2845 2849 2854 2860 2867 2876 2886 2896 2901 2906 2911 2919 2935 2954 2968 2975 2979 2984 2991 2999 2999 3000 3001 3007 3012 3016 3021 3031 3033 3036 3043 3055 3065 3070 3070 3072 3072 3080 3094 3107 3112 3113 3113 3113 3113 3114 3122 3141 3162 3177 3188 3198 3201 3202 3203 3202 3201 3198 3191 3187 3184 3167 3095 2960 2726 2677 2598 2598 2598 2659 2833 2926 3033 3106 3147 3162 3172 3173 3174 3179 3189 3197 3200 3205 3219 3224 3224 3224 3224 3223 3220 3218 3218 3218 3219 3219 3219 3218 3217 3213 3209 3194 3178 3167 3166 3166 3165 3165 3155 3131 3054 2958 2880 2578 0 0 0 1349 1336 1330 1326 1324 1321 1315 1312 1309 1307 1304 1301 1298 1295 1292 1290 1288 1285 1282 1279 1277 1275 1273 1270 1267 1264 1262 1259 1256 1252 1249 1245 1241 1237 1231 1226 1224 1217 1208 1205 1205 1200 1181 1174 1173 1172 1171 1167 1159 1156 1156 1156 1156 1164 1165 1166 1170 1171 1171 1171 1170 1169 1168 1168 1167 1165 1163 1161 1160 1158 1155 1153 1151 1147 1144 1141 1137 1134 1130 1126 1119 1105 1074 1066 1066 1066 1066 1066 1065 1062 1058 1053 1051 1051 1050 1047 1045 1042 1041 1041 1041 1041 1042 1043 1047 1051 1055 1059 1062 1063 1063 1063 1063 1063 1063 1062 1061 1060 1059 1057 1056 1054 1053 1051 1049 1047 1046 1044 1041 1038 1036 1033 1030 1028 1024 1016 1012 1007 1002 1000 991 986 983 981 978 976 975 972 969 966 961 958 956 955 951 947 945 945 945 945 944 944 944 946 947 950 954 956 958 960 961 962 962 962 962 962 961 960 958 957 956 955 953 951 950 948 947 945 944 942 941 939 938 937 935 934 933 931 929 928 926 925 924 922 921 919 919 917 916 915 913 912 911 910 909 908 908 906 904 904 903 902 901 899 898 897 896 896 895 895 895 895 895 895 896 896 896 896 898 898 898 899 899 902 915 916 930 0 0 0 0 0 0 0 0 2139 2139 2132 2125 2124 2119 2107 2092 2069 2050 0 0 0 0 0 0 0 0 0 0 0 0 0 0 0 0 0 1502 1505 1505 1518 1527 1533 1533 1533 1529 1517 1517 1516 1516 1517 1517 1521 1539 1543 1543 1544 1544 1544 1577 1595 1598 1600 1612 0 0 1725 1725 1717 1708 1704 1703 1697 1686 1680 1679 1679 1678 1676 1667 1660 1660 1657 1657 1656 1650 1633 1620 1610 1601 1594 1589 1583 1581 1571 1564 1554 1545 1539 1521 1505 1489 1483 1475 1475
867 867 867 872 872 880 894 917 936 952 957 972 988 1003 1018 1041 1067 1088 1103 1118 1130 1148 1167 1173 1193 1202 1219 1237 1259 1278 1300 1318 1330 1338 1352 1375 1399 1404 1426 1441 1457 1473 1488 1504 1522 1546 1568 1583 1597 1612 1624 1632 1635 1640 1644 1651 1661 1674 1691 1710 1726 1739 1750 1763 1778 1787 1792 1801 1814 1826 1831 1834 1835 1842 1851 1867 1889 1912 1934 1950 1959 1971 1986 2001 2018 2025 2030 2033 2037 2041 2043 2046 2053 2066 2082 2097 2112 2127 2142 2153 2159 2163 2167 2174 2183 2192 2204 2215 2227 2235 2243 2250 2258 2267 2278 2287 2298 2301 2308 2312 2320 2327 2334 2342 2349 2357 2369 2379 2393 2407 2424 2439 2449 2467 2482 2498 2512 2523 2528 2530 2534 2537 2542 2549 2554 2560 2569 2578 2584 2594 2609 2636 2662 2683 2690 2692 2702 2726 2730 2746 2757 2766 2771 2771 2776 2779 2789 2804 2819 2827 2836 2844 2847 2848 2852 2855 2861 2868 2877 2887 2896 2906 2915 2920 2927 2942 2961 2975 2986 2990 2995 3000 3000 3000 3001 3001 3008 3014 3016 3021 3031 3033 3036 3043 3055 3075 3079 3082 3083 3083 3089 3099 3108 3112 3114 3114 3114 3114 3114 3122 3141 3164 3184 3200 3211 3224 3234 3234 3234 3212 3198 3191 3191 3184 3152 3022 2790 2662 2602 2602 2602 2647 2826 2939 3033 3072 3123 3152 3163 3173 3178 3185 3192 3201 3207 3212 3218 3224 3229 3230 3231 3231 3234 3234 3234 3230 3229 3229 3228 3227 3226 3226 3224 3217 3209 3193 3183 3176 3172 3169 3166 3155 3131 3058 2967 2880 2661 0 0 0 0 1337 1327 1326 1325 1322 1319 1314 1312 1309 1306 1303 1300 1296 1294 1292 1290 1287 1283 1281 1279 1276 1274 1271 1268 1265 1263 1260 1257 1254 1250 1246 1241 1237 1232 1224 1220 1216 1206 1196 1188 1184 1178 1168 1165 1162 1159 1156 1152 1143 1143 1143 1149 1149 1155 1165 1170 1172 1172 1172 1171 1170 1169 1168 1167 1165 1163 1161 1160 1158 1156 1154 1151 1148 1144 1141 1138 1134 1130 1126 1119 1111 1095 1074 1066 1066 1066 1066 1065 1062 1058 1053 1051 1051 1049 1046 1044 1041 1041 1041 1041 1041 1042 1042 1046 1048 1055 1059 1062 1063 1063 1064 1064 1064 1064 1062 1061 1060 1059 1058 1057 1055 1053 1052 1049 1048 1046 1044 1042 1039 1037 1035 1031 1028 1025 1021 1017 1010 1006 1000 991 987 985 983 980 979 976 974 971 968 964 958 956 953 951 948 947 947 947 947 947 946 946 946 947 950 955 957 958 960 962 963 963 963 963 963 962 961 959 957 957 955 953 952 950 949 948 946 944 943 942 940 938 937 936 934 933 931 930 928 926 926 924 923 922 920 919 918 917 916 914 913 912 911 910 910 908 907 906 904 903 902 902 900 899 898 897 897 896 896 896 896 896 896 896 896 896 897 898 898 898 899 899 899 912 915 930 0 0 0 0 0 0 0 0 0 2110 2110 2104 0 0 0 0 0 0 0 0 0 0 0 0 0 0 0 0 0 0 0 0 0 0 1473 1474 1478 1484 1497 1520 1533 1533 1533 1523 1514 1514 1514 1514 1516 1517 1521 1537 1546 1546 1546 1546 1546 1567 1567 1567 1582 1582 0 0 0 1700 1701 1701 1701 1701 1697 1686 1680 1679 1679 1678 1676 1667 1660 1660 1657 1657 1656 1650 1633 1620 1611 1602 1595 1595 1591 1584 1582 1571 1559 1547 1542 1531 1515 1490 1483 1475 1475
865 866 866 872 872 880 894 917 936 947 957 972 988 1004 1018 1041 1067 1088 1102 1114 1126 1143 1165 1170 1193 1210 1219 1238 1259 1281 1301 1318 1330 1338 1353 1375 1395 1400 1419 1439 1456 1473 1488 1504 1526 1549 1570 1587 1600 1614 1630 1634 1644 1651 1655 1659 1669 1681 1694 1711 1725 1739 1751 1764 1778 1789 1800 1809 1823 1829 1832 1837 1841 1846 1856 1872 1892 1912 1934 1950 1959 1971 1986 2005 2020 2030 2036 2040 2043 2050 2054 2059 2065 2079 2090 2101 2113 2125 2140 2153 2162 2167 2173 2178 2184 2195 2205 2217 2230 2242 2252 2260 2268 2274 2283 2295 2305 2309 2316 2316 2320 2327 2334 2342 2349 2357 2370 2382 2395 2408 2424 2438 2449 2467 2482 2498 2512 2523 2527 2530 2535 2538 2544 2549 2556 2560 2569 2578 2584 2594 2605 2625 2649 2672 2681 2685 2696 2701 2719 2737 2750 2756 2761 2769 2772 2787 2801 2818 2829 2832 2844 2851 2858 2861 2862 2862 2862 2870 2877 2889 2899 2911 2921 2931 2939 2949 2963 2975 2986 2994 3000 3000 3000 3001 3001 3001 3009 3020 3031 3031 3033 3033 3039 3050 3077 3087 3093 3093 3094 3094 3097 3103 3109 3114 3116 3116 3117 3117 3121 3129 3145 3167 3188 3200 3211 3224 3234 3234 3234 3229 3209 3202 3191 3184 3118 2940 2738 2629 2553 2553 2553 2716 2885 2986 3066 3118 3142 3152 3168 3176 3185 3190 3200 3206 3214 3219 3229 3237 3237 3237 3240 3240 3246 3253 3253 3253 3246 3239 3234 3233 3233 3229 3224 3221 3217 3211 3199 3189 3174 3169 3166 3155 3134 3063 2989 2891 2682 0 0 0 0 1338 1327 1326 1325 1323 1319 1316 1313 1311 1308 1304 1301 1299 1296 1293 1291 1288 1285 1283 1281 1278 1274 1272 1269 1266 1264 1261 1259 1256 1251 1247 1242 1237 1232 1221 1215 1209 1201 1188 1177 1173 1170 1167 1164 1161 1153 1147 1142 1138 1135 1135 1135 1143 1153 1165 1170 1173 1173 1173 1171 1171 1170 1169 1168 1166 1165 1162 1160 1159 1157 1155 1152 1148 1145 1143 1140 1137 1134 1126 1119 1112 1100 1083 1070 1069 1067 1065 1064 1063 1059 1056 1054 1052 1049 1046 1043 1041 1041 1040 1040 1041 1041 1042 1045 1048 1055 1059 1062 1063 1063 1064 1064 1064 1064 1063 1062 1061 1060 1058 1057 1056 1054 1052 1050 1049 1047 1045 1043 1040 1038 1036 1032 1028 1026 1022 1019 1013 1007 1000 991 987 985 983 981 979 976 975 972 970 966 958 956 953 951 948 947 947 947 947 947 947 947 947 947 951 955 957 960 962 964 964 964 964 963 963 962 961 959 959 957 955 954 952 951 949 948 946 945 943 942 940 939 937 936 934 933 931 930 928 927 926 924 923 922 921 920 918 917 916 915 913 913 912 910 910 908 908 907 905 904 903 902 902 900 899 898 897 897 896 896 896 896 896 896 897 898 898 898 898 898 899 894 892 894 899 915 0 0 0 0 0 0 0 0 0 0 0 0 0 0 0 0 0 0 0 0 0 0 0 0 0 0 0 0 0 1444 1424 1406 1406 1406 1440 1459 1466 1471 1480 1500 1533 1533 1533 1519 1514 1514 1514 1514 1516 1517 1520 1533 1546 1546 1546 1537 1534 1531 1531 1528 1528 1528 0 0 0 0 0 1677 1690 1690 1690 1684 1681 1680 1679 1679 1676 1667 1660 1660 1657 1657 1656 1650 1634 1620 1611 1602 1597 1597 1596 1593 1585 1571 1562 1553 1542 1531 1515 1497 1483 1475 1475
863 863 863 867 882 894 897 917 938 947 957 972 990 1005 1017 1034 1059 1079 1095 1108 1122 1140 1148 1170 1193 1219 1238 1249 1265 1286 1302 1318 1332 1345 1360 1377 1394 1400 1418 1433 1451 1470 1487 1505 1526 1549 1570 1587 1600 1614 1630 1634 1644 1651 1655 1663 1673 1684 1697 1711 1725 1739 1751 1765 1780 1796 1810 1817 1824 1829 1836 1844 1847 1852 1862 1877 1893 1914 1929 1945 1958 1971 1986 2005 2020 2030 2036 2040 2049 2056 2061 2070 2079 2091 2100 2106 2113 2125 2140 2153 2162 2173 2180 2184 2194 2201 2209 2219 2230 2243 2257 2268 2276 2283 2292 2303 2307 2316 2321 2324 2330 2337 2343 2347 2353 2363 2377 2389 2398 2408 2421 2437 2449 2467 2483 2498 2509 2517 2521 2529 2536 2541 2547 2551 2558 2566 2574 2582 2591 2596 2605 2615 2636 2657 2671 2682 2693 2698 2709 2721 2733 2741 2746 2760 2772 2787 2801 2818 2831 2840 2848 2860 2871 2871 2871 2870 2870 2870 2878 2892 2905 2919 2934 2944 2952 2957 2967 2977 2986 2995 3001 3001 3002 3003 3003 3007 3017 3029 3046 3048 3048 3050 3054 3062 3079 3094 3098 3102 3104 3104 3104 3107 3110 3116 3118 3118 3120 3121 3133 3146 3161 3176 3188 3200 3211 3224 3234 3234 3234 3229 3220 3202 3191 3153 3053 2881 2648 2564 2564 2564 2654 2842 2990 3028 3096 3137 3162 3164 3169 3178 3190 3196 3202 3208 3214 3219 3229 3237 3254 3256 3258 3259 3259 3265 3265 3265 3264 3252 3243 3237 3234 3230 3224 3222 3221 3221 3208 3189 3174 3166 3165 3155 3134 3085 3007 2960 2784 0 0 0 0 1339 1327 1326 1325 1323 1320 1318 1315 1313 1309 1306 1302 1300 1297 1295 1292 1289 1286 1283 1281 1279 1276 1273 1270 1268 1266 1262 1260 1258 1255 1250 1246 1241 1231 1220 1208 1204 1193 1180 1173 1170 1166 1165 1164 1161 1152 1147 1142 1135 1127 1127 1127 1139 1150 1162 1172 1175 1175 1175 1173 1172 1171 1170 1170 1167 1166 1164 1161 1159 1157 1155 1152 1149 1146 1144 1142 1139 1134 1128 1123 1117 1109 1097 1079 1073 1067 1064 1064 1063 1059 1057 1054 1052 1049 1045 1043 1041 1040 1040 1040 1040 1040 1041 1042 1050 1053 1059 1062 1063 1063 1065 1065 1065 1065 1063 1063 1061 1060 1059 1058 1056 1054 1053 1051 1049 1048 1046 1043 1041 1038 1036 1034 1029 1027 1023 1019 1016 1008 1000 993 988 985 983 981 979 976 975 973 970 967 963 956 953 951 951 950 949 949 948 948 948 948 948 948 951 955 957 960 965 965 965 965 965 964 964 963 962 960 959 957 956 954 953 951 949 948 946 946 944 942 940 939 938 936 934 933 932 930 929 927 926 924 924 922 921 920 919 917 916 915 914 913 912 911 910 909 908 907 906 905 904 903 902 901 900 899 898 898 897 897 897 897 897 897 897 898 898 899 900 900 900 899 895 895 899 915 0 0 0 0 0 0 0 0 0 0 0 0 0 0 0 0 0 0 0 0 0 0 0 0 0 0 1431 1422 1413 1401 1400 1399 1399 1401 1416 1456 1463 1466 1474 1491 1520 1520 1520 1518 1514 1514 1514 1518 1518 1519 1520 1532 1537 1537 1537 1534 1497 1497 1496 1497 1497 1501 1529 0 0 0 0 0 0 1640 1650 1673 1677 1681 1681 1681 1678 1670 1665 1664 1662 1658 1656 1650 1637 1625 1613 1602 1600 1599 1598 1598 1589 1573 1562 1553 1542 1531 1515 1498 1479 1474 1474
850 850 858 867 885 905 917 929 944 947 961 978 995 1006 1017 1034 1059 1079 1089 1104 1122 1140 1145 1165 1192 1219 1243 1261 1274 1292 1307 1325 1342 1359 1371 1382 1394 1400 1418 1433 1451 1470 1487 1506 1526 1549 1570 1587 1600 1614 1630 1634 1644 1651 1656 1665 1677 1689 1700 1712 1725 1739 1751 1767 1784 1801 1814 1818 1825 1830 1839 1849 1855 1862 1872 1885 1900 1914 1929 1940 1952 1970 1986 2005 2020 2030 2036 2040 2049 2056 2069 2081 2093 2103 2110 2114 2118 2125 2140 2153 2165 2174 2183 2191 2199 2207 2213 2220 2233 2246 2265 2277 2285 2291 2300 2309 2313 2320 2326 2334 2340 2346 2353 2359 2365 2374 2384 2394 2401 2408 2421 2435 2450 2467 2483 2498 2506 2513 2521 2529 2537 2546 2555 2562 2566 2571 2579 2587 2593 2599 2605 2614 2628 2649 2666 2682 2688 2697 2709 2717 2724 2729 2733 2747 2766 2787 2801 2818 2831 2840 2848 2860 2871 2881 2881 2881 2881 2881 2884 2898 2914 2929 2946 2959 2964 2965 2969 2979 2988 2996 3002 3006 3009 3011 3014 3018 3025 3039 3055 3064 3065 3066 3067 3073 3080 3098 3100 3105 3107 3107 3109 3110 3113 3116 3117 3121 3124 3129 3145 3160 3173 3180 3189 3196 3208 3222 3225 3226 3226 3226 3220 3202 3186 3102 2944 2706 2557 2557 2557 2621 2769 2958 3035 3099 3134 3162 3178 3185 3194 3196 3201 3202 3204 3208 3214 3219 3229 3240 3254 3266 3270 3271 3271 3271 3270 3270 3269 3265 3253 3243 3234 3230 3226 3225 3224 3223 3208 3189 3174 3166 3161 3155 3131 3098 3051 2982 2915 2585 0 0 0 1339 1329 1328 1326 1323 1320 1318 1316 1314 1312 1307 1304 1302 1299 1296 1293 1290 1288 1284 1282 1280 1277 1275 1271 1268 1266 1263 1261 1259 1255 1251 1246 1241 1235 1220 1208 1202 1191 1179 1170 1168 1164 1164 1163 1159 1151 1145 1142 1135 1127 1127 1127 1138 1149 1160 1172 1175 1175 1175 1175 1173 1171 1171 1170 1169 1167 1164 1163 1161 1158 1156 1153 1151 1148 1145 1142 1140 1135 1131 1125 1119 1110 1099 1084 1074 1068 1063 1063 1061 1059 1057 1054 1052 1049 1045 1043 1041 1038 1038 1038 1040 1040 1041 1042 1046 1053 1060 1062 1063 1064 1065 1065 1065 1065 1064 1063 1062 1061 1059 1058 1057 1055 1054 1052 1050 1048 1046 1044 1042 1040 1037 1035 1031 1028 1024 1020 1017 1011 1002 994 989 985 984 981 978 976 975 973 971 967 964 959 954 953 953 953 950 949 949 949 949 949 950 950 951 955 959 961 966 966 966 965 965 964 964 963 962 960 959 958 956 955 953 952 950 949 947 946 944 942 940 939 938 936 934 933 932 930 929 927 926 925 924 922 921 921 919 918 917 915 914 913 913 912 910 910 909 907 906 905 905 904 903 902 901 900 899 898 898 898 898 898 897 897 897 898 898 900 900 900 900 899 899 899 899 915 0 0 0 0 0 0 0 0 0 0 0 0 0 0 0 0 0 0 0 0 0 0 0 0 0 1410 1399 1398 1398 1399 1399 1398 1399 1401 1416 1442 1457 1464 1468 1478 1498 1508 1513 1513 1514 1514 1514 1518 1518 1519 1520 1523 1523 1523 1501 1488 1488 1488 1490 1490 1490 1488 1479 0 0 0 0 0 0 1592 1617 1647 1672 1681 1681 1681 1678 1671 1670 1668 1667 1663 1659 1653 1644 1631 1620 1610 1609 1608 1605 1602 1589 1573 1562 1553 1542 1531 1513 1498 1477 1472 1472
