0 0 0 0 0 928 953 983 1003 1027 1046 1062 1078 1101 1122 1126 1146 1163 1178 1192 1204 1217 1228 1238 1249 1259 1268 1276 1283 1289 1298 1308 1318 1326 1334 1340 1346 1349 1355 1360 1366 1372 1379 1385 1389 1393 1397 1400 1402 1405 1407 1409 1409 1411 1414 1414 1414 1411 1402 0 0 0 1222 1222 0 0 0 1434 1449 1460 1464 1466 1468 1468 1469 1471 1473 1475 1475 1475 1475 1475 1474 1474 1474 1476 1479 1482 1484 1484 1484 1465 1443 1423 1380 1364 1363 1359 0 0 0 0 0 0 0 1258 1258 1264 1264 1264 1265 1270 1275 1282 1288 1290 1292 1294 1303 1312 1317 1321 1323 1332 1332 1332 1325 1325 0 0 0 0 0 0 0 0 0 0 0 0 0 0 0 0 0 0 0 0 0 0 0 0 2557 2557 2557 2501 2053 0 0 0 0 1401 1384 1382 1377 1370 1370 1370 1364 1340 1321 1321 1317 1312 1309 0 0 0 0 0 0 0 0 0 0 1040 1040 1045 1056 1075 1105 1142 1161 1187 1187 1195 1202 1202 0 0 0 0 0 0 0 0 0 0 0 0 1846 1788 1777 1777 1777 1777 1785 1791 1797 1798 1798 1798 1798 1800 1800 1801 1803 1804 1805 1806 1808 1809 1810 1811 1811 1812 1813 1815 1815 1817 1818 1818 1819 1821 1822 1823 1825 1826 1827 1828 1828 1830 1830 1831 1831 1832 1832 1832 1832 1833 1833 1833 1833 1834 1834 1834 1834 1835 1835 1835 1835 1834 1834 1834 1832 1832 1832 1831 1828 1827 1827 1826 1825 1813 1807 1807 0 0 0 0 0 2314 2347 2371 2389 2407 2415 2424 2431 2436 2437 2439 2441 2441 2442 2444 2447 2454 2457 2457 2458 2462 2467 2472 2475 2475 2475 2473 2471 2469 2468 2464 2461 2461 2461 2468 2476 2487 2487 2487 2485 2482 2482 2482 2482 2482 2482 2482 2480 2476 2472 2467 2461 2454 2448 2448 2448 2449 2449 2449 2446 2444 2443 2442 2436 2432 2430 2429 2427 2419 2405 2393 2385 2382 2374 2371 2361 2353 2348 2340 2339 2336 2326 2311 2288 2270 2257 2251 2250 2245 2243 2241 2241 2236 2232 2223 2222 2210 2192 2176 2156 2128 0 0 0 0 1576 1561 1550 1541 1531 1530 1528 1527 1524 1523 1522 1520 1517 1511 1505 1505 1504 1500 1497 1493 1492 1491 1491 1489 1486 1480 1472 1464 1463 1463 1460 1460 1459 1458 1457 1453 1447 1439 1428 1428 1428 1433 1440 1458 1474 1476 1476 1476 1475 1474 1474 1468 1466 1464 1464 1465 1465 1465 1465 1453 1435 1427 1425 1422 1412 1401 1391 1383 1382 1380 1380 1382 1384 1395 1412 1412 1412 1417 1421 1429 1431 1431 1432 1434 1437 1440 1447 1452 1452 1452 1452 1451 1450 1446 1444 1444 1443 1440 1437 1434 1434 1434 1434 1435 1436 1438 1440 1440 1440 1440 1439 1439 1438 1436 1429 1428 1428 1428 1428 1426 1424 1422 1420 1419 1417 1415 1413 1411 1408 1406 1402 1400 1398 1395 1394 1392 1390 1389 1387 1385 1383 1381 1380 1379 1377 1374 1371 1369 1368 1365 1365 1364 1364 1362 1359 1355 1353 1352 1350 1347 1343 1342 1340 1338 1333 1328 1326 1322 1320 1316 1312 1309 1306 1303 1299 1294 1288 1281 1275 1271 1263 1259 1255 1255 1255 1257 1257 1257 1256 1254 1253 1249 1248 1245 1243 1239 1234 1219 1214 1202 1191 1182 1175 1171 1171 1171 1170 1167 1157 1155 1154 1154 1150 1138 1121 1117 1114 1100 1085 1069 1052 1052 1052 1052 1052 1052 1051 1042 1030 1026 1022 1022 1021 1017 1005 990 978 967 953 936 917 903 890 0
0 0 0 0 0 938 969 994 1016 1038 1054 1067 1081 1102 1122 1141 1147 1166 1182 1197 1211 1223 1233 1241 1251 1261 1269 1276 1283 1289 1298 1308 1318 1326 1334 1341 1346 1350 1355 1361 1366 1373 1380 1385 1389 1393 1397 1400 1403 1406 1408 1410 1411 1412 1414 1415 1415 1415 1405 0 0 0 1202 1202 0 0 0 1429 1446 1459 1465 1468 1469 1470 1470 1472 1473 1475 1475 1475 1475 1474 1474 1474 1474 1475 1476 1479 1479 1479 1479 1457 1426 1397 1394 1394 1384 1384 0 0 0 0 0 0 0 0 1256 1257 1258 1264 1267 1270 1275 1287 1295 1299 1300 1306 1313 1321 1327 1332 1340 1340 1340 1332 1332 1332 0 0 0 0 0 0 0 0 0 0 0 0 0 0 0 0 0 0 0 0 0 0 0 0 2557 2700 2700 2700 2700 2554 0 0 0 0 1384 1359 1359 1359 1374 1374 1374 1340 1321 1321 1319 1319 1319 0 0 0 0 0 0 0 0 0 0 0 1045 1045 1052 1063 1090 1120 1151 1187 1187 1187 1201 1201 0 0 0 0 0 0 0 0 0 0 0 0 1773 1773 1773 1775 1776 1777 1783 1788 1792 1796 1796 1797 1798 1798 1799 1801 1802 1803 1804 1806 1808 1808 1810 1810 1811 1812 1813 1815 1815 1816 1817 1818 1819 1821 1822 1823 1824 1826 1827 1828 1828 1830 1830 1831 1831 1832 1832 1832 1832 1833 1833 1833 1833 1834 1834 1834 1835 1835 1835 1835 1835 1835 1835 1834 1834 1833 1833 1833 1831 1829 1828 1825 1823 1804 1804 0 0 0 0 0 0 2350 2375 2397 2416 2428 2432 2439 2445 2450 2451 2451 2451 2451 2451 2452 2455 2459 2464 2467 2471 2472 2477 2479 2481 2481 2481 2481 2481 2480 2480 2477 2473 2473 2473 2475 2483 2490 2490 2490 2488 2486 2486 2486 2485 2483 2482 2482 2480 2476 2475 2472 2467 2458 2455 2455 2455 2455 2455 2455 2450 2447 2444 2443 2442 2442 2441 2440 2436 2425 2412 2401 2398 2397 2397 2387 2376 2365 2357 2351 2350 2344 2334 2317 2296 2279 2270 2268 2265 2261 2261 2260 2260 2257 2249 2246 2238 2224 2206 2190 2171 0 0 0 0 0 1551 1547 1541 1538 1532 1531 1531 1527 1526 1526 1525 1525 1521 1515 1509 1509 1509 1504 1500 1496 1496 1496 1495 1495 1490 1483 1475 1473 1472 1471 1470 1468 1463 1461 1460 1455 1453 1449 1437 1433 1433 1433 1435 1440 1448 1460 1470 1470 1470 1470 1470 1468 1466 1466 1466 1469 1469 1469 1469 1467 1459 1455 1442 1429 1424 1418 1409 1392 1382 1380 1380 1382 1384 1386 1386 1387 1387 1390 1393 1395 1407 1423 1426 1431 1435 1440 1447 1452 1452 1452 1452 1451 1450 1446 1443 1441 1440 1437 1435 1430 1430 1430 1430 1430 1430 1433 1435 1438 1438 1438 1438 1435 1434 1430 1426 1426 1426 1424 1424 1424 1423 1420 1418 1417 1416 1414 1413 1411 1408 1406 1403 1400 1398 1395 1394 1391 1390 1389 1387 1385 1383 1381 1380 1379 1377 1375 1372 1369 1368 1365 1365 1364 1364 1362 1359 1355 1353 1351 1349 1348 1345 1342 1340 1338 1333 1329 1327 1324 1320 1316 1311 1308 1306 1303 1299 1294 1287 1281 1275 1271 1263 1259 1254 1254 1254 1256 1256 1256 1256 1254 1253 1249 1246 1243 1241 1238 1233 1219 1214 1199 1190 1182 1175 1171 1171 1170 1169 1167 1164 1161 1161 1159 1150 1138 1121 1116 1107 1100 1085 1072 1057 1055 1054 1052 1052 1052 1051 1042 1030 1028 1028 1027 1027 1023 1007 991 984 971 954 936 919 904 893 0
0 0 0 0 0 953 983 1003 1028 1046 1062 1075 1090 1109 1128 1145 1151 1166 1187 1205 1217 1227 1236 1245 1254 1264 1272 1276 1283 1289 1298 1308 1318 1326 1334 1341 1346 1351 1356 1361 1366 1373 1380 1386 1390 1394 1397 1400 1403 1407 1409 1411 1412 1413 1415 1417 1417 1417 1409 0 0 0 1205 1205 0 0 0 1429 1446 1459 1465 1469 1470 1471 1471 1472 1473 1475 1475 1475 1475 1474 1474 1472 1471 1471 1471 1471 1471 1471 1464 1442 1426 1409 1409 1399 1399 1399 0 0 0 0 0 0 0 0 1235 1256 1256 1263 1266 1270 1276 1290 1299 1304 1306 1312 1318 1327 1336 1348 1370 1370 1370 1356 1356 1356 0 0 0 0 0 0 0 0 0 0 0 0 0 0 0 0 0 0 0 0 0 0 0 0 2557 2700 2700 2700 2700 2648 2524 0 0 0 0 0 0 1359 1367 1367 1367 1360 1342 1332 1332 1331 1331 1331 0 0 0 0 0 0 0 0 0 0 0 1052 1052 1060 1086 1120 1151 1187 1187 1187 1187 1187 1187 0 0 0 0 0 0 0 0 0 1754 1756 1764 1767 1773 1775 1777 1777 1783 1787 1791 1792 1795 1795 1795 1797 1798 1800 1801 1802 1803 1805 1807 1807 1809 1810 1811 1812 1813 1815 1815 1816 1817 1818 1819 1820 1821 1823 1824 1826 1827 1828 1828 1830 1830 1831 1831 1831 1832 1832 1832 1833 1833 1833 1833 1834 1835 1835 1835 1836 1836 1836 1836 1835 1835 1835 1834 1834 1834 1833 1833 1831 1828 1822 1812 1812 1812 0 0 0 0 0 0 2376 2402 2418 2437 2446 2449 2454 2457 2461 2461 2461 2461 2461 2461 2462 2466 2471 2472 2474 2477 2481 2482 2484 2484 2484 2483 2483 2483 2486 2486 2486 2482 2476 2476 2476 2486 2492 2493 2494 2494 2494 2493 2493 2490 2487 2483 2482 2481 2480 2479 2476 2469 2463 2463 2463 2462 2462 2462 2458 2453 2451 2449 2446 2446 2446 2446 2445 2440 2427 2416 2408 2408 2408 2406 2406 2394 2382 2375 2371 2365 2353 2340 2322 2305 2294 2288 2286 2285 2284 2282 2282 2278 2277 2276 2270 2256 2240 2219 2205 2187 0 0 0 0 0 0 1514 1514 1525 1531 1531 1531 1529 1528 1527 1527 1525 1525 1523 1519 1514 1510 1506 1503 1501 1500 1500 1500 1499 1495 1492 1485 1485 1485 1481 1480 1473 1470 1470 1467 1464 1460 1458 1452 1444 1440 1438 1435 1435 1440 1440 1453 1461 1466 1466 1466 1466 1466 1467 1467 1469 1469 1470 1469 1469 1469 1466 1450 1437 1433 1429 1423 1407 1392 1389 1384 1384 1384 1384 1384 1381 1373 1372 1372 1372 1387 1400 1413 1417 1421 1433 1444 1448 1452 1452 1452 1449 1446 1441 1437 1433 1433 1432 1431 1429 1428 1425 1425 1425 1425 1427 1429 1432 1433 1433 1433 1431 1426 1424 1424 1424 1424 1424 1424 1424 1421 1418 1416 1415 1414 1413 1412 1411 1408 1406 1403 1401 1398 1395 1393 1391 1389 1388 1386 1385 1383 1381 1380 1378 1377 1375 1373 1371 1368 1365 1363 1362 1361 1360 1356 1354 1351 1350 1349 1348 1345 1342 1340 1338 1334 1330 1327 1324 1320 1316 1311 1308 1306 1303 1299 1293 1287 1281 1276 1272 1263 1259 1254 1254 1254 1256 1256 1256 1255 1250 1245 1241 1238 1236 1235 1234 1230 1223 1214 1201 1190 1182 1175 1171 1171 1170 1168 1167 1167 1164 1161 1160 1150 1138 1120 1111 1104 1100 1085 1072 1058 1055 1054 1052 1052 1052 1045 1036 1032 1029 1029 1028 1028 1023 1008 993 982 967 954 936 924 910 894 894
0 0 0 0 0 972 988 1011 1035 1058 1074 1083 1092 1114 1133 1150 1155 1172 1189 1212 1221 1230 1241 1249 1259 1267 1274 1278 1285 1295 1300 1309 1318 1326 1335 1342 1347 1351 1356 1361 1367 1373 1380 1386 1391 1394 1397 1401 1403 1407 1409 1411 1415 1416 1417 1422 1422 1422 1414 0 0 0 1211 1211 0 0 0 1428 1445 1458 1465 1470 1470 1471 1472 1472 1472 1472 1473 1473 1473 1472 1472 1469 1461 1459 1459 1459 1459 1459 1450 1435 1426 1426 1422 1407 1407 1399 0 0 0 0 0 0 0 0 0 1255 1257 1264 1267 1270 1279 1291 1301 1307 1313 1317 1331 1346 1353 1368 1380 1380 1380 1397 1397 1398 0 0 0 0 0 0 0 0 0 0 0 0 0 0 0 0 0 0 0 0 0 0 0 0 0 2664 2700 2700 2700 2665 2621 2538 0 0 0 0 0 0 0 0 1367 1360 1342 1332 1332 1332 1333 1345 0 0 0 0 0 0 0 0 0 0 0 0 0 0 1086 1120 1151 1194 1194 1194 1175 1175 1175 0 0 0 0 0 0 0 0 1725 1754 1756 1763 1767 1773 1775 1777 1778 1783 1787 1790 1791 1794 1794 1795 1796 1797 1799 1800 1802 1803 1804 1806 1807 1808 1810 1811 1812 1813 1814 1815 1816 1817 1818 1818 1819 1821 1822 1824 1826 1826 1827 1828 1829 1830 1830 1831 1831 1832 1832 1833 1833 1833 1834 1834 1835 1835 1835 1836 1836 1836 1836 1836 1836 1835 1835 1835 1835 1835 1835 1835 1831 1827 1819 1812 1812 0 0 0 0 0 0 2373 2396 2416 2432 2447 2456 2465 2471 2472 2473 2473 2473 2472 2472 2472 2475 2478 2481 2481 2482 2486 2487 2491 2491 2491 2488 2488 2488 2492 2493 2493 2493 2486 2480 2480 2480 2487 2493 2497 2500 2502 2502 2502 2501 2498 2492 2488 2485 2484 2482 2480 2476 2474 2470 2470 2469 2469 2469 2465 2461 2458 2456 2453 2449 2446 2446 2446 2445 2441 2431 2424 2415 2414 2413 2412 2411 2407 2399 2392 2387 2378 2363 2347 2328 2312 2306 2302 2297 2297 2297 2299 2299 2299 2296 2295 2289 2274 2253 2232 2208 2187 0 0 0 0 0 0 0 0 0 1526 1534 1534 1534 1529 1528 1528 1528 1527 1527 1525 1522 1515 1509 1505 1504 1504 1503 1503 1500 1500 1500 1500 1500 1500 1494 1490 1489 1484 1481 1478 1470 1466 1460 1457 1456 1455 1453 1441 1436 1435 1435 1436 1440 1447 1454 1456 1458 1463 1467 1467 1469 1469 1470 1469 1469 1469 1469 1465 1457 1444 1432 1428 1421 1414 1411 1406 1395 1393 1389 1386 1381 1373 1372 1371 1371 1371 1380 1391 1391 1394 1411 1415 1417 1432 1437 1437 1437 1433 1428 1424 1424 1424 1424 1427 1427 1427 1424 1422 1422 1422 1423 1424 1425 1426 1426 1426 1426 1423 1422 1422 1422 1422 1422 1421 1420 1417 1414 1412 1412 1412 1411 1410 1408 1406 1406 1403 1401 1398 1393 1390 1389 1389 1388 1386 1385 1383 1381 1380 1378 1375 1375 1374 1374 1368 1365 1363 1362 1359 1355 1354 1350 1348 1348 1346 1345 1345 1341 1340 1338 1335 1332 1327 1324 1320 1315 1310 1307 1305 1302 1298 1293 1287 1281 1278 1274 1265 1259 1255 1255 1254 1254 1254 1251 1247 1244 1240 1236 1236 1235 1232 1230 1227 1221 1213 1201 1191 1184 1178 1171 1168 1167 1167 1166 1166 1164 1161 1160 1150 1125 1115 1108 1104 1097 1087 1075 1062 1051 1051 1046 1045 1044 1041 1035 1032 1029 1029 1028 1028 1023 1008 991 978 967 952 936 924 914 909 909
0 0 0 0 0 983 999 1022 1045 1061 1076 1085 1098 1120 1138 1155 1160 1177 1197 1215 1224 1233 1243 1253 1263 1269 1277 1283 1287 1297 1302 1311 1319 1327 1335 1342 1347 1352 1357 1363 1368 1375 1381 1387 1391 1394 1398 1401 1404 1407 1410 1414 1416 1418 1419 1423 1423 1423 1416 0 0 0 1211 1211 0 0 0 1424 1443 1458 1466 1470 1471 1471 1471 1471 1471 1472 1473 1473 1473 1472 1471 1460 1438 1425 1425 1425 1434 1435 1435 1435 1431 1431 1426 1422 1422 1398 0 0 0 0 0 0 0 0 0 1238 1259 1265 1267 1277 1295 1314 1318 1324 1328 0 0 0 1401 1403 1403 1403 1403 1398 1398 1398 0 0 0 0 0 0 0 0 0 2538 2551 2551 2551 0 0 0 0 0 0 0 0 0 0 0 0 0 2612 2661 2661 2630 2630 2598 2558 2550 0 0 0 0 0 0 0 0 0 1332 1332 1332 1344 1346 0 0 0 0 0 0 0 0 0 0 0 0 0 0 0 1122 1168 1224 1224 1224 1173 1173 1173 0 0 0 0 0 0 0 1682 1725 1754 1756 1764 1769 1773 1777 1778 1778 1783 1786 1788 1790 1792 1793 1794 1794 1796 1798 1799 1800 1802 1803 1805 1806 1808 1809 1811 1811 1812 1813 1814 1815 1816 1817 1818 1819 1820 1822 1824 1825 1826 1827 1827 1829 1829 1830 1831 1831 1832 1832 1833 1833 1834 1834 1835 1835 1836 1836 1836 1836 1837 1837 1837 1836 1835 1835 1835 1836 1836 1836 1836 1831 1827 1821 1821 0 0 0 0 0 0 0 2395 2412 2430 2444 2459 2469 2478 2483 2486 2486 2486 2486 2485 2485 2485 2488 2491 2492 2493 2494 2495 2499 2503 2503 2503 2502 2502 2502 2504 2504 2504 2503 2494 2490 2490 2490 2494 2499 2503 2504 2504 2505 2504 2504 2501 2495 2491 2488 2485 2482 2480 2477 2476 2476 2474 2473 2473 2469 2465 2462 2461 2459 2455 2450 2446 2446 2446 2445 2441 2434 2425 2421 2418 2417 2414 2411 2407 2404 2400 2396 2385 2371 2354 2338 2327 2320 2315 2312 2312 2312 2312 2312 2311 2299 2297 2297 2290 2266 2241 2208 0 0 0 0 0 0 0 0 0 0 1526 1536 1536 1536 1529 1528 1528 1528 1530 1530 1530 1527 1522 1511 1508 1506 1505 1505 1504 1501 1501 1501 1505 1505 1505 1498 1495 1493 1491 1487 1484 1475 1469 1463 1462 1462 1462 1461 1456 1443 1436 1435 1435 1436 1436 1447 1450 1457 1462 1464 1467 1468 1468 1470 1469 1469 1469 1469 1469 1468 1462 1442 1436 1427 1420 1420 1420 1413 1408 1403 1397 1381 1373 1372 1371 1369 1367 1367 1367 1369 1378 1378 1380 1380 1400 1412 1418 1420 1420 1420 1420 1413 1413 1413 1414 1421 1421 1421 1420 1420 1419 1419 1419 1419 1420 1421 1421 1420 1420 1418 1417 1417 1417 1416 1416 1415 1414 1411 1410 1410 1409 1409 1409 1407 1406 1405 1403 1400 1397 1392 1389 1389 1388 1388 1387 1385 1383 1381 1379 1378 1375 1374 1374 1374 1371 1367 1363 1362 1359 1355 1352 1348 1342 1341 1341 1341 1340 1339 1338 1338 1335 1332 1326 1321 1318 1314 1310 1307 1305 1302 1297 1292 1287 1281 1278 1274 1268 1262 1259 1256 1256 1254 1254 1251 1247 1244 1239 1235 1235 1235 1232 1230 1226 1219 1213 1201 1193 1186 1180 1172 1166 1165 1165 1163 1163 1161 1160 1159 1139 1121 1111 1106 1104 1100 1087 1075 1065 1058 1051 1046 1045 1044 1041 1033 1030 1029 1028 1026 1025 1017 1008 989 978 964 941 932 924 914 912 912
0 0 0 0 966 992 1010 1029 1048 1063 1079 1091 1108 1124 1144 1161 1179 1185 1203 1216 1226 1235 1244 1255 1265 1272 1279 1285 1291 1300 1305 1313 1320 1327 1336 1342 1348 1352 1357 1364 1370 1375 1381 1389 1392 1396 1398 1401 1404 1407 1410 1414 1416 1418 1420 1424 1424 1424 1418 0 0 0 1211 1211 0 0 0 1416 1443 1458 1466 1470 1471 1471 1471 1471 1471 1471 1472 1472 1472 1472 1470 1460 1438 1425 1399 1390 1390 1390 1407 1433 1433 1433 1433 1433 1408 1361 0 0 0 0 0 0 0 0 0 0 1260 1267 1274 1279 1296 0 0 0 0 0 0 0 1440 1440 1433 1425 1406 1398 1398 1398 0 0 0 0 0 0 0 0 2573 2710 2710 2710 2638 2504 0 0 0 0 0 0 0 0 0 0 0 0 0 2532 2648 2659 2665 2665 2665 2653 2653 2652 2634 2586 0 0 0 0 0 0 1354 1354 1354 0 0 0 0 0 0 0 0 0 0 0 0 0 0 0 0 0 1187 1227 1227 1227 1213 1213 1213 0 0 0 0 0 0 0 1716 1747 1761 1761 1766 1772 1777 1780 1780 1780 1783 1786 1788 1790 1791 1792 1793 1794 1796 1797 1798 1800 1800 1803 1804 1806 1807 1808 1810 1811 1812 1813 1813 1815 1816 1817 1818 1819 1820 1821 1823 1825 1826 1827 1827 1829 1829 1830 1831 1831 1832 1832 1833 1834 1834 1834 1835 1835 1836 1836 1836 1837 1837 1837 1837 1836 1836 1836 1836 1837 1837 1837 1837 1832 1820 1820 0 0 0 0 0 0 0 2407 2422 2443 2458 2466 2474 2483 2492 2499 2502 2503 2503 2503 2499 2499 2499 2499 2503 2506 2510 2510 2511 2516 2517 2517 2517 2517 2517 2519 2519 2519 2518 2511 2501 2501 2501 2501 2507 2510 2510 2510 2506 2505 2504 2504 2501 2495 2491 2489 2485 2483 2480 2478 2478 2477 2476 2476 2473 2469 2465 2462 2461 2460 2456 2450 2446 2446 2446 2445 2441 2434 2427 2424 2421 2419 2414 2410 2407 2405 2401 2396 2387 2374 2361 2349 2340 2332 2325 2325 2325 2326 2326 2326 2311 2300 2299 2297 2290 2268 2241 2208 0 0 0 0 0 0 0 0 0 0 0 1536 1536 1536 1532 1532 1532 1532 1532 1532 1532 1530 1524 1517 1511 1511 1510 1508 1505 1501 1501 1501 1506 1506 1506 1503 1501 1499 1495 1491 1489 1484 1475 1470 1469 1467 1467 1464 1459 1455 1447 1436 1436 1436 1436 1442 1449 1455 1457 1460 1460 1461 1460 1461 1461 1463 1467 1468 1468 1468 1465 1460 1449 1437 1425 1423 1423 1421 1413 1405 1402 1397 1389 1386 1381 1369 1365 1365 1365 1364 1365 1367 1368 1374 1387 1398 1400 1400 1404 1407 1403 1403 1407 1407 1407 1409 1412 1412 1412 1412 1412 1412 1412 1412 1414 1414 1417 1417 1417 1414 1412 1412 1412 1412 1412 1412 1409 1409 1409 1409 1409 1409 1408 1406 1404 1402 1402 1400 1397 1392 1387 1387 1387 1387 1386 1385 1383 1381 1379 1378 1375 1374 1374 1374 1371 1367 1364 1362 1358 1355 1352 1347 1342 1341 1340 1337 1334 1334 1334 1334 1334 1332 1324 1318 1314 1312 1308 1306 1305 1302 1297 1292 1287 1281 1278 1274 1268 1262 1259 1256 1256 1256 1254 1251 1247 1244 1239 1235 1235 1235 1232 1230 1226 1219 1213 1205 1197 1187 1180 1172 1165 1164 1164 1162 1160 1159 1158 1147 1132 1117 1111 1106 1104 1103 1089 1075 1065 1058 1051 1046 1045 1044 1041 1033 1032 1028 1024 1017 1011 1004 1000 986 972 956 935 930 924 914 912 912
0 0 0 973 975 994 1015 1034 1048 1064 1079 1093 1108 1127 1146 1166 1183 1188 1203 1217 1226 1235 1246 1255 1265 1273 1281 1289 1295 1301 1309 1314 1321 1329 1336 1343 1348 1353 1357 1364 1371 1376 1383 1390 1393 1396 1399 1401 1405 1407 1411 1414 1417 1418 1420 1424 1424 1424 1422 0 0 0 1186 1186 0 0 0 1416 1443 1455 1466 1470 1471 1471 1471 1471 1471 1471 1472 1473 1473 1473 1470 1460 1438 1425 1399 1390 1389 1389 1389 1428 1433 1433 1433 1433 1402 1361 0 0 0 0 0 0 0 0 0 0 0 1267 1300 1327 0 0 0 0 0 0 0 1483 1483 1483 1462 1441 1410 1396 1396 1396 0 0 0 0 0 0 0 0 2626 2732 2732 2732 2682 2617 2505 0 0 0 0 0 0 0 0 0 0 0 0 0 2644 2648 2677 2706 2709 2709 2712 2709 2684 2675 2643 0 0 0 0 0 0 0 0 0 0 0 0 0 0 0 0 0 0 0 0 0 0 0 0 0 1197 1233 1233 1233 1223 1223 1223 0 0 0 0 0 0 1707 1730 1755 1765 1768 1773 1776 1780 1780 1781 1781 1784 1786 1788 1790 1791 1792 1793 1793 1795 1796 1797 1799 1800 1802 1803 1806 1807 1808 1809 1810 1811 1813 1813 1814 1815 1816 1818 1819 1820 1821 1823 1825 1825 1826 1827 1828 1829 1830 1831 1831 1832 1832 1833 1834 1834 1835 1835 1835 1836 1836 1836 1837 1837 1837 1837 1835 1835 1835 1837 1837 1837 1837 1837 1833 1833 1833 0 0 0 0 0 0 2424 2436 2455 2470 2478 2480 2494 2502 2513 2518 2524 2524 2524 2521 2517 2516 2512 2512 2512 2517 2525 2526 2526 2530 2531 2531 2533 2533 2533 2535 2535 2535 2527 2517 2508 2508 2508 2511 2516 2516 2516 2512 2507 2505 2504 2504 2501 2495 2491 2489 2485 2484 2482 2480 2478 2477 2477 2476 2473 2468 2464 2462 2462 2460 2456 2451 2446 2446 2445 2445 2441 2435 2429 2425 2423 2419 2414 2410 2406 2405 2401 2396 2388 2376 2364 2356 2347 2340 2336 2334 2334 2333 2331 2326 2311 2300 2300 2299 2290 2268 2241 0 0 0 0 0 0 0 0 0 0 0 0 0 1541 1541 1536 1533 1532 1532 1532 1532 1532 1532 1528 1523 1519 1514 1512 1511 1508 1504 1504 1504 1506 1506 1506 1506 1504 1503 1500 1496 1493 1488 1481 1477 1475 1474 1472 1467 1462 1457 1449 1441 1436 1436 1436 1440 1446 1446 1447 1449 1449 1458 1458 1458 1458 1458 1460 1466 1466 1466 1465 1461 1453 1449 1442 1429 1426 1425 1422 1420 1417 1410 1401 1399 1397 1377 1365 1363 1359 1359 1359 1357 1357 1357 1357 1367 1381 1384 1384 1392 1400 1400 1401 1402 1402 1405 1407 1407 1407 1405 1401 1401 1401 1406 1409 1411 1413 1413 1413 1408 1408 1408 1409 1409 1409 1409 1407 1407 1407 1409 1409 1409 1407 1403 1400 1399 1397 1396 1392 1386 1385 1385 1385 1385 1385 1385 1383 1381 1378 1374 1374 1374 1374 1373 1371 1367 1364 1362 1358 1355 1352 1346 1341 1341 1339 1336 1331 1331 1331 1327 1327 1326 1317 1312 1308 1305 1301 1300 1300 1299 1297 1290 1284 1281 1277 1272 1268 1262 1259 1256 1256 1256 1254 1251 1249 1245 1240 1235 1235 1234 1233 1230 1225 1219 1213 1205 1197 1187 1180 1172 1162 1161 1160 1159 1159 1155 1151 1140 1124 1116 1110 1109 1106 1106 1093 1075 1065 1059 1053 1047 1046 1045 1041 1035 1032 1028 1016 1007 999 997 997 982 965 951 933 919 913 912 912 912
905 0 0 983 986 1001 1023 1039 1054 1071 1082 1095 1110 1129 1149 1167 1184 1188 1204 1217 1227 1236 1246 1255 1266 1274 1282 1289 1295 1303 1311 1315 1322 1330 1336 1343 1349 1354 1359 1364 1371 1377 1384 1390 1393 1396 1399 1401 1405 1407 1411 1414 1417 1419 1420 1424 1424 1424 1422 0 0 0 1186 1186 0 0 0 1416 1443 1455 1465 1470 1471 1471 1471 1471 1471 1471 1472 1473 1473 1473 1470 1464 1444 1433 1399 1390 1389 1389 1389 1427 1449 1449 1449 1433 1402 1361 0 0 0 0 0 0 0 0 0 0 0 0 0 0 0 0 0 0 1478 1490 1514 1521 1521 1521 1493 1464 1421 1374 1374 1374 0 0 0 0 0 0 0 0 2626 2732 2732 2732 2701 2685 2586 0 0 0 0 0 0 0 0 0 0 0 0 0 2506 2644 2677 2712 2749 2749 2749 2744 2722 2675 2663 0 0 0 0 0 0 0 0 0 0 0 0 0 0 0 0 0 0 0 0 0 0 0 0 0 1215 1251 1251 1251 1223 1223 1223 0 0 0 0 0 0 1734 1756 1764 1771 1774 1776 1777 1782 1782 1783 1783 1785 1788 1789 1791 1791 1791 1792 1793 1794 1795 1796 1798 1799 1801 1803 1805 1806 1808 1809 1810 1811 1811 1813 1814 1815 1816 1818 1818 1820 1821 1823 1824 1825 1825 1826 1828 1829 1830 1831 1831 1832 1833 1833 1834 1834 1835 1836 1836 1836 1836 1837 1837 1837 1837 1837 1836 1836 1836 1836 1837 1837 1837 1837 1835 1835 0 0 0 0 0 0 2438 2450 2464 2482 2491 2493 2501 2508 2518 2529 2534 2537 2537 2538 2538 2537 2534 2525 2525 2525 2529 2536 2538 2539 2539 2539 2539 2539 2539 2543 2544 2544 2544 2538 2528 2521 2520 2520 2520 2520 2520 2520 2513 2507 2502 2501 2500 2499 2496 2491 2489 2487 2484 2482 2480 2478 2477 2477 2474 2469 2465 2464 2463 2462 2460 2456 2452 2447 2446 2445 2445 2442 2437 2433 2429 2423 2419 2414 2410 2405 2404 2402 2398 2389 2378 2370 2360 2350 2344 2343 2341 2339 2339 2331 2326 2307 2301 2300 2299 2289 2268 2235 0 0 0 0 0 0 0 0 0 0 0 0 0 0 0 1537 1536 1536 1531 1531 1531 1532 1532 1532 1528 1524 1520 1515 1514 1514 1510 1510 1510 1509 1509 1509 1508 1506 1503 1501 1498 1494 1490 1486 1481 1477 1477 1477 1473 1468 1462 1454 1444 1440 1440 1440 1436 1436 1432 1429 1429 1429 1444 1450 1450 1451 1451 1451 1464 1467 1467 1467 1462 1454 1450 1447 1447 1439 1437 1436 1436 1434 1432 1412 1402 1401 1400 1377 1364 1359 1359 1359 1357 1356 1356 1356 1358 1363 1368 1378 1386 1391 1395 1398 1398 1398 1400 1403 1403 1403 1398 1390 1390 1390 1397 1397 1398 1399 1400 1400 1400 1400 1400 1407 1407 1407 1404 1400 1400 1400 1404 1407 1407 1407 1402 1397 1394 1394 1393 1384 1379 1379 1379 1381 1382 1382 1382 1381 1378 1374 1372 1372 1372 1372 1371 1370 1367 1364 1361 1357 1355 1350 1343 1340 1339 1338 1335 1331 1326 1321 1320 1319 1318 1312 1308 1304 1300 1296 1295 1295 1292 1290 1285 1280 1278 1274 1270 1263 1256 1256 1256 1256 1256 1254 1251 1249 1245 1240 1235 1234 1234 1233 1228 1224 1217 1213 1205 1197 1187 1174 1163 1158 1158 1158 1158 1158 1153 1147 1133 1121 1116 1116 1112 1109 1107 1091 1074 1065 1059 1058 1057 1057 1054 1049 1042 1038 1030 1016 996 994 993 988 979 964 949 932 905 894 894 893 894
921 921 0 995 1011 1013 1031 1047 1066 1080 1090 1104 1123 1140 1155 1171 1187 1192 1206 1218 1228 1237 1246 1255 1266 1276 1283 1290 1297 1305 1312 1316 1324 1330 1337 1344 1350 1356 1361 1366 1373 1377 1384 1390 1393 1396 1400 1402 1405 1408 1411 1414 1417 1419 1420 1423 1423 1423 1422 0 0 0 1176 1176 0 0 0 1423 1443 1455 1464 1467 1469 1470 1471 1471 1471 1472 1472 1474 1474 1474 1470 1468 1467 1467 1457 1421 1389 1389 1389 1427 1452 1452 1452 1434 1402 1368 0 0 0 0 0 0 0 0 0 0 0 0 0 0 0 0 0 1474 1519 1529 1535 1535 1535 1528 1524 1496 0 0 1364 1364 0 0 0 0 0 0 0 0 2626 2720 2720 2720 2701 2692 2608 0 0 0 0 0 0 0 0 0 0 0 0 0 0 2526 2677 2712 2749 2771 2771 2771 2722 2682 2663 0 0 0 0 0 0 0 0 0 0 0 0 0 0 0 0 0 0 0 0 0 0 0 0 0 1269 1280 1280 1280 1224 1224 0 0 0 0 0 0 0 1753 1776 1778 1778 1780 1780 1785 1787 1788 1789 1789 1789 1790 1790 1791 1791 1791 1792 1792 1793 1794 1795 1796 1797 1799 1802 1803 1804 1807 1808 1809 1811 1811 1812 1813 1814 1816 1817 1818 1819 1820 1822 1823 1824 1825 1826 1828 1829 1830 1831 1831 1832 1833 1834 1834 1834 1836 1836 1836 1837 1837 1837 1837 1837 1837 1837 1837 1837 1836 1837 1837 1837 1837 1837 1838 1839 0 0 0 0 0 0 2464 2468 2481 2499 2504 2512 2514 2517 2525 2533 2541 2543 2547 2548 2549 2549 2549 2540 2539 2539 2539 2549 2551 2551 2551 2544 2544 2544 2548 2554 2554 2554 2553 2548 2542 2536 2528 2526 2526 2524 2524 2523 2515 2507 2501 2499 2498 2497 2496 2492 2489 2487 2484 2482 2480 2477 2477 2476 2471 2469 2465 2464 2464 2463 2460 2456 2453 2449 2447 2446 2446 2442 2440 2436 2430 2424 2419 2412 2407 2404 2403 2401 2398 2391 2381 2374 2365 2354 2351 2350 2349 2347 2339 2332 2320 2307 2305 2304 2299 2289 2262 0 0 0 0 0 0 0 0 0 0 0 0 0 0 0 0 1580 1550 1536 1531 1528 1528 1528 1528 1528 1528 1525 1523 1521 1519 1518 1514 1512 1512 1510 1510 1509 1508 1506 1503 1501 1498 1495 1491 1487 1482 1478 1477 1477 1476 1474 1470 1464 1456 1452 1450 1448 1440 1438 1432 1422 1422 1422 1430 1440 1446 1448 1449 1449 1463 1471 1471 1471 1466 1456 1452 1450 1449 1448 1446 1442 1436 1434 1433 1427 1410 1405 1400 1394 1377 1359 1359 1359 1357 1356 1356 1356 1358 1363 1363 1363 1367 1367 1371 1374 1377 1384 1391 1397 1397 1397 1397 1389 1389 1389 1389 1389 1389 1385 1385 1385 1387 1388 1391 1393 1394 1394 1394 1395 1395 1395 1397 1401 1401 1401 1394 1391 1389 1388 1386 1381 1377 1377 1377 1377 1377 1376 1376 1375 1372 1371 1370 1370 1370 1370 1370 1367 1363 1359 1358 1355 1353 1345 1338 1338 1337 1337 1333 1328 1323 1318 1314 1312 1312 1309 1306 1302 1297 1292 1288 1286 1285 1284 1281 1277 1274 1272 1268 1262 1255 1254 1254 1253 1253 1249 1249 1248 1245 1239 1234 1234 1234 1232 1228 1222 1215 1210 1204 1191 1177 1163 1157 1155 1155 1154 1154 1152 1144 1133 1103 1103 1103 1109 1109 1109 1107 1091 1070 1065 1060 1060 1060 1060 1060 1054 1052 1039 1030 1014 993 981 981 980 972 962 946 920 901 894 894 893 894
921 921 980 1005 1023 1026 1040 1055 1071 1085 1098 1114 1133 1150 1162 1179 1194 1206 1211 1221 1230 1239 1247 1256 1267 1279 1287 1293 1298 1306 1316 1321 1326 1331 1337 1344 1350 1356 1362 1367 1373 1378 1384 1388 1393 1396 1400 1402 1405 1409 1411 1414 1417 1419 1420 1423 1423 1423 1418 0 0 0 1176 1176 0 0 0 1424 1447 1456 1463 1466 1468 1469 1471 1471 1472 1472 1473 1475 1475 1475 1473 1473 1473 1472 1460 1437 1422 1422 1422 1427 1452 1452 1452 1441 1413 1402 0 0 0 0 0 0 0 0 0 0 0 0 0 0 0 0 1507 1513 1522 1530 1539 1539 1539 1529 1524 1513 0 0 0 0 0 0 0 0 0 0 0 0 0 2586 2668 2692 2692 2668 2608 0 0 0 0 0 0 0 0 0 0 0 0 0 0 0 2578 2712 2749 2771 2771 2771 2722 2685 2643 0 0 0 0 0 0 0 0 0 0 0 0 0 0 0 0 0 0 0 0 0 0 0 0 0 1307 1307 1301 1280 1225 0 0 0 0 0 0 0 1754 1768 1778 1782 1782 1783 1783 1785 1788 1790 1790 1790 1790 1791 1792 1792 1792 1792 1792 1792 1792 1793 1794 1795 1796 1797 1798 1800 1803 1804 1807 1809 1810 1811 1811 1813 1814 1816 1817 1818 1819 1820 1820 1822 1824 1825 1826 1828 1829 1830 1831 1832 1833 1834 1834 1835 1836 1836 1837 1837 1837 1837 1838 1838 1838 1838 1837 1837 1837 1836 1837 1837 1836 1836 1837 1845 0 0 0 0 0 0 2470 2475 2483 2498 2512 2516 2521 2522 2527 2529 2535 2541 2547 2552 2557 2557 2557 2556 2547 2547 2547 2557 2569 2569 2569 2564 2560 2560 2560 2560 2563 2563 2563 2558 2555 2550 2544 2537 2532 2529 2529 2529 2525 2517 2508 2501 2499 2497 2497 2496 2493 2490 2487 2484 2481 2480 2477 2477 2476 2471 2469 2466 2465 2465 2463 2460 2456 2454 2452 2450 2448 2447 2444 2442 2436 2430 2424 2418 2412 2407 2402 2402 2401 2398 2394 2387 2378 2370 2363 2361 2359 2358 2353 2339 2332 2320 2312 2307 2305 2304 2289 2262 0 0 0 0 0 0 0 0 0 0 0 0 0 0 0 0 1580 1550 1536 1527 1525 1524 1525 1525 1525 1525 1525 1523 1521 1519 1519 1518 1513 1513 1513 1512 1509 1508 1506 1502 1501 1498 1496 1492 1487 1483 1479 1478 1478 1476 1474 1471 1466 1461 1456 1454 1450 1444 1438 1431 1422 1422 1422 1429 1431 1439 1444 1445 1449 1458 1471 1471 1471 1466 1457 1452 1450 1449 1449 1448 1442 1436 1434 1433 1430 1416 1408 1405 1396 1389 1385 1374 1371 1360 1356 1356 1356 1358 1363 1363 1363 1359 1359 1359 1359 1362 1367 1375 1387 1389 1389 1389 1387 1387 1386 1384 1381 1379 1374 1373 1373 1373 1373 1374 1378 1378 1383 1386 1386 1387 1389 1389 1389 1389 1388 1383 1381 1380 1379 1379 1377 1374 1374 1374 1374 1374 1373 1372 1371 1369 1366 1366 1366 1364 1364 1363 1359 1358 1355 1355 1351 1347 1342 1336 1335 1335 1334 1329 1326 1323 1318 1314 1310 1307 1307 1305 1301 1296 1289 1284 1280 1279 1279 1276 1273 1269 1267 1267 1260 1255 1254 1253 1252 1248 1246 1245 1245 1244 1239 1233 1233 1232 1232 1222 1219 1209 1201 1188 1177 1165 1156 1156 1153 1152 1151 1148 1142 1135 1122 1103 1103 1103 1106 1107 1107 1107 1091 1070 1061 1060 1060 1060 1060 1060 1054 1052 1039 1030 1009 975 968 968 967 966 960 941 920 901 893 893 893 893
935 935 982 1005 1030 1032 1047 1060 1076 1088 1100 1118 1136 1152 1168 1185 1198 1209 1213 1223 1232 1240 1248 1258 1272 1283 1290 1295 1301 1307 1316 1322 1327 1333 1337 1344 1350 1356 1362 1367 1373 1378 1383 1387 1392 1396 1400 1402 1405 1409 1412 1414 1417 1419 1420 1420 1420 1418 1413 0 0 0 1176 1176 0 0 0 0 1450 1461 1463 1466 1467 1469 1470 1471 1472 1473 1474 1475 1475 1475 1475 1475 1473 1472 1460 1437 1422 1422 1422 1442 1459 1459 1459 1459 1437 0 0 0 0 0 0 0 0 0 0 0 0 0 0 0 0 0 1519 1530 1534 1535 1539 1539 1539 1536 1526 1518 1501 0 0 0 0 0 0 0 0 0 0 0 0 0 0 2537 2608 2608 0 0 0 0 0 0 0 0 0 0 0 0 0 0 0 0 0 2670 2740 2771 2771 2771 2700 2675 2518 0 0 0 0 0 0 0 0 2719 2719 2719 2568 0 0 0 0 0 0 0 0 0 0 0 0 0 1350 1341 1304 1280 0 0 0 0 0 0 0 1743 1758 1768 1778 1782 1783 1783 1787 1788 1789 1790 1790 1791 1791 1792 1792 1792 1792 1792 1792 1792 1792 1793 1794 1794 1795 1796 1798 1800 1802 1803 1806 1807 1809 1809 1811 1812 1813 1815 1816 1817 1818 1819 1820 1822 1823 1825 1826 1828 1829 1830 1831 1832 1833 1834 1834 1835 1836 1836 1837 1837 1837 1838 1838 1839 1840 1840 1840 1840 1840 1839 1837 1836 1836 1836 1836 0 0 0 0 0 0 0 2487 2488 2500 2516 2527 2527 2529 2532 2535 2538 2540 2542 2548 2557 2565 2565 2565 2565 2557 2557 2557 2567 2577 2582 2582 2582 2577 2574 2574 2574 2574 2574 2569 2562 2561 2558 2553 2547 2541 2537 2535 2533 2527 2520 2510 2502 2499 2497 2496 2496 2493 2490 2487 2485 2481 2480 2477 2477 2476 2471 2469 2466 2466 2465 2463 2461 2458 2457 2455 2452 2450 2448 2445 2442 2436 2430 2423 2417 2412 2407 2402 2401 2401 2398 2394 2387 2381 2374 2368 2366 2364 2361 2355 2343 2332 2320 2320 2318 2316 2315 2292 2262 0 0 0 0 0 0 0 0 0 0 0 0 0 0 0 0 1580 1550 1532 1525 1525 1524 1522 1522 1522 1523 1523 1523 1521 1519 1519 1518 1515 1514 1513 1513 1509 1505 1503 1500 1499 1497 1496 1493 1489 1486 1484 1482 1478 1476 1474 1472 1468 1464 1461 1457 1451 1444 1438 1431 1425 1425 1425 1426 1426 1429 1429 1430 1442 1451 1466 1466 1466 1466 1457 1454 1450 1449 1449 1449 1442 1436 1434 1433 1430 1423 1410 1409 1399 1394 1386 1386 1384 1378 1367 1358 1358 1358 1363 1363 1363 1359 1359 1359 1359 1362 1362 1362 1362 1362 1360 1360 1360 1369 1369 1369 1366 1360 1350 1350 1350 1362 1367 1368 1369 1369 1374 1376 1377 1380 1381 1381 1381 1380 1379 1376 1371 1371 1371 1371 1371 1371 1371 1371 1369 1369 1369 1369 1367 1365 1363 1362 1361 1361 1361 1351 1351 1350 1348 1348 1347 1342 1339 1335 1332 1331 1329 1327 1325 1322 1317 1314 1310 1307 1305 1304 1300 1295 1280 1274 1273 1273 1272 1270 1267 1263 1261 1260 1258 1252 1252 1252 1249 1245 1244 1244 1243 1240 1235 1232 1230 1229 1225 1217 1214 1207 1201 1188 1170 1157 1154 1151 1150 1150 1144 1137 1132 1124 1112 1100 1095 1095 1095 1095 1094 1086 1067 1059 1056 1056 1056 1060 1060 1060 1054 1052 1039 1017 1005 975 945 945 945 945 945 937 920 894 893 893 893 893
970 970 990 1012 1030 1038 1052 1065 1078 1089 1103 1120 1137 1152 1168 1186 1200 1210 1215 1223 1232 1242 1251 1264 1274 1284 1291 1298 1303 1310 1316 1322 1328 1333 1339 1344 1349 1355 1362 1367 1373 1378 1383 1387 1392 1395 1400 1403 1406 1409 1412 1415 1416 1419 1419 1419 1419 1418 1411 0 0 0 1176 1176 0 0 0 0 1456 1463 1464 1465 1467 1468 1470 1471 1472 1473 1474 1475 1475 1476 1476 1476 1473 1472 1460 1437 1422 1422 1422 1442 1459 1467 1481 1486 1489 0 0 0 0 0 0 0 0 0 0 0 0 0 0 0 0 0 1519 1530 1532 1535 1535 1537 1537 1537 1532 1518 1505 0 0 0 0 0 0 0 0 0 0 0 0 0 0 0 0 0 0 0 0 0 0 0 0 0 0 0 0 0 0 0 0 0 0 2558 2730 2758 2758 2758 2671 2654 0 0 0 0 0 0 0 0 2530 2722 2810 2833 2833 2833 2833 2767 0 0 0 0 0 0 0 0 0 1390 1372 1357 1339 0 0 0 0 0 0 0 1725 1747 1759 1771 1778 1783 1785 1787 1789 1790 1791 1790 1791 1791 1791 1792 1792 1792 1792 1792 1792 1792 1792 1792 1794 1794 1795 1796 1798 1799 1801 1802 1804 1806 1807 1809 1810 1811 1812 1814 1815 1816 1818 1819 1820 1822 1823 1825 1826 1828 1829 1830 1831 1832 1833 1834 1834 1835 1836 1836 1837 1837 1838 1838 1839 1839 1840 1840 1840 1840 1840 1840 1840 1840 1838 1838 0 0 0 0 0 0 0 2487 2498 2508 2523 2533 2538 2543 2543 2544 2546 2548 2549 2551 2552 2560 2568 2574 2574 2574 2564 2564 2564 2577 2586 2592 2597 2597 2597 2590 2588 2586 2586 2584 2573 2570 2568 2565 2562 2554 2549 2544 2539 2538 2532 2523 2515 2508 2504 2498 2495 2495 2493 2491 2488 2485 2481 2480 2480 2480 2479 2476 2471 2468 2466 2466 2464 2462 2460 2459 2456 2453 2450 2448 2445 2442 2435 2429 2423 2417 2412 2407 2402 2401 2400 2397 2394 2390 2383 2376 2370 2366 2365 2364 2362 2355 2345 2336 2334 2332 2332 2324 2303 2264 0 0 0 0 0 0 0 0 0 0 0 0 0 0 0 0 1558 1528 1522 1521 1520 1518 1518 1518 1518 1518 1519 1519 1518 1518 1518 1518 1515 1514 1513 1509 1507 1505 1503 1500 1498 1497 1496 1494 1491 1490 1487 1484 1479 1477 1475 1472 1470 1468 1466 1462 1452 1445 1438 1432 1425 1425 1425 1425 1425 1425 1425 1425 1430 1442 1451 1461 1461 1461 1456 1454 1450 1449 1449 1448 1442 1436 1434 1433 1432 1429 1422 1411 1405 1398 1398 1398 1395 1390 1385 1379 1365 1365 1365 1363 1363 1361 1359 1359 1359 1362 1362 1362 1362 1362 1351 1347 1347 1345 1345 1345 1341 1340 1340 1340 1345 1348 1358 1367 1367 1369 1373 1374 1374 1375 1375 1376 1376 1376 1368 1365 1365 1365 1365 1365 1365 1365 1365 1365 1365 1365 1365 1365 1364 1361 1360 1360 1359 1358 1355 1350 1350 1348 1348 1348 1346 1342 1338 1333 1330 1329 1326 1324 1323 1321 1317 1313 1308 1306 1304 1303 1299 1292 1280 1274 1273 1272 1270 1267 1264 1260 1257 1256 1254 1252 1251 1250 1246 1243 1242 1242 1240 1237 1232 1228 1227 1224 1220 1217 1211 1207 1201 1188 1170 1157 1152 1144 1143 1142 1141 1137 1132 1120 1108 1103 1096 1096 1095 1094 1087 1074 1061 1053 1048 1048 1048 1051 1052 1052 1052 1052 1039 1017 1001 968 938 937 937 937 935 935 916 893 893 893 893 893
971 971 996 1018 1035 1050 1052 1072 1085 1094 1105 1121 1137 1153 1168 1187 1201 1210 1218 1223 1232 1242 1251 1264 1274 1284 1291 1298 1303 1310 1316 1322 1328 1333 1339 1345 1349 1355 1361 1367 1373 1378 1383 1387 1392 1395 1400 1403 1406 1409 1412 1415 1416 1419 1419 1419 1419 1418 1411 0 0 0 1177 1177 0 0 0 0 1460 1464 1464 1464 1466 1468 1469 1470 1472 1473 1474 1475 1475 1476 1476 1476 1468 1467 1443 1417 1413 1413 1413 1442 1459 1468 1485 1522 0 0 0 0 0 0 0 0 0 0 0 0 0 0 0 0 0 0 0 1525 1525 1535 1535 1537 1537 1537 1532 1518 1515 0 0 0 1148 1143 1138 1130 1130 1126 0 0 0 0 0 0 0 0 0 0 0 0 0 0 0 0 0 0 0 0 0 0 0 0 0 0 2679 2735 2735 2735 2664 2512 0 0 0 0 0 0 0 0 2512 2722 2818 2837 2839 2856 2856 2856 2835 2790 2654 0 0 0 0 0 1415 1411 1407 1390 1384 0 0 0 0 0 0 0 1733 1752 1764 1771 1778 1783 1786 1788 1791 1791 1791 1791 1791 1791 1791 1792 1793 1793 1793 1793 1792 1792 1792 1792 1794 1794 1795 1796 1798 1799 1800 1802 1803 1805 1807 1808 1809 1810 1811 1812 1814 1815 1817 1818 1820 1821 1823 1825 1826 1828 1829 1830 1831 1832 1833 1834 1834 1835 1836 1836 1837 1837 1838 1838 1839 1839 1840 1840 1840 1840 1840 1840 1840 1840 1840 0 0 0 0 0 0 0 2487 2505 2522 2535 2541 2550 2555 2558 2560 2561 2561 2561 2559 2559 2559 2565 2572 2576 2576 2576 2572 2572 2572 2587 2596 2599 2601 2604 2604 2604 2599 2598 2597 2591 2581 2574 2573 2568 2566 2560 2553 2547 2545 2542 2536 2527 2520 2515 2510 2502 2495 2494 2493 2492 2489 2485 2482 2482 2481 2480 2480 2477 2474 2469 2467 2466 2464 2462 2462 2461 2458 2453 2451 2448 2445 2438 2433 2428 2423 2417 2412 2407 2402 2401 2400 2397 2394 2391 2383 2376 2370 2370 2370 2369 2369 2369 2361 2349 2347 2343 2343 2331 2303 0 0 0 0 0 0 0 0 0 0 0 0 0 0 0 0 0 1530 1515 1515 1513 1512 1512 1512 1512 1512 1513 1513 1513 1513 1513 1515 1515 1515 1514 1510 1504 1504 1502 1502 1500 1498 1497 1496 1494 1491 1490 1487 1484 1480 1477 1475 1473 1473 1472 1472 1465 1460 1454 1448 1439 1434 1431 1430 1429 1427 1425 1424 1424 1424 1429 1437 1445 1451 1452 1452 1452 1450 1447 1444 1442 1437 1436 1434 1434 1433 1429 1423 1419 1416 1415 1414 1411 1406 1401 1393 1386 1372 1370 1370 1367 1367 1364 1362 1362 1362 1362 1362 1362 1362 1362 1351 1342 1337 1337 1337 1337 1337 1338 1338 1340 1342 1345 1347 1347 1359 1367 1372 1373 1373 1373 1372 1368 1363 1358 1356 1356 1356 1359 1362 1362 1362 1362 1362 1362 1362 1362 1360 1360 1356 1356 1356 1356 1356 1355 1354 1350 1348 1348 1347 1346 1345 1342 1336 1329 1327 1325 1324 1322 1320 1319 1317 1313 1308 1305 1304 1303 1297 1288 1280 1274 1273 1272 1269 1267 1261 1255 1253 1252 1251 1250 1248 1247 1244 1241 1241 1240 1237 1235 1229 1225 1221 1219 1217 1214 1211 1207 1204 1196 1170 1157 1152 1142 1141 1140 1140 1137 1131 1120 1108 1103 1097 1095 1092 1085 1076 1066 1061 1050 1045 1045 1045 1046 1052 1052 1052 1052 1039 1017 998 952 938 937 937 937 935 935 916 890 879 879 877 877
981 981 1002 1023 1039 1055 1057 1072 1090 1100 1110 1122 1138 1153 1169 1189 1202 1211 1219 1224 1232 1242 1251 1264 1274 1284 1291 1298 1303 1310 1315 1321 1328 1333 1339 1345 1349 1355 1361 1367 1373 1378 1383 1388 1392 1395 1400 1403 1406 1409 1413 1415 1416 1418 1419 1419 1419 1418 1410 0 0 0 0 1197 0 0 0 0 1461 1463 1464 1464 1466 1468 1468 1470 1471 1473 1474 1475 1476 1477 1477 1477 1460 1460 1430 1391 1391 1391 1413 1437 1447 1468 1502 0 0 0 0 0 0 0 0 0 0 0 0 0 0 0 0 0 0 0 0 0 1521 1524 1530 1530 1530 1530 1530 1515 1494 0 0 0 1126 1126 1126 1126 1126 1126 1098 0 0 0 0 0 0 0 0 0 0 0 0 0 0 0 0 0 0 0 0 0 0 0 0 0 2566 2687 2687 2687 2608 0 0 0 0 0 0 0 0 0 2512 2728 2834 2846 2847 2856 2893 2893 2893 2879 2769 2530 0 0 0 0 1424 1423 1423 1423 1425 0 0 0 0 0 0 1734 1756 1762 1768 1776 1782 1784 1787 1788 1791 1791 1791 1791 1791 1791 1792 1793 1794 1794 1794 1793 1793 1793 1793 1793 1794 1794 1796 1796 1798 1798 1800 1801 1802 1804 1805 1807 1808 1809 1811 1812 1814 1815 1816 1818 1819 1821 1823 1825 1826 1828 1829 1830 1831 1832 1833 1834 1834 1835 1836 1836 1837 1837 1838 1839 1839 1839 1839 1838 1837 1837 1837 1837 1840 1840 1840 0 0 0 0 0 0 2487 2500 2522 2542 2552 2557 2563 2569 2569 2569 2569 2568 2567 2567 2567 2567 2571 2576 2578 2578 2578 2578 2578 2583 2598 2605 2606 2607 2610 2610 2610 2605 2604 2602 2596 2588 2581 2575 2571 2568 2561 2553 2547 2545 2544 2539 2531 2524 2521 2515 2504 2495 2494 2493 2493 2491 2488 2485 2483 2483 2482 2481 2478 2474 2470 2468 2466 2464 2464 2464 2463 2460 2455 2451 2448 2445 2438 2432 2428 2423 2420 2413 2408 2403 2403 2400 2397 2394 2391 2384 2377 2371 2371 2371 2377 2377 2377 2375 2365 2357 2353 2343 2331 2303 0 0 0 0 0 0 0 0 0 0 0 0 0 0 0 0 1555 1530 1513 1513 1513 1511 1511 1506 1504 1504 1504 1504 1504 1505 1505 1505 1505 1505 1503 1502 1502 1502 1502 1501 1499 1498 1496 1496 1494 1491 1490 1487 1484 1480 1479 1477 1474 1473 1473 1473 1465 1461 1455 1454 1453 1452 1448 1438 1430 1427 1425 1424 1421 1421 1421 1422 1428 1434 1439 1447 1447 1447 1445 1437 1437 1436 1435 1434 1434 1433 1429 1423 1420 1417 1415 1414 1413 1412 1410 1404 1397 1389 1381 1378 1376 1375 1375 1370 1370 1370 1370 1370 1369 1365 1363 1351 1342 1337 1337 1337 1337 1337 1338 1338 1340 1342 1344 1344 1347 1351 1351 1355 1359 1371 1371 1371 1362 1356 1350 1350 1350 1352 1356 1356 1356 1356 1356 1356 1356 1356 1356 1356 1353 1350 1349 1349 1349 1351 1351 1351 1349 1347 1345 1343 1342 1341 1340 1336 1323 1320 1319 1319 1319 1318 1315 1312 1310 1307 1304 1301 1299 1293 1286 1280 1277 1275 1272 1269 1267 1257 1253 1249 1248 1247 1247 1245 1242 1241 1240 1238 1237 1237 1234 1229 1225 1220 1216 1214 1210 1210 1207 1205 1196 1172 1165 1152 1142 1141 1140 1140 1134 1130 1119 1108 1103 1097 1095 1092 1077 1069 1066 1056 1046 1043 1043 1043 1045 1052 1052 1052 1052 1039 1020 993 954 940 937 937 937 935 923 908 884 879 865 860 860
988 988 1007 1026 1041 1060 1063 1079 1091 1101 1115 1126 1140 1155 1169 1189 1202 1212 1220 1225 1232 1242 1251 1260 1270 1281 1288 1294 1301 1308 1315 1321 1329 1333 1340 1345 1350 1355 1361 1367 1373 1378 1384 1388 1393 1396 1400 1403 1407 1409 1412 1415 1417 1418 1419 1419 1419 1418 1409 0 0 0 0 0 0 0 0 0 1461 1463 1463 1464 1465 1468 1468 1469 1471 1473 1474 1476 1478 1478 1478 1476 1452 1415 1414 1374 1374 1374 1413 1434 1447 1466 0 0 0 0 0 0 0 0 0 0 0 0 0 0 0 0 0 0 0 0 0 0 0 0 1499 1499 1499 1499 1508 1508 0 0 0 0 1099 1099 1126 1127 1127 1127 1098 1092 0 0 0 0 0 0 0 0 0 0 0 0 0 0 0 0 0 0 0 0 0 0 0 0 0 2659 2659 2659 0 0 0 0 0 0 0 0 0 0 2512 2760 2834 2846 2848 2862 2893 2893 2893 2879 2769 2548 0 0 0 0 1435 1435 1435 1439 1446 0 0 0 0 0 0 1760 1771 1772 1777 1780 1783 1784 1787 1788 1790 1791 1791 1791 1791 1792 1793 1794 1794 1794 1794 1794 1794 1794 1794 1794 1794 1795 1796 1797 1798 1798 1799 1801 1802 1803 1804 1806 1807 1809 1810 1811 1813 1815 1816 1817 1819 1821 1823 1825 1826 1828 1829 1830 1831 1832 1833 1834 1835 1835 1836 1836 1837 1837 1838 1839 1839 1839 1839 1837 1837 1836 1836 1835 1835 1840 0 0 0 0 0 0 2480 2507 2519 2536 2553 2557 2564 2571 2576 2576 2576 2574 2573 2571 2571 2571 2575 2579 2582 2582 2582 2579 2579 2579 2587 2607 2612 2614 2614 2614 2613 2613 2609 2607 2605 2601 2593 2585 2580 2576 2570 2562 2554 2550 2548 2548 2544 2538 2529 2525 2517 2509 2500 2496 2496 2495 2495 2493 2490 2487 2485 2483 2481 2479 2474 2471 2470 2469 2466 2466 2466 2466 2463 2457 2451 2448 2445 2438 2432 2428 2423 2420 2413 2409 2406 2403 2400 2397 2394 2391 2385 2377 2372 2372 2372 2377 2381 2381 2381 2373 2365 2353 2343 2331 2298 0 0 0 0 0 0 0 0 0 0 0 0 0 0 0 1585 1555 1530 1513 1513 1510 1509 1509 1503 1500 1497 1497 1497 1499 1500 1500 1501 1501 1501 1499 1499 1499 1501 1501 1501 1498 1495 1494 1494 1493 1491 1488 1484 1481 1480 1479 1477 1474 1473 1473 1473 1465 1461 1456 1456 1456 1455 1453 1447 1437 1429 1427 1424 1422 1417 1416 1416 1416 1416 1420 1436 1441 1441 1441 1436 1436 1435 1435 1434 1434 1433 1428 1423 1420 1417 1415 1414 1413 1412 1410 1404 1400 1395 1395 1395 1392 1392 1392 1387 1387 1387 1387 1387 1381 1380 1375 1360 1342 1337 1337 1337 1338 1338 1342 1342 1343 1344 1344 1345 1347 1351 1351 1352 1352 1355 1355 1355 1352 1346 1346 1346 1347 1351 1353 1353 1353 1351 1351 1350 1350 1350 1350 1350 1350 1348 1346 1346 1346 1346 1348 1348 1348 1342 1335 1334 1333 1330 1325 1319 1314 1314 1314 1314 1314 1314 1312 1309 1305 1303 1300 1297 1294 1289 1284 1280 1277 1275 1272 1268 1267 1257 1253 1248 1247 1246 1243 1241 1239 1239 1239 1237 1236 1236 1234 1229 1225 1220 1214 1211 1210 1208 1206 1206 1200 1193 1180 1166 1148 1141 1140 1126 1125 1124 1119 1109 1106 1097 1095 1092 1077 1068 1065 1056 1046 1038 1038 1038 1045 1057 1057 1057 1055 1043 1020 993 954 954 950 942 942 941 923 908 884 879 865 857 857
996 996 1011 1027 1043 1065 1080 1083 1097 1107 1116 1131 1144 1158 1172 1190 1206 1215 1222 1226 1233 1242 1251 1260 1270 1278 1284 1292 1300 1308 1315 1321 1329 1334 1340 1345 1351 1356 1363 1368 1373 1378 1384 1388 1393 1396 1401 1404 1407 1410 1412 1415 1417 1418 1419 1419 1419 1418 1395 0 0 0 0 0 0 0 0 0 1461 1461 1462 1463 1465 1468 1468 1469 1471 1473 1474 1476 1478 1478 1478 1470 1436 1392 1390 1374 1374 1374 1420 1434 1447 0 0 0 0 0 0 0 0 0 0 0 0 0 0 0 0 0 0 0 0 0 0 0 0 0 1448 1448 1448 1451 1470 1470 0 0 0 0 1083 1109 1126 1140 1140 1140 1104 1092 1092 1092 0 0 0 0 0 0 0 0 0 0 0 0 0 0 0 0 0 0 0 0 0 0 0 0 0 0 0 0 0 0 0 0 0 0 0 0 2672 2780 2838 2846 2848 2861 2862 2877 2877 2877 2769 2548 0 0 0 0 1437 1437 1437 1443 1470 0 0 0 0 0 1761 1772 1774 1776 1778 1781 1783 1784 1786 1787 1789 1790 1791 1791 1791 1792 1793 1794 1794 1795 1795 1795 1795 1795 1795 1795 1795 1796 1796 1797 1798 1798 1799 1800 1801 1802 1803 1804 1807 1808 1810 1811 1813 1814 1816 1817 1819 1820 1823 1824 1826 1828 1828 1830 1831 1832 1833 1834 1835 1835 1836 1836 1837 1837 1838 1840 1840 1840 1839 1837 1836 1835 1835 1835 1840 0 0 0 0 0 0 0 2507 2527 2537 2546 2556 2559 2569 2574 2580 2580 2580 2580 2578 2578 2578 2580 2584 2586 2586 2586 2586 2583 2583 2583 2592 2613 2617 2617 2617 2616 2616 2613 2609 2609 2608 2608 2598 2591 2586 2584 2577 2568 2559 2554 2552 2551 2546 2540 2532 2527 2521 2514 2505 2501 2501 2501 2501 2501 2500 2494 2489 2484 2481 2479 2476 2475 2472 2472 2469 2468 2467 2467 2463 2458 2452 2449 2446 2438 2431 2427 2423 2420 2413 2409 2407 2403 2400 2397 2394 2391 2386 2379 2375 2375 2375 2377 2381 2381 2381 2373 2365 2353 2343 2323 0 0 0 0 0 0 0 0 0 0 0 0 0 0 0 1620 1585 1551 1539 1524 1510 1506 1503 1503 1498 1498 1496 1494 1494 1494 1497 1498 1498 1498 1495 1495 1495 1496 1496 1496 1494 1493 1492 1492 1492 1492 1488 1484 1481 1480 1480 1479 1477 1474 1473 1473 1471 1464 1461 1460 1459 1459 1459 1456 1451 1445 1441 1439 1435 1427 1419 1416 1416 1415 1415 1415 1417 1425 1433 1435 1435 1435 1435 1435 1432 1425 1423 1422 1420 1419 1416 1413 1413 1412 1412 1410 1405 1402 1398 1396 1396 1396 1398 1400 1400 1400 1398 1395 1394 1391 1389 1380 1376 1363 1360 1359 1359 1359 1358 1357 1356 1353 1345 1345 1345 1347 1349 1349 1349 1349 1348 1347 1344 1342 1342 1342 1346 1347 1347 1349 1349 1349 1349 1347 1347 1346 1346 1346 1347 1347 1347 1345 1344 1343 1343 1343 1343 1340 1334 1329 1327 1324 1319 1315 1313 1312 1311 1309 1309 1309 1309 1309 1309 1304 1300 1296 1294 1292 1288 1284 1280 1277 1275 1272 1268 1265 1257 1253 1248 1246 1244 1241 1236 1236 1236 1236 1236 1236 1235 1233 1229 1226 1220 1214 1210 1209 1208 1207 1207 1200 1196 1189 1175 1157 1145 1141 1126 1125 1124 1120 1113 1110 1104 1102 1085 1075 1064 1057 1048 1037 1027 1027 1027 1045 1064 1067 1067 1067 1051 1021 986 952 952 950 942 942 941 923 908 884 883 865 857 857
1003 1003 1014 1031 1048 1069 1084 1088 1102 1113 1122 1131 1145 1161 1176 1195 1208 1218 1226 1232 1236 1244 1252 1260 1270 1278 1284 1292 1300 1308 1315 1322 1329 1334 1341 1346 1351 1357 1364 1368 1373 1378 1384 1388 1393 1396 1401 1404 1408 1410 1413 1415 1417 1418 1419 1419 1419 1409 1386 0 0 0 0 0 0 0 0 1442 1461 1461 1462 1463 1465 1468 1468 1468 1470 1473 1474 1476 1478 1478 1478 1464 1420 1363 1360 1360 1360 1381 1426 1435 1447 0 0 0 0 0 0 2092 2096 2097 2098 2100 2100 2100 0 0 0 0 0 0 0 0 0 0 0 0 0 1420 1420 1420 1461 0 0 0 0 0 1105 1120 1129 1141 1141 1141 1117 1092 1092 1092 1108 1109 1109 1108 1085 1085 0 0 0 0 0 0 0 0 0 0 1068 1067 1068 0 0 0 0 0 0 0 0 0 0 0 0 0 0 0 0 0 2672 2780 2838 2857 2857 2857 2857 2855 2798 2777 2718 0 0 0 0 0 1438 1438 1438 1460 0 0 0 0 0 1748 1769 1776 1778 1779 1781 1781 1782 1784 1786 1787 1788 1790 1790 1791 1791 1792 1793 1794 1794 1795 1795 1795 1795 1795 1795 1795 1796 1797 1797 1797 1798 1798 1799 1800 1801 1802 1803 1804 1805 1807 1809 1811 1812 1813 1815 1817 1818 1820 1822 1824 1825 1826 1828 1830 1831 1832 1833 1834 1835 1835 1836 1836 1837 1837 1838 1840 1841 1841 1841 1836 1834 1834 1834 1835 0 0 0 0 0 0 0 0 2526 2548 2556 2556 2556 2566 2574 2579 2583 2583 2584 2583 2583 2584 2588 2588 2588 2589 2589 2589 2589 2589 2591 2591 2600 2615 2619 2619 2619 2617 2616 2613 2611 2610 2610 2609 2603 2593 2591 2589 2584 2574 2564 2559 2556 2553 2546 2541 2536 2533 2529 2519 2512 2506 2504 2504 2504 2504 2504 2502 2493 2488 2484 2480 2479 2478 2477 2477 2474 2470 2468 2467 2464 2458 2452 2449 2447 2439 2431 2427 2423 2418 2413 2410 2408 2403 2401 2399 2395 2391 2389 2383 2377 2377 2377 2379 2381 2381 2381 2373 2367 2353 2330 0 0 0 0 0 0 0 0 0 0 0 0 0 0 0 0 1598 1575 1551 1541 1529 1514 1505 1500 1498 1498 1498 1496 1494 1494 1494 1496 1496 1496 1496 1494 1492 1492 1491 1488 1487 1486 1486 1486 1486 1486 1486 1486 1482 1480 1479 1478 1477 1474 1472 1472 1471 1468 1464 1461 1461 1461 1460 1459 1456 1453 1451 1449 1447 1443 1437 1429 1422 1416 1415 1415 1415 1417 1418 1422 1427 1427 1431 1431 1431 1422 1422 1422 1419 1419 1419 1413 1412 1411 1410 1408 1405 1405 1404 1402 1398 1398 1398 1400 1401 1402 1402 1402 1401 1396 1392 1391 1390 1389 1387 1385 1380 1367 1367 1365 1363 1363 1363 1354 1354 1352 1351 1350 1350 1349 1348 1347 1346 1344 1342 1342 1342 1342 1342 1339 1339 1339 1344 1344 1344 1341 1341 1341 1341 1341 1342 1342 1342 1341 1340 1340 1339 1339 1336 1330 1328 1321 1316 1314 1311 1311 1310 1309 1308 1308 1308 1308 1308 1307 1302 1299 1296 1292 1290 1286 1284 1280 1276 1273 1271 1268 1265 1258 1253 1248 1246 1242 1235 1232 1232 1232 1232 1234 1234 1234 1233 1229 1226 1220 1214 1210 1210 1209 1207 1207 1200 1196 1189 1176 1161 1150 1142 1126 1125 1124 1120 1118 1116 1107 1102 1085 1074 1060 1049 1028 1018 1018 1018 1027 1045 1064 1067 1067 1067 1056 1021 981 948 948 948 948 948 941 921 899 895 893 882 862 862
1008 1008 1022 1039 1055 1073 1093 1095 1108 1117 1127 1136 1148 1161 1176 1195 1208 1220 1232 1242 1247 1253 1258 1263 1271 1278 1284 1291 1300 1308 1318 1325 1333 1339 1343 1347 1351 1359 1364 1368 1373 1378 1383 1388 1392 1396 1401 1404 1408 1411 1413 1415 1417 1418 1419 1419 1419 1406 1385 0 0 0 0 0 0 0 1397 1442 1459 1460 1462 1463 1465 1468 1468 1468 1470 1472 1474 1476 1476 1476 1472 0 0 1344 1344 1344 1355 1409 1434 1437 1466 0 0 0 0 0 2089 2099 2101 2107 2107 2107 2105 2100 2088 0 0 0 0 0 0 0 0 0 0 0 0 0 0 0 0 0 0 0 0 0 1109 1120 1129 1141 1148 1148 1148 1146 1120 1111 1109 1109 1108 1108 1085 1062 1062 0 0 0 0 0 0 0 0 1067 1067 1065 1062 1062 0 0 0 0 0 0 0 0 0 0 0 0 0 0 0 0 2672 2780 2838 2858 2858 2858 2833 2773 2736 2554 0 0 0 0 0 0 1468 1468 0 0 0 0 0 0 1735 1755 1771 1778 1779 1781 1782 1782 1782 1784 1785 1786 1787 1789 1790 1791 1791 1792 1793 1794 1794 1795 1795 1796 1796 1796 1797 1797 1797 1797 1798 1799 1799 1799 1800 1800 1801 1802 1802 1803 1803 1805 1808 1810 1812 1813 1815 1816 1818 1819 1821 1823 1824 1826 1828 1829 1830 1832 1833 1833 1835 1835 1835 1836 1837 1837 1838 1840 1841 1841 1841 1836 1833 1833 1833 1853 0 0 0 0 0 0 0 2520 2550 2566 2567 2568 2570 2570 2579 2587 2587 2588 2590 2590 2590 2592 2593 2593 2593 2590 2590 2590 2596 2598 2598 2598 2602 2615 2619 2619 2619 2617 2616 2614 2614 2614 2612 2612 2608 2601 2600 2596 2590 2580 2572 2566 2558 2553 2548 2541 2537 2535 2533 2524 2513 2506 2504 2504 2504 2504 2504 2502 2498 2493 2488 2484 2482 2482 2481 2478 2474 2470 2468 2467 2464 2458 2453 2450 2447 2439 2431 2424 2419 2416 2413 2413 2411 2407 2404 2399 2395 2393 2391 2387 2378 2378 2378 2379 2380 2380 2380 2370 2367 2353 0 0 0 0 0 0 0 0 0 0 0 0 0 0 0 0 0 1584 1564 1551 1542 1530 1518 1505 1500 1498 1498 1497 1496 1493 1493 1493 1494 1494 1494 1492 1491 1488 1485 1484 1482 1481 1480 1480 1480 1481 1483 1483 1483 1480 1479 1477 1476 1473 1470 1468 1468 1468 1468 1464 1461 1461 1461 1460 1459 1456 1454 1453 1451 1448 1443 1438 1433 1429 1422 1415 1415 1415 1414 1413 1414 1414 1414 1415 1415 1415 1414 1414 1414 1416 1416 1416 1412 1411 1411 1409 1406 1405 1404 1403 1402 1398 1398 1398 1400 1403 1404 1404 1404 1401 1399 1398 1395 1391 1390 1390 1390 1387 1381 1378 1372 1369 1368 1365 1362 1361 1357 1352 1351 1350 1349 1348 1347 1346 1344 1344 1344 1344 1344 1344 1339 1339 1339 1342 1342 1342 1339 1338 1337 1337 1337 1337 1337 1337 1338 1338 1338 1337 1335 1330 1323 1320 1315 1313 1313 1311 1309 1308 1306 1306 1306 1306 1306 1306 1306 1301 1299 1295 1291 1289 1285 1283 1280 1276 1272 1269 1268 1265 1258 1253 1248 1243 1237 1229 1229 1229 1232 1232 1232 1232 1231 1229 1229 1226 1220 1214 1213 1213 1211 1210 1207 1199 1196 1189 1176 1166 1157 1152 1147 1143 1137 1133 1125 1118 1107 1102 1085 1074 1060 1045 1025 1018 1018 1018 1027 1045 1064 1067 1067 1067 1056 1025 981 949 949 948 939 939 932 921 911 902 899 893 884 884
1018 1018 1034 1048 1061 1074 1093 1096 1108 1119 1129 1140 1149 1162 1176 1195 1208 1222 1234 1242 1249 1254 1261 1265 1271 1278 1284 1290 1299 1309 1318 1327 1335 1340 1344 1349 1354 1360 1364 1368 1373 1377 1383 1387 1391 1395 1400 1404 1408 1411 1414 1416 1418 1418 1418 1418 1418 1404 1380 0 0 0 0 0 0 0 1439 1442 1456 1460 1462 1463 1466 1467 1467 1468 1470 1472 1474 1474 1474 1474 1465 0 0 1336 1336 1336 1382 1411 1435 1458 1475 0 0 0 0 2081 2089 2099 2101 2107 2107 2107 2105 2100 2088 0 0 0 0 0 0 0 0 0 0 0 0 0 0 0 0 0 0 0 0 0 1109 1120 1129 1138 1148 1156 1156 1156 1145 1114 1110 1109 1105 1105 1085 1061 1057 1057 0 0 0 0 0 0 1071 1067 1065 1059 1058 1052 1035 0 0 0 0 0 0 0 0 0 0 0 0 0 0 0 0 2616 2795 2858 2858 2858 2831 2757 2623 0 0 0 0 0 1497 1496 1494 1496 0 0 0 0 0 1728 1749 1769 1779 1780 1780 1782 1783 1784 1784 1784 1785 1786 1787 1788 1789 1790 1790 1792 1792 1793 1794 1795 1796 1796 1797 1797 1797 1797 1798 1799 1799 1799 1799 1800 1800 1800 1801 1802 1802 1802 1803 1805 1806 1809 1811 1812 1813 1816 1817 1819 1821 1822 1824 1826 1827 1828 1830 1831 1832 1833 1834 1835 1835 1836 1837 1837 1838 1840 1841 1841 1841 1836 1833 1833 1833 0 0 0 0 0 0 0 2486 2528 2561 2576 2577 2577 2578 2578 2584 2592 2598 2598 2598 2597 2597 2596 2596 2594 2593 2591 2591 2591 2598 2600 2602 2604 2608 2615 2619 2619 2619 2618 2617 2615 2615 2615 2614 2614 2610 2605 2602 2600 2596 2589 2582 2571 2560 2554 2548 2541 2538 2535 2533 2524 2513 2506 2500 2500 2500 2502 2502 2502 2498 2495 2493 2492 2492 2489 2484 2479 2474 2470 2468 2467 2466 2463 2457 2453 2447 2439 2431 2422 2416 2413 2413 2412 2411 2410 2408 2401 2397 2394 2393 2387 2380 2380 2380 2380 2380 2380 2378 2370 2367 2353 0 0 0 0 0 0 0 0 0 0 0 0 0 0 0 0 0 1575 1556 1549 1542 1531 1518 1506 1500 1498 1498 1496 1496 1493 1493 1493 1493 1493 1493 1492 1490 1486 1481 1478 1474 1473 1471 1471 1470 1470 1470 1472 1474 1474 1474 1474 1474 1471 1469 1468 1468 1466 1465 1463 1461 1461 1461 1460 1459 1456 1456 1454 1451 1448 1443 1438 1437 1437 1435 1430 1421 1418 1418 1417 1411 1408 1408 1408 1408 1408 1408 1411 1411 1411 1410 1407 1405 1405 1403 1398 1398 1398 1400 1400 1400 1398 1398 1398 1400 1403 1404 1404 1404 1401 1399 1398 1396 1394 1391 1391 1391 1389 1385 1384 1383 1370 1369 1366 1363 1362 1358 1353 1351 1351 1350 1350 1348 1346 1346 1346 1346 1346 1346 1343 1339 1339 1338 1337 1338 1338 1338 1337 1337 1337 1337 1337 1337 1337 1338 1338 1338 1336 1332 1326 1322 1320 1315 1313 1313 1311 1309 1307 1303 1303 1303 1305 1305 1305 1305 1301 1299 1295 1290 1287 1285 1283 1280 1274 1270 1266 1264 1260 1258 1253 1251 1243 1237 1229 1229 1229 1229 1230 1231 1230 1229 1229 1224 1223 1219 1214 1213 1213 1210 1210 1207 1196 1187 1184 1176 1170 1160 1154 1150 1146 1137 1133 1125 1118 1107 1090 1085 1078 1060 1045 1025 1022 1022 1022 1033 1045 1059 1061 1061 1059 1056 1025 981 960 954 948 939 923 909 896 896 896 896 893 885 885
1031 1031 1047 1061 1070 1079 1094 1105 1108 1119 1132 1141 1152 1163 1176 1192 1208 1222 1234 1242 1249 1254 1261 1265 1271 1278 1284 1291 1300 1309 1320 1328 1337 1343 1347 1351 1355 1360 1364 1368 1373 1377 1382 1387 1391 1395 1399 1404 1408 1411 1414 1416 1418 1418 1418 1418 1416 1403 1380 0 0 0 0 0 0 0 1439 1442 1456 1460 1463 1464 1466 1466 1466 1468 1470 1472 1474 1474 1474 1467 1447 1415 1350 1350 1350 1391 1392 1411 1437 1463 1495 0 0 0 0 2081 2089 2099 2101 2101 2101 2100 2096 2094 2088 0 0 0 0 0 0 0 0 0 0 0 0 0 0 0 0 0 0 0 0 0 1109 1119 1129 1138 1148 1156 1156 1156 1145 1114 1110 1105 1103 1102 1079 1054 1054 1054 1057 1083 1093 1093 1093 1082 1071 1067 1059 1058 1058 1055 1033 1026 0 0 0 0 0 0 0 0 0 0 0 0 0 0 0 2515 2762 2847 2847 2847 2820 2745 2528 0 0 0 0 1506 1506 1518 1534 1554 0 0 0 0 0 1746 1766 1778 1779 1781 1782 1784 1784 1784 1784 1784 1785 1786 1787 1788 1789 1789 1790 1791 1792 1792 1794 1795 1796 1796 1798 1798 1798 1798 1799 1799 1800 1800 1800 1800 1801 1801 1801 1802 1802 1802 1803 1805 1806 1809 1810 1812 1813 1815 1817 1818 1820 1822 1823 1825 1827 1828 1829 1829 1832 1832 1832 1834 1835 1836 1837 1837 1838 1839 1839 1839 1839 1833 1833 1833 1840 0 0 0 0 0 0 2482 2513 2548 2572 2581 2581 2583 2587 2588 2590 2597 2603 2604 2604 2604 2601 2599 2596 2594 2591 2591 2591 2594 2598 2601 2603 2606 2610 2613 2617 2618 2618 2618 2618 2618 2616 2616 2615 2614 2611 2608 2607 2605 2603 2600 2589 2580 2567 2558 2549 2543 2539 2535 2533 2524 2513 2506 2500 2500 2500 2502 2502 2502 2498 2497 2496 2496 2495 2494 2486 2480 2475 2469 2466 2466 2466 2465 2463 2455 2447 2439 2428 2420 2413 2413 2412 2411 2411 2410 2408 2404 2399 2395 2393 2391 2385 2385 2385 2385 2385 2385 2378 2370 2368 2355 0 0 0 0 0 0 0 0 0 0 0 0 0 0 0 0 0 1574 1552 1549 1542 1531 1518 1505 1500 1499 1499 1498 1494 1493 1492 1492 1492 1492 1492 1492 1485 1481 1480 1477 1474 1470 1470 1469 1469 1467 1465 1463 1462 1463 1465 1468 1468 1468 1468 1467 1467 1465 1464 1462 1461 1461 1460 1460 1459 1456 1456 1455 1452 1448 1443 1439 1438 1437 1435 1432 1429 1427 1422 1418 1411 1408 1408 1408 1408 1408 1408 1410 1410 1410 1403 1400 1397 1395 1392 1392 1392 1392 1392 1392 1391 1391 1391 1394 1398 1403 1403 1403 1401 1399 1399 1398 1396 1394 1391 1391 1391 1389 1388 1388 1385 1382 1370 1369 1366 1364 1364 1356 1354 1354 1354 1356 1356 1356 1356 1355 1352 1348 1346 1343 1340 1339 1338 1337 1338 1338 1338 1337 1337 1337 1337 1337 1337 1337 1338 1338 1338 1336 1332 1326 1322 1320 1315 1313 1313 1312 1309 1307 1303 1303 1303 1303 1303 1303 1302 1301 1299 1295 1290 1286 1283 1280 1276 1271 1267 1263 1259 1256 1255 1252 1248 1243 1237 1231 1231 1231 1231 1231 1231 1229 1229 1229 1224 1221 1218 1214 1213 1213 1210 1210 1205 1189 1182 1177 1176 1170 1164 1158 1151 1148 1143 1137 1125 1115 1097 1090 1085 1078 1069 1045 1028 1028 1028 1030 1039 1044 1045 1046 1053 1046 1046 1025 996 991 988 980 954 923 892 867 867 867 885 885 885 885
1043 1043 1057 1068 1077 1086 1095 1106 1112 1119 1134 1143 1154 1165 1177 1192 1208 1222 1234 1242 1249 1254 1261 1266 1272 1278 1285 1291 1300 1310 1321 1331 1339 1344 1349 1352 1356 1360 1364 1368 1373 1377 1381 1387 1391 1395 1399 1404 1408 1411 1414 1416 1418 1418 1418 1418 1416 1404 0 0 0 0 0 0 0 0 1439 1443 1456 1460 1463 1464 1465 1466 1466 1468 1470 1471 1473 1473 1473 1456 1434 1398 1350 1350 1350 1394 1395 1414 1438 1466 0 0 0 0 2075 2085 2089 2089 2089 2088 2088 2087 2086 2081 2075 0 0 0 0 0 0 0 0 0 0 0 0 0 0 0 0 0 0 0 0 0 1091 1116 1129 1138 1164 1164 1164 1164 1145 1114 1110 1109 1100 1100 1085 1054 1054 1054 1057 1083 1093 1093 1093 1082 1071 1065 1059 1058 1058 1055 1033 1006 1006 0 0 0 0 0 0 0 0 0 0 0 0 0 0 2515 2762 2798 2810 2810 2798 2630 0 0 0 0 1491 1491 1491 1521 1540 1570 0 0 0 0 1735 1761 1777 1782 1782 1782 1782 1784 1784 1785 1785 1785 1786 1786 1787 1788 1788 1788 1790 1791 1791 1792 1794 1794 1796 1796 1798 1798 1799 1799 1800 1801 1801 1801 1801 1801 1801 1801 1802 1802 1802 1802 1804 1805 1806 1808 1810 1810 1813 1815 1816 1817 1819 1821 1823 1824 1826 1826 1827 1829 1829 1831 1831 1833 1833 1834 1836 1837 1838 1839 1839 1839 1836 1828 1828 1828 0 0 0 0 0 0 2458 2501 2534 2561 2573 2582 2584 2587 2592 2595 2597 2598 2603 2604 2604 2604 2604 2601 2595 2593 2593 2593 2600 2600 2602 2602 2603 2606 2610 2613 2617 2619 2619 2619 2619 2618 2617 2616 2615 2615 2611 2611 2611 2609 2609 2607 2600 2591 2577 2567 2557 2547 2539 2535 2531 2520 2513 2506 2500 2500 2500 2500 2500 2497 2497 2497 2497 2497 2497 2496 2488 2481 2475 2469 2466 2466 2465 2464 2464 2455 2445 2434 2423 2417 2413 2412 2411 2411 2411 2410 2408 2405 2401 2396 2393 2391 2391 2391 2391 2391 2391 2385 2378 2373 2368 2355 0 0 0 0 0 0 0 0 0 0 0 0 0 0 0 0 0 1569 1548 1544 1542 1531 1518 1505 1500 1500 1499 1498 1494 1493 1490 1488 1488 1487 1487 1487 1479 1476 1476 1476 1474 1470 1467 1465 1464 1463 1460 1460 1460 1460 1462 1462 1464 1466 1466 1466 1463 1463 1463 1461 1460 1458 1458 1457 1457 1456 1456 1455 1452 1448 1444 1441 1439 1437 1435 1432 1431 1430 1427 1423 1417 1408 1408 1408 1406 1405 1405 1404 1403 1403 1398 1397 1397 1395 1392 1392 1392 1392 1392 1391 1388 1388 1388 1394 1394 1396 1399 1399 1399 1399 1398 1396 1396 1394 1393 1392 1391 1390 1390 1389 1389 1389 1385 1383 1378 1376 1375 1369 1358 1358 1358 1358 1360 1360 1360 1357 1353 1350 1347 1343 1340 1339 1338 1337 1338 1338 1338 1339 1339 1339 1339 1339 1339 1339 1339 1339 1338 1336 1332 1326 1323 1320 1320 1318 1315 1314 1311 1307 1303 1303 1303 1303 1303 1303 1302 1302 1300 1295 1290 1286 1283 1280 1276 1271 1267 1263 1259 1256 1254 1251 1248 1245 1241 1234 1234 1233 1233 1232 1229 1229 1229 1228 1224 1221 1218 1213 1208 1207 1207 1206 1198 1189 1182 1177 1176 1171 1167 1163 1156 1148 1143 1137 1125 1114 1097 1092 1091 1090 1081 1058 1037 1037 1037 1041 1045 1045 1045 1044 1022 1021 1019 1015 996 991 988 980 958 923 884 866 866 866 885 885 885 885
1054 1054 1066 1077 1085 1092 1100 1109 1112 1123 1135 1147 1159 1169 1179 1192 1208 1222 1233 1242 1249 1254 1261 1267 1271 1278 1285 1292 1300 1310 1322 1331 1339 1344 1349 1352 1356 1360 1364 1369 1373 1377 1381 1386 1391 1395 1399 1403 1408 1411 1414 1416 1416 1418 1418 1416 1415 1404 0 0 0 0 0 0 0 0 1439 1452 1457 1460 1464 1465 1466 1466 1466 1467 1469 1470 1470 1470 1461 1450 1429 1392 1363 1363 1363 1395 1396 1414 1438 0 0 0 0 0 2076 2085 2089 2089 2089 2082 2071 2071 2064 2049 0 0 0 0 0 0 0 0 0 0 0 0 0 0 0 0 0 0 0 0 0 0 1076 1112 1129 1152 1167 1167 1167 1164 1145 1114 1110 1110 1098 1098 1093 1054 1054 1054 1059 1094 1094 1094 1093 1082 1069 1061 1057 1057 1056 1052 1035 1006 1006 0 0 0 0 0 0 0 0 0 0 0 0 0 0 2515 2762 2762 2762 2748 2732 0 0 0 0 0 1493 1493 1493 1522 1558 1591 0 0 0 1741 1761 1772 1782 1782 1782 1782 1782 1783 1784 1785 1785 1785 1786 1786 1787 1788 1788 1788 1789 1790 1791 1792 1794 1794 1796 1796 1798 1798 1799 1800 1801 1801 1801 1802 1803 1803 1803 1803 1803 1803 1804 1804 1806 1806 1806 1808 1809 1810 1811 1814 1815 1817 1819 1820 1822 1823 1824 1825 1826 1827 1828 1830 1831 1832 1833 1834 1836 1837 1837 1839 1839 1839 1835 1835 1835 0 0 0 0 0 0 2445 2483 2519 2547 2566 2576 2582 2585 2589 2593 2598 2598 2600 2602 2604 2604 2604 2604 2601 2595 2595 2595 2598 2607 2607 2607 2606 2606 2606 2610 2613 2617 2620 2620 2620 2620 2620 2618 2618 2617 2615 2613 2613 2611 2611 2610 2610 2607 2601 2594 2578 2565 2551 2539 2530 2523 2517 2512 2512 2512 2510 2510 2504 2501 2497 2497 2497 2497 2497 2497 2496 2490 2485 2479 2469 2466 2466 2465 2464 2464 2455 2443 2427 2419 2416 2413 2413 2411 2411 2410 2410 2408 2405 2401 2396 2393 2391 2391 2391 2391 2391 2391 2386 2382 2373 2368 2355 0 0 0 0 0 0 0 0 0 0 0 0 0 0 0 0 0 1551 1538 1535 1533 1523 1510 1506 1500 1500 1500 1498 1494 1493 1488 1485 1482 1481 1481 1480 1477 1476 1476 1476 1473 1470 1467 1465 1464 1463 1460 1457 1456 1455 1452 1452 1452 1456 1456 1456 1458 1458 1456 1456 1456 1451 1451 1451 1456 1456 1456 1455 1451 1448 1444 1441 1440 1437 1435 1432 1431 1431 1430 1426 1423 1421 1418 1416 1409 1405 1401 1401 1399 1399 1398 1397 1397 1395 1392 1392 1392 1392 1392 1391 1388 1388 1388 1394 1394 1396 1397 1397 1397 1397 1397 1395 1395 1394 1394 1392 1391 1390 1390 1390 1390 1390 1387 1385 1381 1377 1377 1376 1373 1363 1360 1360 1360 1360 1360 1357 1353 1350 1347 1345 1344 1344 1343 1343 1340 1340 1340 1340 1341 1341 1340 1340 1340 1340 1340 1339 1338 1336 1333 1331 1326 1324 1324 1322 1319 1315 1312 1309 1306 1303 1303 1303 1303 1303 1302 1302 1300 1296 1290 1286 1283 1280 1276 1271 1267 1263 1259 1256 1254 1252 1249 1247 1246 1242 1238 1236 1236 1233 1231 1229 1229 1228 1224 1220 1217 1212 1204 1197 1196 1190 1186 1186 1182 1177 1176 1172 1170 1167 1162 1153 1143 1139 1125 1114 1097 1096 1095 1095 1091 1070 1050 1050 1050 1054 1054 1054 1043 1042 1010 1010 1007 1003 996 991 988 980 959 0 0 848 848 848 885 885 885 885
1059 1059 1071 1082 1092 1100 1109 1117 1119 1129 1141 1153 1164 1174 1183 1195 1208 1223 1233 1242 1249 1254 1261 1266 1271 1279 1285 1294 1301 1310 1322 1331 1339 1344 1349 1352 1356 1360 1364 1369 1373 1377 1380 1385 1390 1395 1398 1401 1405 1409 1412 1415 1415 1415 1415 1415 1414 1401 0 0 0 0 0 0 0 0 1448 1454 1458 1460 1464 1465 1465 1466 1466 1467 1467 1467 1467 1464 1456 1437 1423 1392 1381 1381 1381 1407 1413 1414 0 0 0 0 0 0 2084 2089 2091 2091 2091 2082 2070 2050 2046 0 0 0 0 0 0 0 0 0 0 0 0 0 0 0 0 0 0 0 0 0 0 0 1074 1112 1133 1158 1183 1183 1183 1164 1145 1114 1110 1109 1098 1098 1086 1079 1079 1079 1087 1098 1098 1098 1093 1082 1069 1061 1056 1055 1055 1053 1036 1006 1006 0 0 0 0 0 0 0 0 0 0 0 0 0 0 2678 2791 2791 2791 2742 2620 0 0 0 0 0 0 1466 1493 1527 1571 1601 0 1693 1733 1757 1766 1772 1782 1782 1782 1782 1782 1783 1784 1785 1785 1786 1786 1786 1787 1788 1788 1788 1789 1790 1791 1792 1794 1794 1795 1796 1798 1798 1799 1800 1801 1802 1803 1803 1804 1804 1804 1804 1804 1805 1805 1806 1806 1806 1807 1808 1809 1810 1811 1813 1815 1817 1818 1819 1821 1822 1823 1824 1824 1826 1827 1829 1830 1831 1832 1834 1835 1836 1836 1837 1837 1837 1829 1829 0 0 0 0 0 0 0 2471 2508 2544 2562 2566 2576 2582 2586 2590 2595 2598 2601 2601 2601 2602 2602 2601 2601 2601 2594 2594 2594 2598 2607 2609 2609 2609 2609 2609 2614 2618 2622 2625 2625 2625 2624 2621 2620 2619 2619 2618 2616 2613 2611 2611 2610 2610 2610 2601 2594 2578 2565 2551 2537 2523 2515 2512 2512 2512 2510 2510 2510 2504 2501 2497 2497 2497 2496 2496 2496 2496 2491 2485 2479 2471 2465 2465 2465 2464 2464 2455 2442 2427 2419 2416 2414 2413 2411 2411 2410 2407 2405 2404 2401 2396 2393 2390 2390 2390 2391 2391 2391 2386 2382 2373 2365 2330 0 0 0 0 0 0 0 0 0 0 0 0 0 0 0 0 0 1537 1525 1520 1518 1515 1510 1506 1501 1500 1500 1499 1497 1493 1488 1483 1479 1478 1478 1478 1477 1476 1476 1476 1473 1470 1467 1465 1464 1463 1460 1457 1455 1451 1447 1445 1445 1444 1439 1433 1433 1433 1443 1447 1447 1447 1447 1448 1451 1455 1455 1455 1451 1447 1444 1441 1440 1437 1435 1432 1431 1431 1431 1431 1426 1425 1425 1425 1421 1408 1401 1401 1399 1399 1399 1398 1398 1399 1399 1398 1398 1396 1393 1391 1390 1390 1390 1394 1394 1395 1396 1397 1397 1397 1396 1395 1394 1393 1392 1392 1392 1390 1390 1390 1390 1390 1387 1386 1384 1379 1377 1376 1373 1369 1365 1365 1365 1364 1362 1358 1354 1350 1348 1346 1346 1346 1346 1346 1343 1342 1342 1342 1341 1342 1341 1341 1341 1340 1340 1340 1340 1339 1335 1333 1329 1327 1326 1325 1320 1319 1319 1317 1313 1310 1305 1305 1304 1304 1302 1302 1300 1296 1290 1286 1283 1281 1279 1273 1270 1264 1260 1256 1254 1253 1251 1248 1248 1245 1241 1239 1237 1233 1231 1229 1227 1226 1224 1220 1216 1207 1204 1197 1196 1190 1186 1185 1182 1180 1177 1173 1171 1169 1164 1159 1155 1150 1136 1114 1101 1098 1096 1095 1091 1075 1060 1056 1056 1054 1054 1054 1043 1034 1008 1008 1007 1000 996 989 980 975 964 0 0 845 845 845 868 868 869 869
1065 1065 1077 1089 1099 1107 1115 1124 1132 1136 1146 1157 1169 1180 1191 1201 1213 1223 1233 1243 1250 1256 1261 1266 1272 1279 1286 1294 1301 1310 1322 1331 1338 1344 1349 1352 1356 1360 1364 1369 1373 1377 1380 1384 1389 1393 1396 1400 1404 1408 1411 1413 1414 1414 1415 1414 1414 1401 0 0 0 0 0 0 0 1417 1448 1454 1458 1460 1464 1465 1465 1466 1466 1467 1467 1467 1467 1460 1443 1425 1406 1406 1406 1406 1421 1422 1434 1436 0 0 0 0 0 2084 2095 2096 2096 2096 2091 2082 2068 2046 0 0 0 0 0 0 0 0 0 0 0 0 0 0 0 0 0 0 0 0 0 0 0 0 0 1112 1147 1173 1199 1199 1199 1164 1150 1121 1113 1111 1106 1100 1100 1083 1083 1083 1093 1093 1093 1089 1088 1074 1063 1054 1054 1054 1053 1053 1045 1045 1045 0 0 0 0 0 0 0 0 0 0 0 0 0 0 2735 2773 2773 2773 2637 0 0 0 0 0 0 0 0 0 0 0 0 1676 1720 1749 1758 1769 1775 1782 1782 1782 1782 1782 1783 1783 1784 1785 1786 1786 1786 1787 1787 1788 1788 1789 1790 1791 1792 1794 1794 1795 1796 1798 1798 1799 1801 1801 1802 1803 1804 1804 1804 1804 1805 1805 1806 1806 1806 1806 1806 1807 1808 1809 1810 1811 1813 1814 1815 1817 1818 1820 1821 1822 1823 1823 1824 1825 1826 1828 1830 1832 1834 1834 1834 1833 1831 1827 1822 1822 1822 0 0 0 0 0 0 2481 2503 2531 2555 2562 2566 2576 2582 2587 2592 2595 2600 2600 2600 2599 2595 2595 2595 2595 2595 2594 2594 2594 2598 2607 2610 2610 2610 2610 2610 2614 2620 2623 2629 2629 2629 2624 2621 2620 2619 2619 2618 2616 2613 2606 2606 2606 2606 2606 2601 2594 2578 2565 2551 2530 2515 2508 2505 2505 2505 2510 2510 2510 2504 2500 2498 2495 2495 2495 2496 2496 2496 2491 2485 2479 2471 2466 2466 2465 2464 2459 2451 2441 2427 2419 2416 2415 2414 2412 2411 2410 2407 2406 2404 2401 2397 2393 2389 2389 2389 2390 2390 2390 2386 2382 2373 2354 2300 0 0 0 0 0 0 0 0 0 0 0 0 0 0 0 0 1537 1529 1524 1519 1516 1515 1510 1507 1504 1502 1502 1501 1499 1493 1487 1483 1479 1478 1478 1478 1477 1477 1476 1475 1473 1470 1467 1467 1466 1464 1462 1458 1455 1451 1446 1444 1441 1437 1433 1432 1432 1432 1441 1447 1447 1447 1447 1448 1449 1452 1452 1452 1451 1446 1444 1441 1440 1436 1434 1432 1432 1431 1431 1431 1427 1427 1426 1425 1424 1416 1406 1401 1400 1400 1399 1399 1399 1399 1399 1399 1399 1401 1403 1403 1403 1402 1402 1401 1400 1397 1397 1397 1397 1397 1397 1395 1394 1393 1392 1392 1392 1390 1390 1390 1390 1390 1387 1386 1384 1379 1377 1376 1373 1369 1369 1369 1367 1367 1367 1358 1354 1350 1348 1346 1346 1346 1347 1347 1347 1345 1343 1343 1343 1344 1344 1344 1343 1342 1341 1341 1341 1339 1337 1334 1330 1327 1327 1326 1325 1324 1324 1323 1318 1314 1311 1309 1307 1304 1302 1302 1300 1296 1291 1287 1284 1282 1281 1278 1275 1269 1263 1260 1257 1254 1252 1251 1248 1245 1242 1240 1237 1233 1231 1228 1224 1221 1218 1215 1212 1207 1204 1197 1196 1190 1186 1183 1182 1182 1180 1178 1171 1169 1164 1159 1155 1150 1140 1127 1110 1099 1098 1095 1091 1080 1064 1056 1056 1054 1054 1054 1043 1022 1004 1004 1001 1000 996 989 980 975 964 0 0 845 826 826 826 857 861 861
1070 1070 1083 1097 1106 1116 1124 1131 1138 1142 1149 1159 1173 1186 1196 1206 1215 1225 1234 1244 1250 1256 1261 1266 1272 1279 1286 1294 1301 1310 1321 1330 1336 1342 1347 1352 1355 1360 1363 1368 1373 1376 1380 1383 1387 1391 1395 1398 1402 1406 1410 1411 1414 1414 1414 1414 1414 1401 0 0 0 0 0 0 1370 1417 1448 1454 1458 1460 1464 1465 1465 1465 1466 1466 1466 1466 1463 1455 1432 1403 1388 1388 1388 1407 1422 1442 1461 0 0 0 0 0 0 2088 2095 2096 2096 2096 2091 2081 2067 0 0 0 0 0 0 0 0 0 0 0 0 0 0 0 0 0 0 0 0 0 0 0 0 0 0 0 0 0 0 0 0 0 0 1150 1135 1126 1117 1113 1107 1094 1094 1094 1099 1099 1099 1089 1059 1046 1046 1046 1050 1053 1056 1074 1074 1074 1074 0 0 0 0 0 0 0 0 0 0 0 0 0 0 2804 2804 2804 2747 2578 0 0 0 0 0 0 0 0 0 0 0 0 1723 1747 1752 1759 1770 1775 1779 1779 1780 1780 1781 1783 1783 1784 1785 1786 1786 1786 1787 1787 1788 1788 1789 1789 1791 1792 1794 1794 1795 1796 1798 1799 1800 1801 1801 1802 1803 1804 1804 1805 1805 1805 1806 1806 1806 1806 1806 1806 1806 1808 1809 1811 1811 1813 1814 1814 1816 1818 1818 1820 1820 1822 1822 1822 1823 1824 1826 1828 1832 1834 1834 1834 1826 1821 1803 1802 1802 0 0 0 0 0 0 2478 2506 2525 2551 2562 2563 2565 2571 2582 2588 2594 2598 2601 2601 2601 2598 2589 2589 2589 2593 2593 2593 2593 2593 2596 2598 2603 2605 2608 2610 2610 2614 2620 2625 2629 2629 2629 2624 2621 2620 2619 2619 2618 2616 2610 2606 2606 2606 2606 2606 2597 2583 2568 2555 2540 2521 2506 2499 2499 2499 2499 2502 2502 2502 2500 2500 2498 2497 2491 2487 2487 2487 2486 2486 2485 2479 2472 2470 2466 2463 2457 2451 2447 2441 2431 2424 2421 2419 2416 2415 2413 2410 2407 2406 2404 2401 2397 2393 2389 2389 2389 2387 2387 2387 2383 2375 2364 2338 2266 0 0 0 0 0 1390 1390 1390 0 0 0 0 0 0 1568 1548 1534 1528 1523 1518 1515 1514 1510 1509 1505 1502 1502 1501 1499 1493 1487 1483 1479 1478 1478 1478 1478 1477 1476 1474 1472 1469 1469 1468 1467 1464 1462 1459 1455 1451 1446 1443 1441 1437 1433 1432 1432 1432 1441 1444 1447 1447 1447 1447 1447 1447 1449 1449 1449 1446 1442 1438 1435 1432 1430 1430 1430 1431 1431 1431 1427 1427 1427 1427 1427 1418 1406 1402 1401 1400 1400 1400 1400 1399 1399 1399 1399 1401 1403 1404 1404 1406 1406 1406 1404 1399 1399 1399 1398 1398 1398 1395 1395 1393 1392 1392 1391 1389 1389 1388 1387 1387 1387 1386 1384 1379 1377 1375 1372 1369 1369 1369 1367 1367 1367 1360 1356 1352 1348 1348 1348 1348 1348 1348 1348 1346 1345 1345 1345 1346 1346 1346 1345 1343 1342 1341 1341 1339 1339 1334 1330 1329 1329 1326 1325 1324 1324 1323 1318 1317 1313 1310 1307 1304 1303 1301 1299 1296 1292 1287 1286 1284 1284 1283 1281 1274 1268 1263 1258 1255 1254 1252 1249 1246 1243 1240 1237 1233 1230 1228 1224 1221 1218 1215 1211 1206 1205 1204 1202 1196 1192 1183 1183 1182 1181 1179 1175 1169 1164 1160 1155 1150 1140 1127 1118 1105 1098 1090 1089 1080 1065 1054 1048 1031 1030 1025 1020 1006 1003 1003 1000 1000 1000 989 980 975 970 0 0 0 826 826 826 857 869 869
1073 1073 1086 1099 1111 1122 1130 1139 1145 1148 1154 1165 1179 1190 1198 1207 1216 1225 1235 1244 1250 1256 1261 1266 1272 1279 1286 1293 1300 1309 1318 1325 1330 1337 1344 1350 1353 1357 1362 1366 1371 1374 1378 1381 1384 1389 1393 1396 1400 1404 1408 1411 1413 1413 1413 1413 1413 1396 0 0 0 0 0 0 1371 1415 1447 1454 1458 1460 1462 1463 1464 1464 1464 1464 1464 1464 1463 1447 1414 1388 1388 1388 1388 1408 1422 1445 0 0 0 0 0 0 2072 2088 2095 2096 2096 2096 2084 2065 2059 0 0 0 0 0 0 0 0 0 0 0 0 0 0 0 0 0 0 0 0 0 0 0 0 0 0 0 0 0 0 0 0 0 0 0 1154 1132 1117 1113 1113 1113 1120 1120 1120 1111 1099 1089 1059 1046 1046 1046 1050 1061 1086 1091 1091 1091 1091 0 0 0 0 0 0 0 0 0 0 0 0 0 2611 2804 2804 2804 2716 0 0 0 0 0 0 0 0 0 0 0 0 1718 1742 1749 1753 1763 1769 1772 1775 1777 1778 1779 1781 1782 1783 1783 1785 1785 1786 1786 1787 1787 1787 1788 1788 1789 1791 1792 1793 1794 1795 1796 1798 1799 1800 1801 1802 1802 1803 1804 1804 1805 1805 1805 1806 1806 1806 1806 1806 1806 1806 1808 1809 1811 1811 1813 1813 1814 1814 1816 1816 1818 1819 1820 1820 1821 1821 1823 1825 1828 1832 1833 1833 1833 1822 1810 1779 1779 1779 0 0 0 0 0 2463 2491 2523 2547 2563 2564 2564 2565 2571 2582 2593 2599 2605 2607 2607 2607 2595 2583 2583 2583 2592 2592 2592 2592 2592 2592 2593 2603 2603 2606 2609 2609 2614 2620 2625 2629 2629 2629 2624 2619 2618 2618 2616 2616 2613 2609 2606 2606 2606 2606 2606 2597 2583 2568 2549 2531 2509 2494 2493 2493 2493 2497 2497 2497 2498 2498 2497 2497 2497 2490 2485 2485 2485 2485 2485 2485 2479 2473 2470 2466 2462 2456 2451 2447 2440 2433 2431 2426 2424 2421 2418 2417 2413 2412 2410 2409 2408 2397 2393 2389 2385 2385 2385 2385 2382 2379 2366 2350 2321 2246 0 0 0 0 1432 1432 1432 1443 1450 1491 1505 1537 1544 1544 1544 1536 1533 1528 1522 1517 1514 1513 1510 1509 1505 1502 1502 1501 1499 1493 1487 1483 1481 1481 1480 1480 1478 1477 1476 1474 1472 1469 1469 1469 1468 1467 1463 1460 1456 1451 1446 1443 1440 1436 1433 1433 1433 1435 1440 1443 1447 1447 1447 1447 1447 1447 1448 1448 1448 1445 1441 1438 1434 1431 1430 1430 1430 1430 1430 1430 1427 1427 1427 1427 1427 1426 1417 1409 1405 1403 1402 1401 1400 1398 1398 1398 1399 1401 1403 1404 1404 1406 1407 1407 1407 1407 1407 1406 1406 1406 1405 1401 1395 1395 1393 1392 1392 1387 1385 1382 1381 1379 1379 1379 1379 1378 1376 1374 1370 1367 1367 1367 1367 1367 1367 1361 1356 1352 1350 1348 1348 1348 1348 1348 1348 1347 1345 1345 1345 1346 1347 1347 1347 1345 1343 1342 1341 1339 1339 1335 1332 1330 1329 1326 1325 1325 1324 1323 1318 1317 1313 1310 1307 1305 1303 1301 1299 1296 1292 1290 1289 1289 1286 1286 1281 1274 1270 1266 1261 1260 1258 1253 1249 1246 1243 1240 1236 1232 1230 1228 1224 1221 1218 1213 1211 1206 1205 1205 1204 1202 1195 1186 1186 1185 1182 1182 1178 1174 1164 1161 1150 1147 1140 1127 1121 1111 1098 1089 1085 1080 1065 1055 1048 1031 1030 1003 994 988 988 988 998 998 998 989 980 974 970 0 0 0 864 857 857 857 873 873
1073 1073 1087 1101 1112 1127 1138 1149 1155 1161 1164 1173 1184 1192 1200 1208 1216 1226 1235 1244 1250 1256 1261 1265 1273 1280 1286 1293 1300 1308 1317 1324 1330 1336 1342 1348 1353 1356 1361 1365 1369 1374 1378 1381 1384 1389 1393 1396 1400 1404 1407 1410 1411 1413 1413 1413 1411 0 0 0 0 0 0 0 1371 1415 1444 1453 1457 1459 1462 1462 1463 1463 1463 1464 1464 1464 1460 1434 1397 1366 1366 1366 1388 1418 1422 1445 0 0 0 0 0 0 2072 2088 2093 2093 2093 2089 2076 2064 0 0 0 0 0 0 0 0 0 0 0 0 0 0 0 0 0 0 0 0 0 0 0 0 0 0 0 0 0 0 0 0 0 0 0 0 0 1132 1131 1131 1131 1148 1148 1148 1140 1121 1103 1091 1059 1046 1046 1046 1050 1077 1110 1130 1130 1130 1130 1130 0 0 0 0 0 0 0 0 0 0 0 0 2611 2773 2773 2773 2662 0 0 0 0 0 0 0 0 0 0 0 1693 1729 1746 1750 1755 1763 1769 1772 1772 1775 1777 1779 1781 1782 1783 1783 1784 1785 1785 1785 1786 1787 1787 1788 1788 1789 1790 1791 1793 1794 1795 1796 1797 1799 1799 1801 1802 1803 1803 1804 1804 1805 1805 1805 1806 1806 1807 1807 1807 1807 1807 1808 1810 1811 1811 1812 1813 1813 1814 1815 1816 1818 1818 1818 1818 1819 1821 1823 1824 1828 1832 1832 1832 1829 1812 1789 1773 1773 0 0 0 0 0 0 2471 2501 2534 2559 2563 2565 2571 2571 2571 2585 2602 2603 2605 2605 2605 2602 2589 2574 2574 2574 2583 2586 2586 2586 2586 2586 2586 2597 2597 2598 2601 2601 2612 2619 2625 2625 2625 2621 2615 2613 2613 2613 2612 2612 2610 2609 2607 2607 2607 2607 2607 2597 2583 2568 2549 2524 2501 2488 2488 2488 2492 2494 2494 2494 2494 2494 2496 2496 2496 2488 2485 2485 2485 2485 2485 2485 2479 2475 2470 2466 2461 2456 2451 2447 2440 2436 2432 2429 2427 2424 2423 2421 2418 2416 2416 2415 2415 2409 2401 2392 2385 2384 2382 2379 2378 2377 2363 2342 0 0 0 0 0 0 1460 1460 1460 1465 1478 1491 1503 1516 1527 1529 1530 1530 1529 1527 1520 1512 1510 1509 1509 1509 1505 1502 1501 1500 1497 1493 1488 1486 1483 1481 1480 1480 1478 1477 1475 1474 1472 1471 1470 1469 1469 1468 1464 1461 1456 1451 1448 1444 1441 1436 1435 1435 1435 1437 1440 1442 1444 1447 1447 1447 1448 1448 1448 1448 1448 1445 1440 1436 1434 1429 1429 1429 1429 1429 1429 1426 1426 1426 1427 1427 1427 1426 1417 1413 1411 1410 1406 1405 1404 1398 1398 1398 1398 1398 1399 1401 1404 1406 1407 1408 1408 1408 1407 1406 1406 1406 1405 1401 1400 1399 1398 1393 1392 1387 1385 1382 1381 1379 1377 1375 1375 1373 1371 1371 1368 1365 1365 1365 1367 1367 1367 1361 1356 1353 1350 1349 1349 1349 1349 1349 1349 1348 1346 1346 1346 1346 1348 1348 1348 1348 1346 1345 1343 1342 1339 1337 1334 1330 1329 1326 1325 1323 1322 1319 1318 1317 1313 1310 1308 1305 1303 1301 1299 1296 1293 1292 1292 1290 1287 1286 1281 1274 1270 1266 1264 1261 1258 1254 1250 1247 1243 1240 1236 1232 1230 1228 1224 1219 1216 1213 1209 1206 1205 1205 1204 1203 1199 1194 1193 1191 1186 1183 1183 1176 1167 1159 1146 1135 1129 1123 1121 1111 1098 1083 1081 1074 1065 1055 1048 1031 1030 1003 982 982 982 987 990 990 990 989 980 974 970 944 924 916 876 869 869 869 879 879
1073 1073 1087 1104 1119 1133 1150 1159 1166 1171 1175 1181 1189 1197 1203 1209 1216 1226 1236 1243 1250 1256 1261 1265 1273 1280 1287 1293 1300 1308 1317 1323 1330 1336 1342 1347 1352 1356 1360 1365 1369 1374 1378 1381 1384 1389 1393 1396 1400 1404 1407 1408 1410 1412 1412 1412 1410 0 0 0 0 0 0 0 1375 1415 1437 1445 1453 1458 1458 1460 1460 1461 1462 1463 1463 1463 1452 1427 1376 1364 1364 1364 1399 1418 1421 1445 0 0 0 0 0 0 2072 2083 2083 2083 2082 2075 2066 0 0 0 0 0 0 0 0 0 0 0 0 0 0 0 0 0 0 0 0 0 0 0 0 0 0 0 0 0 0 0 0 0 0 0 0 0 0 1141 1141 1141 1150 1175 1175 1175 1159 1134 1114 1103 1083 1061 1061 1061 1061 1093 1128 1149 1149 1149 1149 1149 1203 0 0 0 0 0 0 0 0 0 0 0 2611 2730 2730 2730 2536 0 0 0 0 0 0 0 0 0 0 1696 1721 1739 1748 1750 1756 1763 1770 1772 1772 1774 1776 1779 1780 1781 1782 1782 1783 1783 1784 1785 1786 1786 1786 1787 1788 1789 1790 1791 1792 1793 1795 1795 1797 1799 1799 1801 1802 1802 1803 1803 1804 1805 1805 1805 1805 1806 1807 1807 1807 1807 1808 1808 1810 1811 1811 1812 1812 1813 1814 1814 1815 1816 1817 1817 1818 1819 1821 1823 1824 1827 1832 1832 1832 1825 1801 0 0 0 0 0 0 0 0 2448 2482 2514 2548 2568 2573 2573 2574 2577 2585 2601 2602 2603 2605 2605 2605 2600 2585 2564 2564 2564 2570 2570 2570 2569 2569 2569 2577 2583 2584 2585 2588 2592 2600 2606 2613 2613 2613 2613 2608 2608 2608 2606 2606 2606 2606 2606 2609 2611 2611 2611 2609 2599 2587 2571 2549 2524 2501 2488 2488 2488 2492 2494 2494 2494 2493 2492 2491 2491 2490 2488 2485 2484 2484 2484 2484 2484 2483 2475 2470 2465 2461 2456 2453 2447 2440 2438 2434 2434 2432 2430 2428 2428 2424 2423 2423 2422 2422 2422 2417 2409 2396 2385 2382 2375 2374 2372 2360 2339 0 0 0 0 0 1466 1466 1466 1473 1481 1490 1503 1503 1513 1518 1518 1519 1518 1517 1517 1511 1507 1505 1505 1505 1505 1503 1500 1499 1498 1497 1493 1489 1487 1484 1481 1481 1480 1478 1477 1475 1473 1472 1472 1472 1471 1470 1469 1466 1462 1458 1454 1452 1445 1441 1438 1436 1436 1438 1438 1440 1442 1444 1447 1447 1448 1449 1449 1449 1449 1448 1445 1440 1435 1430 1428 1428 1427 1427 1427 1425 1425 1425 1425 1427 1427 1427 1426 1418 1414 1411 1411 1410 1408 1407 1403 1399 1398 1398 1398 1399 1400 1403 1405 1407 1407 1407 1407 1407 1406 1406 1406 1405 1401 1400 1399 1398 1390 1389 1387 1385 1382 1381 1379 1377 1372 1366 1365 1365 1364 1364 1364 1362 1362 1362 1362 1362 1361 1356 1355 1352 1351 1351 1351 1351 1351 1351 1350 1348 1346 1346 1346 1348 1348 1348 1348 1346 1345 1343 1342 1339 1337 1334 1330 1327 1325 1323 1323 1320 1319 1318 1316 1313 1310 1308 1306 1304 1303 1302 1299 1296 1293 1292 1290 1287 1286 1281 1273 1270 1266 1264 1262 1259 1255 1250 1247 1243 1241 1236 1232 1230 1228 1224 1219 1216 1212 1207 1203 1203 1203 1203 1203 1200 1196 1194 1191 1186 1183 1183 1176 1167 1159 1143 1124 1121 1119 1117 1111 1098 1083 1077 1072 1064 1055 1053 1043 1038 1003 982 982 982 986 988 989 989 989 969 968 964 944 932 917 883 869 869 869 879 879
1073 1073 1087 1104 1122 1141 1156 1169 1176 1180 1183 1188 1195 1201 1207 1213 1219 1226 1236 1243 1250 1256 1262 1265 1273 1281 1289 1295 1301 1308 1317 1323 1329 1334 1341 1347 1352 1356 1360 1365 1369 1374 1380 1383 1387 1391 1395 1398 1403 1405 1407 1408 1409 1411 1411 1411 1408 0 0 0 0 0 0 0 1379 1422 1436 1441 1449 1452 1454 1458 1459 1460 1462 1462 1462 1458 1445 1409 1366 1366 1366 1392 1418 1418 1425 1449 0 0 0 0 0 2047 2070 2073 2073 2073 0 0 0 0 0 0 0 0 0 0 0 0 0 0 0 0 0 0 0 0 0 0 0 0 0 0 0 0 0 0 0 0 0 0 0 0 0 0 0 0 0 1152 1152 1152 1155 1189 1189 1189 1171 1142 1129 1123 1116 1100 1087 1087 1087 1094 1128 1157 1157 1157 1157 1157 1203 1203 0 0 0 0 0 0 0 0 0 0 0 2650 2650 2650 0 0 0 0 0 0 0 0 0 0 1692 1719 1736 1746 1750 1750 1756 1764 1770 1772 1772 1773 1775 1778 1780 1781 1781 1782 1782 1782 1784 1784 1785 1786 1786 1787 1787 1789 1790 1791 1792 1793 1794 1795 1797 1799 1799 1800 1801 1802 1802 1803 1803 1804 1805 1805 1805 1805 1806 1807 1807 1807 1808 1809 1810 1811 1811 1812 1812 1813 1814 1814 1815 1815 1815 1816 1818 1819 1822 1823 1824 1826 1826 1826 1826 0 0 0 0 0 0 0 0 0 2412 2448 2485 2520 2548 2568 2574 2582 2588 2598 2599 2601 2602 2603 2603 2603 2601 2590 2559 2534 2525 2523 2520 2520 2525 2545 2545 2546 2546 2561 2565 2567 2568 2572 2578 2583 2591 2603 2608 2608 2608 2608 2606 2606 2606 2606 2606 2606 2611 2613 2613 2613 2610 2600 2592 2579 2554 2524 2501 2488 2488 2488 2492 2494 2494 2494 2493 2491 2491 2490 2490 2488 2485 2484 2484 2484 2484 2484 2483 2481 2470 2463 2459 2456 2456 2452 2447 2447 2444 2442 2439 2436 2436 2433 2430 2426 2424 2424 2422 2422 2417 2410 2405 2397 2386 2375 2370 2358 2346 0 0 0 0 0 0 1490 1490 1490 1497 1498 1505 1506 1508 1508 1512 1512 1512 1511 1510 1510 1507 1507 1505 1505 1505 1505 1503 1500 1499 1498 1497 1493 1490 1487 1484 1482 1481 1479 1478 1477 1474 1472 1472 1472 1472 1471 1471 1469 1466 1464 1461 1458 1456 1456 1455 1450 1445 1439 1439 1439 1441 1442 1444 1447 1449 1450 1451 1452 1452 1452 1451 1447 1441 1435 1430 1426 1420 1420 1418 1417 1417 1417 1420 1423 1424 1424 1424 1423 1418 1415 1414 1413 1413 1412 1411 1410 1401 1401 1401 1400 1400 1400 1403 1404 1406 1406 1406 1406 1404 1402 1401 1400 1399 1399 1399 1399 1398 1390 1389 1389 1388 1387 1381 1379 1377 1371 1359 1359 1359 1362 1362 1362 1361 1361 1361 1361 1361 1359 1356 1355 1355 1355 1353 1351 1351 1351 1351 1351 1350 1348 1348 1348 1348 1348 1348 1348 1346 1345 1343 1342 1339 1337 1334 1330 1326 1324 1322 1321 1320 1319 1318 1316 1313 1310 1309 1308 1307 1306 1304 1302 1297 1293 1292 1290 1287 1284 1278 1273 1270 1267 1264 1262 1259 1256 1251 1247 1243 1242 1239 1235 1230 1224 1219 1217 1211 1208 1202 1200 1200 1200 1200 1200 1200 1196 1194 1191 1186 1183 1183 1176 1167 1153 1129 1112 1112 1111 1111 1111 1094 1080 1076 1071 1062 1059 1058 1057 1053 1003 987 986 984 986 986 986 984 974 943 943 942 941 935 919 889 870 870 870 876 876
1070 1070 1085 1104 1122 1145 1163 1174 1180 1188 1190 1194 1200 1206 1210 1217 1223 1229 1236 1243 1250 1256 1262 1270 1275 1283 1291 1296 1302 1310 1317 1323 1329 1334 1340 1346 1352 1356 1360 1365 1370 1375 1381 1385 1388 1392 1395 1398 1403 1405 1406 1408 1409 1409 1409 1407 1391 0 0 0 0 0 0 0 1393 1424 1436 1441 1445 1450 1453 1454 1456 1460 1460 1460 1460 1457 1443 1388 1388 1388 1390 1423 1423 1427 1436 1449 0 0 0 0 0 2047 2066 2066 2066 0 0 0 0 0 0 0 0 0 0 0 0 0 0 0 0 0 0 0 0 0 0 0 0 0 0 0 0 0 0 0 0 0 0 0 0 0 0 0 0 0 0 1158 1155 1155 1155 1189 1189 1189 1173 1156 1143 1141 1139 1133 1110 1097 1097 1097 1128 1171 1173 1173 1202 1202 1196 1196 0 0 0 0 0 0 0 0 0 0 0 0 0 0 0 0 0 0 0 0 0 0 0 0 1700 1727 1743 1749 1752 1754 1759 1766 1770 1771 1772 1773 1775 1777 1780 1780 1781 1782 1782 1782 1783 1784 1784 1785 1786 1786 1787 1788 1790 1791 1792 1793 1794 1795 1797 1798 1799 1799 1801 1802 1802 1802 1803 1804 1804 1804 1805 1805 1806 1806 1807 1807 1808 1809 1810 1811 1811 1812 1812 1813 1814 1814 1814 1814 1815 1815 1816 1818 1822 1822 1823 1823 1823 1821 1810 0 0 0 0 0 0 0 0 2390 2412 2448 2485 2520 2548 2568 2574 2582 2588 2598 2598 2598 2597 2596 2593 2591 2584 2564 2513 0 0 0 0 0 0 0 0 0 0 0 2511 2534 2540 2541 2545 2552 2570 2589 2605 2606 2606 2608 2606 2606 2606 2606 2606 2606 2611 2613 2613 2613 2610 2603 2595 2582 2562 2534 2506 2493 2492 2492 2492 2495 2495 2495 2493 2491 2491 2490 2490 2488 2486 2483 2482 2480 2480 2480 2480 2480 2471 2463 2458 2457 2456 2456 2455 2454 2452 2449 2445 2441 2440 2436 2431 2428 2425 2424 2422 2422 2417 2410 2405 2397 2386 2374 2355 2337 2324 0 0 0 0 0 0 1493 1493 1510 1513 1513 1513 1511 1507 1507 1507 1511 1511 1511 1510 1507 1507 1507 1505 1505 1505 1505 1503 1500 1499 1498 1498 1496 1492 1489 1485 1483 1480 1478 1477 1476 1474 1472 1472 1472 1472 1471 1471 1469 1466 1464 1462 1460 1460 1460 1460 1458 1451 1443 1442 1442 1442 1445 1445 1447 1449 1451 1451 1452 1452 1452 1452 1452 1445 1435 1430 1426 1420 1419 1414 1412 1411 1411 1411 1415 1416 1418 1418 1418 1417 1414 1414 1414 1417 1417 1417 1414 1407 1407 1405 1402 1400 1400 1400 1401 1403 1403 1402 1401 1400 1398 1398 1398 1395 1391 1387 1387 1387 1389 1389 1389 1388 1387 1381 1378 1376 1365 1359 1357 1357 1357 1358 1358 1358 1357 1356 1356 1355 1355 1355 1355 1355 1355 1353 1351 1351 1351 1351 1351 1350 1350 1348 1348 1348 1348 1348 1348 1346 1345 1343 1342 1339 1336 1333 1330 1326 1321 1320 1320 1320 1320 1319 1316 1313 1312 1311 1311 1310 1309 1305 1302 1297 1294 1291 1287 1284 1280 1277 1273 1270 1267 1264 1262 1259 1256 1252 1248 1243 1242 1239 1235 1230 1223 1219 1214 1211 1205 1202 1200 1200 1200 1200 1200 1200 1196 1194 1190 1182 1176 1172 1159 1155 1144 1126 1108 1107 1100 1095 1095 1087 1077 1073 1068 1065 1061 1061 1060 1060 1012 1001 990 987 986 986 986 983 968 942 942 940 938 936 919 893 877 869 869 869 869
1058 1058 1077 1102 1122 1145 1163 1174 1181 1190 1195 1198 1202 1208 1213 1219 1225 1232 1238 1244 1251 1256 1264 1271 1276 1285 1293 1299 1305 1312 1319 1324 1330 1334 1340 1346 1352 1358 1361 1367 1372 1378 1382 1385 1389 1392 1395 1398 1403 1405 1406 1408 1409 1409 1409 1406 1388 0 0 0 0 0 0 0 1405 1430 1435 1438 1445 1448 1452 1453 1455 1459 1459 1459 1453 1442 1419 1387 1387 1387 1390 1423 1423 1427 1436 1452 0 0 0 0 1986 2041 2047 2047 2047 0 0 0 0 0 0 0 0 0 0 0 0 0 0 0 0 0 0 0 0 0 0 0 0 0 0 748 748 785 802 827 0 0 0 0 0 0 0 0 0 0 0 1158 1155 1155 1155 1189 1189 1189 1173 1160 1160 1160 1162 1162 1162 1136 1120 1120 1120 1171 1190 1190 1207 1197 1190 1173 0 0 0 0 0 0 0 0 0 0 0 0 0 0 0 0 0 0 0 0 0 0 0 0 1706 1730 1744 1751 1753 1759 1763 1767 1770 1771 1771 1772 1775 1776 1778 1779 1780 1781 1781 1782 1782 1783 1784 1784 1785 1786 1787 1788 1790 1791 1792 1793 1794 1795 1796 1797 1798 1799 1801 1801 1802 1802 1802 1803 1804 1804 1805 1805 1806 1806 1807 1807 1808 1809 1810 1811 1811 1812 1812 1813 1813 1813 1814 1814 1814 1815 1816 1819 1822 1822 1822 1817 1812 1795 1779 0 0 0 0 0 0 0 0 2390 2409 2446 2485 2520 2546 2562 2568 2582 2588 2588 2588 2588 2587 2581 2578 2569 2515 0 0 0 0 0 0 0 0 0 0 0 0 0 0 0 0 2509 2511 2523 2550 2579 2604 2609 2609 2609 2608 2608 2607 2607 2607 2607 2611 2613 2613 2613 2611 2603 2595 2582 2570 2558 2534 2514 2500 2497 2497 2497 2497 2497 2497 2494 2491 2491 2490 2488 2486 2485 2483 2480 2480 2480 2480 2480 2471 2462 2458 2458 2458 2458 2458 2456 2455 2452 2449 2443 2440 2437 2433 2429 2425 2423 2420 2420 2417 2410 2405 2397 2386 2362 2343 2320 0 0 0 0 0 0 1496 1496 1496 1511 1514 1514 1514 1514 1510 1510 1510 1511 1511 1511 1510 1509 1509 1509 1508 1508 1507 1506 1503 1500 1500 1500 1500 1498 1495 1491 1487 1483 1480 1478 1477 1476 1473 1471 1471 1471 1471 1471 1471 1469 1466 1464 1463 1463 1463 1463 1463 1459 1455 1447 1445 1445 1445 1446 1447 1447 1449 1451 1451 1452 1452 1452 1452 1452 1448 1441 1433 1426 1420 1419 1414 1412 1410 1410 1409 1409 1410 1410 1415 1415 1415 1413 1413 1413 1417 1417 1417 1414 1409 1408 1408 1407 1407 1401 1400 1400 1399 1392 1392 1392 1393 1394 1394 1394 1394 1391 1386 1386 1385 1385 1386 1387 1387 1387 1381 1378 1373 1364 1359 1355 1355 1355 1357 1357 1357 1355 1353 1351 1349 1349 1349 1355 1355 1355 1353 1351 1351 1351 1351 1350 1350 1350 1348 1348 1348 1348 1348 1346 1346 1345 1343 1341 1337 1333 1332 1330 1326 1321 1320 1320 1320 1320 1320 1320 1318 1313 1313 1313 1312 1312 1305 1302 1297 1294 1291 1287 1283 1278 1275 1272 1270 1268 1264 1262 1259 1256 1252 1248 1243 1242 1239 1235 1229 1222 1219 1214 1211 1205 1202 1200 1200 1199 1199 1193 1192 1191 1189 1187 1177 1164 1155 1149 1145 1137 1126 1108 1101 1095 1095 1088 1081 1075 1067 1060 1060 1060 1063 1063 1063 1012 1009 1003 1002 990 983 982 974 963 942 941 936 936 935 919 893 877 863 858 858 858
1051 1051 1076 1098 1121 1145 1163 1174 1182 1191 1197 1199 1204 1209 1215 1220 1227 1233 1239 1244 1251 1259 1264 1272 1277 1286 1296 1301 1308 1314 1320 1326 1330 1334 1340 1346 1352 1359 1363 1368 1374 1378 1382 1385 1389 1392 1395 1397 1400 1404 1406 1407 1408 1408 1408 1406 1384 0 0 0 0 0 0 0 1413 1434 1435 1438 1443 1446 1450 1451 1453 1454 1454 1454 1444 1429 1397 1348 1348 1348 1390 1423 1423 1427 1436 1452 0 0 0 0 0 2010 2010 2010 0 0 0 0 0 0 0 0 0 0 0 0 0 0 0 0 0 0 0 0 0 0 0 0 0 0 771 771 771 790 802 826 0 0 0 0 0 0 0 0 0 0 0 0 1135 1135 1135 1161 1173 1173 1173 1160 1160 1160 1166 1166 1166 1149 1117 1117 1117 1169 1190 1190 1190 1187 1173 0 0 0 0 0 0 0 0 0 0 0 0 0 0 0 0 0 0 0 0 0 0 0 0 0 1712 1740 1747 1751 1753 1759 1763 1767 1770 1771 1771 1772 1774 1776 1776 1778 1779 1779 1780 1781 1782 1782 1783 1784 1785 1786 1787 1788 1789 1791 1792 1793 1794 1795 1796 1797 1798 1799 1800 1801 1801 1801 1802 1803 1803 1803 1804 1805 1805 1806 1806 1807 1808 1809 1810 1810 1811 1812 1812 1813 1813 1813 1813 1814 1814 1815 1816 1820 1822 1822 1822 1809 1793 1772 0 0 0 0 0 0 0 0 0 2390 2409 2434 2470 2497 2522 2543 2556 2569 2580 2580 2580 2570 2570 2560 2558 2531 0 0 0 0 0 0 0 0 0 0 0 0 0 0 0 0 0 0 0 0 2534 2572 2601 2609 2609 2612 2613 2618 2618 2618 2612 2609 2609 2609 2611 2611 2611 2603 2595 2582 2570 2560 2551 2529 2510 2502 2502 2501 2499 2499 2498 2498 2497 2496 2494 2491 2490 2486 2483 2480 2480 2480 2480 2480 2471 2462 2459 2459 2459 2459 2459 2458 2457 2453 2449 2447 2444 2439 2434 2430 2427 2423 2420 2413 2408 2401 2394 2385 2372 2347 2325 2294 0 0 0 0 0 0 1496 1496 1496 1511 1514 1514 1514 1514 1513 1513 1513 1514 1514 1514 1512 1510 1510 1510 1509 1509 1507 1506 1503 1501 1501 1501 1501 1501 1499 1495 1488 1483 1480 1478 1476 1476 1473 1470 1470 1470 1471 1471 1471 1469 1467 1465 1463 1463 1463 1463 1463 1459 1455 1450 1446 1446 1446 1446 1447 1448 1450 1450 1450 1451 1451 1451 1451 1451 1448 1441 1435 1429 1423 1419 1414 1412 1410 1410 1409 1408 1407 1405 1405 1405 1407 1408 1411 1413 1417 1417 1417 1414 1409 1408 1408 1407 1407 1406 1400 1400 1399 1392 1386 1386 1386 1390 1393 1393 1393 1391 1386 1386 1385 1383 1382 1382 1379 1375 1373 1371 1368 1364 1358 1351 1346 1346 1346 1349 1349 1349 1345 1345 1345 1346 1347 1350 1352 1352 1352 1349 1349 1349 1349 1349 1349 1349 1347 1346 1346 1346 1345 1345 1344 1342 1342 1340 1335 1333 1331 1330 1325 1321 1321 1321 1321 1321 1321 1321 1319 1314 1313 1313 1312 1312 1307 1303 1298 1295 1291 1287 1283 1278 1275 1272 1270 1268 1265 1262 1259 1254 1252 1248 1242 1237 1233 1230 1226 1222 1217 1212 1210 1205 1205 1204 1203 1203 1202 1193 1192 1185 1180 1176 1169 1155 1145 1142 1138 1135 1126 1108 1101 1095 1095 1088 1081 1075 1067 1056 1056 1056 1063 1063 1063 1039 1025 1013 1003 990 975 967 960 948 941 938 935 932 932 919 893 877 858 856 850 850
