0 0 0 0 0 1143 1144 1158 1168 1168 1168 1168 1163 1150 0 0 0 0 962 957 956 948 941 941 941 958 959 973 976 980 989 1002 1020 1027 1032 1045 1061 1080 1090 1094 1097 1097 1097 1097 1097 1097 1111 1151 1175 1191 1197 1199 1202 1199 1201 1204 1204 1204 1218 1229 1235 1245 1259 1273 1283 1293 1308 1317 1332 1347 1365 1378 1380 1380 1380 1380 1377 1377 1377 1382 1398 1416 1434 1457 1479 1494 1503 1508 1513 1524 1535 1537 1545 1547 1549 1553 1560 1564 1572 1574 1583 1600 1611 1618 1618 1618 1620 1623 1634 1640 1643 1645 1645 1653 1663 1667 1669 1676 1688 1707 1709 1709 1709 1712 1712 1721 1741 1757 1761 1767 1767 1767 1770 1772 1793 1815 1824 1824 1824 1814 1814 1814 1826 1841 1858 1875 1886 1890 1895 1896 1897 1904 1914 1927 1935 1939 1940 1941 1945 1947 1947 1948 1956 1972 1990 2000 2006 2011 2023 2025 2040 2040 2040 2038 2038 2038 2046 2057 2067 2076 2076 2076 2078 2078 2079 2087 2090 2093 2094 2094 2095 2095 2096 2101 2118 2128 2131 2137 2140 2142 2144 2146 2152 2160 2173 2189 2208 2208 2208 2195 2195 2195 2211 2235 2248 2257 2262 2264 2264 2263 2262 2259 2251 2250 2250 2250 2259 2259 2260 2263 2282 2293 2299 2302 2304 2308 2309 2310 2316 2316 2316 2317 2317 2323 2339 2356 2371 2375 2380 2384 2384 2384 2374 2374 2374 2382 2387 2387 2387 2372 2347 2347 2347 2372 2389 2400 2406 2411 2411 2411 2392 0 0 0 0 0 0 0 0 0 0 0 0 0 0 0 0 0 2045 2027 2017 2011 2008 1998 1982 1962 1955 1948 1948 1944 1939 1943 0 0 0 0 0 0 0 0 0 0 2329 2361 2387 2397 2397 2397 2397 2393 2384 2365 2364 2355 2348 2343 2343 2342 2337 2321 2303 2303 2303 2298 2298 2298 2288 2276 2263 2260 2255 2249 2244 2244 2244 2244 2244 2227 2200 2189 2181 2164 2160 2158 2154 2150 2132 2122 2107 2095 0 0 0 0 0 0 0 0 0 0 0 0 0 0 1072 1060 1052 1050 1050 1048 1043 1036 1032 1032 1030 1029 1028 1026 1024 1021 1018 1016 1014 1011 1010 1008 1006 1005 1003 1001 999 998 996 994 993 991 991 988 986 985 983 981 980 978 976 974 971 969 968 966 963 961 960 957 955 952 951 949 948 946 945 943 938 936 935 933 930 920 906 893 862 851 851 851 851 851 846 846 846 870 882 884 891 896 897 898 899 899 899 899 899 898 897 896 894 893 892 890 889 888 887 885 884 883 881 880 879 877 874 871 867 861 851 841 825 815 810 810 810 811 811 812 0 0 0 0 984 1003 1003 1004 1005 1005 1005 1005 1005 1005 1005 1005 1005 1004 1004 1003 1002 1001 999 999 998 998 997 996 995 993 992 989 986 984 982 980 979 978 975 973 972 969 963 957 955 955 951 946 941 938 937 935 933 931 928 926 923 920 919 919 918 917 912 910 910 909 908 902 898 891 891 891 910 914 930 0 0 0 0 0 1243 1268 1296 1317 1324 1336 1339 1339 1339 1339 1338 1337 1336 1335 1335 1335 1335 1333 1331 1328 1326 1326 1324 1318 1314 1312 1307 1282 1263 1253 1224 1196 1194 1165 1137 1116 1106 1091 1072 1048 1045 1041 1038 1036 1011 988 975 944 917 889 889 887 882 871 844 823 0 0 0 664 658 654 648 647 647 644 638 638
0 0 0 0 1130 1144 1151 1159 1168 1168 1168 1149 1147 1133 0 0 0 945 945 945 945 945 946 946 958 974 979 988 995 998 1004 1016 1026 1029 1035 1050 1069 1088 1103 1111 1111 1111 1105 1101 1101 1101 1113 1154 1176 1193 1200 1202 1205 1214 1217 1220 1223 1230 1236 1241 1244 1248 1261 1273 1283 1295 1317 1337 1354 1366 1375 1382 1383 1383 1383 1385 1385 1389 1395 1411 1421 1432 1450 1484 1505 1515 1521 1524 1526 1535 1549 1550 1559 1561 1563 1567 1573 1580 1582 1584 1591 1601 1613 1618 1629 1631 1636 1642 1645 1646 1650 1650 1650 1669 1680 1682 1684 1686 1700 1720 1732 1732 1732 1733 1733 1734 1755 1770 1779 1788 1797 1798 1804 1806 1809 1829 1831 1837 1839 1840 1840 1840 1844 1856 1872 1891 1900 1907 1907 1908 1911 1912 1923 1940 1955 1964 1965 1966 1966 1966 1968 1968 1974 1988 2002 2008 2015 2022 2024 2041 2058 2058 2058 2058 2058 2058 2064 2082 2095 2104 2107 2107 2107 2098 2098 2098 2104 2104 2105 2113 2122 2128 2128 2138 2146 2146 2146 2146 2153 2159 2161 2162 2168 2178 2184 2199 2214 2214 2214 2215 2215 2215 2236 2251 2261 2266 2273 2273 2273 2270 2264 2263 2263 2263 2263 2263 2265 2265 2265 2272 2289 2306 2306 2313 2313 2313 2313 2313 2323 2325 2328 2328 2331 2343 2360 2381 2398 2408 2408 2408 2408 2405 2388 2388 2388 2392 2406 2406 2406 2403 2379 2379 2379 2395 2410 2420 2429 2429 2429 2415 2389 0 0 0 0 0 0 0 0 0 0 0 0 0 0 0 0 2067 2045 2030 2028 2027 2025 2015 2004 1993 1986 1986 1986 1991 1991 0 0 0 0 0 0 0 0 0 0 0 0 0 0 2397 2397 2397 2397 2393 2384 2377 2368 2361 2356 2352 2352 2349 2343 2327 2317 2317 2317 2317 2317 2305 2300 2290 2276 2267 2265 2259 2249 2249 2249 2247 2247 2245 2226 2201 2181 2164 2160 2156 2151 2150 2126 2105 0 0 0 0 0 0 0 0 0 0 0 0 0 0 1082 1062 1057 1055 1052 1048 1047 1040 1035 1033 1032 1031 1030 1029 1028 1026 1024 1021 1018 1016 1013 1011 1010 1008 1005 1004 1002 1000 998 997 995 994 992 991 989 987 985 983 982 981 979 977 974 972 971 969 967 965 962 959 957 956 953 950 948 947 946 945 944 942 937 934 933 926 912 904 888 861 834 834 834 837 837 837 846 846 846 868 881 884 886 892 896 897 898 898 898 898 898 897 896 896 893 893 891 889 888 887 887 885 884 883 881 880 879 876 874 871 867 861 851 840 825 808 806 806 808 809 809 809 812 0 0 0 984 1003 1004 1004 1008 1008 1008 1008 1007 1007 1007 1007 1006 1005 1005 1004 1003 1002 1002 1001 1001 999 999 997 997 995 995 993 990 987 984 984 983 981 978 977 975 971 964 960 957 955 951 947 941 939 937 935 933 931 929 927 924 922 922 921 921 919 914 910 910 910 910 909 902 898 898 898 910 914 939 0 0 0 0 0 1251 1282 1315 1328 1333 1338 1341 1342 1342 1341 1341 1337 1336 1336 1336 1336 1336 1335 1333 1330 1327 1326 1326 1324 1319 1315 1310 1292 1276 1270 1248 1204 1202 1165 1137 1124 1114 1101 1087 1066 1044 1038 1037 1036 1011 988 982 946 917 891 889 888 888 873 850 832 0 0 0 0 658 654 651 647 647 644 638 638
0 0 0 1111 1132 1144 1159 1163 1164 1164 1163 1146 1118 0 0 0 950 945 944 944 944 945 946 952 973 977 992 999 1004 1011 1019 1032 1034 1035 1041 1058 1079 1097 1116 1117 1117 1117 1113 1113 1113 1126 1140 1161 1179 1193 1202 1211 1211 1231 1243 1246 1248 1249 1251 1251 1252 1256 1264 1276 1284 1299 1322 1344 1367 1378 1386 1389 1389 1389 1391 1392 1394 1400 1416 1431 1444 1459 1480 1508 1521 1529 1530 1531 1536 1546 1549 1563 1571 1573 1575 1579 1583 1588 1593 1598 1605 1615 1623 1634 1644 1651 1652 1658 1658 1665 1665 1667 1667 1671 1693 1703 1706 1714 1736 1761 1763 1763 1763 1758 1758 1758 1768 1784 1795 1810 1812 1813 1823 1831 1834 1835 1839 1847 1856 1856 1856 1859 1860 1868 1881 1897 1910 1913 1917 1917 1918 1923 1935 1958 1974 1980 1983 1985 1985 1987 1987 1987 1999 2012 2022 2025 2030 2039 2041 2054 2066 2068 2068 2071 2071 2071 2083 2097 2108 2118 2118 2118 2117 2109 2109 2109 2109 2112 2118 2134 2148 2157 2160 2161 2162 2162 2164 2165 2171 2173 2173 2177 2185 2191 2196 2204 2218 2224 2224 2226 2226 2238 2256 2265 2269 2269 2273 2273 2273 2270 2267 2267 2267 2272 2272 2272 2269 2269 2269 2272 2293 2313 2326 2326 2326 2324 2324 2324 2337 2344 2344 2344 2352 2365 2378 2393 2401 2413 2421 2424 2424 2424 2410 2410 2410 2416 2426 2443 2443 2443 2423 2423 2423 2425 2433 2440 2451 2451 2451 2422 0 0 0 0 0 0 0 0 0 0 0 0 0 0 0 0 0 2067 2045 2037 2036 2033 2030 2028 2019 2010 2010 2010 2015 2024 2035 0 0 0 0 0 0 0 0 0 0 0 0 0 0 0 0 2393 2393 2393 2384 2377 2376 2369 2361 2358 2354 2352 2343 2328 2322 2322 2322 2320 2320 2312 2300 2290 2283 2273 2271 2259 2252 2252 2252 2251 2251 2248 2230 2202 2185 2163 2151 2147 2134 2126 0 0 0 0 0 0 0 0 0 0 0 0 0 0 1097 1077 1068 1060 1056 1054 1051 1047 1043 1039 1035 1033 1032 1031 1030 1029 1026 1024 1023 1021 1018 1015 1013 1010 1009 1006 1005 1003 1001 999 998 996 995 994 992 990 988 985 984 981 981 979 977 975 973 971 969 968 966 964 961 958 956 953 951 949 945 945 944 940 938 929 929 929 925 923 903 886 861 855 834 834 834 831 831 828 828 828 846 868 881 884 884 890 896 897 897 897 897 897 897 897 895 894 893 892 890 889 888 886 885 884 883 882 880 879 877 876 874 871 868 861 851 840 825 796 796 796 799 808 809 809 812 0 0 0 974 994 1004 1004 1010 1010 1010 1009 1008 1008 1007 1007 1006 1006 1006 1005 1004 1004 1003 1003 1001 1001 1000 999 998 997 996 996 995 993 991 989 986 983 979 978 976 973 968 964 960 955 951 947 942 939 937 936 933 931 930 928 926 924 923 923 923 920 918 913 912 912 910 910 908 908 908 908 910 914 945 0 0 0 0 0 0 1311 1322 1329 1334 1338 1343 1344 1344 1344 1341 1338 1337 1337 1337 1337 1338 1338 1338 1333 1329 1328 1326 1326 1322 1317 1314 1307 1293 1270 1267 1246 1218 1165 1144 1137 1125 1109 1090 1066 1044 1036 1032 1026 1010 992 988 983 973 897 890 889 888 873 863 859 0 0 0 0 659 653 651 647 647 644 638 638
0 0 0 1133 1141 1161 1173 1173 1173 1163 1157 1142 0 0 0 0 939 939 939 937 939 942 942 953 974 977 992 999 1011 1023 1038 1046 1050 1050 1051 1068 1089 1106 1123 1129 1134 1134 1135 1143 1145 1161 1168 1178 1189 1200 1215 1225 1232 1237 1243 1252 1255 1255 1255 1261 1264 1267 1276 1287 1300 1316 1339 1364 1376 1387 1394 1395 1395 1394 1394 1395 1395 1403 1421 1437 1452 1475 1496 1522 1534 1539 1539 1541 1546 1556 1558 1569 1585 1588 1588 1591 1593 1600 1605 1612 1623 1631 1639 1653 1665 1665 1669 1670 1676 1692 1692 1692 1692 1692 1696 1712 1716 1733 1760 1780 1793 1793 1793 1782 1780 1780 1780 1790 1810 1823 1824 1824 1829 1839 1851 1853 1860 1866 1871 1875 1876 1876 1879 1885 1900 1913 1917 1920 1923 1926 1930 1938 1953 1971 1986 2001 2009 2009 2009 2009 2009 2010 2025 2043 2047 2049 2058 2059 2060 2071 2078 2080 2081 2081 2082 2088 2095 2105 2114 2122 2126 2126 2126 2120 2118 2118 2118 2118 2128 2147 2166 2175 2177 2178 2180 2180 2181 2183 2183 2183 2183 2183 2193 2201 2207 2216 2228 2232 2234 2236 2237 2255 2272 2272 2273 2273 2273 2273 2273 2270 2270 2270 2272 2280 2280 2280 2278 2274 2274 2274 2293 2317 2336 2336 2336 2337 2337 2348 2364 2365 2367 2368 2375 2384 2390 2395 2405 2413 2422 2433 2433 2434 2436 2439 2450 2450 2457 2462 2462 2462 2449 2449 2449 2453 2457 2459 2467 2467 2467 2436 0 0 0 0 0 0 0 0 0 0 0 0 0 0 0 0 0 2087 2059 2052 2045 2045 2043 2042 2032 2021 2021 2021 2023 2032 2053 0 0 0 0 0 0 0 0 0 0 0 0 0 0 0 0 0 2357 2372 2376 2376 2376 2372 2363 2359 2358 2356 2346 2331 2324 2324 2324 2320 2320 2312 2300 2290 2283 2275 2272 2260 2255 2255 2254 2254 2254 2248 2231 2209 2187 2163 2150 2130 0 0 0 0 0 0 0 0 0 0 0 0 0 0 1090 1082 1071 1066 1062 1059 1054 1053 1050 1047 1042 1039 1035 1033 1032 1031 1029 1028 1026 1024 1022 1020 1018 1015 1012 1010 1007 1005 1004 1002 1000 998 998 996 994 993 991 989 987 985 982 981 979 977 976 974 972 970 968 967 965 963 960 957 954 952 948 946 942 940 936 933 930 921 918 917 913 901 883 866 861 855 835 834 834 833 831 831 831 831 846 868 881 884 884 890 895 895 896 896 896 896 896 895 895 893 891 891 889 888 887 885 884 883 882 880 879 878 875 873 872 870 867 861 851 840 826 787 787 787 793 793 801 801 802 803 0 0 0 972 1004 1010 1012 1012 1012 1010 1009 1008 1007 1007 1007 1007 1006 1005 1005 1005 1005 1003 1003 1003 1003 1003 1002 1000 998 998 997 996 994 992 988 984 981 979 977 974 972 968 961 956 951 947 943 939 937 936 934 932 931 929 927 925 925 924 923 922 920 918 915 915 912 910 908 908 908 910 916 920 0 0 0 0 0 0 0 1327 1332 1334 1335 1340 1344 1345 1345 1345 1341 1338 1337 1337 1338 1338 1340 1340 1340 1337 1329 1329 1329 1328 1325 1319 1318 1315 1311 1288 1268 1254 1231 1206 1171 1155 1139 1118 1095 1072 1048 1036 1032 1026 1010 997 993 991 975 0 910 902 900 897 891 889 865 0 0 0 0 653 652 651 642 642 624 624
1104 1104 1121 1133 1148 1167 1173 1173 1173 1163 1157 0 0 0 0 940 940 940 942 942 942 942 942 957 974 981 992 999 1012 1030 1051 1064 1066 1066 1070 1085 1104 1110 1127 1132 1147 1159 1169 1173 1174 1181 1192 1197 1204 1218 1231 1237 1238 1239 1249 1253 1256 1257 1260 1268 1280 1291 1301 1312 1323 1339 1355 1369 1380 1393 1399 1405 1405 1405 1403 1403 1403 1413 1428 1442 1461 1484 1508 1532 1547 1554 1556 1556 1567 1569 1580 1594 1600 1600 1601 1606 1606 1612 1619 1628 1638 1648 1659 1670 1675 1676 1677 1677 1686 1702 1702 1702 1702 1702 1707 1716 1725 1750 1777 1795 1798 1798 1798 1794 1791 1791 1791 1805 1823 1834 1834 1835 1839 1854 1854 1865 1874 1879 1883 1889 1893 1895 1900 1908 1917 1917 1921 1927 1928 1939 1949 1960 1975 1993 2008 2029 2029 2029 2020 2020 2020 2028 2050 2070 2072 2075 2078 2078 2082 2085 2087 2088 2091 2096 2099 2108 2112 2117 2120 2125 2131 2136 2136 2136 2133 2127 2127 2127 2132 2153 2173 2183 2189 2189 2190 2193 2199 2199 2199 2195 2195 2195 2207 2215 2221 2230 2241 2244 2245 2247 2247 2265 2274 2274 2276 2276 2276 2276 2276 2270 2270 2270 2277 2287 2292 2292 2292 2287 2287 2287 2296 2317 2338 2351 2351 2354 2360 2378 2389 2391 2394 2394 2394 2405 2405 2408 2416 2417 2425 2433 2438 2438 2440 2456 2466 2468 2469 2473 2473 2473 2464 2464 2464 2468 2469 2469 2471 2468 2467 0 0 0 0 0 0 0 0 0 0 0 0 0 0 0 0 0 2136 2101 2074 2070 2069 2061 2058 2057 2042 2030 2024 2024 2024 2034 0 0 0 0 0 0 0 0 0 0 0 0 0 0 0 0 0 0 0 2352 2363 2372 2372 2372 2365 2363 2362 2361 2346 2333 2326 2326 2326 2325 2325 2314 2301 2296 2285 2275 2274 2266 2265 2262 2262 2259 2253 2248 2231 2213 2187 2163 0 0 0 0 0 0 0 0 0 0 0 0 0 0 1091 1071 1066 1061 1060 1059 1059 1056 1053 1051 1049 1045 1042 1039 1037 1034 1032 1030 1029 1028 1026 1023 1020 1018 1016 1013 1011 1009 1007 1005 1003 1001 999 998 997 996 994 991 990 988 986 984 982 980 978 976 975 973 971 968 966 965 963 961 958 956 952 947 944 942 939 934 932 929 927 917 906 902 895 881 871 866 861 855 850 842 835 833 833 833 833 835 849 869 881 884 884 889 894 895 895 895 895 895 895 894 893 893 891 890 888 887 886 884 883 882 880 879 878 876 874 872 872 870 867 861 851 840 827 797 793 783 782 783 783 782 782 782 0 0 0 966 1001 1012 1013 1013 1013 1011 1009 1008 1007 1007 1007 1007 1007 1007 1007 1005 1005 1004 1004 1004 1004 1003 1002 1001 999 998 997 997 996 993 989 985 982 979 977 976 974 968 962 956 951 947 944 940 937 936 935 934 932 931 927 926 925 925 925 923 922 922 921 921 912 912 912 919 910 919 926 0 0 0 0 0 0 0 0 1349 1349 1349 1352 1352 1354 1354 1354 1351 1341 1341 1341 1341 1341 1342 1342 1342 1342 1339 1332 1332 1331 1331 1328 1321 1319 1318 1311 1288 1268 1254 1231 1206 1180 1155 1139 1118 1097 1072 1049 1037 1032 1026 1015 1010 1005 1004 1002 960 933 932 931 931 918 889 868 0 0 0 0 0 654 648 620 620 607 607
1116 1116 1126 1141 1153 1168 1168 1168 1166 1163 0 0 0 0 0 928 928 934 942 942 946 946 946 973 982 983 998 1004 1018 1032 1054 1070 1078 1085 1089 1096 1107 1119 1133 1136 1154 1168 1179 1191 1196 1204 1211 1219 1226 1237 1244 1244 1249 1251 1251 1254 1263 1267 1270 1280 1297 1315 1328 1339 1345 1355 1362 1372 1382 1394 1399 1416 1417 1417 1424 1424 1424 1437 1437 1458 1473 1494 1516 1539 1554 1562 1570 1582 1593 1594 1602 1610 1613 1614 1616 1619 1623 1630 1632 1639 1655 1669 1674 1677 1684 1687 1690 1691 1692 1706 1708 1708 1714 1717 1723 1728 1741 1759 1789 1801 1801 1801 1801 1801 1801 1801 1809 1826 1841 1848 1850 1851 1858 1859 1865 1875 1879 1883 1889 1896 1903 1909 1913 1916 1923 1929 1934 1937 1943 1953 1963 1979 1993 2012 2029 2041 2041 2041 2024 2024 2024 2038 2064 2090 2102 2104 2104 2104 2102 2097 2097 2097 2103 2113 2123 2131 2132 2132 2138 2138 2138 2149 2158 2158 2158 2150 2147 2147 2147 2161 2181 2194 2203 2204 2204 2207 2211 2228 2228 2228 2220 2220 2220 2224 2225 2243 2253 2253 2256 2261 2262 2272 2277 2278 2278 2277 2277 2277 2276 2270 2270 2270 2283 2298 2304 2306 2310 2310 2313 2314 2314 2328 2351 2369 2371 2371 2372 2379 2395 2395 2400 2402 2402 2419 2425 2425 2426 2426 2426 2434 2444 2447 2449 2461 2471 2471 2472 2479 2479 2479 2473 2473 2473 2480 2480 2480 2476 2473 2467 0 0 0 0 0 0 0 0 0 0 0 0 0 0 0 0 2187 2155 2118 2093 2093 2093 2093 2093 2093 2063 2037 2026 2026 2026 2039 0 0 0 0 2390 2390 2390 2382 0 0 0 0 0 0 0 0 0 0 0 0 2346 2361 2365 2365 2365 2365 2363 2361 2350 2346 2343 2337 2336 2332 2328 2314 2301 2296 2290 2290 2285 2283 2279 2279 2272 2260 2246 2237 2230 2213 2187 0 0 0 0 0 0 0 0 0 0 0 0 0 1096 1086 1073 1068 1064 1058 1056 1052 1052 1052 1051 1051 1048 1045 1042 1039 1037 1035 1032 1031 1029 1027 1025 1022 1020 1017 1014 1011 1009 1007 1005 1005 1002 1001 999 998 996 994 993 990 989 988 985 983 981 980 978 976 974 972 970 968 966 963 961 958 956 953 949 944 941 941 936 932 930 921 908 897 894 892 887 874 867 866 861 855 851 846 838 833 833 833 836 854 856 869 881 883 883 889 893 894 894 894 894 894 893 893 892 890 890 889 887 886 885 883 882 880 879 878 877 875 873 872 872 870 867 861 852 842 828 803 799 793 783 782 774 774 774 775 0 0 0 0 1001 1012 1014 1014 1014 1011 1009 1008 1008 1008 1008 1008 1008 1008 1007 1005 1005 1005 1005 1005 1004 1003 1003 1001 1000 998 998 997 996 994 990 986 984 981 979 977 974 969 962 956 952 949 945 941 939 939 938 936 933 931 929 928 926 926 926 924 924 923 923 917 914 913 913 914 931 935 943 0 0 0 0 0 0 0 1349 1361 1364 1370 1372 1373 1372 1370 1367 1355 1344 1344 1344 1346 1346 1346 1346 1343 1343 1339 1337 1336 1336 1335 1330 1322 1319 1318 1311 1288 1268 1254 1231 1206 1182 1158 1140 1120 1097 1072 1053 1050 1049 1038 1023 1022 1022 1019 1019 994 952 943 935 935 927 890 868 0 0 0 0 0 0 0 609 602 602 602
1122 1122 1132 1144 1156 1157 1157 1157 1139 1139 0 0 0 0 915 915 925 936 947 959 960 964 970 973 982 984 1001 1013 1021 1040 1060 1078 1089 1099 1103 1111 1124 1137 1146 1148 1158 1169 1185 1200 1216 1226 1232 1236 1242 1253 1264 1264 1264 1264 1264 1273 1284 1292 1296 1299 1314 1340 1359 1370 1372 1376 1378 1378 1383 1396 1404 1417 1435 1435 1445 1446 1456 1471 1473 1480 1491 1509 1525 1542 1559 1571 1583 1593 1596 1606 1615 1625 1629 1629 1630 1634 1643 1651 1653 1663 1681 1683 1692 1696 1699 1703 1705 1706 1706 1707 1712 1723 1732 1740 1743 1748 1757 1779 1796 1801 1802 1803 1804 1810 1816 1825 1838 1849 1855 1856 1861 1864 1873 1874 1882 1885 1887 1888 1891 1902 1913 1915 1922 1932 1940 1948 1952 1959 1965 1973 1983 1996 2010 2028 2046 2055 2055 2055 2044 2044 2044 2060 2084 2103 2108 2109 2109 2109 2109 2108 2108 2108 2114 2126 2137 2147 2156 2156 2156 2156 2156 2170 2184 2185 2185 2185 2185 2185 2185 2188 2212 2229 2229 2229 2217 2217 2217 2231 2234 2236 2241 2241 2241 2245 2247 2259 2268 2275 2279 2287 2293 2293 2293 2291 2289 2284 2281 2280 2278 2280 2280 2281 2298 2316 2322 2324 2333 2345 2346 2347 2350 2350 2375 2385 2385 2387 2387 2387 2400 2400 2401 2404 2404 2422 2431 2431 2431 2431 2431 2443 2454 2460 2461 2471 2474 2474 2476 2480 2480 2480 2480 2480 2489 2490 2490 2490 2480 2467 0 0 0 0 0 0 0 0 0 0 0 0 0 0 0 0 2213 2187 2161 2140 2121 2121 2121 2114 2114 2109 2082 2060 2044 2044 2044 2046 0 0 0 2356 2391 2391 2391 2390 2335 0 0 0 0 0 0 0 0 0 0 0 0 0 0 0 2361 2363 2365 2363 2363 2363 2362 2359 2358 2357 2334 2314 2306 2306 2306 2307 2307 2307 2301 2297 2283 2262 2239 2226 2218 0 0 0 0 0 0 0 0 0 0 0 0 0 1093 1081 1077 1074 1069 1064 1060 1056 1053 1052 1051 1051 1050 1048 1046 1044 1042 1039 1037 1035 1033 1031 1028 1027 1024 1021 1019 1017 1014 1010 1009 1006 1005 1003 1001 1000 998 997 995 993 991 989 988 987 984 983 981 979 977 975 974 972 970 967 965 962 959 956 955 952 948 944 940 934 928 920 911 899 891 889 885 881 875 868 867 866 861 855 851 846 839 835 835 835 839 854 856 869 878 880 883 887 892 892 893 893 893 893 892 891 890 889 888 887 886 885 884 882 881 880 879 878 876 874 872 871 871 869 865 859 853 849 841 825 818 814 801 783 774 772 772 772 776 0 0 0 0 1012 1013 1013 1013 1012 1009 1009 1009 1010 1011 1011 1011 1010 1007 1006 1006 1005 1005 1005 1005 1004 1003 1002 1000 998 998 997 996 994 990 987 985 983 979 977 974 969 963 957 954 951 948 945 943 941 939 937 934 932 930 928 928 928 927 926 926 925 924 919 912 912 912 912 949 969 971 0 0 0 0 0 0 0 1357 1361 1371 1372 1373 1373 1373 1372 1369 1357 1356 1356 1356 1356 1356 1352 1349 1343 1339 1339 1339 1337 1337 1337 1331 1322 1319 1314 1301 1277 1258 1243 1233 1206 1189 1164 1141 1122 1099 1072 1053 1050 1049 1038 1029 1022 1022 1021 1019 994 961 943 935 935 927 890 868 848 0 0 0 0 0 0 0 602 602 602
1124 1124 1134 1144 1156 1156 1156 1132 1109 0 0 0 0 914 914 914 925 937 950 961 966 969 974 977 983 989 1001 1020 1034 1052 1079 1094 1094 1106 1123 1135 1141 1145 1148 1154 1163 1173 1185 1209 1229 1236 1238 1238 1244 1257 1276 1286 1286 1286 1289 1299 1310 1314 1319 1324 1339 1361 1379 1390 1390 1390 1385 1385 1385 1397 1404 1417 1435 1449 1458 1472 1486 1490 1492 1497 1506 1523 1536 1550 1567 1580 1590 1598 1603 1613 1623 1634 1642 1643 1644 1648 1662 1673 1678 1686 1687 1701 1708 1714 1720 1723 1723 1725 1726 1728 1735 1744 1754 1762 1766 1768 1779 1794 1803 1803 1805 1806 1814 1827 1839 1848 1856 1863 1867 1868 1873 1878 1879 1886 1898 1898 1900 1901 1901 1909 1918 1927 1938 1948 1956 1966 1975 1985 1996 2003 2009 2015 2028 2044 2065 2069 2069 2069 2062 2062 2062 2081 2101 2114 2115 2115 2115 2115 2115 2114 2115 2115 2120 2130 2143 2158 2171 2181 2182 2185 2186 2197 2207 2215 2215 2215 2205 2205 2205 2211 2232 2234 2234 2234 2228 2228 2228 2240 2249 2252 2259 2261 2261 2263 2264 2273 2281 2286 2293 2300 2311 2316 2316 2316 2315 2308 2300 2300 2300 2300 2300 2306 2325 2339 2341 2343 2355 2374 2382 2384 2385 2385 2398 2398 2398 2394 2394 2394 2406 2406 2406 2406 2406 2423 2437 2442 2446 2446 2446 2454 2462 2465 2471 2481 2481 2482 2485 2485 2487 2488 2489 2489 2509 2509 2509 2494 2480 0 0 0 0 0 0 0 0 0 0 0 0 0 0 0 0 2235 2213 2193 2170 2161 2148 2141 2140 2133 2124 2116 2100 2084 2067 2067 2067 0 0 0 2337 2360 2405 2405 2405 2394 2355 0 0 0 0 0 0 0 0 0 0 0 0 0 0 0 0 2343 2362 2366 2367 2378 2384 2384 2384 2370 2346 2323 2320 2320 2320 2323 2323 2323 2318 2308 2291 2263 2233 0 0 0 0 0 0 0 0 0 0 0 0 0 1110 1089 1080 1073 1068 1068 1063 1061 1058 1054 1053 1051 1051 1050 1048 1045 1044 1042 1041 1039 1037 1035 1033 1031 1028 1026 1023 1021 1019 1017 1013 1010 1008 1006 1004 1003 1001 999 998 996 994 993 990 989 987 985 983 982 980 979 976 975 973 972 970 967 965 962 959 956 954 952 946 942 937 925 909 897 895 890 885 869 862 861 861 862 861 861 861 855 850 846 839 835 835 835 839 854 856 866 870 878 881 886 891 892 892 892 892 892 892 891 889 888 887 887 885 884 883 881 881 880 879 877 875 874 872 870 870 868 865 859 854 853 846 827 826 824 804 792 766 766 766 767 773 0 0 0 0 1009 1013 1015 1015 1015 1012 1012 1012 1013 1013 1013 1013 1012 1009 1007 1007 1006 1006 1006 1006 1004 1003 1002 1001 1000 998 997 996 994 992 989 987 984 980 977 974 970 964 959 956 953 951 948 944 942 940 938 934 932 931 930 929 929 928 928 928 928 925 920 908 908 908 911 949 971 0 0 0 0 0 0 1335 1349 1364 1371 1372 1372 1373 1374 1373 1372 1372 1365 1365 1365 1364 1364 1364 1363 1351 1343 1336 1336 1336 1338 1338 1338 1331 1322 1313 1303 1291 1277 1258 1243 1233 1206 1190 1171 1141 1122 1100 1072 1053 1050 1049 1038 1030 1022 1022 1022 1019 994 961 943 935 935 927 888 868 855 828 807 776 754 0 0 0 0 0 0
1124 1124 1134 1144 1144 1144 1134 1092 1091 0 0 0 904 904 904 914 927 945 962 965 970 970 974 981 984 990 1004 1024 1043 1063 1082 1097 1106 1121 1141 1155 1156 1156 1159 1159 1164 1174 1189 1214 1231 1237 1238 1239 1247 1262 1285 1307 1316 1319 1321 1321 1324 1328 1336 1345 1359 1371 1383 1394 1396 1396 1396 1396 1398 1398 1404 1420 1436 1452 1474 1494 1507 1507 1510 1513 1523 1538 1553 1569 1584 1591 1596 1600 1603 1616 1629 1642 1651 1653 1654 1656 1666 1679 1690 1692 1707 1715 1723 1730 1738 1739 1741 1743 1746 1751 1757 1767 1774 1780 1785 1791 1796 1803 1810 1813 1814 1819 1833 1846 1859 1865 1870 1874 1879 1883 1887 1890 1892 1898 1903 1911 1911 1914 1915 1915 1928 1943 1954 1963 1974 1988 2001 2018 2030 2037 2039 2040 2048 2058 2073 2081 2081 2081 2081 2081 2081 2099 2115 2116 2122 2124 2124 2124 2124 2124 2124 2124 2128 2137 2152 2167 2192 2203 2208 2212 2212 2212 2223 2227 2227 2227 2223 2223 2223 2236 2239 2256 2256 2256 2246 2243 2243 2243 2256 2261 2272 2275 2275 2275 2275 2275 2282 2289 2294 2300 2315 2316 2332 2341 2341 2341 2329 2327 2324 2324 2324 2332 2356 2356 2371 2371 2371 2390 2404 2409 2410 2410 2409 2408 2408 2407 2408 2414 2414 2411 2411 2411 2411 2424 2438 2451 2454 2457 2463 2466 2466 2466 2474 2486 2490 2493 2495 2496 2501 2502 2504 2509 2523 2523 2523 2501 2480 0 0 0 0 0 0 0 0 0 0 0 0 0 0 0 0 2235 2213 2193 2187 2176 2167 2160 2157 2146 2132 2118 2113 2102 2093 2093 2093 0 0 0 2353 2377 2405 2405 2405 2401 2376 2361 2347 0 0 0 0 0 0 0 0 0 0 0 0 0 0 2303 2334 2349 2366 2378 2384 2384 2384 2370 2350 2333 2333 2333 2335 2335 2335 2324 2324 2308 2291 2263 2222 0 0 0 0 0 0 0 0 0 0 0 0 1093 1092 1086 1074 1066 1064 1061 1059 1058 1058 1054 1052 1051 1050 1048 1047 1045 1043 1042 1040 1039 1036 1034 1032 1030 1028 1025 1023 1020 1018 1016 1013 1010 1008 1006 1004 1002 1001 998 997 995 994 992 990 989 987 985 983 981 979 977 975 974 973 971 970 965 962 959 956 951 951 951 941 929 926 913 899 897 894 889 872 852 844 843 843 844 850 851 851 851 849 846 839 837 837 837 839 841 848 856 870 878 881 886 889 891 891 891 891 891 891 890 888 887 886 886 884 883 882 881 880 879 878 876 875 873 872 869 868 866 864 859 856 854 850 831 829 826 808 795 766 766 764 764 767 0 0 0 0 999 1002 1013 1014 1014 1014 1014 1014 1014 1014 1014 1014 1013 1011 1008 1008 1008 1007 1007 1007 1006 1004 1003 1002 1001 999 997 996 995 993 991 988 984 980 977 975 970 965 961 958 955 954 950 947 944 942 939 936 934 933 932 931 930 930 930 930 930 930 922 912 911 911 912 949 971 0 0 0 0 0 1329 1372 1372 1372 1374 1373 1372 1373 1374 1375 1375 1376 1376 1376 1376 1375 1374 1370 1368 1359 1345 1335 1335 1335 1339 1339 1339 1333 1322 1313 1301 1291 1277 1258 1243 1237 1219 1205 1183 1162 1132 1102 1080 1063 1056 1052 1040 1030 1022 1016 1011 997 993 966 960 952 937 915 888 871 856 828 807 787 779 776 0 0 0 0 0
1122 1122 1134 1134 1134 1134 1106 1064 0 0 0 0 904 904 904 914 939 965 978 978 978 978 978 982 986 994 1008 1026 1043 1067 1100 1116 1123 1134 1153 1166 1169 1169 1169 1173 1173 1177 1197 1217 1232 1238 1243 1243 1250 1268 1299 1323 1325 1329 1329 1333 1333 1336 1344 1356 1366 1376 1383 1397 1404 1407 1410 1413 1418 1421 1427 1433 1443 1454 1485 1507 1521 1523 1524 1530 1542 1563 1576 1591 1599 1604 1605 1605 1608 1616 1629 1646 1655 1657 1659 1661 1669 1685 1694 1709 1720 1726 1733 1742 1747 1750 1754 1757 1763 1768 1778 1787 1794 1797 1801 1805 1810 1816 1825 1826 1830 1839 1851 1866 1875 1882 1890 1892 1897 1900 1904 1905 1911 1913 1915 1919 1921 1921 1921 1932 1947 1962 1974 1989 1998 2005 2016 2030 2043 2049 2056 2061 2069 2078 2090 2093 2093 2093 2093 2093 2102 2113 2121 2124 2127 2132 2138 2142 2142 2144 2146 2149 2153 2158 2169 2181 2203 2230 2230 2230 2233 2233 2234 2234 2235 2237 2234 2241 2242 2248 2259 2270 2270 2270 2264 2252 2252 2252 2256 2265 2275 2284 2284 2284 2284 2284 2284 2292 2295 2302 2315 2330 2339 2343 2354 2354 2354 2341 2341 2341 2341 2362 2372 2373 2380 2380 2382 2397 2414 2430 2430 2430 2425 2425 2425 2426 2426 2426 2425 2423 2423 2423 2423 2433 2450 2466 2468 2468 2473 2473 2475 2480 2486 2499 2508 2509 2510 2510 2515 2519 2519 2521 2529 2529 2529 2501 0 0 0 0 0 0 0 0 0 0 0 2410 2416 2416 0 0 0 2235 2220 2213 2202 2186 2174 2170 2163 2150 2133 2121 2114 2110 2110 2110 2120 0 0 0 2367 2385 2405 2412 2412 2412 2381 2365 2351 2328 0 0 0 0 0 0 0 0 0 0 0 0 0 0 2332 2348 2365 2378 2384 2384 2384 2370 2353 2334 2334 2334 2335 2335 2335 2324 2324 2308 2291 2263 0 0 0 0 0 0 0 0 0 0 0 1094 1082 1080 1077 1077 1070 1063 1059 1059 1058 1057 1057 1054 1052 1051 1050 1048 1046 1045 1043 1041 1039 1037 1035 1034 1031 1030 1027 1024 1022 1019 1017 1015 1013 1010 1008 1006 1003 1001 999 998 997 995 992 991 989 988 986 984 983 980 979 976 974 972 971 970 969 964 960 959 955 950 948 948 928 909 903 895 890 887 887 879 866 846 844 840 840 840 840 849 849 849 847 844 839 835 835 835 837 839 848 856 870 878 881 886 887 888 890 890 890 890 889 889 888 887 886 885 884 882 882 880 880 878 876 876 874 873 871 869 867 866 864 859 857 856 854 831 829 828 816 802 766 766 764 764 767 0 0 0 0 987 999 1011 1015 1015 1015 1015 1015 1016 1016 1016 1015 1014 1012 1011 1009 1009 1008 1008 1008 1006 1005 1004 1002 1001 1001 998 997 996 994 991 988 985 981 977 975 970 967 963 960 957 955 952 948 944 942 940 938 937 935 934 933 933 931 931 931 931 930 922 912 912 912 912 918 971 0 0 0 0 0 1346 1379 1379 1379 1372 1368 1368 1368 1371 1375 1376 1382 1386 1386 1386 1383 1380 1377 1370 1367 1348 1335 1335 1335 1341 1341 1341 1334 1322 1313 1299 1290 1285 1277 1262 1237 1219 1212 1195 1177 1158 1125 1080 1063 1056 1052 1040 1034 1024 1007 996 983 977 966 962 952 937 915 890 877 858 828 807 787 779 776 754 713 690 669 669
1115 1117 1115 1115 0 0 0 0 0 0 0 0 899 899 899 914 943 965 978 987 990 993 994 995 999 1012 1028 1030 1047 1077 1112 1128 1134 1139 1153 1166 1169 1174 1174 1175 1176 1184 1204 1221 1234 1238 1243 1251 1262 1281 1308 1336 1339 1339 1339 1342 1342 1343 1354 1366 1376 1380 1387 1397 1409 1420 1429 1437 1439 1447 1458 1463 1466 1471 1498 1516 1522 1526 1531 1541 1575 1590 1599 1607 1608 1610 1612 1612 1613 1620 1632 1650 1658 1662 1663 1665 1674 1686 1705 1724 1734 1739 1744 1747 1751 1755 1758 1765 1776 1790 1805 1811 1814 1816 1816 1819 1825 1833 1837 1838 1843 1856 1870 1886 1895 1912 1930 1930 1931 1931 1931 1932 1932 1932 1934 1934 1934 1936 1940 1950 1961 1978 1993 2011 2018 2022 2028 2040 2049 2056 2065 2080 2086 2096 2106 2110 2113 2115 2117 2118 2123 2126 2126 2128 2130 2138 2151 2160 2166 2171 2177 2183 2189 2193 2197 2198 2216 2230 2237 2238 2243 2243 2243 2243 2245 2246 2246 2254 2262 2269 2277 2278 2278 2278 2276 2267 2266 2266 2266 2273 2280 2292 2293 2293 2293 2293 2293 2294 2297 2307 2321 2331 2340 2349 2369 2369 2369 2364 2363 2363 2364 2377 2396 2396 2396 2396 2396 2403 2421 2443 2443 2443 2433 2433 2433 2439 2439 2439 2438 2438 2438 2440 2450 2458 2470 2489 2495 2495 2495 2495 2495 2506 2518 2532 2533 2533 2533 2528 2528 2527 2527 2527 2529 2529 2529 2501 0 0 0 0 0 0 0 0 0 0 2418 2424 2424 2418 2410 0 2268 2235 2231 2226 2208 2192 2177 2170 2165 2151 2133 2121 2114 2114 2114 2124 2125 0 0 2344 2369 2385 2405 2414 2414 2414 2397 2387 2383 2380 2373 0 0 0 0 0 0 0 0 0 0 0 0 0 0 0 2329 2352 2370 2370 2370 2366 2353 2334 2334 2334 2335 2335 2335 2324 2324 2302 0 0 0 0 0 0 0 0 0 0 0 0 1116 1093 1081 1077 1074 1072 1067 1061 1059 1059 1058 1057 1055 1054 1052 1050 1048 1048 1046 1044 1042 1041 1038 1035 1034 1032 1031 1029 1027 1024 1021 1018 1016 1014 1011 1009 1007 1005 1002 1001 999 997 996 993 991 990 988 986 985 984 981 979 977 975 973 970 968 966 964 962 957 955 954 946 936 921 909 906 888 878 876 876 873 871 856 846 841 840 840 840 840 844 844 844 844 842 836 835 835 835 837 838 848 856 871 878 882 885 886 888 889 889 889 889 889 888 887 887 886 885 883 882 881 880 879 877 876 875 874 872 871 869 867 866 863 859 858 857 856 839 837 837 827 821 797 781 778 778 0 0 0 0 0 987 999 1011 1017 1018 1018 1018 1018 1017 1017 1017 1016 1016 1013 1013 1011 1010 1009 1008 1008 1006 1006 1004 1003 1003 1001 1000 999 997 995 991 988 985 981 978 975 971 968 964 960 957 955 952 949 945 944 941 940 938 937 937 936 935 934 933 933 932 931 923 912 912 912 912 918 937 0 0 0 0 0 1346 1379 1379 1379 1367 1364 1364 1364 1371 1373 1376 1383 1393 1393 1393 1392 1389 1386 1382 1373 1364 1342 1341 1341 1341 1341 1341 1337 1326 1308 1298 1290 1285 1277 1262 1237 1219 1212 1199 1182 1174 1167 0 1063 1056 1052 1041 1038 1025 1007 987 977 972 966 962 956 937 915 899 885 858 825 806 787 779 776 754 713 690 684 684
1101 1101 1086 1086 0 0 0 0 0 0 0 888 893 899 899 914 943 965 978 987 994 998 1008 1015 1018 1028 1031 1049 1064 1089 1121 1128 1134 1141 1153 1166 1169 1174 1176 1177 1180 1191 1207 1224 1234 1238 1243 1261 1281 1296 1325 1343 1348 1351 1353 1354 1355 1357 1365 1370 1380 1386 1390 1398 1413 1425 1442 1450 1457 1468 1476 1484 1493 1508 1520 1522 1524 1527 1532 1569 1592 1596 1601 1608 1609 1611 1612 1613 1615 1627 1641 1654 1662 1668 1669 1674 1686 1701 1715 1742 1748 1748 1749 1750 1753 1755 1763 1773 1786 1800 1816 1825 1825 1827 1829 1836 1843 1850 1852 1852 1861 1874 1895 1917 1938 1950 1953 1954 1954 1955 1956 1956 1956 1944 1944 1944 1950 1955 1960 1964 1975 1991 2010 2026 2034 2037 2046 2055 2066 2069 2073 2084 2097 2108 2119 2119 2123 2133 2142 2149 2149 2149 2141 2141 2141 2148 2162 2176 2178 2183 2197 2209 2216 2216 2216 2217 2217 2231 2246 2246 2246 2248 2250 2250 2252 2253 2253 2269 2281 2289 2289 2290 2290 2290 2289 2284 2277 2277 2277 2284 2291 2300 2307 2307 2307 2310 2310 2312 2326 2334 2336 2345 2360 2380 2385 2389 2390 2390 2396 2399 2400 2402 2407 2409 2409 2412 2412 2416 2432 2457 2457 2457 2445 2445 2445 2456 2456 2456 2456 2456 2465 2476 2480 2481 2486 2503 2527 2527 2527 2529 2529 2534 2555 2560 2560 2560 2545 2537 2532 2529 2532 2535 2532 2529 2529 0 0 0 0 0 0 0 0 0 0 2425 2425 2425 2418 2414 0 0 2253 2235 2233 2228 2214 2200 2187 2177 2165 2155 2137 2121 2116 2116 2116 2126 0 0 0 2358 2370 2387 2405 2411 2411 2411 2413 2412 2410 2406 2404 2392 2375 0 0 0 0 0 0 0 0 0 0 0 0 0 0 0 0 2333 2350 2350 2350 2334 2330 2330 2326 2325 2325 2305 2304 2277 0 0 0 0 0 0 0 0 0 0 0 1106 1092 1085 1079 1076 1074 1072 1066 1061 1059 1059 1058 1057 1055 1053 1051 1049 1047 1046 1045 1043 1041 1040 1037 1035 1034 1032 1031 1028 1026 1023 1021 1017 1015 1012 1011 1009 1007 1005 1002 1000 999 997 995 993 991 989 987 985 984 983 981 978 977 975 972 969 966 963 962 955 952 948 939 912 905 896 896 896 887 878 873 866 866 861 850 845 841 838 838 838 838 839 840 841 840 839 834 834 834 835 835 836 853 864 871 878 882 885 886 887 889 889 889 889 888 888 887 887 885 884 883 882 881 879 878 876 875 873 872 872 871 869 867 866 863 861 860 857 857 841 841 841 847 847 0 0 0 0 0 0 0 0 965 987 999 1011 1018 1019 1019 1019 1018 1018 1017 1017 1017 1016 1015 1014 1012 1011 1009 1009 1008 1007 1006 1005 1004 1003 1001 1000 1000 997 995 991 988 986 983 979 975 971 970 965 961 958 956 954 952 950 946 943 941 940 939 939 938 937 936 934 934 934 931 925 914 912 912 914 918 934 0 0 0 0 0 0 1368 1368 1368 1358 1357 1357 1357 1359 1368 1376 1385 1397 1397 1397 1397 1395 1392 1385 1378 1370 1351 1343 1343 1343 1343 1343 1337 1326 1308 1299 1291 1286 1278 1262 1237 1224 1216 1201 1190 1185 1177 0 1101 1066 1061 1056 1046 1028 1007 987 977 977 977 977 973 968 950 928 0 0 0 794 780 775 757 737 713 690 686 686
1083 1083 1059 1059 0 0 0 0 877 877 877 888 894 899 900 907 943 963 975 982 995 999 1019 1021 1031 1045 1073 1110 1117 1119 1121 1128 1134 1142 1153 1161 1166 1173 1177 1179 1184 1197 1216 1230 1237 1240 1252 1275 1298 1319 1326 1345 1361 1369 1377 1377 1377 1380 1380 1381 1392 1398 1399 1401 1413 1428 1447 1452 1466 1476 1488 1501 1519 1532 1532 1532 1533 1533 1547 1578 1595 1598 1602 1608 1611 1614 1615 1615 1622 1640 1655 1666 1666 1673 1681 1690 1703 1720 1738 1747 1752 1752 1752 1752 1756 1759 1770 1783 1800 1813 1823 1828 1830 1830 1837 1848 1859 1867 1869 1873 1880 1899 1923 1943 1963 1972 1972 1972 1969 1968 1968 1969 1969 1965 1967 1967 1967 1973 1979 1987 1994 2004 2017 2035 2045 2052 2060 2070 2078 2078 2080 2088 2099 2110 2120 2121 2124 2135 2151 2154 2161 2161 2161 2159 2159 2159 2176 2196 2209 2211 2213 2223 2224 2224 2224 2224 2224 2234 2250 2250 2254 2258 2258 2260 2260 2264 2264 2274 2285 2296 2307 2308 2308 2308 2307 2300 2290 2290 2290 2296 2301 2309 2318 2322 2322 2324 2325 2327 2346 2362 2362 2370 2381 2394 2401 2402 2409 2417 2417 2417 2420 2420 2420 2424 2426 2427 2428 2431 2452 2474 2474 2474 2470 2470 2470 2476 2477 2487 2487 2491 2501 2502 2502 2506 2506 2513 2534 2543 2543 2556 2556 2568 2574 2574 2574 2566 2547 2537 2537 2534 2537 2537 2537 2534 2527 0 0 0 0 0 0 0 0 0 0 2425 2425 2425 2413 2410 0 0 2240 2233 2231 2231 2218 2204 2191 2180 2167 2155 2137 2121 2119 2119 2119 0 0 0 2352 2364 2372 2391 2405 2411 2416 2416 2417 2417 2417 2417 2411 2400 2399 2384 0 0 0 0 0 0 0 0 0 0 0 0 0 0 0 0 2317 2330 2330 2330 2321 2315 2312 2290 2285 2274 2274 2251 0 0 0 0 0 0 0 0 0 0 1103 1095 1089 1080 1077 1075 1073 1070 1066 1061 1059 1059 1057 1056 1055 1053 1051 1048 1047 1045 1044 1041 1040 1039 1037 1035 1033 1032 1030 1028 1026 1022 1020 1017 1014 1012 1010 1008 1007 1004 1001 1000 998 996 994 992 991 988 986 985 983 981 980 978 976 974 971 969 965 963 960 952 943 934 917 897 891 891 885 885 885 877 869 866 862 855 847 842 841 838 838 837 836 836 836 835 835 834 834 832 832 832 832 833 853 865 871 878 882 885 886 887 888 888 888 888 888 888 887 886 885 884 883 882 881 879 878 876 874 873 872 870 870 869 867 866 864 862 861 860 860 843 843 843 866 876 0 0 0 0 0 0 0 960 967 988 1002 1012 1016 1019 1019 1019 1018 1018 1018 1018 1018 1017 1016 1015 1013 1011 1009 1009 1008 1007 1007 1006 1004 1003 1001 1000 1000 998 995 991 989 987 984 979 976 972 970 965 961 958 957 955 953 952 948 945 943 942 941 940 940 939 939 937 937 935 933 925 915 912 912 914 915 929 0 0 0 0 0 0 1330 1330 1342 1351 1351 1352 1356 1359 1368 1376 1385 1399 1399 1399 1398 1395 1394 1387 1379 1374 1362 1351 1350 1348 1347 1343 1337 1326 1307 1299 1293 1290 1279 1259 1235 1224 1218 1207 1201 1196 1186 0 1101 1072 1067 1063 1063 1042 1011 987 982 982 982 982 978 969 960 0 0 0 0 780 775 774 748 735 713 701 700 700
1073 1073 1038 1038 0 0 0 904 877 877 877 888 899 902 902 905 923 947 961 976 995 999 1021 1040 1058 1076 1104 1120 1120 1122 1123 1129 1136 1142 1153 1161 1166 1173 1177 1180 1188 1204 1222 1238 1246 1252 1268 1287 1306 1321 1326 1345 1367 1386 1386 1386 1385 1385 1385 1393 1405 1406 1410 1410 1414 1428 1448 1455 1474 1489 1504 1522 1541 1546 1547 1548 1548 1551 1566 1590 1597 1604 1606 1609 1611 1618 1623 1625 1633 1660 1670 1675 1679 1686 1694 1708 1717 1728 1739 1751 1752 1754 1756 1759 1762 1766 1775 1795 1811 1823 1827 1829 1835 1841 1847 1857 1868 1878 1884 1893 1904 1922 1943 1960 1978 1988 1990 1990 1990 1979 1979 1979 1988 1988 1989 1990 1990 1993 2002 2008 2012 2017 2028 2039 2049 2058 2070 2081 2089 2091 2094 2097 2105 2115 2121 2121 2125 2135 2151 2156 2166 2167 2167 2175 2175 2176 2192 2212 2227 2233 2233 2237 2237 2237 2233 2233 2233 2234 2250 2260 2263 2266 2270 2276 2276 2277 2279 2279 2289 2307 2329 2329 2329 2326 2318 2309 2303 2303 2303 2308 2312 2317 2326 2334 2336 2338 2339 2345 2360 2363 2378 2387 2394 2405 2416 2423 2432 2444 2444 2444 2440 2440 2440 2447 2451 2452 2454 2462 2468 2483 2493 2493 2497 2497 2497 2498 2498 2506 2506 2510 2522 2525 2525 2529 2529 2530 2547 2557 2557 2566 2568 2569 2577 2577 2577 2567 2550 2540 2540 2540 2541 2541 2541 2533 0 0 0 0 0 0 0 0 0 0 2412 2425 2425 2425 2413 2410 0 0 2237 2231 2231 2230 2230 2227 2217 2198 2172 2155 2137 2124 2124 2124 0 0 0 0 2375 2378 2383 2393 2405 2411 2416 2418 2418 2419 2419 2419 2411 2402 2400 2399 2394 2378 2366 2321 0 0 0 0 0 0 0 0 0 0 0 0 0 2304 2316 2316 2316 2308 2283 2271 2264 2252 2251 0 0 0 0 0 0 0 0 0 1102 1097 1095 1091 1084 1076 1075 1074 1071 1070 1064 1061 1059 1059 1057 1056 1053 1051 1049 1047 1046 1045 1043 1041 1039 1038 1036 1033 1032 1031 1029 1027 1025 1022 1019 1017 1014 1012 1009 1007 1006 1003 1001 999 997 995 993 992 990 988 986 983 982 981 978 976 975 974 971 968 965 963 959 949 931 916 910 893 882 882 882 877 877 875 868 865 861 854 845 842 838 836 836 835 835 835 835 832 830 827 826 826 826 826 827 833 853 865 871 875 880 884 885 887 887 887 887 887 887 887 887 886 885 883 883 881 880 879 877 876 874 872 871 870 869 869 867 867 865 865 865 863 864 864 864 873 880 909 0 0 0 0 931 937 966 978 999 1003 1009 1012 1016 1018 1018 1018 1018 1018 1018 1018 1018 1018 1016 1015 1014 1012 1010 1009 1008 1007 1007 1006 1005 1003 1001 1000 1000 998 995 993 990 988 986 981 977 974 971 966 962 960 958 957 955 953 951 948 945 943 943 942 941 940 939 937 937 937 937 925 916 915 914 914 914 914 0 0 0 0 0 0 1302 1326 1342 1342 1345 1352 1356 1359 1368 1376 1387 1400 1400 1400 1400 1399 1399 1396 1386 1379 1375 1366 1359 1352 1348 1346 1335 1327 1307 1299 1295 1290 1279 1258 1232 1226 1224 1221 1211 1196 1186 0 1101 1079 1076 1072 1071 1049 1022 1004 986 984 983 983 978 969 960 0 0 0 0 770 761 748 748 735 715 704 700 700
1065 1065 1026 0 0 0 903 885 885 885 885 899 899 902 906 906 906 930 948 964 993 998 1021 1040 1058 1076 1104 1120 1121 1122 1123 1129 1136 1147 1156 1161 1166 1173 1178 1181 1190 1204 1222 1238 1254 1265 1277 1295 1308 1323 1339 1348 1369 1393 1400 1400 1400 1400 1400 1407 1413 1421 1425 1429 1432 1457 1459 1476 1495 1518 1538 1547 1555 1557 1562 1568 1572 1580 1591 1597 1599 1604 1606 1609 1612 1622 1636 1650 1665 1666 1680 1689 1696 1704 1715 1724 1727 1732 1740 1751 1754 1758 1763 1769 1772 1781 1795 1811 1825 1834 1845 1851 1852 1854 1859 1867 1875 1884 1894 1907 1923 1943 1958 1971 1981 1992 1996 1996 1996 1984 1984 1984 1989 1995 2004 2008 2016 2024 2028 2029 2030 2031 2036 2046 2056 2067 2078 2092 2103 2109 2111 2112 2118 2122 2126 2127 2130 2139 2153 2164 2169 2178 2178 2179 2179 2187 2207 2229 2243 2252 2255 2255 2255 2255 2252 2246 2246 2246 2256 2273 2281 2285 2290 2299 2299 2299 2299 2299 2304 2319 2343 2343 2343 2339 2323 2316 2316 2316 2319 2324 2329 2332 2335 2342 2349 2350 2354 2361 2365 2376 2387 2393 2402 2410 2425 2437 2445 2456 2464 2465 2465 2467 2471 2472 2475 2479 2483 2485 2485 2494 2525 2525 2525 2528 2527 2524 2526 2527 2527 2532 2540 2544 2546 2546 2546 2551 2561 2565 2567 2569 2570 2570 2583 2583 2583 2571 2550 2548 2548 2548 2548 2548 2546 2510 0 0 0 0 0 0 0 0 0 0 2418 2425 2425 2425 2413 2407 0 0 2233 2233 2233 2239 2239 2239 2232 2205 2172 2155 2138 2128 2128 2128 0 0 0 2401 2406 2408 2412 2414 2416 2416 2416 2418 2419 2419 2419 2419 2411 2405 2403 2400 2399 2388 2366 2348 0 0 0 0 0 0 0 0 0 0 0 0 0 0 0 2289 2289 2289 2267 2249 2240 0 0 0 0 0 0 0 0 0 0 1093 1093 1091 1088 1088 1084 1076 1075 1073 1070 1067 1064 1062 1059 1057 1054 1053 1052 1050 1049 1047 1046 1044 1041 1040 1039 1037 1036 1033 1031 1030 1028 1026 1023 1021 1018 1016 1013 1011 1008 1007 1005 1003 1000 999 996 994 993 992 989 987 985 983 981 979 977 975 973 972 969 967 965 963 959 949 931 911 905 893 880 874 874 874 874 874 868 862 854 845 837 832 831 830 830 830 832 832 832 831 824 816 816 816 824 826 827 833 849 865 870 873 878 882 884 885 886 886 887 887 887 887 886 885 884 883 883 881 880 879 877 876 874 872 871 870 868 868 867 867 865 865 865 867 870 875 887 902 922 938 938 938 937 937 937 955 970 1002 1009 1010 1010 1012 1016 1018 1018 1018 1018 1018 1019 1019 1019 1019 1017 1016 1014 1012 1011 1009 1008 1007 1007 1006 1005 1003 1001 1001 1000 998 997 994 992 990 986 982 978 975 972 967 964 961 959 958 957 955 953 949 946 945 944 943 943 943 942 940 938 937 935 925 916 914 910 910 910 910 0 0 0 0 0 0 1302 1326 1342 1342 1345 1352 1357 1361 1374 1384 1409 1414 1414 1414 1413 1410 1410 1410 1400 1389 1375 1371 1362 1358 1358 1346 1335 1327 1307 1301 1298 1297 1279 1239 1232 1228 1227 1221 1212 1196 1186 0 1090 1089 1086 1073 1073 1055 1036 1019 1003 986 978 974 970 969 960 0 0 0 0 751 747 747 747 722 712 700 684 684
0 0 0 0 0 0 888 877 877 877 886 899 909 909 909 909 909 915 947 964 968 992 1021 1040 1058 1076 1104 1120 1121 1122 1123 1129 1141 1154 1162 1165 1170 1176 1181 1182 1190 1204 1222 1238 1254 1269 1288 1305 1315 1324 1341 1350 1371 1396 1409 1411 1412 1417 1417 1417 1421 1429 1438 1459 1485 1497 1501 1509 1527 1549 1560 1562 1564 1566 1574 1586 1595 1600 1604 1607 1607 1607 1609 1611 1618 1630 1654 1655 1671 1686 1695 1705 1715 1727 1736 1738 1741 1743 1750 1758 1766 1776 1783 1785 1788 1798 1811 1823 1839 1853 1864 1866 1869 1874 1880 1882 1884 1889 1901 1920 1939 1957 1965 1972 1981 1996 2005 2005 2005 2000 1993 1993 1993 1997 2006 2015 2026 2040 2043 2043 2043 2043 2043 2051 2065 2079 2089 2103 2117 2124 2125 2130 2134 2137 2140 2142 2143 2146 2153 2169 2174 2178 2182 2182 2183 2203 2222 2247 2259 2264 2267 2272 2272 2272 2269 2267 2267 2267 2273 2288 2297 2306 2313 2319 2323 2323 2323 2329 2333 2342 2356 2356 2356 2348 2334 2334 2334 2336 2341 2341 2342 2343 2344 2348 2355 2363 2369 2371 2379 2386 2397 2405 2410 2420 2433 2442 2445 2460 2471 2483 2488 2492 2492 2496 2496 2496 2496 2497 2499 2503 2542 2543 2543 2544 2544 2544 2545 2546 2547 2548 2556 2562 2568 2575 2575 2575 2575 2575 2575 2575 2575 2580 2583 2583 2583 2573 2564 2560 2560 2560 2560 2560 2547 0 0 0 0 0 0 0 0 0 0 2405 2442 2442 2442 2427 2420 2407 0 2251 2233 2233 2233 2241 2241 2241 2235 2207 2174 2155 2138 2135 2135 0 0 0 0 2445 2445 2445 2438 2438 2432 2424 2424 2423 2422 2421 2421 2418 2406 2405 2403 2400 2400 2389 2372 2353 2339 2318 0 0 0 0 0 0 0 0 0 0 0 0 0 0 0 0 0 0 0 0 0 0 0 0 0 0 0 0 1103 1090 1088 1086 1083 1078 1077 1075 1075 1072 1070 1067 1064 1062 1059 1057 1054 1053 1051 1050 1048 1046 1044 1042 1041 1039 1038 1036 1035 1032 1029 1028 1027 1025 1022 1020 1017 1015 1013 1011 1008 1006 1005 1003 1000 998 996 994 992 990 988 986 984 982 980 978 977 975 973 970 967 965 963 963 959 949 930 910 896 886 880 869 864 863 861 861 856 849 844 839 836 832 828 825 825 825 829 831 831 831 824 816 816 816 824 826 827 833 849 861 870 873 876 881 884 885 886 886 886 886 886 886 885 885 883 883 882 881 880 878 876 876 873 872 871 869 868 867 867 867 866 866 866 868 878 888 894 907 929 948 954 954 954 954 954 957 995 1011 1011 1011 1011 1013 1015 1018 1018 1018 1018 1018 1019 1019 1019 1019 1017 1016 1014 1013 1011 1010 1008 1007 1007 1006 1005 1003 1001 1001 999 998 997 994 992 990 986 983 980 977 972 968 965 962 959 959 957 956 954 952 947 946 945 945 945 944 944 942 940 937 933 924 916 914 913 904 904 904 0 0 0 0 0 0 1302 1326 1342 1342 1364 1378 1399 1402 1405 1408 1415 1421 1421 1421 1419 1419 1415 1415 1410 1394 1382 1373 1372 1371 1371 1365 1335 1327 1317 1310 1306 1299 1281 1239 1233 1232 1229 1222 1221 1196 1177 1138 1090 1090 1088 1088 1088 1071 1056 1032 1018 995 972 946 941 938 934 0 0 0 0 751 741 741 741 722 712 0 649 649
0 0 0 0 0 868 868 868 869 874 886 899 910 910 910 912 912 915 936 954 958 976 999 1020 1045 1067 1089 1113 1123 1126 1129 1137 1150 1161 1164 1173 1177 1181 1187 1189 1193 1205 1222 1238 1254 1269 1288 1305 1321 1331 1341 1351 1371 1400 1410 1416 1420 1432 1432 1432 1433 1438 1458 1490 1505 1510 1519 1530 1549 1568 1572 1573 1574 1574 1582 1592 1605 1610 1613 1617 1619 1623 1631 1632 1640 1652 1658 1674 1689 1701 1709 1718 1733 1751 1752 1754 1755 1755 1758 1769 1781 1797 1800 1802 1807 1813 1822 1839 1856 1872 1875 1878 1885 1899 1900 1901 1902 1902 1911 1933 1957 1971 1972 1974 1983 1993 2003 2009 2014 2014 2014 2007 2007 2007 2012 2017 2032 2043 2054 2054 2054 2056 2056 2062 2078 2098 2112 2121 2132 2138 2140 2142 2144 2146 2155 2159 2159 2159 2161 2169 2179 2185 2186 2190 2201 2219 2241 2259 2272 2278 2282 2288 2288 2288 2274 2274 2274 2278 2288 2298 2311 2324 2332 2336 2339 2344 2352 2363 2363 2364 2367 2367 2367 2361 2353 2353 2353 2354 2354 2354 2354 2354 2357 2358 2368 2376 2378 2386 2392 2398 2408 2423 2431 2437 2445 2450 2451 2461 2472 2488 2491 2492 2494 2496 2498 2498 2505 2507 2508 2517 2544 2546 2546 2552 2552 2552 2561 2565 2567 2570 2578 2585 2596 2600 2600 2600 2595 2587 2585 2585 2585 2589 2589 2589 2586 2583 2582 2574 2574 2574 2571 2571 2547 0 0 0 0 0 0 0 0 0 0 2469 2469 2469 2464 2448 2427 0 0 2251 2233 2233 2233 2242 2242 2242 2239 2213 2183 2155 2143 2143 2143 0 0 0 2466 2469 2469 2469 2462 2453 2447 2443 2442 2441 2437 2430 2421 2418 2406 2406 2406 2400 2400 2393 2374 2361 2341 2330 2316 0 0 0 0 0 0 0 0 0 0 0 0 0 0 0 0 0 0 0 0 0 0 0 0 0 0 1109 1099 1089 1086 1084 1077 1077 1075 1075 1073 1070 1069 1067 1064 1061 1059 1057 1054 1052 1051 1050 1048 1045 1043 1041 1040 1038 1037 1034 1033 1031 1029 1027 1026 1024 1022 1019 1016 1015 1012 1010 1008 1006 1004 1002 999 997 996 993 992 989 987 985 983 981 980 977 976 974 972 970 967 965 962 962 958 948 930 907 887 880 873 868 864 863 861 861 856 849 844 839 836 832 828 825 825 825 829 831 831 831 824 816 816 816 830 831 832 840 849 860 870 873 876 880 884 885 885 886 886 886 886 886 885 884 883 882 881 880 879 877 876 875 873 872 870 869 868 867 867 867 866 866 866 869 881 888 894 907 933 951 963 966 967 983 987 996 1008 1012 1013 1013 1013 1013 1015 1018 1018 1018 1018 1018 1019 1019 1019 1019 1017 1016 1014 1013 1011 1010 1008 1007 1007 1006 1005 1004 1003 1001 999 998 997 994 992 990 986 983 980 977 973 970 965 962 961 959 957 956 956 954 950 948 947 946 946 946 946 943 942 937 932 924 913 913 901 895 895 0 0 0 0 0 0 0 1315 1335 1352 1354 1368 1389 1406 1414 1414 1416 1419 1424 1424 1424 1424 1422 1421 1418 1415 1400 1385 1385 1385 1380 1380 1378 1364 1344 1328 1317 1307 1300 1283 1252 1246 1239 1237 1225 1218 1196 1177 1138 1097 1097 1097 1097 1097 1091 1078 1056 1031 1002 972 946 926 904 0 0 0 0 751 741 736 727 722 722 720 0 0 0
0 0 0 0 0 849 849 852 863 874 886 896 903 903 903 909 912 914 932 937 958 976 999 1020 1045 1066 1075 1102 1123 1133 1136 1145 1155 1164 1169 1178 1181 1188 1195 1198 1204 1209 1222 1238 1254 1269 1288 1307 1321 1340 1342 1353 1383 1405 1420 1428 1440 1447 1448 1449 1451 1453 1480 1500 1508 1516 1531 1544 1566 1580 1582 1582 1583 1583 1585 1594 1610 1620 1621 1625 1629 1639 1641 1644 1651 1654 1675 1690 1701 1711 1720 1732 1752 1768 1768 1768 1765 1765 1765 1777 1789 1800 1803 1814 1818 1822 1829 1841 1857 1876 1881 1888 1902 1921 1928 1929 1931 1931 1944 1956 1974 1979 1982 1983 1983 1993 2003 2019 2022 2023 2023 2023 2023 2023 2029 2033 2043 2051 2058 2067 2071 2072 2076 2083 2101 2117 2130 2139 2145 2151 2151 2152 2152 2152 2162 2173 2178 2181 2181 2188 2196 2199 2202 2211 2226 2242 2256 2271 2287 2296 2296 2297 2297 2294 2292 2292 2292 2297 2303 2305 2319 2340 2350 2352 2356 2363 2379 2385 2385 2388 2388 2385 2385 2377 2365 2365 2363 2363 2361 2361 2361 2367 2372 2379 2388 2392 2398 2404 2407 2411 2423 2436 2452 2458 2459 2459 2462 2464 2475 2489 2495 2497 2497 2497 2498 2500 2507 2514 2519 2531 2546 2558 2558 2558 2558 2558 2568 2578 2590 2594 2598 2605 2618 2624 2624 2624 2611 2610 2604 2596 2596 2595 2595 2596 2597 2597 2597 2597 2594 2591 2581 2576 2541 0 0 0 0 0 0 0 0 0 0 2483 2497 2497 2497 2478 0 0 2314 2301 2272 2254 2252 2252 2246 2246 2246 2228 2203 2177 2177 2177 0 0 0 0 2493 2493 2493 2482 2473 2467 2466 2466 2466 2464 2457 2444 2430 2418 2406 2406 2406 2406 2406 2406 2374 2361 2351 2340 2321 2313 2299 2277 0 0 0 0 0 0 0 0 0 0 0 0 0 0 0 0 0 0 0 0 0 0 1125 1097 1092 1086 1082 1076 1076 1074 1073 1072 1071 1070 1067 1065 1064 1061 1058 1057 1053 1052 1050 1049 1047 1044 1042 1039 1038 1037 1035 1033 1032 1030 1029 1027 1025 1022 1021 1019 1016 1014 1011 1010 1007 1006 1003 1002 999 997 995 993 991 989 987 985 982 980 978 977 975 972 971 968 965 964 962 961 955 946 931 907 887 880 873 868 864 863 861 861 856 849 844 839 836 832 828 825 825 825 829 833 833 833 825 825 825 828 832 833 833 841 849 860 869 874 876 880 884 885 885 885 886 886 886 885 885 883 883 882 880 880 878 877 876 874 872 870 869 868 866 866 866 866 866 866 866 869 885 888 894 907 933 951 964 973 975 989 1000 1012 1016 1016 1016 1016 1015 1015 1015 1018 1018 1018 1018 1018 1019 1019 1019 1019 1017 1016 1014 1013 1011 1010 1007 1007 1006 1006 1005 1004 1003 1001 999 996 995 993 990 988 986 983 980 978 974 971 967 965 962 960 958 957 957 956 953 950 950 949 949 948 948 947 943 938 932 924 913 908 886 886 886 0 0 0 0 0 0 0 1330 1358 1371 1386 1386 1395 1419 1423 1423 1424 1425 1428 1428 1428 1424 1424 1423 1421 1418 1407 1390 1390 1389 1389 1384 1380 1365 1344 1330 1318 1310 1300 1286 1266 1254 1250 1247 1229 1218 1196 1177 1138 1108 1103 1101 1103 1101 1099 1099 1083 1056 0 0 0 0 0 0 0 0 0 783 778 752 741 722 722 720 0 0 0
0 0 0 868 849 849 849 852 863 868 879 889 899 904 904 909 912 914 932 937 958 976 999 1020 1045 1066 1073 1096 1118 1136 1150 1157 1161 1166 1171 1178 1181 1188 1198 1208 1215 1220 1230 1244 1254 1269 1284 1307 1321 1340 1358 1373 1396 1421 1434 1443 1448 1456 1468 1472 1472 1476 1488 1505 1511 1521 1535 1552 1571 1585 1591 1594 1596 1598 1598 1600 1613 1624 1627 1631 1641 1648 1655 1657 1664 1676 1690 1701 1710 1719 1727 1742 1765 1789 1789 1789 1776 1776 1776 1787 1802 1805 1820 1825 1825 1826 1829 1841 1860 1877 1887 1898 1912 1930 1950 1958 1961 1970 1982 1987 1987 1987 1987 1987 1990 1996 2003 2019 2032 2041 2041 2041 2041 2041 2049 2057 2066 2070 2071 2082 2094 2098 2100 2106 2120 2133 2142 2147 2151 2155 2159 2159 2159 2161 2168 2181 2185 2198 2208 2218 2224 2229 2234 2241 2254 2264 2275 2287 2301 2303 2308 2309 2313 2313 2313 2315 2315 2320 2320 2321 2330 2350 2368 2377 2385 2387 2397 2403 2404 2405 2405 2404 2403 2391 2377 2370 2368 2365 2365 2365 2369 2380 2388 2398 2401 2411 2419 2420 2423 2425 2437 2444 2457 2461 2462 2463 2466 2472 2480 2491 2501 2501 2501 2501 2501 2502 2516 2522 2532 2538 2548 2566 2571 2572 2575 2575 2587 2599 2612 2619 2623 2623 2625 2625 2625 2624 2617 2610 2610 2609 2609 2609 2609 2609 2609 2619 2619 2619 2598 2594 2584 2576 0 0 0 0 0 0 0 0 0 0 2477 2483 2523 2523 2523 2479 0 0 2301 2296 2278 2272 2259 2255 2255 2252 2252 2243 2223 2196 2196 2196 0 0 0 2482 2504 2504 2504 2501 2491 2489 2489 2488 2488 2484 2473 2455 2442 2434 2427 2427 2427 2422 2421 2421 2400 2375 2358 2344 2333 2326 2316 2294 2264 0 0 0 0 0 0 0 0 0 0 0 0 0 0 0 0 0 0 0 0 0 1105 1097 1092 1083 1080 1076 1074 1073 1073 1071 1069 1068 1066 1064 1063 1061 1058 1057 1053 1052 1050 1048 1047 1043 1041 1038 1037 1035 1034 1032 1031 1029 1027 1026 1025 1022 1020 1018 1016 1013 1011 1009 1007 1005 1003 1001 999 997 995 993 990 988 986 983 982 980 978 976 974 972 970 967 965 963 962 959 953 946 931 907 887 880 873 868 866 866 864 864 862 856 850 844 840 835 830 830 830 830 833 837 837 837 832 829 829 829 832 833 834 844 852 860 868 874 878 880 884 885 885 885 885 885 885 885 884 883 882 881 879 879 878 876 874 873 871 869 868 866 866 865 865 865 864 864 864 869 885 887 890 904 933 951 964 976 988 990 1004 1013 1017 1017 1017 1016 1016 1016 1017 1017 1017 1018 1018 1019 1020 1020 1020 1018 1017 1016 1014 1013 1011 1010 1007 1006 1006 1005 1005 1004 1003 1001 998 996 995 993 990 987 986 984 980 978 974 971 969 966 964 960 959 957 957 956 954 953 952 951 950 950 949 947 944 938 932 926 915 908 883 883 883 0 0 0 0 0 0 0 1333 1388 1401 1415 1416 1426 1429 1429 1430 1435 1443 1443 1443 1436 1431 1429 1429 1427 1421 1413 1398 1394 1393 1391 1391 1381 1366 1345 1330 1322 1316 1304 1287 1274 1269 1262 1252 1231 1220 1212 1179 1142 1127 1115 1108 1106 1104 1102 1101 1101 1083 0 0 0 0 0 0 0 0 0 0 786 783 741 722 722 0 0 0 0
891 891 868 868 849 849 849 852 862 863 871 889 899 909 917 917 928 931 932 937 965 990 1023 1045 1054 1054 1072 1095 1114 1136 1150 1157 1161 1166 1171 1178 1188 1189 1198 1208 1220 1229 1239 1247 1255 1269 1284 1305 1313 1340 1360 1380 1403 1421 1434 1443 1450 1460 1474 1490 1492 1492 1495 1505 1513 1524 1539 1561 1579 1591 1596 1600 1604 1607 1608 1612 1619 1631 1640 1646 1654 1656 1661 1675 1689 1700 1710 1715 1721 1727 1737 1755 1777 1790 1793 1793 1793 1793 1793 1815 1829 1833 1841 1841 1841 1844 1845 1847 1862 1878 1893 1910 1929 1948 1962 1976 1987 1997 1999 2000 2000 1999 1999 1999 1999 2002 2015 2028 2041 2049 2054 2055 2055 2059 2069 2083 2095 2099 2100 2101 2108 2116 2121 2124 2131 2138 2145 2147 2151 2159 2165 2171 2173 2173 2179 2182 2199 2220 2239 2247 2251 2252 2253 2264 2277 2289 2296 2305 2305 2315 2317 2323 2330 2330 2331 2333 2341 2343 2345 2351 2351 2359 2380 2396 2406 2413 2415 2415 2415 2415 2414 2414 2404 2397 2386 2379 2372 2365 2365 2365 2374 2393 2405 2411 2415 2426 2436 2437 2438 2438 2447 2453 2460 2464 2465 2467 2470 2477 2486 2495 2501 2501 2501 2501 2506 2522 2532 2540 2545 2548 2556 2566 2579 2591 2593 2599 2614 2630 2631 2631 2631 2630 2627 2627 2627 2627 2624 2618 2618 2618 2625 2625 2625 2624 2624 2624 2634 2634 2634 2623 2598 2510 0 0 0 0 0 0 0 0 0 0 2486 2487 2528 2528 2528 0 0 0 2301 2296 2278 2275 2275 2264 2263 2262 2260 2253 2236 2213 2213 2213 0 0 2453 2489 2510 2511 2511 2511 2507 2507 2507 2505 2504 2496 2482 2465 2454 2453 2452 2450 2445 2443 2440 2434 2420 2402 2375 2358 2340 2335 2316 2303 2279 2260 0 0 0 0 0 0 0 0 0 0 0 0 0 0 0 0 0 0 0 1102 1101 1095 1087 1081 1080 1076 1074 1073 1073 1071 1069 1067 1065 1064 1061 1059 1057 1055 1053 1052 1050 1047 1045 1042 1040 1038 1037 1035 1033 1031 1030 1028 1026 1025 1023 1022 1020 1017 1015 1013 1010 1009 1007 1004 1003 1000 998 996 994 991 989 988 985 983 981 979 977 975 974 971 969 967 964 962 960 957 953 946 931 909 892 880 877 870 866 866 864 864 862 858 854 848 844 842 842 842 845 845 847 847 847 842 833 830 830 830 836 842 851 855 857 862 868 874 878 880 883 884 884 885 885 885 885 885 884 883 882 881 879 879 878 876 874 872 870 868 867 866 865 865 864 864 864 864 864 869 883 885 887 896 918 945 963 974 987 999 1007 1013 1017 1018 1018 1018 1018 1018 1018 1018 1018 1018 1018 1019 1020 1020 1020 1018 1017 1016 1014 1013 1011 1009 1007 1005 1005 1004 1003 1003 1002 1000 998 996 994 993 990 987 985 984 981 978 975 972 971 968 964 961 959 958 958 956 956 954 953 952 950 950 949 947 945 942 932 928 927 908 883 883 883 0 0 0 0 0 0 0 1364 1390 1423 1431 1431 1431 1431 1432 1437 1446 1451 1451 1451 1444 1439 1435 1433 1431 1425 1418 1410 1401 1400 1396 1393 1384 1370 1355 1336 1323 1322 1306 1290 1276 1269 1263 1257 1242 1224 1216 1209 1181 1148 1121 1116 1111 1104 1102 1101 1101 1083 0 0 0 0 0 0 0 0 0 0 0 792 792 760 742 742 740 740 740
878 878 868 868 868 865 863 862 863 865 870 888 899 912 920 928 941 954 959 969 991 1018 1036 1048 1054 1054 1071 1092 1114 1136 1150 1157 1161 1164 1171 1178 1188 1190 1198 1209 1222 1231 1242 1249 1258 1269 1284 1292 1313 1340 1361 1381 1403 1421 1434 1443 1450 1460 1474 1492 1499 1500 1501 1507 1515 1533 1553 1572 1584 1593 1598 1606 1608 1611 1614 1621 1635 1650 1659 1660 1663 1666 1676 1687 1713 1725 1726 1728 1732 1737 1750 1768 1779 1793 1796 1801 1802 1805 1820 1838 1841 1853 1858 1858 1858 1858 1858 1858 1862 1878 1898 1929 1949 1962 1972 1983 2000 2010 2011 2015 2015 2015 2015 2012 2012 2012 2019 2031 2044 2055 2061 2068 2074 2082 2093 2109 2121 2124 2127 2127 2127 2131 2134 2135 2137 2139 2146 2148 2153 2161 2180 2187 2187 2188 2197 2199 2215 2242 2260 2270 2277 2279 2279 2284 2296 2301 2307 2310 2317 2321 2327 2337 2343 2347 2347 2351 2367 2375 2375 2379 2380 2380 2393 2405 2418 2422 2422 2422 2422 2420 2418 2415 2408 2405 2402 2398 2389 2375 2375 2375 2381 2408 2423 2427 2433 2441 2451 2455 2455 2459 2459 2460 2465 2467 2468 2470 2471 2477 2488 2498 2501 2501 2504 2504 2516 2536 2548 2558 2560 2561 2571 2580 2593 2601 2604 2615 2645 2649 2649 2649 2640 2634 2629 2629 2627 2627 2627 2620 2620 2620 2635 2635 2635 2635 2635 2643 2651 2651 2651 2623 2598 0 0 0 0 0 0 0 0 0 0 2487 2495 2498 2529 2529 2529 0 0 2304 2265 2265 2265 2278 2278 2278 2273 2268 2265 2260 2248 2244 2244 2244 0 0 2458 2493 2510 2517 2517 2517 2517 2515 2512 2512 2511 2505 2492 2477 2475 2474 2471 2471 2468 2460 2452 2445 2426 2402 2375 2360 2343 2335 2316 2303 2279 2264 0 0 0 0 0 0 0 0 0 0 0 0 0 0 0 0 0 0 1100 1098 1097 1091 1086 1081 1078 1075 1074 1073 1073 1071 1069 1066 1065 1062 1060 1058 1057 1055 1052 1051 1049 1046 1044 1042 1039 1038 1036 1034 1033 1031 1028 1027 1025 1024 1023 1021 1019 1017 1014 1012 1010 1008 1005 1003 1001 1000 997 994 992 991 989 986 985 982 981 978 976 974 973 971 968 967 964 961 957 953 950 944 933 915 900 885 877 870 866 866 864 864 862 858 854 848 844 844 844 847 851 853 853 853 851 845 836 836 836 836 845 858 861 863 863 864 868 875 878 880 882 883 883 884 885 885 884 884 883 882 882 880 879 879 877 875 874 871 869 868 867 865 865 863 863 863 863 863 864 869 878 883 887 896 916 934 958 974 987 999 1007 1013 1016 1016 1018 1018 1018 1018 1018 1017 1017 1017 1017 1019 1020 1020 1020 1017 1015 1015 1014 1012 1010 1008 1005 1005 1003 1003 1002 1002 1000 999 996 995 994 992 990 987 985 984 981 979 976 974 971 968 964 962 960 960 959 957 957 956 954 952 951 950 950 948 945 944 939 937 935 917 885 885 0 0 0 0 0 0 0 0 1400 1416 1426 1434 1434 1436 1436 1437 1445 1454 1454 1454 1451 1447 1444 1442 1440 1436 1428 1421 1411 1402 1402 1398 1397 1394 1380 1364 1350 1325 1323 1312 1300 1284 1271 1264 1259 1252 1237 1230 1212 1206 1180 1137 1120 1116 1095 1095 1093 1084 1083 0 0 0 0 0 0 0 0 0 0 0 0 817 786 768 756 753 753 750
862 862 866 866 866 865 864 863 864 865 870 888 899 912 920 928 943 954 962 981 1001 1020 1039 1054 1055 1061 1071 1091 1114 1129 1141 1148 1152 1158 1164 1178 1188 1193 1200 1210 1222 1233 1242 1251 1259 1269 1283 1292 1313 1340 1363 1381 1403 1418 1431 1442 1450 1460 1474 1492 1499 1503 1509 1514 1526 1546 1564 1577 1588 1596 1603 1609 1614 1616 1622 1635 1651 1664 1667 1672 1674 1686 1705 1726 1736 1737 1739 1740 1740 1747 1763 1778 1785 1793 1796 1804 1810 1820 1837 1852 1858 1866 1872 1876 1876 1876 1874 1874 1874 1888 1920 1943 1963 1975 1988 1998 2004 2016 2024 2026 2026 2028 2026 2026 2025 2025 2025 2031 2045 2056 2067 2077 2089 2100 2116 2131 2145 2145 2145 2145 2145 2143 2143 2145 2146 2146 2153 2162 2171 2190 2205 2212 2212 2214 2214 2216 2230 2253 2268 2283 2296 2296 2299 2300 2300 2311 2320 2327 2332 2334 2342 2353 2360 2361 2362 2368 2387 2392 2392 2395 2396 2397 2405 2415 2424 2427 2430 2430 2430 2428 2425 2424 2420 2419 2418 2417 2416 2403 2402 2402 2402 2424 2426 2447 2456 2462 2474 2474 2474 2472 2472 2472 2473 2477 2478 2478 2478 2481 2489 2500 2508 2509 2509 2511 2526 2545 2561 2567 2571 2576 2583 2589 2595 2606 2607 2629 2645 2653 2653 2653 2649 2638 2629 2629 2627 2627 2627 2624 2624 2624 2635 2637 2642 2644 2650 2654 2654 2654 2651 2623 2582 0 0 0 0 0 0 0 0 0 2501 2501 2521 2521 2545 2545 2545 0 0 2274 2249 2249 2249 2271 2280 2283 2283 2280 2269 2269 2265 2265 2265 0 0 0 2468 2495 2512 2517 2519 2519 2519 2519 2515 2515 2513 2505 2492 2489 2477 2477 2477 2479 2479 2479 2470 2451 2426 2402 2379 2362 2346 2335 2328 2303 2279 2264 0 0 0 0 0 0 0 0 0 0 0 0 0 0 0 1095 1095 1095 1096 1096 1096 1088 1086 1081 1079 1076 1075 1074 1073 1071 1069 1066 1064 1061 1060 1058 1055 1053 1052 1050 1048 1046 1043 1041 1038 1036 1034 1033 1031 1029 1027 1025 1024 1022 1021 1019 1017 1015 1013 1011 1008 1006 1004 1002 1001 998 995 993 991 990 988 986 984 982 979 977 975 973 972 970 968 966 963 960 956 950 945 941 933 918 903 885 877 870 862 860 860 859 859 858 854 848 845 845 845 850 852 853 853 853 851 846 838 838 838 838 845 862 863 865 868 868 868 875 878 879 881 882 883 884 884 884 884 884 883 882 881 879 878 878 877 875 873 871 868 868 866 865 863 863 863 863 862 862 862 868 872 878 882 888 915 934 955 974 987 999 1007 1012 1013 1016 1017 1017 1018 1018 1018 1017 1017 1017 1017 1019 1019 1019 1018 1016 1015 1014 1013 1010 1008 1005 1004 1003 1003 1002 1001 1001 999 997 996 994 993 992 989 987 985 983 981 979 976 974 971 968 965 963 962 960 959 958 957 956 955 953 951 950 950 948 947 945 943 943 939 931 931 931 0 0 0 0 0 0 0 0 1419 1427 1436 1437 1438 1439 1440 1442 1450 1457 1457 1457 1452 1448 1447 1447 1447 1444 1436 1423 1411 1403 1402 1400 1397 1394 1386 1369 1351 1330 1329 1328 1318 1296 1278 1266 1261 1255 1248 1236 1232 1209 1184 1173 1146 1122 1094 1080 1079 1072 1072 0 0 0 0 0 0 0 0 0 0 0 825 825 815 797 784 769 759 759
837 837 857 862 864 866 866 866 866 867 870 888 903 912 920 934 943 958 967 989 1007 1023 1042 1049 1054 1061 1071 1091 1108 1117 1121 1129 1133 1144 1160 1178 1194 1201 1203 1210 1222 1235 1245 1253 1262 1271 1284 1292 1315 1342 1363 1381 1393 1404 1413 1423 1436 1450 1467 1486 1500 1505 1510 1517 1531 1552 1565 1578 1589 1598 1605 1615 1623 1630 1639 1651 1666 1670 1681 1687 1691 1702 1717 1732 1742 1748 1751 1751 1752 1759 1774 1787 1793 1793 1796 1804 1816 1830 1849 1855 1865 1873 1878 1885 1891 1892 1895 1897 1899 1920 1938 1957 1974 1989 2003 2006 2016 2028 2033 2035 2035 2036 2036 2035 2035 2035 2035 2036 2052 2067 2079 2088 2101 2116 2138 2156 2166 2166 2166 2163 2161 2160 2158 2158 2158 2158 2170 2182 2191 2203 2214 2222 2227 2227 2228 2231 2243 2256 2268 2286 2300 2301 2304 2310 2310 2311 2320 2336 2348 2355 2364 2374 2378 2379 2381 2389 2396 2404 2404 2405 2408 2409 2417 2426 2432 2438 2439 2439 2440 2442 2441 2441 2441 2441 2441 2440 2440 2440 2437 2437 2437 2438 2456 2470 2478 2484 2495 2495 2495 2481 2481 2481 2481 2488 2488 2490 2492 2492 2499 2508 2516 2520 2520 2527 2537 2554 2569 2574 2575 2583 2589 2590 2595 2606 2618 2633 2647 2654 2654 2654 2653 2640 2629 2629 2627 2627 2627 2627 2627 2629 2636 2641 2650 2652 2655 2660 2660 2660 2651 2579 0 0 0 0 0 0 0 0 0 2532 2532 2536 2543 2543 2567 2567 2567 0 0 2264 2231 2231 2231 2257 2280 2283 2283 2280 2277 2275 2275 2277 0 0 0 2455 2483 2501 2513 2519 2519 2520 2520 2520 2520 2516 2513 2505 2492 2489 2479 2479 2479 2484 2484 2484 2470 2451 2426 2394 2375 2360 2346 2335 2314 2287 2271 0 0 0 0 0 0 0 0 0 0 0 0 1115 1112 1101 1101 1092 1092 1092 1090 1090 1090 1086 1084 1081 1079 1077 1075 1074 1073 1071 1068 1066 1063 1061 1060 1057 1055 1053 1051 1049 1047 1045 1043 1040 1038 1036 1034 1032 1029 1028 1027 1024 1022 1020 1019 1017 1016 1014 1012 1009 1008 1005 1003 1002 999 997 995 993 991 989 987 985 983 981 979 977 975 973 972 969 968 965 963 960 955 950 945 941 934 921 904 885 876 870 862 860 857 856 856 856 853 848 847 847 847 850 852 853 853 853 853 847 842 839 839 839 846 863 864 867 870 870 871 875 878 879 880 881 882 882 883 883 883 883 882 881 880 879 878 876 875 873 871 870 868 867 866 865 863 862 862 862 861 859 859 859 863 871 875 886 906 931 955 973 980 988 998 1005 1007 1011 1014 1014 1014 1014 1014 1016 1016 1017 1017 1018 1018 1018 1017 1013 1011 1011 1010 1008 1006 1004 1003 1003 1001 1001 1000 999 998 995 995 993 992 992 988 986 984 983 980 979 976 974 971 967 965 963 962 961 960 959 958 957 956 954 951 950 950 949 947 945 943 943 939 936 936 936 0 0 0 0 0 0 0 1409 1426 1435 1440 1441 1442 1442 1442 1448 1453 1458 1458 1458 1452 1450 1450 1450 1450 1449 1442 1426 1413 1403 1403 1401 1398 1395 1386 1374 1351 1346 1337 1337 1336 1308 1287 1276 1270 1260 1255 1248 1239 1226 1199 1176 1151 1126 1095 1069 1057 1029 1021 1014 0 0 0 0 0 0 0 0 0 825 832 832 832 828 810 801 787 787
818 818 835 836 859 864 866 866 866 869 880 890 903 912 920 934 945 963 973 996 1014 1026 1039 1048 1052 1061 1071 1090 1100 1106 1111 1115 1125 1139 1159 1178 1195 1203 1208 1218 1233 1238 1247 1255 1263 1276 1286 1300 1325 1346 1363 1380 1388 1394 1403 1410 1423 1439 1458 1483 1502 1509 1514 1524 1532 1553 1566 1579 1589 1600 1610 1624 1638 1650 1654 1658 1669 1683 1693 1696 1703 1713 1725 1736 1745 1756 1763 1767 1769 1770 1787 1798 1805 1805 1805 1812 1823 1839 1853 1860 1872 1878 1882 1889 1901 1913 1919 1920 1929 1943 1958 1975 1989 1994 2010 2023 2032 2037 2041 2041 2042 2043 2045 2045 2045 2045 2045 2049 2068 2086 2098 2105 2118 2145 2171 2184 2187 2187 2187 2183 2180 2177 2172 2172 2172 2175 2186 2199 2209 2216 2223 2227 2234 2237 2237 2239 2247 2256 2269 2286 2300 2313 2313 2315 2315 2315 2324 2339 2357 2371 2380 2388 2393 2395 2395 2401 2410 2418 2418 2419 2421 2421 2430 2439 2447 2452 2453 2453 2457 2458 2463 2463 2463 2463 2463 2463 2470 2473 2474 2474 2474 2480 2487 2494 2498 2501 2506 2506 2506 2498 2494 2494 2494 2505 2505 2505 2507 2507 2516 2527 2535 2540 2546 2548 2559 2571 2577 2579 2579 2584 2590 2592 2598 2606 2622 2640 2650 2654 2654 2654 2654 2640 2634 2634 2634 2634 2634 2633 2633 2633 2637 2643 2651 2653 2655 2656 2656 2656 2605 0 0 0 0 0 0 0 0 0 2513 2565 2565 2568 2568 2568 2568 2568 2567 0 0 0 2221 2221 2221 2226 2253 2276 2276 2276 2277 2277 2277 2293 0 0 2461 2485 2500 2501 2515 2521 2524 2524 2524 2522 2520 2517 2511 2505 2491 2489 2482 2482 2482 2484 2484 2484 2470 2451 2416 2392 2372 2358 2346 2331 2307 0 0 0 0 0 0 0 0 0 0 0 0 0 1118 1101 1099 1097 1097 1091 1088 1088 1088 1087 1085 1085 1083 1080 1079 1076 1075 1074 1072 1070 1068 1065 1063 1061 1059 1056 1054 1052 1050 1048 1047 1044 1042 1039 1037 1035 1032 1031 1029 1027 1025 1023 1021 1020 1018 1015 1014 1012 1010 1008 1006 1004 1001 1000 998 996 994 991 989 988 985 984 982 981 978 977 974 972 971 968 967 964 961 958 954 949 945 941 935 930 904 884 876 870 862 860 857 856 856 856 850 847 847 847 850 854 855 855 855 853 853 849 847 844 844 844 855 865 865 868 870 870 872 875 878 879 880 881 881 882 882 882 882 882 881 881 879 878 877 875 874 873 871 870 867 866 865 864 862 862 862 862 859 859 859 859 861 868 875 886 888 910 939 962 969 978 985 988 992 993 998 1004 1005 1006 1009 1015 1015 1015 1015 1015 1015 1015 1015 1011 1009 1009 1009 1007 1006 1004 1002 1002 1001 1001 999 997 994 994 994 992 991 990 988 985 981 980 979 977 975 974 971 967 965 963 962 961 960 959 958 957 956 954 952 951 951 950 947 946 943 943 939 936 936 936 0 0 0 0 0 0 0 1415 1442 1445 1445 1445 1445 1445 1450 1451 1457 1458 1458 1458 1452 1450 1450 1450 1450 1450 1446 1431 1419 1409 1404 1402 1398 1398 1387 1380 1369 1350 1346 1339 1336 1308 1287 1276 1270 1260 1256 1251 1239 1226 1199 1176 1151 1126 1095 1065 1039 1029 1021 1014 985 0 0 0 0 0 0 0 0 0 856 856 856 846 810 807 807 805
804 804 833 835 849 858 863 866 866 869 880 890 903 910 920 940 958 964 983 1003 1018 1026 1038 1046 1052 1062 1075 1087 1095 1103 1110 1115 1124 1138 1158 1178 1195 1203 1211 1218 1234 1245 1255 1259 1269 1283 1288 1306 1331 1349 1363 1377 1383 1389 1395 1403 1420 1434 1457 1481 1502 1509 1514 1524 1535 1557 1570 1579 1594 1606 1621 1641 1653 1660 1662 1671 1683 1693 1700 1704 1713 1724 1733 1744 1747 1773 1785 1789 1794 1794 1800 1810 1814 1817 1819 1822 1835 1849 1857 1868 1877 1881 1888 1898 1910 1925 1932 1939 1949 1963 1981 1992 1994 2007 2025 2034 2040 2040 2041 2047 2048 2048 2051 2053 2055 2055 2057 2067 2087 2107 2119 2128 2148 2171 2188 2200 2200 2200 2200 2197 2197 2197 2193 2187 2187 2187 2200 2213 2223 2233 2236 2239 2241 2243 2243 2244 2247 2258 2269 2285 2302 2314 2321 2321 2323 2324 2327 2342 2358 2375 2385 2395 2399 2403 2404 2413 2424 2431 2431 2432 2433 2436 2445 2454 2460 2467 2468 2471 2472 2473 2481 2484 2484 2484 2484 2484 2490 2496 2498 2500 2502 2509 2514 2514 2514 2511 2510 2509 2509 2501 2501 2501 2508 2520 2520 2522 2523 2524 2533 2544 2551 2554 2567 2574 2586 2594 2594 2594 2594 2593 2593 2595 2598 2607 2626 2643 2652 2654 2659 2659 2659 2642 2641 2641 2641 2641 2641 2638 2637 2637 2637 2643 2654 2660 2660 2660 2651 2631 2560 0 0 0 0 0 0 0 0 0 2538 2580 2580 2585 2585 2585 2585 2585 2581 2552 0 0 0 2219 2205 2205 2205 2224 2251 2260 2272 2275 2277 2302 0 0 2484 2487 2500 2501 2515 2524 2524 2524 2524 2522 2522 2517 2511 2496 2481 2471 2471 2471 2482 2484 2484 2484 2466 2442 2415 2390 2370 2349 0 0 0 0 0 0 0 0 0 0 0 0 0 0 0 1112 1110 1100 1095 1094 1094 1091 1088 1088 1088 1086 1085 1084 1083 1080 1078 1076 1075 1073 1071 1070 1068 1065 1062 1060 1058 1055 1054 1052 1050 1048 1045 1043 1041 1039 1036 1034 1031 1029 1027 1026 1024 1022 1020 1018 1016 1014 1012 1011 1009 1006 1004 1002 1001 999 997 994 993 990 989 987 985 983 982 980 978 976 974 972 969 968 965 963 960 957 952 949 944 939 935 930 904 884 877 876 872 862 857 856 856 856 850 847 847 847 853 858 858 858 855 855 854 854 854 854 854 855 862 865 867 869 869 871 872 875 878 880 880 881 881 881 881 881 881 881 880 879 878 877 876 874 873 871 870 868 866 865 864 863 862 862 861 861 859 857 857 857 860 865 873 875 877 892 912 926 949 966 971 974 983 983 986 989 995 999 999 999 1001 1001 1001 1002 1008 1008 1008 1008 1008 1008 1008 1007 1006 1004 1002 1001 1000 999 998 995 993 992 992 991 991 990 987 984 981 979 977 975 973 972 970 965 964 963 962 961 960 959 958 957 956 955 953 952 951 950 947 946 943 943 939 939 939 939 0 0 0 0 0 0 0 1420 1454 1454 1454 1452 1452 1452 1457 1457 1459 1459 1459 1458 1456 1452 1452 1452 1450 1450 1447 1438 1426 1417 1410 1408 1402 1398 1390 1384 1372 1350 1346 1339 1336 1308 1288 1276 1270 1261 1257 1251 1239 1226 1199 1176 1151 1126 1094 1063 1038 1029 1021 1014 1001 988 0 0 0 0 0 0 0 0 859 859 859 853 821 807 807 806
803 803 812 816 829 844 853 857 861 869 880 890 899 910 926 955 960 972 983 1003 1018 1026 1038 1042 1052 1062 1075 1085 1092 1099 1109 1114 1124 1138 1158 1178 1199 1206 1213 1224 1241 1256 1261 1269 1279 1284 1297 1314 1333 1350 1364 1372 1378 1381 1394 1403 1420 1434 1455 1479 1502 1509 1514 1524 1535 1557 1582 1593 1603 1610 1621 1641 1655 1664 1669 1681 1693 1700 1704 1709 1715 1728 1747 1765 1780 1799 1806 1812 1815 1815 1816 1820 1825 1828 1835 1840 1845 1857 1861 1874 1883 1890 1902 1917 1929 1934 1942 1948 1958 1974 1985 1998 2009 2021 2031 2039 2041 2041 2042 2048 2050 2052 2055 2063 2069 2069 2070 2080 2099 2118 2132 2146 2164 2182 2196 2205 2208 2208 2208 2208 2207 2207 2207 2201 2201 2201 2210 2224 2238 2246 2248 2250 2250 2250 2249 2249 2249 2260 2269 2285 2303 2316 2327 2338 2342 2343 2345 2354 2364 2375 2387 2401 2414 2417 2418 2422 2435 2443 2447 2447 2448 2450 2457 2465 2474 2479 2484 2488 2489 2489 2498 2498 2498 2498 2498 2499 2499 2503 2511 2511 2518 2523 2523 2523 2521 2515 2511 2511 2511 2501 2501 2501 2513 2527 2527 2529 2533 2533 2549 2560 2562 2563 2576 2592 2611 2619 2619 2619 2609 2608 2607 2607 2609 2609 2627 2644 2654 2658 2663 2663 2663 2645 2642 2642 2642 2642 2642 2640 2640 2640 2643 2652 2668 2668 2668 2658 2644 2591 0 0 0 0 0 0 0 0 0 2517 2568 2594 2594 2594 2596 2596 2596 2596 2596 2585 2513 0 0 0 0 2205 2205 2218 2224 2232 2250 2260 2285 0 0 0 2492 2497 2500 2506 2518 2526 2526 2526 2524 2522 2522 2517 2504 2489 2475 2459 2459 2459 2482 2482 2482 2470 2444 2426 2408 2386 0 0 0 0 0 0 0 0 0 0 0 0 0 0 0 1114 1111 1109 1108 1099 1094 1094 1093 1091 1088 1088 1087 1085 1085 1082 1081 1079 1078 1076 1074 1071 1070 1068 1066 1064 1062 1059 1057 1055 1054 1051 1049 1046 1044 1043 1040 1037 1035 1032 1030 1029 1027 1026 1024 1022 1020 1017 1015 1013 1010 1009 1007 1005 1003 1001 999 998 996 994 992 990 988 985 984 982 981 978 977 974 973 971 969 967 964 962 960 956 952 949 944 939 935 930 905 884 884 879 879 879 872 864 862 857 850 850 850 851 858 862 862 862 859 859 858 858 858 859 859 860 862 865 868 868 869 871 873 876 878 880 880 881 881 881 881 881 881 880 880 878 878 877 875 874 872 870 869 867 866 865 864 862 861 861 860 859 859 857 857 857 859 864 864 864 869 873 881 884 0 0 0 964 967 968 968 967 968 967 967 967 967 967 983 983 993 998 1002 1002 1003 1003 1003 1003 1003 1003 1001 999 999 997 995 991 991 991 991 991 991 989 987 984 980 977 976 973 971 970 968 965 963 962 961 960 959 958 958 957 956 955 953 953 952 950 948 946 943 943 939 936 936 936 969 0 0 0 0 0 0 1437 1455 1459 1459 1461 1461 1462 1461 1461 1461 1462 1461 1461 1459 1455 1452 1452 1450 1450 1448 1440 1431 1423 1418 1416 1413 1410 1408 1400 1377 1354 1339 1336 1327 1308 1291 1276 1270 1265 1262 1258 1235 1203 1197 1167 1138 1112 1082 1053 1043 1038 1031 1026 1009 998 977 0 0 0 0 0 0 0 883 861 861 854 823 811 808 808
791 791 792 794 810 829 843 851 858 865 878 890 899 910 937 955 967 974 986 1003 1018 1023 1024 1036 1048 1062 1075 1085 1092 1098 1104 1113 1123 1137 1156 1179 1201 1213 1220 1232 1246 1263 1276 1284 1296 1299 1312 1325 1336 1352 1364 1372 1378 1381 1394 1403 1420 1434 1452 1473 1478 1498 1509 1517 1535 1557 1582 1593 1603 1610 1621 1641 1655 1664 1677 1689 1700 1706 1711 1713 1722 1736 1757 1782 1804 1814 1822 1827 1832 1832 1833 1834 1837 1840 1846 1852 1857 1860 1870 1883 1892 1906 1919 1937 1951 1957 1958 1960 1963 1978 1995 2008 2016 2023 2033 2039 2041 2042 2043 2049 2051 2056 2063 2071 2079 2080 2081 2083 2105 2122 2138 2152 2170 2185 2199 2210 2213 2213 2213 2210 2209 2209 2209 2209 2214 2215 2221 2229 2240 2250 2256 2258 2258 2258 2255 2255 2255 2261 2272 2286 2304 2318 2338 2356 2370 2370 2371 2374 2378 2383 2394 2407 2421 2425 2428 2430 2443 2454 2458 2463 2466 2466 2470 2482 2489 2497 2499 2501 2502 2511 2514 2514 2514 2511 2508 2508 2508 2512 2513 2521 2524 2525 2525 2524 2522 2516 2513 2513 2511 2506 2506 2506 2517 2533 2535 2535 2538 2543 2560 2568 2570 2570 2578 2597 2621 2633 2633 2633 2632 2631 2631 2630 2630 2631 2632 2646 2656 2661 2670 2670 2670 2665 2651 2651 2651 2651 2651 2645 2645 2645 2657 2673 2691 2691 2691 2660 2624 0 0 0 0 0 0 0 0 0 0 2544 2578 2598 2598 2598 2599 2600 2615 2635 2635 2635 2625 2573 2518 0 0 0 0 2218 2224 2232 2250 2260 0 0 0 2479 2493 2500 2503 2506 2518 2526 2526 2526 2524 2522 2522 2515 2502 2487 2473 2456 2454 2454 2454 2454 2454 2445 2425 2405 2393 2368 0 0 0 0 0 0 0 0 0 0 0 0 0 1137 1119 1110 1107 1105 1105 1098 1095 1094 1093 1091 1089 1088 1086 1085 1084 1082 1080 1078 1078 1076 1073 1071 1069 1067 1066 1063 1061 1058 1056 1054 1053 1050 1048 1046 1043 1041 1039 1036 1034 1031 1029 1027 1026 1024 1022 1020 1017 1016 1014 1011 1009 1007 1005 1003 1002 1000 998 996 995 993 992 989 987 985 983 981 979 978 975 974 972 969 968 965 963 961 960 955 951 948 944 939 928 917 906 889 888 888 888 881 873 873 866 858 851 851 851 859 862 864 864 864 863 863 863 861 861 861 861 861 862 864 867 870 871 871 873 876 879 880 880 881 881 881 881 880 880 880 879 878 876 875 875 873 871 869 868 867 865 864 862 862 860 860 858 857 857 856 855 855 854 854 854 860 861 863 864 867 876 885 0 0 950 950 950 950 949 948 944 944 944 949 956 959 959 971 983 985 986 986 991 999 999 999 997 996 994 992 989 989 989 991 991 991 991 989 987 983 977 975 972 970 968 967 966 963 960 959 959 959 958 957 957 957 956 955 954 954 953 952 948 948 946 945 939 939 939 939 958 0 0 0 0 0 0 1437 1459 1459 1459 1465 1465 1465 1463 1462 1462 1462 1462 1462 1462 1458 1453 1452 1452 1450 1449 1442 1432 1424 1424 1424 1423 1422 1420 1417 1399 1354 1338 1326 1321 1307 1293 1276 1270 1265 1262 1258 1232 1203 1197 1167 1138 1092 1059 1050 1050 1045 1038 1026 1009 999 994 0 0 0 0 0 0 0 892 889 887 876 844 829 822 822
779 779 788 788 806 827 843 851 858 865 878 890 899 919 944 961 969 975 986 1000 1008 1009 1014 1036 1048 1062 1077 1085 1092 1098 1104 1113 1122 1136 1156 1179 1204 1219 1226 1234 1248 1267 1282 1295 1299 1311 1325 1340 1343 1353 1364 1372 1378 1381 1394 1409 1420 1434 1448 1466 1470 1486 1498 1507 1522 1546 1582 1593 1603 1610 1621 1641 1655 1664 1678 1692 1700 1707 1714 1721 1731 1745 1763 1787 1804 1815 1829 1833 1839 1845 1847 1848 1848 1850 1856 1861 1867 1870 1879 1894 1907 1919 1935 1957 1974 1974 1975 1981 1981 1989 2006 2015 2021 2028 2037 2045 2048 2051 2052 2058 2060 2066 2074 2081 2088 2089 2089 2095 2110 2133 2150 2166 2178 2193 2203 2214 2218 2218 2218 2214 2211 2210 2210 2210 2218 2226 2230 2233 2242 2253 2257 2266 2266 2266 2265 2265 2265 2276 2290 2304 2315 2330 2353 2373 2389 2391 2394 2395 2395 2396 2406 2419 2429 2433 2435 2439 2447 2461 2468 2480 2482 2485 2489 2501 2514 2514 2515 2515 2515 2529 2535 2535 2535 2526 2525 2525 2525 2526 2528 2532 2532 2532 2526 2526 2523 2518 2517 2517 2517 2517 2518 2520 2526 2535 2543 2544 2547 2561 2578 2579 2582 2585 2585 2599 2623 2641 2651 2651 2651 2650 2647 2637 2635 2635 2635 2648 2656 2663 2679 2693 2693 2694 2694 2687 2686 2673 2667 2662 2662 2662 2678 2695 2714 2714 2714 2658 0 0 0 0 0 0 0 0 0 0 2534 2570 2590 2599 2601 2602 2606 2614 2638 2660 2668 2668 2668 2643 2615 2593 2502 0 0 0 0 0 0 0 0 0 0 2483 2493 2500 2503 2506 2518 2523 2523 2523 2521 2520 2517 2511 2499 2483 2469 2452 2431 2431 2430 2424 2424 2415 2402 0 0 0 0 0 0 0 0 0 0 0 0 0 0 1139 1122 1120 1114 1110 1107 1105 1102 1099 1097 1095 1093 1092 1090 1088 1086 1085 1083 1082 1080 1078 1077 1075 1073 1071 1069 1067 1065 1063 1061 1058 1056 1053 1051 1049 1047 1045 1043 1040 1037 1034 1032 1029 1027 1026 1024 1022 1019 1017 1015 1013 1012 1010 1007 1005 1003 1002 1000 999 997 995 994 992 990 988 987 984 983 980 978 977 975 973 971 969 967 964 962 960 958 955 951 947 944 939 927 916 906 895 889 889 889 888 883 873 866 859 859 859 861 862 863 864 864 865 866 866 866 866 866 864 864 864 864 864 867 870 872 873 874 876 879 880 880 880 881 881 881 880 879 879 877 877 875 875 873 872 870 868 867 865 864 864 862 861 860 859 858 857 857 856 855 854 852 852 851 851 851 852 853 860 871 879 880 881 897 918 918 928 929 929 929 929 929 928 928 928 934 935 946 953 958 961 970 981 993 994 994 994 993 990 988 988 988 990 990 990 990 989 985 979 973 970 968 966 965 963 963 962 958 956 956 956 956 956 956 956 955 955 954 954 953 952 949 949 947 947 946 940 940 940 958 0 0 0 0 0 0 1437 1459 1459 1463 1467 1467 1467 1464 1464 1464 1464 1464 1464 1464 1461 1455 1455 1455 1454 1451 1444 1435 1426 1426 1425 1425 1425 1425 1421 1401 1362 1338 1322 1320 1307 1293 1279 1273 1269 1266 1258 1228 1203 1192 1167 1138 1092 1059 1059 1050 1048 1047 1027 1009 999 994 0 0 0 0 0 0 969 939 914 905 898 891 875 852 852
779 779 788 788 806 827 843 851 858 865 878 894 909 928 951 962 970 976 986 1000 1008 1009 1014 1036 1048 1062 1079 1086 1095 1098 1104 1113 1120 1135 1154 1179 1208 1225 1233 1238 1250 1269 1285 1301 1305 1320 1333 1343 1349 1353 1364 1370 1383 1390 1399 1409 1421 1434 1448 1461 1466 1481 1496 1507 1515 1534 1557 1583 1603 1604 1613 1630 1649 1664 1679 1693 1702 1708 1718 1732 1741 1754 1769 1788 1804 1819 1831 1838 1847 1855 1859 1859 1860 1861 1863 1868 1871 1877 1889 1903 1917 1930 1947 1972 1986 1987 1987 1987 1996 2008 2018 2024 2029 2038 2047 2056 2064 2068 2068 2071 2076 2083 2091 2097 2100 2102 2105 2112 2129 2155 2174 2189 2203 2208 2215 2222 2224 2224 2224 2218 2214 2213 2213 2213 2219 2230 2235 2240 2252 2255 2266 2271 2271 2273 2273 2273 2283 2298 2313 2324 2333 2344 2365 2385 2405 2412 2414 2414 2415 2416 2423 2435 2442 2443 2446 2450 2456 2467 2478 2490 2501 2504 2510 2521 2527 2527 2531 2531 2531 2542 2549 2549 2549 2543 2540 2540 2540 2544 2550 2550 2550 2539 2534 2532 2532 2525 2525 2525 2534 2537 2540 2541 2545 2550 2553 2554 2564 2582 2601 2604 2604 2607 2607 2613 2628 2653 2662 2662 2662 2656 2652 2649 2648 2648 2648 2654 2658 2666 2684 2704 2712 2712 2712 2708 2707 2699 2694 2682 2682 2682 2696 2704 2714 2714 2714 2656 0 0 0 0 0 0 0 0 0 2528 2559 2576 2593 2602 2604 2606 2612 2626 2649 2660 2678 2685 2685 2685 2661 2656 2641 2587 2582 0 0 0 0 0 0 0 2468 2493 2505 2515 2518 2524 2526 2526 2526 2520 2518 2517 2516 2510 2496 2472 2459 2445 2431 2423 2419 2412 2405 2388 0 0 0 0 0 0 0 0 0 0 0 0 0 0 1142 1127 1122 1119 1114 1110 1107 1104 1102 1099 1097 1096 1094 1092 1091 1088 1086 1085 1083 1082 1079 1078 1077 1074 1072 1070 1068 1066 1064 1062 1060 1057 1054 1052 1050 1048 1045 1044 1042 1039 1037 1033 1030 1028 1026 1025 1022 1021 1016 1014 1012 1008 1006 1005 1005 1003 1002 1000 1000 998 997 995 993 991 989 987 986 984 982 980 978 977 975 972 970 968 967 963 961 957 955 952 949 946 944 938 926 916 906 895 889 889 889 888 883 873 866 861 861 861 862 863 863 863 865 867 869 869 869 868 868 867 866 864 864 864 867 871 873 874 876 878 879 880 880 880 880 880 880 879 879 878 877 876 875 874 872 870 869 868 866 865 864 863 861 860 859 859 858 857 856 856 855 853 852 851 851 850 850 850 850 856 865 865 867 871 871 879 888 898 904 910 910 910 910 911 911 914 920 920 927 936 943 947 951 957 966 974 978 985 986 986 986 985 984 984 985 985 985 985 981 975 971 968 965 963 961 961 960 960 957 954 954 954 954 955 955 954 954 954 954 954 953 953 951 951 948 948 947 940 940 940 955 968 0 0 0 0 0 0 1459 1459 1463 1469 1469 1469 1466 1466 1466 1466 1466 1466 1466 1463 1462 1460 1459 1457 1457 1450 1441 1433 1429 1428 1425 1425 1425 1421 1401 1368 1335 1321 1313 1304 1293 1281 1276 1276 1267 1258 1220 1198 1190 1165 1144 1092 1059 1059 1053 1050 1047 1029 1009 1002 998 991 991 991 993 993 993 972 943 923 920 919 918 907 852 852
779 779 788 788 806 827 843 855 866 874 888 906 921 939 957 965 972 979 988 1000 1008 1009 1014 1037 1053 1065 1079 1091 1099 1102 1112 1113 1120 1135 1154 1179 1208 1225 1233 1246 1263 1278 1290 1301 1310 1330 1346 1353 1356 1359 1364 1370 1396 1399 1404 1410 1422 1435 1447 1457 1466 1481 1496 1507 1515 1529 1557 1582 1588 1592 1606 1625 1645 1660 1681 1693 1703 1713 1726 1740 1752 1760 1774 1789 1805 1820 1833 1846 1856 1861 1861 1863 1863 1864 1867 1869 1873 1883 1899 1915 1926 1940 1956 1982 1998 2010 2012 2013 2017 2022 2029 2035 2040 2048 2058 2069 2083 2087 2088 2089 2089 2094 2102 2112 2116 2118 2121 2132 2151 2176 2201 2214 2225 2227 2227 2228 2234 2234 2234 2231 2221 2215 2215 2215 2222 2236 2247 2256 2266 2269 2271 2283 2283 2284 2287 2289 2306 2319 2330 2339 2345 2355 2375 2396 2414 2425 2431 2435 2435 2439 2448 2455 2457 2459 2464 2468 2470 2477 2489 2500 2514 2522 2526 2534 2540 2540 2540 2547 2555 2560 2561 2561 2561 2560 2556 2556 2556 2560 2568 2568 2568 2558 2548 2546 2542 2536 2536 2536 2546 2553 2560 2564 2567 2567 2568 2569 2583 2600 2617 2628 2629 2629 2630 2632 2639 2661 2675 2675 2675 2674 2663 2663 2663 2664 2665 2668 2668 2668 2684 2705 2720 2724 2724 2724 2722 2719 2713 2704 2699 2699 2699 2704 2714 2714 2714 2591 0 0 0 0 0 0 0 0 0 2552 2579 2587 2597 2602 2607 2612 2621 2635 2650 2660 2678 2685 2685 2685 2673 2666 2655 2646 2610 2607 0 0 0 0 0 0 2507 2512 2522 2533 2542 2542 2542 2541 2526 2520 2518 2517 2516 2510 2494 2472 2459 2445 2431 2423 2417 2410 2391 0 0 0 0 0 0 0 0 0 0 0 0 0 1159 1145 1128 1122 1120 1117 1114 1110 1107 1104 1102 1100 1098 1097 1094 1092 1091 1088 1086 1085 1083 1082 1079 1077 1076 1073 1072 1069 1067 1066 1063 1060 1058 1056 1054 1052 1049 1047 1044 1043 1040 1038 1035 1032 1029 1027 1024 1022 1022 1019 1013 1011 1010 1005 1004 1002 1000 1000 1000 998 998 996 995 994 992 991 988 986 985 983 981 979 977 976 974 972 970 968 966 963 960 957 954 950 947 944 942 936 926 916 906 895 889 889 888 888 883 872 865 864 864 864 864 863 863 863 865 868 871 871 871 869 868 867 867 865 865 865 868 871 874 877 878 879 879 880 880 880 880 880 880 879 878 877 876 875 873 872 871 870 868 867 866 864 863 862 861 860 859 858 857 856 855 855 854 853 852 851 850 850 850 850 850 851 856 860 860 861 862 864 873 877 877 884 884 884 890 890 890 895 899 901 902 906 913 922 936 940 940 940 941 948 956 963 963 963 964 964 968 972 976 976 976 975 970 963 956 956 956 956 956 956 955 953 953 952 952 952 952 952 953 953 953 954 954 954 951 951 948 947 947 941 941 941 948 952 0 0 0 0 0 0 1459 1469 1476 1476 1476 1476 1471 1471 1471 1471 1471 1472 1471 1471 1471 1470 1463 1462 1462 1461 1456 1442 1435 1429 1425 1424 1424 1421 1401 1368 1335 1321 1313 1304 1295 1285 1279 1277 1268 1258 1215 1198 1190 1165 1144 1105 1070 1060 1058 1053 1052 1031 1012 1002 1001 1001 1001 1001 1001 1001 998 976 944 926 922 919 918 0 852 852
788 788 801 811 821 834 847 859 869 883 897 912 930 948 966 970 974 981 990 1003 1012 1016 1034 1052 1064 1078 1089 1099 1104 1109 1112 1116 1120 1136 1154 1180 1208 1225 1233 1249 1266 1281 1293 1305 1318 1330 1346 1356 1358 1359 1367 1377 1396 1409 1411 1413 1422 1436 1447 1457 1466 1481 1496 1508 1515 1529 1546 1561 1572 1585 1602 1624 1643 1660 1679 1692 1703 1714 1732 1749 1762 1770 1779 1792 1805 1820 1838 1855 1863 1863 1863 1863 1863 1865 1869 1873 1879 1893 1906 1919 1932 1945 1958 1985 2009 2026 2028 2028 2030 2032 2037 2039 2045 2055 2065 2079 2090 2094 2097 2098 2102 2102 2112 2129 2137 2142 2145 2153 2170 2194 2218 2231 2236 2236 2236 2236 2236 2239 2239 2239 2229 2227 2227 2227 2236 2249 2263 2272 2275 2280 2288 2297 2298 2299 2299 2310 2327 2340 2346 2347 2349 2363 2382 2401 2417 2429 2441 2450 2457 2467 2479 2479 2481 2483 2483 2486 2489 2491 2501 2513 2527 2536 2538 2539 2544 2547 2549 2562 2571 2571 2572 2573 2573 2572 2570 2570 2570 2572 2581 2581 2581 2569 2559 2555 2551 2544 2544 2544 2547 2556 2564 2572 2579 2579 2581 2587 2602 2620 2639 2649 2651 2651 2651 2651 2651 2666 2688 2692 2692 2692 2682 2682 2682 2689 2689 2689 2689 2689 2690 2705 2721 2730 2736 2736 2736 2732 2729 2720 2706 2704 2704 2701 2701 2677 2637 2501 0 0 0 0 0 0 0 0 2532 2571 2594 2598 2600 2602 2613 2626 2636 2641 2650 2654 2664 2679 2679 2679 2673 2666 2655 2646 2639 2630 2619 2602 2568 2547 2546 2545 2541 2541 2541 2549 2557 2557 2557 2546 2530 2520 2518 2517 2516 2510 2494 2472 2459 2445 2442 2423 2410 0 0 0 0 0 0 0 0 0 0 0 0 0 1149 1146 1141 1132 1124 1120 1118 1115 1114 1110 1108 1104 1102 1101 1099 1097 1094 1092 1091 1088 1086 1085 1083 1082 1079 1077 1075 1073 1071 1068 1067 1065 1062 1060 1057 1056 1052 1051 1047 1046 1044 1042 1039 1036 1033 1031 1028 1024 1023 1022 1021 1019 1013 1010 1006 1001 1001 1000 998 998 997 996 995 995 993 992 991 989 988 985 984 982 980 979 977 975 972 971 969 967 964 962 959 956 952 950 946 944 941 935 926 915 902 892 888 888 887 887 879 868 864 864 864 864 864 862 862 862 865 868 872 872 872 869 869 869 869 869 870 871 873 876 878 879 879 879 879 880 880 880 880 879 878 878 877 876 876 875 873 872 870 869 867 867 865 864 863 861 860 859 858 858 857 856 854 854 854 853 852 851 850 850 848 848 848 848 850 857 857 858 859 859 862 866 869 869 875 875 875 877 880 884 884 884 884 883 883 883 894 913 921 924 926 928 931 935 939 939 939 942 944 950 953 954 954 954 943 939 939 939 945 949 950 950 951 951 951 950 950 950 950 950 951 951 952 953 953 953 952 950 948 947 946 943 943 943 952 955 0 0 0 0 0 0 1459 1469 1482 1488 1488 1488 1478 1478 1478 1478 1480 1483 1483 1483 1481 1477 1474 1468 1467 1465 1464 1458 1449 1436 1424 1410 1395 1389 1385 1368 1335 1321 1313 1304 1295 1285 1280 1277 1270 1252 1214 1174 1166 1151 1144 1113 1080 1062 1060 1059 1052 1035 1023 1008 1002 1002 1002 1002 1002 1002 999 981 951 931 923 919 918 0 0 833
788 788 801 811 829 842 852 862 876 889 907 921 941 962 966 983 983 990 1000 1012 1020 1030 1040 1055 1066 1086 1098 1103 1106 1110 1115 1120 1127 1142 1161 1180 1196 1216 1236 1249 1268 1284 1293 1305 1318 1330 1346 1356 1359 1362 1367 1379 1399 1413 1420 1422 1428 1439 1448 1457 1469 1486 1496 1509 1517 1529 1540 1551 1564 1580 1600 1624 1641 1659 1678 1685 1697 1714 1732 1750 1767 1778 1786 1797 1811 1827 1848 1864 1864 1864 1863 1863 1863 1866 1870 1879 1888 1899 1911 1922 1933 1950 1967 1990 2011 2026 2028 2028 2030 2032 2039 2043 2050 2061 2070 2080 2090 2094 2105 2110 2112 2117 2129 2139 2152 2161 2169 2177 2191 2210 2227 2238 2238 2238 2236 2236 2236 2239 2242 2242 2243 2244 2244 2251 2257 2268 2276 2283 2284 2298 2306 2306 2307 2310 2313 2329 2347 2354 2357 2357 2358 2369 2385 2403 2420 2431 2447 2460 2474 2491 2507 2507 2507 2505 2502 2502 2505 2506 2514 2525 2538 2545 2546 2549 2560 2566 2567 2569 2573 2574 2576 2580 2583 2585 2585 2585 2585 2585 2585 2585 2583 2582 2573 2568 2560 2550 2548 2548 2548 2557 2564 2574 2582 2592 2604 2621 2632 2646 2661 2661 2661 2657 2657 2657 2660 2677 2698 2714 2714 2714 2704 2704 2704 2712 2712 2712 2711 2711 2711 2714 2727 2744 2750 2750 2750 2745 2743 2731 2716 2707 2704 2702 2697 2645 2571 2435 0 0 0 0 0 0 0 2516 2582 2587 2603 2603 2613 2617 2628 2640 2648 2649 2652 2654 2660 2665 2672 2672 2672 2666 2655 2646 2639 2637 2637 2629 2619 2605 2588 2582 2572 2561 2561 2561 2569 2569 2569 2557 2536 2527 2527 2526 2525 2513 2496 2473 2460 2445 2442 0 0 0 0 0 0 0 0 0 0 1184 1158 1156 1150 1144 1136 1135 1131 1130 1122 1120 1118 1115 1114 1110 1108 1104 1103 1101 1099 1097 1094 1092 1090 1088 1086 1084 1083 1081 1078 1077 1074 1072 1070 1068 1065 1064 1061 1059 1057 1055 1051 1050 1047 1044 1043 1041 1038 1035 1033 1028 1026 1023 1022 1020 1019 1015 1008 1003 1003 999 998 998 997 996 996 996 994 993 992 991 990 989 987 985 983 981 979 978 976 974 972 970 968 966 964 961 958 956 952 949 946 943 941 935 925 915 901 891 887 887 885 884 874 867 864 864 863 863 863 861 861 861 865 868 872 872 872 869 869 869 871 874 875 875 877 877 878 879 879 880 880 880 880 880 880 879 878 877 876 875 875 873 872 871 869 868 867 866 865 863 862 861 859 858 858 857 856 855 854 853 853 852 851 850 850 849 848 847 847 847 847 850 855 855 855 855 855 858 858 859 859 859 862 867 867 867 866 865 863 863 863 870 877 886 893 899 905 909 912 915 919 920 921 923 928 938 938 938 934 930 926 926 926 927 930 933 937 938 944 944 946 947 947 948 948 949 949 950 951 952 952 952 952 949 947 947 947 947 945 943 942 942 0 0 0 0 0 0 1452 1469 1482 1496 1500 1500 1500 1491 1491 1491 1491 1491 1490 1486 1486 1483 1479 1477 1472 1470 1464 1459 1452 1442 1424 1410 1395 1386 1381 1356 1335 1322 1315 1307 1295 1285 1283 1280 1268 1246 1213 1168 1148 1136 1131 1113 1089 1063 1062 1060 1060 1059 1057 1057 1023 1013 1012 1011 1011 1002 998 995 980 948 923 915 0 0 0 0
788 788 801 811 829 845 854 863 879 894 910 926 954 962 979 994 999 1001 1003 1012 1023 1036 1046 1056 1067 1086 1098 1103 1107 1112 1116 1121 1130 1146 1161 1179 1196 1216 1236 1253 1271 1284 1293 1303 1318 1329 1339 1346 1359 1367 1371 1379 1399 1413 1423 1430 1438 1450 1455 1469 1478 1488 1497 1509 1519 1529 1540 1548 1559 1577 1599 1623 1636 1649 1662 1668 1694 1714 1732 1750 1767 1778 1791 1807 1821 1839 1852 1864 1864 1864 1865 1865 1865 1873 1876 1886 1895 1905 1915 1925 1935 1953 1971 1993 2012 2026 2028 2028 2030 2033 2040 2047 2056 2064 2071 2080 2090 2095 2107 2122 2136 2144 2149 2156 2169 2180 2188 2195 2207 2221 2235 2241 2241 2241 2237 2237 2237 2242 2246 2247 2250 2253 2262 2269 2273 2279 2289 2292 2311 2317 2317 2317 2317 2317 2323 2340 2359 2363 2365 2367 2367 2377 2392 2408 2421 2436 2452 2469 2484 2509 2518 2518 2518 2510 2510 2510 2515 2517 2524 2536 2546 2551 2554 2563 2575 2575 2575 2574 2574 2574 2576 2583 2587 2590 2595 2595 2595 2592 2592 2592 2592 2592 2592 2586 2578 2568 2558 2558 2558 2563 2570 2577 2589 2608 2625 2648 2664 2665 2673 2676 2676 2676 2678 2678 2678 2691 2713 2732 2732 2732 2722 2712 2712 2712 2726 2729 2732 2733 2733 2734 2743 2767 2767 2767 2762 2762 2754 2750 2729 2723 2716 2704 2685 2604 2471 2211 0 0 0 0 0 0 2515 2570 2604 2606 2607 2608 2615 2619 2643 2649 2651 2654 2654 2654 2660 2661 2661 2661 2653 2646 2646 2646 2647 2647 2647 2642 2638 2629 2618 2611 2601 2591 2575 2575 2575 2575 2575 2563 2548 2542 2542 2540 2539 2516 2496 2476 2460 2445 0 0 0 0 0 0 0 0 0 0 1192 1156 1153 1150 1145 1144 1135 1131 1129 1126 1120 1119 1116 1115 1112 1110 1108 1104 1103 1101 1099 1097 1094 1092 1090 1088 1086 1084 1082 1080 1078 1075 1074 1071 1069 1066 1065 1062 1060 1059 1056 1054 1050 1048 1046 1043 1041 1038 1036 1034 1030 1028 1025 1022 1016 1013 1011 1009 1004 996 992 992 992 995 995 995 995 994 993 992 991 990 988 988 985 984 982 980 979 977 975 973 971 969 967 965 963 960 958 955 952 949 945 943 940 933 924 910 898 891 885 885 884 882 874 866 864 864 863 863 863 861 861 861 864 868 871 871 871 871 872 872 874 875 877 877 878 878 880 880 880 880 880 880 880 879 879 878 877 876 875 874 874 873 872 870 868 868 866 865 864 862 861 860 859 858 857 856 855 854 853 852 851 850 849 848 847 847 846 846 846 846 846 847 849 849 849 850 850 852 854 855 855 855 858 860 860 860 853 853 853 856 856 862 867 875 880 884 887 889 889 894 897 899 900 904 909 913 918 919 919 919 918 918 918 919 920 924 931 932 933 933 934 939 939 940 941 946 947 948 950 951 952 952 952 949 946 945 944 943 940 938 935 938 0 0 0 0 0 0 1446 1468 1483 1496 1501 1501 1501 1499 1499 1498 1496 1492 1490 1487 1486 1486 1484 1481 1480 1475 1464 1459 1452 1444 1426 1410 1395 1385 1377 1355 1335 1332 1330 1323 1309 1297 1297 1284 1267 1244 1194 1167 1148 1132 1127 1113 1089 1072 1072 1072 1072 1072 1072 1067 1060 1045 1034 1023 1011 1002 998 995 980 0 0 0 0 0 0 0
