1354 1350 1354 1354 1354 1361 1366 1366 1366 1359 1342 1331 1327 1327 1327 1328 1328 1329 1334 1343 1354 1356 1359 1365 1365 1365 1367 1367 1367 1367 1367 1362 1356 1356 1356 1356 1359 1360 1373 1373 1373 1358 1352 1352 1352 1353 1359 1362 1362 1362 1358 1355 1355 1355 1361 1364 1364 1364 1354 1354 1354 1363 1365 1367 1368 1368 1368 1367 1364 1363 1363 1363 1363 1363 1365 1365 1367 1368 1369 1369 1371 1371 1371 1372 1372 1372 1386 1386 1386 1386 1385 1377 1371 1371 1371 1382 1390 1393 1397 1399 1400 1404 1410 1416 1416 1416 1416 1416 1424 1438 1443 1451 1456 1462 1467 1475 1475 1475 1475 1465 1465 1465 1462 1462 1462 1453 1442 1434 1434 1434 1432 1432 1429 1418 1416 1415 1414 1404 1392 1385 1383 1383 1382 1379 1377 1373 1367 1363 1361 1358 1360 1360 1360 1364 1366 1366 1368 1368 1369 1371 1375 1381 1387 1393 1398 1401 1407 1411 1411 1415 1424 1433 1437 1445 1449 1453 1461 1468 1473 1475 1480 1484 1493 1498 1502 1508 1512 1518 1523 1524 1525 1525 1527 1530 1533 1537 1540 1542 1546 1548 1552 1554 1556 1556 1556 1556 1556 1556 1556 1556 1556 1556 1554 1553 1552 1552 1552 1552 1553 1554 1554 1554 1557 1559 1561 1561 1563 1564 1567 1569 1572 1575 1576 1577 1577 1577 1578 1579 1579 1579 1576 1575 1575 1574 1574 1574 1573 1572 1571 1570 1570 1570 1571 1572 1572 1572 1572 1572 1572 1573 1574 1576 1576 1577 1578 1578 1579 1579 1579 1579 1579 1579 1578 1577 1576 1576 1575 1573 1573 1571 1567 1565 1564 1562 1559 1557 1549 1540 1537 1537 1536 1535 1535 1531 1527 1526 1525 1522 1515 1515 1514 1513 1513 1510 1510 1510 1501 1501 1501 1494 1492 1488 1481 1477 1473 1468 1450 1438 1435 1434 1432 1425 1414 1410 1405 1402 1398 1395 1392 1389 1384 1378 1376 1373 1368 1366 1364 1355 1350 1345 1341 1339 1336 1329 1324 1319 1316 1313 1309 1305 1301 1297 1294 1291 1287 1284 1280 1278 1276 1274 1273 1272 1267 1265 1265 1264 1263 1260 1253 1248 1239 1228 1221 1215 1210 1208 1204 1201 1198 1195 1191 1188 1184 1180 1177 1174 1171 1168 1167 1166 1165 1165 1163 1162 1159 1159 1159 1159 1158 1158 1158 1156 1151 1145 1139 1136 1134 1132 1131 1122 1110 1105 1099 1096 1092 1085 1081 1078 1074 1069 1066 1063 1061 1059 1058 1057 1054 1054 1054 1054 1054 1057 1057 1060 1060 1060 1059 1057 1056 1053 1050 1047 1042 1037 1034 1032 1028 1025 1025 1024 1023 1019 1013 1013 1009 997 988 984 977 970 961 957 956 952 951 949 946 945 942 942 942 939 937 935 934 934 934 934 934 933 931 928 926 923 922 922 922 922 920 917 915 914 913 912 911 911 908 907 903 900 897 896 893 890 888 884 880 876 872 871 870 867 862 860 855 855 854 853 851 847 846 845 844 843 842 841 840 838 837 837 836 836 833 833 833 833 833 833 835 839 839 839 834 833 833 831 830 830 829 825 823 823 822 820 817 815 815 815 817 817 817 814 809 808 804 802 798 796 795 794 792 789 788 787 785 784 783 781 779 778 777 776 776 775 774 774 774 772 772 771 770 770 769 769 768 767 764 764 762 761 761 759 759 758 757 757 757 756 756 756 756 756 757 757 757 757 757 757 756 756 756 757 757 757 758 759 759 760 760 762 763 763 763 764 764 769 769 769 0
1399 1399 1400 1400 1404 1404 1405 1408 1408 1408 1399 1386 1362 1362 1360 1359 1360 1362 1370 1383 1383 1383 1395 1393 1392 1393 1396 1397 1404 1405 1405 1405 1404 1402 1401 1395 1388 1388 1388 1438 1438 1438 1431 1428 1428 1427 1427 1425 1410 1405 1402 1402 1405 1406 1415 1420 1420 1420 1402 1402 1402 1409 1412 1413 1413 1413 1413 1408 1402 1397 1397 1397 1397 1400 1409 1417 1424 1424 1424 1420 1415 1413 1413 1413 1413 1414 1426 1426 1426 1425 1423 1416 1416 1416 1423 1426 1426 1426 1427 1427 1429 1435 1446 1462 1477 1482 1486 1504 1533 1564 1623 1643 1666 1686 1693 1713 1726 1726 1730 1730 1746 1805 1809 1809 1809 1680 1629 1602 1586 1585 1581 1573 1558 1537 1522 1509 1482 1460 1445 1432 1425 1416 1406 1403 1401 1387 1370 1370 1369 1367 1367 1369 1369 1372 1373 1375 1377 1377 1381 1383 1385 1388 1394 1398 1402 1407 1412 1420 1424 1429 1437 1446 1449 1452 1455 1461 1471 1477 1480 1482 1485 1488 1493 1499 1503 1508 1513 1519 1523 1524 1525 1525 1527 1530 1533 1538 1543 1547 1550 1554 1556 1558 1559 1559 1559 1558 1558 1558 1558 1558 1558 1556 1554 1554 1554 1554 1555 1557 1558 1560 1562 1563 1564 1565 1566 1567 1568 1569 1570 1572 1576 1576 1578 1578 1578 1578 1578 1578 1578 1578 1576 1575 1575 1574 1574 1574 1573 1572 1572 1571 1570 1570 1570 1571 1571 1571 1571 1571 1572 1572 1574 1574 1575 1577 1577 1577 1578 1578 1578 1578 1578 1578 1577 1577 1576 1576 1575 1573 1573 1571 1569 1567 1566 1565 1563 1560 1555 1545 1540 1539 1539 1539 1536 1533 1531 1530 1528 1527 1524 1521 1519 1516 1514 1514 1514 1518 1518 1518 1507 1503 1500 1499 1498 1494 1488 1485 1462 1443 1440 1439 1438 1427 1420 1414 1411 1407 1402 1399 1395 1391 1387 1383 1381 1376 1369 1368 1366 1358 1351 1346 1342 1341 1338 1331 1326 1321 1319 1316 1313 1308 1304 1302 1297 1294 1290 1287 1283 1280 1278 1275 1273 1272 1268 1265 1263 1263 1262 1259 1249 1246 1239 1229 1221 1216 1215 1212 1209 1206 1201 1197 1194 1191 1188 1184 1181 1177 1175 1172 1170 1167 1165 1165 1163 1163 1159 1159 1159 1159 1161 1161 1161 1160 1155 1149 1142 1141 1136 1132 1129 1122 1113 1106 1104 1098 1092 1087 1083 1079 1075 1070 1067 1064 1062 1060 1059 1057 1055 1054 1054 1054 1055 1057 1057 1060 1060 1060 1059 1057 1056 1054 1050 1048 1044 1040 1037 1032 1028 1025 1025 1024 1023 1019 1012 1011 1006 997 988 987 980 972 963 962 961 957 953 952 948 945 943 942 942 942 940 936 935 934 934 934 934 933 931 928 926 923 922 922 922 922 920 917 916 914 913 912 911 911 910 908 906 903 901 899 898 895 892 887 884 880 876 872 871 868 866 863 860 859 858 856 853 850 849 848 847 846 845 843 842 841 839 838 837 836 836 836 837 843 846 846 849 849 848 848 848 834 831 831 830 830 829 825 823 823 822 820 817 815 815 815 818 818 818 814 809 808 804 802 798 798 797 795 792 790 788 787 786 786 784 782 780 780 778 778 777 776 776 775 774 774 773 772 771 771 770 769 769 767 765 765 763 763 761 760 760 758 758 758 757 757 757 757 757 757 757 758 758 758 758 758 757 757 757 758 758 758 760 760 760 762 762 765 765 765 766 766 766 769 769 769 0
1455 1465 1465 1465 1463 1455 1455 1455 1457 1457 1457 1449 1449 1445 1431 1429 1407 1407 1407 1425 1426 1426 1426 1412 1412 1412 1414 1431 1456 1458 1473 1484 1484 1484 1477 1459 1444 1444 1444 1453 1490 1496 1496 1496 1491 1490 1488 1478 1478 1478 1484 1485 1485 1485 1481 1476 1476 1471 1454 1454 1454 1458 1459 1459 1459 1459 1461 1471 1471 1471 1464 1455 1455 1455 1466 1489 1496 1496 1496 1479 1479 1479 1486 1486 1486 1486 1480 1480 1480 1487 1488 1494 1494 1495 1496 1495 1495 1493 1473 1471 1471 1471 1488 1525 1566 1601 1660 1721 1773 1888 2110 2289 2618 2618 2618 2618 2618 2620 2620 2625 2625 2603 2603 2536 2523 2506 2536 2536 2608 2608 2608 2528 2258 2249 2193 1919 1764 1659 1584 1536 1504 1476 1458 1455 1434 1404 1384 1377 1377 1377 1382 1382 1384 1385 1385 1385 1386 1388 1388 1389 1389 1391 1396 1400 1405 1410 1415 1421 1430 1442 1452 1457 1458 1460 1470 1476 1482 1483 1486 1488 1489 1492 1498 1500 1505 1508 1513 1520 1524 1525 1525 1526 1527 1530 1534 1538 1545 1550 1555 1557 1560 1561 1563 1563 1563 1562 1562 1562 1562 1562 1560 1556 1555 1555 1555 1556 1558 1561 1563 1565 1566 1567 1569 1569 1570 1571 1572 1572 1573 1576 1576 1577 1578 1578 1578 1577 1577 1577 1577 1577 1577 1575 1575 1574 1574 1574 1574 1573 1572 1571 1571 1571 1570 1570 1571 1571 1571 1571 1571 1572 1574 1574 1574 1575 1575 1576 1577 1577 1577 1577 1577 1577 1576 1576 1576 1575 1575 1574 1573 1571 1569 1569 1568 1566 1565 1565 1563 1553 1544 1543 1541 1541 1537 1536 1534 1530 1530 1529 1528 1528 1522 1517 1517 1517 1523 1530 1530 1530 1521 1514 1508 1502 1501 1501 1501 1493 1476 1453 1447 1444 1442 1435 1428 1422 1416 1412 1408 1404 1400 1395 1391 1388 1384 1379 1377 1373 1371 1365 1363 1358 1351 1344 1339 1335 1333 1331 1326 1323 1318 1312 1309 1305 1301 1297 1294 1289 1286 1282 1280 1277 1276 1273 1269 1265 1263 1263 1257 1252 1248 1246 1239 1229 1222 1220 1219 1216 1214 1210 1205 1201 1197 1195 1192 1188 1186 1183 1178 1175 1172 1170 1167 1167 1165 1163 1161 1160 1160 1160 1161 1161 1161 1161 1160 1149 1145 1142 1140 1132 1128 1120 1114 1107 1104 1100 1094 1089 1084 1080 1076 1072 1068 1066 1063 1061 1059 1057 1055 1055 1055 1055 1056 1056 1056 1060 1060 1060 1059 1057 1056 1054 1051 1048 1044 1040 1037 1032 1028 1025 1024 1023 1018 1010 1009 1006 998 990 988 988 983 972 964 964 962 957 954 952 950 947 945 944 943 942 942 941 940 937 936 935 934 933 931 928 927 924 923 922 922 922 919 917 916 914 914 913 912 911 911 909 909 907 904 902 900 897 895 892 889 886 879 875 872 869 866 863 863 862 859 858 854 852 851 851 850 849 847 845 843 842 842 842 842 840 837 837 837 843 849 849 850 851 851 851 848 835 833 832 830 830 829 825 823 823 822 820 817 816 816 816 819 819 819 818 809 808 804 802 799 798 798 797 794 793 792 792 791 788 786 783 782 780 780 779 778 778 777 776 775 775 775 774 772 772 771 771 769 768 767 765 764 763 762 761 760 759 759 759 758 758 758 758 758 758 758 758 758 758 758 758 758 758 758 758 759 759 761 761 762 762 763 765 765 766 767 769 771 771 771 769 0
1510 1510 1510 1509 1510 1511 1519 1539 1554 1554 1554 1554 1530 1522 1520 1520 1520 1528 1560 1583 1586 1586 1585 1583 1555 1512 1512 1512 1540 1543 1547 1554 1567 1597 1597 1597 1581 1549 1544 1530 1530 1530 1530 1531 1535 1535 1538 1538 1545 1555 1570 1570 1570 1570 1566 1561 1561 1558 1555 1555 1555 1559 1560 1560 1560 1560 1563 1575 1575 1575 1569 1538 1538 1538 1544 1545 1547 1547 1547 1543 1543 1543 1547 1564 1569 1571 1573 1577 1603 1611 1611 1611 1593 1578 1560 1557 1553 1550 1509 1509 1509 1544 1637 1720 1782 1822 1928 2053 2216 2430 2808 2858 2858 2961 2961 3028 3028 3028 2883 2857 2857 2857 2906 2993 2993 2993 2978 2907 2836 2836 2836 2874 2874 2874 2724 2691 2628 2608 2503 2228 1910 1710 1570 1521 1481 1448 1420 1399 1399 1399 1396 1396 1396 1395 1395 1395 1396 1396 1396 1396 1397 1399 1403 1408 1413 1421 1426 1433 1443 1453 1458 1462 1467 1472 1478 1483 1485 1489 1491 1493 1496 1498 1503 1507 1509 1511 1515 1520 1524 1526 1528 1529 1529 1531 1536 1541 1548 1552 1557 1559 1561 1564 1567 1567 1568 1568 1568 1568 1567 1566 1561 1558 1558 1558 1559 1560 1562 1564 1568 1569 1569 1570 1571 1573 1574 1575 1575 1576 1576 1576 1578 1578 1578 1578 1578 1577 1577 1577 1577 1577 1577 1576 1575 1575 1574 1574 1574 1573 1572 1571 1571 1570 1570 1570 1570 1570 1571 1571 1571 1572 1572 1574 1574 1575 1575 1575 1575 1576 1576 1576 1575 1575 1575 1575 1575 1575 1575 1573 1573 1571 1571 1570 1570 1567 1566 1565 1564 1559 1550 1546 1545 1543 1541 1541 1540 1538 1532 1531 1531 1531 1526 1526 1526 1527 1528 1530 1530 1530 1526 1519 1512 1503 1501 1501 1501 1493 1490 1471 1454 1448 1446 1437 1433 1427 1422 1418 1413 1409 1404 1399 1396 1395 1390 1390 1390 1390 1390 1390 1382 1371 1365 1361 1352 1342 1342 1341 1337 1328 1322 1317 1313 1309 1304 1301 1296 1292 1289 1286 1283 1281 1279 1275 1272 1268 1264 1263 1257 1252 1246 1246 1240 1233 1229 1226 1224 1223 1220 1215 1209 1204 1201 1199 1197 1194 1190 1187 1182 1178 1174 1171 1168 1167 1165 1164 1162 1160 1160 1160 1161 1161 1161 1161 1160 1152 1145 1145 1140 1132 1125 1119 1114 1110 1104 1100 1097 1091 1086 1082 1078 1075 1072 1068 1065 1063 1060 1058 1056 1056 1056 1056 1056 1056 1056 1057 1058 1058 1058 1057 1056 1055 1052 1049 1046 1042 1038 1033 1030 1026 1024 1024 1018 1010 1009 1006 998 990 988 987 983 972 966 965 962 958 955 953 951 949 948 946 946 944 943 942 941 940 938 936 934 933 931 930 928 926 924 923 923 921 919 917 916 915 915 914 912 912 911 911 910 909 907 904 901 898 895 893 890 888 884 878 874 872 870 866 866 865 864 862 859 855 854 852 852 851 850 849 846 845 845 845 845 845 845 843 843 843 849 849 850 851 851 851 848 838 836 834 833 833 830 828 828 827 826 823 819 816 816 816 821 821 821 820 809 808 804 801 800 800 799 799 798 797 796 795 793 791 787 784 783 782 781 781 780 779 779 778 777 776 776 774 774 773 773 771 770 769 767 767 766 764 763 762 762 761 760 759 759 758 758 758 758 758 758 758 758 759 759 759 759 759 759 759 760 761 762 763 763 764 764 765 765 766 768 769 771 771 771 769 0
1519 1522 1538 1540 1563 1584 1596 1599 1604 1604 1604 1587 1587 1587 1615 1618 1618 1618 1620 1620 1633 1633 1633 1624 1613 1600 1600 1600 1625 1627 1643 1648 1648 1648 1627 1623 1623 1623 1623 1625 1626 1635 1649 1653 1653 1653 1646 1638 1638 1638 1631 1631 1633 1633 1632 1632 1632 1628 1628 1628 1631 1633 1640 1650 1651 1664 1665 1665 1664 1652 1633 1589 1589 1589 1593 1602 1606 1630 1634 1638 1638 1638 1629 1629 1629 1641 1660 1692 1698 1698 1698 1681 1660 1641 1628 1605 1605 1601 1598 1601 1612 1612 1699 1819 1913 1998 2101 2256 2423 2799 3028 3042 3121 3195 3297 3297 3297 3244 3149 3149 3149 3232 3232 3232 3179 3147 3147 3147 3127 3121 3121 3058 3052 3050 2941 2817 2792 2739 2708 2628 2567 2415 2321 2000 1628 1530 1486 1467 1434 1417 1417 1415 1415 1411 1407 1407 1407 1411 1413 1414 1424 1427 1429 1433 1435 1438 1445 1452 1457 1462 1468 1470 1473 1478 1481 1484 1490 1497 1502 1506 1506 1509 1510 1512 1515 1516 1517 1521 1526 1528 1528 1531 1531 1532 1537 1543 1549 1553 1558 1559 1562 1564 1568 1572 1574 1574 1574 1574 1571 1568 1566 1564 1564 1564 1564 1565 1567 1569 1571 1572 1572 1573 1574 1578 1579 1580 1580 1580 1580 1578 1577 1577 1577 1577 1577 1577 1577 1577 1577 1577 1577 1576 1576 1575 1575 1574 1574 1573 1573 1571 1571 1570 1570 1570 1570 1570 1570 1570 1571 1571 1572 1573 1574 1574 1574 1574 1574 1574 1574 1574 1574 1574 1574 1574 1574 1574 1574 1573 1572 1572 1572 1572 1572 1570 1568 1568 1567 1567 1565 1559 1557 1551 1551 1550 1550 1550 1544 1532 1532 1532 1534 1534 1534 1532 1532 1531 1531 1530 1526 1523 1512 1504 1501 1501 1501 1493 1490 1490 1459 1450 1450 1438 1434 1432 1428 1423 1418 1414 1409 1405 1403 1401 1393 1393 1393 1403 1403 1403 1402 1392 1375 1367 1363 1355 1349 1347 1343 1335 1327 1321 1318 1313 1307 1303 1299 1295 1292 1289 1287 1284 1281 1279 1275 1271 1265 1263 1257 1252 1246 1246 1245 1242 1238 1231 1227 1226 1223 1218 1214 1209 1206 1203 1200 1198 1195 1192 1187 1182 1177 1173 1171 1168 1168 1166 1163 1162 1161 1159 1158 1159 1160 1159 1157 1153 1145 1142 1140 1128 1124 1119 1117 1112 1104 1101 1098 1095 1090 1084 1082 1077 1075 1072 1069 1065 1063 1061 1059 1058 1057 1056 1056 1056 1056 1056 1056 1056 1056 1056 1056 1055 1052 1050 1048 1044 1039 1033 1030 1026 1024 1024 1018 1010 1009 1006 998 990 988 987 983 972 970 965 963 960 957 955 955 953 951 948 947 946 944 943 942 942 941 938 934 933 933 931 931 927 925 924 923 921 919 917 917 917 915 914 912 912 912 912 911 910 908 905 902 898 896 893 891 888 886 882 878 876 872 868 868 867 867 865 862 860 858 855 855 854 852 852 851 849 848 848 848 847 846 843 843 843 849 850 850 851 851 851 844 838 837 837 834 834 830 830 829 828 828 825 821 819 819 819 825 825 825 820 813 812 806 801 800 800 799 799 798 798 797 795 793 792 788 785 785 785 784 783 782 781 780 779 779 777 777 776 775 774 773 773 771 770 769 768 766 765 764 763 762 761 761 760 760 760 759 759 759 758 758 758 759 759 759 759 759 759 759 760 760 762 763 763 764 764 765 765 766 766 768 770 771 771 771 771 0
1536 1542 1569 1572 1594 1608 1608 1611 1608 1608 1606 1595 1595 1595 1618 1622 1635 1653 1682 1689 1689 1689 1669 1654 1645 1645 1645 1662 1663 1665 1666 1666 1666 1659 1652 1647 1646 1646 1647 1649 1651 1654 1662 1664 1665 1665 1668 1687 1697 1697 1697 1689 1680 1680 1678 1676 1671 1657 1644 1644 1644 1646 1656 1668 1670 1670 1670 1665 1664 1659 1653 1641 1640 1639 1628 1628 1628 1650 1653 1663 1663 1663 1661 1659 1659 1659 1676 1692 1699 1699 1699 1692 1679 1664 1657 1657 1657 1650 1650 1653 1653 1653 1742 1850 1961 2055 2195 2397 2553 2912 3172 3331 3375 3376 3376 3376 3369 3363 3356 3356 3356 3358 3358 3358 3313 3311 3301 3301 3298 3298 3292 3271 3254 3241 3232 3126 3010 2942 2898 2848 2808 2707 2625 2583 2401 2110 1696 1604 1519 1475 1471 1466 1454 1445 1435 1431 1430 1430 1431 1431 1446 1454 1454 1456 1457 1457 1469 1478 1480 1482 1483 1485 1488 1491 1492 1497 1509 1510 1512 1513 1515 1515 1516 1519 1523 1524 1524 1526 1529 1531 1532 1533 1534 1537 1545 1552 1556 1558 1559 1563 1565 1566 1571 1576 1580 1580 1580 1580 1576 1575 1574 1570 1569 1569 1569 1570 1573 1575 1576 1576 1577 1578 1583 1584 1584 1584 1584 1583 1580 1578 1576 1576 1576 1576 1576 1576 1576 1576 1576 1576 1576 1576 1576 1575 1575 1575 1574 1573 1573 1572 1571 1570 1570 1570 1569 1569 1569 1569 1571 1571 1572 1572 1573 1573 1574 1574 1574 1574 1574 1572 1572 1572 1572 1572 1572 1573 1573 1572 1572 1572 1572 1573 1573 1573 1573 1573 1573 1572 1572 1568 1563 1563 1563 1561 1561 1561 1553 1542 1542 1542 1540 1540 1539 1532 1532 1531 1531 1530 1528 1524 1512 1506 1501 1501 1501 1492 1490 1490 1463 1455 1450 1446 1440 1438 1434 1430 1423 1419 1416 1415 1415 1411 1404 1404 1404 1410 1423 1423 1423 1415 1390 1369 1365 1365 1361 1348 1344 1343 1336 1327 1322 1318 1312 1307 1303 1299 1295 1293 1291 1288 1286 1282 1279 1274 1273 1272 1268 1253 1253 1249 1246 1246 1238 1232 1232 1228 1226 1222 1217 1213 1209 1207 1204 1201 1198 1195 1191 1185 1181 1177 1174 1171 1170 1169 1165 1163 1160 1159 1159 1159 1159 1159 1157 1152 1145 1142 1136 1128 1124 1120 1119 1113 1107 1103 1100 1097 1092 1087 1084 1081 1077 1074 1072 1069 1066 1063 1061 1060 1058 1057 1057 1056 1056 1056 1056 1056 1056 1056 1056 1056 1055 1052 1049 1046 1041 1037 1031 1026 1024 1024 1022 1019 1016 1012 1004 990 983 982 977 971 970 968 965 962 960 960 958 954 952 949 947 946 945 945 943 943 942 940 939 937 937 935 934 931 927 925 923 921 920 919 919 918 917 915 913 913 912 912 912 910 910 907 904 900 897 894 892 891 889 886 883 880 877 873 869 868 867 867 865 865 863 861 857 856 854 854 852 850 849 849 849 849 849 848 848 848 848 848 848 846 844 839 839 839 839 839 839 835 831 831 831 830 829 826 822 822 822 822 827 827 827 821 815 813 807 803 801 800 800 800 799 799 798 796 793 793 791 789 788 788 787 785 785 783 781 780 780 779 778 776 776 775 774 773 772 770 770 769 768 766 766 765 763 763 762 762 761 761 760 760 759 759 759 759 759 759 759 759 760 760 760 761 762 764 764 764 764 765 765 765 766 766 768 771 771 771 771 771 0
1589 1621 1634 1637 1637 1634 1630 1615 1613 1609 1609 1610 1610 1612 1619 1622 1646 1658 1684 1691 1692 1692 1691 1688 1688 1688 1686 1688 1688 1686 1686 1683 1679 1670 1664 1661 1661 1661 1661 1661 1663 1663 1663 1664 1665 1665 1669 1687 1697 1700 1706 1706 1710 1713 1713 1713 1691 1668 1654 1652 1652 1652 1666 1678 1678 1678 1677 1675 1671 1666 1670 1670 1670 1671 1671 1671 1669 1669 1669 1681 1684 1684 1684 1681 1681 1681 1688 1694 1704 1704 1704 1704 1697 1691 1688 1688 1673 1668 1668 1673 1673 1692 1790 1883 1994 2120 2274 2475 2647 3042 3332 3411 3411 3417 3417 3417 3410 3405 3404 3403 3396 3396 3396 3404 3411 3411 3411 3394 3387 3387 3379 3379 3374 3374 3366 3364 3363 3316 3285 3247 3139 2999 2844 2770 2732 2517 2444 2391 2299 1798 1647 1569 1526 1500 1493 1485 1475 1465 1465 1465 1473 1484 1488 1488 1492 1497 1504 1505 1506 1506 1508 1509 1510 1511 1511 1518 1520 1520 1520 1520 1520 1522 1525 1529 1533 1534 1535 1536 1538 1541 1543 1549 1558 1565 1565 1568 1570 1570 1571 1572 1575 1577 1582 1587 1590 1590 1590 1583 1576 1575 1575 1572 1572 1572 1573 1580 1580 1580 1579 1579 1579 1583 1585 1587 1587 1587 1587 1584 1580 1578 1576 1576 1576 1576 1576 1576 1576 1576 1576 1576 1576 1576 1576 1576 1576 1576 1575 1573 1573 1572 1571 1570 1570 1570 1569 1569 1569 1569 1570 1570 1570 1572 1572 1572 1572 1572 1572 1572 1571 1571 1571 1570 1570 1570 1571 1571 1571 1572 1572 1572 1572 1573 1574 1576 1576 1576 1575 1575 1573 1572 1569 1569 1569 1567 1567 1567 1553 1553 1553 1548 1548 1547 1541 1535 1532 1531 1531 1530 1530 1524 1513 1506 1501 1501 1501 1492 1490 1482 1471 1456 1453 1452 1451 1446 1440 1437 1430 1422 1420 1419 1419 1418 1413 1413 1413 1421 1424 1424 1424 1416 1407 1396 1373 1366 1364 1356 1346 1344 1343 1340 1330 1322 1316 1312 1307 1303 1300 1298 1296 1293 1290 1287 1283 1280 1276 1273 1268 1268 1265 1255 1254 1251 1242 1236 1232 1231 1228 1225 1222 1217 1213 1210 1207 1204 1201 1198 1192 1187 1184 1181 1178 1174 1172 1170 1167 1165 1163 1161 1160 1159 1157 1156 1155 1154 1144 1142 1136 1128 1124 1123 1120 1114 1109 1107 1104 1100 1095 1089 1086 1083 1079 1077 1074 1071 1068 1066 1064 1062 1059 1058 1057 1057 1057 1057 1056 1056 1056 1056 1056 1056 1055 1054 1051 1048 1045 1042 1036 1033 1032 1031 1028 1024 1020 1015 1005 990 983 982 977 973 971 971 968 965 964 960 958 955 953 951 949 948 947 947 946 945 945 942 940 939 939 938 936 934 929 928 926 924 922 922 922 921 919 917 914 914 914 913 913 911 910 910 907 905 901 897 895 894 892 891 887 884 880 877 874 871 869 867 867 867 865 862 859 858 858 857 855 853 852 851 851 850 849 849 849 850 850 850 847 843 838 838 838 841 841 841 841 836 833 833 831 831 829 827 825 824 824 824 827 827 827 821 818 816 813 805 803 802 800 800 800 801 801 801 798 797 795 791 791 790 789 786 785 785 784 782 781 779 779 778 777 776 774 774 773 772 771 770 768 768 767 766 765 764 763 762 761 761 761 760 760 760 760 760 760 760 760 761 761 761 761 762 762 764 764 765 766 766 766 766 766 766 768 770 771 771 771 771 0
1602 1664 1706 1706 1706 1703 1665 1628 1626 1626 1626 1630 1637 1640 1644 1647 1651 1663 1686 1691 1692 1692 1691 1690 1690 1690 1713 1714 1714 1714 1700 1688 1680 1677 1677 1676 1664 1664 1664 1665 1665 1665 1665 1665 1665 1665 1669 1687 1697 1700 1706 1706 1718 1718 1718 1713 1696 1676 1663 1661 1661 1661 1676 1682 1682 1682 1677 1675 1674 1674 1677 1679 1681 1685 1685 1685 1681 1681 1681 1699 1699 1699 1699 1699 1699 1700 1701 1703 1707 1712 1712 1712 1708 1708 1696 1696 1685 1684 1684 1685 1685 1730 1819 1939 2029 2137 2304 2517 2810 3198 3358 3426 3444 3453 3456 3463 3465 3465 3465 3460 3433 3432 3432 3432 3445 3445 3445 3440 3435 3435 3433 3432 3430 3426 3416 3411 3406 3390 3356 3311 3242 3160 3067 3002 2946 2865 2864 2857 2593 2554 2314 2210 1887 1701 1700 1603 1558 1545 1534 1532 1530 1529 1529 1529 1528 1528 1528 1528 1528 1528 1535 1535 1535 1530 1528 1527 1525 1525 1525 1524 1524 1524 1529 1538 1544 1548 1550 1550 1552 1559 1570 1574 1578 1585 1586 1590 1593 1595 1596 1597 1597 1608 1617 1617 1617 1604 1597 1587 1579 1577 1577 1577 1578 1580 1586 1586 1586 1586 1585 1585 1585 1589 1592 1595 1595 1595 1588 1584 1580 1578 1576 1576 1576 1576 1576 1576 1576 1576 1576 1576 1576 1576 1576 1576 1576 1576 1575 1574 1573 1572 1571 1570 1570 1569 1569 1569 1569 1569 1569 1569 1569 1571 1571 1571 1571 1571 1571 1571 1571 1570 1570 1569 1569 1568 1568 1568 1569 1570 1572 1572 1572 1573 1574 1576 1580 1580 1580 1578 1577 1574 1570 1570 1570 1570 1570 1570 1554 1554 1554 1553 1553 1552 1545 1541 1539 1538 1538 1532 1530 1526 1516 1512 1507 1505 1502 1492 1482 1482 1475 1471 1458 1456 1455 1448 1443 1442 1438 1430 1427 1427 1424 1422 1416 1416 1416 1425 1425 1425 1424 1419 1410 1401 1398 1383 1365 1358 1348 1345 1344 1342 1339 1327 1321 1316 1311 1308 1306 1304 1301 1297 1293 1290 1289 1285 1280 1274 1274 1274 1273 1269 1269 1254 1245 1237 1235 1233 1231 1228 1224 1220 1217 1213 1210 1206 1204 1200 1195 1190 1187 1184 1182 1177 1174 1171 1168 1166 1165 1164 1160 1159 1157 1156 1154 1154 1151 1144 1136 1131 1128 1124 1121 1120 1116 1110 1106 1102 1098 1092 1088 1086 1082 1080 1077 1074 1072 1069 1067 1063 1061 1060 1059 1058 1057 1057 1056 1056 1056 1056 1055 1055 1055 1054 1051 1049 1049 1047 1043 1039 1038 1036 1034 1028 1024 1017 1006 992 983 982 977 973 971 971 970 967 965 962 959 956 954 952 951 949 949 947 946 946 945 943 942 941 940 938 936 934 933 931 929 925 925 924 924 923 921 918 916 916 916 915 915 915 913 910 908 906 903 901 898 898 896 893 890 887 883 880 877 873 872 871 867 867 866 863 861 859 858 858 855 854 853 852 851 851 849 849 849 850 850 850 847 840 838 838 838 845 845 845 841 838 835 835 834 831 829 828 828 824 824 824 827 827 827 823 819 818 817 814 806 803 800 800 800 801 801 801 801 798 797 794 794 793 792 789 787 787 786 783 782 781 780 779 778 777 776 775 774 773 772 771 770 769 769 768 766 765 764 764 763 762 762 761 761 761 761 761 761 761 761 761 761 762 762 763 763 764 765 765 766 766 766 766 766 766 768 770 770 770 770 768 0
1623 1664 1706 1708 1708 1708 1704 1653 1653 1653 1659 1689 1690 1700 1700 1700 1693 1693 1692 1691 1692 1691 1690 1690 1690 1690 1713 1714 1714 1714 1704 1688 1680 1677 1677 1676 1664 1664 1664 1665 1665 1665 1665 1665 1665 1665 1673 1680 1690 1695 1696 1706 1718 1718 1718 1713 1699 1683 1672 1672 1672 1672 1687 1688 1688 1688 1678 1678 1678 1688 1688 1689 1689 1689 1691 1693 1693 1694 1699 1710 1710 1710 1706 1706 1706 1709 1712 1714 1717 1717 1717 1713 1712 1708 1705 1705 1695 1690 1687 1690 1690 1749 1834 1941 2040 2215 2518 2739 3011 3289 3407 3469 3469 3469 3469 3470 3480 3480 3480 3477 3463 3461 3461 3461 3461 3464 3465 3465 3465 3465 3460 3459 3456 3450 3442 3441 3431 3420 3401 3375 3345 3302 3258 3258 3193 3186 3083 3069 3055 2797 2764 2696 2682 2528 2461 2182 1852 1851 1780 1740 1698 1662 1648 1632 1618 1610 1604 1594 1586 1578 1574 1573 1573 1569 1563 1558 1555 1549 1540 1540 1540 1545 1552 1555 1555 1562 1570 1576 1581 1589 1593 1593 1596 1601 1610 1622 1627 1627 1629 1634 1638 1645 1645 1645 1637 1616 1606 1596 1593 1593 1593 1597 1599 1602 1602 1602 1601 1598 1598 1598 1600 1603 1603 1603 1602 1595 1588 1583 1579 1578 1576 1576 1576 1576 1576 1575 1575 1575 1575 1576 1576 1576 1576 1576 1576 1576 1575 1574 1573 1572 1571 1570 1570 1569 1568 1568 1568 1568 1568 1568 1569 1569 1569 1570 1571 1571 1571 1570 1570 1569 1569 1568 1568 1568 1568 1568 1568 1569 1570 1572 1572 1573 1574 1576 1580 1582 1582 1582 1581 1580 1577 1576 1576 1575 1575 1571 1556 1556 1556 1555 1555 1554 1545 1542 1540 1539 1539 1538 1533 1529 1525 1525 1520 1513 1508 1499 1482 1482 1478 1476 1470 1460 1458 1457 1457 1450 1442 1434 1434 1434 1432 1432 1430 1430 1430 1429 1429 1427 1426 1421 1413 1408 1402 1393 1376 1359 1348 1347 1345 1343 1339 1328 1324 1319 1316 1313 1311 1309 1304 1301 1298 1295 1294 1290 1282 1277 1277 1277 1277 1277 1269 1266 1260 1247 1243 1242 1237 1233 1230 1223 1219 1217 1214 1210 1207 1202 1198 1194 1190 1187 1185 1181 1177 1172 1170 1169 1167 1166 1163 1159 1157 1156 1155 1154 1151 1144 1142 1137 1130 1126 1126 1124 1118 1112 1108 1104 1100 1096 1092 1088 1086 1083 1080 1077 1075 1072 1068 1066 1063 1061 1060 1059 1058 1057 1057 1056 1054 1054 1054 1054 1053 1053 1051 1051 1050 1049 1048 1042 1042 1040 1037 1032 1027 1019 1009 993 986 986 984 980 976 974 971 968 966 964 962 959 957 955 953 951 949 948 948 946 945 943 943 942 941 939 938 935 934 932 929 926 926 925 925 923 921 919 918 918 918 917 917 917 916 913 910 907 904 903 901 900 899 896 892 889 887 883 880 877 875 874 874 871 868 867 865 862 860 858 856 855 853 852 852 852 849 849 849 851 851 851 847 843 843 843 845 845 845 845 841 838 836 835 834 831 830 830 829 826 826 826 826 826 826 823 820 820 820 819 817 811 805 802 802 802 804 804 804 800 798 797 796 795 794 790 789 789 787 784 783 783 782 780 779 778 777 776 775 774 773 772 771 770 770 768 767 766 765 765 764 764 763 763 762 762 761 761 761 761 761 762 762 763 763 764 764 765 766 766 767 767 767 766 766 766 767 767 767 768 767 767 0
1626 1664 1706 1708 1716 1716 1716 1686 1686 1686 1689 1711 1711 1711 1706 1704 1702 1702 1693 1692 1690 1687 1684 1684 1684 1690 1713 1714 1714 1714 1704 1689 1680 1677 1677 1676 1664 1664 1664 1665 1665 1665 1665 1665 1665 1665 1673 1680 1690 1695 1696 1701 1718 1718 1718 1708 1700 1692 1676 1676 1676 1679 1687 1691 1691 1691 1692 1696 1696 1696 1696 1694 1691 1691 1691 1693 1698 1704 1711 1712 1712 1712 1706 1706 1706 1709 1712 1714 1717 1717 1717 1714 1714 1713 1709 1709 1700 1692 1690 1690 1690 1750 1856 1946 2098 2294 2584 2813 3134 3346 3445 3484 3484 3484 3484 3484 3482 3481 3481 3477 3471 3471 3471 3471 3472 3483 3490 3491 3491 3490 3475 3474 3473 3467 3456 3453 3451 3443 3430 3416 3401 3385 3383 3369 3362 3347 3245 3201 3191 3175 3072 2948 2907 2907 2901 2901 2883 2597 2530 2518 2491 2247 2180 2053 1977 1965 1945 1864 1799 1758 1730 1708 1680 1666 1658 1647 1644 1638 1611 1597 1591 1591 1591 1596 1600 1601 1605 1621 1633 1641 1654 1661 1665 1668 1673 1681 1686 1689 1694 1700 1710 1710 1710 1707 1671 1647 1629 1626 1624 1623 1622 1623 1622 1621 1621 1621 1621 1624 1624 1624 1620 1615 1614 1612 1602 1595 1588 1584 1579 1578 1576 1576 1576 1576 1576 1575 1575 1575 1575 1575 1575 1576 1576 1576 1575 1575 1575 1574 1573 1573 1571 1571 1569 1569 1568 1568 1568 1568 1568 1568 1569 1569 1569 1569 1569 1570 1570 1569 1569 1568 1568 1568 1568 1567 1567 1567 1567 1567 1568 1569 1572 1572 1574 1577 1580 1583 1584 1585 1585 1585 1584 1583 1583 1579 1578 1576 1567 1566 1562 1560 1557 1556 1549 1543 1543 1541 1540 1538 1534 1533 1533 1531 1529 1522 1512 1506 1495 1482 1482 1481 1481 1481 1481 1475 1472 1468 1456 1446 1443 1441 1441 1441 1441 1441 1440 1439 1439 1435 1429 1421 1415 1411 1404 1398 1391 1385 1361 1349 1347 1345 1341 1336 1330 1325 1323 1319 1315 1312 1308 1305 1304 1303 1303 1298 1288 1286 1286 1283 1283 1283 1275 1268 1263 1258 1256 1249 1248 1241 1234 1230 1225 1221 1217 1214 1209 1205 1201 1197 1193 1190 1187 1184 1181 1177 1174 1173 1170 1168 1165 1161 1158 1156 1155 1154 1151 1147 1145 1138 1132 1129 1128 1124 1119 1113 1109 1105 1101 1098 1095 1092 1090 1086 1083 1080 1078 1075 1072 1068 1065 1062 1062 1061 1060 1058 1057 1056 1054 1054 1053 1053 1053 1052 1050 1050 1050 1050 1050 1043 1042 1040 1040 1035 1030 1022 1014 1010 1003 997 995 990 981 977 973 970 968 966 964 962 960 957 955 953 951 951 950 948 946 945 944 943 942 942 939 935 935 934 932 929 926 926 925 923 922 921 920 920 920 920 919 919 917 915 911 908 905 903 903 901 899 896 894 892 890 887 883 878 877 877 876 875 870 868 865 863 860 859 857 855 853 853 853 853 852 851 851 851 851 851 847 846 846 846 849 849 849 845 841 839 837 835 834 831 831 831 830 830 827 827 827 826 826 823 822 822 822 821 821 820 811 805 805 805 809 809 809 802 801 800 798 796 794 792 792 791 788 786 784 783 783 782 780 780 778 777 777 776 774 774 772 771 771 770 768 768 767 766 765 764 764 764 763 762 762 762 762 763 763 763 763 764 764 765 765 766 766 766 767 767 767 767 767 767 768 768 767 768 767 767 0
1639 1651 1684 1686 1716 1719 1719 1726 1726 1726 1726 1725 1721 1711 1706 1704 1702 1702 1693 1692 1687 1684 1676 1676 1676 1691 1713 1713 1713 1713 1707 1689 1682 1680 1673 1672 1654 1654 1654 1665 1671 1671 1671 1668 1668 1668 1673 1680 1690 1695 1696 1701 1707 1707 1707 1702 1701 1698 1686 1683 1683 1683 1687 1691 1691 1691 1692 1696 1696 1696 1696 1694 1692 1692 1692 1694 1698 1706 1713 1713 1713 1712 1706 1706 1706 1709 1712 1714 1717 1717 1717 1716 1716 1709 1710 1710 1709 1700 1692 1692 1692 1760 1858 1978 2152 2310 2671 2818 3231 3437 3506 3506 3506 3492 3487 3484 3484 3482 3481 3477 3474 3474 3474 3477 3479 3486 3491 3491 3491 3491 3491 3490 3487 3479 3475 3473 3472 3466 3448 3438 3435 3435 3436 3437 3436 3436 3373 3322 3307 3305 3303 3281 3134 3090 3076 3053 3050 3041 3022 3022 3022 3022 3022 2902 2889 2859 2846 2768 2690 2619 2522 2290 2239 2175 2047 2035 1914 1807 1747 1732 1725 1710 1710 1710 1718 1727 1734 1748 1784 1815 1839 1866 1895 1923 1931 1955 2044 2125 2191 2199 2230 2230 2191 1903 1789 1762 1736 1716 1707 1706 1702 1689 1680 1674 1666 1663 1663 1662 1660 1649 1635 1622 1617 1612 1602 1595 1588 1584 1579 1578 1576 1576 1576 1576 1576 1576 1575 1575 1575 1575 1575 1575 1575 1575 1575 1575 1575 1574 1573 1573 1572 1571 1569 1569 1568 1568 1567 1567 1567 1568 1569 1569 1569 1569 1569 1569 1568 1568 1568 1567 1567 1567 1566 1566 1566 1567 1567 1567 1567 1569 1569 1571 1574 1577 1580 1583 1585 1587 1588 1589 1589 1589 1589 1589 1586 1579 1575 1571 1567 1566 1563 1558 1557 1554 1552 1548 1544 1540 1538 1538 1535 1534 1530 1523 1513 1512 1507 1499 1496 1491 1490 1488 1488 1488 1484 1482 1478 1455 1451 1451 1451 1451 1451 1450 1450 1448 1446 1441 1435 1430 1426 1423 1418 1413 1410 1407 1400 1369 1355 1353 1350 1342 1341 1339 1333 1323 1319 1315 1311 1308 1308 1307 1307 1305 1296 1296 1295 1294 1294 1293 1291 1281 1264 1264 1259 1258 1255 1243 1238 1234 1228 1224 1221 1216 1211 1208 1204 1201 1197 1193 1190 1188 1184 1181 1179 1176 1174 1170 1168 1165 1162 1159 1159 1158 1153 1149 1146 1139 1132 1129 1129 1125 1120 1115 1111 1108 1105 1101 1098 1096 1093 1090 1086 1083 1081 1079 1074 1071 1067 1065 1063 1062 1060 1060 1058 1056 1055 1054 1053 1053 1053 1052 1050 1050 1050 1050 1050 1046 1045 1043 1043 1039 1031 1023 1019 1014 1007 1001 995 990 984 979 976 973 970 969 967 965 962 960 958 955 954 953 951 949 947 945 944 943 943 942 940 939 938 936 934 930 928 927 927 925 925 924 922 922 922 922 922 922 921 917 914 910 908 906 905 902 901 897 896 894 892 889 884 880 879 878 878 875 871 869 867 863 860 860 859 857 854 854 854 854 853 853 853 853 851 851 849 849 849 849 850 850 850 846 842 839 837 835 834 831 831 831 831 831 831 829 828 828 826 825 825 825 828 828 828 828 820 809 809 809 810 810 810 807 807 806 803 803 800 799 799 798 791 787 785 785 784 784 781 780 780 779 778 777 776 775 774 773 772 771 770 770 768 767 766 765 765 764 764 764 763 763 763 763 764 765 765 765 765 765 766 767 767 767 767 768 768 768 768 768 768 767 767 767 765 765 0
1639 1648 1669 1670 1698 1719 1722 1731 1730 1730 1730 1725 1721 1711 1706 1704 1702 1702 1693 1685 1675 1674 1674 1674 1676 1691 1713 1713 1713 1713 1707 1689 1682 1680 1673 1672 1651 1651 1651 1660 1675 1675 1676 1676 1678 1681 1686 1693 1698 1701 1701 1702 1702 1701 1700 1700 1700 1700 1697 1692 1688 1687 1687 1687 1687 1689 1691 1696 1696 1696 1696 1694 1694 1694 1694 1694 1700 1708 1713 1713 1713 1712 1706 1706 1706 1709 1714 1714 1715 1715 1714 1714 1715 1716 1716 1716 1710 1701 1700 1700 1701 1764 1875 2065 2221 2406 2677 3027 3328 3443 3506 3506 3506 3497 3491 3485 3484 3483 3481 3481 3481 3486 3487 3487 3487 3487 3492 3493 3493 3493 3492 3492 3489 3483 3482 3479 3477 3476 3465 3454 3453 3453 3453 3454 3458 3458 3458 3426 3401 3380 3357 3344 3304 3237 3228 3223 3223 3223 3218 3218 3185 3119 3117 3106 3051 3008 2997 2977 2976 2968 2938 2903 2866 2866 2866 2866 2568 2347 2247 2247 2247 2250 2331 2354 2389 2458 2513 2563 2655 2664 2664 2664 2664 2664 2739 2744 2817 2838 2854 2854 2854 2838 2708 2397 2301 2267 2152 2107 2102 2097 2096 2016 1958 1939 1844 1814 1778 1725 1688 1668 1648 1627 1619 1614 1608 1597 1588 1584 1582 1580 1577 1576 1576 1576 1576 1576 1576 1575 1575 1575 1575 1575 1575 1575 1575 1575 1575 1574 1574 1573 1572 1571 1570 1569 1568 1567 1566 1566 1566 1567 1568 1569 1569 1569 1569 1568 1568 1568 1567 1567 1567 1567 1566 1566 1566 1566 1566 1567 1567 1568 1568 1570 1574 1578 1580 1583 1586 1589 1591 1591 1591 1591 1591 1590 1590 1580 1580 1578 1572 1572 1566 1565 1563 1560 1555 1552 1549 1544 1540 1539 1536 1534 1530 1523 1520 1517 1515 1510 1504 1499 1494 1491 1488 1488 1485 1484 1478 1462 1456 1456 1455 1455 1453 1450 1450 1450 1449 1441 1436 1435 1434 1431 1431 1425 1421 1421 1415 1406 1393 1377 1357 1348 1343 1342 1339 1327 1323 1318 1314 1313 1311 1310 1310 1310 1310 1307 1307 1307 1302 1299 1298 1297 1276 1272 1266 1263 1263 1252 1246 1241 1233 1226 1221 1219 1215 1212 1208 1205 1201 1197 1194 1190 1188 1185 1182 1178 1176 1173 1170 1168 1164 1164 1164 1163 1160 1153 1146 1141 1136 1133 1130 1127 1120 1117 1114 1111 1108 1105 1102 1100 1096 1093 1089 1086 1083 1081 1077 1073 1071 1069 1066 1063 1062 1060 1059 1057 1056 1055 1053 1053 1053 1052 1050 1050 1050 1048 1048 1044 1044 1042 1041 1041 1032 1026 1019 1014 1008 1003 996 992 986 982 979 977 974 972 970 967 966 962 961 959 957 955 953 951 950 947 946 944 944 942 941 939 939 937 937 932 929 929 929 929 929 926 924 922 922 922 922 922 921 921 918 914 912 909 907 905 903 900 897 894 892 890 885 883 882 880 879 876 872 870 868 866 864 863 861 859 858 858 858 858 858 858 857 857 857 857 857 855 854 853 853 853 850 847 844 841 839 836 834 831 831 831 832 832 832 832 830 829 829 829 831 832 837 837 837 833 820 812 812 812 817 817 817 811 811 811 813 813 813 810 800 799 798 794 792 789 787 785 784 782 781 780 779 779 777 776 775 774 774 773 772 771 770 769 767 767 766 766 765 765 764 764 764 764 765 765 765 766 766 766 767 767 767 768 768 768 769 769 769 769 769 769 767 767 764 764 0
1639 1648 1668 1670 1696 1718 1722 1726 1730 1730 1730 1713 1690 1686 1686 1686 1687 1687 1687 1677 1675 1674 1674 1674 1676 1709 1713 1714 1714 1713 1707 1699 1686 1682 1673 1672 1651 1641 1641 1641 1660 1675 1678 1683 1690 1692 1699 1707 1707 1707 1706 1705 1704 1703 1700 1700 1698 1698 1697 1692 1688 1684 1683 1683 1683 1684 1687 1688 1690 1690 1692 1694 1694 1694 1694 1694 1700 1709 1717 1717 1717 1712 1706 1706 1706 1709 1714 1714 1714 1712 1712 1712 1712 1716 1716 1716 1716 1715 1715 1716 1757 1841 1992 2084 2238 2504 2696 3163 3332 3471 3506 3506 3506 3500 3492 3489 3484 3483 3483 3484 3495 3495 3495 3495 3491 3491 3491 3492 3492 3493 3492 3492 3490 3486 3485 3485 3485 3481 3473 3467 3464 3464 3460 3460 3460 3460 3460 3454 3439 3425 3410 3409 3396 3378 3356 3344 3344 3344 3344 3346 3346 3343 3301 3246 3209 3197 3172 3153 3126 3125 3125 3111 3111 3044 3007 2993 2970 2935 2935 2935 2907 2907 2865 2836 2857 2865 2865 2881 2881 2881 2888 2900 3035 3035 3035 3109 3052 3052 3056 3056 3052 2923 2889 2889 2887 2887 2887 2768 2759 2750 2750 2733 2711 2694 2388 2210 2155 2081 1846 1739 1676 1641 1623 1615 1609 1597 1590 1585 1584 1580 1579 1576 1576 1576 1576 1576 1576 1575 1575 1575 1575 1575 1575 1575 1575 1575 1575 1575 1574 1573 1572 1571 1570 1569 1568 1567 1566 1566 1566 1566 1566 1566 1567 1568 1568 1568 1568 1568 1567 1567 1566 1566 1565 1565 1565 1565 1565 1565 1567 1567 1568 1568 1573 1578 1581 1585 1588 1591 1593 1593 1593 1593 1592 1592 1591 1586 1580 1578 1575 1573 1572 1572 1569 1563 1557 1554 1552 1547 1543 1539 1538 1535 1530 1523 1523 1522 1522 1518 1510 1504 1498 1493 1489 1489 1486 1486 1478 1468 1460 1459 1457 1456 1455 1454 1452 1451 1449 1443 1436 1435 1434 1433 1432 1432 1428 1425 1421 1415 1407 1392 1379 1358 1353 1350 1345 1335 1333 1329 1324 1320 1319 1319 1319 1319 1320 1320 1319 1318 1309 1302 1301 1301 1293 1283 1279 1273 1267 1256 1251 1250 1241 1233 1224 1221 1221 1218 1213 1208 1204 1199 1197 1194 1192 1189 1185 1181 1177 1175 1172 1170 1168 1167 1166 1165 1163 1160 1153 1146 1142 1139 1134 1129 1126 1121 1117 1114 1112 1108 1105 1103 1100 1095 1092 1090 1087 1084 1080 1077 1074 1071 1069 1066 1063 1062 1060 1058 1057 1056 1054 1053 1053 1052 1051 1049 1048 1048 1048 1044 1044 1042 1041 1041 1032 1027 1021 1014 1008 1005 1000 994 989 985 981 979 976 974 972 969 968 965 963 961 960 958 956 954 952 950 948 947 944 943 941 940 940 938 938 936 935 932 930 930 930 927 926 923 923 923 922 922 922 921 919 916 912 909 908 908 905 903 897 894 892 891 888 885 882 881 879 877 874 872 870 867 866 865 863 861 860 860 860 859 860 860 859 860 860 860 860 860 861 860 859 858 853 849 847 844 839 836 834 832 832 832 833 833 833 833 833 833 834 834 836 837 840 840 840 833 820 812 812 812 817 817 817 817 817 817 823 823 823 818 804 801 800 798 795 792 788 786 785 784 783 781 780 780 778 777 777 776 775 775 773 773 771 770 769 768 767 767 766 766 766 766 766 766 766 766 766 767 767 767 768 768 768 768 768 769 769 771 771 771 771 769 767 767 764 764 0
1639 1648 1668 1670 1670 1682 1703 1722 1728 1728 1728 1687 1683 1683 1683 1686 1686 1686 1686 1676 1675 1674 1674 1674 1701 1718 1718 1718 1713 1713 1711 1710 1703 1699 1698 1680 1654 1637 1637 1637 1659 1675 1680 1688 1695 1697 1703 1707 1708 1708 1708 1705 1702 1702 1700 1700 1698 1698 1697 1692 1688 1685 1683 1681 1680 1678 1678 1678 1681 1686 1692 1695 1697 1699 1701 1705 1712 1714 1719 1719 1719 1715 1715 1715 1721 1722 1722 1721 1721 1712 1712 1712 1712 1709 1709 1712 1714 1714 1738 1760 1810 1920 2003 2099 2367 2607 2793 3241 3388 3471 3502 3502 3502 3502 3502 3509 3509 3509 3495 3495 3495 3497 3497 3497 3496 3492 3492 3492 3492 3492 3493 3493 3493 3493 3492 3492 3487 3482 3475 3474 3472 3470 3466 3466 3466 3466 3466 3466 3459 3453 3452 3452 3450 3450 3445 3444 3436 3413 3413 3413 3410 3409 3395 3364 3345 3331 3315 3295 3280 3269 3263 3255 3232 3185 3185 3185 3206 3271 3271 3271 3200 3159 3136 3117 3117 3117 3117 3158 3197 3197 3296 3331 3331 3331 3322 3308 3292 3286 3249 3237 3209 3166 3162 3162 3162 3141 3173 3184 3173 3161 3161 3094 3070 3050 2932 2792 2756 2756 2341 1999 1784 1686 1637 1624 1614 1605 1595 1587 1585 1582 1579 1578 1578 1577 1576 1576 1576 1576 1575 1575 1574 1574 1574 1574 1575 1575 1575 1575 1574 1573 1572 1571 1569 1569 1567 1567 1566 1565 1564 1564 1564 1565 1566 1567 1568 1568 1568 1568 1567 1567 1566 1565 1564 1564 1564 1564 1564 1564 1566 1567 1567 1568 1569 1578 1585 1587 1592 1594 1596 1596 1596 1596 1596 1596 1596 1592 1587 1579 1576 1574 1574 1573 1572 1565 1560 1557 1553 1551 1545 1541 1538 1535 1532 1531 1527 1527 1526 1525 1516 1507 1501 1495 1489 1488 1486 1486 1484 1470 1469 1464 1460 1457 1456 1454 1453 1451 1451 1443 1437 1436 1436 1434 1432 1432 1429 1428 1425 1417 1408 1396 1381 1380 1378 1372 1352 1341 1341 1340 1333 1328 1323 1323 1323 1328 1331 1331 1331 1328 1318 1312 1310 1308 1303 1298 1293 1286 1280 1261 1257 1251 1246 1239 1228 1226 1223 1222 1217 1211 1206 1202 1199 1198 1195 1192 1189 1184 1181 1178 1175 1173 1173 1172 1170 1170 1170 1169 1161 1156 1152 1144 1137 1134 1131 1128 1121 1117 1115 1111 1108 1106 1102 1098 1095 1093 1091 1088 1084 1080 1077 1074 1071 1068 1065 1064 1062 1060 1059 1057 1055 1055 1053 1053 1052 1050 1049 1048 1047 1044 1044 1043 1041 1041 1032 1027 1022 1016 1011 1007 1002 998 992 987 983 981 978 976 974 972 969 967 965 962 961 960 957 955 953 952 951 948 946 945 943 941 940 938 938 938 937 934 932 931 930 929 928 926 925 924 924 923 923 922 920 917 912 910 910 910 908 904 898 895 892 892 889 885 884 882 879 877 875 872 871 869 868 866 864 863 862 861 861 861 860 860 860 862 862 863 863 865 867 867 867 863 856 851 849 844 842 839 837 837 837 837 837 836 834 834 834 836 839 839 840 840 840 840 840 835 819 812 812 812 817 821 822 823 824 824 824 824 823 819 805 802 802 799 797 794 789 788 786 785 784 783 781 780 779 779 778 777 777 775 775 774 772 772 770 770 769 768 768 767 767 767 767 767 767 767 768 768 768 768 768 769 769 769 769 769 770 771 772 772 772 771 768 768 764 764 0
1639 1648 1669 1670 1670 1682 1703 1722 1722 1722 1703 1672 1672 1672 1683 1686 1686 1686 1686 1680 1678 1678 1680 1680 1703 1718 1718 1718 1716 1716 1716 1716 1716 1710 1700 1693 1669 1637 1637 1637 1659 1675 1682 1691 1697 1699 1703 1707 1708 1708 1708 1705 1702 1702 1700 1698 1698 1698 1693 1688 1686 1686 1684 1681 1680 1676 1676 1676 1680 1686 1692 1697 1700 1703 1707 1711 1715 1717 1719 1719 1720 1720 1721 1725 1730 1734 1734 1734 1729 1712 1712 1710 1710 1707 1707 1710 1711 1715 1761 1809 1844 1939 2019 2116 2507 2607 2880 3319 3394 3459 3498 3500 3501 3502 3506 3509 3509 3509 3500 3500 3500 3502 3502 3502 3499 3489 3489 3489 3492 3493 3494 3494 3495 3497 3497 3497 3489 3485 3480 3478 3477 3477 3470 3470 3470 3477 3477 3477 3474 3473 3473 3473 3470 3469 3463 3459 3453 3452 3450 3448 3446 3443 3441 3432 3428 3426 3424 3407 3369 3362 3354 3351 3334 3309 3309 3309 3342 3344 3347 3348 3348 3348 3333 3324 3324 3324 3345 3376 3377 3383 3397 3397 3397 3394 3394 3389 3379 3379 3367 3367 3367 3376 3376 3376 3353 3352 3340 3330 3281 3264 3263 3232 3181 3157 3151 3098 2995 2928 2818 2400 2123 1889 1715 1643 1626 1610 1602 1599 1589 1583 1580 1580 1579 1578 1578 1578 1576 1576 1574 1574 1574 1574 1574 1574 1574 1574 1575 1574 1574 1573 1572 1571 1568 1566 1566 1566 1564 1562 1562 1562 1562 1563 1565 1567 1568 1569 1570 1570 1570 1569 1566 1564 1563 1563 1563 1563 1563 1564 1564 1564 1565 1565 1567 1574 1585 1594 1596 1596 1597 1598 1598 1598 1599 1599 1599 1593 1589 1585 1582 1576 1575 1574 1573 1569 1564 1561 1557 1553 1548 1544 1539 1536 1534 1532 1532 1527 1527 1526 1524 1512 1506 1499 1493 1492 1490 1488 1484 1473 1472 1466 1460 1458 1456 1454 1453 1451 1451 1443 1437 1436 1436 1433 1433 1432 1430 1429 1428 1420 1411 1402 1391 1387 1387 1375 1361 1353 1345 1343 1339 1335 1331 1330 1330 1331 1332 1334 1334 1334 1325 1319 1319 1318 1315 1313 1309 1301 1293 1269 1261 1260 1259 1249 1236 1231 1229 1226 1222 1215 1209 1207 1204 1201 1198 1196 1192 1189 1186 1183 1181 1179 1179 1178 1178 1178 1178 1175 1171 1168 1156 1147 1142 1141 1137 1132 1127 1122 1119 1115 1111 1107 1105 1102 1100 1097 1094 1091 1086 1083 1080 1076 1073 1071 1069 1067 1065 1063 1061 1059 1058 1056 1054 1053 1052 1050 1050 1049 1047 1045 1043 1041 1040 1037 1032 1027 1022 1017 1013 1008 1004 999 994 990 988 984 981 978 977 975 972 969 967 965 963 961 959 957 955 954 952 950 947 946 945 943 942 940 939 939 937 935 933 932 932 932 932 932 930 928 926 923 923 922 920 918 917 915 913 912 909 905 899 895 893 892 889 886 885 883 880 877 876 874 872 870 868 867 865 864 863 862 862 862 861 861 861 862 863 864 864 865 868 868 868 865 859 853 849 847 843 842 842 841 840 840 838 837 837 837 839 840 841 841 841 841 841 840 840 837 812 811 811 811 816 821 825 825 825 826 825 824 823 820 817 808 804 799 797 794 790 788 786 786 785 785 783 782 781 780 779 778 777 777 776 775 774 773 772 770 770 769 769 769 769 769 768 768 768 768 768 768 768 769 769 769 770 770 770 770 770 772 772 772 772 772 771 771 768 768 0
1639 1654 1672 1674 1674 1682 1692 1722 1722 1722 1702 1672 1672 1672 1684 1686 1686 1686 1686 1681 1679 1679 1680 1680 1703 1718 1718 1718 1716 1716 1716 1716 1716 1710 1700 1693 1670 1638 1638 1638 1659 1677 1684 1691 1697 1699 1703 1706 1708 1708 1708 1705 1702 1702 1700 1698 1698 1698 1693 1688 1686 1686 1684 1681 1680 1676 1676 1676 1680 1686 1692 1697 1700 1704 1707 1712 1716 1718 1719 1719 1720 1721 1722 1728 1731 1734 1734 1734 1729 1715 1714 1707 1707 1707 1707 1707 1708 1715 1776 1830 1870 1985 2036 2216 2507 2607 2941 3330 3397 3471 3493 3498 3501 3502 3507 3512 3512 3512 3500 3500 3500 3502 3502 3502 3500 3489 3489 3489 3492 3493 3494 3496 3496 3497 3497 3497 3492 3485 3485 3483 3482 3482 3471 3471 3471 3480 3480 3481 3482 3482 3482 3482 3482 3476 3469 3465 3460 3460 3460 3462 3462 3462 3462 3459 3459 3459 3459 3459 3453 3445 3442 3428 3413 3410 3410 3408 3408 3407 3407 3403 3403 3403 3400 3400 3400 3413 3429 3435 3441 3441 3441 3438 3436 3434 3432 3432 3429 3427 3427 3418 3413 3413 3413 3413 3413 3407 3397 3379 3369 3368 3360 3341 3316 3278 3264 3238 3176 3111 2971 2797 2560 2270 2037 1806 1668 1628 1614 1614 1602 1595 1592 1590 1589 1587 1584 1579 1576 1575 1573 1573 1573 1573 1573 1574 1574 1574 1574 1574 1574 1573 1572 1571 1568 1565 1565 1564 1562 1561 1561 1561 1561 1561 1563 1567 1567 1569 1570 1570 1570 1570 1567 1564 1562 1562 1562 1562 1562 1562 1563 1563 1563 1565 1567 1574 1588 1594 1598 1601 1602 1602 1602 1602 1602 1602 1601 1601 1595 1595 1594 1594 1581 1578 1576 1575 1570 1566 1562 1556 1553 1550 1546 1541 1540 1537 1534 1533 1530 1529 1528 1522 1514 1507 1503 1498 1493 1488 1484 1480 1477 1471 1465 1460 1456 1455 1454 1453 1451 1446 1441 1440 1436 1433 1433 1432 1431 1430 1430 1424 1415 1410 1409 1406 1401 1391 1368 1360 1353 1345 1339 1339 1339 1340 1340 1340 1338 1337 1336 1336 1333 1328 1324 1322 1321 1320 1316 1310 1302 1293 1284 1275 1266 1250 1245 1235 1232 1229 1225 1225 1218 1212 1208 1205 1202 1199 1196 1193 1191 1189 1186 1185 1184 1184 1185 1185 1185 1185 1180 1174 1160 1149 1148 1147 1143 1135 1129 1125 1124 1120 1115 1111 1109 1105 1104 1100 1097 1093 1089 1086 1083 1079 1076 1074 1072 1070 1069 1066 1063 1061 1059 1057 1056 1055 1054 1053 1051 1049 1048 1045 1041 1041 1039 1037 1034 1026 1022 1017 1013 1008 1004 999 996 993 990 987 984 981 980 977 974 971 969 967 965 963 961 958 957 955 954 952 950 948 946 944 943 941 940 940 938 937 936 936 936 938 938 938 935 932 931 929 928 924 922 920 918 917 915 914 912 908 905 899 896 894 890 887 885 883 882 879 877 875 873 871 869 867 866 865 864 863 863 863 861 861 861 862 863 865 865 865 868 868 868 868 862 856 851 847 845 845 845 845 845 841 840 840 840 841 842 843 843 843 842 843 843 842 842 837 812 811 811 811 816 821 827 827 827 826 823 823 822 820 819 817 807 800 798 795 791 789 787 786 786 785 784 783 781 781 781 779 779 778 777 776 776 775 773 772 771 771 771 771 770 770 770 770 770 770 770 770 770 770 770 770 770 771 771 771 772 772 772 772 772 772 771 771 768 768 0
1642 1656 1672 1674 1681 1688 1698 1720 1720 1720 1702 1687 1687 1687 1695 1695 1695 1695 1695 1695 1694 1694 1697 1699 1703 1712 1712 1712 1712 1712 1716 1716 1716 1710 1700 1693 1676 1661 1661 1661 1674 1681 1685 1693 1699 1700 1703 1703 1705 1705 1705 1702 1699 1698 1698 1698 1698 1698 1693 1688 1686 1686 1685 1681 1681 1676 1676 1676 1680 1686 1692 1697 1700 1704 1707 1712 1716 1718 1719 1719 1720 1721 1722 1728 1731 1734 1734 1734 1729 1715 1714 1708 1707 1707 1707 1707 1707 1715 1777 1830 1871 1986 2036 2216 2507 2607 2941 3331 3405 3473 3493 3498 3500 3502 3507 3512 3512 3512 3500 3500 3500 3504 3504 3504 3500 3489 3489 3489 3492 3493 3495 3496 3497 3497 3497 3497 3492 3490 3490 3490 3490 3490 3473 3473 3473 3480 3484 3484 3489 3498 3498 3498 3497 3484 3474 3467 3465 3465 3465 3468 3469 3469 3468 3468 3470 3467 3467 3467 3462 3462 3462 3463 3463 3463 3461 3450 3442 3434 3432 3432 3432 3432 3432 3439 3449 3458 3458 3458 3458 3458 3458 3459 3459 3459 3459 3449 3441 3441 3441 3441 3438 3438 3438 3438 3437 3432 3428 3420 3420 3418 3418 3414 3394 3374 3347 3324 3315 3278 3255 3170 3119 2666 2421 2173 1881 1720 1660 1633 1632 1631 1621 1601 1601 1601 1590 1579 1575 1573 1573 1573 1573 1573 1573 1573 1573 1573 1573 1573 1573 1573 1572 1571 1568 1565 1563 1562 1559 1559 1559 1560 1560 1561 1563 1566 1567 1569 1571 1571 1571 1571 1567 1564 1561 1561 1561 1562 1562 1562 1562 1562 1563 1565 1567 1574 1589 1595 1601 1606 1611 1611 1611 1610 1609 1608 1606 1603 1600 1597 1596 1596 1587 1584 1582 1580 1575 1570 1566 1561 1557 1555 1552 1548 1547 1543 1538 1534 1530 1529 1528 1526 1525 1516 1510 1503 1499 1493 1491 1486 1481 1473 1469 1465 1460 1458 1454 1453 1451 1446 1442 1441 1436 1433 1433 1432 1431 1431 1431 1429 1426 1421 1418 1411 1401 1393 1391 1376 1369 1350 1341 1341 1341 1343 1343 1343 1338 1338 1338 1339 1339 1339 1336 1332 1329 1329 1325 1318 1311 1301 1299 1292 1268 1261 1251 1250 1242 1236 1232 1232 1229 1220 1214 1210 1206 1202 1198 1196 1194 1193 1192 1192 1192 1194 1196 1196 1196 1193 1190 1184 1179 1170 1162 1153 1146 1135 1133 1131 1129 1125 1123 1118 1116 1111 1107 1104 1100 1095 1092 1089 1086 1083 1080 1077 1075 1074 1071 1068 1065 1064 1061 1058 1057 1056 1055 1054 1052 1051 1049 1047 1042 1039 1037 1037 1033 1026 1022 1017 1013 1009 1005 1001 998 995 993 990 988 985 982 980 977 974 972 970 967 965 963 960 958 957 955 953 951 950 948 945 944 942 941 941 940 940 940 939 939 939 939 939 937 935 934 934 933 932 928 926 923 921 918 918 914 910 905 902 898 897 891 887 887 885 883 881 879 876 874 872 871 869 867 866 866 864 864 863 862 862 862 862 863 864 865 865 868 870 870 870 865 861 857 856 855 849 849 847 846 841 840 840 840 841 842 843 844 843 843 844 844 843 842 838 812 811 811 811 816 821 827 827 827 826 823 822 821 820 820 817 808 802 800 796 792 790 788 787 787 787 785 784 783 782 782 781 780 779 779 778 777 776 775 774 772 772 772 772 772 772 771 771 771 771 770 770 770 770 771 771 771 772 772 772 772 773 774 774 774 774 774 774 773 773 0
1642 1656 1672 1674 1680 1686 1698 1720 1720 1720 1701 1690 1690 1690 1698 1698 1698 1698 1698 1699 1703 1703 1703 1702 1702 1702 1703 1709 1710 1711 1711 1711 1707 1697 1686 1685 1676 1676 1676 1686 1688 1688 1689 1695 1701 1701 1701 1701 1701 1700 1700 1698 1697 1697 1697 1698 1698 1698 1695 1693 1693 1689 1687 1685 1685 1682 1680 1680 1680 1684 1690 1695 1700 1704 1707 1712 1716 1716 1716 1716 1716 1717 1722 1728 1731 1731 1732 1732 1732 1717 1716 1710 1709 1707 1707 1707 1711 1739 1785 1831 1933 2000 2083 2248 2507 2607 3096 3397 3462 3474 3493 3498 3500 3502 3508 3512 3512 3512 3501 3501 3501 3505 3505 3505 3505 3501 3497 3494 3494 3494 3495 3496 3497 3497 3497 3497 3493 3491 3491 3491 3491 3491 3476 3476 3476 3483 3485 3486 3490 3498 3498 3498 3497 3484 3476 3469 3466 3466 3466 3471 3471 3471 3470 3470 3470 3468 3468 3468 3463 3463 3463 3464 3464 3464 3462 3452 3444 3437 3434 3434 3434 3434 3435 3441 3450 3459 3460 3460 3460 3460 3460 3461 3461 3461 3461 3457 3450 3450 3449 3450 3450 3450 3450 3452 3452 3452 3445 3445 3445 3450 3450 3450 3441 3421 3405 3390 3381 3351 3312 3263 3151 3028 2445 2174 1881 1722 1662 1635 1634 1634 1623 1604 1604 1603 1592 1580 1575 1573 1573 1573 1573 1573 1573 1573 1573 1573 1573 1573 1573 1573 1572 1569 1568 1564 1563 1561 1558 1558 1558 1558 1559 1559 1560 1563 1567 1567 1572 1572 1572 1571 1567 1564 1561 1561 1561 1561 1560 1560 1561 1561 1563 1566 1571 1584 1600 1604 1610 1623 1627 1627 1627 1625 1616 1611 1609 1606 1603 1602 1602 1600 1597 1590 1585 1582 1578 1575 1571 1567 1563 1560 1556 1555 1552 1549 1544 1540 1534 1532 1529 1528 1526 1516 1514 1513 1509 1502 1491 1487 1482 1477 1472 1468 1463 1458 1456 1453 1451 1446 1444 1443 1442 1435 1433 1432 1432 1432 1432 1434 1434 1434 1427 1413 1401 1393 1391 1377 1376 1361 1352 1349 1345 1345 1345 1345 1344 1344 1344 1344 1348 1348 1348 1340 1337 1336 1336 1329 1321 1312 1305 1302 1293 1271 1266 1263 1251 1239 1238 1236 1233 1226 1219 1214 1209 1205 1201 1200 1200 1199 1199 1199 1199 1199 1199 1199 1199 1195 1190 1189 1187 1186 1178 1162 1149 1140 1139 1139 1136 1130 1126 1124 1121 1117 1111 1107 1102 1099 1096 1093 1091 1087 1083 1081 1078 1076 1073 1071 1068 1065 1063 1061 1059 1057 1055 1055 1054 1051 1051 1047 1043 1041 1039 1037 1033 1026 1022 1018 1014 1009 1007 1005 1000 998 995 992 989 988 985 981 978 976 973 971 969 967 965 962 960 958 956 955 954 951 949 947 945 944 942 941 941 941 942 942 943 943 942 941 938 936 936 936 936 936 934 931 929 926 924 919 914 911 905 902 899 897 894 892 889 885 884 882 880 877 875 873 872 870 868 867 866 865 865 863 863 863 863 863 864 864 865 865 868 870 870 870 866 863 859 858 856 852 850 848 847 841 840 840 840 841 841 842 843 843 842 843 844 847 847 847 836 811 811 811 816 821 827 827 827 826 823 819 819 817 817 817 809 802 800 796 792 792 791 791 790 789 787 786 785 784 783 783 781 781 779 779 778 777 776 776 775 775 775 773 773 773 773 773 772 772 772 771 771 771 772 772 772 772 773 773 774 774 774 775 775 775 777 778 775 781 0
1646 1656 1671 1672 1677 1684 1698 1720 1720 1720 1698 1690 1690 1690 1698 1698 1699 1699 1699 1699 1703 1703 1703 1697 1694 1694 1697 1702 1705 1705 1705 1703 1696 1689 1686 1681 1681 1681 1692 1693 1693 1695 1695 1695 1701 1701 1701 1700 1700 1697 1697 1697 1697 1697 1697 1698 1698 1698 1696 1696 1694 1691 1689 1688 1688 1687 1684 1684 1684 1684 1690 1693 1695 1700 1701 1704 1710 1713 1715 1715 1716 1716 1716 1717 1720 1724 1728 1728 1728 1723 1722 1714 1712 1709 1709 1712 1721 1752 1787 1833 1943 2007 2098 2297 2507 2669 3236 3446 3480 3484 3493 3500 3500 3504 3509 3509 3509 3508 3502 3502 3502 3506 3506 3506 3505 3502 3497 3496 3496 3496 3496 3496 3496 3496 3496 3495 3493 3493 3493 3493 3493 3493 3483 3483 3483 3483 3485 3487 3490 3498 3498 3498 3497 3484 3479 3474 3474 3474 3474 3474 3474 3474 3471 3471 3471 3476 3476 3476 3473 3473 3473 3477 3477 3477 3473 3467 3457 3448 3448 3448 3448 3453 3458 3460 3465 3465 3466 3466 3469 3470 3473 3475 3475 3475 3470 3458 3451 3451 3450 3451 3451 3451 3451 3452 3452 3452 3446 3446 3446 3451 3451 3451 3441 3423 3405 3392 3383 3352 3313 3265 3153 3029 2839 2638 2268 2012 1783 1693 1664 1656 1634 1616 1608 1607 1594 1584 1581 1573 1573 1573 1573 1573 1573 1573 1573 1573 1573 1573 1573 1573 1570 1569 1566 1562 1560 1558 1556 1556 1555 1555 1555 1556 1557 1562 1567 1567 1572 1572 1572 1571 1567 1563 1561 1560 1560 1560 1559 1559 1560 1560 1564 1574 1586 1598 1617 1630 1637 1642 1643 1643 1643 1641 1636 1621 1613 1610 1610 1608 1606 1605 1599 1594 1591 1586 1582 1578 1574 1571 1567 1564 1561 1559 1556 1552 1549 1545 1541 1535 1532 1531 1527 1518 1515 1514 1514 1503 1494 1488 1486 1482 1476 1472 1467 1464 1459 1455 1451 1449 1446 1446 1445 1444 1439 1435 1435 1435 1438 1439 1439 1439 1430 1413 1400 1393 1390 1380 1377 1369 1362 1358 1349 1349 1348 1347 1346 1345 1345 1345 1352 1352 1352 1350 1344 1344 1344 1341 1335 1324 1314 1304 1296 1294 1281 1268 1254 1246 1243 1242 1239 1231 1227 1220 1214 1210 1208 1207 1206 1203 1203 1203 1203 1203 1201 1200 1199 1196 1192 1190 1190 1189 1189 1181 1163 1150 1147 1140 1136 1133 1127 1126 1124 1121 1115 1109 1106 1103 1101 1098 1095 1090 1087 1084 1081 1078 1076 1074 1071 1068 1065 1064 1061 1059 1057 1056 1054 1052 1051 1048 1044 1043 1039 1037 1035 1027 1022 1018 1014 1012 1010 1007 1003 999 996 995 992 990 986 983 980 978 976 974 972 970 967 964 962 960 958 956 955 953 949 947 946 945 943 942 942 942 942 942 943 943 942 942 938 938 938 938 938 938 937 936 933 928 924 919 916 914 908 902 900 897 895 892 890 888 885 883 881 879 876 875 873 871 870 868 868 866 865 864 863 863 863 863 864 864 865 865 867 870 870 870 866 866 866 865 865 860 853 853 851 841 840 840 839 839 840 841 841 842 843 844 849 860 860 860 836 811 811 811 812 815 823 833 833 833 826 816 816 816 816 816 810 806 804 799 796 795 794 793 791 789 788 787 786 784 784 783 783 782 781 780 779 779 778 778 777 777 777 777 775 775 775 774 774 773 773 773 773 773 773 773 774 774 774 774 774 774 774 775 778 779 779 782 779 787 0
1648 1660 1667 1669 1670 1670 1688 1705 1705 1705 1698 1690 1690 1690 1695 1698 1700 1700 1700 1701 1703 1703 1703 1694 1681 1681 1681 1691 1695 1696 1696 1696 1696 1689 1686 1676 1676 1676 1692 1693 1693 1695 1695 1695 1701 1701 1701 1700 1700 1697 1697 1697 1697 1697 1697 1697 1697 1697 1696 1696 1694 1691 1689 1688 1688 1687 1685 1684 1684 1684 1690 1693 1695 1700 1701 1704 1710 1713 1715 1715 1716 1715 1715 1716 1716 1719 1726 1729 1731 1731 1729 1725 1722 1714 1714 1721 1721 1775 1804 1864 1957 2022 2122 2332 2614 2809 3311 3446 3484 3489 3493 3500 3505 3510 3510 3510 3508 3503 3503 3503 3504 3508 3508 3508 3507 3503 3498 3496 3496 3496 3496 3497 3497 3496 3495 3494 3494 3494 3494 3494 3494 3493 3487 3487 3487 3489 3491 3492 3495 3495 3495 3494 3490 3486 3480 3475 3475 3475 3478 3478 3478 3476 3472 3472 3472 3476 3480 3480 3480 3480 3480 3480 3479 3478 3474 3469 3464 3455 3455 3455 3457 3462 3467 3467 3467 3467 3467 3469 3474 3475 3475 3475 3475 3475 3470 3460 3459 3459 3457 3457 3457 3457 3456 3454 3454 3452 3452 3452 3452 3452 3452 3452 3451 3444 3436 3436 3431 3412 3376 3308 3256 3194 3069 2771 2629 2460 2275 1895 1741 1688 1648 1622 1613 1607 1595 1588 1584 1575 1573 1573 1573 1573 1573 1573 1573 1573 1573 1572 1572 1572 1570 1569 1566 1560 1558 1555 1552 1552 1552 1554 1554 1555 1556 1562 1567 1567 1574 1574 1574 1571 1566 1562 1561 1560 1560 1559 1558 1558 1558 1560 1564 1578 1592 1613 1642 1682 1699 1699 1699 1674 1667 1657 1652 1641 1623 1618 1617 1616 1615 1610 1605 1599 1597 1592 1587 1582 1578 1575 1572 1569 1565 1563 1559 1555 1552 1548 1545 1540 1535 1532 1527 1521 1520 1518 1515 1506 1495 1491 1490 1485 1480 1475 1472 1466 1463 1459 1453 1449 1447 1447 1446 1444 1444 1444 1444 1445 1445 1445 1444 1439 1430 1415 1400 1389 1386 1380 1377 1369 1365 1360 1355 1349 1349 1348 1346 1346 1346 1348 1354 1355 1355 1355 1351 1349 1347 1345 1339 1324 1314 1305 1297 1295 1290 1281 1262 1258 1254 1249 1249 1239 1234 1225 1218 1216 1214 1213 1211 1211 1210 1211 1213 1213 1211 1211 1205 1201 1194 1191 1191 1191 1191 1188 1184 1166 1150 1140 1136 1134 1133 1128 1126 1122 1119 1114 1109 1107 1104 1101 1097 1094 1090 1086 1083 1081 1078 1076 1073 1070 1068 1066 1064 1061 1059 1056 1054 1052 1051 1050 1047 1043 1040 1040 1035 1028 1025 1022 1019 1015 1012 1008 1005 1001 999 997 994 991 988 985 982 980 978 976 974 972 970 967 965 962 960 959 956 953 951 949 947 946 945 944 943 943 943 943 943 943 944 944 944 944 944 944 944 942 939 938 934 929 925 920 917 914 908 902 900 898 897 893 891 888 886 884 882 880 878 875 874 872 871 869 868 867 866 866 865 864 864 864 864 864 865 865 866 867 867 867 867 867 867 867 867 866 856 855 854 853 840 840 840 840 840 842 843 844 849 850 860 860 860 860 843 820 818 817 817 817 823 833 833 833 832 816 814 814 810 810 810 808 806 802 799 795 794 793 792 791 789 788 787 787 785 785 784 784 783 782 781 781 780 780 779 778 778 778 777 776 776 775 775 775 774 774 774 774 775 775 775 775 775 775 775 775 775 776 779 781 782 783 783 787 0
1653 1662 1667 1669 1670 1670 1688 1702 1702 1702 1691 1678 1678 1678 1689 1691 1695 1700 1700 1700 1698 1697 1697 1689 1674 1674 1674 1682 1691 1692 1696 1696 1696 1689 1688 1681 1681 1681 1692 1693 1693 1693 1693 1693 1697 1698 1700 1700 1700 1697 1697 1696 1696 1696 1696 1696 1696 1696 1696 1696 1694 1691 1689 1688 1688 1688 1688 1691 1695 1695 1695 1696 1696 1700 1701 1704 1710 1713 1718 1718 1718 1718 1715 1714 1714 1714 1723 1728 1729 1729 1729 1725 1722 1714 1714 1725 1735 1799 1838 1921 1978 2046 2189 2643 2714 3062 3321 3446 3491 3493 3500 3500 3505 3512 3512 3512 3508 3503 3503 3503 3506 3509 3509 3509 3507 3503 3498 3497 3497 3497 3497 3497 3497 3497 3495 3494 3494 3494 3496 3496 3496 3494 3493 3493 3493 3498 3499 3499 3499 3497 3494 3491 3488 3487 3482 3475 3475 3475 3478 3478 3478 3478 3477 3476 3476 3476 3480 3480 3480 3480 3482 3480 3480 3480 3474 3470 3466 3461 3461 3461 3463 3467 3467 3468 3467 3468 3468 3472 3475 3475 3475 3475 3479 3479 3479 3475 3467 3464 3463 3461 3457 3457 3457 3456 3454 3451 3451 3451 3452 3454 3454 3454 3454 3454 3452 3452 3449 3442 3419 3381 3308 3287 3220 3068 2963 2786 2626 2415 2030 1812 1704 1643 1630 1613 1598 1593 1591 1581 1574 1573 1573 1573 1573 1573 1573 1572 1572 1572 1572 1572 1570 1569 1566 1559 1556 1552 1552 1552 1552 1553 1553 1554 1554 1562 1569 1570 1575 1575 1575 1569 1565 1559 1559 1559 1558 1555 1555 1555 1555 1559 1565 1583 1610 1640 1685 1779 1822 1822 1822 1815 1709 1687 1668 1654 1643 1631 1627 1625 1621 1617 1613 1607 1604 1600 1594 1587 1583 1578 1577 1573 1571 1566 1564 1560 1556 1553 1549 1545 1539 1535 1527 1522 1520 1518 1515 1508 1503 1501 1494 1488 1483 1479 1476 1471 1466 1461 1456 1452 1449 1449 1447 1447 1444 1444 1444 1445 1445 1445 1445 1439 1430 1415 1397 1389 1386 1380 1377 1374 1366 1360 1356 1352 1350 1348 1348 1348 1348 1348 1355 1356 1357 1359 1357 1356 1354 1347 1340 1330 1317 1305 1301 1295 1294 1290 1280 1271 1265 1259 1250 1242 1235 1226 1220 1219 1218 1218 1218 1216 1216 1218 1219 1216 1216 1216 1211 1202 1196 1193 1193 1192 1191 1189 1187 1173 1150 1145 1138 1138 1136 1135 1132 1125 1121 1119 1113 1109 1107 1103 1100 1096 1092 1089 1085 1083 1080 1077 1075 1073 1070 1069 1067 1065 1063 1060 1058 1056 1055 1055 1055 1055 1055 1055 1038 1034 1033 1028 1024 1020 1015 1011 1007 1004 1002 999 997 993 989 987 984 982 980 979 976 975 973 970 967 965 962 960 957 955 952 950 949 948 947 946 945 944 943 943 943 943 944 944 944 944 944 944 944 943 940 939 936 930 926 923 918 914 908 903 900 899 897 894 892 890 887 885 883 881 878 877 876 874 873 871 870 868 868 867 866 866 865 865 865 865 864 864 864 865 865 866 866 867 867 868 868 868 860 860 857 856 845 842 840 840 840 842 844 855 861 861 869 869 869 861 845 831 825 819 819 819 823 833 836 836 836 816 814 814 812 812 812 809 807 802 800 798 794 794 793 791 791 790 789 788 787 786 786 785 784 783 783 783 782 782 781 781 780 779 778 778 777 777 777 777 777 776 776 776 776 776 776 776 777 777 777 777 777 777 780 782 784 784 784 788 0
1684 1669 1670 1670 1670 1670 0 1691 1691 1691 1678 1670 1670 1670 1682 1684 1695 1699 1699 1699 1696 1692 1690 1683 1674 1670 1670 1670 1684 1686 1699 1701 1701 1701 1701 1688 1688 1688 1690 1690 1690 1688 1685 1685 1685 1686 1702 1702 1702 1699 1697 1696 1696 1694 1694 1694 1693 1693 1692 1692 1692 1690 1689 1688 1688 1688 1690 1695 1703 1703 1705 1705 1705 1705 1705 1711 1711 1712 1718 1718 1718 1718 1715 1713 1713 1713 1714 1724 1729 1729 1729 1725 1722 1714 1714 1725 1736 1822 1874 1946 2012 2111 2368 2730 2804 3209 3331 3446 3493 3497 3503 3503 3510 3512 3512 3512 3508 3508 3508 3511 3513 3513 3513 3512 3507 3503 3498 3498 3498 3498 3498 3498 3498 3498 3496 3496 3496 3497 3498 3499 3499 3499 3499 3499 3499 3502 3502 3502 3502 3497 3494 3490 3488 3487 3484 3480 3480 3480 3480 3480 3480 3479 3478 3476 3476 3476 3476 3479 3480 3480 3481 3480 3480 3480 3474 3471 3467 3467 3467 3468 3468 3468 3468 3468 3468 3469 3472 3475 3476 3476 3476 3476 3481 3481 3481 3479 3474 3469 3466 3461 3458 3458 3458 3457 3457 3452 3452 3452 3455 3456 3456 3456 3457 3458 3456 3456 3456 3447 3434 3412 3384 3365 3351 3293 3133 3017 2945 2710 2305 2011 1770 1675 1644 1622 1610 1604 1598 1588 1579 1576 1576 1575 1574 1574 1572 1572 1572 1572 1572 1572 1571 1571 1567 1559 1553 1548 1548 1548 1552 1552 1552 1553 1553 1565 1575 1580 1580 1580 1577 1569 1565 1559 1556 1555 1555 1553 1552 1552 1552 1559 1565 1586 1620 1660 1751 1910 1939 1939 1939 1920 1814 1742 1709 1676 1658 1647 1638 1631 1628 1625 1620 1617 1613 1608 1603 1596 1589 1585 1582 1578 1576 1571 1568 1565 1563 1558 1553 1549 1546 1540 1533 1524 1522 1522 1518 1510 1507 1503 1497 1491 1486 1483 1478 1473 1468 1463 1459 1456 1452 1450 1449 1447 1445 1445 1445 1445 1445 1445 1445 1436 1427 1415 1399 1390 1390 1386 1377 1374 1366 1362 1358 1356 1355 1353 1350 1349 1349 1349 1355 1359 1360 1361 1361 1360 1360 1349 1341 1331 1319 1305 1302 1302 1301 1300 1290 1279 1270 1265 1256 1242 1237 1228 1221 1219 1219 1219 1219 1220 1221 1222 1222 1222 1222 1220 1214 1206 1198 1196 1194 1194 1192 1191 1189 1181 1155 1145 1139 1139 1139 1139 1139 1133 1128 1123 1118 1113 1109 1105 1102 1098 1095 1092 1089 1086 1084 1080 1078 1075 1073 1071 1071 1069 1067 1064 1062 1062 1062 1062 1066 1066 1066 1063 1045 1045 1043 1036 1029 1023 1017 1013 1010 1008 1005 1002 999 995 991 989 986 983 982 980 978 976 975 972 969 967 964 962 959 957 954 952 950 950 948 947 946 944 943 943 943 943 944 944 944 944 944 944 944 944 944 943 940 931 926 923 918 913 909 904 902 900 897 895 893 890 888 887 885 883 880 878 877 875 874 872 871 871 869 867 867 866 866 866 865 865 865 864 864 864 864 866 866 866 867 868 868 868 866 864 862 861 856 855 854 854 854 855 862 874 876 877 877 877 872 861 845 842 835 825 825 825 825 833 837 837 837 819 814 814 813 813 813 810 808 804 802 799 798 795 794 792 792 792 791 789 789 788 787 787 786 785 785 784 784 783 783 782 781 780 779 779 779 778 778 778 777 777 777 777 777 777 778 778 778 778 778 778 779 780 783 783 786 786 786 789 0
1696 1697 1697 1698 1699 1699 1699 1695 1689 1675 1669 1669 1669 1670 1682 1684 1695 1697 1697 1697 1693 1688 1686 1683 1674 1670 1670 1670 1684 1686 1700 1705 1705 1705 1705 1696 1690 1690 1690 1690 1690 1684 1677 1675 1675 1675 1692 1699 1699 1699 1697 1696 1694 1691 1691 1691 1692 1692 1692 1692 1692 1690 1689 1688 1688 1688 1692 1700 1707 1707 1707 1708 1708 1712 1712 1712 1717 1717 1718 1718 1718 1718 1715 1712 1710 1710 1710 1712 1718 1718 1718 1702 1692 1678 1678 1678 1736 1822 1886 1965 2054 2145 2441 2734 2821 3273 3374 3446 3500 3504 3510 3510 3510 3517 3517 3517 3515 3515 3515 3517 3518 3518 3518 3514 3509 3504 3501 3501 3500 3501 3501 3501 3500 3500 3500 3500 3500 3502 3502 3502 3503 3503 3504 3504 3504 3506 3506 3506 3502 3498 3494 3490 3490 3490 3488 3487 3486 3486 3486 3485 3480 3480 3479 3478 3476 3476 3476 3476 3479 3480 3480 3480 3480 3480 3474 3471 3471 3471 3472 3472 3472 3471 3469 3469 3469 3474 3478 3479 3479 3479 3479 3479 3481 3481 3481 3481 3478 3474 3467 3462 3462 3462 3462 3462 3457 3452 3452 3452 3455 3456 3457 3458 3463 3463 3463 3462 3457 3452 3435 3413 3399 3390 3380 3370 3339 3235 2990 2889 2601 2187 2018 1724 1651 1634 1618 1615 1604 1590 1585 1582 1581 1581 1575 1572 1571 1571 1571 1572 1572 1572 1572 1571 1567 1559 1552 1548 1548 1548 1552 1552 1552 1553 1553 1566 1590 1608 1608 1608 1580 1569 1565 1559 1555 1555 1553 1551 1551 1551 1551 1559 1566 1588 1627 1686 1823 1997 2020 2020 2020 2007 1935 1851 1796 1742 1686 1661 1645 1638 1634 1631 1627 1624 1617 1617 1611 1602 1596 1591 1587 1583 1582 1578 1576 1573 1569 1563 1558 1553 1549 1546 1540 1536 1532 1525 1518 1511 1508 1504 1500 1494 1489 1484 1480 1475 1470 1465 1462 1459 1457 1454 1451 1448 1445 1443 1443 1443 1444 1444 1444 1434 1424 1412 1400 1398 1395 1391 1384 1376 1369 1364 1362 1359 1358 1356 1354 1353 1352 1352 1352 1359 1360 1361 1361 1360 1360 1353 1343 1331 1321 1312 1308 1308 1304 1303 1300 1286 1279 1278 1271 1253 1241 1230 1222 1222 1221 1221 1221 1223 1223 1224 1224 1224 1224 1224 1219 1215 1210 1207 1204 1200 1196 1191 1189 1182 1167 1159 1156 1154 1146 1145 1143 1137 1129 1124 1120 1117 1114 1110 1104 1100 1098 1095 1092 1091 1088 1085 1081 1077 1076 1075 1073 1071 1069 1067 1067 1067 1069 1072 1077 1087 1087 1087 1056 1047 1044 1037 1029 1024 1019 1014 1013 1011 1009 1006 1001 997 995 992 989 986 984 983 981 979 976 973 971 968 966 963 961 958 956 954 952 951 950 948 948 947 945 944 944 944 944 943 943 943 943 943 944 944 944 943 940 931 926 923 918 913 909 906 903 900 898 895 893 892 890 888 886 885 882 880 879 877 876 874 873 872 870 870 868 867 867 866 866 865 864 864 864 864 864 864 864 864 865 867 867 867 867 867 864 864 863 862 862 862 862 864 876 890 890 890 889 879 871 861 857 850 842 835 826 826 826 832 833 833 833 827 820 817 815 814 813 810 808 805 803 801 800 798 796 795 793 793 792 791 790 789 789 788 788 787 786 786 785 785 784 784 783 781 781 781 780 780 780 779 779 778 778 779 779 779 779 779 779 779 780 780 782 783 787 788 788 789 789 789 0
1700 1709 1748 1748 1748 1724 1703 1689 1680 1671 1669 1669 1669 1673 1682 1684 1695 1697 1697 1697 1687 1686 1685 1683 1676 1670 1670 1670 1684 1686 1703 1707 1707 1707 1705 1696 1690 1690 1689 1688 1687 1681 1676 1669 1669 1669 1675 1688 1696 1696 1696 1695 1691 1691 1691 1691 1692 1692 1692 1692 1692 1690 1690 1690 1691 1695 1698 1705 1707 1707 1708 1708 1708 1712 1712 1712 1713 1713 1713 1714 1714 1714 1714 1711 1710 1710 1710 1710 1710 1709 1708 1694 1682 1680 1680 1680 1739 1822 1890 1972 2083 2168 2477 2771 3014 3335 3437 3474 3508 3510 3511 3511 3514 3517 3517 3517 3517 3517 3517 3520 3520 3520 3520 3517 3512 3504 3504 3504 3504 3505 3509 3509 3509 3509 3507 3507 3507 3507 3506 3506 3506 3507 3507 3507 3507 3507 3506 3506 3504 3500 3495 3491 3491 3491 3492 3492 3492 3492 3490 3485 3481 3480 3480 3478 3476 3476 3476 3476 3476 3479 3482 3482 3482 3482 3478 3473 3473 3473 3472 3472 3472 3471 3471 3471 3472 3476 3480 3483 3483 3483 3483 3483 3485 3485 3485 3482 3482 3477 3472 3472 3472 3471 3471 3466 3460 3456 3456 3456 3457 3459 3463 3468 3468 3469 3470 3468 3467 3464 3447 3421 3418 3418 3416 3416 3383 3298 3045 3012 2824 2477 2195 1949 1748 1663 1635 1618 1604 1593 1586 1586 1583 1581 1575 1572 1570 1570 1570 1571 1571 1572 1571 1571 1569 1559 1552 1548 1548 1548 1553 1553 1553 1553 1553 1571 1613 1636 1636 1636 1593 1575 1571 1561 1555 1555 1553 1551 1551 1551 1551 1560 1571 1589 1629 1712 1891 2034 2080 2080 2080 2077 2037 1999 1934 1884 1773 1691 1657 1646 1639 1636 1633 1629 1626 1620 1615 1607 1602 1597 1594 1590 1589 1584 1582 1578 1574 1568 1562 1556 1553 1549 1545 1541 1536 1533 1529 1522 1516 1508 1503 1499 1491 1487 1483 1477 1472 1468 1465 1461 1460 1457 1454 1450 1445 1443 1439 1439 1438 1437 1437 1434 1424 1412 1403 1401 1400 1397 1389 1379 1370 1367 1364 1362 1360 1359 1358 1355 1353 1353 1353 1353 1358 1360 1360 1360 1360 1353 1350 1343 1327 1318 1313 1308 1307 1307 1301 1291 1281 1279 1277 1267 1255 1247 1242 1234 1231 1231 1231 1229 1229 1229 1229 1229 1229 1228 1227 1225 1219 1212 1204 1202 1200 1196 1190 1182 1175 1175 1170 1169 1169 1162 1159 1147 1134 1126 1124 1124 1121 1116 1110 1104 1101 1097 1095 1093 1091 1088 1085 1082 1079 1077 1075 1075 1074 1074 1074 1077 1077 1079 1091 1091 1091 1087 1075 1057 1049 1038 1030 1026 1024 1023 1019 1013 1012 1007 1003 1000 997 994 991 987 986 985 983 981 979 976 974 971 969 966 963 961 958 957 955 953 952 950 949 948 947 946 944 944 944 943 943 943 943 943 944 944 944 943 940 931 925 922 918 913 910 906 904 901 898 897 894 893 891 890 888 886 884 882 881 879 877 875 875 873 872 870 869 868 868 867 866 865 865 864 864 864 864 864 864 864 863 863 863 863 863 864 867 867 867 867 866 866 866 868 879 891 891 891 889 878 870 865 862 850 842 836 830 827 827 830 831 831 831 827 820 818 816 814 812 810 809 805 804 802 800 799 797 796 795 794 793 792 791 790 790 789 789 788 787 787 787 786 786 785 785 783 783 782 781 781 781 781 780 779 779 779 779 780 780 780 781 781 781 781 785 786 790 790 791 792 791 791 0
1702 1745 1757 1757 1757 1724 1703 1689 1680 1671 1671 1671 1673 1685 1691 1691 1695 1695 1695 1688 1686 1686 1685 1685 1684 1676 1676 1676 1692 1694 1703 1708 1708 1708 1706 1699 1691 1689 1688 1688 1687 1681 1676 1669 1669 1669 1675 1684 1691 1691 1691 1691 1687 1687 1687 1691 1694 1694 1694 1692 1692 1692 1694 1699 1700 1704 1705 1707 1707 1707 1708 1708 1708 1712 1712 1712 1712 1709 1709 1709 1711 1711 1711 1710 1710 1710 1709 1709 1707 1701 1700 1694 1682 1681 1681 1681 1745 1822 1902 2031 2095 2173 2543 2815 3180 3371 3477 3511 3511 3511 3511 3511 3514 3517 3517 3517 3517 3517 3517 3520 3520 3522 3522 3522 3516 3510 3510 3510 3510 3510 3516 3516 3516 3515 3515 3515 3515 3515 3511 3509 3509 3509 3509 3509 3509 3508 3507 3507 3505 3502 3496 3492 3492 3492 3494 3495 3495 3495 3493 3489 3487 3487 3486 3485 3481 3476 3476 3476 3476 3478 3482 3484 3484 3484 3482 3478 3475 3475 3474 3474 3474 3471 3471 3471 3473 3478 3481 3484 3484 3484 3485 3485 3485 3485 3485 3484 3482 3478 3478 3478 3476 3476 3476 3471 3465 3460 3460 3460 3460 3463 3467 3469 3469 3469 3470 3469 3468 3464 3451 3435 3435 3434 3434 3434 3414 3346 3158 3134 2917 2767 2527 2215 1982 1763 1656 1632 1615 1597 1587 1586 1586 1581 1575 1572 1570 1570 1570 1571 1571 1572 1571 1571 1570 1559 1552 1551 1551 1551 1554 1554 1556 1557 1570 1598 1646 1688 1688 1688 1618 1587 1575 1566 1557 1555 1555 1551 1551 1551 1551 1562 1578 1594 1637 1729 1994 2045 2121 2121 2121 2115 2086 2040 1978 1919 1861 1742 1686 1657 1646 1639 1639 1637 1632 1625 1616 1611 1605 1602 1598 1595 1593 1590 1586 1581 1576 1571 1565 1560 1556 1553 1550 1546 1541 1535 1535 1532 1526 1515 1509 1506 1499 1489 1484 1480 1476 1472 1468 1465 1462 1460 1457 1454 1450 1447 1442 1439 1437 1437 1437 1434 1424 1412 1404 1403 1402 1398 1389 1381 1376 1371 1365 1362 1360 1360 1358 1356 1353 1350 1350 1350 1354 1355 1358 1358 1356 1356 1355 1343 1327 1318 1313 1311 1310 1310 1303 1294 1286 1285 1284 1276 1267 1265 1261 1252 1246 1242 1242 1241 1238 1238 1233 1233 1233 1232 1232 1229 1223 1215 1207 1204 1202 1197 1193 1183 1177 1177 1175 1173 1172 1162 1159 1149 1144 1133 1133 1130 1124 1121 1116 1110 1105 1101 1098 1096 1094 1091 1088 1086 1083 1081 1081 1081 1081 1081 1083 1084 1086 1087 1091 1091 1091 1087 1075 1071 1063 1051 1040 1037 1036 1029 1021 1016 1014 1009 1006 1002 1000 997 994 992 989 987 985 982 981 978 976 973 971 968 965 963 960 958 956 955 953 951 950 950 949 947 946 946 945 945 943 943 942 942 942 942 937 934 931 928 925 922 918 915 911 908 905 903 900 898 896 894 893 891 889 888 886 884 882 880 879 877 875 874 873 872 871 869 869 867 867 866 865 864 864 864 864 864 864 863 863 862 862 863 863 864 867 867 867 867 867 867 867 868 882 891 891 891 889 875 869 867 862 855 843 835 832 830 829 827 822 822 821 820 820 818 816 815 813 810 809 806 805 803 802 801 799 798 797 795 795 794 793 792 791 791 790 790 789 788 788 788 788 788 786 785 785 784 783 782 782 782 781 781 781 781 781 781 781 781 782 782 782 782 788 788 791 791 791 793 791 791 0
1702 1745 1757 1757 1757 1724 1703 1683 1680 1677 1677 1677 1684 1696 1696 1696 1693 1689 1687 1686 1686 1686 1686 1686 1686 1679 1679 1679 1696 1698 1703 1710 1710 1710 1708 1699 1692 1689 1688 1687 1687 1681 1676 1669 1669 1669 1675 1684 1690 1691 1691 1691 1687 1687 1687 1691 1696 1696 1696 1695 1695 1695 1696 1699 1703 1704 1705 1707 1707 1705 1705 1705 1705 1705 1709 1709 1709 1709 1709 1709 1709 1709 1710 1709 1709 1709 1709 1707 1701 1700 1698 1694 1694 1694 1695 1711 1745 1822 1929 2032 2097 2311 2765 2883 3213 3373 3477 3509 3509 3511 3511 3511 3514 3516 3516 3516 3517 3517 3517 3520 3520 3520 3521 3521 3521 3517 3517 3517 3518 3519 3521 3521 3521 3522 3522 3522 3522 3522 3517 3512 3510 3510 3510 3510 3510 3510 3510 3510 3508 3506 3504 3499 3498 3497 3497 3497 3497 3498 3498 3498 3498 3496 3493 3491 3488 3484 3478 3478 3478 3478 3482 3487 3487 3487 3487 3481 3480 3477 3476 3475 3474 3474 3474 3474 3476 3478 3482 3484 3485 3485 3485 3486 3486 3486 3486 3485 3483 3478 3478 3478 3476 3476 3476 3473 3468 3464 3463 3463 3463 3465 3467 3470 3470 3471 3470 3470 3468 3464 3452 3450 3448 3447 3446 3434 3416 3375 3232 3194 3042 2925 2797 2537 2261 1995 1756 1643 1623 1600 1596 1593 1588 1583 1575 1572 1571 1571 1571 1571 1571 1572 1571 1571 1570 1562 1556 1556 1556 1559 1559 1560 1560 1575 1603 1641 1716 1754 1754 1754 1648 1612 1582 1570 1560 1556 1555 1554 1554 1554 1554 1563 1580 1607 1650 1795 2008 2078 2153 2153 2153 2141 2128 2101 2061 1998 1935 1843 1729 1678 1653 1646 1643 1642 1638 1628 1620 1613 1609 1606 1602 1601 1596 1593 1590 1584 1580 1574 1568 1564 1561 1558 1555 1551 1548 1543 1539 1533 1527 1519 1515 1508 1501 1496 1489 1484 1480 1476 1473 1470 1465 1462 1459 1457 1456 1453 1446 1439 1439 1437 1437 1434 1429 1425 1419 1413 1405 1400 1392 1384 1380 1374 1368 1363 1362 1361 1359 1358 1353 1350 1349 1349 1349 1344 1344 1344 1355 1355 1355 1343 1327 1319 1313 1311 1311 1310 1304 1303 1299 1295 1290 1284 1276 1275 1264 1256 1246 1242 1242 1242 1242 1242 1236 1236 1236 1236 1236 1233 1225 1218 1210 1206 1203 1200 1194 1185 1180 1180 1176 1176 1172 1167 1165 1155 1146 1143 1138 1130 1127 1124 1119 1114 1108 1105 1102 1100 1097 1095 1092 1089 1087 1086 1086 1086 1087 1088 1088 1088 1088 1088 1092 1092 1092 1087 1077 1071 1071 1061 1042 1040 1039 1032 1023 1018 1015 1012 1009 1006 1002 999 996 995 992 990 987 985 983 981 977 975 974 971 969 966 963 961 958 957 954 954 953 951 950 949 948 947 946 945 944 943 943 943 942 941 937 933 931 928 925 922 921 916 913 909 907 904 902 900 899 897 895 893 890 889 888 886 884 882 880 879 877 876 874 873 872 870 869 868 868 866 866 864 864 864 864 863 863 863 862 860 860 860 862 862 864 865 867 867 867 867 867 868 882 891 891 891 883 869 867 863 862 853 843 841 836 833 831 827 822 822 821 820 820 818 817 815 813 812 810 808 807 804 803 802 801 799 798 797 796 796 795 794 793 792 792 791 791 790 790 790 789 789 787 787 786 786 784 783 783 783 782 782 782 782 782 782 782 782 782 784 784 785 788 788 791 793 793 793 793 793 0
1714 1745 1757 1757 1757 1712 1689 1680 1680 1680 1681 1691 1696 1696 1696 1696 1693 1689 1687 1683 1683 1683 1686 1688 1688 1688 1688 1688 1696 1698 1703 1707 1708 1708 1708 1699 1694 1688 1688 1688 1684 1681 1676 1671 1671 1671 1677 1684 1690 1691 1691 1691 1687 1687 1687 1691 1696 1700 1700 1700 1697 1697 1697 1699 1703 1704 1704 1704 1703 1703 1702 1702 1702 1702 1706 1706 1706 1707 1707 1707 1708 1708 1709 1709 1709 1709 1708 1702 1701 1701 1700 1701 1702 1708 1714 1736 1778 1853 1952 2041 2129 2410 2765 2978 3280 3391 3482 3509 3509 3511 3511 3511 3514 3516 3516 3516 3517 3517 3517 3517 3517 3518 3519 3519 3519 3519 3519 3519 3522 3522 3522 3522 3523 3523 3523 3528 3528 3528 3524 3518 3515 3513 3512 3512 3512 3512 3512 3512 3511 3509 3508 3506 3504 3503 3503 3503 3504 3504 3504 3504 3504 3502 3502 3501 3497 3489 3483 3479 3479 3479 3482 3488 3489 3489 3489 3488 3485 3482 3480 3480 3480 3481 3481 3481 3483 3483 3484 3486 3486 3487 3487 3487 3487 3487 3487 3487 3484 3479 3479 3479 3478 3478 3478 3475 3471 3469 3467 3466 3466 3466 3468 3470 3470 3471 3470 3469 3469 3464 3458 3458 3456 3453 3452 3437 3426 3384 3283 3251 3127 3077 3012 2819 2562 2285 1996 1747 1638 1616 1607 1607 1599 1589 1579 1572 1571 1571 1570 1570 1570 1570 1570 1570 1570 1570 1563 1563 1563 1565 1577 1579 1582 1606 1643 1708 1859 1859 1859 1852 1724 1649 1590 1572 1561 1558 1556 1554 1556 1556 1556 1565 1581 1615 1684 1889 2054 2079 2155 2170 2170 2170 2155 2135 2101 2063 2009 1890 1781 1703 1672 1656 1649 1645 1641 1631 1624 1617 1614 1611 1607 1605 1601 1598 1593 1588 1583 1578 1573 1569 1566 1564 1556 1555 1554 1552 1551 1547 1536 1526 1521 1512 1504 1502 1498 1489 1485 1481 1479 1475 1470 1466 1463 1460 1458 1456 1452 1445 1440 1439 1437 1435 1432 1427 1421 1414 1408 1403 1395 1389 1383 1377 1371 1367 1365 1362 1360 1358 1356 1352 1350 1348 1348 1344 1343 1343 1343 1343 1343 1341 1327 1320 1316 1315 1314 1312 1312 1310 1310 1309 1299 1291 1281 1277 1272 1258 1248 1243 1243 1243 1243 1243 1242 1240 1239 1239 1239 1235 1229 1222 1214 1206 1204 1201 1194 1189 1185 1181 1180 1180 1176 1169 1166 1160 1152 1151 1147 1138 1135 1130 1121 1116 1113 1109 1107 1103 1100 1099 1097 1094 1091 1091 1091 1091 1095 1096 1097 1097 1096 1095 1094 1094 1094 1087 1077 1074 1074 1064 1052 1049 1045 1034 1026 1022 1016 1015 1014 1009 1005 1002 999 997 996 992 989 987 985 982 979 977 974 974 971 969 965 963 960 959 957 955 954 953 951 950 949 948 947 947 945 944 944 943 942 941 937 933 931 928 926 923 922 917 914 911 908 906 904 902 901 898 897 895 892 891 889 888 885 884 882 880 879 878 877 874 873 872 870 870 868 867 866 866 865 864 864 863 862 862 862 860 860 860 861 862 862 864 864 864 864 865 866 866 878 878 878 878 867 865 862 862 862 852 843 841 837 837 837 829 822 821 821 820 820 818 817 815 814 813 812 810 808 806 804 803 803 801 799 798 797 796 796 795 794 794 793 793 792 792 791 791 791 790 789 789 787 786 786 785 785 784 784 784 783 783 783 783 782 782 782 784 785 785 788 789 791 793 793 793 793 793 0
1723 1734 1734 1734 1730 1706 1689 1679 1679 1679 1690 1696 1699 1700 1699 1696 1693 1689 1685 1681 1681 1681 1686 1688 1688 1688 1688 1688 1696 1698 1700 1700 1708 1708 1708 1703 1694 1689 1689 1689 1689 1689 1688 1686 1684 1684 1684 1687 1690 1693 1693 1693 1688 1688 1688 1691 1696 1701 1701 1701 1699 1698 1698 1698 1701 1701 1701 1700 1700 1700 1700 1700 1701 1701 1702 1704 1704 1704 1706 1706 1706 1706 1706 1708 1708 1708 1706 1706 1706 1714 1715 1715 1714 1714 1715 1736 1792 1902 1971 2058 2151 2434 2770 3005 3347 3424 3489 3509 3511 3514 3514 3514 3514 3516 3516 3516 3516 3516 3516 3517 3517 3517 3519 3519 3519 3520 3520 3520 3522 3522 3522 3523 3523 3523 3525 3529 3529 3529 3529 3523 3520 3520 3520 3520 3520 3520 3519 3515 3514 3513 3512 3512 3507 3507 3506 3507 3508 3508 3508 3508 3508 3507 3505 3505 3502 3496 3488 3482 3482 3482 3483 3490 3490 3490 3489 3488 3485 3485 3485 3485 3485 3485 3485 3485 3486 3486 3487 3488 3488 3490 3490 3490 3490 3490 3489 3488 3485 3480 3480 3480 3480 3480 3478 3477 3475 3472 3469 3469 3469 3470 3470 3474 3474 3474 3474 3471 3469 3464 3462 3462 3459 3457 3457 3437 3429 3390 3309 3302 3212 3162 3130 2991 2817 2569 2278 1986 1758 1659 1636 1621 1614 1602 1591 1579 1576 1573 1572 1572 1570 1570 1570 1572 1575 1575 1575 1583 1583 1583 1593 1611 1623 1656 1737 1868 1953 1953 1953 1890 1761 1690 1609 1579 1562 1560 1559 1558 1558 1558 1559 1567 1582 1618 1704 1976 2066 2114 2160 2178 2179 2179 2179 2158 2135 2102 2072 2011 1864 1754 1691 1668 1655 1648 1645 1638 1630 1622 1618 1616 1612 1609 1607 1603 1597 1592 1587 1582 1578 1574 1570 1566 1557 1556 1556 1554 1554 1550 1541 1531 1526 1523 1516 1507 1500 1498 1491 1489 1484 1480 1475 1470 1467 1463 1460 1457 1453 1448 1443 1442 1441 1436 1433 1428 1422 1415 1411 1404 1399 1391 1385 1379 1374 1371 1367 1365 1363 1360 1356 1353 1350 1348 1348 1344 1343 1343 1343 1343 1343 1337 1327 1323 1321 1320 1320 1320 1320 1320 1320 1309 1303 1292 1286 1280 1272 1259 1254 1246 1246 1246 1245 1245 1243 1240 1240 1239 1239 1237 1235 1226 1215 1207 1205 1203 1201 1201 1200 1195 1191 1186 1178 1173 1170 1166 1166 1162 1160 1149 1142 1132 1122 1118 1118 1116 1112 1109 1107 1104 1102 1100 1097 1097 1097 1101 1105 1107 1107 1105 1101 1097 1096 1096 1094 1089 1083 1081 1077 1071 1062 1049 1046 1043 1041 1031 1022 1019 1018 1014 1008 1004 1002 1000 998 995 992 989 987 985 982 980 977 976 973 971 967 964 962 961 959 958 956 954 952 952 950 949 949 947 946 945 944 944 942 941 937 934 931 930 928 926 922 918 914 911 909 907 905 904 903 901 898 897 894 892 890 889 887 886 884 882 880 879 878 877 875 874 872 871 870 869 868 867 866 865 864 863 862 862 862 860 860 860 860 861 861 863 863 863 862 861 861 861 864 864 864 864 862 862 861 858 857 852 845 841 841 839 837 830 826 823 822 821 820 819 817 816 815 814 812 811 809 808 806 805 803 803 800 800 799 798 797 797 796 795 795 794 794 793 793 792 791 791 790 789 788 788 787 786 786 786 785 785 785 785 783 783 783 783 783 785 785 786 789 789 791 795 795 796 796 796 0
1723 1725 1725 1725 1725 1706 1689 1680 1680 1680 1703 1703 1703 1701 1699 1699 1693 1689 1683 1677 1675 1675 1675 1685 1685 1688 1688 1688 1693 1695 1697 1700 1708 1708 1708 1704 1695 1690 1690 1690 1701 1701 1701 1699 1696 1696 1692 1692 1692 1693 1693 1693 1688 1688 1688 1690 1694 1701 1701 1701 1699 1698 1698 1698 1698 1698 1696 1696 1696 1699 1699 1699 1699 1699 1699 1702 1702 1704 1706 1706 1706 1705 1702 1702 1702 1701 1699 1699 1699 1723 1726 1726 1726 1726 1726 1741 1798 1902 1971 2070 2210 2639 2770 3181 3418 3501 3506 3518 3519 3519 3519 3518 3517 3517 3516 3516 3516 3516 3516 3517 3517 3517 3519 3519 3519 3520 3520 3520 3522 3522 3522 3522 3523 3523 3527 3530 3530 3530 3529 3523 3523 3523 3523 3522 3520 3520 3519 3515 3515 3513 3513 3513 3512 3512 3510 3510 3510 3510 3509 3509 3509 3507 3505 3505 3502 3499 3494 3488 3488 3488 3488 3490 3490 3490 3490 3488 3486 3486 3486 3486 3487 3487 3487 3487 3487 3487 3488 3490 3491 3491 3491 3491 3492 3492 3492 3489 3486 3482 3481 3481 3481 3481 3480 3479 3477 3476 3473 3473 3473 3474 3476 3477 3477 3476 3475 3473 3469 3466 3465 3465 3465 3465 3465 3437 3429 3401 3340 3336 3323 3275 3213 3097 2921 2821 2603 2249 1982 1751 1679 1638 1616 1608 1594 1584 1582 1579 1576 1568 1568 1568 1569 1578 1586 1594 1596 1597 1603 1607 1623 1669 1722 1796 1901 1974 1978 1978 1978 1936 1798 1737 1669 1586 1572 1568 1567 1565 1565 1565 1566 1580 1603 1645 1782 2027 2081 2164 2176 2186 2186 2186 2181 2176 2162 2145 2122 2093 1998 1822 1724 1688 1671 1652 1647 1643 1636 1627 1623 1619 1616 1615 1612 1608 1602 1595 1591 1587 1582 1579 1575 1569 1559 1559 1559 1557 1557 1550 1548 1544 1537 1530 1520 1508 1506 1506 1498 1492 1488 1485 1480 1476 1471 1467 1463 1459 1455 1450 1449 1445 1441 1438 1434 1431 1425 1417 1414 1408 1403 1394 1388 1381 1376 1373 1370 1368 1365 1362 1358 1355 1351 1350 1349 1346 1343 1342 1342 1342 1342 1337 1331 1327 1326 1324 1324 1324 1321 1321 1321 1314 1307 1292 1287 1281 1272 1263 1258 1252 1247 1247 1246 1246 1243 1241 1240 1240 1239 1237 1235 1230 1219 1213 1212 1210 1208 1206 1204 1199 1198 1194 1187 1182 1178 1174 1168 1162 1160 1149 1142 1142 1128 1122 1122 1119 1114 1110 1110 1109 1108 1105 1105 1105 1105 1108 1108 1109 1108 1108 1105 1103 1101 1099 1098 1095 1091 1087 1080 1073 1067 1059 1053 1046 1042 1032 1032 1031 1028 1028 1017 1008 1004 1002 1001 998 995 993 990 987 985 983 980 978 976 974 971 968 964 963 961 960 958 956 955 954 952 952 951 949 947 947 947 946 946 941 939 938 934 931 929 926 923 919 916 913 912 910 908 906 905 903 900 899 896 894 893 891 889 887 886 884 883 882 880 878 877 875 875 873 871 870 868 867 866 865 864 864 862 862 862 861 860 860 860 860 861 861 861 860 857 856 856 856 858 862 862 862 861 861 857 856 854 852 845 841 840 839 837 830 827 825 823 821 820 819 818 816 815 814 812 811 809 808 806 805 805 803 802 801 800 799 798 798 798 797 796 795 795 794 794 793 793 792 792 791 790 789 788 788 787 787 786 786 786 786 785 784 783 783 783 784 785 787 789 789 791 798 806 818 818 820 0
1723 1723 1725 1725 1725 1706 1690 1690 1690 1705 1705 1705 1705 1698 1697 1697 1693 1689 1679 1669 1665 1665 1665 1670 1676 1681 1685 1689 1690 1692 1694 1696 1702 1704 1704 1704 1698 1698 1698 1711 1711 1711 1701 1699 1696 1696 1692 1692 1692 1693 1693 1693 1688 1688 1688 1690 1694 1702 1702 1702 1700 1698 1698 1698 1698 1698 1696 1696 1696 1699 1699 1699 1699 1699 1699 1700 1702 1703 1706 1706 1706 1705 1702 1698 1698 1698 1698 1699 1707 1726 1729 1746 1746 1758 1758 1758 1810 1902 1971 2074 2453 2651 2770 3216 3424 3508 3521 3531 3531 3531 3528 3519 3519 3519 3517 3517 3516 3516 3516 3517 3518 3520 3520 3520 3520 3520 3520 3520 3520 3521 3522 3522 3523 3527 3529 3531 3531 3531 3529 3524 3524 3523 3523 3522 3521 3520 3519 3516 3515 3513 3513 3513 3514 3514 3514 3510 3510 3510 3509 3509 3509 3507 3505 3505 3502 3500 3497 3492 3492 3492 3492 3492 3492 3490 3490 3488 3488 3486 3486 3486 3487 3488 3488 3488 3488 3488 3489 3491 3491 3492 3492 3493 3493 3493 3492 3490 3489 3486 3484 3484 3484 3482 3480 3480 3480 3478 3478 3478 3478 3480 3480 3480 3478 3477 3475 3473 3469 3469 3469 3471 3471 3471 3470 3462 3441 3412 3349 3348 3344 3323 3282 3224 3070 2953 2874 2574 2238 2039 1793 1674 1638 1613 1600 1588 1582 1579 1576 1566 1566 1566 1568 1578 1589 1607 1626 1653 1697 1728 1785 1829 1878 1985 2008 2085 2085 2085 2053 1997 1853 1785 1713 1615 1583 1576 1574 1570 1570 1570 1578 1606 1638 1701 1875 2048 2118 2186 2189 2191 2191 2191 2191 2189 2180 2170 2153 2097 2039 1908 1765 1718 1690 1665 1647 1646 1639 1632 1627 1624 1621 1620 1618 1612 1608 1602 1596 1592 1588 1584 1580 1574 1567 1564 1563 1563 1563 1558 1554 1548 1546 1539 1524 1517 1514 1511 1502 1495 1490 1487 1483 1480 1476 1473 1468 1462 1457 1455 1451 1449 1444 1438 1437 1434 1426 1419 1416 1411 1403 1397 1390 1384 1379 1376 1374 1371 1368 1364 1360 1357 1354 1352 1349 1347 1343 1341 1341 1341 1338 1336 1331 1329 1328 1328 1327 1327 1326 1326 1321 1314 1307 1294 1289 1281 1273 1265 1258 1253 1251 1248 1247 1246 1244 1242 1240 1240 1238 1237 1235 1231 1226 1223 1220 1218 1215 1210 1208 1204 1201 1199 1193 1187 1183 1176 1168 1163 1160 1149 1146 1142 1141 1132 1131 1127 1119 1116 1112 1112 1111 1111 1111 1111 1112 1112 1112 1112 1111 1111 1110 1109 1109 1107 1107 1102 1099 1095 1088 1077 1067 1064 1053 1053 1053 1049 1049 1044 1038 1036 1024 1015 1011 1004 1004 1001 998 995 992 989 988 985 983 981 979 976 973 970 968 965 963 962 961 959 957 957 955 953 952 951 951 951 951 951 951 947 946 939 935 932 929 926 924 921 919 916 914 911 909 909 906 905 902 900 899 897 895 893 891 890 888 886 885 883 882 880 878 877 876 874 873 871 870 869 867 866 865 864 862 862 862 861 860 860 860 860 860 860 860 859 857 856 856 856 858 862 862 862 861 858 857 854 852 852 845 845 841 840 834 831 827 825 824 822 821 820 818 817 817 815 814 812 810 809 808 806 805 805 803 802 801 800 800 799 798 798 797 797 796 796 796 794 794 794 793 792 791 790 790 789 788 787 787 787 786 786 786 784 783 783 783 784 785 793 795 795 795 801 823 855 855 869 0
1693 1703 1725 1725 1725 1723 1717 1711 1711 1712 1712 1711 1705 1694 1694 1693 1691 1686 1677 1669 1665 1665 1665 1670 1676 1681 1685 1689 1690 1692 1693 1695 1699 1704 1704 1704 1701 1701 1701 1711 1711 1711 1701 1699 1696 1696 1692 1692 1692 1692 1692 1692 1690 1690 1690 1690 1694 1702 1702 1702 1700 1699 1699 1699 1698 1698 1696 1696 1696 1699 1699 1699 1699 1699 1699 1699 1701 1703 1706 1706 1706 1705 1700 1698 1698 1698 1698 1703 1710 1727 1730 1757 1757 1758 1758 1758 1848 1902 1983 2103 2502 2728 2894 3279 3441 3527 3527 3536 3536 3536 3528 3520 3520 3520 3520 3520 3518 3518 3518 3519 3523 3523 3523 3523 3522 3522 3522 3521 3521 3521 3521 3521 3523 3528 3532 3532 3532 3531 3529 3527 3524 3524 3523 3522 3521 3519 3517 3516 3515 3513 3513 3513 3514 3514 3514 3511 3511 3511 3509 3509 3509 3505 3505 3505 3502 3500 3498 3497 3495 3495 3494 3492 3491 3490 3490 3488 3488 3488 3488 3488 3488 3489 3489 3489 3490 3490 3491 3492 3492 3492 3493 3493 3493 3493 3492 3491 3491 3490 3489 3487 3486 3484 3483 3483 3482 3481 3481 3481 3482 3482 3482 3482 3478 3477 3475 3473 3471 3471 3471 3473 3473 3473 3471 3466 3441 3412 3360 3358 3349 3335 3305 3271 3206 3104 2999 2869 2633 2358 2073 1807 1668 1631 1603 1588 1585 1579 1573 1563 1563 1563 1568 1578 1598 1623 1712 1745 1821 1838 1843 1920 2021 2059 2141 2141 2141 2140 2121 2081 1980 1796 1761 1703 1614 1590 1577 1577 1577 1580 1608 1651 1701 1806 1998 2051 2135 2190 2191 2193 2197 2197 2197 2197 2194 2188 2175 2132 2078 2028 1909 1743 1690 1679 1660 1649 1641 1638 1636 1631 1627 1627 1623 1618 1613 1607 1604 1599 1595 1590 1587 1585 1580 1578 1577 1574 1574 1568 1560 1552 1549 1547 1540 1530 1521 1511 1503 1497 1493 1489 1485 1481 1479 1476 1472 1466 1460 1457 1455 1450 1447 1444 1440 1438 1428 1422 1417 1411 1405 1400 1393 1386 1384 1381 1379 1374 1371 1366 1363 1359 1357 1354 1350 1348 1345 1344 1342 1341 1338 1336 1333 1332 1331 1331 1330 1330 1328 1327 1316 1311 1309 1301 1290 1284 1273 1265 1260 1254 1252 1252 1248 1246 1244 1243 1240 1239 1238 1237 1235 1232 1227 1227 1226 1226 1224 1217 1212 1209 1208 1207 1202 1200 1190 1178 1170 1166 1160 1157 1150 1149 1148 1141 1140 1137 1129 1124 1119 1115 1115 1115 1115 1117 1117 1117 1121 1121 1121 1119 1119 1119 1118 1116 1111 1108 1107 1103 1096 1087 1077 1068 1064 1061 1061 1059 1061 1061 1045 1043 1029 1017 1013 1010 1005 1003 1000 997 993 992 990 988 985 983 980 977 974 972 970 967 966 964 963 961 960 958 956 956 956 956 955 956 955 955 955 954 948 941 936 934 930 926 925 923 922 920 917 914 912 911 909 907 905 903 901 899 897 895 894 892 889 888 886 885 883 882 880 879 878 876 874 873 871 871 869 867 866 866 864 863 862 861 860 859 859 859 859 859 859 859 857 856 856 856 858 862 862 862 861 857 855 853 852 851 847 845 841 837 834 831 828 828 826 825 823 821 819 818 817 816 815 813 812 810 809 808 807 806 805 803 802 802 801 800 800 799 799 799 798 798 797 796 796 795 794 794 793 791 791 790 789 788 787 787 787 787 787 786 786 784 784 784 787 794 806 809 809 823 866 920 920 996 0
