0 0 0 0 0 0 0 0 0 0 0 0 0 0 0 0 0 0 0 0 0 0 0 0 0 0 0 0 0 0 0 0 0 0 0 0 0 0 0 0 0 0 0 0 0 0 0 0 0 0 0 0 0 0 0 0 0 0 0 0 0 0 0 0 0 0 0 0 0 0 0 0 0 2 1461 1461 1461 1461 1461 1488 1551 1627 1674 1723 1998 2063 2109 2190 2197 2201 2216 2230 2230 2230 2219 2210 2207 2207 2207 2207 2207 2201 2200 2181 2127 2117 2094 2094 2094 2224 2231 2231 2231 2228 2226 2226 2226 2226 2226 2229 2238 2290 2462 2514 2514 2514 2512 2496 2483 2483 2483 2495 2501 2502 2503 2511 2520 2525 2526 2530 2533 2541 2546 2552 2552 2552 2546 2546 2546 2554 2555 2555 2558 2561 2561 2563 2563 2564 2568 2572 2572 2572 2572 2571 2567 2567 2567 2567 2572 2576 2576 2576 2568 2565 2565 2565 2566 2569 2572 2578 2578 2578 2574 2571 2566 2563 2563 2563 2563 2563 2563 2559 2559 2557 2552 2546 2546 2546 2547 2550 2550 2550 2548 2542 2511 2488 2467 2419 2282 2103 1916 1678 1459 1325 1244 1219 1219 1215 1213 1211 1208 1207 1205 1204 1203 1201 1199 1195 1195 1195 1193 1190 1190 1188 1188 1188 1201 1207 1207 1207 1194 1183 1175 1172 1171 1169 1158 1157 1154 1152 1149 1147 1144 1140 1138 1138 1138 1138 1138 1138 1139 1139 1138 1136 1135 1135 1130 1130 1128 1119 1119 1119 1119 1119 1119 1119 1119 1119 1116 1097 1095 1094 1090 1086 1083 1081 1080 1078 1076 1073 1072 1070 1068 1066 1064 1063 1061 1059 1057 1055 1054 1052 1051 1049 1047 1046 1046 1044 1043 1042 1039 1039 1038 1037 1036 1033 1030 1029 1029 1028 1027 1023 1020 1020 1019 1019 1018 1017 1015 1011 1010 1009 1007 1003 999 997 995 995 993 992 992 990 988 987 987 986 986 986 986 986 984 984 983 982 977 974 973 970 968 968 967 966 965 964 964 964 964 964 964 964 961 958 958 958 958 958 958 955 941 941 941 939 939 939 936 934 928 927 926 925 0 0 0 0 0 0 0 0 0 0 0 0 0 0 0 0 0 0 0 0 0 0 0 0 0 0 0 0 0 0 0 894 901 908 925 925 925 924 920 913 908 906 906 905 903 903 903 900 900 888 885 885 885 873 861 0 0 0 0 0 0 0 0 0 0 0 0 0 0 0 0 0 0 0 0 0 0 0 0 0 0 0 0 0 0 0 0 0 0 0 0 0 0 0 0 0 0 0 0 0 0 0 0 0 818 826 831 835 836 849 861 884 894 955 1038 1260 1707 1840 1850 1888 1947 1994 2005 2005 2006 2007 2007 2006 2004 2003 2003 2003 2003 2003 2002 2001 1997 1989 1972 1946 1933 1919 1901 1884 1873 1868 1861 1854 1846 1843 1840 1840 1838 1835 1831 1826 1822 1818 1814 1812 1810 1804 1799 1794 1788 1783 1778 1774 1770 1765 1760 1755 1750 1746 1743 1739 1734 1729 1725 1722 1720 1715 1709 1702 1695 1690 1684 1679 1676 1672 1668 1664 1658 1654 1651 1648 1644 1638 1634 1630 1625 1619 1614 1608 1604 1600 1598 1596 1593 1591 1586 1580 1575 1571 1568 1568 1567 1565 1565 1558 1553 1549 1546 1537 1535 1530 1530 1530 1530 1530 1532 1540 1554 1575 1587 1594 1594 1596 1615 1619 1629 1641 1641 1641 1641 1641 1662 1676 1685 1685
0 0 0 0 0 0 0 0 0 0 0 0 0 0 0 0 0 0 0 0 0 0 0 0 0 0 0 0 0 0 0 0 0 0 0 0 0 0 0 0 0 0 0 0 0 0 0 0 0 0 0 0 0 0 0 0 0 0 0 0 0 0 0 0 0 0 0 0 0 0 0 0 0 0 0 1448 1448 1461 1461 1504 1554 1627 1674 1838 2014 2065 2133 2190 2195 2198 2198 2205 2205 2205 2200 2195 2195 2195 2195 2195 2188 2179 2163 2137 2127 2127 2127 2208 2217 2224 2231 2231 2231 2231 2233 2233 2233 2229 2229 2229 2238 2289 2320 2484 2512 2512 2512 2496 2461 2461 2461 2472 2486 2491 2493 2499 2505 2509 2511 2514 2519 2525 2532 2538 2538 2538 2528 2528 2528 2528 2534 2534 2535 2536 2536 2537 2540 2544 2547 2550 2550 2552 2552 2552 2553 2553 2553 2558 2558 2558 2558 2558 2555 2549 2549 2549 2550 2550 2553 2553 2553 2549 2548 2548 2547 2547 2541 2537 2537 2537 2539 2542 2542 2542 2538 2530 2528 2528 2524 2524 2527 2524 2518 2511 2493 2476 2440 2297 2141 1973 1746 1531 1362 1258 1227 1218 1214 1211 1210 1207 1204 1203 1201 1201 1201 1200 1197 1194 1194 1194 1193 1193 1190 1188 1188 1188 1197 1203 1203 1203 1197 1188 1178 1173 1170 1165 1158 1153 1151 1149 1146 1146 1143 1137 1136 1134 1134 1134 1134 1135 1135 1134 1133 1128 1128 1128 1127 1127 1127 1119 1119 1119 1119 1119 1119 1119 1118 1118 1100 1093 1092 1088 1086 1085 1082 1081 1078 1076 1073 1071 1070 1068 1065 1064 1062 1061 1060 1058 1055 1054 1053 1051 1049 1047 1047 1045 1044 1043 1042 1039 1038 1037 1037 1037 1035 1032 1028 1028 1028 1027 1027 1023 1019 1019 1019 1018 1018 1017 1015 1011 1010 1009 1007 1003 999 996 995 992 992 991 990 988 987 986 986 986 986 985 984 984 983 983 982 980 976 973 970 969 967 966 966 965 965 963 963 963 963 963 963 963 961 958 958 958 958 958 958 954 948 945 944 940 939 938 0 0 0 0 0 0 0 0 0 0 0 0 0 0 0 0 0 0 0 0 0 0 0 0 0 0 0 0 0 0 0 0 0 0 0 0 0 894 901 913 925 925 925 924 920 913 908 906 906 906 905 905 907 907 901 898 889 888 886 879 871 871 868 864 0 0 0 0 0 0 0 0 0 0 0 0 0 0 0 0 0 0 0 0 0 0 0 0 0 0 0 0 0 0 0 0 0 0 0 0 0 0 0 0 0 0 0 0 0 0 828 832 839 847 852 857 861 884 911 994 1185 1537 1851 1876 1888 1918 1964 1995 2006 2010 2010 2010 2010 2009 2007 2003 2003 2003 2003 2002 2002 2001 1997 1989 1972 1946 1933 1920 1904 1884 1873 1868 1864 1856 1847 1843 1842 1840 1839 1836 1832 1828 1824 1819 1814 1812 1810 1804 1798 1792 1787 1782 1777 1773 1770 1765 1760 1755 1750 1746 1742 1739 1734 1728 1723 1720 1716 1714 1709 1702 1695 1690 1686 1681 1677 1674 1671 1665 1659 1654 1651 1648 1643 1637 1634 1630 1625 1620 1616 1611 1605 1600 1598 1595 1592 1589 1584 1580 1575 1571 1568 1565 1565 1564 1560 1551 1545 1543 1541 1536 1534 1530 1527 1526 1524 1523 1522 1521 1520 1519 1519 1519 1538 1541 1568 1578 1607 1622 1625 1625 1632 1632 1632 1637 1650 1650
0 0 0 0 0 0 0 0 0 0 0 0 0 0 0 0 0 0 0 0 0 0 0 0 0 0 0 0 0 0 0 0 0 0 0 0 0 0 0 0 0 0 0 0 0 0 0 0 0 0 0 0 0 0 0 0 0 0 0 0 0 0 0 0 0 0 0 0 0 0 0 0 0 0 0 1404 1427 1456 1479 1588 1607 1653 1676 1883 2014 2065 2133 2173 2179 2181 2181 2189 2189 2189 2183 2181 2181 2180 2180 2172 2146 2137 2123 2123 2137 2189 2211 2217 2224 2224 2231 2231 2231 2231 2239 2239 2241 2239 2239 2239 2248 2284 2307 2329 2464 2498 2498 2498 2448 2448 2448 2456 2470 2479 2484 2485 2488 2489 2489 2491 2495 2505 2514 2514 2514 2514 2502 2502 2502 2506 2516 2517 2517 2518 2518 2518 2521 2524 2524 2528 2531 2537 2540 2541 2543 2546 2546 2546 2546 2541 2538 2537 2537 2535 2535 2535 2535 2535 2538 2535 2534 2529 2529 2529 2531 2531 2531 2527 2523 2523 2523 2531 2531 2531 2528 2514 2514 2514 2505 2505 2505 2480 2477 2475 2470 2437 2316 2150 1983 1812 1614 1413 1271 1235 1227 1215 1208 1208 1207 1206 1203 1199 1198 1197 1197 1197 1194 1194 1192 1192 1192 1192 1190 1188 1188 1188 1191 1198 1198 1198 1197 1188 1178 1173 1169 1160 1156 1150 1149 1143 1141 1141 1140 1136 1135 1134 1134 1134 1133 1133 1133 1130 1127 1125 1125 1125 1125 1125 1125 1120 1120 1119 1119 1119 1119 1117 1117 1111 1099 1089 1088 1086 1086 1084 1080 1078 1075 1074 1071 1069 1068 1065 1064 1063 1061 1059 1058 1056 1055 1053 1051 1049 1047 1046 1045 1045 1043 1042 1039 1038 1037 1037 1037 1036 1035 1029 1028 1028 1028 1027 1027 1023 1019 1019 1019 1018 1018 1016 1015 1011 1010 1009 1007 1003 997 996 995 992 990 989 988 986 984 984 983 982 982 982 981 980 979 977 977 977 975 971 969 968 966 966 965 965 965 963 962 962 962 962 962 962 962 962 960 958 958 957 956 953 948 945 944 940 936 932 0 0 0 0 0 0 0 0 0 0 0 0 0 0 0 0 0 0 0 0 0 0 0 0 0 0 0 0 0 0 0 0 0 0 0 0 892 899 905 923 925 925 925 924 915 908 908 906 906 907 908 908 908 908 908 903 903 898 891 888 879 872 871 869 859 857 853 0 0 0 0 0 0 0 0 0 0 0 0 0 0 0 0 0 0 0 0 0 0 0 0 0 0 0 0 0 0 0 0 0 0 0 0 0 0 0 0 0 0 0 828 833 840 853 859 859 880 889 923 1093 1345 1721 1903 1941 1960 1975 1979 1995 2012 2012 2012 2012 2011 2010 2008 2004 2003 2003 2003 2002 2001 1999 1993 1989 1974 1947 1933 1920 1905 1884 1873 1868 1864 1856 1848 1845 1842 1842 1840 1839 1835 1830 1826 1821 1816 1812 1810 1804 1798 1792 1786 1782 1777 1773 1770 1766 1761 1755 1750 1746 1742 1738 1733 1728 1723 1719 1716 1712 1707 1702 1695 1690 1686 1681 1679 1675 1672 1666 1661 1655 1652 1648 1643 1637 1633 1629 1626 1621 1617 1611 1606 1601 1598 1595 1592 1588 1584 1580 1575 1571 1568 1564 1562 1559 1555 1546 1541 1538 1537 1536 1534 1530 1527 1526 1523 1521 1519 1516 1509 1502 1502 1502 1506 1509 1517 1546 1565 1611 1625 1625 1625 1618 1618 1618 1623 1623
0 0 0 0 0 0 0 0 0 0 0 0 0 0 0 0 0 0 0 0 0 0 0 0 0 0 0 0 0 0 0 0 0 0 0 0 0 0 0 0 0 0 0 0 0 0 0 0 0 0 0 0 0 0 0 0 0 0 0 0 0 0 0 0 0 0 0 0 0 0 0 1279 1283 1373 1376 1398 1404 1456 1559 1606 1646 1674 1689 1910 2014 2067 2133 2151 2153 2160 2160 2171 2172 2172 2172 2170 2169 2165 2164 2133 2095 2095 2095 2137 2178 2211 2217 2220 2217 2216 2216 2216 2216 2221 2233 2239 2239 2246 2252 2255 2269 2272 2280 2305 2322 2457 2457 2457 2448 2445 2445 2445 2454 2464 2465 2467 2467 2468 2469 2470 2474 2474 2474 2473 2465 2465 2465 2468 2478 2488 2497 2502 2502 2504 2503 2503 2503 2504 2505 2508 2516 2523 2527 2530 2531 2533 2533 2533 2527 2515 2515 2515 2519 2520 2520 2523 2524 2524 2524 2524 2524 2514 2514 2514 2514 2516 2516 2516 2513 2513 2513 2519 2519 2519 2507 2492 2487 2485 2479 2479 2449 2437 2437 2430 2420 2352 2217 2064 1860 1684 1470 1296 1238 1231 1221 1211 1208 1207 1207 1206 1202 1197 1196 1195 1195 1195 1191 1191 1191 1191 1192 1192 1190 1188 1183 1183 1183 1190 1197 1197 1197 1188 1178 1173 1169 1159 1148 1145 1141 1141 1137 1137 1135 1133 1132 1131 1129 1129 1129 1129 1129 1128 1126 1122 1122 1122 1125 1125 1125 1122 1122 1122 1122 1122 1119 1117 1117 1106 1089 1089 1087 1086 1084 1082 1078 1075 1073 1071 1069 1068 1066 1064 1062 1061 1060 1058 1057 1054 1053 1052 1049 1048 1047 1045 1044 1044 1042 1039 1038 1037 1037 1037 1036 1036 1032 1029 1028 1027 1026 1026 1023 1021 1018 1018 1018 1018 1018 1016 1014 1010 1009 1009 1007 1003 996 995 994 991 990 988 987 984 982 981 981 980 980 980 980 980 976 976 975 975 973 971 969 968 966 966 965 965 965 963 961 960 960 960 960 962 962 962 962 958 956 955 953 950 948 945 940 938 932 930 0 0 0 0 0 0 0 0 0 0 0 0 0 0 0 0 0 0 0 0 0 0 0 0 0 0 0 0 0 0 0 0 0 0 0 890 893 904 906 923 923 923 923 918 910 905 899 899 899 903 907 912 912 912 908 903 903 896 890 888 879 872 871 869 864 860 858 855 848 845 0 0 0 0 0 0 0 0 0 0 0 0 0 0 0 0 0 0 0 0 0 0 0 0 0 0 0 0 0 0 0 0 0 0 0 0 0 0 0 820 828 833 840 854 859 860 882 891 959 1202 1557 1946 1962 1964 1989 1997 1998 2004 2016 2016 2016 2014 2012 2011 2010 2006 2005 2003 2002 2001 2001 1998 1991 1989 1972 1950 1934 1928 1906 1884 1877 1873 1864 1859 1855 1847 1844 1843 1843 1841 1836 1832 1827 1822 1816 1814 1811 1804 1798 1792 1786 1782 1777 1773 1770 1767 1762 1756 1751 1746 1742 1738 1733 1728 1723 1719 1715 1711 1704 1699 1694 1690 1686 1681 1679 1675 1672 1667 1663 1657 1652 1648 1643 1637 1633 1629 1626 1623 1620 1613 1607 1602 1598 1595 1592 1588 1584 1580 1576 1572 1568 1564 1561 1558 1553 1546 1541 1538 1537 1536 1534 1530 1530 1526 1523 1520 1516 1511 1504 1502 1502 1501 1502 1502 1504 1522 1537 1562 1598 1603 1603 1603 1599 1599 1598 1599
0 0 0 0 0 0 0 0 0 0 0 0 0 0 0 0 0 0 0 0 0 0 0 0 0 0 0 0 0 0 0 0 0 0 0 0 0 0 0 0 0 0 0 0 0 0 0 0 0 0 0 0 0 0 0 0 0 0 0 0 0 0 0 0 0 0 0 0 0 0 0 1343 1366 1373 1383 1383 1400 1456 1559 1622 1648 1675 1738 1940 1992 2067 2129 2139 2140 2143 2150 2158 2167 2167 2167 2163 2161 2154 2153 2117 2067 2067 2067 2150 2229 2229 2229 2214 2211 2207 2194 2194 2194 2220 2226 2228 2233 2246 2255 2260 2260 2260 2269 2280 2294 2341 2486 2486 2486 2445 2434 2434 2434 2436 2441 2444 2446 2446 2449 2449 2452 2452 2452 2452 2445 2445 2445 2453 2461 2468 2470 2471 2471 2476 2477 2478 2480 2480 2486 2491 2497 2503 2509 2512 2512 2512 2512 2512 2508 2499 2499 2498 2498 2499 2501 2501 2511 2512 2512 2512 2511 2502 2498 2498 2498 2504 2504 2504 2504 2504 2503 2503 2503 2495 2486 2479 2479 2477 2474 2474 2438 2421 2415 2407 2362 2235 2091 1919 1732 1526 1344 1254 1230 1222 1214 1210 1207 1207 1206 1205 1199 1197 1196 1195 1193 1191 1191 1191 1190 1191 1192 1192 1190 1188 1182 1182 1182 1185 1191 1191 1191 1180 1172 1168 1165 1159 1147 1141 1141 1138 1136 1134 1131 1130 1130 1129 1128 1126 1126 1126 1126 1126 1121 1120 1120 1120 1124 1124 1124 1122 1122 1122 1122 1122 1116 1115 1114 1099 1086 1084 1084 1084 1082 1079 1077 1074 1072 1070 1068 1066 1065 1063 1061 1060 1058 1057 1055 1053 1052 1049 1048 1046 1045 1043 1043 1041 1040 1038 1037 1037 1037 1036 1036 1036 1032 1029 1028 1026 1024 1022 1020 1018 1017 1017 1016 1016 1015 1013 1012 1010 1006 1001 999 999 995 995 994 990 989 988 985 982 980 980 980 980 980 980 980 980 976 976 975 973 973 971 969 967 966 966 966 966 966 964 961 960 959 959 959 962 962 962 962 958 956 950 950 947 944 939 932 930 927 925 0 0 0 0 0 0 0 0 0 0 0 0 0 0 0 0 0 0 0 0 0 0 0 0 0 0 0 0 0 0 0 0 0 0 0 890 893 907 914 914 914 913 912 910 910 905 899 899 899 903 907 912 912 912 908 903 903 892 890 888 879 874 871 865 865 864 863 859 858 857 855 0 0 0 0 0 0 0 0 0 0 0 0 0 0 0 0 0 0 0 0 0 0 0 0 0 0 0 0 0 0 0 0 0 0 0 0 0 819 821 828 833 845 858 870 873 892 961 1092 1389 1926 1978 1983 1988 2006 2009 2009 2018 2018 2018 2017 2015 2013 2013 2011 2009 2006 2004 2002 2001 2000 1997 1991 1987 1972 1951 1936 1928 1907 1884 1878 1876 1865 1862 1856 1852 1851 1849 1846 1842 1838 1833 1828 1823 1819 1815 1812 1805 1799 1793 1786 1782 1778 1774 1771 1769 1764 1757 1751 1747 1742 1738 1733 1727 1722 1717 1714 1710 1704 1698 1694 1690 1686 1681 1679 1675 1672 1667 1663 1658 1654 1648 1643 1637 1633 1629 1627 1623 1620 1613 1609 1603 1599 1595 1592 1588 1585 1582 1578 1573 1569 1564 1561 1556 1551 1546 1541 1538 1537 1536 1534 1533 1530 1526 1523 1520 1515 1507 1503 1500 1500 1500 1500 1501 1501 1501 1501 1501 1510 1536 1542 1544 1544 1544 1544 1544
0 0 0 0 0 0 0 0 0 0 0 0 0 0 0 0 0 0 0 0 0 0 0 0 0 0 0 0 0 0 0 0 0 0 0 0 0 0 0 0 0 0 0 0 0 0 0 0 0 0 0 0 0 0 0 0 0 0 0 0 0 0 0 0 0 0 0 0 0 0 1271 1373 1406 1406 1406 1406 1406 1456 1559 1622 1653 1692 1839 1946 1992 2067 2116 2129 2130 2135 2140 2151 2158 2160 2160 2160 2154 2140 2085 2083 2067 2067 2067 2240 2240 2240 2199 2195 2189 2178 2178 2178 2186 2209 2221 2224 2232 2246 2255 2260 2260 2260 2267 2267 2275 2310 2436 2475 2475 2475 2424 2415 2415 2415 2421 2425 2425 2426 2428 2429 2432 2434 2434 2434 2432 2432 2432 2437 2438 2438 2441 2441 2445 2455 2456 2456 2457 2457 2465 2471 2478 2482 2489 2490 2490 2490 2490 2489 2488 2481 2481 2481 2481 2482 2483 2483 2491 2491 2491 2491 2489 2476 2476 2476 2485 2488 2488 2490 2490 2490 2490 2490 2480 2471 2471 2471 2471 2471 2471 2463 2430 2411 2399 2375 2272 2143 1946 1769 1541 1360 1278 1236 1218 1216 1212 1209 1206 1205 1202 1201 1199 1197 1195 1194 1191 1191 1189 1189 1189 1187 1182 1180 1178 1175 1176 1178 1178 1181 1184 1184 1184 1172 1162 1160 1157 1156 1147 1140 1138 1138 1134 1132 1130 1129 1128 1126 1124 1123 1122 1122 1122 1121 1120 1117 1117 1117 1122 1122 1122 1122 1122 1122 1122 1122 1116 1110 1101 1098 1082 1082 1079 1079 1078 1076 1074 1073 1071 1068 1067 1065 1063 1061 1060 1058 1056 1055 1053 1051 1050 1048 1047 1045 1044 1043 1041 1040 1037 1037 1036 1036 1036 1036 1036 1036 1032 1029 1027 1025 1024 1021 1017 1015 1014 1014 1013 1012 1012 1011 1010 1008 1003 995 992 992 991 989 989 989 987 987 985 982 979 979 978 978 978 978 978 976 974 974 973 973 973 972 971 967 966 966 966 966 966 964 961 960 959 959 959 960 961 961 961 958 946 939 934 934 931 931 927 926 0 0 0 0 0 0 0 0 0 0 0 0 0 0 0 0 0 0 0 0 0 0 0 0 0 0 0 0 0 0 0 0 0 0 0 0 0 891 893 907 911 911 912 912 911 910 910 905 899 899 899 902 907 912 912 912 904 892 891 890 884 883 874 865 865 865 865 864 863 860 859 858 855 845 832 830 0 0 0 0 0 0 0 0 0 0 0 0 0 0 0 0 0 0 0 0 0 0 0 0 0 0 0 0 0 0 0 0 0 816 819 822 828 833 845 865 873 885 933 1015 1238 1653 1959 1994 2003 2024 2024 2024 2021 2020 2020 2020 2018 2016 2015 2014 2014 2011 2007 2006 2003 2001 1999 1995 1990 1982 1972 1951 1936 1928 1911 1888 1881 1876 1872 1867 1860 1859 1856 1849 1846 1843 1838 1835 1830 1826 1822 1816 1812 1805 1801 1796 1789 1785 1781 1777 1774 1771 1765 1757 1752 1747 1743 1738 1733 1726 1719 1716 1714 1709 1704 1698 1694 1690 1685 1681 1677 1673 1671 1667 1663 1659 1654 1648 1643 1638 1634 1630 1627 1623 1620 1614 1610 1604 1600 1596 1593 1590 1588 1585 1581 1575 1572 1566 1561 1556 1551 1546 1542 1541 1540 1539 1538 1535 1530 1526 1523 1520 1515 1507 1503 1503 1502 1501 1501 1501 1499 1499 1493 1491 1491 1491 1502 1502 1502 1494 1491 1491
0 0 0 0 0 0 0 0 0 0 0 0 0 0 0 0 0 0 0 0 0 0 0 0 0 0 0 0 0 0 0 0 0 0 0 0 0 0 0 0 0 0 0 0 0 0 0 0 0 0 0 0 0 0 0 0 0 1393 1393 1393 1291 0 0 0 0 0 0 0 0 1142 1271 1350 1406 1406 1406 1406 1406 1440 1554 1622 1653 1703 1864 1946 1992 2067 2087 2113 2115 2122 2127 2134 2143 2149 2149 2149 2143 2122 2077 2077 2077 2077 2087 2214 2214 2214 2178 2174 2162 2162 2162 2164 2181 2196 2204 2211 2221 2243 2255 2260 2260 2260 2253 2253 2253 2273 2369 2475 2475 2475 2419 2402 2402 2402 2402 2402 2402 2402 2402 2403 2411 2417 2420 2420 2420 2420 2420 2419 2419 2416 2416 2416 2422 2432 2437 2437 2440 2440 2444 2452 2460 2462 2469 2469 2469 2468 2468 2465 2465 2463 2463 2463 2465 2465 2466 2467 2466 2466 2466 2461 2460 2459 2455 2455 2455 2462 2467 2468 2468 2471 2471 2471 2461 2455 2455 2455 2466 2466 2466 2443 2420 2389 2345 2285 2196 2016 1825 1610 1413 1295 1239 1217 1212 1211 1211 1208 1204 1201 1200 1199 1198 1197 1195 1191 1189 1189 1188 1182 1180 1179 1175 1169 1169 1169 1170 1171 1174 1179 1179 1179 1175 1165 1160 1157 1156 1156 1147 1138 1138 1136 1133 1130 1129 1127 1125 1124 1122 1121 1119 1119 1117 1116 1116 1115 1114 1114 1114 1118 1118 1118 1118 1118 1116 1115 1106 1098 1098 1092 1079 1078 1077 1077 1076 1074 1071 1071 1069 1066 1065 1064 1062 1060 1058 1057 1055 1053 1052 1050 1049 1047 1045 1044 1042 1041 1040 1037 1035 1034 1033 1033 1033 1034 1034 1034 1032 1029 1027 1025 1022 1019 1016 1015 1014 1013 1012 1012 1011 1008 1007 1004 999 995 991 987 987 986 986 986 983 983 982 982 979 977 977 977 978 978 978 976 974 974 974 973 973 973 971 968 966 966 966 966 966 964 960 959 958 958 958 958 960 960 960 951 946 939 934 932 931 930 927 0 0 0 0 0 0 1 0 0 0 0 0 0 0 0 0 0 0 0 0 0 0 0 0 0 0 0 0 0 0 0 0 0 0 0 0 0 886 891 898 908 911 911 912 912 911 911 911 908 905 902 902 901 902 903 903 901 895 886 884 883 883 882 874 865 865 865 865 865 863 863 861 858 855 847 845 844 839 838 833 0 0 0 0 0 0 0 0 0 0 0 0 0 0 0 0 0 0 0 0 0 0 0 0 0 0 0 0 0 0 819 820 824 829 833 852 869 876 898 964 1115 1404 1790 2004 2012 2017 2025 2025 2025 2023 2022 2020 2020 2020 2020 2018 2017 2017 2014 2010 2007 2003 2001 1999 1995 1988 1982 1972 1952 1937 1928 1912 1888 1881 1873 1872 1870 1868 1864 1856 1850 1846 1843 1839 1836 1832 1827 1824 1818 1812 1808 1805 1799 1794 1790 1786 1781 1777 1773 1766 1757 1752 1748 1744 1739 1733 1726 1718 1714 1713 1709 1704 1698 1694 1690 1685 1681 1677 1673 1670 1666 1662 1659 1654 1650 1645 1641 1637 1632 1627 1623 1619 1614 1610 1605 1601 1597 1594 1592 1589 1587 1582 1578 1573 1569 1564 1556 1551 1547 1545 1545 1543 1542 1540 1535 1530 1526 1523 1520 1515 1507 1503 1503 1502 1502 1502 1501 1499 1497 1493 1488 1481 1481 1481 1481 1482 1483 1483 1483
0 0 0 0 0 0 0 0 0 0 0 0 0 0 0 0 0 0 0 0 0 0 0 0 0 0 0 0 0 0 0 0 0 0 0 0 0 0 0 0 0 0 0 0 0 0 0 0 0 0 0 0 0 0 0 0 0 1400 1400 1400 1349 1329 1305 0 0 0 0 0 1017 1201 1271 1338 1377 1377 1388 1406 1406 1440 1553 1619 1653 1785 1864 1951 2020 2070 2077 2096 2103 2107 2110 2115 2122 2130 2130 2130 2128 2105 2077 2075 2075 2075 2087 2187 2187 2187 2162 2157 2140 2140 2140 2156 2173 2188 2195 2206 2221 2239 2251 2254 2254 2254 2245 2239 2239 2245 2316 2463 2463 2463 2394 2393 2393 2392 2389 2370 2370 2370 2376 2376 2384 2392 2400 2406 2406 2407 2407 2407 2403 2397 2397 2397 2401 2413 2423 2423 2424 2426 2431 2438 2443 2443 2443 2443 2438 2438 2438 2440 2441 2442 2443 2442 2442 2441 2427 2427 2427 2428 2429 2436 2442 2444 2445 2445 2447 2447 2447 2449 2449 2449 2449 2449 2443 2438 2438 2438 2442 2442 2442 2426 2402 2359 2291 2216 2054 1868 1655 1459 1331 1256 1217 1211 1210 1209 1208 1206 1200 1199 1199 1199 1197 1196 1193 1190 1189 1188 1184 1178 1178 1176 1173 1167 1167 1167 1167 1169 1169 1169 1165 1160 1158 1158 1157 1157 1156 1156 1146 1138 1135 1135 1133 1129 1128 1125 1123 1123 1121 1118 1117 1116 1116 1115 1114 1113 1111 1111 1111 1111 1111 1111 1111 1111 1110 1108 1098 1095 1092 1085 1078 1077 1075 1074 1073 1070 1070 1068 1066 1065 1064 1062 1060 1059 1057 1055 1054 1051 1050 1049 1047 1046 1044 1041 1040 1038 1038 1035 1035 1033 1033 1033 1033 1034 1034 1034 1032 1029 1025 1022 1019 1016 1016 1015 1014 1013 1012 1011 1009 1006 1005 1003 999 995 991 987 986 986 984 984 982 981 981 979 978 977 977 976 975 974 974 972 971 971 971 974 974 974 971 967 967 967 966 966 966 962 959 958 958 957 956 956 956 956 953 949 939 930 930 929 927 924 0 0 0 0 0 0 0 0 0 0 0 0 0 0 0 0 0 0 0 0 0 0 0 0 0 0 0 0 0 0 0 0 0 0 0 0 0 887 889 890 907 914 914 914 912 912 911 911 911 908 905 903 902 902 901 900 899 898 887 883 883 883 878 878 874 865 865 865 865 865 863 863 861 858 854 851 847 845 844 838 838 1 0 0 0 0 0 0 0 0 0 0 0 0 0 0 0 0 0 0 0 0 0 0 0 0 0 0 0 0 0 819 820 825 829 833 861 871 887 921 1003 1197 1573 1990 2019 2033 2034 2034 2033 2030 2027 2026 2026 2024 2021 2020 2020 2019 2019 2017 2016 2012 2005 2001 1999 1995 1988 1982 1972 1953 1937 1928 1912 1891 1883 1879 1875 1871 1870 1864 1857 1852 1847 1844 1840 1836 1833 1828 1824 1821 1816 1812 1809 1805 1798 1793 1788 1784 1780 1774 1767 1757 1753 1750 1746 1741 1735 1726 1718 1714 1712 1709 1704 1700 1695 1691 1686 1681 1677 1673 1670 1666 1662 1659 1655 1651 1647 1644 1639 1632 1626 1621 1619 1614 1611 1607 1602 1599 1594 1592 1590 1587 1584 1579 1576 1572 1568 1560 1554 1550 1547 1546 1543 1542 1540 1535 1530 1526 1522 1519 1515 1510 1506 1504 1503 1503 1502 1501 1500 1497 1493 1488 1481 1478 1476 1476 1476 1477 1477 1477
0 0 0 0 0 0 0 0 0 0 0 0 0 0 0 0 0 0 0 0 0 0 0 0 0 0 0 0 0 0 0 0 0 0 0 0 0 0 0 0 0 0 0 0 0 0 0 0 0 0 0 0 0 0 0 0 0 1400 1400 1400 1400 1396 1387 1351 1351 1269 1169 1169 1169 1220 1271 1315 1377 1377 1377 1379 1382 1408 1545 1612 1677 1806 1895 1951 2030 2071 2072 2082 2088 2089 2090 2094 2101 2107 2107 2107 2101 2088 2077 2074 2074 2074 2087 2168 2168 2168 2149 2132 2118 2118 2118 2143 2165 2179 2188 2203 2217 2235 2246 2246 2246 2243 2237 2228 2228 2228 2273 2416 2416 2416 2377 2376 2370 2370 2353 2341 2341 2341 2343 2357 2357 2369 2382 2390 2391 2392 2392 2392 2388 2385 2383 2383 2383 2389 2399 2408 2412 2415 2418 2426 2427 2427 2427 2427 2426 2426 2426 2426 2426 2426 2426 2425 2424 2415 2410 2410 2410 2413 2414 2416 2420 2424 2426 2432 2438 2438 2438 2431 2431 2428 2428 2428 2422 2416 2413 2413 2413 2413 2408 2400 2371 2333 2270 2118 1943 1729 1526 1366 1271 1227 1216 1210 1209 1207 1205 1202 1198 1197 1196 1196 1196 1193 1189 1189 1187 1187 1186 1176 1174 1172 1172 1167 1164 1164 1164 1164 1164 1164 1159 1157 1156 1156 1157 1162 1162 1162 1146 1138 1137 1132 1131 1129 1125 1123 1121 1119 1117 1115 1114 1113 1113 1113 1110 1110 1108 1108 1108 1108 1108 1108 1108 1107 1107 1102 1093 1089 1086 1082 1078 1076 1075 1074 1071 1069 1068 1067 1065 1064 1062 1060 1059 1057 1055 1053 1052 1050 1049 1048 1045 1044 1042 1039 1037 1037 1035 1034 1034 1033 1033 1033 1033 1034 1034 1034 1032 1028 1024 1020 1017 1016 1015 1015 1014 1013 1012 1011 1009 1006 1003 1002 998 994 992 989 987 986 986 983 981 981 979 978 977 976 974 974 974 974 974 971 970 970 970 973 973 973 971 967 966 966 966 966 966 962 959 958 958 957 955 954 952 952 950 946 938 926 923 923 922 922 0 0 0 0 0 0 0 0 0 0 0 0 0 0 0 0 0 0 0 0 0 0 0 0 0 0 0 0 0 0 0 0 0 0 0 0 887 889 889 891 910 910 910 908 908 908 911 911 911 908 905 903 902 902 900 899 899 894 886 881 881 881 876 875 874 867 866 866 865 865 863 862 859 857 854 851 846 844 841 838 838 1 0 0 0 0 0 0 0 0 0 0 0 0 0 0 0 0 0 0 0 0 0 0 0 0 0 0 0 0 817 820 822 833 839 848 862 872 905 950 1053 1350 1884 1997 2020 2035 2035 2035 2033 2033 2033 2028 2028 2026 2024 2023 2022 2020 2019 2017 2017 2013 2008 2003 1999 1995 1988 1982 1970 1953 1936 1926 1913 1893 1883 1880 1875 1871 1870 1864 1858 1853 1848 1844 1841 1837 1833 1829 1824 1821 1817 1815 1812 1807 1800 1795 1790 1785 1780 1774 1767 1760 1754 1750 1746 1743 1738 1729 1718 1714 1712 1709 1706 1701 1697 1692 1686 1682 1678 1674 1670 1666 1662 1660 1656 1652 1650 1645 1640 1632 1626 1621 1618 1614 1611 1608 1602 1599 1595 1593 1591 1588 1584 1579 1576 1573 1569 1564 1557 1551 1548 1547 1543 1542 1540 1535 1529 1526 1522 1519 1515 1511 1508 1504 1504 1503 1503 1502 1500 1497 1496 1491 1485 1478 1476 1476 1476 1477 1477 1477
0 0 0 0 0 0 0 0 0 0 0 0 0 0 0 0 0 0 0 0 0 0 0 0 0 0 0 0 0 0 0 0 0 0 0 0 0 0 0 0 0 0 0 0 0 0 0 0 0 0 0 0 0 0 0 0 0 1392 1392 1392 1400 1400 1443 1443 1443 1337 1213 1213 1213 1220 1271 1307 1346 1355 1355 1359 1364 1408 1514 1605 1687 1806 1895 1953 2044 2069 2070 2071 2073 2075 2077 2078 2082 2086 2086 2086 2084 2082 2075 2047 2047 2047 2051 2161 2161 2161 2149 2132 2100 2100 2100 2129 2138 2163 2179 2193 2208 2222 2234 2240 2240 2240 2229 2228 2219 2219 2219 2393 2393 2393 2348 2348 2345 2338 2328 2324 2324 2324 2325 2333 2334 2346 2361 2371 2375 2375 2375 2374 2374 2372 2369 2369 2369 2370 2382 2393 2399 2401 2402 2409 2410 2410 2410 2411 2412 2412 2414 2415 2415 2415 2413 2409 2401 2388 2388 2388 2394 2398 2398 2398 2398 2398 2401 2410 2421 2421 2421 2411 2407 2406 2404 2401 2400 2396 2393 2383 2375 2372 2367 2360 2329 2253 2131 1964 1776 1591 1399 1275 1236 1219 1214 1210 1208 1206 1201 1198 1195 1193 1193 1193 1193 1189 1187 1187 1187 1187 1187 1179 1178 1176 1172 1167 1162 1162 1161 1159 1158 1158 1158 1156 1156 1156 1156 1163 1163 1163 1146 1138 1136 1132 1127 1123 1123 1121 1119 1117 1115 1113 1112 1111 1110 1109 1107 1107 1106 1106 1104 1102 1101 1100 1099 1095 1095 1089 1086 1085 1085 1082 1078 1076 1075 1072 1069 1068 1067 1065 1064 1062 1060 1059 1057 1056 1053 1052 1050 1049 1047 1045 1044 1042 1040 1038 1036 1035 1034 1034 1033 1033 1033 1032 1032 1033 1032 1032 1029 1026 1023 1020 1017 1016 1015 1015 1014 1013 1012 1011 1009 1006 1002 1000 996 994 993 992 989 986 986 983 981 979 977 976 975 975 973 973 972 972 971 971 970 968 968 968 969 969 969 959 959 959 965 965 965 962 959 957 957 956 954 952 952 950 950 937 933 929 926 923 0 0 0 0 0 0 0 0 0 0 0 0 0 0 0 0 0 0 0 0 0 0 0 0 0 0 0 0 0 0 0 0 0 0 0 0 0 0 889 891 894 895 909 909 909 905 905 905 908 908 908 906 904 903 902 902 898 896 896 891 886 877 877 877 875 875 874 868 866 866 865 865 863 860 858 856 854 851 844 839 838 838 838 0 0 0 0 0 0 0 0 0 0 0 0 0 0 0 0 0 0 0 0 0 0 0 0 0 0 0 0 812 817 825 832 837 850 862 863 875 905 969 1156 1581 1944 1999 2022 2047 2047 2047 2044 2039 2034 2034 2034 2030 2027 2026 2024 2020 2019 2018 2017 2013 2009 2004 1999 1995 1988 1983 1970 1953 1937 1926 1921 1916 1887 1880 1875 1871 1868 1864 1858 1853 1849 1847 1841 1837 1834 1830 1825 1822 1819 1817 1812 1807 1800 1795 1790 1785 1780 1774 1767 1761 1755 1750 1747 1743 1738 1731 1721 1716 1712 1710 1706 1702 1697 1693 1688 1685 1680 1676 1671 1667 1663 1660 1657 1654 1651 1645 1640 1632 1626 1621 1618 1614 1612 1608 1603 1599 1596 1593 1592 1590 1584 1580 1576 1573 1569 1564 1558 1553 1549 1547 1543 1540 1538 1534 1529 1526 1523 1519 1515 1512 1509 1506 1505 1504 1502 1501 1500 1497 1496 1491 1487 1483 1479 1477 1477 1477 1477 1477
0 0 0 0 0 0 0 0 0 0 0 0 0 0 0 0 0 0 0 0 0 0 0 0 0 0 0 0 0 0 0 0 0 0 0 0 0 0 0 0 0 0 0 0 0 0 0 0 0 0 0 0 0 0 0 1336 1336 1336 1380 1322 1322 0 1443 1443 1443 1337 1263 1263 1263 1307 1312 1323 1327 1348 1348 1348 1358 1362 1496 1605 1693 1808 1896 1988 2053 2059 2061 2066 2066 2067 2067 2067 2066 2066 2066 2071 2072 2072 2072 2044 2042 2042 2042 2055 2128 2132 2132 2128 2100 2100 2100 2113 2131 2145 2166 2177 2189 2201 2214 2221 2224 2224 2224 2183 2183 2183 2188 2365 2365 2365 2326 2323 2315 2315 2313 2312 2312 2312 2313 2318 2320 2328 2336 2352 2355 2356 2356 2361 2361 2361 2357 2357 2357 2362 2368 2377 2381 2381 2381 2382 2388 2388 2389 2392 2395 2402 2405 2405 2405 2405 2400 2391 2380 2367 2367 2367 2376 2379 2379 2379 2379 2379 2379 2383 2388 2388 2388 2388 2385 2384 2380 2379 2378 2377 2372 2361 2343 2328 2328 2327 2264 2142 1987 1799 1624 1438 1296 1237 1219 1215 1212 1209 1206 1203 1200 1196 1193 1192 1192 1192 1190 1188 1188 1188 1186 1186 1186 1179 1178 1176 1172 1164 1162 1161 1159 1153 1151 1149 1149 1151 1152 1153 1157 1163 1163 1163 1139 1136 1135 1131 1125 1123 1121 1118 1117 1115 1113 1111 1109 1109 1108 1106 1105 1105 1105 1104 1101 1099 1097 1095 1093 1093 1091 1088 1085 1085 1084 1081 1076 1075 1073 1071 1069 1067 1065 1063 1062 1061 1058 1057 1056 1054 1053 1051 1048 1047 1045 1044 1042 1040 1039 1036 1035 1034 1032 1032 1031 1031 1030 1030 1029 1025 1020 1019 1019 1019 1019 1019 1017 1016 1015 1015 1014 1012 1012 1011 1009 1006 1002 999 996 994 993 993 989 986 985 983 981 979 976 975 974 974 972 971 971 971 971 970 969 966 965 965 961 961 961 958 958 958 965 965 965 961 959 957 956 956 952 952 951 947 947 937 933 928 926 923 0 0 0 0 0 0 0 0 0 0 0 0 0 0 0 0 0 0 0 0 0 0 0 0 0 0 0 0 0 0 0 0 0 0 0 0 0 0 891 894 896 896 908 908 908 905 905 905 905 905 903 903 902 902 900 900 898 896 891 888 885 877 877 875 875 875 873 868 866 864 862 862 861 860 854 853 853 853 844 842 839 838 838 0 0 0 0 0 0 0 0 0 0 0 0 0 0 0 0 0 0 0 0 0 0 0 0 0 0 0 0 812 820 825 833 840 859 864 866 886 927 1036 1325 1790 1970 2013 2034 2054 2054 2054 2044 2039 2039 2039 2034 2030 2028 2026 2025 2022 2019 2019 2017 2013 2009 2005 2000 1996 1995 1984 1967 1953 1937 1928 1921 1919 1898 1883 1875 1871 1868 1864 1858 1855 1852 1849 1846 1841 1837 1831 1827 1823 1820 1817 1812 1807 1800 1796 1790 1785 1781 1774 1767 1761 1756 1751 1747 1743 1739 1731 1724 1719 1715 1713 1708 1704 1700 1696 1692 1687 1684 1678 1673 1669 1665 1662 1659 1656 1652 1646 1640 1632 1626 1622 1618 1614 1612 1608 1603 1600 1596 1595 1594 1590 1585 1580 1576 1573 1569 1564 1559 1553 1549 1547 1543 1539 1535 1532 1529 1526 1523 1519 1516 1513 1509 1507 1505 1504 1502 1501 1500 1497 1496 1491 1487 1483 1479 1479 1479 1479 1479 1479
0 0 0 0 0 0 0 0 0 0 0 0 0 0 0 0 0 0 0 0 0 0 0 0 0 0 0 0 0 0 0 0 0 0 0 0 0 0 0 0 0 0 0 0 0 0 0 0 0 0 0 0 0 1177 1179 1375 1375 1375 1270 1245 1245 0 1443 1443 1443 1337 1263 1263 1263 1307 1307 1312 1327 1346 1348 1348 1349 1362 1496 1605 1731 1812 1915 1999 2041 2045 2051 2051 2051 2059 2059 2059 2052 2052 2052 2054 2063 2063 2063 2044 2042 2029 2029 2029 2034 2102 2110 2110 2102 2102 2108 2108 2125 2135 2145 2153 2158 2173 2184 2186 2186 2186 2181 2154 2154 2154 2180 2344 2344 2344 2302 2301 2298 2297 2295 2297 2297 2297 2300 2303 2305 2308 2313 2318 2332 2335 2341 2347 2347 2347 2350 2350 2350 2357 2362 2362 2362 2362 2361 2361 2362 2363 2369 2373 2374 2374 2376 2376 2377 2377 2375 2372 2365 2356 2355 2355 2355 2356 2356 2357 2357 2357 2362 2362 2362 2357 2354 2353 2353 2354 2354 2355 2357 2357 2357 2350 2325 2304 2279 2227 2126 2006 1821 1642 1442 1297 1242 1221 1214 1213 1212 1207 1203 1199 1197 1194 1193 1192 1191 1191 1190 1187 1187 1187 1186 1186 1186 1186 1183 1180 1172 1163 1161 1159 1158 1152 1146 1146 1146 1149 1150 1150 1157 1157 1157 1152 1136 1135 1132 1130 1125 1121 1119 1117 1114 1113 1111 1109 1107 1106 1105 1103 1101 1100 1100 1100 1098 1096 1094 1092 1089 1089 1087 1084 1084 1080 1080 1077 1074 1074 1073 1070 1068 1067 1064 1062 1061 1059 1058 1056 1054 1053 1051 1049 1047 1046 1044 1042 1040 1039 1037 1035 1035 1034 1031 1029 1029 1029 1028 1028 1028 1025 1020 1018 1018 1018 1018 1018 1017 1017 1016 1014 1012 1012 1012 1011 1009 1006 1002 999 995 994 993 993 989 986 984 982 980 978 976 974 974 974 972 971 970 970 969 969 968 965 963 963 961 961 960 956 954 953 953 952 945 945 945 953 953 953 953 952 946 946 945 931 929 928 923 920 0 0 0 0 0 0 0 0 0 0 0 0 0 0 0 0 0 0 0 0 0 0 0 0 0 0 0 0 0 0 0 0 0 0 0 0 0 889 889 894 894 895 906 906 906 904 903 902 902 902 901 899 898 898 898 898 898 893 885 885 883 876 872 871 871 871 871 868 866 863 862 860 860 858 856 853 852 852 842 842 837 837 837 0 0 0 0 0 0 0 0 0 0 0 0 0 0 0 0 0 0 0 0 0 0 0 0 0 0 0 0 812 822 826 834 845 859 864 879 906 970 1130 1521 1862 1970 2021 2063 2063 2063 2054 2044 2039 2039 2039 2034 2032 2028 2027 2025 2023 2020 2019 2016 2013 2009 2005 2000 1999 1996 1986 1967 1953 1939 1928 1921 1919 1899 1883 1880 1874 1870 1864 1859 1857 1856 1855 1850 1844 1839 1834 1828 1825 1822 1817 1812 1806 1800 1796 1791 1786 1781 1774 1767 1762 1758 1752 1748 1744 1739 1733 1729 1726 1720 1716 1711 1706 1702 1699 1694 1688 1684 1678 1674 1670 1667 1664 1660 1657 1652 1646 1640 1633 1628 1623 1619 1614 1612 1607 1603 1600 1597 1596 1595 1591 1585 1580 1576 1573 1568 1564 1559 1554 1549 1547 1543 1538 1533 1531 1529 1527 1524 1520 1518 1514 1509 1507 1505 1502 1502 1500 1498 1495 1490 1487 1486 1483 1479 1479 1479 1479 1481 1481
0 0 0 0 0 0 0 0 0 0 0 0 0 0 0 0 0 0 0 0 0 0 0 0 0 0 0 0 0 0 0 0 0 0 0 0 0 0 0 0 0 0 0 0 0 0 0 0 0 0 0 0 1179 1410 1412 1412 1412 1375 1206 1204 1204 1206 1239 1243 1243 1243 1243 1252 1263 1276 1276 1312 1327 1332 1334 1334 1348 1359 1495 1663 1774 1844 1919 1999 2028 2031 2037 2037 2039 2047 2047 2047 2045 2045 2045 2045 2056 2056 2056 2042 2029 2010 1991 1991 1991 2000 2062 2100 2100 2101 2108 2108 2116 2123 2130 2136 2142 2149 2165 2165 2165 2162 2161 2122 2122 2122 2178 2322 2322 2322 2278 2278 2278 2278 2281 2283 2284 2284 2286 2290 2292 2292 2297 2301 2311 2322 2331 2335 2337 2337 2337 2337 2343 2348 2348 2348 2346 2342 2342 2342 2343 2347 2355 2356 2356 2357 2357 2357 2357 2356 2356 2355 2350 2339 2335 2335 2335 2338 2338 2339 2339 2340 2344 2344 2344 2336 2330 2330 2330 2330 2331 2332 2336 2336 2336 2329 2310 2278 2203 2130 2028 1850 1672 1472 1308 1243 1221 1214 1213 1210 1208 1204 1200 1195 1193 1193 1192 1191 1191 1189 1186 1186 1186 1184 1184 1186 1186 1186 1186 1182 1169 1163 1159 1158 1157 1150 1143 1143 1143 1144 1144 1147 1148 1148 1148 1141 1134 1133 1131 1127 1122 1119 1117 1115 1113 1111 1109 1107 1106 1104 1102 1100 1099 1098 1098 1098 1096 1095 1092 1091 1088 1086 1083 1081 1080 1078 1078 1075 1073 1072 1072 1070 1068 1065 1063 1062 1060 1059 1057 1055 1053 1051 1049 1047 1046 1044 1042 1039 1038 1036 1035 1035 1031 1031 1029 1026 1026 1026 1027 1027 1027 1025 1020 1018 1018 1018 1018 1018 1017 1017 1015 1013 1012 1012 1011 1011 1009 1005 1001 999 995 994 993 993 989 986 983 982 980 977 976 974 973 973 972 970 967 965 965 964 962 962 961 961 961 959 959 956 954 950 949 948 944 943 942 940 942 943 943 945 945 945 944 931 929 928 919 919 0 0 0 0 0 0 0 0 0 0 0 0 0 0 0 0 0 0 0 0 0 0 0 0 0 0 0 0 0 0 0 0 0 0 0 0 882 889 891 892 893 894 900 900 900 898 898 898 898 898 898 897 896 896 894 894 894 887 882 881 878 874 872 870 869 868 868 868 866 863 860 858 858 853 853 853 850 846 844 842 837 836 0 0 0 0 0 0 0 0 0 0 0 0 0 0 0 0 0 0 0 0 0 0 0 0 0 0 0 0 804 812 822 830 839 848 859 864 883 917 998 1236 1765 1862 1970 2027 2091 2091 2091 2061 2043 2039 2039 2039 2034 2032 2029 2027 2026 2025 2022 2020 2016 2013 2010 2006 2005 2004 2001 1986 1967 1953 1939 1929 1921 1919 1900 1887 1880 1876 1873 1869 1863 1858 1857 1855 1853 1847 1842 1838 1834 1829 1823 1817 1812 1806 1800 1796 1792 1787 1781 1774 1768 1763 1760 1754 1749 1744 1739 1735 1733 1729 1725 1719 1713 1709 1704 1700 1694 1690 1684 1678 1674 1670 1668 1665 1662 1657 1652 1646 1640 1634 1629 1626 1620 1614 1610 1605 1602 1600 1598 1597 1595 1591 1586 1580 1576 1573 1567 1563 1559 1555 1550 1547 1542 1537 1533 1531 1529 1527 1525 1520 1518 1514 1510 1507 1504 1501 1497 1497 1495 1490 1486 1484 1481 1481 1480 1479 1479 1479 1481 1481
0 0 0 0 0 0 0 0 0 0 0 0 0 0 0 0 0 0 0 0 0 0 0 0 0 0 0 0 0 0 0 0 0 0 0 0 0 0 0 0 0 0 0 0 0 0 0 0 0 0 0 1389 1468 1505 1505 1505 1436 1196 1196 1196 1206 1226 1233 1239 1239 1233 1179 1179 1179 1253 1253 1271 1293 1295 1299 1344 1348 1370 1450 1663 1811 1933 1933 1999 2010 2012 2013 2018 2026 2035 2041 2041 2041 2041 2041 2042 2051 2051 2051 2042 2013 2010 1966 1933 1933 1933 1964 2076 2097 2100 2104 2104 2108 2111 2116 2123 2134 2146 2146 2146 2149 2144 2135 2096 2096 2096 2178 2273 2273 2273 2246 2246 2246 2262 2269 2271 2271 2271 2272 2272 2274 2275 2280 2290 2303 2318 2324 2325 2325 2325 2325 2325 2325 2325 2325 2325 2325 2325 2325 2326 2330 2332 2332 2332 2332 2330 2330 2330 2330 2330 2330 2330 2327 2323 2319 2319 2319 2321 2322 2325 2325 2325 2327 2327 2327 2312 2312 2312 2312 2312 2312 2314 2314 2308 2308 2305 2288 2219 2121 2048 1894 1720 1510 1336 1258 1224 1215 1214 1208 1203 1201 1199 1197 1192 1191 1191 1190 1190 1190 1187 1186 1184 1184 1172 1172 1172 1178 1182 1182 1182 1164 1159 1158 1158 1152 1145 1141 1140 1140 1140 1144 1145 1145 1145 1141 1135 1128 1126 1126 1122 1120 1117 1115 1112 1111 1109 1107 1105 1104 1102 1101 1099 1097 1096 1096 1094 1094 1093 1091 1089 1086 1084 1082 1080 1078 1077 1077 1075 1072 1071 1069 1067 1064 1063 1061 1060 1058 1057 1055 1053 1052 1049 1047 1045 1044 1042 1040 1037 1036 1035 1034 1032 1031 1029 1029 1025 1025 1025 1027 1027 1027 1024 1023 1021 1020 1019 1019 1018 1018 1017 1015 1013 1012 1011 1011 1010 1006 1002 1000 998 996 994 993 991 989 986 981 979 978 977 975 974 973 972 971 968 964 963 960 960 960 960 960 960 959 957 957 956 952 948 948 947 941 941 938 938 939 942 942 943 943 943 935 931 929 928 0 0 0 0 0 0 0 0 0 0 0 0 0 0 0 0 0 0 0 0 0 0 0 0 0 0 0 0 0 0 0 0 0 0 0 0 0 0 883 889 891 891 892 893 896 896 896 893 892 892 892 894 894 894 891 891 890 890 890 886 882 879 878 874 872 867 867 866 864 864 863 859 856 853 852 850 850 850 846 846 840 837 836 0 0 0 0 0 0 0 0 0 0 0 0 0 0 0 0 0 0 0 0 0 0 0 0 0 0 0 0 811 812 813 822 833 845 854 859 865 883 921 1061 1462 1781 1863 1970 2048 2114 2114 2114 2081 2042 2039 2038 2037 2034 2032 2029 2027 2027 2025 2022 2020 2016 2013 2011 2009 2006 2004 2001 1987 1968 1956 1943 1933 1921 1915 1900 1891 1881 1878 1875 1870 1867 1866 1861 1856 1853 1849 1844 1839 1835 1830 1825 1817 1812 1806 1802 1798 1792 1787 1782 1776 1770 1767 1763 1759 1752 1745 1740 1736 1736 1734 1728 1722 1716 1711 1706 1700 1695 1690 1684 1678 1673 1671 1668 1666 1662 1657 1652 1647 1641 1636 1631 1626 1621 1615 1609 1605 1602 1601 1598 1597 1595 1591 1586 1581 1576 1572 1567 1563 1559 1555 1551 1547 1542 1537 1533 1532 1531 1528 1525 1522 1518 1515 1511 1507 1504 1500 1496 1494 1492 1488 1485 1482 1481 1481 1480 1479 1479 1479 1481 1481
0 0 0 0 0 0 0 0 0 0 0 0 0 0 0 0 0 0 0 0 0 0 0 0 0 0 0 0 0 0 0 0 0 0 0 0 0 0 0 0 0 0 0 0 0 0 0 0 0 0 1 1405 1468 1505 1505 1505 1427 1196 1196 1196 1239 1239 1239 1136 1127 1126 1106 1126 1127 1215 1215 1236 1255 1264 1299 1312 1348 1373 1458 1663 1811 1933 1933 1970 1985 1994 1998 2005 2015 2025 2033 2038 2038 2038 2038 2038 2039 2039 2039 2030 2010 2009 1956 1920 1891 1891 1891 1931 1990 2080 2090 2096 2097 2100 2100 2110 2126 2127 2127 2127 2106 2089 2084 2084 2084 2084 2175 2209 2209 2209 2203 2203 2203 2229 2250 2252 2252 2252 2250 2250 2250 2252 2262 2273 2286 2301 2309 2312 2312 2312 2312 2306 2296 2296 2296 2298 2298 2299 2302 2307 2307 2307 2302 2302 2302 2306 2306 2306 2301 2301 2301 2301 2303 2304 2304 2304 2308 2308 2308 2307 2307 2307 2307 2307 2305 2291 2287 2287 2287 2294 2294 2294 2291 2287 2273 2258 2246 2182 2097 1940 1775 1567 1381 1278 1229 1214 1214 1211 1201 1199 1198 1197 1192 1189 1188 1188 1188 1187 1186 1186 1185 1184 1179 1169 1169 1169 1171 1182 1182 1182 1159 1158 1156 1155 1151 1145 1140 1139 1139 1139 1140 1141 1141 1140 1139 1134 1127 1123 1121 1119 1117 1115 1113 1111 1109 1107 1106 1104 1102 1101 1098 1097 1096 1094 1092 1092 1090 1089 1087 1086 1084 1082 1081 1079 1076 1076 1074 1072 1071 1070 1068 1066 1064 1062 1060 1058 1057 1056 1054 1052 1049 1048 1046 1044 1042 1041 1038 1037 1035 1034 1033 1032 1031 1029 1027 1022 1022 1022 1026 1026 1026 1025 1023 1021 1021 1020 1020 1019 1018 1017 1015 1013 1012 1011 1010 1008 1005 1002 1000 998 996 994 993 988 987 984 981 979 977 976 975 973 972 971 969 967 963 962 959 957 956 956 956 956 956 956 955 952 950 948 947 946 940 938 937 936 936 936 936 937 937 937 927 927 927 924 0 0 0 0 0 0 0 0 0 0 0 0 0 0 0 0 0 0 0 0 0 0 0 0 0 0 0 0 0 0 0 0 0 0 0 0 0 0 885 885 887 887 886 886 885 885 885 888 889 889 889 889 889 889 889 889 889 888 887 885 882 879 876 871 868 864 862 862 862 862 860 859 856 853 852 850 850 847 845 845 840 839 838 0 0 0 0 0 0 0 0 0 0 0 0 0 0 0 0 0 0 0 0 0 0 0 0 0 0 0 0 815 816 821 825 835 847 854 859 872 894 957 1145 1595 1781 1863 1970 2061 2156 2156 2156 2094 2051 2038 2037 2037 2035 2032 2029 2028 2027 2026 2024 2021 2019 2014 2011 2009 2006 2004 2001 1987 1975 1958 1945 1934 1925 1915 1900 1891 1885 1880 1876 1871 1868 1867 1861 1857 1854 1849 1845 1841 1837 1833 1827 1820 1815 1810 1805 1798 1793 1787 1782 1777 1771 1769 1766 1762 1757 1749 1741 1738 1736 1735 1731 1725 1718 1712 1706 1701 1696 1690 1684 1678 1673 1671 1669 1666 1662 1657 1652 1647 1641 1637 1632 1626 1622 1616 1609 1605 1602 1601 1598 1597 1595 1591 1586 1581 1576 1571 1567 1563 1559 1555 1551 1548 1542 1537 1534 1534 1532 1528 1525 1522 1518 1515 1512 1507 1504 1500 1496 1494 1492 1488 1485 1482 1481 1481 1480 1478 1478 1478 1481 1481
0 0 0 0 0 0 0 0 0 0 0 0 0 0 0 0 0 0 0 0 0 0 0 0 0 0 0 0 0 0 0 0 0 0 0 0 0 0 0 0 0 0 0 0 0 0 0 0 0 0 0 1410 1468 1505 1505 1505 1256 1196 1196 1196 1290 1290 1290 1136 1087 1065 1065 1065 1104 1145 1203 1208 1211 1264 1299 1312 1342 1373 1442 1609 1811 1933 1933 1941 1959 1973 1980 1982 1997 2007 2015 2019 2020 2020 2020 2020 2020 2018 1998 1988 1969 1969 1956 1918 1868 1868 1868 1882 1893 1934 1960 2013 2021 2021 2063 2080 2092 2092 2092 2083 2051 2014 2014 2014 2015 2084 2152 2167 2167 2167 2165 2165 2165 2182 2195 2207 2213 2216 2218 2223 2225 2230 2233 2240 2256 2272 2282 2291 2295 2295 2295 2281 2271 2267 2267 2267 2269 2269 2273 2273 2273 2273 2274 2274 2276 2280 2280 2280 2273 2271 2271 2271 2276 2279 2282 2287 2293 2293 2293 2291 2291 2291 2291 2291 2290 2274 2266 2266 2266 2270 2270 2270 2266 2249 2235 2228 2203 2104 1969 1805 1598 1415 1306 1242 1215 1212 1207 1200 1198 1196 1195 1194 1190 1186 1185 1185 1185 1183 1182 1182 1182 1179 1179 1170 1166 1166 1166 1170 1170 1170 1158 1157 1155 1154 1150 1142 1138 1138 1138 1139 1139 1139 1137 1136 1135 1129 1126 1122 1121 1119 1117 1115 1112 1109 1108 1105 1104 1102 1099 1098 1097 1095 1094 1093 1091 1089 1088 1086 1085 1084 1083 1082 1079 1078 1076 1076 1074 1072 1070 1069 1068 1066 1064 1061 1060 1057 1055 1054 1052 1051 1049 1046 1045 1043 1041 1039 1038 1035 1034 1033 1032 1030 1030 1029 1026 1023 1023 1023 1024 1024 1024 1024 1023 1023 1023 1022 1022 1022 1019 1017 1015 1013 1012 1012 1010 1008 1005 1002 1000 998 995 994 989 984 983 982 981 979 977 976 974 973 971 969 967 965 963 962 959 957 956 956 956 956 0 0 0 951 947 945 943 942 940 938 938 937 935 935 934 934 932 929 927 927 925 924 0 0 0 0 0 0 0 0 0 0 0 0 0 0 0 0 0 0 0 0 0 0 0 0 0 0 0 0 0 0 0 0 0 0 0 0 0 885 885 886 886 885 884 884 884 884 884 887 887 887 886 886 886 888 888 888 887 886 886 885 882 878 872 871 868 864 861 861 859 859 859 857 856 853 852 847 847 845 844 844 840 839 838 0 0 0 0 0 0 0 0 0 0 0 0 0 0 0 0 0 0 0 0 0 0 0 0 0 0 0 0 815 818 826 829 842 849 855 861 878 899 978 1212 1730 1769 1864 1977 2110 2171 2171 2171 2104 2057 2038 2037 2037 2035 2033 2031 2029 2028 2027 2024 2022 2020 2016 2012 2009 2006 2004 1997 1987 1975 1964 1948 1936 1926 1915 1909 1903 1896 1887 1878 1873 1869 1867 1863 1858 1855 1850 1846 1843 1839 1835 1828 1823 1817 1813 1807 1801 1795 1788 1782 1778 1774 1771 1768 1765 1759 1751 1744 1739 1737 1735 1731 1726 1720 1712 1706 1701 1696 1691 1684 1678 1674 1672 1669 1667 1662 1657 1652 1647 1642 1638 1632 1627 1622 1616 1609 1605 1602 1601 1598 1595 1594 1591 1586 1581 1576 1571 1567 1564 1562 1555 1551 1548 1542 1537 1535 1534 1532 1528 1525 1522 1520 1518 1515 1507 1504 1500 1496 1494 1492 1488 1485 1482 1482 1481 1480 1478 1478 1478 1478 1477
0 0 0 0 0 0 0 0 0 0 0 0 0 0 0 0 0 0 0 0 0 0 0 0 0 0 0 0 0 0 0 0 0 0 0 0 0 0 0 0 0 0 0 0 0 0 0 0 0 0 0 1410 1410 1410 1372 1370 1194 1177 1177 1177 1315 1315 1315 1136 1087 1065 1028 1028 1028 1145 1203 1208 1211 1264 1300 1312 1336 1370 1434 1586 1768 1907 1918 1930 1933 1951 1953 1959 1965 1974 1976 1978 1984 1978 1976 1976 1958 1946 1946 1946 1946 1946 1928 1879 1849 1840 1840 1849 1852 1853 1869 1908 1912 1912 1921 1997 1997 1997 1988 1976 1965 1921 1871 1849 1849 1849 2034 2083 2108 2112 2123 2130 2138 2138 2150 2156 2164 2173 2186 2198 2200 2201 2202 2205 2215 2235 2249 2259 2259 2259 2253 2249 2248 2247 2244 2242 2242 2242 2247 2251 2251 2252 2253 2251 2251 2251 2249 2246 2245 2245 2245 2246 2250 2257 2258 2262 2263 2263 2263 2263 2263 2268 2269 2269 2269 2261 2256 2254 2252 2250 2249 2241 2230 2224 2215 2196 2114 1985 1838 1656 1473 1321 1234 1209 1208 1207 1203 1199 1196 1195 1194 1191 1187 1186 1184 1184 1183 1181 1179 1179 1179 1179 1179 1170 1160 1160 1160 1160 1160 1160 1155 1153 1153 1151 1142 1140 1138 1137 1135 1135 1135 1134 1134 1131 1130 1127 1125 1121 1119 1118 1116 1113 1111 1109 1106 1104 1102 1099 1098 1096 1095 1093 1092 1091 1090 1088 1086 1085 1084 1083 1082 1082 1079 1078 1076 1075 1073 1071 1069 1068 1067 1066 1063 1061 1059 1056 1054 1052 1050 1049 1047 1045 1043 1042 1040 1038 1036 1034 1033 1032 1031 1031 1030 1029 1026 1023 1023 1023 1024 1024 1024 1024 1023 1023 1023 1023 1023 1023 1022 1019 1017 1013 1013 1012 1010 1008 1005 1002 1001 998 995 992 988 984 983 981 980 978 977 975 974 973 971 968 967 965 963 962 959 957 956 956 956 956 0 0 0 951 946 945 942 941 940 938 937 936 935 935 934 933 931 928 927 925 925 924 0 0 0 0 0 0 0 0 0 0 0 0 0 0 0 0 0 0 0 0 0 0 0 0 0 0 0 0 0 0 0 0 0 0 0 0 880 889 889 889 885 884 881 881 881 884 884 885 885 885 884 884 884 886 886 886 886 886 885 885 882 878 872 871 868 864 861 859 859 859 857 857 856 853 851 847 847 844 842 841 840 839 0 0 0 0 0 0 0 0 0 0 0 0 0 0 0 0 0 0 0 0 0 0 0 0 0 0 0 0 809 815 822 828 833 842 849 855 869 883 909 1048 1500 1730 1769 1877 2051 2159 2173 2173 2173 2110 2065 2049 2043 2037 2035 2033 2031 2031 2028 2028 2025 2024 2021 2017 2012 2009 2006 2003 1994 1986 1976 1965 1951 1937 1927 1919 1914 1908 1901 1893 1885 1873 1869 1867 1864 1859 1855 1851 1847 1845 1842 1838 1831 1825 1817 1814 1807 1802 1796 1789 1784 1780 1776 1773 1769 1765 1761 1753 1746 1740 1738 1735 1731 1727 1720 1714 1707 1701 1696 1691 1685 1678 1674 1673 1671 1667 1662 1657 1651 1646 1642 1638 1633 1629 1624 1618 1612 1608 1602 1601 1598 1595 1594 1591 1587 1581 1577 1572 1569 1566 1562 1555 1551 1548 1542 1537 1535 1534 1530 1527 1525 1522 1521 1519 1517 1511 1507 1501 1497 1495 1492 1490 1488 1484 1483 1482 1480 1478 1478 1478 1478 1478
0 0 0 0 0 0 0 0 0 0 0 0 0 0 0 0 0 0 0 0 0 0 0 0 0 0 0 0 0 0 0 0 0 0 0 0 0 0 0 0 0 0 0 0 0 0 0 0 0 0 0 1397 1397 1397 1364 1363 1131 1131 1131 1177 1315 1315 1315 1179 1087 1065 1028 0 0 1145 1203 1211 1245 1287 1300 1302 1322 1359 1408 1526 1723 1863 1897 1904 1906 1917 1924 1924 1925 1925 1923 1903 1901 1888 1881 1862 1851 1838 1835 1836 1836 1835 1835 1822 1809 1809 1799 1791 1791 1780 1780 1780 1802 1803 1826 1826 1826 1734 1702 1683 1652 1612 1499 1483 1483 1483 1548 1718 1793 1830 1931 2031 2073 2103 2106 2106 2110 2129 2148 2166 2170 2170 2170 2170 2173 2188 2200 2209 2210 2212 2219 2219 2219 2217 2214 2214 2214 2215 2222 2227 2229 2230 2230 2229 2225 2218 2215 2215 2215 2213 2218 2220 2221 2229 2235 2235 2235 2235 2233 2232 2232 2232 2250 2250 2250 2246 2244 2239 2238 2236 2224 2213 2206 2199 2185 2123 2013 1877 1695 1527 1356 1231 1204 1204 1202 1202 1202 1199 1195 1195 1192 1188 1186 1185 1184 1182 1181 1179 1175 1175 1175 1175 1175 1174 1158 1158 1155 1154 1154 1152 1152 1149 1147 1145 1142 1140 1138 1137 1134 1132 1128 1128 1128 1128 1128 1126 1123 1120 1118 1117 1114 1112 1109 1107 1104 1103 1100 1098 1096 1095 1094 1092 1091 1089 1088 1087 1085 1083 1082 1082 1082 1082 1079 1078 1076 1073 1073 1070 1069 1068 1066 1064 1060 1057 1057 1055 1053 1052 1050 1049 1046 1044 1042 1041 1038 1037 1036 1034 1033 1031 1031 1030 1029 1029 1027 1024 1024 1024 1024 1024 1024 1024 1023 1023 1023 1023 1023 1023 1023 1020 1018 1016 1015 1013 1010 1008 1005 1003 1001 999 995 990 987 983 981 981 979 976 976 975 974 972 970 967 966 964 963 962 958 955 955 955 955 955 11 11 11 944 944 944 942 939 939 938 934 934 934 933 933 933 931 928 927 925 925 924 912 912 911 911 0 0 0 0 0 0 0 0 0 0 0 0 0 0 0 0 0 0 0 0 0 0 0 0 0 0 0 0 0 0 0 0 880 889 889 889 885 884 881 881 881 883 884 884 884 883 882 882 882 883 885 885 885 883 882 882 879 875 871 867 863 861 860 859 859 857 857 857 856 853 851 847 843 839 837 836 833 0 0 0 0 0 0 0 0 0 0 0 0 0 0 0 0 0 0 0 0 0 0 0 0 0 0 0 0 805 809 815 822 829 840 843 849 857 875 909 1001 1251 1590 1734 1781 1964 2123 2198 2198 2198 2188 2119 2075 2049 2047 2047 2043 2038 2034 2031 2031 2028 2027 2024 2023 2020 2015 2010 2007 2003 1993 1985 1976 1965 1952 1937 1928 1922 1917 1910 1904 1898 1892 1881 1870 1867 1865 1859 1855 1852 1849 1847 1842 1838 1833 1826 1819 1814 1808 1803 1798 1791 1786 1782 1778 1774 1769 1765 1761 1755 1749 1744 1739 1736 1733 1727 1722 1716 1709 1705 1699 1695 1686 1680 1676 1675 1671 1667 1662 1657 1651 1646 1642 1638 1634 1630 1626 1623 1617 1612 1605 1601 1598 1595 1594 1591 1587 1581 1577 1572 1570 1566 1562 1555 1549 1544 1538 1537 1535 1532 1527 1525 1525 1522 1521 1519 1517 1514 1511 1506 1501 1497 1494 1491 1489 1487 1486 1486 1485 1485 1484 1484 1476 1476
0 0 0 0 0 0 0 0 0 0 0 0 0 0 0 0 0 0 0 0 0 0 0 0 0 0 0 0 0 0 0 0 0 0 0 0 0 0 0 0 0 0 0 0 0 0 0 0 0 0 0 0 0 1317 1317 1317 1090 1090 1090 1105 1315 1315 1315 1190 1184 1179 0 0 1033 1165 1203 1215 1245 1293 1298 1300 1302 1312 1349 1524 1671 1811 1825 1827 1863 1866 1873 1873 1873 1864 1824 1811 1798 1792 1756 1708 1708 1708 1712 1715 1723 1723 1723 1714 1701 1689 1672 1613 1561 1520 1518 1518 1512 1512 1512 1494 1465 1442 1376 1330 1295 1279 1279 1279 1300 1315 1340 1385 1413 1457 1510 1560 1645 1704 1835 1946 2013 2063 2095 2115 2115 2115 2102 2102 2102 2129 2141 2143 2146 2153 2172 2184 2184 2184 2180 2171 2171 2171 2198 2200 2200 2200 2197 2184 2180 2179 2179 2177 2176 2176 2172 2172 2172 2182 2202 2202 2202 2197 2196 2194 2194 2194 2196 2196 2205 2212 2212 2212 2212 2212 2183 2179 2173 2170 2122 2014 1918 1751 1592 1403 1255 1210 1203 1203 1202 1202 1200 1196 1193 1192 1188 1186 1185 1183 1182 1179 1177 1175 1175 1175 1175 1175 1175 1174 1158 1158 1155 1154 1154 1152 1152 1149 1147 1145 1142 1142 1140 1138 1135 1132 1128 1128 1128 1127 1124 1122 1120 1118 1116 1114 1112 1110 1107 1105 1104 1101 1099 1096 1095 1094 1092 1090 1089 1088 1086 1085 1084 1082 1081 1081 1081 1081 1081 1080 1076 1071 1070 1068 1067 1066 1065 1064 1060 1055 1055 1052 1050 1049 1047 1047 1045 1042 1041 1039 1038 1036 1035 1034 1032 1031 1031 1031 1029 1028 1028 1027 1027 1026 1026 1025 1024 1024 1024 1021 1021 1021 1023 1023 1023 1021 1019 1017 1016 1015 1013 1011 1006 1004 1001 999 995 989 986 982 981 980 977 976 974 972 972 972 970 967 965 964 963 962 958 955 955 955 955 955 8 8 8 941 941 941 940 939 939 938 934 934 932 932 932 932 931 931 932 931 931 924 916 916 915 915 0 0 0 0 0 0 0 0 0 0 0 0 0 0 0 0 0 0 0 0 0 0 0 0 0 0 0 0 0 0 0 0 880 890 890 890 885 884 882 882 882 883 883 883 883 880 880 880 880 882 882 882 882 879 876 874 872 869 867 865 862 860 860 860 859 857 857 855 853 853 851 840 838 837 834 832 0 0 0 0 0 0 0 0 0 0 0 0 0 0 0 0 0 0 0 0 0 0 0 0 0 0 0 0 0 807 814 817 822 833 841 843 849 859 885 946 1085 1350 1644 1734 1845 2075 2190 2241 2241 2241 2204 2134 2080 2051 2048 2047 2043 2038 2034 2034 2031 2030 2027 2025 2024 2020 2016 2013 2011 2003 1993 1985 1975 1965 1952 1938 1931 1923 1918 1912 1907 1900 1894 1888 1880 1874 1868 1862 1858 1853 1849 1847 1843 1838 1833 1827 1820 1814 1808 1804 1800 1794 1790 1786 1780 1775 1769 1765 1761 1756 1750 1746 1741 1737 1733 1728 1722 1716 1710 1706 1702 1696 1689 1683 1680 1676 1671 1667 1662 1657 1651 1646 1642 1639 1634 1630 1626 1623 1618 1614 1608 1603 1599 1597 1595 1592 1588 1583 1578 1574 1570 1566 1562 1553 1549 1543 1537 1535 1534 1532 1527 1525 1525 1523 1521 1519 1518 1515 1512 1511 1505 1499 1495 1493 1492 1492 1492 1492 1493 1493 1493 1487 1478 1478
0 0 0 0 0 0 0 0 0 0 0 0 0 0 0 0 0 0 0 0 0 0 0 0 0 0 0 0 0 0 0 0 0 0 0 0 0 0 0 0 0 0 0 0 0 0 0 0 0 0 0 0 0 0 0 0 0 944 950 1057 1134 1179 1184 1190 1184 1179 1177 1165 1165 1165 1202 1215 1243 1243 1243 1243 1243 1247 1292 1468 1532 1543 1659 1736 1757 1757 1738 1736 1700 1680 1676 1660 1652 1651 1523 1457 1444 1444 1444 1447 1449 1449 1447 1440 1425 1406 1363 1345 1333 1315 1305 1305 1299 1296 1296 1265 1241 1214 1205 1204 1204 1205 1212 1213 1214 1221 1233 1245 1263 1274 1287 1311 1341 1376 1418 1472 1531 1611 1654 1713 1766 1822 1896 1897 1926 2016 2067 2079 2098 2114 2114 2114 2103 2098 2097 2094 2094 2094 2106 2109 2109 2111 2114 2115 2116 2136 2136 2136 2123 2122 2120 2119 2104 2092 2088 2082 2082 2082 2083 2083 2083 2063 2062 2058 2052 2059 2059 2059 2059 2059 2037 2021 2013 2002 1986 1919 1753 1622 1438 1280 1222 1209 1201 1200 1199 1198 1195 1192 1191 1190 1186 1183 1182 1181 1179 1175 1174 1171 1171 1171 1171 1172 1172 1171 1162 1157 1157 1154 1154 1152 1152 1149 1147 1145 1143 1142 1142 1140 1135 1129 1128 1127 1127 1125 1124 1120 1117 1116 1113 1111 1109 1107 1106 1104 1102 1100 1097 1096 1094 1092 1091 1089 1088 1087 1085 1084 1082 1081 1081 1081 1081 1082 1082 1082 1077 1069 1067 1066 1066 1065 1065 1064 1060 1055 1055 1051 1050 1049 1045 1043 1042 1042 1040 1039 1036 1036 1035 1033 1031 1031 1031 1031 1031 1029 1029 1029 1029 1029 1029 1025 1025 1024 1024 1021 1020 1020 1020 1021 1021 1021 1019 1017 1016 1015 1013 1011 1006 1004 1003 999 990 987 982 981 980 979 976 975 972 971 969 969 968 966 965 963 963 962 0 0 0 950 0 0 0 0 0 0 0 936 937 938 937 936 933 931 930 929 929 929 929 931 932 931 931 924 921 919 916 916 908 902 900 0 0 0 0 0 0 0 0 0 0 0 0 0 0 0 0 0 0 0 0 0 0 0 0 0 0 0 0 873 880 889 889 897 897 896 888 884 884 884 883 883 881 879 879 879 879 880 882 882 882 877 874 871 870 869 867 865 862 860 860 859 859 857 855 852 851 850 848 838 837 837 832 0 0 0 0 0 0 0 0 0 0 0 0 0 0 0 0 0 0 0 0 0 0 0 0 0 0 0 0 0 0 812 817 822 824 834 841 843 849 874 915 995 1184 1620 1651 1734 1946 2133 2215 2246 2246 2246 2217 2166 2082 2055 2050 2048 2044 2040 2038 2035 2033 2031 2029 2026 2024 2021 2017 2017 2013 2004 1993 1985 1975 1964 1952 1945 1932 1924 1918 1913 1908 1901 1895 1889 1883 1877 1873 1869 1861 1855 1850 1847 1844 1839 1834 1828 1823 1816 1809 1805 1802 1798 1792 1787 1782 1775 1770 1766 1761 1757 1751 1746 1742 1737 1733 1728 1722 1716 1711 1706 1702 1697 1691 1684 1680 1676 1671 1667 1662 1657 1651 1648 1643 1639 1634 1630 1626 1623 1618 1614 1609 1606 1602 1598 1595 1593 1588 1585 1580 1575 1570 1566 1560 1553 1549 1543 1537 1535 1534 1532 1527 1525 1525 1524 1521 1519 1518 1516 1512 1511 1507 1499 1497 1496 1495 1495 1494 1494 1494 1493 1493 1487 1478 1478
0 0 0 0 0 0 0 0 0 0 0 0 0 0 0 0 0 0 0 0 0 0 0 0 0 0 0 0 0 0 0 0 0 0 0 0 0 0 0 0 0 0 0 0 0 0 0 0 0 0 0 0 0 0 0 0 0 930 944 983 989 1027 1071 1122 1177 1177 1177 1165 1165 1165 1190 1215 1239 1239 1239 1224 1224 1224 1252 1336 1389 1490 1563 1563 1563 1520 1487 1446 1410 1384 1361 1310 1277 1259 1250 1250 1250 1250 1250 1248 1243 1236 1236 1230 1216 1203 1202 1198 1198 1198 1198 1213 1213 1213 1211 1191 1186 1184 1181 1180 1180 1180 1180 1177 1175 1175 1175 1189 1198 1206 1210 1222 1240 1257 1271 1295 1312 1350 1370 1386 1418 1450 1484 1485 1520 1574 1614 1652 1684 1710 1729 1754 1777 1802 1825 1837 1846 1862 1863 1863 1863 1859 1858 1852 1839 1808 1772 1772 1772 1784 1796 1804 1807 1807 1807 1803 1797 1785 1778 1771 1760 1754 1754 1753 1752 1739 1730 1725 1724 1722 1713 1700 1685 1667 1664 1637 1573 1434 1300 1239 1219 1209 1202 1200 1198 1196 1194 1191 1189 1188 1184 1182 1181 1179 1176 1174 1172 1169 1167 1166 1163 1162 1162 1161 1161 1157 1155 1154 1152 1150 1150 1148 1147 1146 1144 1143 1143 1143 1135 1130 1128 1127 1125 1124 1120 1117 1116 1113 1111 1109 1108 1106 1103 1102 1100 1098 1096 1094 1092 1091 1089 1088 1086 1085 1084 1083 1082 1081 1080 1080 1080 1082 1082 1082 1077 1068 1066 1065 1064 1064 1064 1063 1062 1055 1055 1051 1050 1049 1045 1043 1042 1040 1039 1038 1036 1035 1034 1033 1032 1031 1031 1031 1031 1030 1030 1030 1030 1030 1030 1026 1025 1025 1024 1021 1020 1020 1020 1020 1019 1019 1019 1017 1016 1015 1013 1011 1006 1004 1003 999 990 983 980 980 980 978 975 974 971 968 967 966 965 965 965 963 962 962 0 0 0 948 0 0 0 0 0 0 0 931 932 933 933 933 933 929 928 928 928 928 932 934 934 936 936 936 927 923 919 919 910 910 909 907 907 0 0 0 0 0 0 0 0 0 0 0 0 0 0 0 0 0 0 0 0 0 0 0 0 0 875 880 881 886 895 897 897 897 896 884 883 882 881 881 878 876 876 876 878 878 879 879 879 875 872 871 870 869 867 865 862 860 860 859 859 857 853 850 847 844 837 837 837 837 827 0 0 0 0 0 0 0 0 0 0 0 0 0 0 0 0 0 0 0 0 0 0 0 0 0 0 0 0 0 814 822 823 824 829 834 841 843 854 881 934 1079 1440 1626 1653 1738 2033 2181 2230 2251 2251 2251 2220 2198 2107 2061 2050 2049 2045 2043 2039 2035 2034 2031 2030 2028 2025 2021 2018 2018 2015 2005 1995 1985 1975 1963 1953 1947 1939 1926 1920 1914 1909 1902 1896 1889 1884 1879 1876 1872 1864 1857 1851 1847 1844 1840 1835 1828 1824 1817 1813 1810 1805 1801 1794 1788 1782 1777 1771 1767 1761 1757 1752 1746 1742 1737 1733 1728 1722 1715 1711 1706 1702 1697 1691 1684 1680 1676 1672 1667 1662 1657 1653 1648 1643 1639 1634 1629 1625 1622 1618 1614 1609 1606 1602 1598 1595 1593 1589 1586 1581 1575 1569 1565 1560 1553 1550 1543 1537 1535 1534 1532 1528 1528 1527 1527 1525 1522 1518 1516 1513 1511 1507 1503 1500 1498 1498 1497 1495 1494 1494 1493 1493 1487 1478 1478
0 0 0 0 0 0 0 0 0 0 0 0 0 0 0 0 0 0 0 0 0 0 0 0 0 0 0 0 0 0 0 0 0 0 0 0 0 0 0 0 0 0 0 0 0 0 0 0 0 0 0 0 0 0 4 0 0 904 904 930 930 936 985 1039 1098 1153 1153 1153 1146 1146 1146 1173 1173 1173 1154 1151 1151 1151 1151 1159 1228 1281 1281 1281 1246 1229 1218 1207 1203 1199 1199 1160 1131 1131 1131 1160 1161 1161 1160 1159 1153 1149 1147 1146 1145 1145 1143 1143 1144 1144 1151 1159 1166 1169 1169 1177 1177 1177 1176 1166 1158 1158 1158 1158 1159 1159 1160 1162 1164 1172 1180 1186 1190 1193 1195 1211 1231 1238 1242 1242 1251 1268 1283 1296 1296 1310 1331 1345 1362 1379 1396 1413 1427 1453 1468 1469 1473 1475 1484 1495 1495 1495 1486 1483 1476 1454 1444 1439 1439 1439 1442 1446 1458 1466 1466 1466 1465 1459 1453 1450 1450 1445 1442 1440 1434 1426 1422 1420 1420 1420 1420 1420 1416 1386 1384 1381 1349 1285 1242 1220 1212 1209 1202 1198 1196 1194 1192 1188 1186 1184 1181 1180 1178 1177 1175 1173 1171 1167 1164 1162 1161 1160 1160 1160 1157 1157 1155 1154 1152 1150 1150 1148 1148 1147 1147 1146 1146 1138 1134 1130 1127 1125 1123 1120 1118 1115 1112 1110 1108 1107 1105 1103 1102 1100 1098 1096 1094 1092 1091 1090 1088 1086 1086 1085 1084 1083 1082 1081 1079 1079 1079 1082 1082 1082 1077 1067 1065 1063 1062 1062 1062 1061 1061 1058 1054 1049 1048 1045 1043 1043 1042 1040 1039 1037 1036 1035 1034 1033 1033 1033 1033 1033 1033 1031 1031 1031 1031 1030 1030 1026 1026 1025 1025 1024 1022 1020 1020 1020 1019 1019 1019 1017 1015 1012 1009 1008 1005 1003 1001 997 990 983 980 980 979 977 975 971 970 968 966 966 965 965 965 962 961 960 951 949 948 945 0 0 0 0 0 0 0 0 0 0 0 0 0 923 924 925 925 927 932 934 934 935 935 935 930 929 924 922 919 915 914 911 909 908 905 904 0 0 0 0 0 0 0 0 0 0 0 0 0 0 0 0 0 0 0 0 0 868 876 877 881 883 891 897 897 897 896 884 883 881 880 878 876 875 875 875 875 876 876 876 876 874 872 871 870 869 869 865 862 860 859 859 857 852 847 845 844 843 838 837 834 834 822 0 0 0 0 0 0 0 0 0 0 0 0 0 0 0 0 0 0 0 0 0 0 0 0 0 0 0 0 812 814 823 827 829 830 838 841 847 874 909 1005 1253 1475 1640 1653 1854 2088 2194 2239 2251 2251 2251 2231 2208 2124 2069 2053 2050 2049 2046 2040 2036 2034 2032 2030 2028 2025 2022 2018 2018 2015 2006 1995 1985 1975 1963 1953 1949 1939 1926 1920 1915 1909 1903 1896 1890 1884 1880 1876 1872 1864 1857 1851 1847 1845 1840 1835 1828 1824 1820 1816 1813 1808 1802 1794 1788 1783 1777 1771 1767 1762 1757 1752 1746 1742 1736 1731 1726 1719 1715 1711 1706 1702 1697 1691 1684 1679 1676 1672 1668 1662 1657 1653 1649 1644 1639 1634 1629 1623 1620 1615 1612 1609 1606 1602 1598 1595 1593 1590 1586 1581 1575 1569 1565 1560 1555 1552 1547 1542 1540 1536 1532 1530 1530 1529 1529 1529 1524 1518 1516 1513 1511 1508 1505 1504 1503 1502 1499 1495 1494 1494 1492 1489 1483 1478 1478
0 0 0 0 0 0 0 0 0 0 0 0 0 0 0 0 0 0 0 0 0 0 0 0 0 0 0 0 0 0 0 0 0 0 0 0 0 0 0 0 0 0 0 0 0 0 0 0 0 0 0 0 0 0 990 990 990 955 950 904 904 904 911 977 995 1049 1104 1104 1108 1110 1110 1113 1114 1115 1115 1115 1115 1113 1113 1125 1126 1163 1163 1163 1153 1138 1138 1138 1130 1130 1130 1117 1103 1103 1103 1112 1113 1118 1118 1118 1119 1119 1117 1117 1119 1120 1122 1127 1127 1128 1132 1132 1133 1134 1134 1144 1150 1155 1155 1155 1150 1150 1150 1151 1153 1154 1154 1155 1155 1155 1155 1155 1156 1156 1162 1173 1185 1189 1191 1194 1200 1209 1216 1221 1222 1225 1227 1230 1232 1235 1242 1258 1275 1284 1290 1290 1291 1292 1298 1299 1300 1300 1300 1293 1289 1288 1286 1286 1282 1282 1282 1286 1295 1301 1307 1307 1307 1305 1297 1294 1293 1293 1293 1294 1294 1297 1297 1300 1304 1309 1309 1309 1297 1294 1290 1289 1272 1242 1221 1210 1208 1207 1202 1198 1196 1191 1187 1185 1183 1181 1178 1177 1176 1175 1172 1170 1169 1166 1163 1161 1160 1159 1159 1155 1153 1151 1150 1150 1150 1150 1150 1149 1149 1149 1149 1149 1146 1138 1134 1129 1127 1122 1119 1117 1116 1113 1112 1109 1106 1105 1104 1102 1100 1097 1096 1094 1093 1091 1090 1087 1086 1085 1084 1084 1083 1083 1081 1080 1079 1079 1079 1079 1079 1079 1077 1067 1063 1062 1062 1059 1059 1058 1056 1056 1054 1049 1047 1045 1044 1043 1042 1040 1039 1037 1036 1034 1033 1033 1033 1033 1033 1033 1033 1030 1030 1030 1030 1030 1030 1027 1026 1026 1026 1026 1025 1022 1020 1020 1019 1019 1019 1015 1008 1007 1006 1003 1000 998 997 995 987 982 979 979 978 976 971 970 970 968 966 966 965 965 965 961 958 953 951 949 948 945 0 0 0 0 0 0 0 0 0 0 0 0 0 922 923 924 924 926 929 931 931 931 931 932 932 931 930 923 923 923 920 917 909 908 907 906 905 0 0 0 0 0 0 0 0 0 0 0 0 0 0 0 0 0 0 0 0 868 876 878 881 883 891 896 896 896 889 883 882 881 878 877 875 874 873 873 873 873 873 873 873 873 872 871 871 871 869 865 862 860 859 859 857 851 842 842 840 839 838 834 830 829 0 0 0 0 0 0 0 0 0 0 0 0 0 0 0 0 0 0 0 0 0 0 0 0 0 0 0 0 0 812 815 824 829 831 831 840 843 865 899 966 1143 1396 1686 1704 1765 1986 2169 2251 2274 2274 2274 2265 2242 2218 2141 2078 2055 2052 2051 2048 2042 2037 2036 2032 2030 2028 2025 2024 2020 2018 2015 2008 2002 1991 1981 1963 1953 1949 1939 1926 1921 1916 1911 1903 1896 1891 1886 1881 1876 1872 1864 1857 1851 1848 1845 1840 1835 1830 1825 1821 1817 1813 1808 1802 1795 1788 1783 1778 1771 1767 1763 1758 1753 1747 1741 1735 1728 1726 1719 1714 1709 1705 1701 1695 1690 1684 1679 1676 1674 1669 1663 1658 1653 1650 1645 1639 1635 1629 1623 1619 1615 1611 1607 1603 1601 1598 1595 1593 1590 1586 1581 1575 1569 1565 1561 1558 1555 1553 1553 1546 1539 1535 1533 1532 1532 1531 1529 1524 1518 1517 1513 1511 1509 1509 1509 1508 1508 1503 1495 1493 1491 1489 1489 1483 1480 1480
0 0 0 0 0 0 0 1 1 0 0 1099 1099 1099 0 0 0 0 0 0 0 0 0 0 0 0 0 0 0 0 0 0 0 0 0 0 0 0 0 0 0 0 0 0 0 0 0 0 0 0 0 0 0 1005 1020 1020 1020 991 967 904 904 904 911 977 995 1049 1060 1062 1074 1076 1076 1082 1082 1097 1097 1097 1097 1097 1094 1096 1108 1108 1108 1109 1109 1109 1097 1094 1093 1093 1094 1094 1094 1096 1096 1096 1097 1097 1099 1100 1102 1102 1102 1102 1101 1101 1101 1108 1110 1110 1111 1111 1111 1113 1120 1121 1124 1133 1142 1142 1142 1143 1143 1146 1148 1148 1148 1150 1148 1150 1150 1150 1152 1152 1155 1161 1165 1169 1174 1177 1179 1183 1188 1191 1191 1191 1191 1188 1185 1185 1185 1190 1205 1214 1217 1219 1221 1225 1227 1228 1229 1228 1228 1224 1218 1218 1218 1218 1218 1219 1220 1229 1234 1236 1239 1239 1239 1238 1229 1228 1228 1228 1232 1241 1243 1244 1246 1251 1253 1253 1253 1251 1243 1243 1241 1240 1225 1211 1209 1207 1206 1203 1198 1194 1191 1187 1186 1184 1182 1180 1177 1175 1173 1172 1170 1169 1167 1164 1161 1159 1158 1157 1153 1153 1151 1148 1144 1144 1144 1145 1146 1147 1148 1150 1150 1150 1146 1136 1129 1127 1126 1122 1119 1116 1114 1113 1111 1108 1105 1104 1102 1100 1098 1096 1094 1093 1091 1089 1088 1086 1085 1084 1083 1082 1082 1080 1080 1080 1078 1078 1078 1078 1078 1078 1076 1067 1064 1062 1062 1058 1058 1058 1056 1056 1054 1048 1047 1045 1044 1044 1042 1041 1040 1037 1034 1034 1031 1031 1031 1033 1033 1033 1033 1030 1030 1028 1028 1028 1026 1026 1026 1026 1026 1026 1026 1025 1021 1020 1019 1019 1017 1013 1007 1006 1005 1002 998 996 996 995 987 982 976 975 974 972 970 969 969 966 964 964 964 964 964 960 952 951 949 948 945 944 0 0 0 0 0 0 0 0 0 0 0 0 0 922 923 923 924 926 926 927 928 928 928 929 931 931 931 927 927 927 925 919 908 908 908 908 905 903 900 896 0 0 0 0 0 0 0 0 0 0 0 0 0 0 0 0 0 868 876 881 882 887 890 890 890 888 883 883 882 879 877 876 875 874 873 873 873 873 873 873 873 873 873 872 872 872 870 865 862 860 859 859 857 851 842 842 840 839 838 832 829 0 0 0 0 0 0 0 0 0 0 0 0 0 0 0 0 0 0 0 0 0 0 0 0 0 0 0 0 0 0 812 817 825 829 833 842 844 855 882 924 1030 1320 1749 1751 1753 1865 2036 2171 2251 2274 2277 2277 2277 2259 2234 2160 2090 2063 2052 2051 2050 2045 2042 2039 2034 2031 2028 2026 2024 2021 2019 2015 2010 2003 1993 1981 1969 1957 1949 1937 1926 1922 1917 1911 1906 1899 1893 1887 1882 1877 1871 1864 1858 1853 1848 1845 1840 1835 1831 1827 1823 1818 1814 1808 1803 1796 1789 1783 1779 1774 1769 1765 1760 1754 1747 1741 1735 1728 1725 1719 1713 1709 1705 1701 1695 1690 1684 1679 1677 1675 1671 1664 1658 1655 1651 1645 1641 1635 1630 1623 1619 1615 1611 1607 1603 1600 1598 1595 1593 1590 1588 1582 1577 1571 1566 1562 1560 1557 1554 1553 1549 1544 1541 1539 1536 1532 1531 1529 1524 1519 1517 1513 1512 1512 1512 1512 1512 1512 1507 1496 1493 1491 1489 1489 1483 1483 1483
1 0 0 0 1 0 1346 1440 1440 1440 1375 1135 1103 1102 1102 0 0 0 0 0 0 0 0 0 0 0 0 0 0 0 0 0 0 0 0 0 0 0 0 0 0 0 0 0 0 0 0 0 0 0 0 829 901 1005 1077 1078 1078 1077 967 937 936 936 937 977 995 1049 1059 1059 1059 1062 1072 1073 1076 1086 1087 1087 1086 1086 1080 1080 1080 1080 1080 1087 1087 1087 1085 1068 1065 1065 1065 1065 1068 1083 1086 1087 1087 1092 1095 1096 1096 1096 1096 1096 1096 1096 1094 1092 1092 1092 1093 1097 1100 1105 1109 1111 1114 1119 1124 1129 1132 1135 1141 1142 1142 1142 1143 1143 1143 1144 1145 1148 1149 1151 1154 1154 1157 1160 1164 1166 1169 1170 1173 1177 1180 1180 1180 1180 1180 1177 1176 1175 1175 1175 1177 1181 1188 1192 1196 1196 1196 1196 1196 1194 1193 1192 1191 1191 1191 1191 1195 1200 1204 1208 1210 1212 1213 1213 1213 1208 1208 1208 1213 1217 1219 1219 1219 1224 1228 1231 1231 1231 1231 1227 1225 1217 1208 1203 1202 1200 1199 1197 1195 1190 1188 1186 1185 1182 1181 1178 1175 1173 1171 1170 1168 1166 1164 1162 1160 1157 1156 1155 1153 1151 1150 1148 1144 1144 1142 1144 1145 1147 1148 1150 1150 1150 1143 1134 1129 1124 1122 1120 1118 1116 1113 1111 1108 1106 1103 1102 1101 1099 1096 1094 1093 1091 1089 1087 1086 1084 1083 1082 1082 1081 1081 1079 1079 1078 1077 1077 1077 1075 1075 1075 1074 1068 1064 1062 1062 1058 1056 1055 1054 1052 1047 1043 1041 1041 1041 1041 1041 1041 1040 1037 1034 1033 1031 1031 1031 1030 1030 1030 1027 1027 1024 1022 1021 1021 1021 1022 1024 1027 1027 1027 1026 1025 1022 1020 1019 1016 1016 1010 1006 1005 1001 997 991 991 989 987 983 982 976 974 972 970 969 969 968 966 964 963 963 959 957 954 950 948 947 947 943 938 0 0 0 0 0 0 0 0 0 0 0 0 0 919 922 924 924 924 924 924 924 924 927 929 931 931 931 927 927 927 925 917 908 908 908 906 903 903 900 896 890 0 0 0 0 0 0 0 0 0 0 0 0 0 0 0 865 868 876 878 881 887 886 886 886 882 881 879 879 879 877 875 875 874 873 873 873 873 873 873 873 873 873 873 872 872 871 867 862 860 860 859 859 851 842 842 840 839 837 837 834 0 0 0 0 0 0 0 0 0 0 0 0 0 0 0 0 0 0 0 0 0 0 0 0 0 0 0 0 0 805 812 817 825 829 839 843 848 857 890 951 1145 1649 1749 1770 1795 1881 2065 2171 2251 2274 2277 2277 2277 2259 2241 2198 2104 2063 2053 2051 2050 2047 2045 2041 2035 2031 2028 2026 2024 2023 2020 2015 2010 2003 1997 1981 1969 1957 1949 1937 1926 1924 1918 1913 1908 1902 1893 1888 1882 1877 1871 1864 1859 1854 1850 1845 1840 1835 1831 1827 1824 1819 1816 1809 1804 1798 1792 1786 1782 1777 1772 1769 1764 1755 1747 1741 1735 1728 1725 1719 1713 1709 1705 1701 1695 1690 1685 1680 1677 1675 1671 1666 1660 1656 1652 1647 1642 1636 1630 1623 1619 1615 1611 1607 1603 1600 1598 1596 1593 1590 1588 1583 1579 1574 1570 1563 1561 1558 1557 1556 1550 1549 1549 1547 1543 1534 1532 1528 1524 1519 1517 1514 1513 1513 1513 1513 1513 1513 1510 1500 1493 1491 1489 1489 1486 1484 1484
1387 1387 1387 1387 1388 1394 1449 1453 1453 1453 1426 1264 1119 1119 1119 1119 1113 1113 930 930 930 968 988 988 988 0 0 0 0 0 0 0 0 0 0 0 0 0 0 0 0 0 0 0 0 0 0 0 0 0 785 836 901 1005 1077 1078 1078 1077 967 967 967 1008 1035 1042 1042 1037 1044 1044 1047 1051 1067 1073 1073 1073 1073 1068 1067 1067 1067 1066 1066 1068 1070 1070 1072 1072 1072 1057 1054 1054 1054 1058 1059 1063 1070 1072 1074 1077 1078 1078 1079 1079 1083 1088 1090 1090 1090 1089 1089 1089 1091 1092 1096 1102 1106 1106 1106 1107 1111 1118 1125 1129 1133 1136 1136 1136 1137 1137 1138 1141 1144 1146 1147 1147 1148 1150 1151 1154 1157 1160 1161 1161 1161 1161 1165 1165 1167 1169 1169 1169 1169 1167 1167 1167 1169 1176 1180 1180 1180 1179 1179 1179 1181 1185 1185 1185 1185 1184 1184 1184 1187 1189 1189 1189 1193 1199 1204 1205 1205 1205 1205 1205 1206 1207 1208 1208 1209 1211 1217 1219 1221 1221 1221 1221 1215 1212 1205 1201 1199 1197 1195 1194 1191 1188 1187 1185 1183 1180 1178 1176 1174 1172 1169 1167 1166 1165 1163 1161 1158 1156 1153 1151 1151 1150 1149 1146 1143 1143 1142 1143 1144 1145 1150 1150 1150 1143 1137 1133 1129 1124 1120 1118 1116 1113 1110 1108 1105 1104 1103 1101 1099 1097 1094 1092 1091 1090 1088 1086 1084 1083 1083 1082 1080 1080 1079 1079 1079 1077 1077 1077 1077 1077 1077 1075 1074 1069 1069 1066 1061 1057 1053 1051 1050 1049 1047 1043 1041 1041 1041 1041 1041 1041 1040 1037 1032 1027 1027 1027 1026 1025 1024 1023 1023 1023 1018 1017 1017 1017 1020 1022 1024 1027 1027 1027 1027 1025 1022 1020 1018 1015 1014 1010 1004 1000 996 991 983 982 981 981 978 973 973 972 972 968 967 967 965 964 958 956 956 955 955 952 0 0 0 0 0 0 0 0 0 0 0 0 0 0 0 0 0 4 919 921 921 923 924 924 924 924 924 924 927 928 928 928 928 927 923 923 915 911 906 906 906 906 903 903 900 896 896 894 893 893 0 0 0 0 0 0 0 0 0 0 0 864 868 872 877 878 878 884 884 884 884 882 879 879 878 877 877 875 875 875 875 874 874 874 874 873 873 873 873 873 873 873 871 868 864 864 864 861 861 858 846 846 841 837 837 833 829 0 0 0 0 0 0 0 0 0 0 0 0 0 0 0 0 0 0 0 0 0 0 0 0 0 0 0 0 0 807 812 823 828 838 843 844 849 872 907 1014 1328 1681 1749 1771 1810 1890 2065 2171 2242 2262 2271 2271 2271 2261 2241 2210 2113 2064 2054 2052 2050 2049 2048 2044 2040 2031 2028 2026 2026 2024 2019 2017 2010 2004 1997 1982 1969 1957 1948 1937 1929 1925 1921 1915 1910 1904 1896 1889 1883 1877 1871 1864 1860 1856 1852 1846 1840 1835 1831 1828 1824 1821 1816 1812 1805 1800 1794 1789 1784 1779 1776 1773 1767 1758 1748 1741 1736 1731 1725 1719 1713 1709 1704 1700 1696 1690 1685 1681 1677 1675 1672 1666 1660 1656 1652 1647 1642 1637 1631 1627 1623 1617 1612 1607 1604 1600 1599 1596 1593 1590 1588 1583 1581 1576 1573 1568 1564 1558 1558 1556 1553 1553 1552 1552 1551 1539 1532 1528 1524 1520 1517 1516 1515 1514 1514 1514 1513 1513 1510 1501 1496 1494 1492 1489 1488 1487 1487
1387 1387 1387 1388 1397 1424 1440 1449 1468 1468 1468 1336 1237 1206 1206 1181 1181 1119 1033 1033 1033 1061 1368 1368 1368 1367 1243 1241 0 0 0 0 0 0 0 0 0 0 0 0 0 0 0 0 0 0 0 0 699 731 785 843 924 1005 1077 1083 1083 1077 1033 1033 1033 1040 1050 1050 1044 1040 1037 1037 1037 1039 1046 1049 1049 1049 1045 1044 1044 1044 1044 1044 1046 1049 1049 1052 1053 1052 1049 1049 1049 1049 1052 1056 1057 1058 1060 1063 1064 1064 1064 1064 1064 1067 1074 1079 1081 1083 1083 1086 1087 1087 1088 1092 1096 1101 1104 1104 1105 1105 1105 1111 1120 1125 1129 1130 1131 1131 1132 1134 1135 1137 1139 1140 1142 1142 1144 1144 1147 1151 1155 1158 1158 1158 1158 1158 1160 1161 1161 1161 1161 1160 1160 1160 1160 1162 1165 1165 1165 1163 1163 1163 1167 1168 1172 1175 1175 1175 1175 1175 1178 1181 1185 1185 1185 1184 1184 1184 1187 1189 1192 1192 1192 1195 1198 1203 1206 1207 1209 1211 1211 1211 1211 1211 1211 1211 1210 1207 1204 1200 1195 1194 1192 1192 1190 1187 1185 1183 1180 1179 1177 1175 1173 1170 1168 1166 1165 1163 1161 1158 1157 1155 1153 1150 1148 1148 1147 1146 1143 1142 1141 1141 1143 1145 1145 1145 1145 1135 1129 1129 1128 1123 1120 1117 1114 1111 1109 1106 1104 1102 1100 1098 1097 1095 1093 1091 1089 1088 1086 1085 1084 1082 1082 1081 1080 1079 1079 1079 1077 1077 1077 1077 1077 1076 1076 1075 1074 1074 1073 1067 1062 1057 1053 1050 1050 1048 1047 1043 1041 1041 1041 1041 1041 1041 1037 1035 1030 1027 1026 1025 1024 1022 1021 1019 1018 1018 1015 1015 1015 1017 1019 1020 1024 1027 1027 1027 1026 1025 1022 1020 1016 1014 1014 1010 1004 997 992 982 979 979 979 979 976 972 971 971 971 967 967 965 963 960 956 956 955 954 954 951 0 0 0 0 0 0 0 0 0 0 0 0 0 0 0 0 0 0 916 918 920 920 921 921 921 922 922 922 925 925 925 925 923 922 916 913 910 910 903 903 902 902 902 895 893 893 893 893 893 893 886 885 883 0 0 0 0 0 0 0 870 870 872 872 877 877 878 879 880 882 882 882 879 878 877 877 876 876 876 876 876 876 876 876 876 876 876 874 874 874 874 874 871 868 864 864 864 863 863 858 846 843 841 836 836 825 0 0 0 0 0 0 0 0 0 0 0 0 0 0 0 0 0 0 0 0 0 0 0 0 0 0 0 0 0 0 808 821 827 829 843 847 850 869 899 969 1139 1442 1700 1749 1774 1831 1931 2066 2111 2177 2228 2251 2261 2261 2261 2241 2210 2136 2071 2054 2052 2051 2049 2049 2045 2040 2034 2029 2027 2026 2024 2019 2017 2011 2005 1997 1982 1969 1957 1948 1939 1933 1929 1924 1918 1914 1907 1898 1890 1884 1879 1872 1866 1862 1859 1853 1847 1841 1837 1833 1828 1824 1821 1816 1812 1805 1800 1796 1790 1785 1780 1778 1773 1767 1758 1749 1742 1740 1734 1728 1721 1713 1709 1704 1700 1696 1690 1685 1681 1679 1676 1672 1666 1660 1656 1652 1647 1642 1637 1633 1628 1624 1620 1615 1611 1606 1602 1599 1596 1593 1590 1587 1584 1581 1578 1576 1571 1568 1560 1558 1556 1554 1554 1554 1553 1551 1541 1533 1528 1526 1523 1521 1518 1518 1517 1514 1514 1513 1512 1510 1502 1497 1495 1494 1490 1488 1488 1488
1387 1387 1387 1388 1388 1397 1424 1440 1478 1478 1478 1439 1310 1219 1219 1215 1219 1255 1334 1361 1376 1376 1410 1410 1410 1371 1264 1246 1017 0 0 0 0 0 0 907 971 1038 1081 1121 1121 1121 0 0 0 0 657 699 731 731 785 843 924 988 1074 1077 1077 1077 1042 1042 1042 1042 1050 1050 1044 1040 1037 1036 1035 1035 1036 1036 1039 1040 1041 1040 1039 1036 1035 1035 1036 1041 1042 1042 1042 1041 1038 1038 1038 1042 1043 1044 1044 1049 1054 1058 1059 1061 1061 1061 1062 1066 1069 1073 1075 1077 1079 1080 1080 1081 1082 1085 1090 1093 1097 1099 1100 1102 1105 1110 1115 1119 1122 1125 1127 1127 1130 1130 1133 1133 1136 1139 1142 1142 1143 1144 1146 1149 1153 1154 1156 1156 1156 1155 1153 1153 1153 1155 1155 1155 1155 1155 1156 1158 1159 1159 1161 1163 1163 1163 1166 1167 1167 1168 1168 1168 1169 1172 1175 1178 1180 1183 1183 1183 1182 1182 1182 1185 1188 1190 1192 1195 1198 1203 1204 1204 1204 1206 1207 1207 1208 1208 1208 1206 1204 1203 1203 1199 1194 1192 1192 1191 1189 1186 1184 1181 1179 1178 1176 1173 1171 1169 1167 1165 1163 1162 1160 1158 1155 1153 1152 1150 1148 1145 1143 1142 1142 1141 1141 1141 1141 1144 1144 1144 1139 1129 1129 1129 1126 1121 1117 1114 1112 1109 1107 1104 1102 1100 1099 1097 1095 1094 1091 1089 1088 1087 1086 1083 1082 1082 1081 1079 1078 1078 1078 1077 1077 1076 1076 1077 1077 1076 1075 1075 1075 1074 1073 1067 1062 1057 1053 1050 1050 1048 1048 1045 1041 1041 1041 1041 1039 1039 1035 1033 1029 1026 1025 1023 1020 1018 1018 1017 1017 1017 1014 1014 1014 1015 1016 1020 1024 1027 1027 1027 1026 1021 1018 1016 1014 1013 1013 1010 1003 996 988 979 978 978 978 978 975 971 971 970 968 965 965 965 961 958 954 952 952 951 950 948 0 0 0 0 0 0 0 0 0 0 0 0 0 0 0 0 0 0 917 917 917 917 921 921 921 918 918 917 917 918 918 920 920 920 914 907 905 903 903 903 902 902 900 893 892 892 892 893 893 893 890 886 885 884 882 874 0 0 0 876 876 877 878 878 878 878 878 878 879 884 884 884 879 877 877 877 876 876 876 876 877 877 877 876 876 876 876 875 875 875 875 875 873 868 865 865 865 864 864 859 846 841 841 839 833 0 0 0 0 0 0 0 0 0 0 0 0 0 0 0 0 0 0 0 0 0 0 0 0 0 0 0 0 0 0 805 816 823 827 833 844 847 866 887 937 1049 1321 1685 1715 1749 1806 1879 2003 2065 2094 2112 2171 2203 2227 2240 2240 2240 2211 2145 2095 2065 2053 2052 2052 2051 2046 2040 2035 2029 2028 2028 2024 2020 2017 2012 2006 2002 1983 1969 1957 1948 1941 1937 1933 1929 1923 1917 1909 1898 1892 1884 1879 1874 1868 1863 1859 1853 1848 1843 1839 1834 1830 1824 1821 1816 1812 1805 1800 1796 1791 1786 1781 1778 1773 1767 1758 1750 1746 1741 1735 1728 1721 1715 1709 1704 1700 1696 1690 1685 1681 1679 1675 1672 1666 1660 1654 1649 1646 1640 1637 1633 1629 1625 1622 1618 1613 1608 1603 1600 1598 1594 1590 1587 1584 1581 1578 1576 1571 1569 1565 1562 1560 1557 1555 1554 1553 1551 1541 1534 1530 1527 1524 1521 1519 1519 1518 1514 1512 1511 1511 1507 1503 1500 1497 1494 1492 1491 1490 1490
1371 1371 1381 1382 1382 1397 1424 1440 1473 1473 1473 1439 1409 1326 1326 1326 1371 1400 1406 1406 1410 1428 1428 1428 1428 1428 1369 1267 1264 1264 1264 1269 1269 1269 1265 1255 1229 1229 1229 1241 1241 1241 1115 902 880 863 756 731 731 731 775 843 901 987 1031 1044 1044 1042 1042 1042 1042 1042 1040 1040 1031 1031 1030 1027 1025 1022 1022 1022 1028 1033 1033 1033 1031 1029 1029 1029 1032 1036 1040 1040 1040 1039 1038 1035 1035 1035 1037 1040 1043 1046 1048 1050 1053 1055 1057 1058 1059 1062 1065 1068 1073 1075 1079 1080 1080 1080 1080 1080 1083 1088 1092 1094 1098 1101 1104 1109 1111 1111 1117 1120 1123 1127 1128 1128 1132 1133 1134 1138 1140 1141 1141 1143 1145 1148 1149 1151 1152 1152 1152 1149 1149 1149 1151 1151 1152 1153 1153 1154 1156 1156 1157 1159 1161 1162 1162 1163 1163 1165 1166 1167 1167 1167 1168 1170 1172 1175 1177 1179 1179 1179 1179 1179 1182 1185 1187 1190 1192 1194 1197 1198 1198 1199 1201 1201 1202 1203 1203 1203 1203 1202 1202 1200 1200 1197 1193 1191 1190 1189 1187 1185 1182 1180 1177 1176 1174 1172 1170 1168 1166 1164 1162 1159 1159 1157 1155 1151 1150 1149 1146 1145 1143 1141 1139 1139 1138 1138 1138 1137 1136 1136 1131 1129 1129 1127 1122 1117 1114 1112 1110 1107 1105 1103 1100 1099 1097 1095 1093 1092 1090 1088 1087 1084 1084 1082 1081 1080 1080 1079 1077 1077 1077 1077 1077 1076 1076 1076 1075 1074 1074 1074 1074 1074 1073 1067 1061 1056 1053 1050 1049 1048 1048 1045 1041 1041 1041 1041 1039 1034 1031 1029 1025 1022 1021 1019 1018 1017 1016 1016 1015 1014 1013 1013 1013 1010 1013 1014 1019 1024 1024 1024 1021 1015 1011 1011 1011 1010 1010 1010 1002 995 986 978 978 976 975 974 970 969 969 967 965 0 0 0 0 0 950 950 950 946 945 945 0 0 0 0 0 0 0 0 0 0 0 0 0 0 0 0 0 919 919 919 918 918 918 918 918 918 915 913 911 908 908 908 914 914 914 907 904 902 902 901 901 898 895 890 890 890 892 892 892 892 892 892 886 886 886 884 879 877 878 878 876 876 876 876 876 876 876 876 876 884 884 884 883 880 877 877 876 875 875 876 877 877 877 877 876 876 876 875 875 875 877 877 877 871 867 865 865 864 864 864 849 841 840 836 833 0 0 0 0 0 0 0 0 0 0 0 0 0 0 0 0 0 0 0 0 0 0 0 0 0 0 0 0 0 808 815 827 829 834 841 848 848 869 895 967 1178 1658 1701 1722 1758 1859 1965 2026 2065 2083 2092 2117 2165 2195 2217 2217 2217 2210 2155 2100 2073 2059 2056 2053 2051 2047 2040 2037 2034 2031 2029 2024 2020 2018 2014 2007 2004 1994 1969 1960 1952 1946 1940 1936 1933 1927 1917 1909 1899 1892 1885 1879 1874 1868 1864 1860 1854 1849 1844 1839 1835 1830 1823 1818 1815 1809 1804 1800 1796 1791 1786 1781 1778 1773 1765 1758 1751 1747 1741 1735 1728 1721 1715 1710 1704 1698 1694 1690 1684 1681 1679 1675 1672 1665 1659 1653 1647 1643 1640 1637 1633 1630 1626 1623 1619 1613 1609 1604 1601 1599 1595 1591 1587 1584 1581 1579 1576 1572 1570 1567 1565 1562 1559 1556 1554 1553 1549 1541 1535 1531 1529 1525 1522 1519 1519 1519 1514 1511 1507 1507 1507 1504 1502 1501 1498 1495 1495 1494 1494
1233 1233 1265 1269 1269 1329 1341 1360 1453 1453 1453 1439 1409 1396 1396 1396 1437 1479 1479 1479 1432 1416 1416 1416 1416 1416 1431 1433 1421 1421 1421 1358 1358 1358 1401 1401 1401 1393 1380 1376 1279 1254 1115 1002 962 885 756 731 731 731 775 843 955 987 1021 1023 1033 1033 1036 1036 1036 1036 1031 1028 1022 1022 1021 1017 1016 1016 1016 1019 1019 1020 1020 1021 1025 1027 1028 1028 1031 1034 1034 1034 1033 1028 1028 1028 1028 1032 1037 1040 1043 1043 1046 1047 1050 1052 1053 1056 1057 1059 1061 1065 1069 1072 1074 1076 1077 1078 1079 1079 1082 1086 1089 1091 1094 1097 1100 1104 1105 1108 1113 1117 1120 1122 1125 1128 1131 1132 1134 1137 1139 1141 1141 1141 1142 1142 1143 1144 1144 1145 1145 1145 1146 1146 1147 1148 1150 1152 1153 1153 1155 1155 1156 1159 1160 1161 1161 1162 1163 1164 1164 1166 1167 1167 1168 1170 1171 1173 1174 1177 1179 1179 1179 1179 1182 1185 1186 1189 1191 1193 1196 1197 1198 1198 1198 1198 1198 1199 1200 1200 1200 1200 1198 1198 1198 1195 1193 1191 1189 1187 1185 1182 1180 1177 1176 1174 1172 1170 1167 1166 1164 1162 1160 1158 1156 1154 1152 1149 1148 1146 1144 1143 1141 1140 1138 1137 1136 1134 1133 1133 1132 1130 1127 1126 1123 1121 1118 1114 1112 1110 1108 1105 1103 1101 1099 1098 1095 1093 1091 1090 1088 1086 1084 1083 1082 1081 1080 1079 1077 1076 1076 1076 1076 1076 1076 1076 1076 1076 1074 1073 1073 1073 1073 1073 1072 1067 1061 1055 1053 1050 1048 1048 1048 1045 1041 1041 1039 1039 1038 1032 1030 1028 1022 1017 1017 1016 1015 1014 1014 1013 1013 1011 1010 1010 1009 1008 1008 1005 1005 1005 1007 1007 1007 1007 1006 1006 1006 1006 1006 1004 1001 993 984 978 977 976 972 969 967 967 967 967 964 0 0 0 0 0 0 0 0 2 0 0 0 0 0 0 0 0 0 0 0 0 0 0 0 0 0 923 923 923 923 920 918 918 918 918 918 915 912 911 911 908 908 908 914 914 914 907 904 900 898 898 897 897 895 890 889 889 887 887 887 883 883 883 887 887 887 886 886 885 879 878 876 876 876 876 876 876 875 875 875 880 883 883 883 882 880 877 875 874 874 874 877 877 877 877 876 876 876 875 875 875 877 877 877 875 869 864 864 864 864 864 853 836 835 835 832 0 0 0 0 0 0 0 0 0 0 0 0 0 0 0 0 0 0 0 0 0 0 0 0 0 0 0 0 0 808 817 827 831 840 847 848 858 878 923 1078 1450 1687 1729 1751 1835 1933 1999 2033 2062 2070 2078 2093 2110 2145 2167 2197 2197 2197 2156 2108 2084 2067 2063 2057 2053 2048 2040 2037 2034 2032 2029 2024 2020 2020 2015 2007 2004 1996 1978 1970 1960 1953 1945 1938 1934 1927 1917 1909 1899 1892 1886 1880 1874 1869 1865 1860 1854 1850 1846 1842 1835 1830 1822 1814 1809 1805 1802 1799 1795 1791 1786 1781 1776 1768 1763 1756 1751 1747 1741 1735 1728 1721 1715 1710 1704 1698 1692 1687 1682 1680 1678 1674 1668 1663 1658 1653 1647 1643 1640 1637 1635 1630 1627 1623 1619 1613 1609 1605 1601 1599 1595 1592 1589 1585 1582 1579 1576 1573 1570 1568 1567 1563 1560 1557 1553 1550 1546 1541 1537 1533 1530 1526 1524 1520 1519 1519 1515 1511 1507 1507 1506 1506 1504 1503 1500 1498 1498 1497 1497
1220 1220 1245 1266 1266 1266 0 0 1192 1349 1377 1398 1398 1398 1402 1402 1437 1479 1479 1479 1440 1415 1415 1415 1415 1415 1428 1428 1429 1429 1429 1416 1416 1416 1420 1420 1420 1393 1380 1376 1279 1254 1115 1002 987 903 756 731 731 731 775 844 962 988 1009 1012 1033 1033 1033 1025 1025 1022 1022 1018 1014 1014 1014 1014 1014 1014 1015 1017 1018 1018 1019 1021 1024 1024 1025 1026 1030 1030 1030 1028 1024 1023 1023 1023 1027 1032 1035 1038 1040 1043 1044 1045 1047 1049 1052 1053 1056 1058 1060 1064 1066 1068 1070 1072 1075 1077 1078 1079 1081 1084 1087 1089 1091 1092 1094 1098 1102 1106 1110 1114 1118 1121 1125 1127 1129 1131 1134 1137 1138 1138 1139 1139 1141 1141 1141 1142 1142 1142 1143 1144 1144 1145 1146 1147 1149 1151 1152 1153 1153 1155 1156 1158 1159 1160 1161 1161 1163 1163 1164 1165 1166 1167 1169 1170 1171 1173 1174 1177 1178 1178 1179 1180 1183 1185 1186 1189 1191 1192 1192 1195 1195 1196 1196 1196 1197 1198 1199 1199 1199 1198 1196 1195 1194 1194 1193 1190 1188 1185 1182 1180 1178 1176 1174 1173 1171 1168 1166 1164 1163 1160 1159 1156 1155 1152 1150 1147 1146 1144 1142 1140 1139 1137 1136 1135 1134 1133 1131 1130 1127 1125 1124 1121 1121 1117 1115 1112 1109 1107 1105 1103 1101 1099 1098 1095 1094 1092 1090 1088 1087 1084 1083 1082 1082 1080 1079 1077 1076 1076 1076 1075 1074 1075 1076 1075 1075 1075 1073 1072 1072 1072 1072 1072 1069 1062 1056 1054 1053 1050 1046 1044 1040 1038 1038 1038 1037 1033 1029 1029 1028 1027 1019 1017 1016 1015 1014 1012 1011 1011 1009 1008 1007 1005 1005 1004 1003 1003 1003 1002 1002 1002 1002 1002 1002 1002 1000 1000 999 996 993 993 984 980 978 978 970 968 966 965 965 964 961 958 0 0 0 0 0 0 0 2 0 0 0 0 0 0 0 0 0 0 0 0 0 0 0 0 0 923 923 925 924 923 922 919 918 917 917 912 911 911 911 908 908 908 915 915 915 909 902 898 895 894 894 893 890 888 888 888 888 888 887 882 882 882 892 892 892 888 886 885 879 875 874 874 874 875 875 875 875 874 874 874 877 880 882 882 882 879 875 874 874 874 877 877 877 877 876 876 876 875 875 875 877 878 878 878 869 864 864 864 863 863 855 835 834 830 0 0 0 0 0 0 0 0 0 0 0 0 0 0 0 0 0 0 0 0 0 0 0 0 0 0 0 0 0 0 809 821 830 835 844 847 851 872 902 991 1233 1556 1731 1747 1794 1896 1963 2014 2033 2052 2061 2069 2081 2087 2092 2115 2143 2155 2155 2155 2127 2091 2067 2064 2058 2055 2055 2040 2037 2034 2032 2030 2026 2024 2021 2015 2008 2004 1998 1983 1976 1968 1960 1948 1943 1936 1927 1917 1909 1898 1892 1886 1880 1876 1870 1865 1860 1855 1851 1846 1842 1835 1830 1822 1814 1809 1804 1800 1797 1795 1791 1786 1779 1772 1765 1761 1755 1751 1747 1740 1732 1725 1719 1714 1710 1704 1698 1692 1687 1682 1679 1676 1672 1667 1663 1657 1653 1647 1643 1640 1638 1635 1631 1628 1623 1619 1614 1609 1605 1601 1599 1595 1592 1589 1586 1582 1579 1576 1573 1570 1569 1567 1565 1561 1558 1553 1549 1545 1541 1538 1535 1532 1529 1525 1521 1520 1519 1517 1511 1507 1507 1506 1506 1504 1503 1500 1498 1498 1497 1497
1203 1203 1216 1229 1229 1229 0 0 0 1305 1364 1367 1385 1392 1392 1402 1437 1479 1479 1479 1432 1399 1399 1399 1407 1411 1427 1428 1429 1430 1430 1430 1429 1430 1430 1422 1422 1393 1380 1376 1279 1115 1115 1002 987 952 756 756 756 837 844 848 988 1004 1009 1012 1020 1021 1021 1021 1018 1016 1012 1009 1009 1009 1009 1010 1013 1013 1015 1016 1017 1017 1018 1019 1022 1023 1023 1024 1023 1023 1023 1020 1020 1020 1020 1023 1027 1031 1035 1037 1039 1040 1040 1042 1045 1047 1049 1052 1054 1055 1058 1060 1064 1067 1068 1070 1071 1073 1076 1077 1078 1081 1085 1086 1087 1089 1091 1095 1099 1103 1108 1111 1115 1119 1122 1125 1127 1131 1132 1135 1136 1136 1136 1138 1139 1140 1140 1140 1140 1142 1142 1142 1143 1144 1146 1146 1148 1149 1150 1152 1153 1154 1156 1157 1158 1159 1160 1160 1162 1163 1163 1164 1166 1167 1169 1170 1171 1172 1174 1176 1178 1178 1178 1181 1183 1185 1186 1188 1188 1190 1191 1193 1195 1195 1196 1196 1197 1198 1198 1198 1198 1195 1194 1193 1192 1192 1191 1188 1186 1183 1180 1178 1175 1173 1172 1170 1169 1166 1164 1163 1160 1159 1156 1154 1151 1150 1147 1146 1145 1142 1140 1138 1136 1136 1135 1134 1133 1131 1129 1128 1126 1125 1123 1121 1118 1115 1112 1110 1107 1105 1103 1101 1099 1097 1096 1094 1092 1091 1089 1087 1085 1083 1082 1081 1080 1079 1077 1076 1076 1075 1075 1075 1074 1073 1073 1073 1073 1073 1072 1070 1069 1069 1069 1069 1063 1054 1053 1053 1052 1050 1046 1040 1035 1035 1034 1033 1031 1027 1021 1021 1021 1018 1018 1016 1014 1013 1012 1011 1009 1007 1007 1006 1004 1004 1002 1000 999 998 997 996 994 994 993 993 994 995 995 995 992 989 984 984 982 980 978 970 968 967 965 965 964 962 960 958 5 5 5 941 941 941 0 0 0 0 0 0 0 0 0 0 0 0 0 0 0 0 0 925 925 925 925 925 924 922 922 919 918 915 914 912 911 911 911 910 910 910 915 915 915 909 902 896 895 894 893 891 887 887 887 887 887 887 887 882 878 878 878 888 888 888 886 885 875 874 873 872 873 873 873 873 873 873 872 872 872 874 882 882 882 881 878 874 874 874 875 875 876 876 877 877 877 876 876 876 876 878 878 878 869 863 863 863 863 863 855 841 834 0 0 0 0 0 0 0 0 0 0 0 0 0 0 0 0 0 0 0 0 0 0 0 0 0 0 0 0 0 0 811 816 828 836 839 844 848 867 894 950 1072 1326 1742 1760 1781 1857 1945 2008 2014 2033 2042 2052 2060 2070 2080 2083 2084 2089 2116 2127 2127 2127 2099 2095 2067 2062 2060 2057 2043 2038 2035 2032 2030 2030 2026 2021 2015 2008 2003 1998 1988 1980 1971 1964 1952 1947 1936 1927 1917 1908 1898 1892 1887 1882 1877 1872 1868 1861 1856 1852 1847 1842 1835 1829 1822 1814 1809 1804 1800 1797 1795 1791 1786 1778 1772 1765 1761 1755 1751 1745 1739 1731 1724 1719 1714 1709 1704 1698 1692 1687 1682 1679 1676 1672 1667 1662 1657 1653 1648 1645 1642 1638 1635 1631 1628 1623 1619 1615 1610 1607 1602 1599 1595 1593 1589 1586 1583 1579 1577 1573 1571 1570 1568 1565 1562 1558 1553 1549 1545 1542 1540 1536 1533 1530 1525 1521 1521 1520 1520 1513 1507 1507 1506 1506 1504 1503 1500 1498 1498 1497 1497
