834 835 835 835 835 835 834 832 828 827 824 819 815 809 805 803 803 803 804 804 805 805 806 807 807 808 809 809 810 811 812 812 812 812 813 813 813 813 813 813 813 813 813 813 813 813 812 812 812 812 812 812 812 811 811 811 811 811 811 812 813 813 813 813 812 0 0 0 0 0 0 0 0 0 0 0 0 0 0 0 0 0 0 0 0 0 0 0 0 0 0 0 0 0 0 0 0 0 810 815 815 817 822 822 823 824 825 825 825 825 825 825 825 825 826 827 827 827 827 827 827 827 827 827 826 826 825 825 825 826 826 826 826 826 826 826 826 827 826 825 823 814 808 806 804 0 0 0 0 0 0 0 0 0 0 0 0 0 0 0 0 0 0 0 0 0 0 0 0 0 0 0 0 0 0 0 0 0 0 0 0 0 0 0 0 0 0 0 0 0 799 799 800 800 803 805 805 805 805 804 804 803 803 803 803 802 802 801 801 800 800 799 799 799 798 798 798 798 798 798 798 798 798 798 798 798 798 796 796 796 799 799 799 0 0 0 0 0 0 0 0 0 0 0 0 0 0 0 0 0 0 0 0 0 0 0 0 0 0 0 0 0 0 0 0 0 0 0 0 0 0 0 0 0 0 0 0 0 0 799 806 806 806 806 806 806 805 805 805 805 805 805 805 805 805 805 806 806 806 806 806 806 805 805 805 806 806 806 806 806 806 806 806 807 809 810 810 810 810 808 804 0 0 0 0 0 0 0 0 0 0 0 0 0 0 0 0 0 0 0 0 0 0 0 0 0 0 0 0 0 0 0 0 0 0 0 0 0 0 0 0 0 0 0 0 0 0 799 801 801 801 801 800 800 799 799 799 799 799 799 798 798 798 798 798 798 798 798 798 799 799 799 799 799 800 800 800 800 800 801 801 801 801 801 800 800 800 800 804 804 804 0 0 0 0 0 0 0 0 0 0 0 0 0 0 0 0 0 0 0 0 0 0 0 0 0 0 0 0 0 0 0 0 0 0 0 0 0 0 0 0 0 0 0 0 0 811 814 822 825 825 825 825 825 825 825 825 826 826 826 827 827 827 826 826 826 827 829 829 829 830 830 830 830 831 831 833 833 834 836 838 838 838 837 835 835 833 829 0 0 0 0 0 0 0 0 0 0 0 0 0 0 0 0 0 0 0 0 0 0 0 0 0 0 0 0 0 0 0 0 0 0 0 0 0 0 0 0 0 0 0 0 0 0 841 858 914 1037 1171 1198 1233 1351 1477 1537 1557 1571 1585 1593 1598 1605 1612 1612 1612 1612 1610 1609 1609 1609 1611 1624 1624 1625 1629 1633 1633 1633 1635 1636 1643 1656 1669 1682 1705 1727 1755 1770 1771 1775 1803 1833 1833 1833 1832 1832 1831 1828 1825 1816 1811 1810 1808 1804 1801 1801 1801 1816 1816 1816 1814 1804 1804 1804 1806 1815 1815 1815 1814 1811 1811 1811 1825 1840 1849 1853 1873 1884 1884 1884 1883 1882 1880 1879 1876 1873 1867 1848 1831 1825 1825 0
833 834 834 835 835 835 834 831 828 825 822 814 810 807 806 803 803 803 804 804 805 805 806 806 807 808 809 810 810 811 812 812 813 813 813 813 813 813 813 813 813 813 813 813 813 813 813 812 812 812 812 812 812 811 811 811 811 811 811 811 811 812 812 811 811 0 0 0 0 0 0 0 0 0 0 0 0 0 0 0 0 0 0 0 0 0 0 0 0 0 0 0 0 0 0 0 0 0 812 815 815 817 819 820 821 821 823 824 824 825 825 825 825 825 826 827 827 827 827 827 827 827 827 826 826 825 825 825 825 825 826 826 826 826 826 826 826 827 826 825 823 814 808 804 803 0 0 0 0 0 0 0 0 0 0 0 0 0 0 0 0 0 0 0 0 0 0 0 0 0 0 0 0 0 0 0 0 0 0 0 0 0 0 0 0 0 0 0 0 795 797 800 801 802 803 804 804 804 804 804 804 804 803 803 803 802 802 802 801 801 800 799 799 799 798 798 798 798 798 798 798 798 798 798 798 798 798 796 796 796 799 799 799 0 0 0 0 0 0 0 0 0 0 0 0 0 0 0 0 0 0 0 0 0 0 0 0 0 0 0 0 0 0 0 0 0 0 0 0 0 0 0 0 0 0 0 0 0 0 799 805 806 806 806 806 806 805 804 804 804 805 805 805 805 805 805 805 805 805 805 805 805 805 805 805 805 805 806 806 806 806 806 806 807 808 809 809 809 809 807 804 0 0 0 0 0 0 0 0 0 0 0 0 0 0 0 0 0 0 0 0 0 0 0 0 0 0 0 0 0 0 0 0 0 0 0 0 0 0 0 0 0 0 0 0 0 0 799 799 799 799 799 799 799 799 799 799 799 799 799 799 798 798 798 798 798 797 797 798 798 799 799 799 799 800 800 800 800 801 801 801 801 801 801 800 800 800 801 801 801 0 0 0 0 0 0 0 0 0 0 0 0 0 0 0 0 0 0 0 0 0 0 0 0 0 0 0 0 0 0 0 0 0 0 0 0 0 0 0 0 0 0 0 0 0 0 813 814 822 824 825 825 825 823 823 823 825 825 825 825 826 826 826 825 825 825 826 828 828 829 829 830 830 831 832 832 832 833 833 835 838 838 838 838 837 837 829 828 0 0 0 0 0 0 0 0 0 0 0 0 0 0 0 0 0 0 0 0 0 0 0 0 0 0 0 0 0 0 0 0 0 0 0 0 0 0 0 0 0 0 0 0 0 0 842 863 917 1053 1171 1198 1240 1369 1480 1537 1552 1565 1575 1584 1591 1598 1605 1608 1608 1608 1608 1605 1600 1600 1600 1613 1613 1615 1616 1622 1625 1625 1625 1625 1625 1625 1635 1645 1655 1663 1663 1663 1663 1663 1694 1719 1725 1726 1738 1766 1794 1804 1804 1804 1797 1781 1779 1777 1777 1779 1783 1800 1804 1804 1804 1796 1796 1796 1798 1804 1807 1807 1807 1806 1806 1806 1816 1831 1837 1839 1841 1842 1852 1879 1882 1882 1882 1880 1880 1877 1868 1849 1831 1824 1824 0
833 833 832 832 832 832 832 831 825 822 819 814 810 807 806 804 804 804 804 804 805 805 806 806 808 808 809 810 811 812 812 812 813 813 813 813 813 813 813 813 813 813 813 813 813 813 813 813 813 813 813 813 813 812 811 811 811 811 811 811 811 811 811 810 808 807 805 805 805 0 0 0 0 0 0 0 0 0 0 0 0 0 0 0 0 0 0 0 0 0 0 0 0 0 0 0 0 0 812 813 815 817 819 820 821 821 823 824 824 825 825 824 825 825 826 827 827 827 827 827 826 826 826 826 826 825 825 825 825 825 825 825 825 826 826 826 826 827 826 824 823 815 810 808 0 0 0 0 0 0 0 0 0 0 0 0 0 0 0 0 0 0 0 0 0 0 0 0 0 0 0 0 0 0 0 0 0 0 0 0 0 0 0 0 0 0 0 0 0 795 797 802 802 803 803 804 804 804 804 804 804 804 803 803 803 802 802 802 801 801 800 799 799 799 798 798 798 798 798 798 798 798 798 798 799 799 799 798 798 798 799 799 799 0 0 0 0 0 0 0 0 0 0 0 0 0 0 0 0 0 0 0 0 0 0 0 0 0 0 0 0 0 0 0 0 0 0 0 0 0 0 0 0 0 0 0 0 0 794 800 805 805 806 806 805 805 805 804 804 804 805 805 805 805 805 805 805 805 805 805 805 805 804 804 804 804 805 805 805 805 805 805 805 805 806 807 807 807 807 806 804 0 0 0 0 0 0 0 0 0 0 0 0 0 0 0 0 0 0 0 0 0 0 0 0 0 0 0 0 0 0 0 0 0 0 0 0 0 0 0 0 0 0 0 0 0 0 800 800 800 798 798 798 798 799 799 799 799 799 799 799 798 798 798 798 798 797 797 798 799 799 799 799 799 800 800 800 801 801 801 802 802 802 801 800 800 800 801 801 801 0 0 0 0 0 0 0 0 0 0 0 0 0 0 0 0 0 0 0 0 0 0 0 0 0 0 0 0 0 0 0 0 0 0 0 0 0 0 0 0 0 0 0 0 0 0 814 819 822 822 822 823 823 823 823 823 823 824 824 825 825 825 825 825 825 825 826 828 828 829 829 830 830 831 832 832 832 832 833 835 837 837 838 838 837 837 829 828 0 0 0 0 0 0 0 0 0 0 0 0 0 0 0 0 0 0 0 0 0 0 0 0 0 0 0 0 0 0 0 0 0 0 0 0 0 0 0 0 0 0 0 0 0 0 842 864 931 1053 1171 1198 1254 1401 1483 1529 1546 1560 1572 1579 1582 1587 1592 1598 1598 1599 1599 1599 1596 1596 1596 1602 1602 1605 1606 1613 1621 1621 1621 1611 1610 1610 1610 1612 1614 1618 1619 1624 1626 1636 1636 1636 1616 1616 1616 1633 1647 1668 1693 1708 1724 1732 1735 1746 1759 1761 1767 1780 1786 1786 1786 1785 1785 1785 1791 1792 1795 1799 1799 1799 1799 1799 1803 1812 1819 1819 1819 1813 1813 1813 1849 1879 1880 1883 1883 1880 1869 1849 1831 1822 1821 0
833 833 832 832 832 832 832 831 825 820 817 814 810 807 806 805 804 804 804 804 805 805 806 807 808 808 809 810 811 812 812 812 813 813 813 813 813 813 813 813 813 813 813 813 813 813 813 813 813 813 813 813 813 813 812 811 811 811 811 811 811 811 810 810 810 810 810 810 806 805 0 0 0 0 0 0 0 0 0 0 0 0 0 0 0 0 0 0 0 0 0 0 0 0 0 0 0 0 812 813 815 817 819 820 821 821 823 824 824 825 825 824 825 825 825 826 826 826 826 826 826 826 826 826 825 825 824 824 824 824 825 825 825 825 826 826 826 826 824 823 820 815 812 810 0 0 0 0 0 0 0 0 0 0 0 0 0 0 0 0 0 0 0 0 0 0 0 0 0 0 0 0 0 0 0 0 0 0 0 0 0 0 0 0 0 0 0 0 0 796 799 802 802 802 802 804 804 804 804 804 804 804 803 803 803 802 802 802 801 801 800 800 799 799 798 798 798 798 798 798 798 798 798 798 799 799 799 799 799 800 800 800 799 0 0 0 0 0 0 0 0 0 0 0 0 0 0 0 0 0 0 0 0 0 0 0 0 0 0 0 0 0 0 0 0 0 0 0 0 0 0 0 0 0 0 0 0 0 795 800 804 805 805 805 805 805 805 804 804 804 804 804 804 804 804 804 804 804 804 804 804 804 804 804 804 804 804 804 805 805 805 804 804 804 804 805 806 806 806 805 804 0 0 0 0 0 0 0 0 0 0 0 0 0 0 0 0 0 0 0 0 0 0 0 0 0 0 0 0 0 0 0 0 0 0 0 0 0 0 0 0 0 0 0 0 0 0 800 800 800 798 798 798 798 798 799 799 799 799 799 799 798 798 798 798 798 797 797 798 799 799 799 799 799 800 800 800 801 801 802 802 802 802 801 801 801 801 801 801 801 0 0 0 0 0 0 0 0 0 0 0 0 0 0 0 0 0 0 0 0 0 0 0 0 0 0 0 0 0 0 0 0 0 0 0 0 0 0 0 0 0 0 0 0 0 0 813 820 822 822 822 823 823 823 823 823 823 824 824 824 824 824 824 825 825 825 826 827 827 828 829 829 830 831 832 832 832 832 833 835 835 836 836 837 837 837 829 828 0 0 0 0 0 0 0 0 0 0 0 0 0 0 0 0 0 0 0 0 0 0 0 0 0 0 0 0 0 0 0 0 0 0 0 0 0 0 0 0 0 0 0 0 0 0 844 864 931 1053 1152 1177 1257 1401 1483 1517 1535 1556 1571 1574 1578 1579 1584 1585 1586 1589 1592 1592 1593 1593 1595 1595 1595 1596 1596 1601 1607 1607 1607 1605 1601 1600 1599 1598 1592 1587 1586 1586 1587 1589 1589 1589 1591 1591 1591 1594 1598 1607 1611 1613 1619 1622 1634 1657 1678 1679 1690 1694 1716 1748 1751 1751 1762 1764 1770 1772 1774 1783 1785 1785 1786 1787 1788 1794 1801 1801 1801 1799 1799 1799 1817 1844 1868 1870 1870 1870 1870 1869 1849 1830 1821 0
834 834 832 832 832 832 832 830 825 820 817 815 811 808 807 805 804 804 804 804 805 805 806 807 808 808 809 810 811 812 812 812 813 813 813 813 813 813 813 813 813 813 813 813 813 813 813 813 813 813 813 813 813 813 813 812 812 811 811 811 811 810 810 810 810 814 814 814 814 806 806 805 804 804 804 0 0 0 0 0 0 0 0 0 0 0 0 0 0 0 0 0 0 0 0 0 0 807 813 814 815 817 819 821 821 821 822 824 825 827 827 827 826 823 822 822 822 824 826 826 826 826 826 825 825 824 824 824 824 824 824 825 825 825 825 825 825 824 824 823 819 815 815 813 0 0 0 0 0 0 0 0 0 0 0 0 0 0 0 0 0 0 0 0 0 0 0 0 0 0 0 0 0 0 0 0 0 0 0 0 0 0 0 0 0 0 0 0 0 796 799 802 802 802 802 803 804 804 804 804 804 803 803 803 803 802 802 802 801 801 800 800 799 799 798 798 798 798 798 798 799 799 799 800 800 800 799 799 799 800 800 800 0 0 0 0 0 0 0 0 0 0 0 0 0 0 0 0 0 0 0 0 0 0 0 0 0 0 0 0 0 0 0 0 0 0 0 0 0 0 0 0 0 0 0 0 0 0 795 799 804 804 805 805 805 805 805 804 804 804 804 804 804 804 804 804 804 804 804 803 803 803 803 803 803 803 804 804 804 804 804 804 804 804 804 805 805 805 805 805 804 0 0 0 0 0 0 0 0 0 0 0 0 0 0 0 0 0 0 0 0 0 0 0 0 0 0 0 0 0 0 0 0 0 0 0 0 0 0 0 0 0 0 0 0 0 0 801 801 801 801 799 799 799 799 800 800 800 800 800 799 798 798 798 798 798 798 798 798 799 799 799 799 800 800 800 801 801 801 802 802 802 802 801 801 800 800 800 799 799 0 0 0 0 0 0 0 0 0 0 0 0 0 0 0 0 0 0 0 0 0 0 0 0 0 0 0 0 0 0 0 0 0 0 0 0 0 0 0 0 0 0 0 0 0 0 813 820 822 822 823 823 823 823 823 823 823 824 824 824 824 824 824 824 824 824 826 826 827 827 828 829 829 830 830 831 831 832 833 834 834 834 836 837 837 837 830 828 0 0 0 0 0 0 0 0 0 0 0 0 0 0 0 0 0 0 0 0 0 0 0 0 0 0 0 0 0 0 0 0 0 0 0 0 0 0 0 0 0 0 0 0 0 0 844 864 931 1048 1143 1165 1270 1401 1480 1514 1522 1535 1558 1571 1573 1576 1581 1583 1583 1585 1585 1585 1587 1589 1592 1592 1592 1591 1591 1591 1591 1591 1589 1589 1589 1589 1589 1588 1579 1574 1573 1573 1574 1575 1575 1575 1574 1574 1573 1573 1573 1575 1576 1577 1577 1582 1585 1590 1600 1600 1610 1619 1624 1646 1659 1675 1689 1699 1709 1724 1742 1758 1763 1765 1769 1770 1779 1779 1779 1780 1781 1781 1785 1794 1803 1806 1815 1815 1839 1869 1869 1869 1849 1836 1824 0
834 834 832 832 830 829 828 828 825 820 816 815 811 808 807 805 804 804 804 804 805 805 806 807 808 808 810 810 811 812 812 813 813 813 813 813 813 813 813 813 813 813 813 813 813 813 813 813 813 813 813 814 814 814 814 812 812 811 811 811 811 811 811 811 811 817 817 817 814 809 809 808 808 807 807 807 807 807 0 0 0 0 0 0 0 0 0 0 0 0 0 0 0 0 0 0 0 814 814 815 816 818 822 822 823 823 823 824 825 827 827 827 826 823 821 821 821 823 825 825 826 826 826 826 826 823 823 821 821 821 823 825 825 825 825 825 825 824 824 822 818 817 815 813 0 0 0 0 0 0 0 0 0 0 0 0 0 0 0 0 0 0 0 0 0 0 0 0 0 0 0 0 0 0 0 0 0 0 0 0 0 0 0 0 0 0 0 0 0 796 801 802 802 803 803 803 803 803 804 804 804 804 803 803 803 802 802 802 801 801 800 800 799 799 799 798 798 798 798 798 799 799 799 801 801 801 800 800 800 800 800 800 0 0 0 0 0 0 0 0 0 0 0 0 0 0 0 0 0 0 0 0 0 0 0 0 0 0 0 0 0 0 0 0 0 0 0 0 0 0 0 0 0 0 0 0 0 0 795 795 797 798 801 802 804 804 804 803 803 803 804 804 804 804 804 803 803 803 803 803 803 802 802 802 802 802 803 803 803 803 803 803 803 803 804 804 804 804 804 804 804 0 0 0 0 0 0 0 0 0 0 0 0 0 0 0 0 0 0 0 0 0 0 0 0 0 0 0 0 0 0 0 0 0 0 0 0 0 0 0 0 0 0 0 0 0 0 801 802 802 802 801 799 799 799 800 800 800 800 800 799 799 799 798 798 798 798 798 798 799 799 800 800 800 800 801 801 801 801 802 802 802 802 801 801 800 800 800 799 798 0 0 0 0 0 0 0 0 0 0 0 0 0 0 0 0 0 0 0 0 0 0 0 0 0 0 0 0 0 0 0 0 0 0 0 0 0 0 0 0 0 0 0 0 0 0 813 820 823 824 824 824 824 824 823 823 823 823 824 824 824 824 824 824 824 824 826 826 826 826 827 827 829 829 830 830 830 832 833 833 833 834 836 837 837 837 832 830 0 0 0 0 0 0 0 0 0 0 0 0 0 0 0 0 0 0 0 0 0 0 0 0 0 0 0 0 0 0 0 0 0 0 0 0 0 0 0 0 0 0 0 0 0 829 842 864 925 1042 1141 1160 1272 1399 1479 1504 1509 1520 1537 1556 1562 1566 1575 1576 1576 1576 1576 1576 1581 1589 1589 1589 1588 1587 1586 1584 1582 1579 1579 1579 1580 1580 1580 1578 1569 1565 1565 1564 1564 1564 1564 1565 1565 1565 1564 1555 1550 1542 1542 1542 1549 1561 1564 1567 1577 1578 1593 1601 1606 1614 1623 1631 1646 1659 1669 1671 1678 1681 1720 1737 1740 1751 1752 1753 1753 1756 1756 1756 1767 1769 1769 1769 1769 1769 1771 1791 1849 1849 1849 1836 1829 0
834 834 832 832 830 829 828 825 824 820 816 815 811 808 807 805 804 804 804 804 805 805 806 807 808 809 810 810 811 812 812 813 813 813 813 813 813 813 813 813 813 813 813 813 813 813 813 813 813 813 813 814 814 814 814 812 812 812 812 811 811 811 811 811 811 817 817 817 814 811 811 810 811 809 809 813 814 813 813 809 808 808 808 809 813 813 813 811 803 0 0 0 0 0 0 0 0 813 813 813 813 818 822 822 823 823 823 824 825 827 827 827 826 822 821 821 821 823 825 825 825 825 825 825 825 823 820 820 820 821 823 826 826 826 826 825 825 825 824 819 817 815 813 813 0 0 0 0 0 0 0 0 0 0 0 0 0 0 0 0 0 0 0 0 0 0 0 0 0 0 0 0 0 0 0 0 0 0 0 0 0 0 0 0 0 0 0 0 0 799 801 802 802 802 802 802 802 803 803 803 803 803 803 803 803 802 802 802 802 801 800 800 800 799 799 799 799 798 798 798 799 799 801 801 801 801 801 801 801 800 800 800 0 0 0 0 0 0 0 0 0 0 0 0 0 0 0 0 0 0 0 0 0 0 0 0 0 0 0 0 0 0 0 0 0 0 0 0 0 0 0 0 0 0 0 0 0 0 795 795 796 798 800 802 802 802 802 803 803 803 803 803 803 803 803 803 803 803 803 802 802 802 802 802 802 802 802 802 803 803 803 803 803 803 805 805 805 803 803 800 797 0 0 0 0 0 0 0 0 0 0 0 0 0 0 0 0 0 0 0 0 0 0 0 0 0 0 0 0 0 0 0 0 0 0 0 0 0 0 0 0 0 0 0 0 0 0 800 802 802 802 801 799 799 799 800 800 800 800 800 799 799 799 799 799 798 798 798 798 799 799 800 800 801 801 801 801 802 802 802 802 802 802 801 801 801 801 801 799 798 0 0 0 0 0 0 0 0 0 0 0 0 0 0 0 0 0 0 0 0 0 0 0 0 0 0 0 0 0 0 0 0 0 0 0 0 0 0 0 0 0 0 0 0 0 811 813 820 824 826 826 825 825 825 824 824 824 824 824 824 824 824 824 824 824 824 825 825 826 826 827 827 827 828 829 829 830 830 831 832 832 834 835 836 836 836 832 830 0 0 0 0 0 0 0 0 0 0 0 0 0 0 0 0 0 0 0 0 0 0 0 0 0 0 0 0 0 0 0 0 0 0 0 0 0 0 0 0 0 0 0 0 0 830 841 864 913 1033 1138 1154 1272 1396 1472 1495 1500 1508 1523 1534 1545 1546 1552 1558 1558 1561 1564 1565 1566 1574 1582 1582 1582 1582 1580 1578 1576 1570 1570 1570 1573 1573 1573 1566 1558 1555 1552 1550 1545 1545 1545 1548 1553 1553 1553 1548 1535 1518 1518 1518 1533 1542 1547 1555 1568 1569 1583 1588 1589 1589 1591 1601 1619 1635 1635 1635 1627 1627 1627 1629 1632 1635 1653 1677 1693 1693 1699 1703 1712 1727 1729 1729 1729 1729 1737 1751 1776 1814 1829 1829 1829 0
840 840 838 838 830 829 825 822 821 820 816 812 810 808 806 805 804 804 804 804 805 805 806 807 808 809 810 810 811 812 812 813 813 813 813 813 813 813 813 813 813 813 813 813 813 813 813 813 813 813 814 814 814 814 814 813 812 812 812 812 811 811 811 811 814 817 817 817 816 811 811 811 816 816 816 816 816 816 819 819 819 814 814 814 817 817 817 813 813 812 810 811 811 810 810 811 814 814 814 814 814 818 822 822 822 822 822 823 825 825 825 818 818 818 819 820 820 821 821 822 822 823 825 825 825 821 820 819 819 819 823 826 826 826 826 826 826 826 826 819 817 817 811 810 0 0 0 0 0 0 0 0 0 0 0 0 0 0 0 0 0 0 0 0 0 0 0 0 0 0 0 0 0 0 0 0 0 0 0 0 0 0 0 0 0 0 0 0 0 799 801 802 802 802 801 801 801 801 803 803 803 803 803 802 802 802 802 802 801 801 801 800 800 800 800 800 799 799 799 799 799 800 801 801 802 802 802 802 801 801 801 800 0 0 0 0 0 0 0 0 0 0 0 0 0 0 0 0 0 0 0 0 0 0 0 0 0 0 0 0 0 0 0 0 0 0 0 0 0 0 0 0 0 0 0 0 0 0 792 794 796 798 800 800 801 801 801 802 802 802 802 803 803 803 803 803 802 802 802 802 802 801 801 801 801 802 802 802 802 802 802 802 802 803 805 805 805 803 803 800 797 0 0 0 0 0 0 0 0 0 0 0 0 0 0 0 0 0 0 0 0 0 0 0 0 0 0 0 0 0 0 0 0 0 0 0 0 0 0 0 0 0 0 0 0 0 0 797 798 801 801 801 799 799 799 800 800 800 800 800 800 800 799 799 799 799 799 799 799 800 800 800 801 801 801 802 802 802 802 802 802 802 802 802 802 801 801 801 799 798 0 0 0 0 0 0 0 0 0 0 0 0 0 0 0 0 0 0 0 0 0 0 0 0 0 0 0 0 0 0 0 0 0 0 0 0 0 0 0 0 0 0 0 0 0 812 816 819 826 826 826 826 825 825 824 824 824 824 824 824 824 824 823 823 823 824 825 825 825 826 826 826 826 827 827 828 829 829 829 829 830 830 832 834 834 834 832 829 0 0 0 0 0 0 0 0 0 0 0 0 0 0 0 0 0 0 0 0 0 0 0 0 0 0 0 0 0 0 0 0 0 0 0 0 0 0 0 0 0 0 0 0 0 830 841 861 912 1031 1132 1149 1270 1388 1461 1485 1492 1499 1511 1521 1527 1528 1534 1541 1541 1546 1548 1548 1550 1557 1561 1561 1563 1566 1566 1566 1566 1564 1564 1564 1562 1562 1561 1552 1548 1548 1545 1542 1535 1535 1535 1536 1540 1544 1544 1544 1526 1516 1516 1516 1524 1533 1541 1551 1563 1564 1576 1576 1576 1576 1576 1581 1594 1609 1609 1609 1602 1602 1602 1605 1606 1616 1620 1620 1620 1609 1609 1609 1616 1651 1657 1666 1684 1686 1706 1723 1746 1767 1784 1784 1817 0
840 840 838 838 833 825 824 821 821 818 815 812 809 807 806 805 804 804 804 804 805 805 806 807 808 809 810 810 811 812 812 813 813 813 813 813 813 813 813 813 813 813 813 813 813 813 813 814 814 814 814 814 814 814 814 813 813 813 812 812 811 811 811 812 815 817 817 817 816 815 815 815 818 818 818 818 818 818 819 819 819 814 814 814 817 817 817 813 813 813 815 816 816 815 815 815 814 814 814 813 813 813 811 811 811 809 809 809 809 809 807 805 805 805 808 813 813 813 813 813 816 818 819 821 821 821 820 819 819 820 823 826 826 826 826 826 826 826 826 817 816 813 811 810 0 0 0 0 0 0 0 0 0 0 0 0 0 0 0 0 0 0 0 0 0 0 0 0 0 0 0 0 0 0 0 0 0 0 0 0 0 0 0 0 0 0 0 0 0 799 801 802 802 802 801 801 801 801 803 803 803 803 802 802 801 801 802 802 801 801 801 800 800 800 800 800 799 799 799 799 799 800 801 802 802 802 802 802 802 801 801 800 0 0 0 0 0 0 0 0 0 0 0 0 0 0 0 0 0 0 0 0 0 0 0 0 0 0 0 0 0 0 0 0 0 0 0 0 0 0 0 0 0 0 0 0 0 0 792 794 795 798 799 800 800 801 801 802 802 802 802 802 802 802 802 802 802 802 802 802 801 801 801 801 801 801 801 801 802 802 802 802 802 803 805 805 805 803 803 800 797 0 0 0 0 0 0 0 0 0 0 0 0 0 0 0 0 0 0 0 0 0 0 0 0 0 0 0 0 0 0 0 0 0 0 0 0 0 0 0 0 0 0 0 0 0 0 792 796 801 801 801 800 800 800 800 801 801 801 801 801 800 800 800 800 800 800 800 800 800 800 800 801 801 802 802 802 802 803 803 803 803 802 802 802 802 802 804 804 804 0 0 0 0 0 0 0 0 0 0 0 0 0 0 0 0 0 0 0 0 0 0 0 0 0 0 0 0 0 0 0 0 0 0 0 0 0 0 0 0 0 0 0 0 0 812 816 818 826 826 826 826 825 825 824 824 824 824 824 824 824 824 823 823 823 824 824 825 825 825 825 825 825 825 826 828 828 828 828 828 829 829 829 829 826 826 824 824 0 0 0 0 0 0 0 0 0 0 0 0 0 0 0 0 0 0 0 0 0 0 0 0 0 0 0 0 0 0 0 0 0 0 0 0 0 0 0 0 0 0 0 0 0 833 839 861 912 1031 1127 1149 1270 1378 1450 1477 1482 1489 1500 1511 1516 1517 1519 1526 1527 1533 1538 1541 1541 1544 1549 1549 1549 1549 1546 1545 1545 1545 1550 1552 1552 1552 1549 1543 1543 1542 1541 1539 1535 1531 1531 1531 1531 1531 1531 1530 1523 1516 1516 1516 1516 1522 1530 1543 1557 1558 1569 1569 1569 1569 1569 1572 1577 1586 1587 1587 1587 1587 1587 1596 1598 1606 1606 1606 1605 1588 1580 1580 1579 1579 1581 1593 1611 1613 1621 1645 1672 1709 1750 1750 1753 0
840 840 838 838 833 825 824 818 816 815 814 812 808 807 805 804 804 804 804 804 805 805 806 807 808 809 810 810 811 812 812 813 814 814 814 814 814 814 813 813 813 813 813 813 813 814 814 814 814 814 814 814 814 814 815 814 814 814 814 813 813 813 813 814 817 817 817 817 816 815 815 815 818 818 818 818 818 818 818 818 818 814 814 814 817 817 817 815 815 815 816 818 818 818 815 815 814 813 813 813 0 0 0 0 0 0 0 0 0 0 0 0 0 800 804 807 808 808 809 809 811 815 818 820 820 820 820 819 819 820 821 826 826 826 826 826 826 826 826 817 815 813 810 810 0 0 0 0 0 0 0 0 0 0 0 0 0 0 0 0 0 0 0 0 0 0 0 0 0 0 0 0 0 0 0 0 0 0 0 0 0 0 0 0 0 0 0 0 0 799 801 802 802 802 800 800 800 801 802 802 802 801 801 801 801 801 802 802 801 801 801 800 800 800 800 800 799 799 799 799 799 800 802 802 802 802 802 802 803 803 801 801 0 0 0 0 0 0 0 0 0 0 0 0 0 0 0 0 0 0 0 0 0 0 0 0 0 0 0 0 0 0 0 0 0 0 0 0 0 0 0 0 0 0 0 0 0 0 792 794 795 798 798 799 800 801 801 801 802 802 802 802 802 802 802 802 802 802 802 801 801 801 801 801 801 801 801 801 801 802 802 802 802 805 805 805 805 804 804 803 801 0 0 0 0 0 0 0 0 0 0 0 0 0 0 0 0 0 0 0 0 0 0 0 0 0 0 0 0 0 0 0 0 0 0 0 0 0 0 0 0 0 0 0 0 0 0 789 796 800 800 800 800 800 800 800 801 801 801 801 801 801 801 801 801 800 800 800 800 800 800 801 801 801 802 802 802 803 803 803 803 803 803 802 802 802 803 804 804 804 0 0 0 0 0 0 0 0 0 0 0 0 0 0 0 0 0 0 0 0 0 0 0 0 0 0 0 0 0 0 0 0 0 0 0 0 0 0 0 0 0 0 0 0 0 813 816 818 826 826 826 826 824 824 823 823 823 823 823 824 824 824 823 823 823 823 824 825 825 825 825 825 825 825 826 827 827 827 827 827 827 827 827 826 824 824 824 823 0 0 0 0 0 0 0 0 0 0 0 0 0 0 0 0 0 0 0 0 0 0 0 0 0 0 0 0 0 0 0 0 0 0 0 0 0 0 0 0 0 0 0 0 0 833 839 861 912 1031 1127 1149 1272 1378 1442 1468 1473 1482 1493 1505 1509 1511 1512 1517 1517 1523 1528 1531 1531 1534 1536 1537 1539 1539 1539 1538 1527 1520 1520 1520 1534 1536 1536 1540 1540 1539 1539 1539 1535 1530 1530 1529 1527 1523 1523 1522 1521 1518 1515 1515 1515 1516 1521 1532 1547 1548 1561 1561 1563 1565 1568 1572 1575 1586 1587 1587 1587 1586 1584 1584 1586 1588 1588 1588 1586 1579 1564 1564 1564 1563 1563 1563 1563 1563 1573 1592 1606 1629 1669 1669 1669 0
830 832 832 832 830 820 820 817 815 812 812 811 808 807 805 804 804 804 804 804 805 805 806 807 808 809 810 810 811 812 812 813 814 814 814 814 814 814 814 814 814 814 814 814 814 814 814 814 815 815 815 815 815 815 816 816 816 816 816 816 816 816 816 816 817 817 817 817 817 815 815 815 818 818 818 817 817 817 816 816 816 814 812 812 812 812 813 813 814 815 816 818 818 818 813 811 811 810 810 0 0 0 0 0 0 0 0 0 0 0 0 0 0 0 0 0 0 0 0 0 0 0 0 0 0 0 817 817 817 813 813 813 813 813 814 814 816 817 817 817 813 811 810 810 810 0 0 0 0 0 0 0 0 0 0 0 0 0 0 0 0 0 0 0 0 0 0 0 0 0 0 0 0 0 0 0 0 0 0 0 0 0 0 0 0 0 0 0 795 799 803 803 803 803 800 800 800 803 803 803 801 801 801 801 801 802 803 803 803 801 801 800 800 799 798 798 798 798 798 799 799 801 802 802 802 803 802 802 802 803 801 801 0 0 0 0 0 0 0 0 0 0 0 0 0 0 0 0 0 0 0 0 0 0 0 0 0 0 0 0 0 0 0 0 0 0 0 0 0 0 0 0 0 0 0 0 0 0 793 793 795 797 797 799 800 801 801 801 802 802 801 801 801 801 801 801 801 801 801 801 801 801 801 801 801 801 801 801 801 801 802 802 803 803 803 803 803 803 806 806 806 0 0 0 0 0 0 0 0 0 0 0 0 0 0 0 0 0 0 0 0 0 0 0 0 0 0 0 0 0 0 0 0 0 0 0 0 0 0 0 0 0 0 0 0 0 0 789 796 800 800 800 800 800 800 800 801 801 801 801 801 801 801 801 801 801 801 801 801 801 801 801 801 802 802 802 803 803 803 803 803 803 803 802 802 803 805 805 805 805 0 0 0 0 0 0 0 0 0 0 0 0 0 0 0 0 0 0 0 0 0 0 0 0 0 0 0 0 0 0 0 0 0 0 0 0 0 0 0 0 0 0 0 0 0 813 816 818 825 825 825 823 822 822 822 822 822 823 823 823 823 823 823 823 823 823 824 824 825 825 825 825 825 825 826 826 827 827 827 827 827 827 827 826 824 824 824 823 0 0 0 0 0 0 0 0 0 0 0 0 0 0 0 0 0 0 0 0 0 0 0 0 0 0 0 0 0 0 0 0 0 0 0 0 0 0 0 0 0 0 0 0 0 830 839 858 910 1040 1127 1155 1272 1378 1441 1467 1471 1480 1491 1500 1504 1508 1508 1509 1510 1513 1517 1519 1519 1520 1523 1523 1525 1528 1528 1528 1526 1516 1516 1516 1517 1525 1529 1534 1535 1535 1535 1535 1531 1527 1527 1527 1521 1520 1520 1518 1518 1518 1514 1514 1514 1515 1516 1522 1535 1535 1544 1551 1555 1561 1568 1572 1575 1583 1587 1587 1587 1580 1579 1578 1577 1577 1576 1576 1576 1569 1560 1560 1560 1563 1563 1563 1562 1562 1562 1573 1576 1576 1578 1576 1576 0
829 830 829 829 827 818 817 817 813 812 811 810 808 807 805 804 804 804 804 804 805 805 806 807 808 809 810 810 811 812 812 813 814 814 814 814 814 814 814 814 814 814 814 814 814 814 814 814 815 815 815 815 816 816 817 817 817 817 817 818 818 818 818 818 818 819 819 818 818 818 818 818 818 818 818 818 817 817 816 816 816 815 812 812 812 812 813 813 814 815 815 818 818 818 813 811 809 808 802 0 0 0 0 0 0 0 0 0 0 0 0 0 0 0 0 0 0 0 0 0 0 0 0 0 0 0 0 0 0 0 0 0 0 0 0 0 0 0 0 0 804 809 810 810 810 810 0 0 0 0 0 0 0 0 0 0 0 0 0 0 0 0 0 0 0 0 0 0 0 0 0 0 0 0 0 0 0 0 0 0 0 0 0 0 0 0 0 0 796 804 804 804 804 803 803 803 803 803 803 803 801 801 801 801 802 802 802 802 801 801 799 799 799 799 798 798 798 798 799 799 800 801 802 802 802 803 802 802 803 803 803 803 0 0 0 0 0 0 0 0 0 0 0 0 0 0 0 0 0 0 0 0 0 0 0 0 0 0 0 0 0 0 0 0 0 0 0 0 0 0 0 0 0 0 0 0 0 0 793 793 795 797 797 799 800 801 801 801 801 801 801 801 801 801 801 801 801 801 801 801 801 801 801 801 801 801 801 801 801 801 802 802 802 802 802 802 802 803 806 806 806 0 0 0 0 0 0 0 0 0 0 0 0 0 0 0 0 0 0 0 0 0 0 0 0 0 0 0 0 0 0 0 0 0 0 0 0 0 0 0 0 0 0 0 0 0 0 789 797 800 800 801 801 801 801 801 801 801 802 802 802 802 802 802 802 802 802 802 802 802 802 802 802 802 802 802 803 803 803 803 803 803 802 802 802 805 805 806 805 805 0 0 0 0 0 0 0 0 0 0 0 0 0 0 0 0 0 0 0 0 0 0 0 0 0 0 0 0 0 0 0 0 0 0 0 0 0 0 0 0 0 0 0 0 0 813 815 820 825 825 825 822 822 822 822 822 822 822 822 823 823 823 823 823 823 823 824 824 824 825 825 825 825 825 826 826 826 826 826 826 826 826 826 826 826 826 824 823 0 0 0 0 0 0 0 0 0 0 0 0 0 0 0 0 0 0 0 0 0 0 0 0 0 0 0 0 0 0 0 0 0 0 0 0 0 0 0 0 0 0 0 0 0 0 839 858 912 1045 1147 1189 1301 1392 1440 1459 1468 1476 1489 1496 1499 1501 1501 1502 1503 1504 1504 1506 1506 1510 1511 1512 1513 1517 1521 1521 1521 1515 1515 1515 1516 1522 1529 1531 1531 1531 1530 1529 1523 1523 1523 1521 1521 1519 1519 1518 1518 1518 1514 1513 1513 1514 1514 1516 1516 1519 1532 1541 1551 1558 1566 1572 1575 1583 1587 1587 1587 1579 1577 1574 1568 1563 1563 1563 1563 1563 1560 1560 1560 1563 1563 1563 1562 1562 1562 1559 1559 1561 1561 1557 1561 0
828 828 823 823 820 817 817 815 813 812 811 809 808 806 805 804 804 803 803 804 804 805 805 807 807 809 810 810 811 812 813 813 814 814 814 814 814 814 814 814 814 814 814 814 814 814 814 814 815 815 816 816 817 818 818 819 819 819 819 819 820 820 819 819 819 819 819 819 819 819 818 818 818 818 818 818 817 817 817 816 816 815 812 812 812 812 812 813 813 813 814 816 816 816 813 810 810 808 792 0 0 0 0 0 0 0 0 0 0 0 0 0 0 0 0 0 0 0 0 0 0 0 0 0 0 0 0 0 0 0 0 0 0 0 0 0 0 0 0 0 0 0 0 810 810 810 807 806 799 799 799 800 802 802 802 786 786 773 769 0 0 0 0 0 0 0 0 0 0 0 0 0 0 0 0 0 0 0 0 0 0 0 0 0 0 0 0 0 797 802 802 803 802 802 802 803 803 803 803 803 801 801 801 803 803 803 803 801 800 799 799 799 798 798 798 798 798 798 799 800 800 801 802 802 802 803 801 801 801 803 801 800 0 0 0 0 0 0 0 0 0 0 0 0 0 0 0 0 0 0 0 0 0 0 0 0 0 0 0 0 0 0 0 0 0 0 0 0 0 0 0 0 0 0 0 0 0 0 793 793 795 797 797 799 801 801 801 801 801 801 801 801 801 801 801 801 801 801 801 801 801 801 801 801 801 801 801 801 801 801 801 802 802 802 802 802 802 802 806 806 806 0 0 0 0 0 0 0 0 0 0 0 0 0 0 0 0 0 0 0 0 0 0 0 0 0 0 0 0 0 0 0 0 0 0 0 0 0 0 0 0 0 0 0 0 0 0 799 799 800 800 801 802 802 802 803 803 803 802 802 802 802 802 802 802 802 802 802 802 802 802 802 802 802 803 803 803 804 804 804 804 803 803 803 803 805 805 806 805 805 0 0 0 0 0 0 0 0 0 0 0 0 0 0 0 0 0 0 0 0 0 0 0 0 0 0 0 0 0 0 0 0 0 0 0 0 0 0 0 0 0 0 0 0 0 815 815 821 823 823 823 822 821 821 821 822 822 822 822 822 823 823 823 823 823 823 824 824 824 825 825 825 825 825 826 826 826 826 826 826 826 826 826 825 825 825 824 823 0 0 0 0 0 0 0 0 0 0 0 0 0 0 0 0 0 0 0 0 0 0 0 0 0 0 0 0 0 0 0 0 0 0 0 0 0 0 0 0 0 0 0 0 0 0 839 858 912 1050 1165 1210 1325 1392 1435 1451 1462 1471 1481 1489 1489 1490 1491 1492 1493 1495 1498 1498 1499 1501 1501 1502 1502 1502 1509 1513 1513 1513 1513 1513 1514 1521 1528 1528 1528 1527 1527 1525 1521 1518 1517 1517 1515 1516 1516 1515 1515 1515 1511 1509 1509 1509 1514 1514 1514 1515 1517 1532 1544 1557 1562 1572 1574 1583 1587 1587 1587 1576 1568 1566 1557 1557 1557 1563 1563 1563 1559 1559 1559 1563 1563 1563 1562 1559 1557 1555 1551 1551 1550 1544 1550 0
823 823 823 823 817 816 815 815 813 811 810 809 808 806 805 804 803 803 803 803 804 805 805 807 807 808 810 810 811 812 813 813 814 814 814 814 814 814 814 814 814 814 814 814 814 814 814 814 815 816 816 817 819 819 819 820 820 820 821 821 821 821 820 820 820 820 820 820 820 819 819 819 819 819 819 818 817 817 817 816 816 815 814 813 812 812 812 812 812 813 814 814 814 812 812 810 810 808 0 0 0 0 0 0 0 0 0 0 0 0 0 0 0 0 0 0 0 0 0 0 0 0 0 0 0 0 0 0 0 0 0 0 0 0 0 0 0 0 0 0 0 0 0 806 807 807 807 806 801 801 801 803 804 804 805 805 804 805 805 806 807 807 807 807 799 799 799 799 799 798 798 797 0 0 0 0 0 0 0 0 0 0 0 0 0 0 0 795 797 802 802 803 802 802 802 803 803 803 803 803 804 804 805 805 805 805 805 801 800 799 799 799 798 798 798 798 798 798 799 801 801 801 802 802 802 803 801 801 803 803 803 803 0 0 0 0 0 0 0 0 0 0 0 0 0 0 0 0 0 0 0 0 0 0 0 0 0 0 0 0 0 0 0 0 0 0 0 0 0 0 0 0 0 0 0 0 0 0 792 793 795 797 800 801 802 802 802 802 801 801 801 801 801 801 800 800 800 800 800 800 800 800 801 801 801 801 801 801 801 801 801 802 802 802 801 801 801 802 802 802 0 0 0 0 0 0 0 0 0 0 0 0 0 0 0 0 0 0 0 0 0 0 0 0 0 0 0 0 0 0 0 0 0 0 0 0 0 0 0 0 0 0 0 0 0 0 790 799 802 802 802 802 802 803 804 804 804 803 803 803 803 803 803 803 803 803 803 803 803 803 803 803 803 803 803 803 804 804 804 804 804 804 803 803 803 804 804 805 804 804 0 0 0 0 0 0 0 0 0 0 0 0 0 0 0 0 0 0 0 0 0 0 0 0 0 0 0 0 0 0 0 0 0 0 0 0 0 0 0 0 0 0 0 0 0 815 816 820 821 821 821 821 821 821 821 822 822 822 822 823 823 823 823 823 824 824 824 824 824 825 825 825 825 825 825 826 826 826 826 826 826 826 825 825 825 825 825 825 0 0 0 0 0 0 0 0 0 0 0 0 0 0 0 0 0 0 0 0 0 0 0 0 0 0 0 0 0 0 0 0 0 0 0 0 0 0 0 0 0 0 0 0 0 0 836 854 911 1057 1165 1221 1329 1392 1431 1444 1455 1464 1473 1479 1481 1482 1485 1486 1486 1488 1491 1492 1493 1493 1493 1494 1494 1495 1501 1504 1505 1506 1506 1507 1512 1516 1519 1519 1519 1519 1519 1517 1515 1512 1508 1505 1505 1505 1506 1509 1509 1509 1504 1504 1504 1509 1511 1512 1512 1513 1516 1520 1537 1553 1562 1569 1569 1574 1576 1576 1576 1570 1561 1560 1554 1554 1554 1559 1559 1559 1557 1557 1557 1563 1563 1563 1562 1561 1557 1555 1551 1540 1536 1531 1531 0
823 823 820 820 815 815 814 814 812 810 810 809 808 806 805 804 803 803 803 803 804 805 805 807 807 808 810 810 811 812 813 813 814 814 814 814 814 815 814 814 814 814 814 814 814 814 814 815 816 816 817 818 819 819 820 821 821 822 822 822 822 821 821 821 821 820 820 820 820 820 820 821 821 821 820 818 817 817 817 817 816 815 814 813 812 812 812 812 812 813 814 814 814 812 812 811 810 810 0 0 0 0 0 0 0 0 0 0 0 0 0 0 0 0 0 0 0 0 0 0 0 0 0 0 0 0 0 0 0 0 0 0 0 0 0 0 0 0 0 0 0 0 0 803 806 806 806 806 802 802 802 803 804 804 805 805 804 805 805 810 810 810 810 809 808 808 808 806 806 801 801 801 801 801 799 798 797 795 794 792 792 790 789 786 786 786 796 797 798 797 796 796 792 792 790 790 790 792 800 802 803 804 805 805 805 805 805 800 799 799 798 798 798 804 804 804 803 801 801 801 802 802 803 803 803 803 802 802 803 803 803 803 0 0 0 0 0 0 0 0 0 0 0 0 0 0 0 0 0 0 0 0 0 0 0 0 0 0 0 0 0 0 0 0 0 0 0 0 0 0 0 0 0 0 0 0 0 0 792 794 795 799 801 801 802 802 802 802 801 801 801 801 801 800 800 800 800 800 800 800 800 800 801 801 801 801 801 800 800 800 801 801 801 801 800 800 801 802 802 802 0 0 0 0 0 0 0 0 0 0 0 0 0 0 0 0 0 0 0 0 0 0 0 0 0 0 0 0 0 0 0 0 0 0 0 0 0 0 0 0 0 0 0 0 0 0 796 799 805 805 805 804 804 804 804 804 804 804 804 804 804 804 804 804 804 804 804 804 804 803 803 803 803 803 804 804 804 804 804 804 804 804 804 803 803 803 804 804 804 804 0 0 0 0 0 0 0 0 0 0 0 0 0 0 0 0 0 0 0 0 0 0 0 0 0 0 0 0 0 0 0 0 0 0 0 0 0 0 0 0 0 0 0 0 0 820 820 821 821 821 820 820 820 820 821 821 822 822 822 822 823 823 823 823 824 824 824 824 824 825 825 825 825 825 825 825 825 825 825 825 825 825 824 824 824 823 821 0 0 0 0 0 0 0 0 0 0 0 0 0 0 0 0 0 0 0 0 0 0 0 0 0 0 0 0 0 0 0 0 0 0 0 0 0 0 0 0 0 0 0 0 0 0 0 835 853 910 1061 1165 1221 1337 1400 1428 1443 1451 1460 1463 1467 1472 1476 1479 1480 1480 1480 1482 1483 1484 1484 1485 1485 1487 1490 1493 1493 1494 1495 1496 1498 1502 1506 1507 1508 1508 1508 1508 1508 1506 1503 1500 1497 1497 1497 1499 1502 1502 1502 1499 1495 1495 1495 1498 1503 1503 1510 1514 1519 1524 1532 1547 1555 1555 1560 1566 1566 1566 1564 1555 1552 1552 1552 1553 1554 1557 1557 1557 1557 1557 1557 1564 1564 1564 1563 1557 1555 1551 1540 1536 1519 1513 0
821 821 819 819 811 811 811 811 811 810 809 808 807 806 805 803 803 803 803 803 804 805 805 806 807 808 809 810 811 812 813 813 814 814 814 814 814 815 814 814 814 814 814 814 814 814 814 815 816 817 817 818 819 820 820 821 821 822 822 822 822 822 822 821 821 820 820 820 820 820 820 821 821 821 820 819 818 818 817 817 816 815 814 814 813 813 813 812 812 812 814 814 814 813 813 812 811 810 0 0 0 0 0 0 0 0 0 0 0 0 0 0 0 0 0 0 0 0 0 0 0 0 0 0 0 0 0 0 0 0 0 0 0 0 0 0 0 0 0 0 0 0 0 803 804 804 804 803 802 802 802 803 803 804 805 805 805 806 806 811 815 815 815 811 809 809 808 807 806 806 806 808 809 811 811 811 810 807 805 804 803 802 801 800 800 799 799 798 796 0 0 0 0 0 0 0 0 0 792 799 802 804 805 805 805 803 800 797 797 797 797 797 797 804 804 804 803 801 801 801 802 802 802 802 805 805 800 803 803 801 800 800 0 0 0 0 0 0 0 0 0 0 0 0 0 0 0 0 0 0 0 0 0 0 0 0 0 0 0 0 0 0 0 0 0 0 0 0 0 0 0 0 0 0 0 0 0 0 793 796 796 801 801 801 802 802 802 802 802 802 802 801 801 800 800 800 799 799 799 800 800 800 801 801 801 801 801 800 800 800 800 800 800 800 800 800 801 800 799 799 0 0 0 0 0 0 0 0 0 0 0 0 0 0 0 0 0 0 0 0 0 0 0 0 0 0 0 0 0 0 0 0 0 0 0 0 0 0 0 0 0 0 0 0 0 0 797 799 805 806 806 806 805 805 805 805 805 805 805 805 804 804 804 804 804 804 804 804 804 804 804 804 804 804 804 804 804 805 805 805 805 804 804 804 804 804 804 804 804 804 0 0 0 0 0 0 0 0 0 0 0 0 0 0 0 0 0 0 0 0 0 0 0 0 0 0 0 0 0 0 0 0 0 0 0 0 0 0 0 0 0 0 0 0 0 820 820 820 820 820 819 818 818 818 820 820 821 821 821 822 823 823 823 823 823 824 824 824 824 824 824 825 825 825 825 825 825 825 825 825 825 825 824 824 824 822 821 0 0 0 0 0 0 0 0 0 0 0 0 0 0 0 0 0 0 0 0 0 0 0 0 0 0 0 0 0 0 0 0 0 0 0 0 0 0 0 0 0 0 0 0 0 0 828 835 850 908 1073 1164 1227 1341 1400 1426 1442 1448 1455 1457 1458 1461 1467 1471 1471 1472 1473 1474 1474 1474 1474 1474 1474 1479 1481 1482 1482 1483 1485 1486 1487 1491 1495 1498 1499 1499 1499 1499 1498 1497 1492 1490 1488 1488 1488 1488 1492 1492 1492 1490 1490 1490 1491 1492 1493 1494 1497 1506 1510 1511 1513 1515 1518 1527 1543 1557 1557 1557 1555 1546 1544 1544 1544 1542 1544 1546 1551 1552 1553 1553 1553 1564 1564 1564 1563 1563 1561 1560 1560 1536 1519 1511 0
819 819 818 818 811 811 811 811 811 809 808 808 806 806 805 803 803 803 803 803 804 804 805 806 807 808 809 810 811 812 813 813 814 814 814 814 814 815 814 814 814 814 814 814 815 815 815 816 816 817 818 819 819 820 820 821 822 822 822 822 822 822 822 822 821 821 821 821 821 821 821 821 821 821 820 819 818 818 818 817 815 815 814 814 814 814 813 812 812 812 814 816 816 816 816 815 813 811 0 0 0 0 0 0 0 0 0 0 0 0 0 0 0 0 0 0 0 0 0 0 0 0 0 0 0 0 0 0 0 0 0 0 0 0 0 0 0 0 0 0 0 0 0 800 802 802 801 801 801 801 801 802 803 803 804 805 805 805 806 811 814 814 814 812 809 809 809 809 810 810 810 810 810 811 812 812 812 812 812 811 811 811 808 808 807 802 801 795 0 0 0 0 0 0 0 0 0 0 0 0 0 0 0 0 0 0 0 0 0 0 0 0 0 804 804 804 803 801 799 801 802 802 802 802 803 803 799 799 801 800 799 798 0 0 0 0 0 0 0 0 0 0 0 0 0 0 0 0 0 0 0 0 0 0 0 0 0 0 0 0 0 0 0 0 0 0 0 0 0 0 0 0 0 0 0 0 0 0 796 801 802 802 802 801 801 801 801 801 802 802 802 802 801 801 800 800 799 799 799 800 800 801 801 801 799 799 799 799 799 799 799 799 800 800 800 800 801 800 799 799 0 0 0 0 0 0 0 0 0 0 0 0 0 0 0 0 0 0 0 0 0 0 0 0 0 0 0 0 0 0 0 0 0 0 0 0 0 0 0 0 0 0 0 0 0 0 797 799 804 806 806 806 805 805 805 805 805 805 805 805 805 805 805 805 805 805 805 805 805 805 805 805 805 805 805 805 805 805 806 806 807 807 807 807 805 805 805 805 805 803 0 0 0 0 0 0 0 0 0 0 0 0 0 0 0 0 0 0 0 0 0 0 0 0 0 0 0 0 0 0 0 0 0 0 0 0 0 0 0 0 0 0 0 0 0 820 820 820 818 818 818 818 818 818 820 820 821 821 821 822 822 823 823 823 823 823 824 824 824 824 824 824 824 824 825 825 825 825 825 825 825 825 824 824 824 822 821 0 0 0 0 0 0 0 0 0 0 0 0 0 0 0 0 0 0 0 0 0 0 0 0 0 0 0 0 0 0 0 0 0 0 0 0 0 0 0 0 0 0 0 0 0 0 828 835 850 908 1074 1163 1235 1341 1400 1425 1435 1440 1445 1448 1450 1454 1460 1465 1465 1466 1466 1466 1466 1466 1463 1463 1463 1466 1471 1471 1472 1472 1477 1482 1483 1483 1484 1490 1490 1490 1490 1490 1489 1488 1483 1481 1481 1481 1481 1481 1480 1480 1480 1481 1483 1485 1486 1486 1486 1488 1488 1495 1499 1499 1502 1502 1502 1505 1518 1529 1529 1529 1524 1523 1523 1523 1530 1538 1541 1541 1541 1541 1544 1548 1553 1556 1559 1560 1560 1561 1561 1560 1560 1538 1519 1504 0
819 819 818 818 810 810 810 810 810 808 807 806 806 805 804 803 803 803 803 803 804 804 805 806 807 808 809 810 811 812 813 814 814 814 814 814 815 815 814 814 814 814 814 815 815 815 815 816 817 818 818 819 819 820 820 822 822 822 822 822 823 823 823 822 822 822 822 822 821 821 821 821 821 821 820 819 819 818 818 817 815 815 814 814 814 814 813 812 812 812 813 816 816 816 816 816 813 810 0 0 0 0 0 0 0 0 0 0 0 0 0 0 0 0 0 0 0 0 0 0 0 0 0 0 0 0 0 0 0 0 0 0 0 0 0 0 0 0 0 0 0 0 0 799 801 801 801 801 801 801 801 801 802 803 804 805 805 805 806 811 814 814 814 812 809 808 808 808 810 810 810 810 810 811 814 815 815 816 815 815 816 816 814 812 810 804 801 0 0 0 0 0 0 0 0 0 0 0 0 0 0 0 0 0 0 0 0 0 0 0 0 0 0 0 0 0 0 0 0 0 0 0 0 0 0 0 797 797 797 797 796 795 0 0 0 0 0 0 0 0 0 0 0 0 0 0 0 0 0 0 0 0 0 0 0 0 0 0 0 0 0 0 0 0 0 0 0 0 0 0 0 0 0 0 0 0 0 797 799 801 801 801 801 801 801 800 800 800 802 802 802 802 801 801 801 800 799 799 799 800 801 801 801 801 799 799 799 799 799 799 799 799 801 802 802 802 802 801 799 797 0 0 0 0 0 0 0 0 0 0 0 0 0 0 0 0 0 0 0 0 0 0 0 0 0 0 0 0 0 0 0 0 0 0 0 0 0 0 0 0 0 0 0 0 0 0 797 799 804 806 806 806 805 805 805 805 805 805 805 805 805 805 805 805 805 806 806 806 806 806 806 806 806 806 806 806 806 806 807 807 807 808 808 808 808 808 807 807 807 0 0 0 0 0 0 0 0 0 0 0 0 0 0 0 0 0 0 0 0 0 0 0 0 0 0 0 0 0 0 0 0 0 0 0 0 0 0 0 0 0 0 0 0 0 0 816 817 818 818 818 818 818 818 818 819 820 820 821 821 821 822 822 822 823 823 823 824 824 824 824 824 824 824 824 824 825 825 825 825 825 825 825 824 824 824 822 821 0 0 0 0 0 0 0 0 0 0 0 0 0 0 0 0 0 0 0 0 0 0 0 0 0 0 0 0 0 0 0 0 0 0 0 0 0 0 0 0 0 0 0 0 0 0 829 834 850 908 1095 1159 1248 1342 1400 1425 1426 1429 1437 1439 1442 1446 1451 1456 1456 1458 1458 1460 1460 1458 1458 1460 1460 1460 1461 1461 1462 1465 1471 1478 1479 1480 1480 1480 1484 1484 1484 1483 1482 1480 1477 1477 1477 1476 1476 1476 1475 1475 1475 1475 1477 1480 1481 1481 1481 1481 1482 1485 1489 1489 1489 1490 1490 1492 1496 1503 1506 1506 1506 1499 1499 1499 1510 1524 1530 1531 1532 1535 1535 1541 1550 1556 1559 1560 1560 1561 1561 1560 1560 1538 1519 1500 0
814 814 812 812 810 810 810 810 809 807 805 805 805 804 802 802 802 802 802 803 803 804 805 806 807 808 809 810 811 812 813 814 814 814 814 814 814 815 814 814 814 814 814 815 815 815 815 816 817 818 818 819 819 820 820 822 822 822 823 823 823 823 823 823 822 822 822 822 822 821 821 821 821 821 820 820 819 818 818 817 815 814 814 814 814 814 813 812 812 812 812 816 817 817 817 817 813 810 0 0 0 0 0 0 0 0 0 0 0 0 0 0 0 0 0 0 0 0 0 0 0 0 0 0 0 0 0 0 0 0 0 0 0 0 0 0 0 0 0 0 0 0 0 799 799 800 802 802 802 802 802 802 802 803 803 804 805 805 806 809 812 812 812 811 809 807 807 807 810 810 810 810 810 811 814 815 815 816 815 815 816 816 814 813 810 804 802 0 0 0 0 0 0 0 0 0 0 0 0 0 0 0 0 0 0 0 0 0 0 0 0 0 0 0 0 0 0 0 0 0 0 0 0 0 0 0 0 0 0 0 0 0 0 787 787 787 770 0 0 0 0 0 0 0 0 0 0 0 0 0 0 0 0 0 0 0 0 0 0 0 0 0 0 0 0 0 0 0 0 0 0 0 0 0 0 0 0 798 799 801 801 801 801 800 800 800 800 800 802 802 802 802 802 802 801 800 799 799 799 800 801 801 801 800 799 799 799 799 799 799 799 799 801 802 802 802 802 801 799 797 0 0 0 0 0 0 0 0 0 0 0 0 0 0 0 0 0 0 0 0 0 0 0 0 0 0 0 0 0 0 0 0 0 0 0 0 0 0 0 0 0 0 0 0 0 0 800 803 804 806 806 806 805 805 805 805 805 805 805 805 805 805 805 805 805 806 806 807 807 807 806 806 806 806 807 807 807 807 807 807 807 808 809 809 809 809 809 808 808 0 0 0 0 0 0 0 0 0 0 0 0 0 0 0 0 0 0 0 0 0 0 0 0 0 0 0 0 0 0 0 0 0 0 0 0 0 0 0 0 0 0 0 0 0 0 816 817 817 818 818 818 818 818 819 819 820 820 820 820 820 821 821 822 822 822 822 823 823 823 823 823 824 824 824 824 824 825 825 825 825 825 825 824 824 824 824 824 0 0 0 0 0 0 0 0 0 0 0 0 0 0 0 0 0 0 0 0 0 0 0 0 0 0 0 0 0 0 0 0 0 0 0 0 0 0 0 0 0 0 0 0 0 0 829 835 850 918 1101 1156 1257 1342 1400 1419 1421 1421 1424 1430 1433 1435 1438 1438 1446 1449 1449 1451 1451 1451 1452 1452 1452 1452 1453 1453 1455 1456 1467 1474 1474 1474 1474 1474 1474 1475 1475 1475 1474 1473 1473 1472 1472 1472 1472 1472 1471 1471 1471 1472 1473 1475 1476 1476 1476 1477 1477 1478 1479 1479 1481 1482 1482 1484 1484 1491 1499 1499 1499 1496 1496 1496 1499 1510 1514 1514 1514 1514 1514 1514 1524 1545 1545 1545 1541 1541 1541 1540 1540 1538 1519 1497 0
813 813 811 811 810 810 809 809 808 806 805 805 804 803 802 802 802 802 802 803 803 804 805 806 807 808 809 810 811 812 813 814 814 815 815 815 815 814 814 814 814 814 814 814 815 815 816 816 817 818 818 819 820 821 821 822 822 823 823 823 823 823 823 823 822 822 822 822 822 821 821 821 821 821 820 820 819 818 818 817 815 815 814 814 814 814 813 812 811 811 811 813 814 815 815 815 813 808 0 0 0 0 0 0 0 0 0 0 0 0 0 0 0 0 0 0 0 0 0 0 0 0 0 0 0 0 0 0 0 0 0 0 0 0 0 0 0 0 0 0 0 0 0 800 801 804 804 804 803 802 802 802 802 803 803 804 804 805 805 808 810 811 811 811 809 807 806 806 806 808 809 809 809 811 814 815 815 816 815 815 816 816 814 813 810 803 801 0 0 0 0 0 0 0 0 0 0 0 0 0 0 0 0 0 0 0 0 0 0 0 0 0 0 0 0 0 0 0 0 0 0 0 0 0 0 0 0 0 0 0 0 0 0 800 800 800 795 795 793 791 793 796 802 803 803 803 799 789 784 783 0 0 0 0 0 0 0 0 0 0 0 0 0 0 0 0 0 0 0 0 0 0 0 0 0 0 0 798 799 799 800 800 800 800 800 799 799 799 801 801 802 802 802 802 802 802 801 801 801 801 801 801 801 800 799 799 799 799 799 798 798 798 801 802 802 802 801 800 799 797 0 0 0 0 0 0 0 0 0 0 0 0 0 0 0 0 0 0 0 0 0 0 0 0 0 0 0 0 0 0 0 0 0 0 0 0 0 0 0 0 0 0 0 0 0 0 800 803 804 804 804 805 805 805 805 806 806 806 806 806 806 805 805 805 805 806 806 807 807 807 807 807 807 807 808 808 808 808 808 808 808 808 809 809 809 809 809 808 808 0 0 0 0 0 0 0 0 0 0 0 0 0 0 0 0 0 0 0 0 0 0 0 0 0 0 0 0 0 0 0 0 0 0 0 0 0 0 0 0 0 0 0 0 0 0 815 816 818 819 820 820 820 819 819 819 819 820 820 820 820 820 820 821 821 821 822 822 822 822 823 823 823 823 823 823 823 824 825 825 825 825 825 825 825 828 828 828 0 0 0 0 0 0 0 0 0 0 0 0 0 0 0 0 0 0 0 0 0 0 0 0 0 0 0 0 0 0 0 0 0 0 0 0 0 0 0 0 0 0 0 0 0 0 828 835 854 922 1101 1150 1257 1342 1391 1412 1414 1414 1414 1422 1425 1426 1427 1428 1431 1437 1440 1441 1442 1443 1445 1445 1445 1446 1446 1448 1449 1452 1457 1468 1468 1468 1466 1466 1465 1465 1465 1465 1465 1466 1470 1470 1470 1468 1467 1466 1466 1466 1468 1471 1473 1473 1473 1471 1471 1471 1471 1472 1472 1472 1473 1476 1480 1482 1483 1483 1491 1491 1491 1491 1491 1491 1492 1494 1494 1494 1487 1487 1487 1487 1489 1507 1508 1508 1508 1507 1504 1498 1498 1496 1489 1496 0
808 808 808 808 808 808 808 808 806 805 805 804 803 803 802 802 802 802 802 802 803 804 805 806 807 809 809 810 811 812 813 814 814 814 815 815 815 815 814 814 814 814 814 815 815 815 816 816 817 818 819 820 820 821 821 822 823 823 823 823 823 823 823 823 822 822 822 822 822 821 821 821 821 820 820 820 819 818 818 817 815 815 815 814 814 814 813 811 811 811 811 811 811 815 815 815 813 0 0 0 0 0 0 0 0 0 0 0 0 0 0 0 0 0 0 0 0 0 0 0 0 0 0 0 0 0 0 0 0 0 0 0 0 0 0 0 0 0 0 0 0 0 0 803 805 805 805 804 804 804 803 803 803 803 803 804 804 805 805 807 808 808 809 809 809 807 806 806 806 807 808 809 809 811 813 814 815 815 815 815 814 812 811 810 810 806 801 0 0 0 0 0 0 0 0 0 0 0 0 0 0 0 0 0 0 0 0 0 0 0 0 0 0 0 0 0 0 0 0 0 0 0 0 0 0 0 0 0 0 0 0 0 798 801 801 801 799 799 798 799 799 800 805 805 805 803 800 794 794 794 796 796 796 796 796 796 796 795 787 0 0 0 0 0 0 0 0 0 0 0 0 0 0 0 0 0 2 795 796 796 796 796 796 796 796 796 797 798 798 799 800 801 802 802 802 801 801 801 801 802 802 802 801 800 799 799 799 799 799 798 798 798 799 799 799 799 798 798 798 797 0 0 0 0 0 0 0 0 0 0 0 0 0 0 0 0 0 0 0 0 0 0 0 0 0 0 0 0 0 0 0 0 0 0 0 0 0 0 0 0 0 0 0 0 0 0 802 805 805 805 805 805 805 805 805 806 806 806 807 807 807 805 805 805 805 806 807 807 807 807 807 807 807 808 808 809 809 809 808 808 808 808 809 809 809 810 810 809 809 0 0 0 0 0 0 0 0 0 0 0 0 0 0 0 0 0 0 0 0 0 0 0 0 0 0 0 0 0 0 0 0 0 0 0 0 0 0 0 0 0 0 0 0 0 0 813 815 818 819 820 820 820 819 819 819 819 819 819 819 819 820 820 820 820 820 821 821 821 821 822 822 823 823 823 823 823 823 823 825 826 826 828 828 830 830 830 828 0 0 0 0 0 0 0 0 0 0 0 0 0 0 0 0 0 0 0 0 0 0 0 0 0 0 0 0 0 0 0 0 0 0 0 0 0 0 0 0 0 0 0 0 0 0 827 834 858 927 1111 1148 1266 1340 1385 1402 1406 1408 1411 1416 1419 1419 1420 1420 1421 1423 1428 1431 1434 1435 1436 1438 1438 1439 1439 1442 1444 1445 1450 1457 1458 1458 1459 1459 1459 1459 1459 1459 1459 1459 1460 1463 1463 1463 1461 1458 1458 1458 1463 1470 1472 1472 1472 1468 1467 1466 1466 1466 1469 1469 1471 1474 1480 1480 1480 1482 1482 1484 1487 1487 1489 1489 1488 1488 1488 1484 1479 1479 1479 1484 1487 1487 1487 1486 1486 1486 1486 1485 1485 1478 1474 1464 0
808 808 808 808 807 805 804 804 804 803 803 803 803 803 802 802 801 801 801 802 803 804 805 806 807 809 809 810 811 812 813 814 814 814 814 815 815 814 814 814 814 814 815 815 815 815 816 816 817 818 819 820 821 821 821 822 823 823 823 823 823 823 823 823 822 822 822 821 821 821 821 821 820 820 820 820 819 818 817 816 815 815 815 814 814 813 813 811 810 810 810 811 811 815 815 815 813 0 0 0 0 0 0 0 0 0 0 0 0 0 0 0 0 0 0 0 0 0 0 0 0 0 0 0 0 0 0 0 0 0 0 0 0 0 0 0 0 0 0 0 0 0 0 805 806 806 805 805 804 804 804 804 804 804 804 804 804 805 805 807 807 807 808 807 808 808 807 807 807 807 808 809 810 811 813 813 813 814 814 814 814 813 811 810 810 807 799 0 0 0 0 0 0 0 0 0 0 0 0 0 0 0 0 0 0 0 0 0 0 0 0 0 0 0 0 0 0 0 0 0 0 0 0 0 0 0 0 0 0 0 0 0 799 803 803 803 802 802 802 802 802 804 805 808 810 811 811 810 809 808 808 808 807 808 808 808 808 808 806 800 799 796 796 796 791 791 790 780 767 759 759 767 770 770 770 2 2 0 0 0 0 0 790 790 790 790 793 796 796 796 799 799 799 799 801 801 801 801 801 802 802 802 801 800 798 798 798 798 798 798 798 798 798 799 799 799 798 798 798 797 0 0 0 0 0 0 0 0 0 0 0 0 0 0 0 0 0 0 0 0 0 0 0 0 0 0 0 0 0 0 0 0 0 0 0 0 0 0 0 0 0 0 0 0 0 0 806 806 806 806 805 805 805 805 806 806 806 807 808 808 808 807 806 806 806 807 808 810 810 810 809 809 809 809 810 810 810 810 809 809 809 809 810 810 810 810 810 810 809 0 0 0 0 0 0 0 0 0 0 0 0 0 0 0 0 0 0 0 0 0 0 0 0 0 0 0 0 0 0 0 0 0 0 0 0 0 0 0 0 0 0 0 0 0 0 812 814 819 820 820 820 820 818 818 818 818 818 818 818 818 819 819 819 820 820 820 820 821 821 821 821 822 822 822 822 822 823 823 824 826 826 828 828 829 829 829 828 0 0 0 0 0 0 0 0 0 0 0 0 0 0 0 0 0 0 0 0 0 0 0 0 0 0 0 0 0 0 0 0 0 0 0 0 0 0 0 0 0 0 0 0 0 0 826 835 859 935 1115 1148 1266 1339 1380 1394 1398 1399 1403 1410 1413 1413 1413 1413 1413 1414 1419 1422 1426 1428 1428 1430 1432 1432 1433 1435 1436 1439 1444 1451 1451 1452 1452 1452 1453 1454 1454 1454 1453 1453 1453 1455 1455 1455 1455 1454 1454 1454 1459 1465 1466 1466 1466 1465 1464 1464 1464 1464 1466 1467 1468 1470 1475 1475 1475 1472 1472 1472 1475 1476 1478 1480 1480 1480 1478 1473 1473 1473 1476 1480 1481 1481 1481 1477 1477 1476 1475 1474 1469 1456 1450 1450 0
808 808 807 807 805 805 803 803 802 802 802 802 802 802 801 801 801 801 801 801 803 803 805 806 807 809 809 810 811 812 813 814 814 814 814 814 814 814 814 814 814 814 815 815 815 815 816 816 818 818 819 820 821 821 821 822 823 823 823 823 823 823 823 823 822 821 821 821 820 820 820 820 820 820 820 819 819 818 817 816 815 815 815 814 814 813 813 811 810 810 810 810 811 814 814 814 812 0 0 0 0 0 0 0 0 0 0 0 0 0 0 0 0 0 0 0 0 0 0 0 0 0 0 0 0 0 0 0 0 0 0 0 0 0 0 0 0 0 0 0 0 0 804 805 806 806 806 806 805 805 805 805 805 805 805 805 805 805 806 807 807 807 807 807 807 808 808 807 808 808 808 809 810 811 812 812 812 814 814 814 814 812 811 810 810 807 0 0 0 0 0 0 0 0 0 0 0 0 0 0 0 0 0 0 0 0 0 0 0 0 0 0 0 0 0 0 0 0 0 0 0 0 0 0 0 0 0 0 0 0 0 0 799 803 805 805 805 806 806 805 805 805 805 808 812 812 812 811 809 809 809 808 808 808 808 808 808 808 806 803 801 801 801 801 800 797 797 785 785 785 787 790 791 791 791 2 0 0 0 0 0 0 0 0 0 0 0 0 0 0 0 0 0 0 0 0 0 794 797 802 802 802 801 800 795 794 794 794 795 795 795 795 796 798 798 798 798 797 797 797 0 0 0 0 0 0 0 0 0 0 0 0 0 0 0 0 0 0 0 0 0 0 0 0 0 0 0 0 0 0 0 0 0 0 0 0 0 0 0 0 0 0 0 0 0 0 806 806 806 807 806 807 807 806 806 807 807 807 808 808 808 808 808 808 808 809 811 812 812 812 813 811 811 811 811 811 811 811 811 810 810 810 810 810 811 811 811 811 809 0 0 0 0 0 0 0 0 0 0 0 0 0 0 0 0 0 0 0 0 0 0 0 0 0 0 0 0 0 0 0 0 0 0 0 0 0 0 0 0 0 0 0 0 0 0 812 814 819 819 819 817 817 817 818 818 818 818 818 818 818 818 818 819 819 819 819 820 820 820 820 820 821 821 821 821 822 822 822 822 823 824 828 828 828 827 825 823 0 0 0 0 0 0 0 0 0 0 0 0 0 0 0 0 0 0 0 0 0 0 0 0 0 0 0 0 0 0 0 0 0 0 0 0 0 0 0 0 0 0 0 0 0 0 826 835 861 945 1115 1148 1266 1338 1375 1385 1391 1393 1398 1405 1406 1407 1407 1407 1407 1408 1410 1413 1416 1417 1418 1420 1424 1427 1427 1428 1430 1434 1438 1441 1443 1444 1445 1446 1449 1449 1449 1449 1448 1447 1447 1447 1448 1448 1448 1448 1448 1449 1455 1459 1459 1460 1462 1462 1462 1462 1462 1463 1463 1463 1465 1468 1470 1470 1470 1468 1468 1468 1468 1469 1471 1475 1476 1476 1476 1470 1470 1470 1473 1473 1473 1473 1473 1472 1472 1471 1471 1470 1464 1456 1450 1450 0
808 808 806 806 805 805 803 803 802 802 802 802 802 801 801 801 801 801 801 802 802 803 805 806 807 809 810 811 811 813 813 814 814 814 814 814 814 814 814 814 814 815 815 815 815 816 816 817 818 818 820 820 821 821 821 822 822 822 822 822 822 823 823 823 822 821 820 820 820 820 820 820 820 819 819 819 819 818 817 816 815 815 815 814 813 813 812 811 810 810 810 810 811 812 812 812 812 0 0 0 0 0 0 0 0 0 0 0 0 0 0 0 0 0 0 0 0 0 0 0 0 0 0 0 0 0 0 0 0 0 0 0 0 0 0 0 0 0 0 0 0 0 800 804 806 806 806 806 806 806 805 805 805 805 806 806 806 806 807 807 807 807 807 807 807 808 808 808 808 808 809 810 810 811 812 812 812 814 814 814 814 812 811 810 810 809 0 0 0 0 0 0 0 0 0 0 0 0 0 0 0 0 0 0 0 0 0 0 0 0 0 0 0 0 0 0 0 0 0 0 0 0 0 0 0 0 0 0 0 0 0 0 804 805 806 806 806 806 806 806 805 805 805 809 812 812 812 811 810 810 810 809 808 808 808 808 808 808 806 806 805 803 803 803 802 802 802 801 801 801 801 800 801 800 798 0 0 0 0 0 0 0 0 0 0 0 0 0 0 0 0 0 0 0 0 0 0 0 0 0 0 0 0 0 0 0 0 0 0 0 0 0 792 796 796 796 797 796 795 795 0 0 0 0 0 0 0 0 0 0 0 0 0 0 0 0 0 0 0 0 0 0 0 0 0 0 0 0 0 0 0 0 0 0 0 0 0 0 0 0 0 0 0 0 0 0 806 806 806 807 806 807 807 806 806 807 807 808 809 809 810 811 811 811 811 812 812 812 813 813 813 814 814 814 814 814 814 813 813 812 811 811 811 814 814 814 813 813 809 0 0 0 0 0 0 0 0 0 0 0 0 0 0 0 0 0 0 0 0 0 0 0 0 0 0 0 0 0 0 0 0 0 0 0 0 0 0 0 0 0 0 0 0 0 0 812 812 818 818 818 816 816 816 817 818 818 818 818 817 817 817 817 818 818 818 818 819 819 819 820 820 820 820 820 820 820 820 820 820 820 820 821 823 824 825 825 823 0 0 0 0 0 0 0 0 0 0 0 0 0 0 0 0 0 0 0 0 0 0 0 0 0 0 0 0 0 0 0 0 0 0 0 0 0 0 0 0 0 0 0 0 0 0 826 835 863 958 1135 1192 1266 1338 1370 1379 1383 1388 1391 1395 1401 1401 1401 1401 1401 1401 1401 1403 1406 1407 1410 1412 1415 1420 1420 1420 1423 1428 1432 1435 1435 1437 1438 1441 1444 1444 1444 1444 1444 1443 1442 1442 1442 1442 1443 1443 1445 1449 1455 1459 1459 1460 1462 1462 1462 1462 1462 1462 1462 1462 1462 1466 1466 1466 1467 1467 1467 1467 1467 1468 1468 1472 1472 1472 1472 1470 1462 1462 1462 1463 1464 1466 1466 1466 1464 1463 1462 1461 1461 1456 1450 1450 0
804 805 804 804 803 803 803 802 802 801 801 801 801 801 800 800 800 800 801 802 802 804 805 806 807 809 810 811 812 813 813 814 814 814 814 814 814 814 814 814 814 815 815 815 815 816 817 817 818 819 820 820 821 821 822 822 822 822 822 822 823 823 823 822 822 821 820 820 820 820 820 820 820 819 819 819 818 818 817 816 815 815 815 814 813 812 812 811 810 810 810 811 811 811 812 812 812 0 0 0 0 0 0 0 0 0 0 0 0 0 0 0 0 0 0 0 0 0 0 0 0 0 0 0 0 0 0 0 0 0 0 0 0 0 0 0 0 0 0 0 0 0 800 805 805 807 807 807 806 806 805 805 805 806 806 806 806 806 807 807 807 807 807 807 807 808 808 808 809 809 809 810 810 811 812 812 812 813 814 814 814 813 813 811 810 809 0 0 0 0 0 0 0 0 0 0 0 0 0 0 0 0 0 0 0 0 0 0 0 0 0 0 0 0 0 0 0 0 0 0 0 0 0 0 0 0 0 0 0 0 0 0 803 806 806 806 807 807 807 806 805 805 805 810 812 812 812 811 810 810 810 809 808 807 806 806 806 806 806 806 806 806 805 804 804 804 804 803 803 802 802 801 801 801 798 0 0 0 0 0 0 0 0 0 0 0 0 0 0 0 0 0 0 0 0 0 0 0 0 0 0 0 0 0 0 0 0 0 0 0 0 0 0 0 0 0 0 0 0 0 0 0 0 0 2 2 0 0 0 0 0 0 0 0 0 0 0 0 0 0 0 0 0 0 0 0 0 0 0 0 0 0 0 0 0 0 0 0 0 0 0 0 0 0 0 800 806 806 806 807 807 807 807 807 807 807 808 809 809 810 810 811 812 812 812 813 813 813 813 814 813 814 814 815 815 815 815 815 815 812 811 811 811 814 817 817 817 815 812 808 0 0 0 0 0 0 0 0 0 0 0 0 0 0 0 0 0 0 0 0 0 0 0 0 0 0 0 0 0 0 0 0 0 0 0 0 0 0 0 0 0 0 0 0 0 811 811 818 818 818 816 816 816 817 817 817 817 817 817 817 817 817 817 817 817 817 818 818 818 819 819 819 819 818 818 818 818 818 818 817 817 817 818 822 822 822 822 0 0 0 0 0 0 0 0 0 0 0 0 0 0 0 0 0 0 0 0 0 0 0 0 0 0 0 0 0 0 0 0 0 0 0 0 0 0 0 0 0 0 0 0 0 0 827 838 870 988 1145 1196 1271 1339 1370 1373 1375 1381 1385 1388 1392 1394 1394 1394 1393 1393 1393 1395 1398 1401 1403 1406 1409 1413 1414 1414 1417 1422 1428 1431 1432 1432 1433 1437 1441 1443 1443 1443 1441 1439 1439 1439 1439 1440 1441 1441 1444 1449 1455 1459 1459 1460 1462 1462 1462 1462 1462 1462 1462 1462 1462 1466 1466 1466 1467 1467 1467 1467 1467 1468 1468 1468 1471 1471 1471 1469 1461 1461 1461 1461 1461 1462 1461 1460 1460 1457 1457 1456 1456 1456 1456 1455 0
804 804 803 803 803 803 802 802 802 801 801 801 801 800 800 800 800 800 801 802 803 804 805 806 808 809 810 811 812 813 814 814 814 815 815 815 814 814 814 814 815 815 815 815 815 816 817 818 819 819 820 820 821 821 822 822 822 822 822 823 823 823 823 822 822 821 820 820 820 820 820 819 819 819 818 818 818 818 817 816 815 815 814 814 813 812 812 811 810 810 810 811 811 811 811 811 810 0 0 0 0 0 0 0 0 0 0 0 0 0 0 0 0 0 0 0 0 0 0 0 0 0 0 0 0 0 0 0 0 0 0 0 0 0 0 0 0 0 0 0 0 0 800 802 804 808 808 808 808 807 806 806 806 806 806 806 806 807 807 807 807 807 807 807 807 808 808 808 809 809 809 810 810 811 812 812 813 813 814 814 814 813 813 812 811 809 0 0 0 0 0 0 0 0 0 0 0 0 0 0 0 0 0 0 0 0 0 0 0 0 0 0 0 0 0 0 0 0 0 0 0 0 0 0 0 0 0 0 0 0 0 0 800 805 806 806 807 807 807 806 806 806 806 810 812 812 812 811 811 811 811 810 808 807 806 806 806 806 806 806 806 806 805 804 804 804 804 803 803 803 802 802 802 801 798 0 0 0 0 0 0 0 0 0 0 0 0 0 0 0 0 0 0 0 0 0 0 0 0 0 0 0 0 0 0 0 0 0 0 0 0 0 0 0 0 0 0 0 0 0 0 787 787 787 783 783 783 783 783 783 782 780 776 762 751 599 599 599 789 789 789 0 0 0 0 0 0 0 0 0 0 0 0 0 0 0 0 0 0 0 0 0 0 0 0 803 804 804 805 805 805 804 804 804 804 806 808 809 810 810 810 811 812 812 812 813 813 814 814 814 814 814 814 815 815 815 815 815 815 813 813 813 813 814 817 817 817 816 812 810 0 0 0 0 0 0 0 0 0 0 0 0 0 0 0 0 0 0 0 0 0 0 0 0 0 0 0 0 0 0 0 0 0 0 0 0 0 0 0 0 0 0 0 0 0 810 811 817 817 817 815 815 815 816 817 817 817 817 817 817 817 817 817 817 817 817 817 817 817 817 817 817 817 817 817 817 818 818 817 817 817 817 817 818 821 821 821 0 0 0 0 0 0 0 0 0 0 0 0 0 0 0 0 0 0 0 0 0 0 0 0 0 0 0 0 0 0 0 0 0 0 0 0 0 0 0 0 0 0 0 0 0 0 829 839 875 1008 1163 1223 1302 1354 1369 1369 1370 1374 1378 1382 1385 1386 1387 1387 1387 1387 1387 1387 1391 1396 1398 1401 1404 1407 1411 1411 1413 1420 1426 1429 1430 1430 1432 1433 1434 1434 1434 1434 1434 1434 1434 1434 1434 1432 1432 1432 1441 1448 1453 1459 1462 1462 1463 1464 1465 1465 1465 1465 1462 1462 1462 1466 1466 1466 1467 1468 1468 1468 1468 1467 1466 1466 1467 1466 1466 1466 1458 1454 1454 1453 1453 1453 1453 1453 1453 1453 1454 1454 1461 1465 1465 1474 0
804 804 799 800 800 800 802 802 802 801 801 801 801 800 800 800 800 800 801 802 803 804 805 807 808 810 811 812 813 813 814 814 814 815 815 815 815 814 814 815 815 815 815 816 816 816 817 817 819 819 820 820 821 821 822 822 822 822 822 823 823 823 823 823 822 822 820 820 820 819 819 819 819 819 818 818 818 817 817 816 815 815 814 814 813 812 811 810 809 809 809 809 810 810 810 809 809 0 0 0 0 0 0 0 0 0 0 0 0 0 0 0 0 0 0 0 0 0 0 0 0 0 0 0 0 0 0 0 0 0 0 0 0 0 0 0 0 0 0 0 0 0 802 802 805 809 809 809 809 808 806 806 806 806 806 806 806 807 807 807 807 807 807 807 807 808 808 808 809 809 809 810 811 812 812 812 813 814 814 814 814 814 811 811 810 807 0 0 0 0 0 0 0 0 0 0 0 0 0 0 0 0 0 0 0 0 0 0 0 0 0 0 0 0 0 0 0 0 0 0 0 0 0 0 0 0 0 0 0 0 0 0 800 805 807 807 807 807 807 807 807 808 808 810 812 812 812 811 811 810 810 810 809 807 806 806 806 806 806 806 806 806 805 804 804 804 804 803 803 802 802 802 802 799 798 0 0 0 0 0 0 0 0 0 0 0 0 0 0 0 0 0 0 0 0 0 0 0 0 0 0 0 0 0 0 0 0 0 0 0 0 0 0 0 0 0 0 0 0 0 0 788 788 788 788 788 788 787 789 790 790 790 790 791 791 790 790 790 789 790 790 790 790 790 789 789 789 796 797 797 797 797 794 789 0 0 0 0 0 0 0 0 0 0 0 801 803 803 802 802 801 801 800 801 802 806 808 809 809 809 809 810 812 812 812 813 813 813 813 814 814 815 815 815 815 815 815 815 815 814 814 814 814 815 817 820 821 821 821 812 0 0 0 0 0 0 0 0 0 0 0 0 0 0 0 0 0 0 0 0 0 0 0 0 0 0 0 0 0 0 0 0 0 0 0 0 0 0 0 0 0 0 0 0 0 810 811 816 816 816 815 815 815 816 817 817 817 817 817 816 816 816 816 816 816 816 816 816 816 816 816 816 816 816 816 817 817 817 817 817 817 817 817 817 820 820 820 0 0 0 0 0 0 0 0 0 0 0 0 0 0 0 0 0 0 0 0 0 0 0 0 0 0 0 0 0 0 0 0 0 0 0 0 0 0 0 0 0 0 0 0 0 824 834 843 895 1098 1178 1272 1334 1367 1369 1369 1373 1374 1374 1376 1378 1381 1382 1382 1382 1382 1384 1384 1386 1390 1393 1397 1400 1402 1406 1411 1413 1419 1424 1427 1428 1428 1429 1429 1429 1429 1429 1427 1427 1427 1428 1428 1428 1428 1428 1428 1429 1441 1453 1459 1463 1466 1468 1468 1471 1471 1471 1471 1468 1468 1468 1469 1469 1469 1469 1469 1468 1468 1468 1467 1467 1460 1460 1460 1458 1458 1458 1453 1451 1448 1444 1444 1444 1444 1444 1446 1450 1452 1458 1465 1465 1474 0
805 805 799 799 799 799 799 800 800 801 801 800 800 800 800 800 800 800 801 802 803 804 806 807 809 810 811 812 813 813 814 815 815 815 815 815 815 815 815 815 815 815 815 816 816 816 817 818 819 819 820 821 821 822 822 822 822 822 822 823 823 823 823 823 822 822 820 820 819 819 819 818 818 818 817 817 817 817 816 815 815 815 814 814 813 812 811 810 809 809 808 808 808 810 809 809 809 0 0 0 0 0 0 0 0 0 0 0 0 0 0 0 0 0 0 0 0 0 0 0 0 0 0 0 0 0 0 0 0 0 0 0 0 0 0 0 0 0 0 0 0 0 803 805 806 809 809 809 809 808 807 807 807 807 807 807 807 807 807 807 807 807 807 807 807 808 808 808 809 809 809 810 811 812 812 813 813 814 814 814 814 814 812 811 810 806 0 0 0 0 0 0 0 0 0 0 0 0 0 0 0 0 0 0 0 0 0 0 0 0 0 0 0 0 0 0 0 0 0 0 0 0 0 0 0 0 0 0 0 0 0 0 801 806 807 807 807 807 808 808 808 808 809 810 811 811 811 811 811 810 810 810 809 807 806 806 806 807 807 807 806 806 805 804 804 803 802 802 802 802 802 800 800 799 799 0 0 0 0 0 0 0 0 0 0 0 0 0 0 0 0 0 0 0 0 0 0 0 0 0 0 0 0 0 0 0 0 0 0 0 0 0 0 0 0 0 0 0 0 0 0 790 791 791 791 791 791 791 791 790 790 790 790 791 791 791 791 791 790 791 792 792 794 796 797 798 799 799 799 798 798 798 797 797 797 796 795 795 795 795 798 801 801 801 800 2 0 0 0 0 0 0 0 0 0 803 806 806 806 802 802 802 805 808 809 809 813 813 813 814 814 815 815 815 815 815 815 815 815 816 817 817 817 817 817 821 822 822 822 812 0 0 0 0 0 0 0 0 0 0 0 0 0 0 0 0 0 0 0 0 0 0 0 0 0 0 0 0 0 0 0 0 0 0 0 0 0 0 0 0 0 0 0 0 796 805 810 812 814 814 814 814 814 815 817 817 817 817 817 815 814 814 814 814 814 814 813 813 813 815 815 815 815 815 815 815 816 816 817 817 817 817 817 817 818 818 818 0 0 0 0 0 0 0 0 0 0 0 0 0 0 0 0 0 0 0 0 0 0 0 0 0 0 0 0 0 0 0 0 0 0 0 0 0 0 0 0 0 0 0 0 0 825 836 858 929 1109 1209 1316 1364 1369 1369 1374 1374 1374 1374 1376 1378 1379 1380 1381 1381 1382 1382 1383 1383 1384 1386 1391 1393 1395 1396 1398 1405 1410 1414 1418 1420 1421 1421 1424 1424 1424 1424 1422 1419 1419 1419 1418 1417 1417 1417 1418 1429 1438 1449 1460 1463 1466 1468 1468 1471 1472 1476 1479 1480 1481 1483 1483 1483 1478 1473 1470 1469 1469 1468 1467 1466 1459 1459 1459 1457 1457 1457 1454 1451 1448 1443 1439 1437 1437 1437 1443 1445 1453 1458 1465 1465 1474 0
806 806 799 799 799 799 799 800 800 800 800 800 800 800 800 800 800 800 801 802 803 804 806 807 809 811 812 812 813 814 814 815 815 815 815 815 815 815 815 815 815 815 815 816 816 817 817 818 819 819 820 821 821 822 822 822 822 822 823 824 824 824 824 824 822 821 820 820 819 818 818 817 817 817 817 817 817 816 816 815 815 814 814 814 813 812 810 810 809 809 808 808 808 808 808 808 808 0 0 0 0 0 0 0 0 0 0 0 0 0 0 0 0 0 0 0 0 0 0 0 0 0 0 0 0 0 0 0 0 0 0 0 0 0 0 0 0 0 0 0 0 0 805 806 807 808 809 809 809 808 807 807 807 807 807 807 807 807 807 807 807 807 807 807 807 808 808 809 809 809 810 810 811 812 812 813 813 814 814 814 814 814 812 810 810 804 0 0 0 0 0 0 0 0 0 0 0 0 0 0 0 0 0 0 0 0 0 0 0 0 0 0 0 0 0 0 0 0 0 0 0 0 0 0 0 0 0 0 0 0 0 0 800 807 807 808 808 808 808 808 808 809 809 810 810 810 810 810 810 810 810 809 809 808 808 807 807 807 807 807 806 805 805 804 803 803 802 801 801 801 801 800 800 799 799 0 0 0 0 0 0 0 0 0 0 0 0 0 0 0 0 0 0 0 0 0 0 0 0 0 0 0 0 0 0 0 0 0 0 0 0 0 0 0 0 0 0 0 0 0 0 789 791 791 791 791 791 791 791 790 790 790 790 791 791 791 791 791 791 791 792 794 795 797 798 798 800 800 800 800 800 800 800 800 802 803 803 803 802 802 801 801 801 801 2 0 0 0 0 0 0 0 0 0 0 0 0 0 0 0 0 0 0 0 805 807 807 807 808 809 813 814 814 815 815 815 814 814 814 816 817 817 817 817 817 819 822 822 822 814 0 0 0 0 0 0 0 0 0 0 0 0 0 0 0 0 0 0 0 0 0 0 0 0 0 0 0 0 0 0 0 0 0 0 0 0 0 0 0 0 0 0 0 0 801 805 810 811 814 814 814 811 811 811 813 816 816 816 816 815 814 814 813 813 813 811 811 811 811 814 814 814 814 813 813 813 814 816 817 817 817 817 817 817 817 817 817 0 0 0 0 0 0 0 0 0 0 0 0 0 0 0 0 0 0 0 0 0 0 0 0 0 0 0 0 0 0 0 0 0 0 0 0 0 0 0 0 0 0 0 0 0 827 838 860 934 1154 1259 1332 1377 1378 1378 1378 1378 1376 1376 1378 1378 1379 1380 1380 1380 1381 1381 1381 1381 1381 1381 1381 1385 1388 1389 1389 1391 1395 1398 1401 1401 1401 1401 1402 1410 1411 1414 1414 1414 1414 1414 1414 1415 1416 1417 1418 1429 1438 1449 1459 1465 1466 1468 1468 1471 1472 1480 1482 1484 1491 1502 1502 1502 1497 1485 1478 1474 1473 1471 1470 1466 1459 1455 1455 1455 1455 1455 1454 1451 1448 1441 1437 1436 1436 1436 1443 1444 1454 1456 1458 1458 1462 0
806 806 800 800 799 799 799 800 800 800 800 800 800 800 800 800 800 800 802 803 804 805 806 808 809 811 812 812 813 814 814 815 815 815 815 815 815 815 815 815 815 815 815 816 816 817 817 818 819 820 821 821 822 823 824 824 824 824 824 825 825 825 824 824 823 821 820 820 819 817 817 816 816 816 816 815 815 815 815 815 815 814 814 813 813 812 810 810 810 810 809 809 810 808 807 807 807 0 0 0 0 0 0 0 0 0 0 0 0 0 0 0 0 0 0 0 0 0 0 0 0 0 0 0 0 0 0 0 0 0 0 0 0 0 0 0 0 0 0 0 0 0 805 806 807 808 809 809 809 808 807 807 807 807 807 807 807 807 807 807 807 807 807 807 807 808 808 809 809 809 810 811 811 812 812 813 813 814 814 814 814 813 810 810 807 803 0 0 0 0 0 0 0 0 0 0 0 0 0 0 0 0 0 0 0 0 0 0 0 0 0 0 0 0 0 0 0 0 0 0 0 0 0 0 0 0 0 0 0 0 0 0 800 807 808 808 808 808 809 809 809 809 809 810 810 810 810 810 809 809 809 809 809 808 808 807 807 807 807 807 806 805 804 804 803 802 802 801 801 801 801 800 799 797 797 0 0 0 0 0 0 0 0 0 0 0 0 0 0 0 0 0 0 0 0 0 0 0 0 0 0 0 0 0 0 0 0 0 0 0 0 0 0 0 0 0 0 0 0 0 0 787 789 791 791 791 791 791 791 790 790 790 790 791 791 792 792 792 792 792 792 794 795 797 799 800 802 802 802 802 801 801 801 801 802 803 803 803 803 803 803 803 803 802 0 0 0 0 0 0 0 0 0 0 0 0 0 0 0 0 0 0 0 0 0 0 0 0 792 800 811 813 814 814 814 814 812 812 812 814 817 817 817 817 817 819 819 819 818 815 0 0 0 0 0 0 0 0 0 0 0 0 0 0 0 0 0 0 0 0 0 0 0 0 0 0 0 0 0 0 0 0 0 0 0 0 0 0 0 0 0 0 0 0 801 805 810 811 811 811 810 807 807 807 810 816 816 816 816 815 814 814 813 813 813 811 810 810 810 814 814 814 814 813 813 813 813 813 814 815 815 815 816 816 816 816 816 0 0 0 0 0 0 0 0 0 0 0 0 0 0 0 0 0 0 0 0 0 0 0 0 0 0 0 0 0 0 0 0 0 0 0 0 0 0 0 0 0 0 0 0 0 828 838 863 945 1154 1267 1334 1378 1393 1394 1394 1394 1393 1388 1385 1383 1381 1380 1380 1380 1380 1380 1379 1379 1378 1377 1377 1377 1379 1380 1381 1382 1383 1385 1387 1387 1388 1389 1390 1394 1394 1401 1404 1407 1411 1412 1412 1412 1415 1416 1418 1429 1438 1449 1459 1463 1463 1464 1465 1465 1472 1482 1492 1501 1507 1509 1509 1509 1502 1496 1491 1490 1487 1484 1480 1467 1459 1455 1455 1455 1455 1455 1454 1452 1449 1441 1437 1436 1436 1436 1444 1444 1446 1448 1454 1448 1448 0
806 806 801 801 799 799 799 800 800 800 800 800 800 800 800 800 800 800 802 803 804 805 806 808 810 811 812 813 814 814 814 815 815 815 815 816 816 816 815 815 815 815 815 816 816 817 817 818 820 820 821 821 823 824 824 825 825 825 825 825 825 825 824 824 823 821 821 820 819 817 817 816 816 816 815 815 815 815 814 814 814 814 813 813 812 812 811 811 811 811 809 809 811 808 808 808 805 0 0 0 0 0 0 0 0 0 0 0 0 0 0 0 0 0 0 0 0 0 0 0 0 0 0 0 0 0 0 0 0 0 0 0 0 0 0 0 0 0 0 0 0 0 805 806 807 807 807 806 806 806 806 807 807 807 807 807 807 807 807 807 807 807 807 807 808 808 808 809 809 810 810 811 811 812 812 813 813 814 814 814 814 809 808 807 807 798 0 0 0 0 0 0 0 0 0 0 0 0 0 0 0 0 0 0 0 0 0 0 0 0 0 0 0 0 0 0 0 0 0 0 0 0 0 0 0 0 0 0 0 0 0 0 800 807 808 808 808 809 809 809 809 809 809 810 810 810 810 810 809 809 809 808 808 808 808 807 807 807 806 805 805 805 804 803 802 802 802 801 801 801 801 800 799 797 0 0 0 0 0 0 0 0 0 0 0 0 0 0 0 0 0 0 0 0 0 0 0 0 0 0 0 0 0 0 0 0 0 0 0 0 0 0 0 0 0 0 0 0 0 0 0 788 788 790 790 791 791 790 790 790 790 790 790 791 791 793 793 793 793 793 793 795 796 797 799 800 802 802 802 802 802 801 801 802 802 803 803 803 804 804 804 804 804 804 0 0 0 0 0 0 0 0 0 0 0 0 0 0 0 0 0 0 0 0 0 0 0 0 0 0 0 0 0 0 0 0 0 0 0 0 0 0 0 803 804 811 811 811 811 811 0 0 0 0 0 0 0 0 0 0 0 0 0 0 0 0 0 0 0 0 0 0 0 0 0 0 0 0 0 0 0 0 0 0 0 0 0 0 0 0 0 0 0 0 801 805 806 810 810 810 808 807 807 807 810 815 816 816 816 816 814 814 813 813 813 811 810 810 810 810 810 813 813 813 812 811 811 810 809 809 809 809 810 813 815 815 815 0 0 0 0 0 0 0 0 0 0 0 0 0 0 0 0 0 0 0 0 0 0 0 0 0 0 0 0 0 0 0 0 0 0 0 0 0 0 0 0 0 0 0 0 0 831 841 865 958 1158 1267 1335 1381 1393 1395 1395 1395 1393 1391 1386 1384 1383 1383 1382 1381 1380 1379 1378 1378 1378 1375 1372 1372 1372 1372 1374 1374 1375 1375 1375 1378 1380 1381 1383 1383 1384 1385 1392 1398 1399 1399 1405 1407 1408 1415 1417 1429 1436 1443 1459 1462 1463 1464 1465 1465 1472 1482 1492 1501 1507 1509 1509 1509 1502 1500 1494 1491 1488 1484 1480 1471 1462 1456 1456 1456 1455 1455 1455 1454 1451 1443 1439 1436 1436 1436 1444 1452 1452 1452 1448 1438 1438 0
805 805 802 802 801 800 800 800 800 800 800 800 800 800 800 800 800 801 802 803 804 805 807 808 810 811 812 813 814 814 815 815 815 816 816 816 816 816 816 816 816 816 816 816 816 817 817 818 820 820 822 823 824 824 825 825 826 826 826 826 825 825 825 824 823 821 821 820 819 817 817 816 816 816 815 815 815 814 814 814 814 814 813 813 812 811 811 811 811 811 809 809 810 809 805 0 0 0 0 0 0 0 0 0 0 0 0 0 0 0 0 0 0 0 0 0 0 0 0 0 0 0 0 0 0 0 0 0 0 0 0 0 0 0 0 0 0 0 0 0 0 801 805 806 806 806 806 806 806 806 806 806 806 806 806 806 806 806 807 807 807 807 807 807 808 808 808 809 809 810 810 811 811 812 813 813 813 814 814 814 811 809 808 808 807 0 0 0 0 0 0 0 0 0 0 0 0 0 0 0 0 0 0 0 0 0 0 0 0 0 0 0 0 0 0 0 0 0 0 0 0 0 0 0 0 0 0 0 0 0 0 792 800 807 808 808 809 809 809 809 809 809 809 810 810 810 809 809 809 809 808 808 808 808 808 807 807 806 806 805 805 805 804 803 803 802 802 801 801 800 800 800 798 796 0 0 0 0 0 0 0 0 0 0 0 0 0 0 0 0 0 0 0 0 0 0 0 0 0 0 0 0 0 0 0 0 0 0 0 0 0 0 0 0 0 0 0 0 0 0 0 788 788 790 790 791 791 791 791 791 791 791 791 792 792 793 793 793 793 793 794 795 796 797 799 802 802 802 802 802 802 802 802 802 802 802 803 803 804 804 804 804 804 804 0 0 0 0 0 0 0 0 0 0 0 0 0 0 0 0 0 0 0 0 0 0 0 0 0 0 0 0 0 0 0 0 0 0 0 0 0 0 0 0 0 0 0 0 0 809 809 809 783 0 0 0 0 0 0 0 0 0 0 0 0 0 0 0 0 0 0 0 0 0 0 0 0 0 0 0 0 0 0 0 0 0 0 0 0 0 0 0 0 0 808 810 810 810 810 810 808 807 807 807 810 815 816 816 816 816 815 815 815 815 815 813 811 809 809 809 810 812 812 812 812 811 811 809 808 808 808 809 810 812 814 814 814 0 0 0 0 0 0 0 0 0 0 0 0 0 0 0 0 0 0 0 0 0 0 0 0 0 0 0 0 0 0 0 0 0 0 0 0 0 0 0 0 0 0 0 0 0 834 848 872 971 1160 1270 1335 1382 1394 1395 1395 1395 1393 1391 1388 1386 1385 1384 1383 1381 1380 1379 1378 1377 1376 1374 1372 1371 1371 1370 1370 1369 1369 1369 1369 1370 1372 1373 1376 1377 1378 1379 1381 1383 1386 1386 1387 1396 1405 1415 1415 1425 1434 1440 1442 1456 1461 1462 1463 1463 1471 1482 1492 1501 1507 1509 1509 1509 1502 1500 1494 1493 1490 1486 1480 1471 1464 1459 1459 1459 1460 1460 1460 1459 1451 1443 1439 1439 1439 1445 1453 1453 1453 1450 1440 1436 1436 0
805 805 804 804 802 802 800 800 800 800 800 800 800 800 800 800 800 801 802 803 804 805 807 808 810 811 812 813 814 814 815 815 815 816 816 816 816 816 816 816 816 816 816 816 816 817 817 818 820 821 823 824 824 825 826 827 827 827 827 826 826 825 825 824 823 822 821 820 819 817 817 816 816 816 815 815 814 814 814 814 814 814 813 813 812 811 811 811 811 811 809 809 810 809 808 0 0 0 0 0 0 0 0 0 0 0 0 0 0 0 0 0 0 0 0 0 0 0 0 0 0 0 0 0 0 0 0 0 0 0 0 0 0 0 0 0 0 0 0 0 0 804 805 805 805 805 805 805 805 805 806 806 806 806 806 806 806 806 807 807 807 807 807 807 808 808 808 808 809 810 810 811 811 813 813 813 813 813 813 813 811 808 808 807 807 0 0 0 0 0 0 0 0 0 0 0 0 0 0 0 0 0 0 0 0 0 0 0 0 0 0 0 0 0 0 0 0 0 0 0 0 0 0 0 0 0 0 0 0 0 0 794 798 805 808 808 808 809 809 809 809 810 810 809 809 809 809 809 809 809 808 808 808 808 807 807 806 806 806 805 805 804 804 803 803 802 802 801 801 800 800 798 796 795 0 0 0 0 0 0 0 0 0 0 0 0 0 0 0 0 0 0 0 0 0 0 0 0 0 0 0 0 0 0 0 0 0 0 0 0 0 0 0 0 0 0 0 0 0 0 0 788 788 790 790 791 791 791 791 791 791 791 792 792 792 792 793 794 794 794 794 795 796 797 799 802 802 802 802 802 802 802 802 802 802 802 804 804 804 804 804 806 806 806 0 0 0 0 0 0 0 0 0 0 0 0 0 0 0 0 0 0 0 0 0 0 0 0 0 0 0 0 0 0 0 0 0 0 0 0 0 0 0 0 0 0 0 0 0 0 806 806 806 803 802 802 802 803 804 804 804 800 789 789 789 800 800 800 796 795 0 0 0 0 0 0 0 0 0 0 0 0 0 0 0 0 0 0 0 0 0 0 0 812 814 814 812 812 810 810 808 807 807 807 813 815 816 816 816 816 815 815 815 815 815 814 813 809 809 809 810 810 812 813 813 813 810 809 807 807 807 808 809 809 811 811 811 0 0 0 0 0 0 0 0 0 0 0 0 0 0 0 0 0 0 0 0 0 0 0 0 0 0 0 0 0 0 0 0 0 0 0 0 0 0 0 0 0 0 0 0 0 834 849 873 980 1161 1270 1337 1383 1396 1396 1396 1396 1393 1391 1390 1388 1388 1384 1383 1382 1380 1379 1378 1377 1375 1373 1371 1371 1371 1369 1368 1368 1366 1366 1366 1366 1366 1367 1367 1367 1370 1373 1374 1377 1378 1379 1380 1380 1381 1382 1384 1388 1421 1435 1440 1452 1460 1460 1461 1462 1469 1473 1479 1485 1499 1506 1506 1506 1501 1500 1496 1493 1490 1486 1478 1472 1464 1464 1464 1465 1468 1468 1468 1466 1461 1450 1446 1446 1446 1446 1453 1453 1453 1442 1433 1431 1430 0
805 805 805 805 805 804 802 800 800 800 799 799 800 800 800 800 801 801 802 803 804 805 807 808 810 811 812 813 814 814 815 815 815 816 816 816 816 816 816 816 816 816 816 816 816 817 817 819 820 821 823 824 824 825 827 827 827 827 827 826 826 825 825 824 823 822 821 820 819 818 817 816 816 816 815 815 814 814 813 813 813 813 813 812 812 812 811 811 811 811 810 810 810 809 809 0 0 0 0 0 0 0 0 0 0 0 0 0 0 0 0 0 0 0 0 0 0 0 0 0 0 0 0 0 0 0 0 0 0 0 0 0 0 0 0 0 0 0 0 0 0 803 803 803 803 803 803 805 805 805 806 806 806 806 806 806 806 806 807 807 807 807 807 807 808 808 808 809 809 810 810 811 811 813 813 813 813 813 813 813 808 808 808 807 807 0 0 0 0 0 0 0 0 0 0 0 0 0 0 0 0 0 0 0 0 0 0 0 0 0 0 0 0 0 0 0 0 0 0 0 0 0 0 0 0 0 0 0 0 0 0 796 798 802 807 808 809 809 809 809 809 810 810 809 809 809 809 809 809 808 808 808 807 807 807 807 806 806 805 805 805 804 804 803 803 802 802 801 801 801 797 797 796 794 0 0 0 0 0 0 0 0 0 0 0 0 0 0 0 0 0 0 0 0 0 0 0 0 0 0 0 0 0 0 0 0 0 0 0 0 0 0 0 0 0 0 0 0 0 0 0 788 789 790 791 791 791 792 792 792 792 792 792 792 792 792 793 794 794 794 794 795 796 797 799 802 802 802 802 802 802 802 802 802 802 802 804 804 804 804 804 806 806 806 0 0 0 0 0 0 0 0 0 0 0 0 0 0 0 0 0 0 0 0 0 0 0 0 0 0 0 0 0 0 0 0 0 0 0 0 0 0 0 0 0 0 0 0 0 0 810 811 823 823 823 818 816 816 816 821 823 823 823 823 822 822 822 822 820 819 817 817 817 817 817 815 814 814 814 815 815 815 812 0 0 0 0 0 0 0 0 0 814 814 814 813 812 812 810 810 807 807 807 807 813 813 815 815 817 817 817 817 818 818 818 815 814 812 810 810 810 812 813 813 813 813 811 809 807 807 807 808 809 809 811 811 811 0 0 0 0 0 0 0 0 0 0 0 0 0 0 0 0 0 0 0 0 0 0 0 0 0 0 0 0 0 0 0 0 0 0 0 0 0 0 0 0 0 0 0 0 823 834 849 877 986 1172 1270 1343 1389 1398 1398 1398 1396 1393 1392 1390 1390 1389 1387 1385 1383 1381 1379 1378 1376 1374 1372 1371 1371 1369 1367 1366 1366 1365 1365 1363 1363 1361 1354 1354 1354 1358 1363 1367 1369 1371 1371 1371 1371 1371 1371 1371 1374 1387 1404 1406 1408 1413 1414 1428 1450 1455 1462 1467 1474 1484 1497 1499 1499 1499 1498 1494 1491 1488 1486 1477 1474 1466 1466 1466 1470 1472 1473 1473 1472 1472 1462 1460 1448 1448 1448 1448 1448 1444 1433 1429 1425 1425 0
805 805 805 805 805 805 802 800 800 800 799 799 799 799 799 800 801 801 802 803 804 806 807 808 810 811 812 813 814 815 815 815 815 816 816 816 816 816 816 816 816 816 816 816 816 817 817 819 820 821 823 824 825 826 828 828 828 828 827 827 826 826 825 825 823 822 821 821 819 818 817 817 816 816 816 815 814 813 813 813 813 813 812 812 812 812 812 814 814 814 813 810 810 809 809 0 0 0 0 0 0 0 0 0 0 0 0 0 0 0 0 0 0 0 0 0 0 0 0 0 0 0 0 0 0 0 0 0 0 0 0 0 0 0 0 0 0 0 0 0 0 801 803 803 803 803 803 804 805 805 805 805 805 806 806 806 806 806 806 807 807 807 807 807 808 808 808 809 809 810 810 811 811 812 812 812 812 812 812 811 809 808 808 808 802 0 0 0 0 0 0 0 0 0 0 0 0 0 0 0 0 0 0 0 0 0 0 0 0 0 0 0 0 0 0 0 0 0 0 0 0 0 0 0 0 0 0 0 0 0 0 798 798 802 806 809 809 810 810 810 810 810 810 810 809 809 809 808 808 808 808 808 807 807 807 806 806 806 805 805 805 804 803 803 803 802 801 800 800 800 797 797 795 794 0 0 0 0 0 0 0 0 0 0 0 0 0 0 0 0 0 0 0 0 0 0 0 0 0 0 0 0 0 0 0 0 0 0 0 0 0 0 0 0 0 0 0 0 0 0 0 787 787 789 790 790 791 792 792 792 792 792 792 793 793 793 793 793 794 794 795 795 796 797 798 801 802 802 802 802 802 802 802 802 802 802 802 803 804 804 804 806 806 806 0 0 0 0 0 0 0 0 0 0 0 0 0 0 0 0 0 0 0 0 0 0 0 0 0 0 0 0 0 0 0 0 0 0 0 0 0 0 0 0 0 0 0 0 0 0 808 810 823 823 823 818 818 818 819 822 823 823 824 823 823 822 822 822 822 821 820 820 820 820 820 817 817 816 816 816 816 816 813 808 807 790 762 762 762 796 802 811 814 814 814 812 809 809 807 807 807 807 807 807 807 808 808 808 808 815 816 817 818 818 818 815 814 812 807 807 807 807 810 813 813 813 811 809 807 807 807 809 809 809 809 809 809 0 0 0 0 0 0 0 0 0 0 0 0 0 0 0 0 0 0 0 0 0 0 0 0 0 0 0 0 0 0 0 0 0 0 0 0 0 0 0 0 0 0 0 0 826 834 848 879 991 1180 1272 1350 1389 1399 1399 1399 1397 1393 1393 1392 1391 1389 1388 1386 1384 1382 1380 1378 1376 1374 1372 1371 1369 1369 1367 1365 1362 1360 1359 1357 1357 1355 1354 1353 1353 1353 1353 1358 1362 1363 1363 1363 1363 1362 1362 1362 1367 1379 1388 1388 1388 1386 1386 1386 1407 1419 1427 1442 1446 1459 1475 1496 1496 1496 1496 1494 1481 1480 1480 1479 1479 1477 1477 1477 1476 1474 1474 1474 1474 1472 1468 1460 1449 1448 1448 1444 1442 1436 1433 1425 1425 1425 1425
805 805 807 807 807 805 803 801 800 800 800 800 800 800 800 800 801 801 802 803 804 806 807 808 810 811 812 813 814 814 815 815 815 816 816 816 816 816 816 816 816 816 816 816 816 817 818 819 820 821 823 824 826 827 828 828 828 828 828 827 827 826 826 825 824 823 821 821 819 818 817 817 816 816 816 815 814 813 812 812 812 812 811 811 811 811 812 814 814 814 812 810 809 808 808 0 0 0 0 0 0 0 0 0 0 0 0 0 0 0 0 0 0 0 0 0 0 0 0 0 0 0 0 0 0 0 0 0 0 0 0 0 0 0 0 0 0 0 0 0 0 801 802 802 802 802 803 804 804 804 804 804 805 806 806 806 806 806 806 807 807 807 807 807 808 808 809 809 810 810 811 812 812 812 812 812 812 812 812 811 809 808 807 807 800 0 0 0 0 0 0 0 0 0 0 0 0 0 0 0 0 0 0 0 0 0 0 0 0 0 0 0 0 0 0 0 0 0 0 0 0 0 0 0 0 0 0 0 0 0 0 797 798 801 805 808 810 810 810 810 810 809 809 809 809 809 809 808 808 808 807 807 807 807 807 806 806 805 805 804 804 804 803 803 803 802 801 800 800 799 796 796 795 795 0 0 0 0 0 0 0 0 0 0 0 0 0 0 0 0 0 0 0 0 0 0 0 0 0 0 0 0 0 0 0 0 0 0 0 0 0 0 0 0 0 0 0 0 0 0 0 786 787 789 790 790 791 791 792 792 792 792 792 792 793 793 793 793 794 794 795 795 796 797 798 800 801 801 802 802 802 803 803 803 803 803 803 803 803 804 804 804 804 804 0 0 0 0 0 0 0 0 0 0 0 0 0 0 0 0 0 0 0 0 0 0 0 0 0 0 0 0 0 0 0 0 0 0 0 0 0 0 0 0 0 0 0 0 0 0 808 810 823 823 823 820 819 819 819 822 823 824 824 824 824 822 822 822 822 821 820 820 820 822 822 822 822 823 823 822 821 818 815 811 811 811 811 807 807 807 810 811 811 811 0 0 0 0 0 0 0 0 0 0 0 0 0 0 0 808 809 811 815 815 815 814 814 812 807 804 804 804 805 809 811 811 811 807 806 806 806 807 807 808 808 808 805 0 0 0 0 0 0 0 0 0 0 0 0 0 0 0 0 0 0 0 0 0 0 0 0 0 0 0 0 0 0 0 0 0 0 0 0 0 0 0 0 0 0 0 0 826 833 848 879 999 1189 1279 1352 1389 1399 1399 1399 1397 1394 1394 1393 1392 1390 1389 1387 1385 1383 1381 1379 1376 1374 1372 1371 1369 1368 1366 1364 1362 1358 1357 1354 1354 1353 1353 1352 1352 1351 1351 1351 1348 1351 1351 1351 1351 1351 1353 1354 1359 1367 1372 1373 1373 1373 1373 1374 1384 1386 1389 1391 1404 1456 1472 1489 1489 1489 1489 1481 1479 1478 1476 1476 1479 1478 1478 1478 1476 1476 1476 1475 1475 1472 1468 1460 1449 1448 1446 1444 1442 0 1434 1425 1425 1425 1425
806 806 808 808 808 807 804 801 800 800 800 800 799 799 799 800 800 801 802 803 804 806 807 808 810 811 812 813 814 814 815 815 815 815 815 815 815 816 816 816 816 816 816 816 816 817 818 819 820 821 823 825 826 827 828 829 829 829 828 828 828 826 826 825 824 823 821 821 819 818 817 817 816 816 816 815 814 813 812 812 812 811 811 811 811 811 811 814 814 814 812 808 808 807 807 0 0 0 0 0 0 0 0 0 0 0 0 0 0 0 0 0 0 0 0 0 0 0 0 0 0 0 0 0 0 0 0 0 0 0 0 0 0 0 0 0 0 0 0 0 0 800 801 801 801 801 803 803 803 804 804 804 805 805 805 806 806 806 806 806 807 807 807 808 808 808 809 809 810 811 811 812 812 812 812 812 812 812 812 811 808 807 807 807 800 0 0 0 0 0 0 0 0 0 0 0 0 0 0 0 0 0 0 0 0 0 0 0 0 0 0 0 0 0 0 0 0 0 0 0 0 0 0 0 0 0 0 0 0 0 0 798 800 801 805 808 810 810 810 810 810 809 809 809 809 809 808 808 808 807 807 807 807 807 806 806 805 805 804 804 804 804 803 803 802 802 801 800 799 797 795 795 795 795 0 0 0 0 0 0 0 0 0 0 0 0 0 0 0 0 0 0 0 0 0 0 0 0 0 0 0 0 0 0 0 0 0 0 0 0 0 0 0 0 0 0 0 0 0 0 0 785 787 788 788 791 791 791 791 791 792 792 792 792 793 793 793 793 794 795 795 795 796 797 797 798 800 800 801 802 802 803 803 803 803 803 803 803 803 804 804 804 804 804 0 0 0 0 0 0 0 0 0 0 0 0 0 0 0 0 0 0 0 0 0 0 0 0 0 0 0 0 0 0 0 0 0 0 0 0 0 0 0 0 0 0 0 0 0 0 808 814 822 822 822 820 819 819 819 822 823 824 824 824 824 822 822 822 822 822 820 820 820 822 822 822 822 823 823 822 821 818 815 812 812 812 811 808 808 808 812 812 812 0 0 0 0 0 0 0 0 0 0 0 0 0 0 0 0 0 0 0 0 0 0 0 0 0 0 0 0 0 0 0 809 809 809 807 806 806 806 806 805 806 807 807 805 0 0 0 0 0 0 0 0 0 0 0 0 0 0 0 0 0 0 0 0 0 0 0 0 0 0 0 0 0 0 0 0 0 0 0 0 0 0 0 0 0 0 0 0 826 831 848 882 1009 1199 1291 1352 1393 1399 1399 1399 1397 1395 1395 1393 1392 1391 1390 1389 1386 1384 1381 1379 1377 1374 1372 1370 1368 1367 1365 1364 1361 1358 1356 1353 1351 1351 1349 1349 1348 1347 1346 1342 1342 1339 1339 1336 1336 1336 1338 1342 1344 1349 1352 1353 1358 1361 1361 1365 1366 1366 1367 1371 1399 1418 1447 1475 1476 1476 1475 1472 1472 1472 1474 1476 1476 1478 1478 1478 1478 1477 1476 1476 1476 1473 1469 1467 1454 1448 1448 1444 1442 0 1434 1432 1431 1432 1431
808 808 808 808 808 807 805 803 803 802 800 800 799 799 799 800 800 801 802 803 804 806 807 808 810 811 812 813 813 814 815 815 815 815 815 815 815 815 816 816 816 816 816 816 816 817 818 819 820 821 823 825 826 827 828 829 829 829 828 828 828 826 826 825 824 823 822 820 819 818 817 816 816 816 816 815 814 813 812 811 811 811 811 810 810 810 811 813 813 813 813 808 807 806 806 0 0 0 0 0 0 0 0 0 0 0 0 0 0 0 0 0 0 0 0 0 0 0 0 0 0 0 0 0 0 0 0 0 0 0 0 0 0 0 0 0 0 0 0 0 0 797 798 799 799 801 803 803 803 804 804 804 805 805 805 806 806 806 806 806 807 807 807 808 808 808 809 809 810 811 811 812 812 812 812 813 813 813 813 811 807 807 806 803 800 0 0 0 0 0 0 0 0 0 0 0 0 0 0 0 0 0 0 0 0 0 0 0 0 0 0 0 0 0 0 0 0 0 0 0 0 0 0 0 0 0 0 0 0 0 0 801 801 802 805 808 810 810 810 810 810 809 809 809 809 809 808 808 808 807 807 806 806 806 805 805 805 805 804 804 804 803 803 803 802 801 801 801 799 796 796 796 795 795 0 0 0 0 0 0 0 0 0 0 0 0 0 0 0 0 0 0 0 0 0 0 0 0 0 0 0 0 0 0 0 0 0 0 0 0 0 0 0 0 0 0 0 0 0 0 0 785 787 788 788 791 791 791 792 792 792 792 792 793 793 793 793 793 794 795 795 795 796 797 797 798 800 800 801 802 802 803 803 803 803 803 803 802 803 803 803 802 802 0 0 0 0 0 0 0 0 0 0 0 0 0 0 0 0 0 0 0 0 0 0 0 0 0 0 0 0 0 0 0 0 0 0 0 0 0 0 0 0 0 0 0 0 0 0 0 808 814 822 822 822 821 821 821 821 822 823 823 824 824 824 822 822 822 822 822 820 820 820 821 822 822 822 823 823 822 821 818 815 813 813 812 812 812 812 812 812 812 812 0 0 0 0 0 0 0 0 0 0 0 0 0 0 0 0 0 0 0 0 0 0 0 0 0 0 0 0 0 0 0 0 0 0 0 0 0 0 0 0 0 0 0 0 0 0 0 0 0 0 0 0 0 0 0 0 0 0 0 0 0 0 0 0 0 0 0 0 0 0 0 0 0 0 0 0 0 0 0 0 0 0 0 0 0 0 0 0 0 831 848 883 1014 1205 1297 1358 1393 1397 1397 1397 1396 1396 1395 1393 1392 1391 1391 1389 1388 1385 1382 1380 1378 1375 1372 1370 1368 1366 1365 1362 1361 1358 1356 1353 1350 1349 1348 1347 1345 1344 1342 1338 1337 1336 1334 1334 1334 1334 1336 1336 1336 1336 1336 1336 1347 1353 1353 1353 1353 1355 1362 1366 1371 1379 1394 1412 1444 1455 1461 1465 1465 1465 1465 1465 1465 1468 1478 1478 1478 1475 1475 1475 1474 1473 1472 1467 1454 1454 1454 1448 1448 1448 1434 1432 1431 1432 1431
808 808 809 809 809 808 805 804 803 802 800 799 799 799 799 800 800 801 802 803 805 806 807 808 810 811 812 813 813 814 814 815 815 815 815 815 815 815 815 815 816 816 816 816 816 817 818 819 820 820 823 825 826 827 827 829 829 829 829 829 828 827 826 825 824 823 822 820 819 818 818 817 816 816 815 815 814 813 812 811 811 810 810 810 810 810 810 810 812 812 812 808 807 806 0 0 0 0 0 0 0 0 0 0 0 0 0 0 0 0 0 0 0 0 0 0 0 0 0 0 0 0 0 0 0 0 0 0 0 0 0 0 0 0 0 0 0 0 0 0 0 797 797 798 798 800 802 803 803 803 804 804 804 805 805 805 806 806 806 806 807 807 807 807 808 809 809 809 810 811 811 812 812 812 813 813 814 814 814 813 810 809 804 801 800 0 0 0 0 0 0 0 0 0 0 0 0 0 0 0 0 0 0 0 0 0 0 0 0 0 0 0 0 0 0 0 0 0 0 0 0 0 0 0 0 0 0 0 0 0 0 803 803 803 805 808 810 810 810 810 810 809 809 809 809 809 808 808 807 807 807 806 806 805 805 805 805 805 804 804 804 803 803 803 802 801 801 801 799 798 798 796 795 795 0 0 0 0 0 0 0 0 0 0 0 0 0 0 0 0 0 0 0 0 0 0 0 0 0 0 0 0 0 0 0 0 0 0 0 0 0 0 0 0 0 0 0 0 0 0 785 787 787 787 788 791 791 792 792 792 792 792 793 793 793 793 793 793 794 795 795 795 796 797 797 798 799 800 801 802 802 803 803 803 803 803 803 803 803 801 801 801 801 0 0 0 0 0 0 0 0 0 0 0 0 0 0 0 0 0 0 0 0 0 0 0 0 0 0 0 0 0 0 0 0 0 0 0 0 0 0 0 0 0 0 0 0 0 0 0 808 814 819 820 820 820 821 823 823 823 823 824 824 824 823 823 822 822 822 822 820 819 819 819 820 821 822 822 822 822 818 816 815 813 813 813 813 813 812 812 812 812 812 0 0 0 0 0 0 0 0 0 0 0 0 0 0 0 0 0 0 0 0 0 0 0 0 0 0 0 0 0 0 0 0 0 0 0 0 0 0 0 0 0 0 0 0 0 0 0 0 0 0 0 0 0 0 0 0 0 0 0 0 0 0 0 0 0 0 0 0 0 0 0 0 0 0 0 0 0 0 0 0 0 0 0 0 0 0 0 0 0 831 848 883 1016 1206 1297 1364 1393 1396 1396 1396 1396 1396 1395 1394 1393 1393 1392 1390 1388 1386 1383 1380 1379 1376 1373 1370 1368 1366 1364 1362 1360 1358 1356 1353 1350 1349 1348 1346 1345 1342 1339 1336 1335 1334 1331 1331 1331 1333 1334 1334 1333 1328 1328 1328 1337 1342 1343 1345 1346 1348 1348 1350 1354 1358 1361 1361 1370 1383 1401 1423 1434 1435 1444 1446 1448 1455 1464 1474 1475 1475 1474 1474 1474 1470 1468 1467 1454 1454 1454 1456 1456 1456 1431 1431 1431 1431 1431
808 808 809 809 809 808 808 807 803 802 800 799 799 799 799 799 800 801 802 803 805 806 807 808 810 811 812 812 813 814 814 814 815 815 815 815 815 815 815 815 815 815 816 816 816 817 818 818 819 820 822 824 826 827 827 829 829 829 829 829 828 827 826 825 824 823 822 820 819 819 818 817 816 816 815 815 814 813 812 811 810 810 810 810 810 810 810 810 811 811 811 810 808 807 0 0 0 0 0 0 0 0 0 0 0 0 0 0 0 0 0 0 0 0 0 0 0 0 0 0 0 0 0 0 0 0 0 0 0 0 0 0 0 0 0 0 0 0 0 0 0 797 797 798 798 800 802 803 803 803 804 804 804 804 805 805 805 806 806 806 807 807 807 808 808 809 809 809 810 811 811 812 812 812 813 813 814 814 814 814 810 810 804 800 796 0 0 0 0 0 0 0 0 0 0 0 0 0 0 0 0 0 0 0 0 0 0 0 0 0 0 0 0 0 0 0 0 0 0 0 0 0 0 0 0 0 0 0 0 0 0 804 805 805 808 808 809 810 810 810 810 809 809 809 809 809 808 808 807 807 806 806 806 805 805 804 804 804 804 804 804 803 803 802 802 801 801 801 799 798 798 797 797 794 0 0 0 0 0 0 0 0 0 0 0 0 0 0 0 0 0 0 0 0 0 0 0 0 0 0 0 0 0 0 0 0 0 0 0 0 0 0 0 0 0 0 0 0 0 0 787 788 789 790 791 792 792 792 793 793 793 793 793 793 793 793 793 794 794 795 795 795 796 796 797 798 799 800 801 802 802 803 803 803 803 803 803 803 803 801 801 801 801 0 0 0 0 0 0 0 0 0 0 0 0 0 0 0 0 0 0 0 0 0 0 0 0 0 0 0 0 0 0 0 0 0 0 0 0 0 0 0 0 0 0 0 0 0 0 0 807 813 819 820 820 820 822 823 823 823 824 823 823 823 823 823 823 823 822 822 819 819 819 819 820 821 821 821 820 818 817 816 815 813 813 813 813 813 812 812 812 812 812 0 0 0 0 0 0 0 0 0 0 0 0 0 0 0 0 0 0 0 0 0 0 0 0 0 0 0 0 0 0 0 0 0 0 0 0 0 0 0 0 0 0 0 0 0 0 0 0 0 0 0 0 0 0 0 0 0 0 0 0 0 0 0 0 0 0 0 0 0 0 0 0 0 0 0 0 0 0 0 0 0 0 0 0 0 0 0 0 2 831 848 887 1023 1207 1297 1369 1395 1396 1396 1396 1396 1396 1395 1394 1394 1394 1393 1390 1389 1387 1384 1381 1379 1376 1374 1371 1368 1366 1364 1362 1360 1358 1356 1353 1350 1349 1348 1346 1344 1341 1339 1336 1333 1330 1330 1330 1330 1330 1330 1330 1329 1324 1324 1324 1324 1324 1326 1338 1338 1339 1339 1339 1344 1348 1353 1355 1356 1360 1372 1397 1403 1404 1404 1406 1421 1432 1439 1452 1452 1452 1459 1459 1464 1467 1467 1467 1454 1454 1454 1456 1456 1456 1429 1425 1424 1422 1422
