0 0 0 0 0 0 0 0 0 0 0 0 0 0 0 0 0 0 1108 1228 1232 1282 1295 1340 1344 1340 1330 1330 1330 1330 1342 1347 1409 1412 1457 1459 1460 1475 1482 1483 1485 1487 1487 1491 1500 1515 1530 1532 1542 1545 1545 1545 1540 1535 1535 1535 1535 1535 1507 1471 1422 1315 1290 1289 1288 1283 1288 1289 1310 1346 1389 1403 1404 1404 1439 1453 1453 1453 1427 1427 1427 1494 1494 1495 1495 1494 1460 1444 1434 1340 1185 1080 1007 974 960 950 950 949 943 936 933 933 933 933 933 931 929 929 928 928 928 928 927 927 927 927 927 927 928 928 928 928 928 929 929 930 930 931 932 933 933 935 935 935 936 938 939 939 941 943 944 945 947 948 950 951 953 954 956 958 958 960 961 963 965 966 967 969 971 973 975 977 979 980 982 984 986 989 992 995 998 1001 1003 1006 1010 1013 1015 1018 1021 1022 1026 1028 1030 1032 1034 1036 1038 1041 1043 1045 1048 1049 1051 1052 1054 1057 1060 1061 1062 1064 1067 1068 1069 1071 1073 1075 1077 1078 1079 1081 1082 1084 1086 1087 1087 1088 1090 1093 1095 1096 1098 1100 1102 1104 1106 1108 1110 1111 1115 1119 1122 1127 1130 1133 1134 1137 1142 1142 1142 1143 1148 1151 1163 1178 1192 1208 1236 1288 1351 1481 1606 1628 1654 1671 1671 1663 1663 1638 1557 1459 1355 1255 1193 1160 1142 1129 1118 1112 1108 1102 1100 1097 1092 1088 1085 1081 1078 1074 1065 1055 1051 1045 1040 1037 1034 1031 1027 1024 1021 1019 1017 1016 1014 1012 1010 1009 1008 1007 1006 1004 1003 1002 1000 1000 998 996 996 995 994 992 991 990 988 987 985 985 984 983 982 981 981 979 979 979 979 977 977 977 980 981 981 981 978 964 961 961 958 956 956 955 954 954 953 951 951 949 948 947 946 944 942 939 934 934 934 937 937 937 937 937 936 934 931 0 0 0 0 0 0 0 0 0 0 0 915 915 916 918 919 924 924 924 924 924 923 923 918 909 908 908 908 906 906 900 899 898 897 885 0 0 0 0 0 0 0 0 0 0 0 0 0 0 0 0 0 0 0 0 0 0 0 863 869 874 874 874 874 874 879 879 879 879 874 874 873 873 873 873 873 872 870 869 869 869 868 868 864 861 860 859 858 858 858 857 856 854 853 850 846 845 845 844 842 837 835 835 835 835 822 822 0 0 0 0 0 0 0 0 0 0 0 0 0 0 0 0 0 0 0 0 0 0 0 0 0 0 0 0 0 0 0 0 0 0 0 0 0 0 0 795 797 799 799 799 801 805 809 815 827 860 910 982 1137 1388 1432 1445 1451 1473 1637 1717 1757 1758 1759 1762 1769 1771 1775 1775 1775 1774 1773 1772 1770 1768 1765 1763 1759 1757 1754 1750 1745 1741 1737 1732 1727 1722 1718 1714 1710 1706 1702 1697 1692 1687 1682 1678 1675 1671 1668 1665 1661 1658 1655 1651 1646 1642 1637 1631 1626 1621 1616 1612 1608 1605 1601 1599 1597 1593 1591 1587 1585 1582 1580 1576 1572 1566 1560 1557 1555 1552 1549 1547 1544 1540 1540 1538 1538 1536 1534 1530 1527 1524 1521 1520 1519 1519 1519 1518 1517 1511 1504 1500 1496 1493 1489 1484 1481 1479 1476 1472 1470 1467 1466 1463 1458 1454 1450 1449 1448 1448
0 0 0 0 0 0 0 0 0 0 0 0 0 0 0 0 0 1051 1153 1236 1238 1238 1245 1295 1295 1330 1330 1330 1330 1330 1342 1357 1418 1431 1459 1461 1462 1472 1482 1483 1485 1485 1487 1491 1500 1515 1530 1532 1538 1541 1541 1541 1533 1531 1531 1530 1530 1530 1495 1448 1380 1306 1290 1289 1289 1289 1308 1309 1312 1346 1373 1373 1380 1380 1380 1397 1397 1397 1375 1375 1375 1440 1462 1462 1462 1393 1393 1368 1309 1094 1029 991 969 957 950 943 943 941 937 933 930 930 929 929 929 928 928 927 926 926 926 926 926 926 926 926 926 926 926 926 927 927 927 927 928 929 929 930 931 931 932 932 933 934 935 936 937 939 941 941 943 944 945 947 949 951 952 954 955 957 958 959 961 962 964 965 967 968 970 973 975 976 978 980 981 983 986 989 991 994 997 1000 1003 1006 1008 1011 1015 1018 1020 1022 1024 1027 1029 1032 1034 1036 1038 1040 1043 1046 1049 1051 1053 1054 1056 1058 1060 1063 1065 1067 1070 1072 1073 1075 1076 1077 1078 1079 1082 1084 1086 1088 1089 1089 1090 1090 1092 1094 1096 1098 1101 1103 1104 1106 1108 1110 1112 1115 1118 1123 1128 1132 1135 1137 1137 1138 1142 1143 1143 1143 1149 1156 1172 1185 1201 1224 1269 1369 1538 1628 1629 1630 1654 1654 1654 1633 1587 1507 1409 1309 1224 1176 1152 1133 1123 1115 1112 1107 1104 1101 1100 1096 1092 1088 1087 1085 1083 1077 1071 1061 1051 1045 1040 1037 1032 1029 1025 1023 1020 1018 1015 1014 1012 1010 1008 1006 1005 1005 1004 1002 1001 1000 998 997 996 995 994 992 991 990 988 987 986 985 984 982 981 981 979 979 979 977 977 977 977 977 976 977 977 979 979 979 970 962 961 959 957 956 956 954 953 951 951 950 950 948 946 944 944 943 942 939 938 937 937 935 937 937 937 936 936 934 931 0 0 0 0 0 0 0 0 0 0 0 914 914 914 917 919 924 924 924 919 919 917 917 912 905 905 905 906 906 906 901 899 899 897 890 881 0 0 0 0 0 0 0 0 0 0 0 0 0 0 0 0 0 0 0 0 0 859 865 871 874 874 874 874 874 874 874 874 871 869 869 869 870 871 871 870 869 867 867 866 866 866 865 862 858 858 856 856 856 855 854 852 850 850 846 845 844 844 843 840 836 834 828 828 828 820 820 0 0 0 0 0 0 0 0 0 0 0 0 0 0 0 0 0 0 0 0 0 0 0 0 0 0 0 0 0 0 0 0 0 0 0 0 0 0 0 796 797 798 800 800 801 806 811 825 850 891 945 1063 1271 1501 1575 1588 1601 1617 1693 1731 1758 1761 1762 1762 1769 1780 1780 1780 1779 1776 1774 1772 1770 1768 1765 1763 1760 1757 1754 1750 1746 1741 1737 1733 1727 1722 1718 1714 1710 1706 1702 1698 1693 1688 1683 1680 1676 1672 1670 1665 1661 1658 1655 1651 1646 1641 1637 1632 1627 1622 1617 1612 1608 1606 1604 1600 1597 1594 1591 1588 1586 1582 1580 1576 1573 1567 1563 1560 1557 1554 1552 1548 1546 1543 1542 1542 1541 1539 1535 1531 1527 1524 1521 1520 1520 1519 1519 1519 1519 1517 1509 1501 1496 1490 1489 1488 1483 1479 1476 1472 1467 1464 1463 1462 1458 1453 1450 1447 1446 1446
0 0 0 0 0 0 0 0 0 0 0 0 0 0 1197 1237 1268 1268 1273 1273 1273 1259 1281 1295 1295 1314 1314 1321 1321 1321 1395 1402 1428 1456 1459 1461 1462 1469 1471 1483 1484 1484 1486 1486 1498 1514 1520 1521 1523 1525 1532 1532 1532 1528 1521 1517 1514 1509 1459 1384 1291 1291 1291 1291 1301 1303 1308 1309 1312 1346 1346 1346 1345 1345 1345 1345 1345 1326 1326 1326 1327 1366 1366 1366 1321 1200 1199 1086 1025 1001 982 963 952 950 946 942 940 937 930 927 925 925 925 925 925 925 924 924 924 923 923 923 924 924 924 924 924 924 924 925 925 925 925 926 926 927 927 928 929 930 930 931 932 933 934 936 937 939 939 940 942 943 945 946 948 950 951 953 954 955 957 958 960 961 963 965 966 967 969 971 974 976 977 979 981 983 986 987 990 993 996 999 1001 1004 1007 1010 1013 1016 1019 1021 1023 1025 1028 1030 1032 1035 1037 1040 1043 1047 1049 1052 1054 1056 1058 1060 1062 1065 1067 1069 1071 1074 1076 1077 1079 1080 1081 1082 1084 1087 1088 1091 1091 1092 1093 1094 1095 1097 1100 1102 1103 1104 1106 1107 1109 1112 1115 1119 1123 1128 1129 1133 1137 1137 1138 1140 1143 1145 1147 1156 1161 1168 1189 1207 1238 1290 1390 1561 1629 1629 1630 1630 1630 1628 1605 1557 1446 1324 1252 1197 1164 1149 1131 1118 1112 1112 1111 1107 1103 1100 1097 1094 1092 1088 1087 1085 1083 1077 1071 1062 1051 1045 1040 1036 1031 1028 1025 1021 1018 1016 1015 1012 1010 1008 1006 1004 1004 1002 1001 1001 999 998 997 996 994 993 992 991 989 988 986 985 983 982 981 980 980 978 976 976 976 976 974 972 971 970 970 970 971 974 974 974 967 962 959 957 956 953 953 952 951 949 948 948 948 945 943 943 943 942 942 939 938 936 0 0 0 933 933 933 933 933 929 924 0 0 0 0 0 0 0 0 0 0 913 913 914 914 919 922 922 922 917 916 916 915 909 902 902 902 906 906 906 905 901 899 897 893 890 886 0 0 0 0 0 0 0 0 0 0 0 0 0 0 0 0 0 0 0 861 862 866 872 874 874 874 874 874 873 873 873 870 868 868 868 870 870 870 870 869 865 865 865 864 864 863 861 858 857 855 853 853 852 851 849 846 845 845 844 843 843 843 838 836 834 824 819 817 817 0 0 0 0 0 0 0 0 0 0 0 0 0 0 0 0 0 0 0 0 0 0 0 0 0 0 0 0 0 0 0 0 0 0 0 0 0 0 791 793 798 800 800 801 801 803 806 817 842 893 963 1051 1208 1384 1580 1637 1648 1682 1713 1734 1754 1760 1761 1762 1762 1771 1781 1781 1781 1779 1776 1775 1772 1770 1768 1765 1763 1760 1757 1754 1750 1746 1742 1738 1733 1728 1723 1719 1714 1710 1706 1702 1699 1694 1689 1684 1680 1676 1673 1670 1666 1662 1658 1654 1651 1646 1641 1637 1632 1628 1622 1617 1612 1609 1606 1604 1601 1598 1594 1591 1589 1586 1582 1580 1576 1573 1568 1564 1562 1560 1557 1554 1552 1549 1546 1545 1544 1544 1541 1538 1533 1529 1525 1523 1521 1519 1519 1519 1519 1519 1517 1509 1501 1495 1490 1488 1488 1483 1479 1476 1470 1464 1461 1460 1460 1458 1453 1450 1447 1446 1446
0 0 0 0 0 0 0 0 0 0 1167 1258 1282 1282 1297 1297 1297 1309 1309 1311 1309 1309 1309 1311 1367 1367 1367 1376 1376 1397 1441 1453 1455 1456 1457 1459 1462 1468 1471 1473 1481 1481 1481 1483 1488 1496 1502 1504 1507 1509 1512 1512 1512 1512 1511 1496 1492 1457 1393 1299 1291 1291 1291 1291 1301 1303 1308 1309 1309 1312 1313 1314 1314 1314 1304 1294 1281 1241 1241 1241 1275 1275 1275 1193 1106 1045 1044 1001 981 973 966 956 943 941 940 939 937 928 927 925 925 924 923 922 922 922 922 922 922 922 921 921 921 922 922 922 922 923 923 924 924 924 924 925 925 925 926 928 928 928 929 930 931 932 934 935 936 938 939 940 942 943 945 946 948 949 950 952 953 955 956 958 960 960 963 964 965 967 969 971 973 975 977 978 980 982 984 987 989 992 994 998 1000 1003 1006 1009 1011 1014 1017 1020 1022 1024 1026 1029 1032 1034 1037 1040 1043 1047 1050 1053 1055 1058 1061 1063 1065 1067 1071 1074 1075 1077 1079 1081 1082 1084 1085 1087 1089 1089 1092 1093 1095 1096 1096 1098 1099 1100 1102 1102 1103 1105 1107 1110 1112 1115 1117 1121 1125 1130 1133 1134 1138 1140 1141 1141 1146 1153 1166 1170 1172 1186 1213 1256 1341 1439 1588 1591 1629 1629 1629 1619 1599 1549 1490 1407 1295 1219 1182 1159 1144 1131 1120 1111 1110 1110 1108 1105 1101 1099 1096 1091 1089 1088 1087 1085 1083 1077 1071 1062 1051 1043 1040 1036 1030 1028 1024 1020 1018 1016 1014 1012 1009 1006 1005 1004 1002 1002 1000 999 998 996 994 993 992 991 990 989 987 986 985 983 982 981 979 979 977 976 976 974 974 973 973 971 969 968 968 968 968 968 968 968 965 962 957 955 952 952 951 950 948 947 946 946 945 944 943 942 942 942 941 939 938 937 0 0 0 931 931 931 930 930 929 926 923 0 0 0 0 0 0 0 0 0 904 907 911 914 919 921 921 921 917 916 916 915 909 902 902 902 905 905 905 901 899 897 897 894 893 888 878 0 0 0 0 0 0 0 0 0 0 0 0 0 0 0 0 0 862 864 864 878 882 882 878 877 874 874 873 873 873 870 867 867 867 868 869 869 869 867 863 863 862 862 862 860 859 858 856 855 853 852 849 847 846 846 845 845 844 843 842 842 839 837 834 821 819 816 0 0 0 0 0 0 0 0 0 0 0 0 0 0 0 0 0 0 0 0 0 0 0 0 0 0 0 0 0 0 0 0 0 0 0 0 0 0 0 796 798 800 800 800 800 800 803 819 844 878 936 1036 1165 1352 1574 1641 1646 1684 1724 1746 1764 1764 1764 1761 1761 1761 1771 1781 1781 1781 1779 1776 1775 1773 1770 1768 1765 1763 1760 1757 1754 1750 1746 1741 1737 1733 1728 1724 1720 1715 1710 1706 1704 1700 1695 1689 1685 1681 1677 1674 1671 1666 1662 1658 1653 1650 1646 1641 1637 1633 1628 1622 1617 1613 1610 1607 1605 1602 1598 1595 1592 1589 1586 1582 1580 1576 1573 1568 1565 1562 1560 1558 1556 1554 1551 1548 1547 1546 1545 1543 1540 1536 1532 1528 1525 1521 1518 1518 1518 1517 1517 1517 1509 1501 1495 1490 1488 1488 1483 1479 1476 1470 1464 1459 1458 1457 1457 1452 1449 1447 1446 1446
0 0 0 0 0 0 0 0 1079 1164 1167 1299 1299 1299 1297 1297 1297 1327 1327 1327 1316 1316 1316 1351 1370 1370 1370 1382 1400 1433 1449 1453 1456 1456 1456 1458 1458 1461 1470 1473 1478 1478 1478 1477 1477 1477 1483 1490 1494 1496 1498 1498 1498 1496 1494 1494 1476 1450 1391 1289 1289 1289 1291 1291 1291 1285 1284 1283 1282 1279 1279 1271 1271 1271 1249 1246 1210 1210 1210 1210 1210 1196 1142 1050 1007 993 979 978 969 966 957 947 939 938 937 934 928 926 925 925 925 923 923 921 921 921 921 921 920 920 919 919 919 919 920 920 920 920 922 922 922 923 923 924 924 924 926 926 926 927 928 929 930 931 933 934 936 937 938 940 941 942 944 945 947 948 950 952 952 954 955 957 959 960 962 964 965 967 968 970 972 974 976 978 979 982 984 986 989 991 993 996 999 1002 1005 1006 1010 1012 1016 1019 1021 1023 1026 1028 1031 1034 1036 1039 1043 1047 1051 1055 1058 1059 1062 1065 1068 1070 1074 1077 1079 1081 1083 1084 1086 1087 1089 1092 1093 1094 1095 1097 1099 1099 1101 1101 1102 1102 1103 1104 1104 1108 1111 1114 1114 1115 1117 1122 1126 1134 1141 1144 1144 1144 1145 1147 1158 1165 1175 1188 1197 1232 1285 1393 1516 1531 1588 1588 1588 1588 1535 1484 1447 1372 1313 1256 1203 1178 1153 1134 1129 1124 1114 1110 1110 1110 1108 1105 1101 1098 1095 1091 1088 1086 1086 1084 1081 1073 1066 1062 1050 1039 1034 1032 1028 1025 1023 1020 1017 1014 1012 1009 1008 1006 1005 1003 1001 1000 999 998 996 994 993 992 990 990 988 986 985 984 983 981 980 979 978 977 976 975 975 973 972 971 970 968 968 967 966 966 963 963 963 962 961 957 954 952 952 951 950 949 947 946 945 944 944 944 941 941 940 940 939 938 937 937 934 932 929 929 929 929 929 929 928 926 923 0 0 0 0 0 0 0 902 904 906 907 911 915 919 921 921 921 916 916 915 914 909 902 902 902 901 901 901 896 896 893 894 893 892 890 881 876 872 870 0 0 0 0 0 0 0 0 0 0 0 0 0 0 864 869 870 887 887 887 883 881 877 873 872 872 872 868 866 866 866 867 867 867 866 862 858 858 858 858 858 858 857 856 856 854 852 852 849 847 846 846 845 844 844 844 841 838 838 837 834 820 819 0 0 0 0 0 0 0 0 0 0 0 0 0 0 0 0 0 0 0 0 0 0 0 0 0 0 0 0 0 0 0 0 0 0 0 0 0 0 0 0 798 800 800 800 801 804 804 810 829 872 922 989 1116 1292 1562 1648 1653 1679 1722 1756 1764 1766 1766 1764 1762 1762 1762 1771 1781 1781 1781 1779 1776 1775 1773 1770 1768 1765 1763 1760 1756 1754 1750 1745 1741 1737 1733 1728 1725 1721 1717 1712 1708 1704 1701 1695 1690 1685 1681 1679 1675 1672 1667 1663 1658 1653 1650 1646 1641 1637 1633 1628 1624 1619 1615 1610 1608 1605 1602 1601 1597 1594 1590 1585 1582 1578 1574 1572 1568 1565 1563 1561 1559 1557 1555 1554 1552 1549 1547 1546 1544 1541 1537 1533 1529 1525 1521 1518 1516 1516 1516 1515 1513 1505 1498 1493 1490 1487 1485 1481 1478 1475 1470 1464 1459 1457 1455 1455 1452 1448 1447 1445 1445
0 0 0 0 0 0 1101 1163 1246 1249 1269 1299 1299 1299 1297 1297 1297 1328 1328 1338 1338 1349 1351 1369 1370 1370 1370 1382 1400 1433 1453 1453 1453 1450 1450 1450 1450 1451 1456 1460 1469 1469 1469 1462 1462 1462 1467 1475 1482 1484 1484 1484 1480 1479 1477 1473 1470 1449 1391 1286 1281 1278 1275 1275 1257 1243 1243 1240 1239 1238 1236 1225 1221 1220 1211 1170 1133 1128 1116 1110 1101 1053 1002 982 982 970 953 953 945 943 943 938 936 936 934 929 925 924 924 924 924 923 922 920 920 920 919 919 919 918 917 917 917 918 918 918 918 919 919 921 921 922 922 922 922 924 924 925 925 926 928 928 929 931 933 934 936 937 938 939 940 942 943 945 947 948 949 951 952 953 955 956 958 960 962 963 965 966 968 970 972 974 975 976 978 981 983 985 987 990 992 995 997 1000 1003 1006 1009 1012 1015 1018 1020 1022 1024 1028 1030 1033 1036 1039 1043 1047 1051 1056 1059 1061 1066 1071 1073 1075 1078 1082 1084 1085 1087 1088 1090 1091 1093 1096 1096 1098 1098 1100 1100 1101 1102 1103 1105 1106 1108 1109 1112 1114 1116 1118 1118 1119 1120 1123 1128 1134 1141 1146 1147 1148 1154 1159 1163 1170 1194 1223 1261 1325 1459 1477 1516 1531 1531 1531 1526 1451 1372 1338 1285 1235 1193 1189 1167 1149 1131 1123 1121 1118 1111 1110 1109 1109 1106 1102 1099 1096 1094 1091 1087 1086 1084 1083 1076 1067 1061 1058 1045 1035 1032 1030 1026 1023 1020 1019 1016 1013 1011 1009 1008 1006 1004 1002 1000 999 997 996 994 992 991 989 988 987 987 985 983 982 981 980 978 978 976 975 975 973 972 971 970 969 969 968 967 967 966 964 962 961 961 960 958 955 953 952 952 951 949 948 946 945 944 944 943 941 940 939 939 938 937 937 936 935 934 932 930 929 929 929 928 928 926 924 923 0 0 0 0 0 0 0 903 904 907 907 918 919 922 921 921 921 916 916 915 914 909 905 905 903 903 903 901 890 890 890 890 890 890 890 882 876 876 875 875 0 0 0 0 0 0 0 0 0 0 0 0 0 864 869 870 887 887 887 883 881 877 873 872 872 872 868 866 865 865 863 863 862 860 857 857 857 857 857 857 856 855 855 855 854 852 851 849 847 846 846 845 844 844 844 839 838 837 837 834 818 0 0 0 0 0 0 0 0 0 0 0 0 0 0 0 0 0 0 0 0 0 0 0 0 0 0 0 0 0 0 0 0 0 0 0 0 0 0 0 0 0 803 803 803 803 803 806 810 822 840 886 957 1063 1208 1418 1637 1660 1682 1725 1755 1783 1783 1783 1777 1776 1773 1771 1771 1771 1778 1778 1778 1778 1776 1774 1773 1770 1768 1765 1762 1759 1755 1752 1748 1745 1741 1736 1733 1728 1725 1723 1719 1713 1710 1707 1702 1698 1692 1688 1685 1681 1677 1674 1669 1663 1658 1653 1650 1646 1642 1638 1633 1629 1625 1620 1617 1612 1608 1605 1602 1601 1599 1595 1590 1585 1581 1577 1574 1572 1569 1566 1563 1561 1560 1558 1557 1556 1553 1550 1548 1547 1544 1541 1537 1534 1530 1525 1521 1518 1516 1515 1515 1512 1507 1501 1495 1492 1490 1487 1485 1481 1478 1475 1471 1464 1459 1455 1455 1453 1451 1448 1446 1445 1445
0 0 0 0 0 1123 1172 1196 1246 1249 1269 1298 1298 1298 1262 1262 1262 1330 1345 1348 1353 1361 1364 1369 1370 1370 1370 1381 1396 1433 1448 1448 1448 1442 1442 1442 1442 1442 1443 1444 1455 1462 1462 1462 1461 1461 1461 1464 1472 1472 1472 1467 1466 1464 1464 1462 1454 1448 1389 1286 1278 1274 1258 1252 1223 1211 1208 1208 1205 1193 1166 1166 1125 1123 1113 1112 1064 1063 1043 1013 988 969 963 962 959 946 939 938 936 936 935 934 934 932 928 926 924 922 922 921 921 921 920 919 918 918 918 918 917 917 916 916 916 917 917 917 917 918 919 919 920 920 921 921 921 922 923 924 925 926 927 927 929 930 932 933 935 936 937 939 940 942 943 945 946 948 949 950 952 953 955 956 958 960 961 963 965 966 968 969 971 973 975 976 978 980 983 985 987 990 992 994 997 999 1002 1004 1008 1011 1014 1017 1019 1022 1024 1027 1030 1032 1035 1039 1043 1047 1051 1056 1059 1064 1069 1073 1076 1081 1084 1086 1088 1088 1089 1090 1091 1093 1095 1097 1099 1099 1100 1101 1102 1102 1103 1106 1107 1109 1110 1111 1113 1114 1117 1121 1123 1124 1124 1125 1130 1134 1143 1147 1151 1160 1165 1168 1186 1211 1243 1296 1367 1406 1459 1477 1488 1488 1488 1419 1354 1282 1239 1224 1201 1184 1156 1151 1140 1128 1119 1119 1114 1110 1109 1109 1108 1106 1103 1101 1098 1095 1093 1090 1087 1084 1082 1078 1069 1062 1059 1047 1037 1032 1030 1028 1025 1022 1019 1016 1015 1013 1011 1009 1008 1006 1004 1001 1000 998 997 994 992 991 989 988 988 986 984 983 981 980 979 978 977 975 975 974 973 972 970 969 968 967 966 966 965 964 962 962 960 959 957 955 954 954 952 951 950 949 948 947 945 944 943 941 940 939 937 935 935 934 934 934 934 934 934 932 930 928 927 0 0 0 2 0 0 0 0 0 0 905 906 906 907 909 912 919 919 919 917 917 917 917 916 915 915 912 909 905 905 905 904 901 895 889 889 889 890 890 890 890 882 878 878 877 877 876 873 872 0 0 0 0 0 0 0 0 0 854 864 869 870 884 884 884 883 881 877 873 872 871 871 868 866 864 862 860 860 857 857 857 857 857 857 857 856 855 855 854 853 853 852 851 850 848 847 846 846 845 845 844 839 838 837 834 830 0 0 0 0 0 0 0 0 0 0 0 0 0 0 0 0 0 0 0 0 0 0 0 0 0 0 0 0 0 0 0 0 0 0 0 0 0 0 0 0 0 3 803 803 803 803 803 808 819 845 885 935 1019 1145 1352 1593 1659 1679 1723 1751 1771 1783 1783 1783 1777 1777 1776 1776 1776 1776 1777 1777 1777 1775 1774 1774 1772 1769 1768 1765 1762 1758 1755 1750 1747 1743 1738 1734 1731 1727 1726 1724 1720 1714 1710 1707 1703 1699 1695 1691 1688 1683 1679 1675 1671 1665 1659 1655 1652 1647 1644 1639 1636 1631 1626 1622 1617 1612 1609 1605 1603 1602 1599 1595 1590 1584 1581 1577 1574 1572 1570 1567 1565 1563 1562 1561 1560 1558 1554 1550 1548 1547 1545 1542 1540 1536 1531 1526 1522 1518 1515 1513 1512 1508 1502 1497 1494 1492 1490 1487 1485 1481 1478 1475 1471 1464 1458 1455 1453 1452 1450 1448 1446 1445 1445
0 0 0 0 1094 1123 1172 1196 1249 1253 1255 1269 1255 1255 1262 1262 1262 1330 1348 1353 1358 1364 1367 1370 1371 1374 1389 1389 1396 1424 1439 1439 1439 1435 1435 1435 1436 1437 1442 1444 1453 1460 1460 1460 1460 1460 1460 1462 1463 1463 1463 1460 1456 1455 1453 1444 1428 1414 1360 1286 1254 1225 1209 1197 1197 1197 1192 1189 1188 1136 1080 1040 1040 1037 1035 1029 1010 993 981 974 960 949 944 943 939 935 934 933 932 932 932 931 930 929 927 925 922 921 921 920 920 919 918 918 918 917 916 916 916 916 916 916 916 916 916 916 916 917 918 919 919 920 920 920 921 921 922 923 924 925 926 927 929 929 931 933 934 936 937 939 940 941 943 945 946 947 948 950 951 953 954 956 958 960 960 963 964 966 967 969 970 972 974 976 978 980 982 984 986 989 991 994 996 998 1001 1004 1007 1011 1014 1017 1019 1022 1024 1027 1030 1032 1035 1039 1043 1047 1051 1056 1060 1064 1069 1074 1080 1082 1085 1087 1088 1089 1089 1090 1091 1093 1095 1097 1099 1099 1100 1101 1102 1103 1105 1107 1108 1109 1110 1111 1113 1116 1117 1122 1127 1127 1128 1130 1136 1143 1144 1152 1168 1182 1190 1204 1238 1292 1367 1380 1406 1412 1423 1423 1423 1368 1305 1264 1224 1186 1165 1156 1146 1140 1136 1124 1117 1115 1114 1113 1111 1110 1108 1108 1104 1103 1102 1099 1097 1094 1092 1089 1086 1082 1080 1073 1066 1061 1052 1042 1033 1029 1028 1025 1022 1020 1019 1016 1015 1013 1011 1009 1008 1006 1003 1000 999 998 995 993 991 990 988 986 986 985 983 982 980 979 978 976 975 974 973 972 971 970 968 967 966 966 965 964 963 960 960 959 958 957 956 954 954 953 952 950 949 948 946 945 944 943 941 940 939 938 936 934 932 932 932 932 934 934 934 931 930 924 923 0 0 0 2 0 0 0 0 0 906 907 907 909 912 913 919 919 919 919 915 913 913 913 913 913 911 909 907 905 905 905 904 899 893 889 889 889 890 890 890 890 886 884 879 878 878 878 878 877 877 0 0 0 0 0 0 0 854 857 857 860 863 877 877 877 873 872 869 868 868 868 865 864 863 862 859 858 857 856 856 856 856 856 856 856 855 853 853 853 853 852 852 852 850 849 849 848 846 846 845 844 838 837 836 830 830 0 0 0 0 0 0 0 0 0 0 0 0 0 0 0 0 0 0 0 0 0 0 0 0 0 0 0 0 0 0 0 0 0 0 0 0 0 0 0 0 0 4 803 803 804 807 808 810 827 864 918 987 1087 1258 1522 1639 1675 1702 1735 1752 1771 1778 1778 1778 1777 1777 1777 1777 1777 1777 1776 1775 1775 1774 1772 1772 1771 1769 1766 1763 1761 1757 1753 1750 1746 1742 1738 1734 1731 1727 1726 1724 1720 1714 1710 1707 1703 1700 1696 1693 1688 1684 1679 1675 1671 1666 1662 1657 1653 1648 1645 1640 1636 1631 1627 1622 1617 1614 1609 1606 1603 1602 1599 1595 1590 1584 1581 1577 1574 1573 1571 1569 1567 1565 1565 1562 1562 1558 1555 1553 1551 1550 1547 1546 1543 1537 1532 1526 1522 1518 1515 1513 1510 1505 1501 1497 1494 1491 1490 1488 1485 1482 1478 1475 1471 1464 1458 1453 1450 1450 1449 1447 1446 1444 1444
0 0 0 0 1094 1123 1172 1183 1196 1214 1253 1255 1255 1255 1262 1262 1262 1355 1356 1357 1358 1365 1368 1370 1371 1374 1389 1389 1389 1408 1428 1429 1429 1431 1431 1431 1432 1436 1442 1444 1453 1456 1458 1458 1458 1458 1458 1460 1460 1460 1460 1459 1456 1454 1452 1433 1401 1355 1286 1270 1252 1222 1160 1160 1160 1175 1175 1175 1166 1117 1069 1020 1020 1011 999 996 989 980 970 961 951 941 936 933 932 932 928 928 927 927 927 927 926 926 925 923 920 920 920 919 918 918 917 917 916 915 915 915 914 914 914 914 915 915 915 916 916 916 917 918 918 919 919 920 921 921 922 922 924 924 925 927 928 929 931 932 934 935 937 938 940 941 943 944 946 947 948 950 951 953 954 956 957 959 960 962 964 965 967 968 970 972 973 975 977 979 982 984 986 988 991 993 995 998 1001 1004 1007 1011 1014 1017 1019 1022 1024 1027 1030 1032 1035 1039 1043 1047 1051 1056 1060 1065 1070 1075 1080 1084 1087 1088 1089 1089 1089 1091 1092 1093 1095 1097 1099 1100 1101 1102 1102 1104 1105 1107 1108 1110 1111 1112 1114 1116 1121 1126 1130 1136 1139 1141 1154 1155 1160 1161 1187 1216 1244 1298 1375 1379 1379 1380 1380 1367 1361 1303 1262 1222 1193 1170 1150 1129 1125 1121 1119 1118 1117 1115 1114 1113 1113 1112 1110 1108 1107 1106 1104 1102 1101 1099 1096 1094 1092 1088 1084 1080 1076 1070 1066 1056 1045 1034 1028 1027 1024 1022 1020 1019 1018 1016 1013 1013 1013 1012 1009 1006 1003 1000 999 998 995 992 990 989 988 986 984 983 982 981 979 977 976 975 973 973 971 970 969 968 966 966 964 964 963 961 961 959 958 957 957 955 955 953 952 951 950 949 948 946 945 944 943 941 940 939 937 936 936 934 931 931 931 931 931 931 931 931 929 0 0 0 0 0 0 0 0 0 0 0 908 908 909 911 912 913 919 919 919 917 914 913 912 912 911 911 910 909 906 905 905 904 902 898 893 890 890 890 890 890 890 889 889 886 880 879 878 878 878 877 877 873 870 870 0 0 0 854 857 857 854 854 859 859 864 864 865 865 865 865 865 863 860 860 859 859 858 856 856 855 854 854 854 856 856 856 854 853 853 853 853 852 852 852 851 849 849 849 849 846 845 842 832 832 830 830 830 0 0 0 0 0 0 0 0 0 0 0 0 0 0 0 0 0 0 0 0 0 0 0 0 0 0 0 0 0 0 0 0 0 0 0 0 0 0 0 0 0 0 800 801 802 807 810 814 830 893 975 1067 1202 1362 1600 1673 1690 1729 1744 1752 1770 1771 1772 1775 1775 1776 1777 1778 1778 1778 1776 1775 1773 1772 1772 1770 1768 1767 1763 1762 1760 1756 1752 1749 1746 1742 1738 1734 1731 1727 1726 1724 1720 1715 1710 1707 1704 1700 1697 1693 1688 1684 1679 1675 1671 1666 1662 1657 1653 1650 1646 1641 1637 1631 1627 1623 1619 1614 1611 1607 1605 1603 1599 1595 1590 1584 1581 1578 1576 1573 1571 1569 1567 1566 1565 1562 1562 1558 1555 1553 1553 1551 1549 1546 1543 1537 1532 1526 1523 1518 1515 1512 1508 1504 1500 1497 1494 1491 1490 1490 1487 1485 1481 1475 1470 1463 1457 1452 1450 1450 1449 1447 1445 1443 1443
0 0 0 1002 1073 1094 1162 1183 1196 1214 1253 1255 1296 1300 1324 1335 1343 1356 1356 1357 1358 1365 1368 1370 1371 1374 1383 1384 1389 1389 1390 1405 1411 1423 1424 1425 1428 1432 1437 1444 1451 1453 1455 1456 1457 1458 1458 1459 1459 1459 1459 1458 1453 1453 1451 1425 1377 1310 1240 1210 1176 1156 1140 1140 1140 1162 1162 1162 1136 1110 1042 1006 992 984 980 977 968 966 957 951 944 939 934 932 929 928 926 924 924 924 924 923 923 921 920 920 919 918 918 917 916 915 915 915 914 914 914 914 913 913 913 913 914 914 914 915 915 916 916 917 917 918 919 919 920 921 922 922 923 924 925 927 928 929 931 932 934 935 937 938 940 941 943 944 946 947 948 950 951 953 954 955 957 958 960 962 963 965 967 968 970 972 973 975 977 979 982 984 986 988 991 993 995 998 1001 1004 1007 1011 1014 1017 1020 1022 1025 1027 1030 1032 1036 1040 1043 1047 1052 1056 1061 1065 1070 1075 1081 1084 1087 1089 1089 1090 1091 1092 1093 1094 1095 1097 1098 1100 1101 1102 1103 1104 1105 1107 1108 1110 1111 1112 1114 1117 1122 1128 1133 1141 1145 1150 1167 1179 1179 1193 1255 1324 1371 1375 1379 1379 1379 1379 1328 1264 1220 1195 1174 1156 1143 1129 1121 1118 1116 1112 1112 1112 1113 1113 1113 1112 1110 1108 1107 1107 1105 1104 1103 1101 1099 1097 1096 1093 1091 1087 1084 1077 1069 1067 1057 1044 1033 1027 1025 1023 1020 1017 1016 1016 1016 1016 1013 1013 1013 1013 1012 1006 1003 1000 999 998 995 992 990 988 987 986 984 982 979 978 977 976 974 973 972 971 970 969 967 966 965 964 963 962 961 960 959 958 957 956 956 954 953 952 950 949 948 947 945 945 943 942 941 940 939 938 937 935 934 933 931 931 930 928 926 925 925 925 925 0 0 0 0 0 0 0 0 0 0 0 906 906 907 907 909 912 912 912 913 913 912 911 911 910 910 909 909 908 906 904 902 901 898 898 892 890 888 888 888 888 889 889 889 888 881 879 878 878 877 876 876 876 870 870 863 863 862 860 857 855 854 854 855 856 857 860 862 863 865 865 865 863 860 860 859 859 858 856 856 855 854 854 854 854 854 854 854 853 853 853 853 852 852 852 851 849 849 849 849 846 844 835 829 828 828 824 0 0 0 0 0 0 0 0 0 0 0 0 0 0 0 0 0 0 0 0 0 0 0 0 0 0 0 0 0 0 0 0 0 0 0 0 0 0 0 0 0 0 0 799 801 802 807 815 827 854 928 1036 1161 1337 1571 1657 1689 1706 1731 1746 1752 1760 1762 1765 1769 1771 1774 1775 1778 1778 1778 1775 1775 1773 1772 1771 1769 1768 1766 1763 1761 1759 1756 1752 1749 1746 1742 1738 1733 1730 1727 1725 1723 1719 1714 1710 1706 1703 1700 1697 1693 1688 1684 1679 1675 1671 1666 1662 1657 1654 1650 1646 1642 1637 1632 1628 1625 1621 1619 1615 1611 1606 1603 1599 1595 1590 1585 1582 1579 1576 1573 1571 1569 1567 1566 1565 1562 1562 1558 1555 1553 1553 1551 1549 1546 1543 1537 1532 1526 1523 1518 1513 1509 1507 1504 1500 1497 1493 1490 1490 1490 1487 1485 1481 1475 1468 1460 1455 1452 1450 1450 1449 1447 1444 1443 1443
0 0 921 1002 1043 1073 1162 1183 1196 1214 1283 1285 1317 1324 1333 1354 1357 1358 1358 1358 1359 1365 1368 1369 1370 1372 1375 1375 1375 1361 1361 1361 1376 1384 1403 1418 1422 1431 1437 1444 1446 1447 1449 1449 1449 1452 1454 1454 1454 1450 1447 1446 1445 1442 1438 1415 1355 1309 1233 1199 1170 1149 1137 1128 1107 1097 1084 1061 1060 1057 998 985 984 981 980 970 966 959 954 948 941 937 932 930 927 924 923 922 922 922 921 921 919 916 916 916 916 916 915 915 913 913 913 913 912 912 912 912 913 913 913 913 913 913 913 913 914 915 915 916 916 917 918 919 919 920 921 922 923 924 925 927 928 929 931 932 934 935 937 938 940 941 943 944 946 947 948 949 951 952 954 955 957 958 960 961 963 965 966 968 970 971 973 975 977 979 981 983 986 988 990 993 995 998 1001 1004 1007 1011 1014 1017 1020 1022 1026 1028 1030 1033 1037 1041 1044 1048 1052 1056 1062 1066 1070 1075 1081 1084 1087 1089 1090 1090 1092 1092 1093 1094 1095 1097 1098 1099 1101 1102 1103 1104 1105 1107 1108 1109 1112 1114 1114 1117 1123 1131 1143 1160 1172 1188 1207 1224 1277 1357 1362 1371 1375 1375 1375 1371 1317 1250 1219 1191 1163 1145 1136 1130 1128 1125 1118 1118 1114 1108 1108 1108 1109 1109 1109 1107 1107 1107 1107 1106 1104 1103 1101 1099 1098 1097 1095 1093 1090 1087 1083 1073 1067 1060 1047 1033 1027 1026 1023 1021 1017 1014 1014 1013 1013 1013 1013 1013 1014 1014 1014 1014 1003 1000 1000 1000 995 992 990 986 985 984 983 982 979 978 976 974 973 972 971 969 968 967 966 965 964 963 961 960 959 959 957 956 955 955 954 952 951 949 949 947 946 945 944 943 941 941 939 939 937 936 935 933 933 932 931 929 928 927 925 922 922 921 921 0 0 0 0 0 0 0 0 0 0 906 906 908 908 907 908 908 907 907 907 906 906 906 909 909 909 909 909 907 905 903 900 899 897 895 892 890 888 888 887 887 887 888 888 888 885 881 881 881 878 878 877 872 870 870 863 863 862 862 861 856 854 854 854 856 857 860 862 863 865 865 865 863 860 860 859 859 858 856 856 855 855 854 854 854 854 854 854 854 854 853 853 853 852 852 851 849 849 849 849 846 840 833 828 826 822 0 0 0 0 0 0 0 0 0 0 0 0 0 0 0 0 0 0 0 0 0 0 0 0 0 0 0 0 0 0 0 0 0 0 0 0 0 0 0 0 0 791 792 793 799 800 802 804 822 852 915 1000 1117 1281 1513 1637 1660 1689 1718 1731 1746 1751 1753 1756 1758 1762 1764 1769 1775 1778 1778 1778 1775 1773 1773 1772 1771 1769 1767 1765 1763 1760 1757 1756 1751 1748 1746 1742 1737 1733 1730 1727 1724 1722 1718 1714 1709 1706 1703 1700 1697 1693 1688 1683 1679 1674 1670 1665 1662 1657 1654 1651 1647 1642 1638 1633 1631 1627 1624 1621 1618 1612 1608 1605 1601 1595 1591 1586 1583 1579 1576 1573 1571 1569 1567 1566 1564 1562 1560 1557 1555 1553 1553 1551 1549 1546 1539 1537 1532 1526 1523 1517 1513 1508 1506 1503 1500 1497 1493 1490 1490 1490 1487 1485 1481 1474 1466 1460 1455 1451 1450 1450 1448 1447 1444 1441 1441
915 915 953 1002 1043 1073 1162 1268 1270 1300 1322 1324 1324 1325 1336 1357 1358 1359 1359 1359 1359 1364 1367 1369 1370 1372 1374 1374 1374 1355 1336 1314 1314 1314 1358 1386 1388 1417 1434 1435 1437 1439 1441 1444 1444 1446 1446 1446 1444 1435 1428 1427 1425 1420 1413 1393 1350 1290 1224 1166 1146 1112 1098 1097 1095 1061 1034 1015 1014 1010 998 985 980 973 973 968 961 955 952 945 938 934 929 926 923 921 920 920 920 919 918 916 916 916 915 915 914 914 913 913 912 912 912 911 911 911 911 911 911 911 911 912 912 912 912 912 913 914 914 915 916 917 917 918 919 920 921 922 923 924 925 927 928 929 931 932 934 936 937 938 940 941 943 944 946 946 948 949 950 952 953 955 956 958 960 961 963 964 966 968 969 971 973 975 976 979 981 983 986 988 990 993 995 998 1001 1004 1007 1011 1014 1017 1020 1023 1026 1028 1031 1034 1037 1041 1045 1048 1053 1057 1062 1067 1072 1075 1082 1085 1087 1089 1089 1090 1092 1092 1093 1094 1095 1097 1098 1099 1100 1101 1103 1104 1105 1106 1107 1109 1112 1114 1115 1117 1125 1138 1156 1186 1221 1265 1307 1370 1370 1370 1406 1371 1371 1357 1299 1251 1202 1167 1155 1150 1140 1127 1121 1121 1121 1119 1118 1115 1111 1107 1106 1106 1106 1106 1106 1107 1107 1106 1106 1106 1104 1101 1100 1099 1097 1096 1094 1093 1090 1087 1081 1072 1065 1053 1039 1030 1027 1025 1022 1019 1016 1013 1013 1013 1013 1013 1013 1014 1019 1020 1020 1020 1014 1009 1003 1001 997 992 989 986 984 983 982 982 979 977 975 974 972 971 969 968 967 965 964 963 962 961 960 958 958 956 956 954 954 953 952 951 950 948 947 946 945 944 942 942 940 939 938 936 936 934 933 933 931 930 930 929 928 927 925 922 921 920 919 0 0 0 0 0 0 0 0 0 905 906 909 909 909 908 902 902 902 902 902 900 900 900 904 906 908 908 908 907 904 901 898 896 896 894 892 890 888 887 885 885 885 885 888 888 888 888 886 882 878 872 872 872 869 869 867 864 864 862 857 857 857 856 857 857 857 860 862 864 867 867 867 863 860 860 860 860 858 857 855 855 855 854 854 854 854 855 855 855 855 855 855 853 852 852 852 849 849 849 847 846 840 833 828 821 0 0 0 0 0 0 0 0 0 0 0 0 0 0 0 0 0 0 0 0 0 0 0 0 0 0 0 0 0 0 0 0 0 0 0 0 0 0 0 0 0 793 793 794 794 799 800 802 804 828 869 959 1069 1209 1390 1606 1637 1661 1690 1719 1733 1744 1750 1752 1753 1753 1755 1761 1765 1774 1776 1776 1776 1775 1773 1773 1772 1770 1768 1766 1764 1761 1756 1754 1751 1750 1748 1744 1741 1737 1733 1730 1727 1724 1721 1718 1714 1709 1706 1702 1700 1697 1692 1688 1683 1679 1674 1670 1665 1661 1657 1654 1651 1647 1642 1638 1634 1631 1627 1624 1621 1618 1614 1611 1607 1604 1597 1591 1587 1583 1580 1576 1573 1571 1569 1567 1566 1564 1561 1559 1555 1553 1552 1550 1549 1546 1543 1538 1535 1532 1526 1523 1517 1513 1508 1504 1502 1499 1496 1493 1490 1488 1487 1487 1485 1480 1473 1466 1459 1455 1451 1450 1450 1448 1447 1444 1441 1441
939 939 970 1002 1043 1076 1262 1355 1355 1355 1351 1349 1349 1350 1351 1372 1372 1372 1366 1364 1361 1361 1364 1369 1370 1370 1372 1372 1367 1355 1336 1314 1314 1314 1358 1361 1374 1376 1378 1409 1427 1427 1429 1429 1432 1437 1437 1437 1427 1414 1400 1400 1392 1384 1373 1344 1308 1268 1196 1118 1111 1096 1094 1092 1084 1057 1030 993 981 980 976 972 968 966 965 961 954 950 942 937 931 928 927 925 922 919 916 916 916 915 915 915 914 914 914 913 912 911 911 911 911 910 910 910 910 910 910 911 911 911 911 910 910 910 911 912 912 913 914 914 915 917 917 918 919 920 920 922 923 924 925 927 928 929 931 932 934 936 937 939 940 941 942 944 945 946 948 949 950 952 953 955 957 958 960 961 963 964 966 968 969 971 973 975 976 979 981 983 986 988 991 993 995 999 1001 1004 1008 1011 1015 1017 1021 1023 1026 1028 1032 1034 1039 1042 1046 1050 1054 1060 1065 1069 1073 1077 1082 1084 1087 1089 1089 1090 1092 1092 1093 1094 1095 1096 1097 1098 1100 1101 1103 1104 1105 1106 1106 1109 1112 1114 1116 1119 1127 1140 1158 1207 1294 1370 1420 1420 1409 1370 1370 1357 1288 1222 1186 1159 1142 1133 1128 1128 1125 1120 1118 1114 1112 1112 1111 1111 1110 1107 1106 1106 1105 1105 1106 1106 1105 1105 1105 1104 1103 1101 1099 1097 1097 1095 1093 1092 1090 1087 1080 1071 1061 1043 1035 1029 1026 1023 1020 1018 1016 1013 1013 1013 1012 1012 1013 1020 1027 1028 1028 1028 1021 1014 1012 1006 998 993 989 986 984 981 981 980 979 976 975 973 971 970 967 967 965 964 963 961 961 959 958 957 956 955 954 953 952 951 951 949 948 946 945 945 944 942 940 940 938 938 936 936 934 933 931 931 930 930 928 928 928 927 924 922 921 918 918 916 913 910 0 0 0 0 0 903 905 906 910 910 910 908 902 902 902 902 902 900 900 900 904 906 906 906 906 904 899 896 895 895 894 894 891 889 888 887 885 885 885 885 888 888 888 888 887 883 878 872 872 872 869 869 867 864 861 860 857 857 857 858 859 861 862 864 865 866 867 867 867 865 864 864 864 862 861 857 856 855 855 854 854 854 854 855 855 856 857 856 855 855 853 853 852 849 847 847 844 840 837 831 828 0 0 0 0 0 0 0 0 0 0 0 0 0 0 0 0 0 0 0 0 0 0 0 0 0 0 0 0 0 0 0 0 0 0 0 0 0 0 0 0 0 790 793 794 798 798 800 801 802 807 840 911 1022 1164 1350 1534 1622 1639 1661 1706 1722 1733 1744 1748 1752 1752 1752 1753 1757 1762 1772 1773 1773 1773 1773 1773 1772 1772 1769 1768 1765 1762 1758 1754 1751 1749 1748 1747 1744 1739 1736 1733 1729 1726 1723 1720 1717 1712 1708 1704 1702 1699 1695 1691 1687 1683 1679 1674 1670 1665 1661 1657 1654 1651 1647 1642 1638 1634 1632 1628 1624 1621 1618 1614 1611 1607 1604 1598 1592 1588 1584 1581 1576 1573 1571 1569 1567 1565 1563 1559 1557 1554 1552 1551 1549 1547 1546 1541 1536 1533 1530 1526 1523 1517 1511 1507 1503 1500 1497 1495 1492 1489 1486 1484 1483 1482 1478 1471 1464 1459 1455 1451 1450 1450 1448 1447 1444 1441 1441
952 952 970 1002 1057 1220 1316 1355 1360 1362 1362 1362 1362 1362 1363 1372 1372 1372 1366 1364 1364 1364 1358 1358 1358 1360 1361 1361 1361 1355 1336 1314 1314 1314 1332 1332 1332 1332 1332 1358 1396 1397 1398 1400 1400 1417 1417 1417 1409 1392 1376 1352 1351 1342 1320 1288 1259 1226 1153 1102 1079 1079 1076 1075 1067 1046 1023 989 972 972 965 957 956 953 952 952 948 943 936 929 927 927 926 923 921 918 914 914 914 914 914 912 912 912 912 911 910 910 910 909 909 909 908 908 908 908 909 909 910 910 910 910 910 910 910 911 911 912 913 914 915 916 917 917 918 919 920 921 923 924 925 927 928 929 931 932 934 936 937 939 940 941 942 944 945 946 948 949 950 952 953 955 957 958 960 962 963 965 966 968 969 971 973 975 976 979 982 984 987 989 991 993 996 999 1001 1004 1008 1011 1015 1017 1021 1024 1027 1029 1032 1036 1040 1044 1048 1051 1057 1061 1066 1071 1074 1077 1082 1084 1087 1089 1089 1089 1090 1092 1093 1094 1094 1096 1097 1098 1099 1100 1102 1102 1104 1105 1106 1109 1112 1114 1116 1119 1130 1144 1164 1235 1357 1370 1420 1420 1370 1370 1292 1239 1194 1159 1142 1130 1122 1120 1118 1118 1118 1114 1113 1109 1109 1109 1108 1108 1108 1107 1105 1105 1105 1105 1105 1105 1105 1104 1104 1103 1102 1101 1099 1097 1096 1094 1093 1092 1090 1087 1076 1070 1052 1040 1034 1029 1025 1020 1018 1018 1016 1013 1012 1012 1012 1012 1013 1024 1032 1044 1044 1044 1042 1024 1014 1008 1005 994 991 987 984 981 979 979 978 976 974 971 969 968 966 965 964 963 962 961 960 958 957 955 955 954 952 952 951 949 949 947 947 945 944 943 942 941 940 939 937 936 935 934 933 932 931 930 930 928 928 926 926 925 924 921 919 918 918 916 913 910 905 0 0 0 903 905 906 907 911 911 911 911 902 902 902 902 902 900 900 900 904 904 904 904 902 901 895 894 894 894 894 892 890 889 888 887 885 885 885 885 885 887 887 887 887 883 879 872 872 872 867 867 867 862 857 857 855 855 857 862 864 864 864 864 865 868 868 868 867 865 864 864 864 863 861 857 856 855 855 853 853 853 855 856 856 856 857 857 857 857 854 854 854 850 846 845 841 835 831 830 828 0 0 0 0 0 0 0 0 0 0 0 0 0 0 0 0 0 0 0 0 0 0 0 0 0 0 0 0 0 0 0 0 0 0 0 0 0 0 0 0 791 793 795 796 798 802 806 809 812 839 895 969 1103 1268 1476 1603 1630 1641 1698 1723 1727 1733 1741 1746 1750 1750 1752 1752 1755 1761 1767 1770 1771 1771 1771 1771 1771 1769 1769 1767 1764 1761 1757 1753 1750 1748 1747 1744 1742 1739 1735 1731 1728 1725 1721 1718 1713 1710 1706 1703 1701 1698 1695 1691 1687 1683 1679 1675 1670 1665 1661 1657 1654 1651 1647 1642 1638 1635 1632 1628 1625 1621 1618 1614 1611 1608 1604 1598 1593 1589 1585 1581 1577 1575 1572 1569 1567 1565 1562 1559 1555 1552 1550 1549 1546 1546 1543 1539 1535 1532 1529 1525 1521 1516 1511 1507 1503 1500 1496 1494 1491 1488 1486 1482 1480 1478 1475 1468 1462 1459 1453 1450 1448 1447 1446 1445 1443 1441 1441
1092 1092 1092 1094 1204 1277 1316 1355 1360 1362 1362 1362 1362 1362 1363 1372 1372 1372 1367 1366 1364 1364 1358 1355 1355 1353 1353 1353 1355 1355 1355 1356 1356 1356 1352 1349 1329 1305 1299 1288 1288 1288 1303 1331 1356 1368 1380 1380 1380 1363 1342 1301 1300 1286 1262 1241 1211 1172 1111 1076 1060 1060 1060 1058 1030 998 996 984 969 963 949 942 942 942 943 943 943 938 930 926 925 924 924 922 918 915 913 913 912 912 911 910 910 909 909 909 909 908 908 908 908 908 907 907 907 907 908 908 908 908 909 909 909 910 910 910 911 912 912 913 915 915 917 917 918 919 921 921 923 924 925 927 928 930 931 932 934 936 937 939 940 941 943 944 945 946 948 949 950 952 954 955 957 959 960 962 963 965 967 968 969 972 973 975 977 980 983 985 987 989 992 994 996 999 1003 1006 1009 1012 1015 1019 1022 1025 1028 1031 1035 1037 1041 1045 1049 1053 1058 1062 1068 1071 1074 1077 1082 1084 1086 1086 1087 1088 1090 1090 1092 1093 1093 1094 1096 1096 1097 1099 1100 1101 1103 1104 1105 1106 1108 1114 1116 1119 1130 1144 1164 1235 1357 1357 1357 1350 1296 1222 1183 1158 1145 1136 1129 1120 1113 1110 1110 1110 1109 1109 1108 1108 1108 1108 1108 1107 1107 1105 1105 1105 1105 1105 1105 1105 1104 1104 1103 1102 1102 1100 1099 1097 1096 1094 1093 1091 1090 1081 1073 1065 1048 1039 1033 1028 1023 1018 1017 1017 1017 1013 1012 1011 1011 1011 1014 1025 1038 1064 1079 1079 1079 1057 1029 1018 1013 1009 996 992 987 981 979 979 976 974 973 971 968 967 966 964 963 962 961 960 958 957 955 954 953 952 951 951 949 949 947 947 945 943 943 942 941 940 938 937 936 935 934 933 931 931 930 929 928 928 926 925 924 924 924 921 919 917 917 916 913 910 905 901 901 901 905 906 906 907 914 914 914 912 906 906 905 905 904 901 901 901 903 903 903 901 896 894 894 893 892 892 892 890 889 889 887 886 885 885 885 885 885 885 886 887 887 887 884 875 868 868 867 867 867 0 0 0 0 0 852 862 864 864 864 864 865 868 868 868 867 865 864 864 864 863 861 858 856 855 854 853 853 853 855 857 857 857 857 859 859 859 858 855 854 850 846 840 840 830 830 828 827 0 0 0 0 0 0 0 0 0 0 0 0 0 0 0 0 0 0 0 0 0 0 0 0 0 0 0 0 0 0 0 0 0 0 0 0 0 0 0 0 796 796 797 797 800 816 818 824 836 890 951 1033 1175 1366 1583 1603 1631 1671 1709 1723 1727 1733 1740 1744 1747 1748 1749 1749 1754 1759 1764 1765 1766 1767 1767 1767 1767 1766 1766 1766 1763 1760 1755 1750 1746 1744 1741 1741 1740 1737 1735 1731 1727 1724 1720 1715 1712 1709 1706 1703 1701 1698 1695 1691 1687 1683 1680 1676 1671 1667 1662 1658 1654 1652 1647 1642 1638 1635 1632 1628 1625 1621 1617 1614 1611 1608 1604 1599 1594 1590 1587 1583 1580 1577 1573 1569 1567 1565 1561 1557 1553 1549 1547 1546 1545 1543 1541 1538 1534 1532 1528 1525 1520 1515 1511 1505 1503 1499 1496 1493 1490 1487 1484 1480 1478 1474 1471 1467 1461 1456 1452 1448 1446 1444 1443 1442 1441 1441 1441
1092 1092 1155 1184 1213 1284 1316 1342 1359 1360 1360 1360 1362 1362 1363 1363 1363 1364 1364 1364 1364 1364 1362 1355 1350 1348 1346 1346 1346 1355 1355 1356 1356 1356 1352 1323 1298 1278 1276 1272 1272 1268 1250 1221 1221 1221 1237 1265 1274 1274 1274 1234 1233 1224 1211 1189 1153 1125 1083 1052 1020 1015 1015 1012 1002 976 970 968 961 947 945 936 936 936 938 938 938 933 923 923 922 922 920 917 915 913 912 911 910 909 909 908 908 908 907 907 907 906 906 906 906 906 906 906 906 907 907 907 907 908 908 908 909 909 910 910 911 912 912 913 915 915 917 917 918 919 920 921 922 924 925 927 928 930 931 932 934 936 937 939 940 941 943 944 945 946 948 949 951 952 954 955 957 959 960 962 964 965 967 968 970 972 974 976 978 981 984 986 989 992 994 995 998 1001 1005 1007 1010 1013 1018 1021 1024 1027 1030 1033 1036 1040 1043 1047 1051 1055 1059 1064 1068 1071 1074 1077 1081 1082 1084 1084 1085 1087 1089 1090 1091 1091 1092 1093 1094 1095 1097 1098 1099 1100 1102 1103 1105 1106 1107 1111 1113 1118 1130 1144 1156 1235 1314 1314 1314 1226 1174 1146 1133 1125 1123 1118 1112 1111 1108 1105 1105 1104 1104 1104 1104 1105 1106 1106 1106 1106 1106 1104 1104 1104 1104 1104 1104 1104 1103 1103 1102 1102 1101 1100 1099 1097 1096 1094 1093 1091 1086 1077 1070 1059 1047 1038 1030 1023 1019 1018 1017 1017 1017 1014 1012 1011 1011 1011 1018 1028 1045 1084 1134 1134 1134 1113 1079 1033 1024 1017 1016 1000 991 983 979 979 976 974 972 971 968 967 965 963 962 960 959 958 957 955 954 953 952 951 950 949 948 948 946 945 944 942 941 941 939 938 937 936 934 934 932 931 930 929 929 928 927 926 925 925 923 922 922 919 917 916 915 913 911 910 905 903 903 903 904 906 907 907 916 916 916 914 909 908 908 908 906 905 903 903 903 903 903 901 896 894 894 893 892 892 891 889 888 887 887 886 885 885 885 885 884 882 882 882 884 884 884 880 868 860 858 857 0 0 0 0 0 0 0 859 864 864 864 864 864 867 867 867 866 862 862 862 862 862 862 861 858 856 854 854 854 854 856 858 859 859 859 867 867 867 861 857 854 850 841 840 834 825 824 822 0 0 0 0 0 0 0 0 0 0 0 0 0 0 0 0 0 0 0 0 0 0 0 0 0 0 0 0 0 0 0 0 0 0 0 0 0 0 0 0 0 795 796 797 799 807 817 824 831 847 902 998 1118 1273 1530 1583 1617 1644 1702 1709 1723 1727 1733 1735 1739 1742 1743 1743 1746 1751 1756 1759 1760 1760 1760 1760 1762 1762 1762 1762 1761 1760 1757 1753 1748 1744 1741 1739 1737 1736 1735 1732 1729 1724 1721 1717 1714 1711 1708 1706 1703 1701 1698 1694 1690 1687 1683 1680 1676 1671 1667 1663 1659 1655 1652 1647 1642 1639 1635 1632 1628 1625 1621 1617 1614 1611 1608 1604 1600 1596 1591 1587 1584 1580 1577 1573 1569 1566 1563 1559 1556 1552 1549 1545 1544 1542 1541 1539 1537 1534 1532 1528 1525 1520 1514 1508 1504 1502 1499 1495 1492 1489 1486 1482 1479 1474 1472 1469 1464 1458 1454 1451 1448 1446 1444 1443 1442 1441 1441 1441
1165 1165 1188 1189 1234 1284 1303 1319 1322 1342 1353 1356 1356 1354 1354 1354 1353 1354 1354 1360 1362 1362 1362 1354 1345 1345 1339 1339 1339 1353 1353 1356 1356 1356 1352 1323 1282 1275 1275 1262 1261 1249 1228 1189 1158 1158 1158 1178 1205 1205 1205 1175 1162 1161 1147 1125 1109 1087 1034 995 972 972 972 970 970 961 957 952 944 936 935 932 932 932 932 932 932 923 921 921 919 917 915 914 912 912 910 908 908 906 906 906 906 906 906 905 905 905 905 905 905 905 905 905 906 906 906 906 907 907 907 907 908 908 909 910 911 911 912 913 914 915 917 917 918 920 921 921 923 924 925 927 928 929 931 932 934 935 937 939 940 942 943 944 945 947 948 949 951 952 954 956 957 959 961 963 964 965 967 969 971 973 975 977 980 982 985 988 990 992 995 996 999 1002 1006 1008 1012 1016 1020 1023 1026 1029 1032 1035 1039 1042 1046 1049 1053 1058 1061 1065 1068 1072 1074 1077 1080 1082 1083 1084 1085 1086 1087 1088 1089 1089 1090 1091 1092 1094 1094 1096 1097 1098 1100 1102 1103 1105 1106 1108 1111 1116 1129 1142 1155 1192 1196 1196 1196 1156 1136 1124 1117 1114 1111 1108 1107 1107 1107 1105 1104 1104 1104 1103 1103 1103 1103 1103 1103 1103 1103 1103 1103 1103 1103 1103 1103 1103 1103 1102 1102 1102 1101 1100 1098 1097 1096 1094 1092 1090 1083 1074 1067 1057 1046 1037 1030 1023 1019 1018 1017 1017 1017 1014 1012 1012 1012 1015 1026 1032 1058 1121 1206 1216 1216 1216 1164 1119 1047 1024 1020 1011 1000 988 982 979 976 974 971 970 968 966 964 962 961 959 958 957 956 954 953 952 951 949 949 948 947 946 945 943 942 942 940 939 937 936 935 934 933 932 931 930 929 928 927 926 925 925 923 922 922 920 920 918 915 914 913 911 909 907 905 904 904 904 904 905 906 907 916 916 916 912 911 910 910 909 909 907 901 901 901 901 901 901 896 894 894 893 893 893 890 887 886 886 886 885 885 885 885 885 883 880 880 880 883 883 883 880 868 858 858 0 0 0 0 0 0 0 0 0 0 0 849 853 855 857 858 862 862 862 860 860 860 863 863 863 858 856 854 854 854 855 858 860 861 862 865 871 871 871 865 857 854 847 840 839 834 825 820 0 0 0 0 0 0 0 0 0 0 0 0 0 0 0 0 0 0 0 0 0 0 0 0 0 0 0 0 0 0 0 0 0 0 0 0 0 0 0 0 786 787 794 796 798 805 815 817 825 840 878 962 1101 1237 1432 1531 1624 1629 1680 1702 1709 1714 1725 1728 1730 1731 1733 1736 1737 1741 1747 1752 1755 1755 1755 1755 1755 1755 1756 1756 1756 1756 1755 1753 1750 1747 1743 1741 1738 1736 1735 1733 1731 1728 1724 1719 1717 1713 1709 1708 1706 1703 1701 1697 1693 1689 1686 1683 1680 1676 1672 1668 1664 1661 1658 1653 1647 1642 1639 1636 1633 1630 1625 1621 1617 1614 1611 1608 1605 1600 1596 1592 1588 1584 1581 1577 1573 1569 1565 1561 1557 1554 1551 1548 1545 1543 1541 1540 1539 1537 1534 1532 1528 1524 1519 1511 1506 1503 1501 1498 1493 1490 1487 1484 1480 1477 1473 1469 1466 1461 1457 1452 1450 1448 1446 1444 1443 1441 1440 1440 1440
0 0 1188 1189 1258 1284 1292 1302 1313 1342 1349 1349 1349 1347 1347 1347 1347 1349 1353 1357 1362 1362 1362 1354 1345 1343 1338 1338 1338 1347 1347 1347 1338 1331 1317 1292 1282 1275 1274 1260 1255 1245 1224 1173 1141 1141 1141 1158 1158 1158 1148 1128 1115 1114 1097 1044 1016 1010 996 971 959 959 954 954 954 951 948 941 935 930 929 928 928 928 927 927 922 919 918 916 913 911 911 910 909 908 907 905 905 905 904 904 904 904 904 904 904 903 903 903 904 904 904 904 904 904 905 906 906 907 907 907 908 908 909 910 911 911 912 913 914 915 917 917 919 920 921 922 923 924 925 927 928 930 931 932 934 936 937 939 941 942 943 945 946 947 949 950 952 952 954 956 958 959 961 963 964 966 968 969 972 974 976 979 981 983 986 989 991 994 997 999 1002 1005 1007 1010 1014 1019 1022 1025 1028 1031 1034 1037 1041 1045 1048 1052 1055 1058 1062 1065 1068 1072 1074 1077 1079 1082 1083 1083 1084 1085 1086 1086 1087 1088 1088 1090 1090 1092 1093 1094 1096 1097 1099 1101 1101 1103 1105 1107 1109 1113 1124 1133 1147 1147 1147 1142 1139 1127 1120 1115 1112 1110 1108 1108 1107 1106 1106 1104 1103 1103 1102 1102 1101 1101 1101 1101 1102 1102 1102 1102 1102 1102 1102 1102 1102 1102 1102 1102 1102 1101 1101 1100 1098 1097 1095 1094 1092 1090 1082 1072 1063 1054 1046 1036 1030 1023 1019 1018 1018 1017 1017 1015 1012 1012 1012 1017 1029 1046 1089 1183 1323 1323 1323 1320 1268 1210 1125 1052 1027 1016 1006 1000 989 985 980 974 971 970 968 965 964 962 959 958 957 957 955 953 952 951 950 949 947 947 945 944 943 941 941 940 939 938 937 935 933 933 932 930 929 928 927 927 926 925 924 923 921 921 920 919 918 917 915 914 912 909 908 907 904 904 904 904 904 905 905 907 916 916 916 912 911 910 910 909 909 907 901 901 901 902 902 902 896 894 894 894 894 893 889 886 885 883 882 882 882 883 883 883 882 879 877 875 874 875 872 871 865 858 854 0 0 0 0 0 0 0 0 0 0 0 0 851 853 853 857 857 859 859 859 859 859 863 863 863 858 856 855 855 855 858 860 860 863 865 867 871 871 871 867 857 849 840 840 839 834 825 0 0 0 0 0 0 0 0 0 0 0 0 0 0 0 0 0 0 0 0 0 0 0 0 0 0 0 0 0 0 0 0 0 0 0 0 0 0 0 0 0 786 787 791 794 799 806 821 824 839 871 920 1030 1216 1237 1433 1614 1630 1661 1680 1702 1707 1712 1718 1721 1723 1723 1725 1727 1730 1735 1740 1746 1749 1750 1750 1750 1750 1750 1750 1751 1751 1751 1750 1749 1746 1745 1743 1740 1736 1734 1733 1731 1730 1727 1723 1718 1715 1711 1709 1705 1702 1699 1696 1694 1691 1688 1686 1683 1680 1676 1672 1668 1664 1663 1660 1653 1647 1642 1639 1636 1633 1630 1625 1621 1617 1614 1611 1608 1605 1600 1596 1592 1589 1585 1581 1577 1573 1569 1565 1561 1557 1554 1551 1548 1544 1541 1540 1539 1538 1536 1534 1532 1528 1523 1517 1511 1505 1502 1499 1497 1493 1490 1485 1482 1478 1475 1472 1468 1464 1459 1455 1452 1450 1448 1446 1444 1443 1441 1440 1440 1440
0 4 1202 1241 1246 1246 1258 1278 1278 1327 1337 1337 1337 1335 1335 1335 1343 1343 1344 1347 1347 1354 1354 1347 1344 1337 1335 1335 1335 1335 1335 1321 1306 1293 1271 1244 1235 1235 1234 1234 1234 1234 1224 1172 1120 1107 1097 1084 1063 1051 1050 1043 1031 1030 990 962 962 962 956 956 950 949 946 944 943 943 937 928 928 928 928 927 926 925 924 919 916 915 912 909 908 908 907 907 906 904 904 903 903 903 902 902 903 902 902 902 902 902 902 902 902 903 903 903 903 903 904 904 905 905 906 906 907 907 908 909 910 911 912 913 914 915 917 917 919 920 921 922 923 924 926 927 928 930 931 933 934 936 938 939 941 942 944 945 947 948 949 951 952 953 954 956 958 960 962 963 965 966 968 970 972 975 977 979 982 984 987 990 993 996 999 1002 1004 1007 1009 1012 1016 1019 1022 1026 1029 1033 1035 1039 1043 1047 1050 1053 1056 1059 1063 1066 1069 1071 1074 1076 1079 1080 1081 1082 1083 1083 1084 1085 1085 1086 1087 1088 1089 1091 1092 1093 1094 1096 1098 1099 1101 1101 1104 1105 1106 1110 1117 1124 1127 1127 1127 1121 1118 1115 1113 1111 1108 1107 1106 1106 1104 1102 1102 1102 1101 1100 1100 1100 1100 1100 1100 1100 1100 1101 1101 1101 1101 1101 1101 1101 1101 1102 1102 1102 1102 1101 1100 1099 1098 1097 1095 1094 1093 1088 1077 1071 1059 1049 1044 1036 1030 1024 1021 1019 1018 1018 1017 1016 1015 1015 1015 1019 1037 1077 1134 1293 1497 1497 1497 1401 1356 1317 1238 1157 1090 1056 1014 1002 1002 994 985 976 971 971 967 964 961 959 958 957 956 955 954 953 952 950 949 948 946 946 944 943 942 941 939 938 937 936 935 934 932 931 930 929 928 928 926 926 924 923 922 921 920 919 918 917 917 915 914 913 912 909 907 905 903 903 903 904 904 905 905 907 913 913 913 912 911 910 910 909 909 907 901 901 901 902 902 902 900 894 894 894 894 892 888 885 883 882 880 879 879 878 878 878 876 875 875 874 871 871 867 863 858 855 853 0 0 0 0 0 0 0 0 0 0 0 0 0 0 0 838 839 840 844 857 858 858 863 863 863 858 855 855 855 855 860 860 861 864 866 867 871 871 871 867 849 839 837 836 836 823 0 0 0 0 0 0 0 0 0 0 0 0 0 0 0 0 0 0 0 0 0 0 0 0 0 0 0 0 0 0 0 0 0 0 0 0 0 0 0 0 0 0 787 789 790 793 804 808 827 837 870 922 1001 1120 1217 1402 1588 1621 1644 1683 1687 1688 1702 1706 1710 1714 1714 1716 1718 1722 1724 1728 1732 1738 1739 1740 1742 1743 1743 1743 1745 1745 1747 1747 1747 1746 1744 1741 1739 1739 1736 1731 1731 1729 1727 1725 1720 1716 1710 1708 1706 1703 1701 1698 1696 1693 1690 1687 1686 1682 1679 1674 1671 1667 1664 1663 1660 1653 1647 1642 1639 1636 1633 1630 1625 1621 1616 1614 1611 1608 1605 1600 1596 1593 1589 1585 1581 1577 1573 1569 1565 1561 1557 1554 1551 1547 1543 1540 1539 1538 1538 1536 1534 1531 1528 1523 1516 1510 1505 1501 1499 1496 1493 1489 1484 1481 1475 1472 1468 1465 1462 1458 1454 1451 1450 1448 1446 1444 1443 1441 1440 1439 1439
0 0 1188 1217 1239 1239 1242 1242 1242 1297 1322 1322 1322 1318 1318 1318 1325 1325 1325 1325 1325 1329 1340 1340 1340 1331 1331 1331 1331 1330 1330 1263 1237 1219 1198 1198 1198 1199 1203 1203 1203 1203 1193 1161 1112 1087 1057 1016 1000 1000 993 987 977 952 952 931 931 931 932 936 936 936 934 929 928 928 927 927 925 923 923 922 918 916 916 916 913 910 906 905 905 904 903 903 903 902 902 901 901 901 900 900 901 901 901 901 901 901 901 902 902 902 902 902 902 902 903 903 904 905 905 906 906 907 908 909 910 911 912 913 914 915 917 918 919 920 921 922 923 924 925 927 928 930 931 933 935 936 938 940 942 943 945 945 948 949 950 951 952 954 954 957 959 960 962 964 966 968 969 971 974 976 979 981 984 986 989 992 995 998 1001 1004 1007 1008 1012 1014 1018 1021 1024 1027 1030 1034 1037 1041 1044 1048 1051 1054 1057 1060 1063 1066 1069 1071 1074 1075 1078 1079 1079 1080 1081 1082 1082 1083 1084 1084 1086 1086 1088 1089 1090 1092 1093 1094 1096 1098 1099 1100 1102 1102 1103 1107 1111 1117 1118 1118 1118 1115 1112 1112 1109 1106 1104 1103 1103 1103 1100 1100 1099 1099 1099 1099 1099 1099 1099 1099 1099 1099 1100 1100 1100 1100 1100 1101 1101 1101 1101 1101 1101 1101 1101 1101 1100 1099 1097 1096 1095 1095 1093 1085 1075 1070 1058 1048 1044 1036 1031 1025 1023 1022 1021 1019 1018 1016 1016 1016 1016 1024 1037 1089 1187 1393 1533 1533 1533 1512 1447 1398 1326 1270 1191 1124 1068 1014 1004 1002 994 976 972 971 967 964 959 958 958 957 955 954 953 952 951 949 947 947 945 944 943 942 940 939 938 937 936 934 933 932 931 929 928 927 926 926 925 924 922 922 922 920 918 917 917 916 915 913 912 911 909 908 906 904 902 902 902 904 904 905 905 906 908 910 910 910 908 908 908 908 907 903 900 900 900 902 902 902 900 896 894 894 894 892 887 885 883 882 878 875 875 875 872 871 871 871 871 868 868 868 864 860 855 855 0 0 0 0 0 0 0 0 0 0 0 0 0 0 0 0 835 835 835 835 841 846 846 862 862 862 851 850 850 850 855 862 864 864 865 865 866 866 867 866 866 849 836 835 832 832 0 0 0 0 0 0 0 0 0 0 0 0 0 0 0 0 0 0 0 0 0 0 0 0 0 0 0 0 0 0 0 0 0 0 0 0 0 0 0 0 0 0 0 787 788 789 793 804 824 835 858 898 962 1064 1120 1319 1543 1620 1630 1673 1684 1688 1688 1697 1699 1703 1706 1708 1711 1714 1717 1719 1720 1724 1728 1729 1730 1734 1734 1737 1738 1739 1741 1741 1743 1743 1743 1740 1736 1735 1734 1732 1730 1727 1724 1722 1721 1716 1712 1709 1706 1703 1702 1699 1698 1695 1692 1689 1687 1684 1681 1678 1674 1670 1667 1664 1663 1660 1653 1646 1641 1637 1636 1632 1629 1625 1620 1616 1613 1610 1608 1605 1600 1596 1593 1589 1586 1581 1577 1574 1569 1565 1561 1557 1554 1551 1547 1543 1540 1538 1538 1536 1536 1534 1531 1526 1520 1513 1509 1505 1500 1497 1495 1492 1489 1484 1481 1475 1470 1466 1463 1459 1455 1454 1451 1448 1446 1445 1443 1442 1441 1440 1439 1439
0 0 1177 1189 1229 1229 1229 1229 1229 1246 1295 1295 1295 1295 1298 1305 1305 1305 1302 1302 1302 1304 1321 1321 1321 1314 1313 1301 1297 1295 1285 1259 1232 1157 1157 1157 1160 1165 1165 1166 1166 1164 1160 1132 1085 1019 981 968 968 962 954 948 940 932 931 930 928 927 927 927 927 927 926 920 920 920 923 923 923 917 913 909 909 909 910 910 910 907 903 901 900 899 899 899 899 899 899 899 899 899 899 899 899 899 899 899 899 900 900 900 900 901 901 901 901 901 902 903 903 904 904 905 906 907 908 909 910 911 912 913 915 915 917 918 919 920 921 923 923 924 926 927 928 930 932 933 935 937 939 941 942 943 945 947 948 949 950 952 952 954 955 957 959 960 962 965 967 969 971 973 976 978 980 983 986 988 991 994 997 1000 1004 1006 1010 1011 1014 1017 1020 1023 1026 1030 1033 1036 1039 1042 1045 1048 1052 1055 1059 1060 1063 1066 1069 1070 1072 1074 1075 1076 1078 1079 1079 1080 1081 1082 1082 1084 1084 1085 1087 1088 1090 1091 1091 1093 1095 1096 1098 1099 1100 1101 1102 1106 1110 1113 1113 1113 1113 1110 1109 1107 1106 1102 1102 1101 1101 1099 1099 1098 1098 1098 1097 1097 1097 1097 1098 1098 1099 1099 1099 1099 1099 1099 1099 1100 1100 1100 1100 1100 1100 1100 1100 1100 1100 1099 1097 1096 1095 1095 1093 1085 1075 1070 1057 1048 1044 1036 1031 1028 1025 1024 1023 1022 1019 1016 1016 1016 1016 1025 1044 1101 1231 1535 1561 1561 1561 1538 1500 1450 1396 1336 1284 1221 1143 1079 1018 1006 1005 993 980 973 967 964 959 956 956 956 954 953 953 952 950 948 947 946 943 943 941 939 939 937 936 935 934 933 931 930 929 928 927 926 925 924 923 923 921 921 920 918 918 915 915 915 913 912 912 910 908 907 906 903 903 903 904 904 905 905 905 905 908 909 909 909 908 908 907 907 905 903 902 902 902 907 907 907 903 897 894 893 893 891 887 885 883 881 878 875 872 871 871 870 869 870 870 867 866 866 859 855 852 0 0 0 0 0 0 0 0 0 0 0 0 0 0 0 0 0 0 0 829 829 834 838 844 856 856 856 851 849 849 849 857 862 864 864 865 865 864 864 864 862 860 845 831 830 828 0 0 0 0 0 0 0 0 0 0 0 0 0 0 0 0 0 0 0 0 0 0 0 0 0 0 0 0 0 0 0 0 0 0 0 0 0 0 0 0 0 0 0 787 788 789 789 793 804 830 854 879 943 962 1065 1222 1431 1604 1627 1653 1684 1688 1688 1688 1693 1695 1696 1700 1703 1706 1710 1711 1712 1714 1717 1721 1722 1723 1724 1726 1730 1732 1734 1735 1736 1736 1736 1735 1733 1732 1731 1729 1729 1728 1726 1723 1720 1718 1713 1709 1706 1704 1701 1699 1697 1695 1694 1692 1689 1686 1683 1680 1677 1671 1669 1665 1664 1660 1657 1650 1645 1640 1636 1634 1630 1626 1622 1619 1615 1613 1610 1608 1605 1600 1596 1593 1590 1587 1583 1577 1574 1569 1565 1561 1557 1554 1550 1546 1542 1540 1538 1537 1535 1533 1531 1526 1521 1517 1513 1508 1504 1500 1497 1494 1492 1488 1484 1481 1475 1470 1466 1463 1459 1455 1452 1449 1447 1445 1443 1443 1442 1441 1440 1439 1439
0 0 1165 1166 1166 1166 1128 1025 968 968 968 1019 1088 1185 1249 1250 1277 1277 1277 1277 1277 1277 1275 1275 1275 1258 1252 1251 1250 1239 1232 1205 1162 1138 1117 1117 1117 1117 1117 1106 1105 1099 1075 1034 989 964 945 944 942 937 933 920 920 920 920 920 921 924 924 924 924 921 914 914 914 914 914 914 911 907 906 906 906 906 906 906 906 904 900 898 897 897 897 897 897 897 897 897 897 897 897 897 897 897 898 898 898 899 899 899 899 900 900 900 901 901 902 902 902 904 904 905 906 907 908 909 910 911 912 914 915 916 917 919 920 920 922 923 923 924 926 927 929 930 932 934 935 938 939 941 942 944 946 947 948 949 951 952 953 954 956 958 959 961 964 965 968 970 972 973 976 979 982 985 987 990 992 995 999 1002 1006 1009 1013 1015 1016 1020 1023 1026 1029 1033 1036 1039 1041 1044 1047 1051 1054 1057 1059 1061 1063 1064 1067 1070 1071 1072 1073 1074 1075 1077 1078 1079 1080 1080 1081 1082 1083 1085 1086 1087 1088 1089 1090 1092 1094 1094 1096 1097 1098 1098 1102 1106 1108 1110 1110 1110 1108 1106 1105 1104 1102 1101 1101 1100 1099 1098 1098 1097 1097 1097 1097 1097 1097 1097 1097 1097 1097 1097 1098 1098 1098 1098 1099 1099 1100 1100 1100 1100 1100 1100 1100 1100 1099 1099 1097 1096 1096 1095 1093 1085 1075 1069 1056 1048 1043 1037 1032 1028 1026 1025 1024 1023 1023 1022 1022 1022 1025 1032 1058 1122 1277 1573 1606 1606 1606 1570 1541 1504 1455 1401 1363 1311 1227 1152 1092 1026 1007 1000 994 987 974 966 959 954 954 953 953 953 952 951 949 948 946 944 942 941 939 938 937 935 934 933 932 931 930 928 928 926 926 925 924 923 922 921 920 919 918 917 915 914 913 912 911 910 910 908 906 906 905 904 904 904 904 905 905 905 905 905 905 905 906 906 906 906 906 906 905 903 903 903 905 908 908 908 903 896 894 893 892 891 886 884 882 881 877 875 872 871 871 870 868 867 867 865 864 860 858 855 0 0 0 0 0 0 0 0 0 0 0 0 0 0 0 0 0 0 0 0 0 0 0 836 840 848 851 851 851 849 849 849 857 862 862 864 865 865 861 861 857 857 849 832 831 825 0 0 0 0 0 0 0 0 0 0 0 0 0 0 0 0 0 0 0 0 0 0 0 0 0 0 0 0 0 0 0 0 0 0 0 0 0 0 0 0 0 0 0 788 788 789 789 789 798 808 834 861 917 944 1020 1147 1336 1567 1617 1628 1679 1684 1687 1688 1688 1691 1692 1692 1694 1698 1702 1705 1706 1707 1709 1711 1715 1717 1718 1719 1721 1723 1725 1728 1729 1729 1729 1729 1729 1728 1728 1728 1726 1725 1725 1723 1722 1720 1716 1711 1706 1703 1700 1698 1696 1693 1691 1690 1688 1688 1685 1682 1679 1674 1669 1667 1664 1662 1659 1654 1649 1644 1640 1635 1632 1628 1624 1620 1616 1613 1612 1610 1608 1605 1600 1597 1594 1592 1587 1583 1578 1574 1569 1565 1561 1557 1553 1550 1544 1540 1539 1537 1535 1533 1530 1527 1523 1518 1515 1510 1507 1504 1500 1496 1493 1490 1488 1483 1481 1475 1470 1466 1463 1459 1455 1451 1449 1447 1445 1443 1443 1442 1441 1440 1439 1439
0 0 0 0 0 0 884 884 899 899 958 961 992 1028 1051 1053 1183 1231 1231 1231 1223 1223 1220 1220 1205 1193 1183 1181 1181 1178 1169 1154 1117 1098 1087 1072 1064 1061 1057 1040 1039 1000 965 961 953 939 932 929 925 922 915 915 915 917 918 918 918 918 918 918 915 909 909 909 908 908 908 904 902 902 901 901 901 901 901 901 900 898 897 895 895 895 895 895 895 895 895 895 895 896 896 896 896 896 896 897 897 897 898 898 899 899 899 900 900 901 901 902 902 903 904 905 906 907 908 909 910 911 913 914 916 917 917 919 920 921 922 923 924 924 926 928 929 931 933 934 936 938 940 942 943 944 946 948 949 950 952 952 954 955 958 959 961 961 964 966 968 971 973 975 978 981 984 986 989 992 995 998 1000 1004 1008 1012 1015 1017 1019 1023 1025 1028 1032 1035 1038 1040 1043 1046 1049 1052 1054 1057 1059 1061 1062 1064 1066 1068 1069 1070 1071 1072 1074 1075 1076 1077 1079 1079 1080 1081 1083 1084 1084 1086 1087 1088 1088 1090 1092 1094 1096 1096 1096 1098 1100 1104 1104 1105 1104 1104 1104 1104 1103 1102 1101 1101 1100 1099 1098 1098 1097 1097 1097 1097 1096 1096 1096 1096 1096 1096 1096 1097 1097 1098 1098 1098 1099 1099 1100 1100 1100 1100 1100 1100 1100 1099 1099 1099 1098 1098 1097 1096 1093 1084 1075 1069 1055 1048 1043 1039 1033 1028 1026 1025 1025 1025 1024 1025 1025 1025 1026 1039 1077 1161 1329 1615 1615 1615 1606 1576 1563 1546 1504 1461 1426 1380 1319 1256 1186 1114 1046 1009 1001 996 989 972 959 954 953 953 953 953 952 951 949 948 945 944 942 940 939 937 936 934 933 932 931 930 929 927 926 925 924 923 922 922 920 920 919 918 917 916 915 914 912 911 910 909 908 908 906 906 904 904 904 904 904 904 905 905 905 905 905 904 904 904 904 904 904 904 904 904 904 904 905 908 908 908 903 896 894 893 892 888 885 883 882 880 877 875 873 871 868 867 865 865 860 859 854 849 849 0 0 0 0 0 0 0 0 0 0 0 0 0 0 0 0 0 0 0 0 0 0 0 0 0 831 834 835 835 844 845 847 847 857 857 857 853 853 853 856 856 856 850 841 831 825 820 0 0 0 0 0 0 0 0 0 0 0 0 0 0 0 0 0 0 0 0 0 0 0 0 0 0 0 0 0 0 0 0 0 0 0 0 0 0 0 0 0 0 0 788 792 793 795 798 801 819 840 882 918 1006 1123 1278 1495 1611 1620 1657 1679 1681 1684 1688 1688 1688 1688 1689 1691 1694 1697 1699 1700 1701 1703 1707 1711 1714 1714 1715 1717 1718 1719 1721 1722 1722 1723 1723 1724 1724 1724 1724 1723 1721 1721 1720 1719 1718 1715 1709 1705 1701 1699 1696 1694 1693 1691 1688 1686 1685 1685 1682 1678 1672 1668 1665 1662 1661 1657 1653 1648 1643 1640 1635 1632 1627 1622 1618 1615 1612 1610 1610 1608 1605 1600 1597 1594 1592 1587 1583 1578 1572 1567 1562 1559 1554 1552 1548 1543 1539 1537 1535 1534 1530 1528 1525 1521 1517 1512 1507 1505 1502 1500 1496 1492 1489 1486 1483 1482 1477 1472 1468 1465 1460 1455 1451 1449 1447 1445 1444 1443 1442 1440 1439 1439 1439
0 0 0 0 805 806 806 843 884 884 955 958 977 993 1004 1053 1111 1189 1189 1189 1173 1169 1164 1164 1159 1156 1143 1143 1130 1121 1109 1085 1075 1061 1061 1057 1055 984 983 983 982 958 928 923 923 921 921 921 919 911 911 911 911 911 911 911 911 911 911 911 908 908 908 907 906 905 901 900 900 899 896 895 895 895 896 896 896 894 894 894 894 894 894 894 893 893 893 893 894 894 894 894 894 895 895 895 895 896 897 897 898 898 899 899 900 900 901 902 902 903 904 905 906 907 908 909 910 912 913 915 916 917 918 919 920 921 922 923 924 925 926 928 929 931 933 935 936 938 940 942 944 945 947 948 949 951 952 954 955 957 958 959 961 963 965 968 969 972 975 977 979 983 986 989 992 995 998 1000 1003 1006 1010 1014 1017 1020 1022 1025 1027 1030 1034 1037 1040 1042 1044 1047 1050 1053 1054 1057 1059 1061 1062 1063 1065 1066 1068 1068 1069 1071 1072 1074 1076 1076 1078 1078 1079 1080 1081 1083 1084 1085 1085 1086 1087 1089 1091 1093 1094 1094 1095 1096 1098 1100 1100 1101 1101 1101 1101 1101 1101 1100 1099 1099 1098 1098 1097 1097 1096 1096 1096 1095 1095 1095 1095 1095 1095 1095 1096 1096 1097 1097 1098 1098 1099 1099 1100 1100 1100 1100 1100 1100 1099 1099 1099 1100 1100 1100 1097 1096 1093 1084 1071 1066 1050 1045 1043 1039 1035 1029 1027 1026 1026 1026 1026 1026 1027 1027 1027 1042 1088 1172 1358 1639 1639 1639 1606 1576 1567 1555 1537 1504 1483 1444 1393 1344 1277 1198 1124 1062 1016 1005 997 977 973 954 953 953 953 952 952 950 948 946 943 941 940 939 937 935 935 933 931 930 929 928 927 926 924 924 922 921 921 920 919 919 917 917 915 914 913 912 911 910 909 908 908 907 906 905 903 903 903 904 904 904 904 904 905 905 905 902 902 902 902 902 902 906 906 906 906 906 906 905 905 905 899 896 894 893 889 885 882 880 880 880 877 875 873 871 868 866 865 865 860 855 854 844 0 0 0 0 0 0 0 0 0 0 0 0 0 0 0 0 0 0 0 0 0 0 0 0 0 0 0 0 0 834 842 844 845 846 857 857 857 851 851 851 853 853 853 846 834 820 819 817 0 0 0 0 0 0 0 0 0 0 0 0 0 0 0 0 0 0 0 0 0 0 0 0 0 0 0 0 0 0 0 0 0 0 0 0 0 0 0 0 0 0 0 794 794 795 796 799 810 819 840 883 959 1073 1226 1431 1606 1620 1642 1667 1672 1679 1679 1684 1685 1685 1686 1686 1686 1688 1690 1692 1694 1695 1698 1703 1707 1710 1711 1713 1713 1713 1713 1713 1713 1713 1713 1717 1719 1720 1720 1720 1719 1718 1717 1715 1715 1713 1710 1708 1704 1700 1698 1695 1693 1691 1690 1687 1685 1684 1681 1679 1675 1671 1666 1663 1661 1658 1656 1652 1648 1643 1638 1633 1629 1624 1620 1616 1613 1610 1609 1608 1607 1605 1600 1597 1594 1592 1587 1582 1577 1570 1566 1561 1557 1552 1548 1547 1541 1538 1535 1534 1532 1528 1525 1523 1519 1515 1509 1506 1503 1502 1499 1496 1492 1488 1485 1483 1482 1480 1475 1471 1467 1460 1455 1451 1449 1448 1445 1445 1444 1443 1440 1439 1437 1437
6 797 0 797 804 806 806 843 884 943 945 952 958 963 985 1006 1055 1131 1131 1131 1126 1119 1110 1089 1077 1077 1077 1074 1074 1074 1054 1042 1036 1028 1021 1014 994 980 933 918 909 908 908 909 909 911 911 911 911 910 909 909 909 909 909 909 909 909 907 906 904 903 903 903 902 899 898 897 896 894 891 891 891 891 891 892 893 893 892 892 892 892 892 892 892 892 892 892 893 893 893 893 893 894 894 894 895 895 896 896 897 897 898 898 899 900 901 901 902 903 904 905 906 908 909 909 911 912 914 915 916 917 918 919 920 921 922 923 924 925 927 928 930 932 934 936 937 939 941 943 945 946 948 949 951 952 953 954 956 958 959 960 962 964 966 969 971 974 976 979 981 985 988 991 994 996 999 1001 1005 1008 1011 1015 1018 1021 1023 1025 1027 1031 1035 1038 1041 1043 1045 1049 1051 1053 1055 1057 1058 1060 1062 1063 1065 1066 1067 1068 1069 1070 1071 1073 1074 1076 1076 1077 1078 1079 1080 1082 1082 1083 1085 1085 1087 1087 1089 1091 1092 1093 1093 1095 1097 1098 1098 1099 1099 1100 1100 1100 1100 1099 1099 1098 1097 1097 1096 1096 1095 1095 1094 1094 1094 1094 1094 1094 1095 1095 1095 1095 1096 1097 1097 1098 1098 1099 1099 1099 1100 1100 1100 1100 1099 1099 1099 1100 1100 1100 1097 1096 1086 1077 1069 1059 1046 1041 1039 1039 1035 1031 1028 1028 1028 1029 1029 1029 1030 1030 1036 1059 1098 1175 1373 1636 1636 1636 1601 1576 1567 1555 1548 1537 1530 1491 1457 1414 1353 1281 1212 1143 1076 1020 1000 991 979 971 962 956 953 952 950 950 948 945 943 940 939 937 935 934 933 931 930 929 928 927 925 925 924 922 922 921 919 919 918 917 916 916 914 913 912 911 910 909 908 907 907 906 905 905 903 903 903 903 904 904 904 904 904 904 904 902 902 901 901 902 902 905 906 906 906 905 905 903 903 898 894 894 894 892 887 880 880 879 878 878 877 875 873 871 866 866 865 857 854 853 849 0 0 0 0 0 0 0 0 0 0 0 0 0 0 0 0 0 0 0 0 0 0 0 0 0 0 0 0 0 0 833 837 837 838 840 857 857 857 849 849 849 853 853 853 834 820 815 811 0 0 0 0 0 0 0 0 0 0 0 0 0 0 0 0 0 0 0 0 0 0 0 0 0 0 0 0 0 0 0 0 0 0 0 0 0 0 0 0 0 0 0 791 794 795 800 803 803 810 820 855 910 999 1140 1368 1581 1615 1631 1667 1669 1669 1669 1674 1678 1681 1681 1681 1682 1683 1683 1684 1685 1687 1689 1692 1696 1700 1701 1705 1707 1707 1707 1707 1706 1706 1706 1708 1712 1714 1714 1715 1715 1714 1714 1714 1713 1711 1709 1707 1704 1703 1700 1697 1695 1692 1691 1689 1687 1684 1682 1679 1676 1674 1669 1665 1661 1659 1654 1651 1648 1644 1640 1635 1633 1629 1624 1619 1615 1611 1608 1607 1606 1604 1602 1599 1596 1594 1591 1587 1582 1576 1570 1564 1559 1555 1551 1548 1545 1540 1537 1535 1533 1529 1526 1524 1522 1519 1514 1509 1505 1503 1501 1499 1496 1492 1488 1485 1483 1482 1480 1475 1471 1467 1460 1455 1452 1450 1448 1446 1445 1445 1443 1441 1439 1437 1437
865 865 865 865 806 806 806 843 924 943 943 945 953 953 957 1005 1007 1060 1078 1078 1078 1077 1060 1048 1044 1039 1037 1027 1027 1008 997 987 977 958 956 955 951 948 930 906 905 904 903 902 901 901 901 904 905 905 907 907 907 907 906 905 904 904 904 903 900 899 898 897 896 895 894 890 890 889 888 888 888 888 889 890 890 890 890 890 890 890 890 890 891 891 891 891 891 891 891 892 892 892 893 893 894 894 895 895 896 897 897 898 898 899 900 901 902 903 904 905 906 908 909 910 911 913 914 915 917 917 919 919 921 921 922 923 924 926 927 928 931 932 934 936 938 941 942 944 946 947 948 949 951 952 954 955 956 958 960 961 963 964 967 970 972 975 978 980 983 986 989 992 996 998 1001 1003 1005 1009 1012 1015 1019 1022 1023 1025 1029 1033 1036 1040 1042 1044 1047 1049 1052 1053 1055 1057 1058 1060 1061 1063 1065 1065 1066 1067 1069 1069 1070 1072 1073 1074 1075 1076 1077 1078 1079 1081 1082 1082 1083 1084 1085 1087 1088 1089 1090 1090 1092 1093 1095 1095 1096 1098 1098 1099 1100 1100 1100 1098 1097 1097 1096 1095 1095 1095 1094 1094 1094 1094 1094 1094 1094 1094 1095 1095 1095 1095 1096 1097 1097 1098 1099 1099 1099 1099 1100 1100 1100 1100 1099 1099 1099 1099 1099 1099 1092 1081 1079 1071 1060 1046 1040 1037 1036 1035 1034 1031 1031 1031 1032 1032 1032 1032 1037 1039 1050 1079 1122 1205 1387 1634 1634 1634 1587 1574 1567 1555 1548 1538 1536 1530 1504 1464 1414 1352 1285 1226 1147 1078 1027 1006 1003 995 974 966 958 952 950 949 948 945 942 940 937 936 934 933 932 931 929 928 927 925 924 923 922 921 920 919 918 918 916 916 915 914 913 912 911 910 909 908 907 906 906 906 905 905 902 902 902 903 903 903 901 901 901 902 902 902 901 901 901 901 901 905 906 906 906 903 901 898 894 893 893 892 892 890 881 877 877 877 877 877 877 872 868 866 865 864 862 857 855 854 853 0 0 0 0 0 0 0 0 0 0 0 0 0 0 0 0 0 0 0 0 0 0 0 0 0 0 0 0 0 0 0 0 823 827 835 840 848 848 849 849 848 847 847 834 827 812 810 0 0 0 0 0 0 0 0 0 0 0 0 0 0 0 0 0 0 0 0 0 0 0 0 0 0 0 0 0 0 0 0 0 0 0 0 0 0 0 0 0 0 0 794 794 794 797 801 806 808 811 842 899 979 1081 1253 1503 1606 1616 1653 1656 1662 1665 1665 1665 1670 1674 1675 1676 1677 1679 1680 1681 1682 1682 1684 1686 1690 1694 1695 1697 1700 1701 1701 1702 1703 1703 1703 1705 1707 1709 1710 1710 1710 1711 1711 1711 1710 1708 1707 1704 1701 1699 1698 1696 1694 1692 1689 1687 1686 1683 1680 1677 1674 1671 1668 1664 1661 1657 1653 1648 1645 1642 1638 1635 1633 1629 1624 1618 1614 1610 1607 1605 1603 1602 1599 1598 1595 1592 1589 1585 1582 1576 1569 1563 1557 1554 1549 1548 1544 1540 1537 1534 1531 1528 1525 1522 1519 1516 1513 1508 1505 1503 1501 1499 1496 1492 1488 1485 1483 1482 1480 1475 1471 1467 1460 1455 1452 1451 1449 1448 1447 1447 1446 1444 1440 1437 1437
865 865 865 865 903 925 925 930 945 945 945 941 941 941 945 997 999 1011 1030 1030 1030 1025 1005 995 992 981 972 972 972 972 971 967 953 938 934 928 925 922 911 904 903 903 902 900 900 900 900 900 901 901 903 903 903 899 899 899 898 898 897 897 896 896 895 894 890 889 888 886 886 886 886 886 887 888 888 888 888 888 888 888 888 889 889 889 889 889 889 890 890 890 890 890 890 891 891 892 893 893 893 894 895 895 896 897 898 899 900 901 902 904 904 905 907 909 910 911 911 913 915 915 917 919 919 920 921 922 923 924 925 926 928 930 931 933 934 937 939 941 943 944 946 947 949 950 951 953 954 956 958 958 961 962 963 966 969 971 974 977 979 981 984 987 991 995 997 1000 1002 1004 1007 1011 1013 1018 1021 1023 1024 1027 1031 1035 1038 1041 1042 1044 1047 1050 1052 1054 1055 1057 1058 1060 1061 1063 1064 1065 1066 1066 1068 1069 1069 1071 1072 1073 1074 1076 1076 1077 1078 1079 1080 1081 1082 1083 1084 1085 1086 1087 1088 1090 1091 1092 1093 1093 1095 1096 1097 1097 1098 1098 1098 1097 1096 1096 1096 1095 1095 1095 1094 1093 1093 1093 1093 1094 1094 1094 1095 1095 1095 1095 1096 1097 1097 1098 1099 1099 1100 1100 1100 1101 1101 1101 1100 1100 1099 1098 1098 1089 1074 1069 1062 1053 1040 1035 1033 1031 1030 1030 1030 1031 1031 1031 1032 1032 1032 1036 1043 1050 1064 1092 1141 1232 1442 1625 1625 1625 1584 1570 1565 1554 1548 1538 1536 1530 1524 1506 1469 1420 1358 1305 1252 1181 1101 1054 1009 995 980 971 964 955 950 949 948 945 942 939 937 936 934 933 931 930 928 926 925 923 922 921 921 919 918 918 917 917 915 915 913 912 911 911 909 909 908 907 906 905 905 904 904 904 901 901 901 903 903 903 897 897 897 902 902 902 901 898 898 898 900 904 906 906 906 901 894 891 891 891 891 891 890 885 878 875 875 875 876 876 876 871 865 864 864 862 857 856 854 849 849 0 0 0 0 0 0 0 0 0 0 0 0 0 0 0 0 0 0 0 0 0 0 0 0 0 0 0 0 0 0 0 0 0 0 0 825 829 834 841 841 845 845 845 834 806 804 0 0 0 0 0 0 0 0 0 0 0 0 0 0 0 0 0 0 0 0 0 0 0 0 0 0 0 0 0 0 0 0 0 0 0 0 0 0 0 0 0 0 0 788 794 795 796 800 807 809 813 840 889 971 1063 1179 1385 1585 1607 1635 1662 1662 1662 1656 1656 1656 1663 1665 1668 1670 1672 1675 1676 1677 1677 1678 1680 1683 1686 1687 1690 1693 1694 1696 1697 1698 1699 1700 1700 1701 1703 1705 1705 1705 1705 1706 1706 1706 1706 1705 1703 1700 1696 1694 1692 1690 1688 1688 1686 1684 1683 1681 1679 1676 1674 1670 1667 1664 1660 1657 1653 1648 1644 1641 1638 1635 1632 1629 1624 1618 1613 1609 1606 1604 1601 1599 1597 1595 1593 1590 1588 1585 1580 1573 1566 1562 1557 1551 1549 1548 1544 1540 1536 1532 1530 1527 1524 1520 1517 1515 1512 1508 1505 1503 1501 1499 1496 1492 1489 1485 1482 1479 1478 1474 1471 1467 1461 1457 1454 1453 1452 1451 1450 1450 1450 1448 1443 1437 1437
865 865 887 903 926 926 929 939 939 932 932 924 924 924 934 956 963 964 969 969 969 959 945 937 934 934 934 941 948 948 948 940 928 921 913 911 909 906 906 904 901 901 900 895 895 895 896 897 897 897 896 895 895 894 894 894 894 894 894 894 893 893 892 889 887 885 884 884 884 885 886 886 886 886 886 886 886 887 887 887 887 887 888 888 888 888 888 888 888 889 889 889 889 890 891 891 891 892 892 894 894 895 896 897 898 899 900 901 902 904 904 906 908 909 910 911 913 913 915 916 917 919 919 921 921 923 924 924 925 927 928 931 933 934 936 938 940 941 943 945 947 948 950 951 952 954 955 957 958 960 962 964 965 967 970 972 974 978 980 983 986 990 993 997 999 1001 1003 1006 1009 1012 1015 1019 1022 1025 1026 1029 1033 1036 1039 1041 1042 1044 1047 1050 1052 1054 1055 1057 1058 1060 1061 1062 1064 1064 1065 1065 1067 1068 1069 1070 1071 1072 1073 1075 1076 1076 1078 1078 1079 1080 1081 1082 1082 1084 1084 1086 1086 1087 1088 1090 1091 1091 1093 1095 1096 1096 1097 1097 1096 1095 1095 1095 1095 1095 1094 1094 1093 1093 1093 1093 1093 1094 1094 1094 1095 1095 1096 1096 1097 1097 1099 1099 1099 1099 1100 1100 1101 1101 1101 1102 1101 1101 1100 1098 1091 1075 1062 1055 1034 1023 1021 1020 1019 1020 1020 1023 1027 1029 1031 1032 1033 1033 1035 1036 1043 1053 1073 1102 1141 1232 1449 1619 1619 1619 1579 1563 1544 1542 1539 1538 1536 1530 1524 1518 1506 1475 1429 1381 1331 1267 1184 1109 1047 1002 983 974 965 960 956 951 949 945 942 939 937 936 934 933 931 929 926 925 924 922 921 920 919 919 917 917 915 914 914 913 913 911 910 910 908 908 907 906 905 904 904 903 903 903 900 899 899 899 899 899 895 895 895 902 902 902 901 898 897 897 897 904 904 904 903 896 890 889 889 889 889 887 887 882 876 872 872 872 872 872 871 871 863 861 859 858 856 851 849 846 0 0 0 0 0 0 0 0 0 0 0 0 0 0 0 0 0 0 0 0 0 0 0 0 0 0 0 0 0 0 0 0 0 0 0 0 0 823 823 824 832 841 841 841 828 798 0 0 0 0 0 0 0 0 0 0 0 0 0 0 0 0 0 0 0 0 0 0 0 0 0 0 0 0 0 0 0 0 0 0 0 0 0 0 0 0 0 0 0 0 790 794 796 797 806 810 815 832 869 935 1037 1153 1310 1542 1603 1613 1651 1657 1657 1657 1653 1653 1653 1656 1659 1661 1664 1667 1671 1673 1674 1674 1674 1676 1680 1683 1683 1685 1687 1688 1690 1690 1693 1694 1694 1696 1697 1698 1699 1699 1700 1700 1701 1702 1702 1702 1701 1698 1695 1692 1688 1687 1686 1684 1683 1683 1682 1681 1679 1677 1675 1673 1670 1667 1664 1660 1656 1652 1648 1644 1639 1638 1634 1632 1629 1623 1616 1611 1608 1604 1601 1598 1597 1595 1592 1591 1590 1587 1584 1580 1571 1566 1561 1556 1551 1549 1547 1544 1539 1535 1531 1528 1525 1522 1519 1516 1513 1511 1508 1505 1503 1501 1499 1496 1492 1489 1485 1482 1479 1476 1473 1470 1467 1464 1462 1460 1460 1458 1458 1455 1454 1451 1449 1443 1437 1437
863 863 887 915 924 936 939 941 941 941 928 920 918 918 918 929 932 933 937 937 937 931 925 921 921 921 927 934 934 934 926 916 911 911 908 906 903 903 901 900 900 899 899 891 891 891 891 891 891 891 891 891 891 892 892 893 893 893 892 891 891 890 889 887 885 884 884 884 884 884 884 884 884 884 884 885 885 885 885 885 886 886 886 886 886 886 887 887 887 887 887 887 888 889 890 890 891 892 892 893 894 895 895 897 897 899 900 901 902 904 905 906 908 910 911 912 913 914 916 917 918 919 920 921 922 923 924 926 926 927 929 931 933 934 937 938 941 942 944 945 947 948 950 951 952 954 955 957 959 961 962 964 966 969 971 974 976 978 981 984 988 990 995 998 1001 1003 1006 1008 1011 1015 1017 1020 1024 1025 1027 1031 1034 1036 1039 1041 1042 1044 1047 1050 1052 1053 1055 1057 1057 1059 1061 1062 1062 1063 1063 1064 1066 1067 1068 1069 1070 1072 1072 1074 1075 1076 1077 1077 1078 1079 1080 1081 1081 1082 1083 1083 1085 1086 1087 1088 1090 1090 1090 1093 1094 1094 1095 1095 1095 1095 1094 1094 1094 1093 1093 1093 1093 1093 1093 1093 1093 1094 1094 1095 1095 1095 1096 1097 1098 1099 1099 1100 1100 1101 1103 1104 1105 1106 1106 1106 1105 1102 1100 1094 1080 1064 1051 1028 1010 1009 1009 1010 1011 1013 1013 1015 1021 1028 1033 1034 1034 1035 1035 1037 1044 1060 1077 1103 1143 1233 1453 1607 1607 1607 1562 1540 1535 1535 1533 1531 1531 1529 1524 1520 1519 1508 1482 1454 1401 1338 1270 1190 1121 1059 1000 983 976 970 963 961 953 945 942 938 937 935 934 932 930 928 926 924 923 921 920 919 918 917 916 915 914 913 912 912 911 910 909 907 906 906 905 904 903 903 902 902 901 901 899 898 898 896 896 896 891 891 891 895 901 901 901 896 894 894 894 898 899 899 899 894 890 886 886 886 886 886 883 879 876 873 871 870 870 869 867 867 861 858 857 853 853 851 849 0 0 0 0 0 0 0 0 0 0 0 0 0 0 0 0 0 0 0 0 0 0 0 0 0 0 0 0 0 0 0 0 0 0 0 0 0 0 0 0 0 816 819 822 822 822 0 0 0 0 0 0 0 0 0 0 0 0 0 0 0 0 0 0 0 0 0 0 0 0 0 0 0 0 0 0 0 0 0 0 0 0 0 0 0 0 0 0 0 0 0 791 794 797 798 806 817 833 846 879 956 1071 1238 1484 1589 1608 1623 1651 1651 1651 1651 1651 1651 1652 1653 1653 1655 1658 1661 1666 1670 1671 1671 1672 1672 1675 1676 1678 1680 1681 1683 1683 1685 1685 1685 1687 1688 1690 1692 1693 1693 1693 1693 1693 1695 1695 1695 1694 1692 1690 1687 1684 1683 1681 1681 1680 1680 1679 1679 1677 1676 1674 1672 1670 1666 1663 1660 1656 1652 1647 1643 1639 1636 1632 1628 1624 1619 1614 1611 1607 1602 1598 1596 1594 1591 1591 1588 1588 1587 1584 1578 1571 1565 1560 1556 1551 1548 1546 1543 1537 1533 1530 1527 1524 1522 1518 1515 1512 1511 1507 1505 1503 1502 1500 1496 1492 1490 1485 1481 1478 1476 1472 1469 1467 1466 1465 1465 1463 1462 1459 1456 1455 1452 1449 1443 1435 1435
863 863 887 915 927 944 945 945 945 924 922 917 909 909 909 912 918 920 926 926 926 920 915 913 913 913 918 919 919 918 909 905 904 904 903 902 898 897 897 894 894 894 893 888 887 887 887 887 887 889 890 890 890 891 891 891 891 891 890 890 889 888 886 885 884 884 882 882 882 882 882 882 882 882 883 884 884 884 884 885 885 885 885 885 885 885 886 886 886 886 887 887 888 888 889 890 890 891 891 893 893 895 895 897 897 899 900 901 903 904 905 906 908 910 911 912 914 915 916 917 918 919 920 921 922 923 925 926 927 929 930 932 934 935 937 940 941 943 944 946 947 949 950 953 953 955 957 958 959 961 964 965 967 970 971 975 977 979 983 986 989 992 995 999 1002 1004 1006 1009 1011 1015 1018 1021 1024 1026 1028 1031 1034 1036 1039 1041 1042 1044 1046 1049 1051 1052 1054 1055 1056 1058 1060 1060 1061 1061 1063 1064 1065 1066 1067 1068 1070 1071 1072 1073 1074 1074 1076 1077 1077 1077 1078 1079 1079 1081 1081 1082 1083 1083 1084 1086 1087 1088 1089 1090 1091 1093 1093 1094 1094 1094 1094 1093 1093 1093 1093 1093 1093 1093 1093 1093 1094 1094 1095 1095 1096 1097 1098 1099 1099 1099 1100 1101 1103 1104 1105 1106 1107 1107 1107 1107 1105 1102 1097 1083 1070 1055 1023 1008 1005 1004 1002 1002 1002 1006 1010 1012 1015 1026 1033 1035 1035 1037 1037 1037 1050 1063 1078 1105 1149 1235 1464 1584 1584 1584 1545 1534 1533 1532 1532 1530 1529 1526 1524 1521 1520 1517 1514 1508 1466 1399 1323 1265 1194 1129 1071 1003 987 987 977 967 957 947 942 938 937 935 934 932 930 927 926 924 923 921 919 918 917 916 915 914 913 912 911 910 909 908 908 906 905 904 904 904 902 902 900 900 898 897 897 895 894 893 893 892 891 891 891 892 901 901 901 894 890 890 890 896 896 896 896 893 887 886 886 886 886 886 879 876 875 873 871 869 868 867 865 864 861 860 858 853 847 846 0 0 0 0 0 0 0 0 0 0 0 0 0 0 0 0 0 0 0 0 0 0 0 0 0 0 0 0 0 0 0 0 0 0 0 0 0 0 0 0 0 0 0 815 817 817 815 0 0 0 0 0 0 0 0 0 0 0 0 0 0 0 0 0 0 0 0 0 0 0 0 0 0 0 0 0 0 0 0 0 0 0 0 0 0 0 0 0 0 0 0 788 790 794 796 798 806 822 842 876 923 1035 1171 1375 1574 1598 1610 1623 1636 1639 1641 1641 1643 1646 1648 1650 1650 1650 1651 1656 1660 1665 1666 1667 1668 1669 1669 1670 1671 1674 1675 1677 1678 1678 1678 1678 1679 1680 1683 1686 1686 1686 1685 1685 1685 1686 1686 1686 1686 1686 1684 1683 1682 1681 1679 1678 1677 1676 1676 1676 1675 1673 1671 1670 1668 1665 1661 1659 1655 1651 1646 1642 1639 1635 1632 1628 1623 1617 1613 1609 1607 1602 1598 1594 1591 1589 1586 1585 1584 1583 1580 1574 1567 1563 1559 1556 1550 1546 1543 1540 1536 1532 1529 1527 1524 1522 1518 1515 1512 1511 1507 1505 1503 1502 1500 1497 1492 1490 1485 1481 1478 1476 1471 1469 1467 1466 1465 1465 1463 1462 1459 1456 1455 1452 1450 1444 1435 1435
863 863 903 924 926 944 945 945 945 920 917 917 909 904 904 904 911 916 917 917 917 910 902 902 902 908 908 908 905 904 904 904 904 904 901 894 887 887 887 887 887 887 885 885 885 885 885 885 886 888 888 888 888 888 888 888 888 888 888 887 887 886 885 884 883 881 881 881 881 881 881 881 881 881 882 882 882 883 883 883 883 883 883 884 884 884 884 885 886 886 886 886 887 888 888 889 889 890 891 891 893 893 895 897 897 899 900 901 903 904 905 907 908 910 911 912 914 915 916 917 918 920 921 922 923 924 926 927 928 929 931 933 934 936 938 940 942 944 945 947 948 950 951 953 954 956 957 959 961 963 964 966 968 971 973 975 978 980 984 987 990 993 996 1000 1002 1005 1007 1009 1013 1016 1020 1022 1025 1027 1029 1032 1034 1036 1038 1040 1041 1043 1045 1048 1050 1052 1053 1054 1055 1057 1059 1060 1060 1060 1061 1063 1064 1065 1067 1068 1068 1069 1070 1072 1073 1074 1074 1075 1076 1077 1077 1078 1078 1078 1080 1080 1080 1082 1083 1083 1085 1086 1087 1088 1089 1091 1092 1092 1092 1092 1093 1093 1093 1093 1093 1093 1093 1093 1093 1094 1094 1095 1095 1096 1096 1097 1099 1099 1101 1102 1103 1106 1108 1108 1108 1109 1110 1111 1111 1111 1105 1097 1084 1072 1058 1025 1015 1003 1002 1000 998 998 998 998 1005 1010 1013 1021 1033 1036 1036 1037 1037 1040 1055 1071 1080 1106 1151 1240 1467 1568 1568 1568 1537 1533 1533 1530 1530 1530 1527 1523 1521 1521 1520 1517 1514 1508 1504 1457 1385 1324 1270 1218 1160 1091 1031 995 985 979 966 959 943 938 937 934 932 931 930 927 926 923 922 920 919 917 916 914 914 913 912 911 910 909 908 907 906 905 903 903 902 902 901 900 898 897 895 894 892 892 892 892 892 891 891 891 891 892 892 894 894 892 890 890 890 893 895 895 895 893 887 884 884 880 880 879 873 873 872 871 871 869 867 865 864 864 861 858 858 853 846 0 0 0 0 0 0 0 0 0 0 0 0 0 0 0 0 0 0 0 0 0 0 0 0 0 0 0 0 0 0 0 0 0 0 0 0 0 0 0 0 0 0 0 0 0 0 0 1 0 0 0 0 0 0 0 0 0 0 0 0 0 0 0 0 0 0 0 0 0 0 0 0 0 0 0 0 0 0 0 0 0 0 0 0 0 0 0 0 0 0 786 788 788 791 796 799 805 812 835 875 926 991 1121 1323 1530 1583 1599 1623 1624 1628 1630 1634 1634 1637 1640 1642 1645 1645 1646 1647 1651 1654 1659 1661 1664 1664 1665 1666 1666 1667 1668 1669 1670 1672 1672 1672 1673 1674 1676 1678 1680 1681 1681 1681 1679 1679 1679 1679 1680 1680 1680 1680 1680 1678 1678 1676 1675 1674 1673 1672 1672 1671 1670 1668 1668 1665 1662 1659 1657 1653 1649 1645 1641 1639 1635 1632 1628 1622 1617 1611 1608 1604 1602 1597 1592 1588 1585 1582 1580 1580 1577 1575 1569 1563 1559 1557 1554 1549 1544 1541 1538 1535 1531 1529 1527 1524 1521 1518 1515 1512 1511 1507 1505 1503 1501 1500 1497 1492 1490 1485 1481 1478 1474 1471 1467 1466 1466 1465 1465 1463 1462 1459 1456 1455 1452 1450 1444 1435 1435
908 908 908 915 915 944 944 944 920 917 917 916 909 901 901 901 902 905 906 906 906 901 899 899 899 902 902 902 901 901 901 901 901 900 892 883 880 880 880 883 883 883 882 882 882 882 883 883 884 885 885 885 885 885 885 885 885 885 885 884 884 884 883 882 881 880 880 880 880 880 880 880 880 881 881 881 881 882 882 882 883 883 883 883 883 883 884 884 885 885 885 886 887 887 888 889 889 890 891 891 893 893 895 896 897 899 900 901 903 904 905 907 909 910 911 912 914 915 916 918 919 920 921 922 923 925 926 927 929 930 932 933 935 937 939 941 943 944 945 948 949 951 952 954 955 956 958 959 961 963 965 967 969 971 973 976 979 982 986 987 991 994 997 1000 1003 1005 1008 1011 1013 1016 1020 1022 1025 1027 1029 1032 1034 1035 1037 1039 1041 1042 1044 1047 1049 1051 1052 1054 1054 1055 1057 1058 1058 1060 1060 1061 1063 1064 1066 1066 1068 1068 1070 1071 1071 1072 1073 1074 1075 1075 1076 1076 1077 1077 1078 1079 1079 1079 1080 1082 1083 1084 1085 1087 1087 1089 1091 1091 1092 1092 1093 1093 1093 1093 1093 1093 1093 1093 1093 1094 1094 1095 1096 1096 1097 1098 1100 1101 1104 1106 1108 1111 1111 1111 1112 1112 1113 1113 1113 1112 1102 1090 1070 1062 1032 1018 1009 1002 997 993 993 993 994 996 1000 1008 1013 1020 1030 1035 1036 1037 1037 1044 1066 1079 1086 1109 1154 1250 1487 1561 1561 1561 1526 1526 1526 1527 1527 1527 1523 1520 1520 1520 1519 1517 1514 1508 1504 1497 1455 1393 1348 1304 1239 1179 1118 1059 1017 985 978 970 960 942 937 934 932 931 929 927 924 923 922 920 918 917 915 914 913 912 911 910 908 908 907 905 904 903 902 901 901 900 898 897 897 894 893 892 888 888 888 888 889 889 889 889 889 888 888 889 889 888 888 888 888 889 893 893 893 890 887 884 877 876 875 873 869 869 869 869 869 869 865 865 862 857 857 856 856 853 0 0 0 0 0 0 0 0 0 0 0 0 0 0 0 0 0 0 0 0 0 0 0 0 0 0 0 0 0 0 0 0 0 0 0 0 0 0 0 0 0 0 0 0 0 0 0 0 0 0 0 0 0 0 0 0 0 0 0 0 0 0 0 0 0 0 0 0 0 0 0 0 0 0 0 0 0 0 0 0 0 0 0 0 0 0 0 0 0 0 0 786 788 789 791 797 801 809 828 862 918 980 1068 1227 1438 1555 1587 1620 1620 1620 1620 1620 1622 1628 1631 1632 1635 1636 1640 1643 1644 1646 1649 1653 1656 1658 1661 1662 1662 1663 1663 1665 1666 1666 1668 1668 1668 1668 1671 1672 1673 1674 1675 1676 1676 1676 1675 1675 1675 1675 1676 1676 1676 1676 1676 1674 1672 1672 1672 1672 1670 1669 1669 1667 1667 1666 1664 1660 1656 1653 1650 1646 1642 1639 1635 1633 1631 1627 1622 1616 1609 1607 1604 1599 1595 1591 1586 1581 1576 1575 1573 1570 1568 1564 1561 1557 1555 1551 1547 1543 1539 1536 1532 1531 1529 1526 1524 1521 1518 1516 1513 1511 1508 1505 1502 1500 1500 1497 1492 1490 1481 1479 1477 1474 1469 1466 1466 1465 1465 1463 1461 1458 1455 1454 1453 1452 1450 1446 1441 1441
