1352 1352 1352 1352 1352 1354 1355 1356 1356 1359 1360 1360 1361 1362 1362 1363 1365 1365 1366 1369 1369 1370 1371 1372 1373 1374 1375 1376 1376 1377 1378 1379 1379 1381 1381 1381 1381 1382 1383 1384 1386 1387 1388 1389 1390 1391 1393 1394 1394 1395 1396 1397 1400 1401 1402 1402 1404 1406 1409 1410 1412 1414 1416 1419 1420 1420 1422 1423 1424 1425 1427 1428 1431 1433 1434 1436 1438 1440 1443 1445 1447 1448 1450 1452 1454 1456 1458 1460 1462 1464 1466 1468 1470 1471 1472 1474 1475 1478 1481 1483 1484 1484 1486 1489 1492 1493 1496 1498 1500 1502 1504 1506 1508 1511 1512 1514 1516 1516 1517 1519 1522 1525 1527 1529 1530 1532 1533 1534 1534 1535 1536 1538 1539 1541 1541 1544 1551 1553 1553 1555 1559 1565 1568 1571 1571 1573 1576 1577 1579 1581 1581 1584 1584 1587 1588 1592 1594 1598 1601 1602 1602 1603 1603 1606 1606 1607 1607 1608 1610 1613 1618 1622 1628 1634 1638 1643 1645 1650 1652 1660 1669 1683 1694 1700 1708 1723 1732 1745 1759 1769 1773 1777 1777 1775 1775 1773 1773 1773 1774 1778 1783 1786 1790 1793 1794 1795 1797 1797 1799 1799 1799 1799 1797 1797 1797 1797 1799 1799 1801 1802 1802 1805 1806 1808 1812 1815 1815 1815 1812 1809 1804 1796 1790 1786 1783 1780 1778 1776 1773 1771 1769 1768 1768 1768 1769 1769 1769 1765 1762 1759 1759 1758 1756 1756 1756 1758 1760 1761 1762 1764 1764 1764 1762 1761 1761 1761 1761 1762 1766 1766 1767 1767 1772 1777 1797 1816 1850 1926 1974 2001 2001 1982 1974 1954 1930 1930 1929 1924 1918 1913 1912 1911 1909 1909 1909 1924 1934 1959 2010 2037 2081 2098 2115 2115 2115 2001 1949 1904 1880 1871 1864 1857 1856 1850 1841 1834 1831 1830 1826 1825 1824 1819 1819 1819 1820 1820 1820 1818 1818 1817 1802 1790 1778 1776 1775 1768 1760 1750 1743 1740 1736 1732 1728 1725 1721 1717 1714 1712 1710 1708 1708 1705 1701 1698 1698 1697 1695 1695 1689 1684 1678 1673 1673 1673 1672 1672 1665 1655 1653 1644 1643 1631 1622 1616 1610 1606 1602 1599 1594 1592 1588 1586 1585 1582 1579 1575 1572 1570 1568 1567 1566 1565 1564 1561 1561 1561 1561 1561 1559 1557 1555 1553 1550 1548 1543 1538 1529 1518 1509 1508 1507 1502 1495 1488 1477 1472 1470 1469 1468 1465 1462 1460 1456 1453 1450 1446 1443 1441 1438 1434 1431 1429 1426 1423 1422 1422 1422 1422 1422 1423 1427 1427 1427 1421 1421 1421 1419 1419 1418 1411 1403 1398 1394 1386 1380 1380 1379 1376 1374 1373 1359 1349 1335 1331 1330 1326 1321 1316 1311 1307 1303 1301 1297 1295 1292 1290 1288 1286 1284 1282 1280 1276 1274 1271 1269 1266 1264 1263 1261 1260 1259 1257 1257 1257 1257 1257 1257 1253 1253 1253 1253 1253 1253 1251 1249 1242 1239 1236 1233 1229 1227 1225 1222 1222 1222 1219 1214 1210 1208 1204 1198 1193 1191 1184 1183 1178 1175 1173 1171 1170 1169 1168 1167 1166 1164 1164 1162 1160 1159 1159 1157 1155 1153 1151 1150 1149 1147 1145 1144 1141 1138 1136 1136 1134 1133 1130 1129 1127 1126 1125 1124 1122 1121 1120 1118 1117 1116 1115 1114 1113 1110 1108 1107 1107 1106 1106 1104 1103 1101 1100 1098 1097 1097 1096 1096 1095 1090 1089 1082 1082 1082 1085 1122 1173 1224 1260 1323 1382 1441 1562 1767 1923 2022 2066 2088 2093 2120 2152 2163 2167 2178 2178 2178 2161 2144 2135 2135 2135
1352 1352 1352 1352 1352 1354 1355 1355 1356 1359 1360 1361 1363 1363 1364 1365 1366 1367 1369 1370 1371 1371 1372 1373 1375 1376 1377 1377 1378 1379 1380 1380 1382 1382 1383 1383 1383 1383 1384 1386 1387 1388 1389 1391 1392 1394 1396 1397 1398 1399 1400 1401 1403 1404 1405 1406 1408 1410 1412 1413 1415 1417 1419 1420 1421 1423 1424 1425 1427 1428 1430 1431 1433 1437 1440 1440 1441 1444 1446 1448 1450 1451 1452 1454 1457 1459 1460 1463 1464 1467 1469 1471 1473 1473 1476 1478 1479 1482 1484 1486 1488 1488 1490 1493 1495 1498 1500 1501 1504 1506 1509 1510 1511 1514 1516 1518 1519 1521 1521 1523 1527 1529 1531 1532 1534 1536 1538 1538 1539 1540 1542 1543 1546 1547 1549 1552 1557 1558 1558 1562 1567 1570 1574 1576 1578 1579 1582 1586 1588 1589 1589 1590 1590 1592 1593 1596 1599 1604 1605 1607 1607 1608 1609 1613 1615 1616 1616 1617 1621 1626 1632 1634 1637 1641 1645 1648 1652 1659 1668 1678 1691 1705 1714 1719 1727 1736 1738 1745 1759 1769 1770 1772 1772 1772 1772 1772 1773 1773 1774 1778 1782 1785 1791 1793 1795 1795 1797 1797 1799 1800 1802 1802 1802 1802 1802 1804 1805 1805 1809 1812 1813 1814 1818 1819 1829 1829 1829 1829 1827 1817 1813 1810 1801 1796 1796 1794 1791 1788 1782 1776 1775 1774 1774 1774 1775 1775 1775 1771 1767 1764 1761 1758 1756 1756 1756 1760 1761 1762 1762 1764 1764 1764 1763 1761 1761 1760 1760 1760 1760 1761 1761 1765 1768 1773 1784 1811 1853 1927 2012 2067 2105 2110 2110 2110 2089 2048 2024 2016 1991 1964 1952 1952 1952 1963 1983 1993 2000 2025 2061 2085 2105 2169 2169 2169 2136 2089 2014 1965 1901 1878 1871 1867 1863 1858 1852 1841 1837 1834 1830 1827 1826 1820 1820 1820 1819 1819 1818 1818 1818 1818 1810 1793 1780 1778 1776 1770 1764 1753 1747 1744 1739 1736 1732 1728 1725 1721 1718 1716 1713 1711 1710 1709 1707 1704 1701 1698 1697 1695 1690 1684 1679 1675 1675 1675 1673 1673 1672 1662 1654 1651 1650 1637 1627 1623 1617 1610 1606 1603 1599 1595 1591 1589 1587 1585 1582 1578 1575 1573 1570 1570 1568 1567 1565 1565 1565 1566 1566 1566 1562 1560 1555 1553 1550 1548 1545 1540 1532 1522 1510 1509 1508 1506 1501 1495 1485 1473 1470 1470 1469 1468 1465 1463 1459 1456 1452 1449 1446 1444 1440 1437 1433 1430 1427 1426 1424 1424 1423 1423 1423 1423 1427 1427 1427 1427 1424 1422 1422 1421 1419 1416 1415 1415 1412 1398 1391 1389 1387 1382 1376 1374 1374 1352 1338 1335 1334 1330 1323 1317 1314 1310 1306 1303 1301 1299 1296 1293 1290 1288 1285 1283 1282 1278 1277 1273 1271 1269 1268 1266 1264 1263 1261 1257 1257 1257 1257 1257 1257 1253 1253 1253 1255 1255 1255 1253 1251 1249 1244 1241 1238 1235 1233 1231 1229 1228 1224 1220 1216 1216 1213 1212 1207 1196 1191 1188 1187 1182 1179 1175 1174 1173 1172 1171 1169 1168 1167 1166 1164 1163 1161 1160 1159 1157 1155 1154 1152 1151 1149 1148 1146 1144 1142 1139 1138 1137 1135 1133 1131 1130 1129 1128 1127 1125 1124 1123 1121 1121 1119 1118 1116 1115 1113 1111 1111 1110 1109 1108 1107 1106 1104 1102 1101 1099 1099 1099 1097 1096 1092 1091 1084 1080 1080 1080 1090 1109 1127 1175 1185 1196 1211 1256 1361 1508 1740 1992 1994 2008 2076 2115 2123 2129 2137 2137 2139 2139 2128 2124 2128 2128
1352 1352 1352 1352 1352 1354 1355 1355 1356 1361 1362 1364 1364 1364 1366 1366 1368 1369 1370 1372 1373 1374 1374 1375 1376 1377 1377 1378 1380 1381 1381 1383 1384 1385 1385 1385 1386 1386 1386 1387 1389 1391 1391 1393 1395 1396 1398 1399 1401 1402 1403 1404 1406 1407 1408 1409 1411 1412 1413 1414 1416 1419 1421 1423 1424 1426 1427 1428 1431 1431 1433 1434 1437 1440 1442 1444 1445 1447 1448 1451 1453 1454 1456 1457 1459 1461 1463 1465 1468 1470 1472 1473 1474 1476 1479 1480 1483 1484 1487 1489 1492 1492 1494 1496 1499 1501 1504 1505 1508 1511 1514 1515 1516 1517 1519 1522 1524 1526 1529 1531 1534 1537 1537 1538 1538 1540 1541 1542 1542 1544 1545 1547 1549 1551 1554 1557 1561 1565 1568 1571 1574 1578 1581 1583 1583 1584 1587 1590 1593 1593 1594 1594 1594 1596 1598 1601 1605 1607 1610 1611 1611 1612 1615 1618 1620 1621 1622 1622 1627 1631 1636 1637 1640 1644 1649 1651 1654 1662 1673 1686 1697 1705 1714 1719 1727 1736 1738 1745 1759 1764 1764 1766 1767 1767 1771 1772 1772 1772 1774 1778 1782 1785 1791 1793 1795 1797 1797 1798 1800 1801 1802 1805 1808 1809 1812 1813 1814 1815 1820 1828 1829 1832 1841 1849 1866 1870 1870 1870 1869 1839 1831 1829 1823 1817 1817 1816 1815 1809 1798 1788 1783 1783 1782 1781 1781 1781 1780 1780 1778 1772 1768 1763 1760 1760 1760 1762 1762 1763 1763 1765 1765 1765 1763 1762 1762 1761 1760 1760 1760 1761 1761 1765 1768 1773 1784 1811 1857 1948 2043 2118 2154 2157 2161 2161 2161 2150 2144 2143 2136 2126 2107 2073 2059 2059 2059 2060 2088 2115 2134 2161 2197 2197 2197 2196 2178 2144 2094 2022 1937 1892 1878 1874 1869 1865 1859 1853 1844 1839 1833 1829 1826 1823 1823 1822 1822 1821 1818 1818 1818 1818 1810 1796 1783 1780 1779 1776 1765 1757 1749 1746 1743 1739 1734 1733 1729 1725 1723 1720 1716 1714 1712 1712 1709 1704 1704 1703 1702 1698 1691 1684 1681 1679 1679 1679 1679 1679 1679 1673 1665 1658 1655 1641 1628 1628 1626 1618 1612 1607 1603 1598 1595 1593 1590 1587 1584 1581 1579 1576 1573 1572 1570 1567 1566 1566 1566 1566 1566 1566 1564 1560 1555 1553 1550 1548 1545 1540 1534 1523 1514 1512 1511 1508 1501 1496 1486 1474 1472 1472 1471 1471 1467 1465 1461 1458 1454 1452 1450 1446 1443 1440 1436 1434 1430 1428 1428 1427 1426 1424 1423 1423 1423 1423 1427 1427 1427 1426 1423 1421 1421 1421 1428 1428 1428 1413 1400 1394 1388 1382 1377 1374 1374 1366 1351 1340 1336 1331 1323 1319 1315 1312 1309 1307 1303 1301 1299 1296 1293 1290 1288 1286 1284 1281 1279 1276 1272 1271 1269 1268 1266 1264 1262 1259 1258 1258 1258 1258 1258 1257 1256 1256 1256 1257 1261 1261 1261 1257 1250 1245 1241 1240 1240 1240 1239 1233 1228 1221 1218 1218 1215 1213 1213 1202 1196 1192 1188 1185 1182 1180 1178 1177 1174 1173 1172 1171 1170 1168 1167 1165 1164 1163 1160 1159 1156 1155 1155 1153 1151 1150 1148 1147 1145 1143 1141 1139 1138 1136 1134 1134 1133 1131 1130 1129 1127 1127 1125 1124 1122 1121 1120 1118 1117 1116 1115 1113 1112 1111 1110 1109 1107 1105 1105 1102 1101 1101 1099 1097 1093 1091 1084 1080 1080 1080 1084 1089 1090 1099 1099 1105 1113 1134 1168 1228 1344 1569 1899 1901 1982 2011 2019 2070 2098 2105 2113 2114 2114 2115 2115 2110
1358 1358 1358 1358 1357 1356 1356 1356 1358 1363 1365 1366 1366 1366 1368 1369 1370 1372 1373 1374 1375 1376 1376 1376 1377 1378 1378 1379 1380 1383 1383 1385 1387 1387 1388 1388 1388 1389 1390 1391 1392 1394 1395 1396 1398 1399 1399 1402 1403 1404 1405 1407 1408 1409 1411 1411 1413 1415 1415 1417 1419 1422 1424 1427 1428 1429 1431 1432 1433 1434 1436 1437 1440 1442 1444 1446 1448 1450 1451 1454 1456 1457 1459 1460 1463 1464 1466 1467 1470 1472 1475 1476 1478 1479 1481 1483 1486 1488 1491 1493 1494 1495 1497 1499 1502 1505 1507 1509 1512 1515 1517 1518 1519 1521 1523 1526 1529 1532 1534 1536 1538 1541 1542 1545 1546 1548 1548 1548 1548 1548 1550 1552 1557 1560 1562 1566 1570 1572 1576 1578 1580 1583 1586 1588 1589 1589 1592 1594 1596 1598 1598 1599 1599 1601 1604 1606 1609 1612 1612 1613 1614 1616 1618 1621 1623 1624 1625 1627 1630 1635 1637 1641 1642 1645 1650 1653 1654 1662 1673 1686 1697 1705 1714 1719 1727 1736 1738 1741 1747 1752 1755 1757 1760 1762 1764 1768 1771 1773 1774 1778 1782 1785 1791 1794 1798 1799 1800 1800 1801 1802 1804 1806 1817 1823 1823 1825 1825 1825 1830 1841 1859 1878 1898 1924 1946 1970 1978 1978 1978 1920 1883 1857 1847 1842 1840 1839 1832 1824 1814 1808 1808 1805 1801 1797 1788 1786 1786 1784 1783 1780 1774 1772 1770 1770 1769 1769 1768 1768 1768 1767 1766 1766 1765 1765 1765 1764 1762 1761 1761 1761 1761 1765 1768 1773 1784 1811 1857 1949 2052 2125 2173 2175 2175 2174 2174 2174 2174 2174 2176 2177 2177 2177 2180 2180 2181 2185 2189 2193 2196 2201 2211 2211 2211 2209 2198 2164 2129 2079 1972 1913 1887 1885 1876 1870 1866 1859 1850 1841 1836 1832 1829 1827 1827 1826 1824 1821 1821 1821 1820 1820 1812 1799 1787 1782 1781 1777 1766 1759 1755 1751 1748 1745 1738 1735 1732 1728 1725 1723 1720 1718 1714 1714 1712 1707 1705 1704 1702 1702 1696 1687 1683 1683 1683 1684 1684 1684 1684 1675 1672 1666 1657 1645 1643 1639 1634 1625 1616 1614 1607 1601 1597 1596 1593 1590 1587 1583 1581 1579 1576 1575 1571 1569 1568 1568 1568 1567 1567 1567 1565 1561 1556 1554 1550 1549 1546 1543 1541 1533 1522 1519 1519 1517 1507 1505 1495 1482 1478 1477 1475 1473 1470 1469 1465 1461 1457 1455 1452 1449 1446 1443 1439 1436 1433 1431 1430 1429 1428 1424 1424 1424 1424 1424 1426 1427 1427 1427 1424 1424 1424 1429 1429 1429 1428 1413 1400 1395 1389 1383 1378 1378 1374 1366 1357 1348 1340 1331 1326 1322 1319 1316 1312 1310 1307 1305 1302 1298 1296 1293 1291 1288 1285 1283 1280 1279 1276 1274 1272 1270 1268 1267 1264 1262 1258 1258 1258 1258 1258 1258 1256 1256 1256 1257 1261 1261 1261 1257 1250 1245 1245 1245 1248 1248 1248 1240 1229 1221 1221 1219 1218 1217 1213 1208 1198 1192 1189 1188 1185 1182 1180 1179 1177 1175 1174 1173 1171 1170 1169 1168 1166 1164 1162 1160 1159 1157 1156 1155 1153 1151 1151 1149 1147 1145 1143 1143 1141 1140 1138 1138 1137 1135 1133 1131 1131 1131 1129 1128 1127 1125 1123 1121 1120 1120 1118 1117 1116 1115 1113 1112 1110 1108 1107 1106 1105 1103 1101 1098 1094 1092 1085 1080 1080 1080 1076 1076 1073 1066 1061 1061 1061 1070 1094 1130 1177 1264 1465 1465 1713 1863 1918 1963 2047 2069 2087 2094 2096 2097 2096 2094
1370 1370 1364 1364 1364 1363 1362 1362 1362 1363 1366 1367 1368 1369 1370 1372 1373 1374 1376 1377 1377 1378 1378 1379 1379 1380 1381 1381 1383 1384 1386 1387 1389 1390 1392 1392 1392 1392 1393 1393 1394 1396 1397 1398 1399 1400 1402 1403 1405 1406 1408 1409 1411 1412 1413 1414 1416 1417 1418 1420 1422 1425 1429 1430 1431 1432 1434 1436 1437 1438 1439 1442 1443 1444 1446 1448 1450 1451 1453 1455 1457 1458 1460 1463 1465 1467 1468 1470 1471 1474 1476 1478 1481 1483 1484 1487 1488 1491 1492 1495 1497 1498 1500 1502 1506 1507 1510 1513 1516 1518 1520 1522 1524 1526 1527 1529 1531 1535 1537 1540 1541 1543 1544 1548 1550 1551 1551 1551 1552 1557 1558 1561 1564 1570 1573 1576 1577 1580 1580 1582 1585 1587 1589 1594 1595 1595 1596 1598 1601 1604 1604 1604 1605 1605 1607 1609 1612 1613 1615 1617 1618 1620 1622 1624 1626 1627 1627 1628 1631 1635 1638 1641 1643 1647 1651 1656 1662 1667 1675 1686 1697 1704 1710 1713 1722 1729 1732 1736 1744 1750 1754 1757 1760 1762 1764 1768 1771 1773 1774 1779 1783 1789 1794 1796 1799 1802 1803 1803 1804 1804 1809 1826 1847 1847 1847 1849 1849 1849 1885 1896 1916 1971 2038 2084 2224 2417 2475 2475 2475 2130 2027 1969 1951 1930 1915 1884 1851 1838 1830 1830 1830 1828 1826 1817 1803 1797 1795 1795 1795 1787 1781 1781 1781 1781 1781 1779 1778 1776 1775 1775 1775 1774 1772 1771 1771 1770 1769 1766 1766 1766 1769 1770 1771 1776 1800 1826 1869 1971 2072 2128 2180 2180 2180 2180 2180 2180 2180 2181 2185 2193 2199 2203 2204 2205 2207 2208 2209 2209 2210 2210 2211 2214 2214 2214 2214 2192 2162 2126 2042 1949 1908 1903 1888 1878 1868 1861 1853 1845 1838 1834 1833 1832 1831 1828 1826 1825 1825 1824 1824 1824 1812 1799 1790 1785 1784 1782 1772 1759 1755 1754 1754 1752 1745 1739 1735 1732 1729 1726 1723 1720 1718 1716 1714 1711 1708 1707 1706 1706 1699 1688 1688 1688 1691 1693 1693 1693 1687 1680 1673 1666 1661 1650 1643 1641 1636 1627 1620 1618 1610 1604 1601 1598 1595 1592 1590 1587 1584 1582 1580 1578 1575 1572 1569 1569 1569 1569 1569 1567 1565 1562 1556 1554 1550 1549 1549 1549 1547 1538 1526 1526 1526 1521 1521 1513 1499 1494 1486 1483 1481 1477 1474 1472 1468 1464 1461 1457 1455 1451 1448 1444 1441 1438 1434 1433 1432 1431 1430 1428 1425 1425 1425 1425 1425 1427 1427 1427 1424 1424 1424 1429 1429 1429 1428 1413 1402 1396 1390 1384 1379 1378 1374 1367 1358 1348 1343 1337 1333 1328 1322 1319 1315 1312 1309 1306 1304 1301 1299 1295 1293 1291 1288 1286 1284 1281 1279 1276 1275 1273 1270 1268 1267 1264 1262 1261 1261 1260 1259 1259 1251 1251 1251 1257 1261 1261 1261 1257 1250 1245 1245 1245 1248 1248 1248 1242 1233 1224 1221 1220 1219 1217 1213 1209 1203 1193 1190 1189 1187 1184 1182 1181 1180 1179 1177 1176 1174 1173 1172 1170 1168 1166 1164 1163 1160 1159 1158 1157 1155 1153 1152 1150 1148 1146 1145 1145 1145 1143 1142 1141 1140 1138 1137 1135 1134 1134 1133 1132 1130 1129 1127 1125 1124 1123 1122 1121 1119 1118 1116 1115 1113 1112 1111 1110 1109 1106 1103 1098 1094 1092 1087 1080 1076 1076 1071 1069 1063 1060 1059 1059 1059 1061 1065 1082 1107 1135 1136 1189 1343 1643 1847 1899 1964 2021 2051 2081 2081 2081 2080 2080
1382 1382 1376 1376 1376 1374 1370 1366 1366 1366 1367 1370 1370 1372 1373 1374 1375 1376 1377 1379 1379 1380 1381 1383 1383 1383 1383 1383 1386 1388 1389 1391 1392 1392 1393 1394 1395 1395 1395 1396 1397 1398 1399 1401 1403 1404 1405 1407 1408 1410 1410 1412 1414 1414 1415 1417 1420 1420 1421 1423 1427 1431 1433 1434 1435 1437 1437 1439 1440 1442 1443 1444 1445 1446 1449 1450 1451 1453 1455 1457 1460 1462 1463 1466 1468 1470 1471 1473 1473 1476 1479 1481 1484 1486 1488 1489 1491 1493 1495 1497 1498 1500 1502 1505 1508 1511 1513 1516 1520 1522 1524 1525 1527 1529 1531 1532 1534 1537 1540 1543 1544 1545 1547 1549 1551 1553 1553 1555 1559 1562 1564 1566 1569 1572 1576 1580 1582 1584 1585 1585 1588 1590 1591 1596 1599 1601 1602 1605 1607 1609 1609 1609 1610 1611 1613 1616 1617 1618 1620 1622 1623 1623 1625 1627 1628 1628 1629 1630 1633 1635 1638 1641 1644 1648 1652 1658 1664 1669 1675 1684 1693 1699 1704 1710 1717 1723 1731 1736 1744 1749 1753 1757 1760 1762 1764 1768 1771 1774 1776 1781 1786 1793 1799 1802 1804 1805 1807 1809 1815 1824 1836 1862 1885 1885 1885 1889 1890 1911 1958 1979 2053 2326 2532 2549 2764 2764 2767 2764 2757 2695 2426 2360 2269 2192 2111 2028 1938 1898 1864 1857 1854 1848 1843 1841 1827 1822 1821 1819 1819 1804 1792 1792 1790 1790 1790 1786 1784 1784 1784 1784 1783 1783 1782 1782 1782 1781 1781 1781 1781 1784 1791 1796 1801 1811 1832 1862 1930 2033 2077 2147 2189 2189 2189 2188 2184 2184 2184 2186 2188 2193 2199 2204 2205 2206 2207 2210 2210 2210 2211 2211 2212 2216 2216 2216 2215 2196 2176 2158 2087 2014 1945 1942 1899 1879 1868 1861 1856 1849 1843 1838 1837 1837 1833 1829 1827 1827 1827 1827 1827 1827 1823 1802 1792 1787 1785 1784 1776 1760 1755 1754 1754 1753 1752 1745 1739 1735 1733 1729 1727 1724 1722 1719 1717 1714 1711 1710 1708 1707 1702 1694 1694 1694 1697 1697 1697 1697 1691 1682 1675 1668 1662 1651 1645 1644 1640 1629 1626 1625 1615 1609 1604 1601 1598 1596 1593 1591 1587 1585 1584 1581 1579 1576 1573 1572 1571 1570 1570 1568 1567 1567 1560 1554 1554 1554 1551 1551 1551 1542 1529 1529 1527 1526 1526 1513 1500 1495 1494 1490 1484 1481 1477 1474 1471 1468 1464 1461 1458 1454 1451 1447 1444 1440 1436 1434 1433 1433 1431 1429 1426 1425 1425 1425 1425 1427 1427 1427 1423 1423 1423 1429 1429 1429 1421 1409 1402 1396 1391 1386 1383 1379 1374 1367 1360 1349 1346 1339 1334 1330 1327 1324 1320 1316 1312 1309 1305 1304 1301 1299 1295 1293 1291 1289 1286 1283 1281 1279 1278 1276 1273 1272 1270 1268 1264 1263 1263 1262 1260 1259 1255 1251 1250 1249 1249 1248 1246 1246 1244 1244 1244 1245 1248 1248 1248 1242 1233 1226 1221 1220 1220 1217 1211 1209 1206 1200 1197 1193 1190 1187 1185 1184 1183 1181 1179 1178 1177 1175 1174 1172 1171 1169 1167 1165 1163 1162 1160 1159 1157 1156 1154 1152 1150 1149 1148 1148 1148 1147 1146 1145 1143 1142 1140 1139 1138 1137 1136 1134 1132 1131 1130 1129 1127 1126 1125 1124 1124 1122 1121 1119 1116 1115 1115 1112 1110 1107 1103 1098 1094 1092 1088 1081 1077 1071 1067 1063 1058 1055 1055 1055 1058 1058 1059 1061 1069 1074 1076 1100 1186 1411 1764 1894 1930 1975 2029 2058 2060 2064 2064 2063
1383 1383 1386 1386 1386 1379 1372 1370 1370 1370 1371 1373 1374 1375 1376 1377 1377 1379 1380 1381 1381 1383 1384 1386 1387 1387 1387 1387 1388 1390 1391 1393 1394 1394 1395 1395 1397 1397 1400 1400 1400 1401 1401 1404 1407 1408 1409 1411 1413 1414 1414 1415 1417 1418 1419 1421 1423 1425 1426 1428 1432 1435 1438 1438 1439 1440 1441 1442 1443 1445 1446 1447 1448 1449 1451 1452 1453 1456 1457 1460 1462 1464 1466 1468 1470 1473 1474 1476 1476 1478 1481 1483 1486 1489 1491 1493 1494 1495 1497 1499 1501 1503 1505 1508 1511 1513 1516 1519 1522 1524 1526 1527 1529 1532 1533 1535 1537 1539 1543 1545 1546 1547 1549 1552 1556 1557 1558 1559 1563 1566 1567 1570 1574 1577 1582 1584 1585 1586 1587 1589 1591 1593 1596 1599 1603 1605 1608 1609 1610 1611 1612 1613 1614 1615 1617 1619 1620 1621 1623 1625 1626 1628 1628 1629 1630 1631 1631 1632 1634 1636 1639 1641 1644 1648 1654 1660 1666 1671 1675 1684 1693 1699 1704 1710 1717 1723 1731 1736 1744 1749 1753 1757 1761 1764 1768 1772 1775 1777 1779 1783 1789 1795 1804 1809 1813 1816 1819 1829 1840 1854 1872 1886 1902 1915 1920 1926 1936 2000 2073 2235 2553 2771 2818 2901 2981 3051 3065 3065 3065 2983 2972 2931 2844 2761 2739 2435 2127 2065 1975 1939 1926 1906 1887 1875 1875 1851 1850 1848 1848 1844 1828 1821 1821 1820 1811 1803 1803 1802 1800 1798 1796 1796 1796 1796 1798 1798 1798 1803 1808 1812 1814 1817 1826 1845 1882 1922 2005 2060 2082 2172 2193 2193 2193 2192 2190 2190 2190 2190 2191 2196 2200 2204 2205 2209 2210 2210 2211 2211 2211 2211 2212 2216 2216 2216 2215 2209 2181 2177 2136 2074 2061 1990 1920 1883 1868 1864 1860 1857 1851 1844 1840 1838 1835 1831 1829 1829 1829 1829 1827 1827 1827 1803 1794 1793 1792 1788 1782 1763 1762 1762 1758 1757 1755 1753 1746 1740 1735 1733 1730 1728 1725 1722 1720 1718 1715 1714 1710 1708 1706 1705 1703 1699 1699 1697 1697 1697 1691 1682 1675 1670 1662 1651 1651 1645 1642 1632 1630 1628 1622 1614 1608 1605 1601 1599 1597 1594 1591 1588 1587 1584 1582 1579 1577 1575 1572 1571 1571 1571 1571 1570 1569 1559 1559 1556 1556 1556 1554 1543 1534 1533 1528 1528 1527 1518 1506 1497 1495 1490 1485 1481 1478 1476 1475 1472 1468 1464 1461 1457 1454 1450 1447 1443 1440 1437 1435 1434 1432 1431 1427 1427 1426 1426 1427 1427 1427 1427 1422 1421 1421 1420 1419 1419 1413 1409 1402 1398 1392 1386 1383 1379 1374 1367 1360 1349 1346 1339 1335 1331 1328 1326 1321 1320 1316 1312 1309 1306 1304 1301 1298 1295 1294 1291 1289 1286 1283 1281 1280 1278 1276 1274 1272 1271 1268 1264 1264 1262 1262 1262 1257 1253 1250 1249 1249 1248 1246 1246 1244 1244 1244 1244 1245 1245 1244 1242 1233 1226 1220 1220 1220 1216 1211 1210 1206 1201 1201 1197 1192 1188 1188 1187 1186 1184 1182 1181 1179 1178 1176 1174 1173 1171 1170 1167 1166 1165 1163 1161 1160 1158 1156 1155 1153 1152 1151 1151 1150 1149 1149 1148 1146 1145 1143 1143 1141 1139 1138 1136 1135 1132 1132 1131 1130 1129 1128 1128 1128 1127 1124 1122 1120 1118 1117 1115 1111 1108 1103 1098 1094 1092 1088 1081 1073 1068 1064 1060 1054 1052 1052 1052 1054 1054 1057 1058 1060 1064 1066 1081 1150 1306 1586 1870 1928 1958 1991 2052 2052 2052 2052 2050
1384 1384 1386 1386 1386 1380 1374 1374 1374 1374 1374 1375 1377 1378 1378 1380 1381 1382 1383 1384 1386 1387 1388 1389 1390 1390 1390 1390 1392 1392 1394 1394 1396 1398 1399 1399 1399 1400 1401 1403 1403 1404 1405 1408 1411 1411 1413 1415 1416 1417 1418 1420 1421 1423 1426 1427 1429 1430 1432 1433 1437 1440 1441 1441 1442 1444 1444 1444 1446 1448 1448 1449 1449 1450 1452 1454 1456 1458 1460 1463 1465 1467 1469 1471 1474 1476 1477 1478 1479 1482 1485 1486 1489 1491 1493 1495 1496 1498 1500 1501 1504 1506 1508 1512 1514 1516 1519 1522 1524 1526 1528 1529 1532 1534 1537 1538 1540 1542 1544 1548 1549 1549 1552 1556 1558 1560 1562 1564 1567 1570 1572 1573 1577 1579 1584 1587 1588 1589 1590 1592 1594 1597 1600 1602 1606 1609 1610 1612 1612 1614 1614 1615 1617 1619 1620 1622 1623 1624 1626 1627 1629 1630 1630 1631 1632 1633 1633 1634 1635 1636 1639 1641 1644 1649 1657 1663 1668 1671 1675 1684 1693 1699 1704 1710 1717 1723 1731 1737 1744 1750 1754 1757 1763 1767 1771 1775 1780 1781 1782 1784 1790 1799 1810 1823 1830 1835 1840 1846 1863 1879 1908 1944 1984 2037 2051 2067 2136 2388 2601 2863 2903 3045 3104 3229 3229 3229 3229 3202 3172 3147 3123 3108 3070 3008 2875 2701 2366 2253 2170 2107 2076 2046 2001 1983 1926 1919 1876 1875 1875 1875 1882 1882 1882 1871 1868 1864 1864 1864 1862 1848 1838 1830 1830 1830 1834 1834 1836 1843 1854 1857 1861 1869 1883 1914 1973 2018 2048 2074 2158 2179 2195 2196 2196 2196 2196 2195 2195 2195 2195 2197 2206 2209 2212 2212 2213 2213 2214 2214 2215 2215 2215 2217 2217 2217 2215 2209 2193 2191 2179 2138 2121 2040 1958 1913 1893 1881 1872 1867 1860 1851 1845 1840 1837 1835 1832 1830 1830 1830 1829 1827 1827 1817 1811 1807 1800 1791 1783 1768 1763 1762 1759 1758 1757 1756 1750 1745 1740 1737 1734 1731 1728 1725 1722 1720 1718 1716 1715 1710 1707 1706 1704 1699 1699 1698 1697 1697 1691 1682 1675 1670 1663 1651 1651 1645 1642 1639 1635 1633 1627 1618 1612 1607 1605 1602 1600 1598 1595 1592 1591 1588 1585 1583 1580 1579 1577 1574 1573 1573 1573 1574 1574 1574 1569 1567 1562 1556 1554 1547 1544 1535 1533 1532 1525 1522 1506 1503 1500 1492 1486 1481 1479 1477 1477 1475 1472 1467 1463 1459 1456 1453 1450 1446 1443 1440 1438 1436 1434 1432 1430 1427 1427 1427 1427 1427 1427 1427 1421 1419 1419 1418 1418 1417 1412 1405 1402 1398 1392 1386 1383 1379 1374 1367 1364 1354 1346 1345 1339 1331 1329 1327 1324 1323 1319 1314 1311 1308 1306 1302 1300 1297 1295 1293 1292 1289 1286 1283 1281 1279 1278 1276 1275 1272 1268 1266 1266 1264 1264 1263 1259 1257 1252 1249 1249 1248 1246 1246 1244 1243 1242 1241 1238 1236 1235 1233 1232 1226 1222 1220 1218 1216 1211 1210 1209 1204 1202 1198 1194 1192 1190 1190 1188 1187 1185 1184 1182 1180 1178 1177 1175 1174 1171 1170 1168 1168 1167 1164 1163 1162 1159 1158 1156 1155 1154 1153 1152 1152 1150 1150 1148 1147 1146 1145 1143 1142 1141 1139 1136 1135 1135 1134 1133 1132 1132 1131 1131 1130 1128 1125 1121 1120 1120 1116 1112 1108 1103 1097 1093 1091 1087 1080 1072 1066 1063 1060 1053 1052 1052 1052 1054 1054 1056 1057 1057 1059 1060 1070 1110 1245 1447 1868 1918 1954 1982 2044 2044 2044 2043 2042
1385 1385 1386 1386 1386 1381 1378 1378 1378 1379 1379 1379 1380 1381 1381 1383 1384 1384 1386 1388 1389 1390 1391 1393 1393 1393 1393 1393 1395 1395 1396 1397 1398 1400 1401 1402 1403 1403 1404 1406 1406 1408 1410 1412 1415 1416 1417 1419 1420 1421 1422 1424 1426 1429 1432 1433 1434 1434 1437 1437 1440 1442 1444 1444 1445 1446 1447 1447 1447 1449 1450 1451 1451 1451 1454 1456 1458 1461 1462 1466 1467 1470 1472 1474 1477 1479 1481 1482 1484 1486 1488 1489 1491 1494 1496 1498 1499 1500 1503 1505 1507 1509 1512 1515 1517 1520 1524 1526 1528 1529 1530 1532 1534 1537 1538 1540 1543 1544 1547 1551 1552 1552 1555 1558 1561 1563 1565 1568 1571 1573 1575 1578 1579 1581 1585 1589 1591 1591 1593 1595 1596 1601 1605 1608 1611 1612 1614 1614 1616 1617 1619 1620 1620 1622 1623 1624 1626 1626 1628 1628 1629 1631 1631 1633 1633 1634 1635 1637 1637 1639 1641 1644 1648 1653 1658 1663 1668 1672 1677 1686 1695 1701 1709 1714 1720 1725 1732 1739 1746 1750 1754 1758 1764 1770 1774 1780 1785 1788 1789 1789 1795 1801 1819 1834 1841 1853 1863 1874 1899 1938 1993 2110 2308 2485 2534 2632 2765 2935 2967 3028 3203 3284 3295 3295 3295 3284 3273 3252 3229 3213 3204 3187 3170 3117 3005 2704 2430 2366 2308 2249 2219 2187 2132 2079 2046 1993 1991 1987 1983 1932 1913 1913 1907 1901 1901 1900 1898 1901 1904 1905 1906 1907 1907 1911 1912 1921 1927 1928 1930 1940 1958 1988 2000 2008 2017 2053 2090 2163 2184 2191 2195 2197 2197 2197 2197 2197 2198 2199 2201 2202 2206 2210 2212 2213 2214 2214 2216 2217 2218 2218 2218 2218 2217 2217 2215 2211 2199 2195 2187 2161 2152 2103 2040 1990 1936 1901 1887 1881 1870 1857 1847 1841 1838 1836 1835 1832 1832 1830 1829 1827 1827 1818 1811 1807 1803 1797 1789 1778 1766 1763 1761 1760 1760 1758 1754 1748 1745 1741 1738 1735 1732 1728 1725 1722 1720 1718 1716 1711 1708 1706 1705 1698 1697 1696 1695 1695 1692 1683 1677 1672 1671 1669 1662 1652 1647 1644 1639 1636 1628 1619 1615 1611 1607 1605 1604 1601 1599 1597 1594 1591 1588 1585 1583 1582 1581 1578 1574 1574 1574 1574 1574 1574 1569 1567 1562 1556 1554 1547 1544 1535 1532 1529 1525 1522 1513 1504 1501 1495 1488 1485 1483 1481 1480 1477 1474 1470 1466 1462 1459 1456 1453 1449 1446 1444 1441 1438 1437 1435 1432 1430 1427 1427 1427 1426 1426 1426 1421 1419 1418 1417 1417 1417 1411 1405 1402 1398 1392 1386 1383 1379 1374 1367 1366 1360 1354 1353 1350 1342 1334 1329 1327 1326 1322 1317 1314 1310 1308 1305 1302 1299 1298 1296 1294 1291 1287 1286 1284 1282 1280 1278 1277 1274 1271 1267 1267 1266 1266 1263 1262 1261 1258 1254 1252 1251 1251 1248 1244 1242 1242 1242 1238 1236 1234 1232 1230 1226 1222 1220 1218 1216 1213 1211 1209 1207 1202 1199 1195 1194 1194 1192 1190 1189 1188 1186 1185 1183 1181 1181 1178 1177 1175 1173 1172 1170 1169 1167 1166 1165 1163 1161 1160 1159 1157 1156 1155 1154 1153 1152 1150 1149 1148 1147 1146 1144 1143 1142 1139 1138 1137 1137 1137 1135 1135 1134 1133 1132 1131 1128 1126 1124 1123 1119 1114 1107 1101 1096 1092 1088 1082 1078 1071 1065 1059 1057 1050 1050 1050 1050 1054 1054 1054 1057 1055 1055 1057 1068 1101 1207 1410 1799 1912 1949 1971 2010 2037 2037 2037 2037
1387 1387 1386 1386 1386 1383 1381 1381 1381 1382 1382 1382 1383 1384 1384 1385 1386 1387 1389 1390 1391 1392 1393 1395 1395 1396 1396 1397 1397 1398 1400 1400 1402 1403 1404 1406 1406 1406 1408 1409 1411 1415 1418 1419 1420 1421 1421 1422 1422 1424 1426 1428 1430 1434 1436 1436 1438 1439 1440 1441 1443 1445 1446 1448 1448 1449 1449 1450 1450 1451 1452 1452 1453 1454 1456 1458 1461 1463 1466 1468 1471 1473 1474 1477 1479 1482 1483 1485 1487 1489 1491 1493 1495 1497 1498 1500 1503 1503 1505 1507 1509 1512 1515 1517 1520 1523 1527 1530 1531 1532 1533 1534 1537 1539 1541 1542 1545 1548 1550 1552 1553 1555 1557 1560 1564 1567 1568 1572 1574 1577 1579 1580 1582 1585 1588 1591 1594 1596 1596 1597 1599 1603 1607 1609 1611 1613 1616 1617 1618 1619 1621 1623 1623 1624 1625 1626 1627 1628 1630 1631 1632 1632 1634 1635 1635 1636 1637 1639 1640 1641 1644 1648 1653 1657 1660 1664 1669 1673 1681 1691 1703 1711 1716 1721 1727 1731 1738 1744 1748 1752 1754 1758 1765 1772 1777 1785 1790 1796 1797 1798 1814 1831 1839 1841 1857 1881 1912 1947 2007 2141 2248 2561 2731 2748 2836 3081 3132 3135 3168 3221 3294 3312 3312 3312 3308 3301 3296 3296 3296 3295 3295 3264 3219 3170 3030 2790 2438 2381 2340 2314 2295 2265 2200 2146 2126 2118 2105 2105 2105 2088 2064 2047 2033 2027 2020 2016 2007 2004 1990 1962 1943 1943 1943 1944 1945 1956 1959 1966 1976 1984 1993 2022 2050 2066 2077 2139 2181 2185 2191 2193 2197 2197 2197 2197 2197 2198 2200 2201 2202 2204 2207 2211 2213 2213 2214 2215 2216 2218 2219 2220 2220 2220 2220 2217 2215 2215 2203 2200 2198 2190 2189 2123 2080 2026 1976 1929 1895 1883 1873 1860 1849 1844 1840 1838 1837 1834 1832 1830 1829 1828 1827 1819 1812 1807 1803 1798 1790 1784 1778 1772 1766 1766 1764 1759 1755 1751 1748 1746 1741 1738 1736 1732 1729 1725 1723 1721 1717 1714 1710 1708 1705 1699 1697 1696 1695 1695 1692 1684 1678 1672 1672 1669 1665 1660 1652 1647 1644 1637 1629 1623 1621 1615 1612 1609 1606 1604 1602 1599 1598 1595 1591 1589 1586 1586 1584 1582 1578 1576 1575 1575 1575 1574 1569 1567 1559 1553 1548 1547 1544 1536 1532 1529 1525 1522 1513 1508 1505 1497 1495 1491 1489 1486 1484 1478 1475 1472 1469 1466 1462 1459 1456 1453 1450 1447 1444 1441 1439 1437 1435 1433 1430 1426 1426 1425 1425 1423 1421 1415 1411 1410 1410 1407 1403 1401 1400 1393 1388 1383 1381 1376 1373 1369 1366 1361 1359 1356 1354 1346 1340 1333 1329 1329 1326 1322 1318 1314 1310 1307 1305 1303 1301 1299 1297 1293 1290 1287 1286 1285 1282 1281 1279 1275 1273 1272 1269 1269 1266 1264 1262 1261 1259 1255 1252 1252 1251 1248 1244 1242 1240 1240 1238 1236 1234 1232 1230 1226 1222 1220 1218 1216 1214 1212 1209 1207 1203 1201 1199 1198 1196 1194 1193 1191 1190 1188 1187 1187 1185 1183 1181 1180 1178 1176 1174 1173 1171 1170 1169 1167 1166 1164 1163 1162 1161 1160 1159 1157 1156 1154 1153 1151 1150 1150 1148 1147 1146 1145 1143 1141 1140 1140 1139 1138 1138 1136 1135 1135 1133 1132 1130 1128 1126 1121 1114 1107 1099 1093 1089 1084 1078 1072 1068 1064 1059 1053 1050 1047 1047 1047 1053 1053 1053 1056 1055 1055 1056 1068 1099 1177 1334 1700 1884 1914 1948 1990 2028 2028 2028 2028
1387 1387 1386 1386 1386 1386 1386 1385 1385 1385 1385 1385 1386 1386 1387 1387 1388 1389 1390 1392 1392 1394 1395 1397 1398 1398 1400 1400 1402 1403 1403 1405 1406 1406 1407 1409 1411 1412 1412 1413 1417 1420 1422 1423 1423 1423 1424 1425 1425 1428 1430 1431 1433 1435 1438 1440 1441 1442 1444 1445 1447 1448 1449 1451 1452 1452 1453 1453 1453 1454 1455 1456 1456 1458 1459 1461 1464 1467 1469 1472 1473 1476 1478 1481 1483 1484 1486 1487 1490 1492 1494 1496 1498 1499 1500 1503 1505 1506 1507 1509 1512 1514 1516 1519 1522 1526 1529 1532 1534 1536 1537 1538 1540 1541 1543 1545 1547 1549 1552 1554 1557 1559 1561 1565 1568 1570 1573 1576 1578 1581 1582 1584 1585 1587 1591 1593 1597 1598 1599 1600 1602 1605 1607 1609 1611 1613 1616 1618 1619 1620 1622 1623 1624 1625 1626 1626 1627 1629 1631 1632 1634 1635 1636 1637 1637 1638 1640 1641 1641 1644 1648 1652 1657 1660 1661 1666 1673 1683 1693 1703 1709 1717 1722 1729 1735 1738 1745 1750 1755 1755 1756 1759 1767 1775 1780 1789 1797 1806 1815 1827 1844 1857 1864 1876 1908 1949 2013 2128 2434 2604 2855 2887 3041 3099 3355 3355 3355 3300 3300 3300 3318 3319 3319 3318 3316 3312 3312 3312 3314 3314 3314 3290 3234 3171 3046 2792 2453 2382 2341 2317 2305 2289 2208 2147 2143 2138 2133 2133 2125 2124 2117 2113 2113 2113 2114 2115 2115 2115 2115 2110 2088 2088 2088 2097 2097 2099 2100 2106 2113 2127 2134 2146 2157 2168 2174 2182 2186 2187 2192 2195 2197 2197 2198 2198 2198 2199 2200 2202 2203 2205 2208 2211 2213 2214 2215 2217 2217 2218 2220 2221 2221 2221 2220 2220 2220 2219 2211 2208 2208 2206 2205 2150 2112 2068 2009 1972 1921 1891 1880 1869 1857 1848 1845 1843 1838 1834 1834 1832 1829 1828 1828 1824 1817 1809 1804 1799 1791 1786 1783 1777 1768 1766 1765 1759 1757 1754 1750 1747 1744 1741 1738 1735 1732 1730 1727 1723 1721 1716 1712 1709 1705 1701 1698 1696 1695 1695 1692 1687 1682 1678 1675 1670 1666 1661 1657 1653 1646 1638 1632 1630 1626 1621 1617 1613 1611 1608 1606 1603 1600 1598 1595 1592 1590 1589 1587 1584 1581 1578 1575 1575 1572 1570 1567 1565 1559 1553 1548 1546 1544 1536 1532 1529 1526 1522 1515 1509 1505 1501 1499 1496 1493 1490 1486 1480 1477 1474 1471 1468 1465 1462 1459 1456 1453 1450 1446 1444 1442 1440 1438 1435 1432 1430 1426 1425 1425 1423 1420 1415 1411 1410 1410 1407 1403 1401 1397 1393 1388 1383 1380 1376 1373 1369 1368 1363 1362 1361 1360 1351 1343 1339 1334 1331 1328 1325 1321 1317 1313 1311 1309 1307 1304 1302 1299 1296 1293 1290 1289 1287 1285 1283 1280 1279 1276 1273 1272 1271 1268 1265 1263 1261 1260 1257 1254 1252 1250 1248 1246 1244 1242 1241 1238 1236 1235 1233 1230 1226 1224 1223 1219 1217 1215 1213 1211 1209 1206 1204 1202 1200 1198 1196 1194 1193 1192 1190 1190 1189 1187 1186 1184 1182 1180 1179 1177 1176 1174 1173 1172 1170 1168 1168 1167 1166 1165 1163 1162 1161 1159 1157 1156 1155 1153 1153 1151 1150 1149 1148 1146 1144 1143 1142 1142 1141 1140 1139 1138 1137 1136 1135 1132 1131 1128 1122 1114 1105 1096 1090 1087 1080 1075 1069 1065 1059 1055 1050 1047 1046 1046 1046 1052 1052 1052 1054 1054 1054 1055 1068 1098 1164 1320 1588 1842 1904 1942 1974 2004 2016 2016 2019
1389 1389 1389 1389 1389 1391 1391 1391 1390 1389 1389 1389 1389 1389 1390 1390 1391 1392 1392 1393 1395 1397 1398 1400 1400 1401 1403 1405 1407 1408 1409 1409 1410 1411 1411 1414 1414 1415 1416 1418 1421 1424 1425 1425 1425 1426 1427 1428 1429 1431 1433 1434 1435 1438 1440 1442 1444 1446 1448 1449 1450 1451 1452 1454 1455 1456 1456 1456 1457 1457 1458 1459 1459 1461 1463 1465 1468 1471 1474 1476 1478 1480 1483 1484 1486 1487 1489 1490 1492 1495 1497 1499 1501 1504 1505 1506 1507 1508 1509 1511 1513 1517 1519 1523 1525 1529 1533 1537 1540 1542 1542 1542 1543 1543 1545 1548 1550 1552 1554 1557 1560 1562 1566 1570 1571 1574 1575 1578 1582 1585 1587 1589 1589 1590 1592 1595 1599 1600 1602 1604 1605 1608 1608 1609 1611 1613 1616 1619 1620 1621 1622 1623 1624 1626 1626 1627 1627 1629 1631 1633 1634 1635 1637 1638 1638 1639 1641 1642 1643 1646 1651 1657 1662 1663 1664 1670 1681 1691 1699 1706 1713 1721 1727 1734 1742 1746 1751 1759 1765 1767 1769 1769 1774 1785 1791 1801 1813 1824 1843 1860 1874 1893 1916 1952 2036 2178 2402 2773 2856 2926 3173 3342 3406 3406 3406 3391 3372 3322 3322 3322 3328 3328 3328 3323 3321 3315 3315 3315 3316 3316 3316 3298 3249 3187 3062 2803 2453 2391 2346 2320 2306 2289 2211 2152 2147 2147 2141 2141 2133 2133 2133 2133 2136 2144 2144 2146 2147 2149 2149 2151 2152 2153 2154 2156 2159 2159 2160 2160 2162 2162 2165 2166 2170 2177 2181 2184 2187 2190 2192 2195 2197 2197 2197 2197 2198 2200 2201 2203 2204 2206 2208 2211 2213 2214 2216 2218 2218 2219 2221 2221 2221 2221 2220 2220 2220 2220 2220 2220 2220 2217 2214 2184 2170 2136 2065 2004 1971 1930 1894 1884 1870 1859 1855 1849 1846 1845 1841 1837 1834 1830 1828 1824 1820 1812 1805 1800 1794 1787 1783 1778 1772 1768 1768 1764 1761 1756 1752 1749 1747 1743 1740 1739 1736 1733 1730 1727 1723 1720 1715 1712 1709 1706 1702 1700 1699 1695 1692 1687 1684 1680 1676 1671 1668 1664 1659 1655 1647 1641 1636 1635 1630 1625 1621 1618 1614 1612 1608 1605 1604 1602 1599 1597 1594 1592 1588 1586 1582 1580 1578 1575 1572 1570 1566 1563 1559 1553 1548 1546 1544 1537 1532 1530 1528 1524 1520 1513 1509 1506 1503 1499 1497 1493 1488 1483 1479 1477 1474 1471 1467 1464 1462 1458 1455 1452 1450 1449 1446 1444 1441 1439 1435 1431 1427 1425 1425 1423 1420 1416 1412 1411 1410 1407 1403 1401 1397 1393 1388 1383 1380 1376 1373 1369 1368 1365 1364 1362 1361 1355 1345 1340 1336 1333 1330 1327 1323 1318 1316 1313 1311 1309 1307 1304 1301 1298 1296 1294 1291 1289 1287 1285 1282 1280 1277 1274 1273 1272 1269 1268 1267 1264 1262 1259 1257 1253 1250 1248 1246 1244 1243 1241 1238 1237 1236 1234 1231 1228 1227 1226 1223 1220 1217 1214 1212 1209 1207 1205 1204 1202 1200 1199 1197 1196 1194 1193 1192 1191 1190 1188 1186 1185 1183 1182 1181 1179 1178 1176 1174 1173 1172 1170 1169 1169 1167 1166 1165 1164 1162 1160 1159 1158 1156 1155 1155 1153 1152 1150 1149 1146 1146 1145 1144 1144 1143 1142 1141 1139 1138 1137 1133 1132 1130 1122 1114 1101 1095 1088 1083 1078 1072 1067 1061 1057 1052 1048 1045 1045 1045 1046 1046 1046 1047 1047 1047 1054 1055 1068 1098 1164 1320 1588 1841 1898 1940 1959 1984 2005 2009 2016
1392 1393 1393 1393 1393 1396 1396 1396 1394 1393 1391 1391 1391 1392 1393 1393 1394 1394 1395 1396 1399 1400 1403 1404 1404 1405 1407 1409 1411 1412 1413 1414 1414 1414 1415 1417 1418 1419 1419 1421 1425 1427 1427 1427 1427 1429 1430 1432 1434 1435 1436 1437 1439 1440 1443 1446 1448 1451 1453 1453 1454 1455 1457 1458 1459 1460 1460 1460 1460 1462 1463 1464 1464 1465 1467 1469 1472 1474 1477 1479 1481 1484 1486 1488 1490 1491 1492 1493 1496 1498 1500 1501 1505 1506 1507 1509 1510 1512 1512 1514 1518 1522 1526 1528 1530 1533 1538 1540 1544 1544 1544 1544 1544 1544 1546 1548 1551 1552 1555 1558 1562 1566 1569 1572 1577 1578 1580 1582 1585 1587 1589 1592 1593 1593 1596 1600 1603 1606 1608 1610 1610 1611 1612 1612 1612 1613 1617 1619 1621 1621 1623 1623 1625 1626 1627 1628 1628 1630 1631 1633 1635 1636 1637 1638 1638 1640 1642 1645 1646 1653 1659 1664 1669 1671 1674 1680 1687 1698 1709 1715 1721 1727 1733 1741 1749 1755 1760 1768 1774 1779 1779 1783 1792 1805 1811 1816 1825 1839 1853 1884 1920 1966 2047 2238 2620 2757 2814 2925 3197 3335 3418 3426 3426 3426 3420 3405 3378 3350 3343 3342 3340 3336 3336 3336 3333 3325 3325 3325 3319 3319 3318 3298 3264 3206 3065 2812 2456 2404 2361 2328 2307 2289 2213 2159 2156 2151 2148 2143 2140 2140 2139 2139 2140 2149 2150 2155 2155 2156 2157 2160 2165 2168 2171 2171 2171 2171 2171 2171 2171 2169 2171 2171 2180 2183 2186 2187 2187 2191 2192 2195 2196 2196 2196 2196 2198 2200 2201 2203 2205 2206 2209 2211 2213 2215 2218 2218 2219 2219 2221 2222 2222 2222 2221 2221 2221 2221 2221 2221 2224 2224 2224 2213 2192 2174 2120 2046 2004 1963 1915 1901 1893 1881 1864 1857 1852 1847 1843 1840 1835 1830 1830 1828 1821 1813 1806 1802 1798 1795 1787 1778 1774 1773 1773 1770 1766 1760 1756 1752 1750 1748 1744 1742 1739 1738 1734 1731 1727 1722 1718 1716 1712 1709 1707 1703 1700 1697 1693 1690 1685 1682 1677 1675 1672 1668 1661 1655 1650 1646 1642 1638 1632 1628 1625 1621 1619 1614 1611 1608 1606 1605 1603 1599 1597 1593 1592 1589 1585 1581 1578 1575 1572 1570 1566 1563 1559 1555 1550 1546 1544 1541 1538 1535 1532 1526 1522 1517 1513 1510 1507 1502 1499 1495 1491 1487 1482 1480 1477 1474 1470 1467 1464 1461 1457 1455 1454 1452 1450 1446 1443 1440 1436 1434 1430 1427 1425 1423 1420 1416 1414 1413 1411 1408 1406 1402 1397 1393 1388 1383 1381 1377 1374 1372 1371 1368 1366 1364 1360 1355 1348 1342 1339 1337 1333 1330 1326 1322 1318 1316 1314 1312 1310 1307 1305 1302 1300 1297 1294 1292 1289 1286 1283 1281 1279 1276 1275 1272 1270 1268 1267 1267 1264 1261 1257 1254 1250 1248 1246 1244 1243 1241 1238 1237 1236 1234 1231 1229 1227 1226 1224 1220 1217 1215 1213 1211 1209 1207 1206 1204 1202 1201 1199 1198 1197 1196 1194 1193 1192 1189 1188 1187 1186 1184 1183 1181 1180 1179 1177 1176 1174 1173 1172 1171 1169 1169 1167 1166 1165 1163 1162 1160 1159 1158 1157 1156 1154 1153 1151 1150 1149 1148 1147 1147 1145 1144 1142 1142 1140 1138 1134 1133 1130 1122 1113 1100 1093 1085 1081 1075 1069 1064 1057 1051 1048 1046 1045 1045 1045 1047 1047 1047 1047 1047 1048 1054 1055 1068 1098 1164 1318 1586 1840 1889 1939 1959 1969 2000 2007 2010
1396 1396 1396 1397 1398 1400 1400 1400 1398 1397 1395 1395 1395 1396 1396 1396 1398 1398 1399 1400 1402 1404 1407 1408 1410 1410 1411 1413 1414 1415 1416 1417 1417 1418 1419 1421 1422 1423 1423 1425 1428 1431 1431 1431 1431 1432 1434 1434 1437 1441 1442 1442 1444 1446 1447 1449 1452 1454 1456 1456 1457 1459 1460 1461 1462 1462 1463 1464 1465 1466 1467 1467 1467 1468 1471 1474 1476 1477 1480 1483 1485 1488 1488 1491 1492 1494 1496 1498 1500 1502 1504 1506 1508 1509 1511 1513 1516 1517 1517 1518 1522 1527 1530 1532 1533 1536 1540 1543 1546 1546 1546 1546 1549 1551 1551 1552 1552 1555 1557 1561 1565 1569 1573 1578 1582 1585 1586 1586 1587 1589 1591 1593 1596 1597 1600 1605 1608 1611 1612 1614 1614 1615 1617 1617 1618 1619 1623 1623 1623 1623 1623 1623 1626 1629 1631 1632 1633 1635 1636 1636 1636 1637 1637 1638 1638 1641 1645 1652 1656 1660 1665 1670 1672 1673 1678 1689 1703 1713 1720 1724 1728 1733 1744 1757 1764 1765 1768 1773 1779 1782 1789 1802 1813 1825 1831 1835 1856 1884 1909 1959 2081 2255 2454 2785 2858 3009 3243 3396 3442 3442 3442 3442 3439 3432 3426 3407 3381 3352 3350 3350 3348 3345 3345 3345 3341 3334 3331 3330 3328 3328 3320 3299 3266 3206 3065 2812 2459 2410 2370 2339 2318 2289 2213 2171 2164 2153 2148 2144 2144 2143 2142 2142 2142 2149 2152 2156 2160 2161 2161 2162 2166 2168 2172 2173 2173 2173 2173 2173 2173 2172 2173 2177 2183 2185 2185 2186 2187 2190 2192 2195 2196 2196 2196 2196 2199 2201 2202 2205 2206 2208 2209 2212 2214 2216 2218 2218 2219 2220 2221 2222 2222 2222 2221 2221 2221 2221 2222 2222 2230 2230 2230 2225 2214 2200 2175 2094 2040 1996 1944 1920 1908 1896 1882 1869 1859 1854 1849 1843 1838 1835 1833 1829 1822 1813 1807 1803 1802 1800 1792 1784 1782 1777 1776 1773 1769 1764 1760 1757 1755 1753 1749 1744 1742 1740 1738 1735 1731 1725 1720 1716 1713 1710 1707 1704 1700 1698 1696 1690 1687 1685 1682 1680 1675 1671 1664 1658 1653 1649 1644 1640 1635 1632 1628 1626 1621 1619 1613 1611 1609 1608 1606 1603 1599 1596 1594 1591 1587 1582 1579 1576 1573 1571 1566 1563 1560 1555 1551 1546 1545 1544 1541 1537 1534 1528 1524 1519 1516 1513 1510 1506 1503 1499 1494 1490 1485 1483 1481 1478 1474 1470 1467 1463 1461 1459 1456 1454 1453 1449 1446 1443 1439 1436 1433 1430 1427 1424 1421 1418 1416 1414 1411 1409 1406 1402 1399 1393 1389 1384 1381 1378 1377 1375 1372 1369 1366 1364 1361 1355 1349 1344 1342 1339 1336 1333 1328 1325 1322 1319 1317 1315 1313 1311 1309 1307 1303 1301 1297 1295 1292 1288 1285 1283 1281 1279 1277 1274 1272 1270 1269 1267 1266 1262 1259 1254 1252 1250 1247 1246 1244 1242 1240 1238 1236 1234 1232 1230 1228 1227 1225 1221 1219 1216 1214 1212 1210 1209 1207 1206 1204 1203 1202 1200 1198 1198 1196 1195 1194 1192 1191 1189 1189 1187 1186 1185 1182 1182 1180 1179 1177 1176 1175 1173 1172 1171 1169 1168 1167 1166 1165 1164 1162 1161 1159 1158 1157 1155 1153 1151 1151 1150 1149 1149 1148 1146 1145 1143 1142 1139 1138 1137 1130 1120 1109 1100 1091 1083 1079 1072 1066 1061 1055 1050 1047 1045 1045 1045 1045 1045 1045 1046 1046 1046 1052 1054 1055 1067 1108 1168 1313 1585 1825 1872 1940 1959 1964 1999 2000 2000
1399 1399 1402 1403 1403 1403 1403 1402 1401 1399 1398 1398 1398 1399 1400 1400 1400 1402 1403 1405 1406 1409 1411 1412 1414 1415 1416 1416 1417 1417 1418 1420 1422 1422 1423 1426 1426 1427 1428 1429 1431 1434 1435 1435 1436 1438 1439 1440 1442 1444 1447 1448 1450 1452 1452 1454 1455 1457 1459 1459 1460 1461 1462 1463 1464 1465 1466 1466 1468 1469 1470 1470 1471 1472 1474 1477 1479 1482 1483 1486 1487 1491 1492 1494 1495 1497 1498 1499 1500 1502 1505 1507 1509 1510 1513 1518 1519 1520 1522 1525 1527 1529 1532 1533 1536 1540 1544 1546 1547 1548 1550 1553 1554 1555 1556 1557 1558 1560 1563 1564 1568 1573 1576 1583 1588 1590 1590 1590 1590 1590 1591 1593 1598 1601 1607 1612 1614 1615 1616 1617 1620 1621 1621 1621 1622 1622 1625 1625 1625 1626 1626 1629 1633 1637 1640 1640 1642 1643 1643 1643 1639 1639 1639 1639 1643 1646 1654 1659 1662 1663 1665 1670 1672 1674 1682 1695 1710 1720 1726 1732 1740 1749 1762 1769 1770 1772 1775 1782 1787 1796 1812 1822 1826 1846 1862 1879 1918 1985 2104 2284 2593 2806 2861 3033 3194 3388 3449 3449 3449 3449 3447 3445 3444 3440 3434 3419 3388 3357 3354 3350 3349 3346 3346 3346 3341 3334 3331 3330 3330 3329 3320 3302 3269 3206 3065 2812 2459 2412 2374 2340 2318 2289 2220 2178 2164 2154 2148 2148 2147 2147 2147 2148 2148 2151 2154 2158 2160 2162 2164 2164 2166 2170 2173 2175 2176 2176 2176 2176 2176 2175 2177 2177 2183 2184 2185 2186 2187 2191 2193 2195 2196 2196 2196 2197 2199 2202 2204 2205 2207 2208 2211 2212 2215 2217 2219 2219 2219 2220 2221 2222 2222 2222 2221 2221 2221 2221 2224 2225 2232 2232 2232 2232 2225 2215 2198 2154 2079 2033 1985 1943 1919 1905 1888 1879 1871 1868 1866 1861 1852 1848 1847 1844 1837 1825 1819 1815 1810 1809 1803 1792 1787 1785 1782 1778 1774 1771 1768 1765 1761 1758 1753 1750 1746 1744 1742 1740 1735 1727 1723 1716 1713 1710 1708 1705 1701 1698 1696 1694 1690 1689 1685 1683 1679 1673 1667 1662 1656 1653 1647 1643 1639 1635 1634 1632 1629 1626 1619 1614 1613 1611 1610 1606 1604 1600 1597 1594 1589 1583 1580 1577 1577 1573 1570 1567 1562 1558 1552 1549 1547 1546 1543 1541 1536 1530 1526 1521 1519 1517 1515 1510 1509 1504 1499 1495 1489 1486 1484 1481 1478 1474 1471 1467 1465 1461 1458 1457 1454 1452 1448 1444 1440 1437 1433 1430 1428 1426 1422 1420 1417 1414 1411 1409 1406 1404 1399 1396 1391 1384 1381 1380 1377 1376 1373 1370 1367 1364 1361 1355 1350 1347 1344 1341 1339 1335 1331 1328 1325 1323 1320 1317 1315 1314 1312 1309 1307 1304 1300 1297 1293 1289 1287 1285 1282 1280 1278 1275 1273 1271 1270 1269 1267 1264 1260 1256 1253 1250 1249 1248 1246 1243 1242 1239 1237 1236 1234 1231 1230 1228 1225 1222 1220 1218 1216 1215 1212 1210 1209 1207 1206 1205 1203 1202 1201 1200 1198 1197 1196 1194 1193 1192 1190 1189 1187 1186 1186 1186 1184 1183 1180 1179 1177 1176 1175 1173 1172 1171 1170 1169 1168 1167 1165 1163 1162 1160 1159 1156 1155 1153 1153 1152 1152 1151 1149 1148 1147 1145 1144 1142 1142 1138 1128 1114 1106 1098 1090 1082 1077 1070 1064 1058 1053 1048 1044 1043 1043 1043 1045 1045 1045 1045 1045 1053 1053 1054 1055 1065 1108 1168 1306 1546 1802 1871 1939 1945 1959 1991 1991 1991
1403 1403 1407 1407 1407 1405 1404 1404 1403 1403 1401 1401 1401 1402 1403 1403 1404 1405 1408 1411 1413 1414 1416 1417 1419 1420 1420 1420 1420 1420 1420 1423 1426 1427 1428 1430 1432 1433 1433 1435 1438 1438 1440 1441 1441 1442 1443 1444 1446 1447 1449 1450 1453 1455 1456 1457 1460 1460 1461 1462 1463 1464 1464 1465 1466 1467 1468 1470 1472 1474 1474 1474 1474 1474 1477 1481 1483 1486 1489 1490 1494 1494 1496 1497 1497 1498 1498 1500 1502 1503 1506 1508 1509 1513 1515 1518 1520 1521 1524 1527 1530 1532 1535 1538 1541 1545 1548 1549 1551 1553 1556 1558 1560 1561 1562 1563 1565 1568 1571 1574 1575 1578 1582 1587 1592 1595 1595 1595 1595 1595 1595 1598 1604 1611 1613 1616 1620 1622 1622 1623 1625 1625 1625 1625 1629 1632 1632 1632 1632 1632 1634 1639 1643 1644 1645 1645 1646 1647 1650 1650 1650 1650 1650 1651 1653 1654 1657 1660 1666 1669 1672 1672 1676 1680 1688 1701 1714 1724 1734 1748 1763 1775 1781 1782 1783 1786 1788 1796 1807 1821 1838 1849 1858 1885 1937 2009 2137 2467 2670 2845 2873 3124 3258 3406 3450 3454 3454 3454 3454 3454 3455 3458 3458 3458 3454 3426 3388 3365 3357 3350 3349 3349 3346 3346 3341 3334 3331 3331 3330 3329 3322 3302 3268 3197 3044 2792 2459 2414 2374 2340 2318 2284 2235 2196 2165 2157 2150 2148 2148 2148 2148 2148 2152 2154 2156 2158 2160 2162 2164 2166 2166 2172 2175 2178 2178 2178 2177 2177 2177 2177 2177 2179 2184 2184 2185 2186 2187 2192 2194 2195 2196 2197 2197 2199 2200 2203 2205 2206 2208 2209 2211 2213 2215 2217 2219 2220 2221 2221 2221 2223 2224 2224 2224 2224 2224 2224 2226 2227 2233 2233 2233 2232 2231 2225 2217 2194 2129 2071 2022 1977 1939 1915 1895 1884 1877 1875 1875 1871 1866 1861 1860 1858 1849 1841 1836 1825 1821 1819 1814 1806 1799 1793 1788 1786 1786 1781 1776 1772 1767 1762 1758 1753 1748 1746 1744 1741 1738 1733 1724 1718 1713 1711 1708 1706 1704 1702 1701 1697 1695 1692 1689 1685 1681 1676 1668 1665 1662 1656 1652 1646 1642 1640 1638 1637 1636 1634 1629 1620 1617 1615 1613 1610 1607 1606 1603 1598 1592 1586 1582 1580 1579 1576 1573 1568 1564 1559 1557 1553 1549 1546 1544 1542 1538 1534 1529 1524 1523 1519 1518 1514 1512 1508 1503 1497 1494 1492 1488 1484 1480 1478 1475 1469 1466 1464 1462 1459 1457 1454 1450 1445 1442 1437 1434 1431 1430 1427 1424 1422 1419 1415 1413 1411 1408 1406 1402 1397 1394 1388 1384 1381 1380 1378 1374 1371 1368 1364 1361 1357 1352 1349 1347 1345 1342 1338 1334 1332 1328 1325 1323 1321 1319 1316 1312 1311 1310 1307 1303 1299 1295 1292 1290 1288 1284 1283 1279 1277 1273 1272 1272 1271 1269 1266 1262 1258 1255 1252 1251 1250 1248 1246 1244 1241 1238 1236 1234 1233 1232 1230 1227 1225 1221 1219 1217 1215 1213 1212 1210 1209 1207 1207 1205 1203 1202 1201 1201 1200 1198 1197 1196 1194 1192 1191 1190 1189 1189 1188 1187 1185 1182 1181 1179 1178 1177 1176 1175 1174 1173 1172 1171 1170 1167 1165 1164 1162 1161 1158 1157 1156 1155 1154 1153 1153 1152 1151 1150 1148 1146 1144 1144 1138 1125 1112 1105 1096 1089 1081 1076 1069 1061 1053 1049 1046 1042 1042 1042 1043 1043 1043 1044 1045 1047 1050 1050 1055 1055 1064 1108 1168 1298 1529 1791 1853 1933 1945 1950 1973 1978 1978
1405 1405 1408 1408 1408 1405 1405 1405 1405 1405 1404 1404 1404 1405 1406 1406 1406 1408 1411 1415 1419 1421 1421 1421 1422 1424 1424 1424 1424 1424 1424 1429 1432 1436 1437 1438 1438 1439 1441 1443 1444 1444 1445 1446 1446 1447 1448 1449 1450 1451 1452 1453 1454 1457 1458 1460 1464 1465 1466 1467 1467 1467 1469 1471 1471 1472 1473 1475 1478 1478 1478 1478 1478 1478 1483 1486 1488 1492 1495 1496 1496 1496 1497 1498 1500 1502 1502 1504 1506 1508 1510 1512 1515 1517 1519 1520 1521 1525 1526 1530 1533 1535 1538 1543 1547 1550 1553 1554 1556 1557 1561 1566 1568 1570 1571 1573 1578 1581 1581 1581 1584 1589 1596 1600 1605 1607 1609 1609 1609 1608 1608 1608 1612 1616 1620 1622 1628 1629 1631 1634 1636 1638 1639 1639 1640 1640 1640 1640 1640 1640 1640 1645 1650 1652 1652 1655 1656 1658 1659 1662 1664 1664 1664 1662 1662 1662 1665 1669 1676 1682 1686 1686 1688 1692 1701 1716 1732 1740 1748 1760 1772 1780 1784 1786 1792 1801 1817 1826 1828 1852 1889 1933 1970 2125 2319 2441 2665 2805 2879 3251 3347 3405 3446 3451 3457 3457 3457 3457 3457 3457 3461 3466 3466 3466 3454 3426 3388 3370 3353 3353 3352 3349 3346 3346 3338 3332 3329 3329 3328 3328 3322 3302 3266 3186 3020 2770 2455 2414 2374 2340 2318 2282 2237 2203 2173 2158 2154 2150 2150 2150 2150 2150 2154 2157 2157 2159 2161 2163 2165 2168 2170 2172 2175 2178 2178 2178 2178 2178 2178 2178 2178 2179 2184 2184 2185 2186 2187 2192 2194 2196 2197 2197 2199 2201 2203 2204 2205 2207 2209 2210 2212 2213 2215 2218 2220 2221 2221 2221 2223 2224 2225 2225 2225 2226 2226 2226 2227 2228 2233 2236 2237 2237 2236 2234 2232 2219 2170 2112 2058 2009 1966 1929 1908 1893 1885 1881 1881 1872 1871 1871 1867 1862 1858 1858 1855 1843 1835 1834 1824 1819 1815 1804 1793 1791 1791 1786 1782 1777 1772 1768 1763 1757 1751 1747 1746 1744 1741 1738 1730 1720 1716 1713 1710 1710 1709 1707 1705 1702 1700 1695 1690 1688 1684 1680 1674 1669 1665 1662 1659 1657 1651 1644 1643 1641 1640 1638 1635 1630 1624 1620 1616 1613 1610 1608 1606 1602 1597 1590 1586 1583 1582 1577 1574 1570 1566 1564 1561 1557 1552 1547 1545 1544 1542 1538 1533 1529 1525 1521 1520 1517 1515 1511 1507 1501 1498 1496 1492 1489 1485 1479 1477 1473 1470 1467 1465 1462 1459 1455 1451 1447 1444 1439 1436 1434 1432 1428 1425 1424 1422 1419 1415 1413 1411 1407 1403 1400 1395 1390 1387 1384 1382 1379 1376 1372 1368 1364 1361 1357 1353 1350 1348 1345 1344 1342 1338 1335 1332 1330 1327 1323 1321 1317 1314 1313 1312 1309 1304 1301 1298 1296 1293 1290 1287 1284 1281 1279 1275 1274 1273 1272 1269 1267 1263 1259 1257 1253 1252 1251 1249 1247 1245 1242 1240 1238 1235 1235 1233 1232 1229 1227 1224 1221 1218 1216 1214 1213 1212 1210 1209 1207 1206 1204 1203 1203 1203 1201 1201 1199 1198 1196 1195 1193 1192 1192 1191 1190 1190 1187 1186 1183 1181 1180 1179 1178 1178 1176 1176 1175 1174 1171 1170 1167 1165 1164 1162 1161 1159 1158 1157 1156 1155 1155 1154 1153 1152 1150 1150 1149 1147 1138 1125 1112 1103 1095 1086 1080 1075 1069 1058 1050 1048 1045 1042 1041 1041 1041 1041 1041 1041 1042 1047 1047 1047 1054 1054 1064 1106 1162 1283 1515 1776 1846 1920 1947 1950 1973 1978 1978
1406 1406 1410 1410 1410 1410 1410 1409 1409 1409 1409 1409 1408 1408 1408 1408 1408 1410 1413 1419 1422 1426 1426 1427 1427 1429 1429 1429 1429 1429 1429 1434 1440 1443 1443 1443 1444 1444 1447 1448 1449 1450 1450 1450 1451 1451 1452 1455 1456 1456 1457 1458 1458 1460 1461 1464 1467 1469 1470 1471 1471 1472 1474 1475 1477 1477 1478 1480 1481 1483 1483 1483 1483 1483 1483 1487 1491 1493 1498 1501 1501 1501 1501 1501 1506 1511 1511 1512 1513 1516 1519 1520 1522 1524 1524 1525 1525 1525 1530 1537 1541 1546 1549 1554 1555 1557 1557 1559 1562 1565 1568 1573 1576 1579 1582 1586 1589 1590 1591 1592 1598 1605 1612 1616 1616 1616 1618 1623 1625 1626 1627 1628 1630 1632 1636 1639 1640 1641 1641 1642 1645 1650 1651 1651 1652 1652 1654 1654 1654 1653 1653 1653 1658 1661 1662 1663 1665 1666 1668 1668 1671 1674 1674 1675 1675 1675 1679 1681 1689 1694 1698 1700 1702 1709 1721 1735 1752 1760 1766 1776 1791 1799 1809 1815 1828 1850 1892 1922 1950 2061 2255 2362 2705 2714 2801 2983 3093 3300 3335 3411 3443 3447 3448 3451 3457 3457 3457 3457 3457 3457 3461 3466 3466 3466 3454 3426 3387 3370 3353 3353 3352 3348 3346 3345 3337 3331 3329 3329 3328 3328 3322 3300 3266 3166 3007 2744 2455 2414 2374 2340 2318 2282 2241 2203 2179 2163 2157 2154 2152 2152 2152 2152 2155 2158 2159 2160 2162 2163 2167 2170 2171 2173 2176 2178 2178 2179 2179 2179 2179 2179 2179 2179 2185 2185 2186 2186 2190 2194 2195 2196 2198 2199 2200 2202 2203 2204 2206 2207 2209 2211 2213 2214 2216 2219 2221 2221 2221 2222 2223 2225 2225 2226 2227 2227 2227 2228 2228 2228 2233 2236 2237 2238 2238 2238 2237 2234 2202 2147 2102 2051 1999 1958 1931 1916 1902 1894 1889 1888 1883 1883 1880 1872 1871 1871 1865 1859 1853 1852 1843 1831 1827 1824 1817 1801 1796 1792 1788 1781 1774 1771 1769 1764 1756 1752 1749 1748 1746 1744 1738 1731 1725 1720 1719 1715 1714 1713 1710 1706 1701 1698 1692 1689 1687 1683 1678 1674 1670 1668 1664 1660 1654 1648 1646 1644 1643 1640 1636 1633 1629 1625 1621 1616 1612 1609 1607 1605 1601 1596 1589 1584 1582 1578 1574 1571 1569 1568 1565 1561 1556 1550 1548 1547 1544 1541 1536 1531 1527 1523 1521 1520 1518 1514 1511 1508 1503 1499 1497 1492 1488 1483 1480 1477 1473 1471 1468 1464 1459 1457 1452 1447 1444 1442 1439 1437 1434 1430 1429 1428 1426 1421 1417 1415 1413 1410 1405 1400 1396 1391 1387 1386 1384 1381 1377 1373 1369 1365 1361 1357 1354 1353 1350 1347 1346 1344 1341 1338 1335 1332 1328 1325 1323 1321 1318 1316 1314 1310 1307 1303 1300 1297 1295 1292 1288 1286 1282 1279 1276 1276 1276 1273 1269 1267 1264 1262 1258 1255 1254 1254 1252 1249 1246 1244 1241 1239 1238 1236 1235 1232 1230 1227 1224 1222 1220 1217 1215 1214 1213 1211 1210 1209 1208 1206 1205 1205 1204 1203 1202 1201 1200 1199 1197 1195 1194 1193 1193 1193 1192 1191 1188 1186 1184 1183 1181 1181 1179 1178 1178 1177 1175 1173 1172 1170 1168 1166 1165 1162 1161 1160 1160 1158 1158 1156 1156 1155 1153 1153 1151 1150 1148 1138 1123 1111 1101 1092 1084 1077 1072 1066 1057 1050 1047 1045 1042 1041 1041 1040 1040 1040 1040 1041 1047 1047 1047 1052 1052 1064 1106 1162 1258 1512 1760 1830 1899 1945 1950 1973 1977 1977
1407 1407 1411 1413 1413 1413 1415 1415 1415 1415 1415 1414 1413 1413 1413 1413 1414 1416 1417 1420 1426 1428 1429 1430 1430 1433 1435 1436 1437 1440 1444 1445 1449 1449 1450 1450 1450 1449 1450 1450 1450 1452 1454 1457 1457 1458 1461 1462 1463 1463 1463 1463 1463 1463 1466 1467 1470 1472 1473 1474 1475 1475 1475 1476 1479 1481 1482 1483 1485 1488 1488 1488 1488 1488 1488 1489 1494 1498 1500 1505 1510 1510 1511 1511 1511 1519 1520 1520 1520 1520 1520 1522 1524 1527 1531 1531 1531 1531 1534 1540 1549 1553 1556 1558 1559 1562 1565 1570 1572 1573 1575 1580 1585 1591 1596 1597 1599 1599 1600 1604 1607 1612 1618 1623 1624 1624 1627 1634 1643 1649 1651 1652 1653 1654 1654 1656 1658 1658 1658 1659 1659 1666 1676 1682 1684 1685 1685 1685 1674 1674 1674 1676 1676 1676 1676 1676 1675 1675 1676 1676 1677 1681 1683 1686 1689 1692 1694 1697 1700 1705 1711 1719 1726 1733 1741 1762 1781 1803 1826 1836 1857 1872 1890 1924 1969 2082 2299 2421 2571 2713 2713 2802 2947 2993 3063 3322 3414 3435 3436 3436 3448 3453 3453 3453 3457 3458 3458 3458 3459 3461 3461 3466 3466 3466 3454 3423 3381 3370 3358 3353 3351 3350 3347 3343 3336 3329 3329 3329 3328 3328 3317 3298 3257 3164 2999 2729 2455 2414 2374 2340 2318 2284 2248 2204 2179 2165 2157 2155 2154 2153 2153 2153 2156 2158 2160 2161 2163 2166 2168 2171 2172 2173 2176 2178 2179 2179 2180 2180 2180 2181 2182 2182 2185 2185 2186 2187 2191 2194 2195 2197 2198 2199 2200 2202 2203 2205 2206 2208 2209 2212 2213 2215 2218 2220 2221 2221 2221 2222 2224 2225 2226 2227 2227 2228 2228 2229 2230 2231 2233 2236 2236 2238 2238 2238 2237 2235 2213 2176 2145 2100 2053 2011 1988 1967 1964 1959 1952 1948 1944 1943 1934 1914 1904 1893 1885 1880 1873 1868 1863 1850 1840 1838 1835 1821 1809 1805 1799 1784 1780 1780 1778 1771 1763 1760 1758 1755 1753 1750 1745 1739 1734 1731 1728 1724 1720 1718 1715 1711 1704 1700 1693 1690 1688 1686 1682 1677 1674 1670 1669 1662 1654 1649 1648 1646 1646 1644 1639 1637 1634 1633 1627 1622 1616 1613 1610 1607 1604 1600 1592 1585 1582 1578 1576 1574 1572 1570 1569 1565 1558 1555 1553 1552 1548 1541 1536 1532 1528 1526 1526 1525 1523 1520 1516 1513 1509 1504 1498 1494 1491 1488 1483 1478 1475 1474 1470 1465 1461 1458 1453 1450 1447 1444 1442 1439 1436 1433 1431 1430 1428 1423 1419 1416 1414 1410 1405 1401 1397 1393 1390 1387 1384 1382 1378 1376 1372 1366 1362 1358 1354 1353 1352 1350 1348 1345 1342 1339 1337 1335 1333 1328 1325 1323 1321 1320 1315 1312 1308 1303 1302 1299 1296 1293 1289 1287 1283 1280 1278 1278 1278 1276 1272 1269 1267 1264 1260 1256 1255 1254 1252 1249 1246 1244 1243 1241 1238 1237 1236 1234 1232 1227 1226 1225 1222 1219 1217 1216 1215 1213 1212 1210 1208 1207 1206 1206 1205 1205 1204 1202 1202 1202 1200 1199 1197 1195 1195 1195 1194 1193 1192 1189 1187 1185 1183 1183 1182 1181 1181 1178 1177 1175 1173 1171 1169 1168 1166 1164 1163 1162 1160 1160 1159 1158 1158 1157 1155 1153 1153 1151 1148 1138 1121 1110 1099 1087 1079 1073 1069 1064 1055 1050 1047 1044 1042 1041 1041 1039 1039 1039 1039 1039 1045 1045 1045 1046 1046 1064 1106 1162 1252 1461 1710 1810 1868 1944 1945 1979 1979 1979
1412 1412 1415 1419 1420 1420 1423 1424 1424 1424 1420 1419 1419 1419 1420 1422 1423 1424 1426 1429 1431 1431 1433 1434 1436 1438 1442 1443 1444 1446 1450 1452 1457 1457 1457 1457 1456 1455 1455 1454 1454 1454 1457 1460 1461 1464 1465 1466 1466 1466 1466 1466 1466 1468 1468 1470 1471 1473 1476 1477 1477 1479 1479 1482 1485 1489 1491 1492 1493 1495 1496 1496 1496 1496 1496 1496 1497 1500 1505 1515 1518 1520 1524 1528 1528 1528 1528 1527 1527 1527 1526 1526 1526 1533 1541 1548 1550 1555 1561 1569 1573 1575 1577 1577 1577 1582 1582 1583 1583 1585 1590 1598 1603 1608 1608 1608 1607 1607 1607 1609 1615 1620 1630 1639 1642 1644 1649 1656 1664 1669 1671 1672 1674 1677 1679 1692 1696 1701 1708 1715 1725 1738 1754 1763 1769 1773 1773 1773 1769 1769 1765 1760 1752 1745 1730 1720 1716 1709 1704 1704 1704 1708 1708 1709 1709 1709 1720 1730 1737 1738 1739 1747 1764 1778 1789 1823 1850 1882 1923 2012 2199 2265 2280 2518 2626 2711 2773 2834 2843 2887 3039 3153 3389 3418 3442 3445 3448 3449 3449 3454 3454 3454 3449 3449 3449 3457 3462 3462 3463 3463 3463 3463 3463 3462 3452 3423 3381 3369 3358 3353 3350 3349 3347 3343 3336 3329 3329 3328 3328 3328 3315 3291 3245 3162 2991 2708 2457 2416 2374 2346 2331 2299 2248 2213 2181 2167 2157 2155 2154 2154 2154 2154 2158 2159 2161 2162 2164 2167 2168 2171 2172 2175 2176 2178 2179 2180 2181 2181 2181 2181 2182 2182 2185 2186 2186 2190 2192 2194 2195 2197 2198 2199 2201 2202 2204 2205 2207 2208 2210 2212 2214 2216 2218 2220 2221 2221 2222 2223 2224 2225 2227 2227 2227 2228 2229 2232 2232 2233 2234 2236 2238 2238 2239 2239 2239 2237 2232 2205 2186 2154 2118 2078 2056 2056 2056 2056 2056 2047 2029 2023 2023 2022 2022 2018 1996 1970 1934 1925 1911 1896 1881 1866 1851 1845 1842 1840 1831 1809 1801 1799 1799 1798 1787 1776 1771 1766 1761 1757 1753 1747 1747 1745 1745 1741 1732 1729 1724 1721 1715 1709 1703 1700 1696 1693 1688 1682 1681 1677 1672 1664 1656 1654 1654 1652 1650 1650 1648 1647 1647 1644 1636 1631 1625 1623 1619 1613 1609 1606 1599 1593 1586 1583 1580 1577 1576 1575 1575 1571 1565 1559 1559 1558 1553 1542 1537 1532 1529 1529 1528 1528 1528 1523 1520 1515 1511 1506 1503 1499 1494 1489 1486 1479 1477 1475 1472 1469 1462 1458 1454 1451 1448 1446 1443 1440 1437 1435 1434 1432 1429 1424 1419 1417 1415 1411 1406 1403 1399 1395 1390 1388 1384 1383 1381 1379 1377 1370 1364 1360 1357 1355 1354 1351 1348 1345 1342 1340 1339 1339 1335 1328 1328 1327 1325 1320 1316 1313 1309 1305 1303 1299 1297 1294 1291 1288 1285 1281 1281 1280 1279 1279 1274 1272 1270 1268 1266 1256 1255 1254 1252 1249 1246 1244 1243 1241 1238 1237 1237 1237 1234 1230 1228 1227 1225 1221 1218 1217 1216 1214 1213 1212 1210 1209 1208 1207 1206 1205 1205 1204 1204 1202 1202 1199 1199 1198 1198 1197 1196 1195 1192 1190 1190 1189 1188 1185 1183 1182 1182 1181 1178 1177 1175 1173 1172 1170 1168 1166 1165 1163 1162 1161 1160 1159 1158 1157 1156 1155 1153 1151 1148 1133 1120 1109 1095 1081 1076 1071 1067 1061 1054 1050 1047 1044 1042 1041 1040 1038 1038 1038 1039 1039 1041 1043 1046 1047 1049 1077 1106 1157 1250 1393 1602 1760 1827 1905 1944 1979 1982 1982
1422 1422 1422 1423 1429 1429 1429 1429 1427 1425 1425 1425 1426 1428 1430 1431 1434 1435 1437 1437 1437 1439 1439 1439 1444 1448 1450 1451 1451 1451 1454 1456 1461 1463 1463 1463 1462 1459 1458 1458 1458 1462 1462 1463 1464 1464 1465 1467 1469 1469 1469 1470 1471 1472 1475 1476 1478 1480 1480 1481 1481 1483 1488 1492 1496 1498 1500 1501 1503 1504 1504 1505 1505 1505 1505 1511 1515 1516 1517 1519 1521 1527 1533 1542 1542 1542 1541 1541 1541 1542 1545 1546 1548 1552 1559 1566 1571 1580 1585 1588 1594 1601 1606 1607 1607 1607 1605 1605 1605 1609 1615 1623 1631 1635 1635 1635 1634 1634 1634 1642 1651 1659 1661 1663 1670 1676 1686 1695 1703 1712 1713 1714 1724 1738 1765 1794 1807 1818 1831 1848 1890 1959 1990 2032 2069 2087 2099 2132 2132 2132 2110 2076 2043 1991 1913 1845 1818 1788 1757 1747 1746 1746 1740 1740 1740 1747 1762 1777 1793 1794 1794 1798 1819 1858 1902 2094 2215 2347 2527 2563 2638 2749 2815 2817 2823 3009 3142 3213 3358 3430 3462 3462 3462 3453 3453 3453 3459 3460 3460 3459 3458 3454 3449 3449 3449 3457 3462 3462 3463 3464 3464 3463 3463 3461 3447 3423 3381 3369 3358 3353 3352 3351 3348 3343 3336 3329 3329 3328 3328 3322 3309 3291 3239 3154 2974 2699 2461 2419 2386 2363 2349 2312 2264 2220 2181 2168 2159 2157 2156 2156 2156 2157 2158 2160 2162 2163 2166 2167 2169 2172 2173 2175 2177 2179 2179 2180 2181 2181 2182 2183 2183 2183 2185 2186 2187 2191 2192 2194 2195 2197 2199 2200 2201 2203 2205 2206 2208 2210 2211 2212 2214 2216 2218 2220 2221 2222 2223 2224 2225 2226 2227 2227 2227 2229 2231 2233 2234 2234 2235 2237 2238 2239 2241 2241 2241 2240 2237 2232 2214 2197 2172 2146 2121 2115 2112 2106 2106 2085 2085 2085 2083 2087 2089 2089 2100 2100 2100 2058 2037 2029 2006 1985 1946 1946 1946 1945 1934 1903 1893 1888 1885 1881 1868 1860 1853 1838 1826 1821 1821 1817 1806 1795 1784 1770 1764 1764 1764 1762 1762 1760 1750 1739 1720 1714 1714 1705 1693 1689 1682 1675 1673 1672 1670 1665 1665 1665 1668 1668 1668 1668 1657 1646 1636 1633 1631 1626 1622 1616 1610 1608 1601 1598 1595 1591 1586 1585 1585 1582 1576 1572 1568 1566 1561 1552 1539 1537 1533 1532 1532 1530 1530 1528 1523 1516 1513 1510 1507 1502 1496 1492 1487 1482 1478 1476 1475 1471 1468 1464 1459 1456 1455 1451 1448 1445 1439 1436 1435 1433 1429 1425 1423 1420 1417 1414 1410 1406 1403 1398 1396 1393 1390 1388 1388 1386 1382 1374 1368 1362 1358 1358 1354 1352 1348 1345 1342 1341 1340 1340 1337 1333 1331 1329 1326 1321 1316 1313 1311 1309 1307 1304 1302 1298 1294 1288 1285 1284 1283 1283 1281 1279 1275 1273 1272 1271 1266 1256 1255 1251 1250 1249 1246 1243 1243 1241 1238 1237 1237 1237 1236 1233 1230 1229 1228 1225 1221 1218 1217 1214 1213 1212 1210 1209 1208 1207 1206 1205 1205 1204 1204 1203 1202 1200 1199 1199 1199 1198 1197 1196 1192 1192 1192 1191 1191 1188 1184 1183 1182 1181 1180 1179 1177 1175 1173 1171 1170 1168 1167 1165 1163 1162 1160 1159 1159 1158 1157 1155 1153 1150 1147 1130 1118 1108 1090 1078 1073 1068 1064 1059 1052 1049 1047 1044 1041 1040 1040 1038 1038 1038 1039 1039 1040 1040 1043 1047 1049 1077 1106 1157 1226 1329 1581 1741 1774 1829 1932 1979 1983 1983
1429 1429 1429 1430 1431 1431 1432 1432 1432 1432 1431 1431 1431 1437 1439 1440 1442 1444 1446 1446 1446 1446 1446 1447 1452 1459 1460 1460 1462 1462 1462 1464 1465 1466 1466 1466 1464 1462 1462 1462 1464 1469 1469 1469 1469 1469 1469 1469 1469 1470 1473 1474 1475 1478 1481 1483 1484 1486 1488 1491 1494 1496 1498 1500 1502 1506 1508 1511 1513 1515 1517 1517 1518 1518 1522 1526 1526 1527 1527 1529 1531 1535 1540 1542 1545 1548 1552 1556 1563 1569 1579 1581 1581 1581 1581 1581 1584 1594 1600 1604 1606 1611 1615 1618 1623 1630 1638 1641 1642 1646 1647 1655 1674 1687 1687 1688 1690 1691 1699 1710 1724 1734 1735 1740 1760 1777 1796 1816 1832 1860 1887 1889 1925 2008 2085 2140 2231 2326 2398 2517 2637 2761 2865 2920 2965 2977 2977 2977 2967 2948 2945 2805 2710 2638 2608 2594 2333 2144 2033 1947 1909 1895 1876 1860 1851 1851 1851 1857 1891 1904 1921 2314 2339 2380 2524 2705 2706 2781 2846 2871 3017 3140 3224 3317 3419 3423 3436 3459 3471 3478 3478 3478 3473 3455 3455 3455 3467 3470 3470 3470 3463 3456 3449 3449 3449 3459 3462 3467 3467 3467 3467 3464 3460 3457 3447 3436 3381 3368 3361 3358 3354 3351 3348 3343 3336 3331 3329 3329 3328 3321 3308 3285 3239 3148 2961 2680 2462 2432 2402 2382 2371 2325 2272 2222 2180 2167 2159 2157 2157 2157 2158 2159 2160 2162 2163 2164 2166 2168 2170 2172 2174 2176 2178 2179 2180 2181 2181 2183 2184 2184 2185 2185 2185 2186 2188 2191 2194 2194 2196 2197 2199 2202 2203 2204 2205 2207 2209 2210 2212 2214 2215 2216 2218 2220 2221 2223 2224 2225 2225 2226 2227 2228 2228 2229 2231 2233 2235 2237 2238 2238 2240 2241 2244 2246 2246 2246 2244 2241 2236 2227 2227 2216 2215 2215 2187 2184 2184 2184 2210 2212 2212 2212 2204 2182 2182 2182 2198 2198 2198 2193 2181 2168 2161 2142 2134 2123 2081 2073 2072 2061 2052 2043 2031 2019 2013 1996 1983 1976 1969 1964 1952 1931 1908 1899 1897 1895 1895 1889 1878 1871 1867 1858 1852 1839 1828 1816 1801 1793 1782 1768 1761 1756 1753 1753 1753 1757 1761 1767 1767 1767 1763 1746 1721 1714 1714 1712 1703 1694 1686 1678 1671 1669 1665 1658 1648 1642 1641 1640 1638 1633 1615 1603 1594 1588 1576 1565 1562 1561 1561 1561 1555 1547 1524 1520 1516 1514 1513 1506 1501 1495 1489 1485 1481 1480 1478 1475 1471 1466 1466 1466 1464 1464 1458 1449 1444 1439 1438 1437 1434 1431 1428 1425 1421 1418 1414 1413 1411 1403 1399 1396 1396 1395 1393 1393 1386 1377 1370 1367 1363 1359 1356 1352 1350 1346 1342 1341 1341 1341 1341 1337 1335 1330 1326 1321 1316 1313 1311 1311 1309 1309 1306 1304 1298 1291 1288 1287 1286 1285 1283 1279 1276 1275 1275 1272 1266 1261 1255 1251 1248 1244 1244 1244 1242 1242 1242 1239 1238 1237 1237 1235 1232 1230 1229 1227 1223 1221 1217 1216 1213 1212 1211 1210 1208 1207 1206 1205 1205 1205 1204 1203 1202 1200 1200 1200 1199 1199 1197 1196 1195 1195 1195 1195 1195 1193 1190 1189 1185 1184 1182 1181 1180 1177 1175 1173 1171 1168 1167 1165 1163 1162 1161 1160 1160 1160 1157 1155 1153 1150 1142 1127 1117 1103 1086 1078 1071 1065 1062 1057 1051 1048 1046 1043 1040 1040 1039 1037 1037 1037 1038 1038 1038 1038 1038 1047 1049 1077 1102 1134 1191 1262 1368 1620 1726 1764 1855 1955 1983 1983
1430 1430 1432 1433 1433 1433 1433 1435 1436 1436 1437 1437 1437 1443 1445 1446 1446 1447 1450 1452 1452 1453 1454 1454 1458 1463 1466 1469 1473 1475 1475 1475 1475 1474 1473 1472 1471 1471 1471 1476 1482 1483 1483 1483 1479 1476 1476 1475 1475 1476 1477 1478 1480 1480 1484 1487 1489 1493 1503 1509 1513 1513 1515 1515 1519 1527 1529 1534 1534 1534 1532 1532 1532 1532 1532 1534 1537 1549 1550 1551 1554 1554 1560 1565 1565 1568 1569 1575 1583 1591 1599 1606 1608 1611 1611 1615 1618 1625 1631 1635 1636 1639 1648 1653 1658 1670 1691 1697 1700 1708 1715 1732 1750 1767 1778 1794 1816 1854 1872 1891 1918 1948 1950 1983 2042 2095 2131 2163 2229 2306 2354 2356 2480 2582 2688 2794 2889 2969 2969 2969 2988 2988 2988 3043 3067 3067 3070 3067 3067 3070 3086 3086 3086 3009 2913 2887 2833 2757 2687 2515 2427 2404 2381 2378 2370 2370 2370 2380 2755 2755 2755 2764 2902 2809 2902 2904 3050 3150 3303 3417 3427 3433 3441 3442 3442 3443 3454 3464 3471 3478 3478 3478 3473 3458 3458 3458 3473 3473 3473 3473 3465 3460 3455 3455 3455 3459 3461 3462 3471 3471 3471 3464 3457 3453 3448 3436 3381 3368 3361 3358 3354 3353 3350 3346 3337 3334 3332 3330 3328 3317 3307 3284 3236 3147 2955 2675 2469 2447 2439 2407 2389 2334 2274 2223 2181 2167 2164 2164 2162 2162 2163 2163 2163 2163 2164 2166 2167 2169 2171 2172 2174 2177 2179 2180 2181 2182 2183 2184 2185 2185 2185 2186 2186 2188 2189 2191 2194 2196 2197 2199 2201 2203 2205 2206 2207 2207 2209 2210 2212 2214 2216 2217 2219 2221 2222 2223 2224 2225 2226 2227 2228 2229 2229 2231 2232 2233 2235 2239 2239 2239 2241 2242 2244 2247 2247 2247 2247 2247 2246 2247 2247 2247 2248 2250 2250 2250 2246 2246 2246 2247 2249 2252 2252 2252 2247 2246 2242 2242 2235 2233 2231 2231 2231 2233 2241 2247 2247 2244 2244 2216 2211 2211 2211 2209 2198 2189 2176 2176 2174 2172 2172 2163 2141 2134 2134 2133 2123 2102 2090 2090 2083 2077 2076 2049 2044 2036 2008 1997 1991 1981 1972 1972 1972 1976 1986 1992 1997 2001 2001 2001 1995 1977 1959 1940 1930 1923 1913 1899 1874 1867 1863 1861 1861 1856 1850 1847 1840 1840 1839 1829 1802 1782 1765 1746 1734 1708 1708 1708 1708 1708 1559 1551 1544 1538 1535 1534 1534 1533 1533 1532 1531 1528 1527 1525 1523 1514 1498 1496 1496 1495 1495 1494 1486 1479 1466 1454 1450 1450 1450 1450 1446 1438 1432 1428 1424 1424 1420 1415 1411 1409 1405 1403 1403 1401 1393 1383 1376 1372 1368 1364 1360 1353 1350 1347 1345 1345 1344 1344 1344 1342 1341 1337 1328 1324 1318 1314 1313 1311 1310 1310 1308 1307 1301 1294 1289 1288 1288 1285 1283 1280 1276 1275 1275 1274 1268 1261 1255 1251 1248 1244 1244 1244 1244 1244 1244 1240 1240 1240 1237 1236 1233 1231 1230 1228 1223 1221 1219 1216 1213 1212 1211 1210 1208 1208 1206 1205 1205 1204 1204 1204 1202 1202 1202 1202 1204 1204 1204 1201 1197 1197 1197 1196 1196 1194 1192 1191 1189 1187 1184 1181 1180 1178 1175 1173 1171 1169 1167 1165 1165 1163 1162 1160 1160 1160 1158 1156 1152 1149 1137 1126 1115 1100 1086 1077 1071 1065 1061 1056 1051 1046 1043 1043 1040 1038 1037 1035 1035 1035 1035 1035 1035 1036 1036 1039 1039 1060 1079 1100 1135 1184 1261 1404 1598 1736 1783 1878 1964 1979
1439 1439 1439 1440 1440 1439 1439 1439 1439 1440 1443 1444 1446 1450 1450 1452 1452 1452 1454 1458 1458 1458 1459 1459 1461 1464 1469 1471 1477 1478 1480 1480 1480 1480 1480 1483 1485 1485 1486 1490 1495 1495 1495 1492 1492 1492 1492 1493 1494 1494 1494 1494 1495 1495 1500 1504 1506 1508 1512 1517 1522 1523 1526 1528 1532 1539 1541 1547 1552 1553 1553 1553 1554 1555 1555 1555 1555 1564 1582 1586 1586 1594 1598 1604 1607 1607 1610 1618 1627 1628 1629 1634 1636 1649 1667 1692 1708 1722 1735 1736 1739 1746 1756 1777 1806 1817 1836 1877 1903 1918 1955 2006 2056 2092 2124 2158 2226 2285 2305 2330 2393 2461 2508 2534 2569 2722 2769 2795 2803 2870 2875 2877 2919 2959 2962 2969 2977 2996 2996 2996 2994 2994 2994 3043 3067 3067 3070 3067 3067 3070 3086 3093 3100 3102 3106 3106 3114 3106 3106 3082 3000 2937 2936 2936 2936 2966 3043 3043 3094 3104 3141 3177 3238 3278 3340 3382 3384 3393 3393 3417 3427 3433 3442 3443 3444 3444 3454 3464 3471 3478 3478 3478 3473 3462 3462 3462 3473 3476 3476 3476 3465 3463 3460 3460 3460 3460 3461 3462 3472 3472 3472 3465 3457 3453 3452 3436 3381 3364 3361 3361 3361 3358 3358 3348 3340 3336 3335 3331 3328 3317 3307 3278 3236 3130 2941 2672 2479 2462 2457 2453 2405 2334 2274 2223 2183 2167 2165 2164 2164 2164 2164 2164 2164 2164 2165 2167 2168 2169 2171 2172 2175 2177 2179 2180 2181 2182 2183 2184 2186 2187 2187 2188 2189 2192 2192 2193 2194 2198 2199 2200 2202 2204 2205 2207 2208 2209 2209 2211 2212 2215 2216 2218 2220 2222 2222 2224 2225 2226 2226 2227 2228 2229 2230 2232 2233 2234 2236 2239 2240 2241 2242 2243 2244 2247 2248 2248 2250 2250 2253 2253 2253 2252 2252 2252 2253 2255 2257 2258 2260 2264 2272 2272 2272 2272 2266 2266 2266 2266 2263 2261 2260 2260 2260 2270 2271 2271 2271 2273 2282 2283 2283 2283 2285 2291 2291 2291 2289 2289 2289 2291 2291 2291 2281 2280 2279 2271 2271 2271 2270 2262 2261 2256 2254 2248 2248 2246 2248 2248 2248 2250 2250 2258 2254 2250 2247 2249 2247 2245 2245 2244 2237 2229 2220 2210 2210 2206 2205 2204 2173 2161 2161 2161 2161 2161 2161 2147 2135 2135 2133 2132 2129 2105 2074 2058 2040 2015 2007 2005 2004 1718 1711 1699 1683 1679 1673 1655 1655 1655 1669 1698 1707 1708 1708 1708 1700 1690 1670 1662 1661 1657 1649 1643 1636 1633 1617 1605 1594 1581 1575 1565 1556 1545 1533 1526 1520 1511 1499 1483 1483 1483 1483 1483 1483 1475 1465 1458 1455 1450 1443 1433 1422 1409 1398 1385 1378 1378 1378 1379 1379 1379 1374 1370 1365 1360 1355 1351 1350 1350 1350 1350 1349 1339 1324 1319 1317 1314 1308 1308 1303 1299 1294 1293 1292 1292 1289 1280 1262 1251 1248 1244 1244 1244 1248 1255 1255 1255 1255 1255 1254 1252 1245 1236 1231 1230 1227 1222 1220 1216 1215 1213 1213 1211 1208 1208 1206 1205 1205 1205 1205 1208 1208 1209 1211 1226 1237 1237 1237 1228 1213 1208 1208 1207 1207 1202 1194 1191 1189 1187 1184 1181 1180 1178 1175 1174 1171 1169 1167 1165 1165 1164 1162 1160 1160 1160 1158 1156 1152 1143 1133 1121 1110 1096 1085 1077 1070 1064 1059 1053 1049 1044 1043 1041 1039 1037 1036 1034 1034 1034 1033 1033 1032 1030 1030 1030 1036 1054 1071 1075 1105 1123 1165 1281 1453 1701 1769 1845 1931 1969
1448 1448 1448 1449 1449 1448 1448 1449 1449 1449 1449 1450 1450 1453 1454 1455 1457 1459 1462 1464 1464 1464 1464 1464 1464 1467 1470 1476 1477 1482 1483 1483 1482 1484 1484 1485 1492 1500 1504 1505 1506 1506 1506 1505 1502 1502 1502 1504 1509 1514 1517 1517 1517 1520 1520 1520 1522 1522 1527 1527 1528 1528 1529 1535 1543 1552 1558 1560 1563 1564 1566 1566 1573 1578 1580 1581 1584 1587 1608 1627 1645 1657 1663 1666 1673 1684 1701 1719 1738 1748 1755 1782 1783 1801 1821 1863 1904 1945 2000 2030 2045 2067 2083 2146 2229 2259 2291 2342 2382 2451 2561 2601 2653 2689 2700 2714 2737 2785 2822 2826 2829 2834 2850 2861 2863 2890 2900 2909 2912 2913 2925 2928 2942 2959 2962 2969 2977 2998 2998 2998 2996 2996 2996 3043 3067 3067 3070 3067 3067 3070 3086 3093 3100 3102 3106 3106 3114 3106 3106 3082 3034 3034 3034 3039 3041 3042 3043 3064 3102 3104 3141 3177 3238 3278 3340 3382 3384 3393 3393 3417 3427 3433 3442 3443 3444 3444 3454 3464 3467 3467 3467 3466 3461 3461 3462 3462 3473 3473 3474 3474 3473 3472 3468 3465 3463 3462 3462 3462 3472 3472 3472 3467 3457 3453 3452 3436 3362 3358 3358 3358 3358 3358 3358 3349 3341 3336 3335 3331 3328 3317 3302 3272 3221 3110 2924 2665 2503 2481 2475 2471 2409 2334 2274 2223 2180 2167 2165 2165 2164 2164 2164 2164 2164 2165 2165 2167 2168 2169 2171 2172 2175 2177 2179 2180 2181 2182 2184 2186 2188 2188 2188 2188 2191 2193 2195 2196 2197 2198 2199 2201 2203 2204 2206 2207 2208 2210 2211 2211 2213 2215 2217 2219 2220 2222 2222 2224 2225 2226 2226 2228 2228 2229 2230 2232 2233 2235 2237 2239 2240 2242 2243 2243 2245 2247 2250 2250 2251 2252 2256 2257 2257 2257 2254 2254 2254 2257 2259 2263 2266 2273 2280 2280 2280 2280 2278 2278 2278 2280 2280 2281 2281 2281 2282 2282 2283 2283 2283 2286 2288 2289 2289 2290 2292 2297 2299 2299 2299 2299 2299 2299 2299 2302 2302 2302 2302 2302 2302 2302 2302 2304 2304 2304 2304 2304 2305 2308 2311 2315 2315 2315 2305 2305 2305 2332 2341 2341 2341 2333 2327 2327 2327 2332 2332 2332 2334 2332 2330 2332 2332 2332 2339 2339 2339 2340 2340 2340 2343 2343 2343 2341 2338 2334 2330 2328 2325 2325 2322 2321 2013 2012 2011 2011 2003 1998 1983 1983 1983 1989 2020 2046 2047 2057 2057 2057 2047 2026 2006 2004 1999 1987 1978 1974 1974 1965 1961 1947 1937 1916 1890 1871 1862 1853 1836 1830 1823 1823 1804 1759 1759 1759 1762 1802 1802 1802 1796 1790 1789 1779 1763 1750 1690 1606 1538 1519 1506 1506 1506 1520 1533 1544 1545 1549 1552 1555 1555 1555 1554 1553 1553 1553 1553 1537 1512 1504 1483 1466 1463 1461 1447 1419 1419 1419 1420 1420 1420 1409 1395 1367 1355 1355 1355 1363 1372 1375 1377 1377 1377 1354 1341 1321 1291 1257 1245 1236 1233 1226 1220 1216 1215 1214 1213 1212 1211 1209 1208 1206 1205 1205 1205 1212 1217 1221 1239 1273 1346 1346 1346 1311 1273 1248 1235 1221 1209 1202 1197 1193 1189 1187 1185 1182 1180 1178 1176 1174 1172 1170 1168 1165 1165 1164 1162 1160 1158 1157 1156 1154 1151 1142 1131 1118 1105 1092 1082 1075 1068 1062 1056 1052 1048 1044 1042 1040 1038 1037 1035 1033 1033 1032 1032 1031 1030 1030 1030 1030 1035 1048 1059 1065 1091 1111 1133 1200 1346 1603 1762 1830 1891 1927
1462 1462 1461 1461 1457 1457 1457 1458 1460 1460 1460 1455 1455 1455 1455 1458 1464 1466 1468 1468 1468 1468 1468 1468 1471 1475 1480 1484 1487 1487 1490 1492 1493 1493 1494 1494 1494 1501 1505 1509 1514 1517 1519 1521 1523 1524 1528 1531 1535 1535 1536 1536 1537 1537 1538 1538 1538 1541 1546 1550 1551 1552 1554 1556 1567 1579 1590 1592 1594 1594 1595 1595 1604 1609 1620 1628 1631 1641 1661 1692 1732 1774 1797 1816 1859 1919 1956 1997 2039 2063 2085 2112 2114 2186 2256 2289 2346 2403 2482 2566 2624 2647 2648 2653 2663 2694 2732 2771 2786 2786 2786 2787 2787 2809 2811 2813 2823 2852 2868 2875 2885 2893 2897 2898 2902 2904 2914 2919 2920 2927 2937 2940 2942 2959 2962 2969 2977 2998 2998 2998 2996 2988 2973 2973 2973 2989 2995 2999 3002 3002 3010 3033 3057 3100 3102 3106 3114 3106 3106 3082 3039 3039 3039 3039 3041 3042 3043 3064 3102 3104 3141 3177 3238 3278 3340 3382 3384 3384 3384 3384 3396 3412 3429 3438 3444 3444 3450 3459 3459 3459 3448 3448 3448 3452 3461 3462 3468 3469 3470 3472 3472 3470 3468 3465 3463 3462 3462 3462 3472 3472 3472 3470 3461 3455 3454 3435 3359 3349 3349 3349 3358 3358 3358 3349 3341 3336 3335 3331 3328 3316 3296 3272 3209 3086 2907 2657 2513 2500 2496 2478 2412 2334 2273 2223 2180 2166 2165 2165 2164 2164 2164 2164 2164 2165 2165 2167 2168 2169 2171 2173 2175 2176 2178 2179 2181 2182 2185 2187 2188 2190 2191 2192 2194 2195 2195 2196 2197 2199 2200 2201 2203 2205 2206 2207 2208 2210 2211 2212 2214 2216 2217 2219 2221 2222 2223 2224 2226 2227 2227 2228 2228 2229 2230 2232 2233 2235 2237 2239 2240 2242 2243 2243 2245 2247 2250 2251 2252 2254 2257 2259 2259 2259 2256 2256 2256 2259 2262 2266 2270 2276 2280 2280 2282 2282 2283 2283 2284 2290 2290 2290 2290 2290 2289 2289 2290 2290 2292 2293 2294 2295 2295 2296 2298 2303 2306 2306 2306 2306 2307 2307 2310 2311 2311 2311 2308 2307 2307 2307 2309 2316 2318 2317 2317 2319 2329 2336 2337 2339 2339 2339 2339 2339 2339 2346 2351 2351 2351 2351 2351 2351 2354 2354 2354 2356 2358 2358 2356 2352 2350 2350 2350 2350 2347 2352 2352 2352 2356 2356 2356 2351 2347 2345 2345 2345 2345 2345 2345 2328 2327 2324 2324 2316 2316 2315 2315 2315 2317 2317 2319 2328 2355 2366 2366 2366 2360 2354 2352 2338 2327 2323 2322 2320 2320 2316 2311 2300 2294 2287 2278 2273 2273 2273 2272 2272 2280 2272 2272 2292 2308 2398 2535 2535 2535 2526 2524 2522 2521 2508 2491 2433 2360 2268 2042 1910 1910 1910 1926 1961 1989 2018 2020 2029 2035 2039 2039 2039 2032 2032 2031 2028 2019 2003 1975 1953 1928 1859 1816 1810 1804 1801 1784 1774 1774 1773 1761 1758 1721 1696 1685 1678 1678 1678 1685 1706 1723 1723 1723 1680 1608 1445 1343 1297 1269 1256 1247 1238 1230 1223 1222 1218 1214 1212 1211 1210 1208 1207 1207 1207 1208 1212 1217 1224 1239 1273 1346 1394 1394 1394 1315 1272 1250 1225 1209 1202 1198 1193 1191 1188 1185 1182 1180 1178 1177 1175 1172 1170 1168 1165 1165 1164 1162 1159 1158 1157 1156 1154 1149 1142 1129 1114 1100 1088 1078 1071 1064 1060 1054 1052 1048 1043 1041 1039 1037 1036 1034 1033 1032 1031 1030 1029 1029 1029 1029 1030 1035 1039 1040 1049 1079 1092 1103 1138 1234 1424 1688 1827 1875 1904
1466 1466 1461 1461 1461 1461 1462 1464 1464 1464 1460 1459 1459 1459 1462 1471 1472 1474 1475 1475 1475 1474 1474 1474 1482 1492 1492 1492 1496 1496 1496 1499 1502 1504 1504 1504 1504 1505 1513 1519 1524 1530 1534 1538 1542 1545 1548 1550 1552 1553 1553 1557 1564 1569 1569 1569 1565 1565 1565 1581 1594 1594 1594 1594 1594 1594 1605 1606 1616 1616 1616 1616 1616 1618 1620 1656 1706 1707 1729 1769 1831 1943 2025 2121 2320 2413 2482 2530 2551 2551 2551 2557 2557 2588 2653 2672 2694 2712 2719 2725 2731 2733 2733 2734 2738 2746 2781 2813 2820 2822 2822 2829 2841 2854 2860 2870 2883 2895 2903 2904 2912 2919 2919 2919 2919 2919 2919 2920 2927 2934 2937 2940 2942 2955 2955 2958 2970 2996 2996 2996 2996 2988 2970 2970 2970 2982 2982 2982 2982 2982 2982 2986 2995 3000 3003 3005 3007 3024 3032 3032 3038 3039 3039 3039 3041 3042 3042 3064 3085 3098 3102 3108 3130 3156 3182 3183 3217 3250 3263 3279 3308 3348 3368 3384 3388 3392 3395 3409 3410 3410 3410 3410 3410 3431 3451 3458 3464 3464 3465 3468 3468 3468 3468 3465 3463 3462 3462 3462 3472 3472 3472 3470 3461 3455 3454 3432 3356 3341 3341 3341 3358 3358 3358 3349 3341 3336 3333 3331 3324 3316 3295 3270 3206 3084 2881 2627 2530 2508 2498 2478 2412 2330 2268 2217 2176 2164 2163 2163 2163 2164 2164 2165 2165 2165 2166 2167 2168 2169 2171 2173 2175 2176 2178 2179 2181 2183 2185 2187 2188 2190 2191 2192 2194 2195 2196 2197 2198 2199 2201 2203 2204 2205 2207 2208 2209 2210 2212 2213 2214 2216 2218 2219 2221 2223 2224 2225 2226 2227 2227 2228 2228 2229 2230 2232 2234 2236 2238 2239 2240 2242 2243 2244 2245 2248 2250 2253 2254 2255 2257 2259 2262 2262 2262 2262 2262 2262 2265 2268 2271 2277 2280 2281 2282 2283 2283 2287 2289 2294 2294 2294 2295 2294 2293 2294 2294 2294 2296 2297 2301 2304 2305 2308 2308 2309 2309 2309 2309 2309 2310 2313 2319 2319 2319 2316 2311 2311 2311 2320 2320 2320 2322 2325 2325 2326 2334 2337 2338 2341 2347 2350 2350 2352 2352 2355 2356 2358 2358 2361 2361 2362 2363 2363 2365 2368 2370 2370 2370 2366 2363 2360 2360 2360 2360 2360 2364 2373 2377 2377 2377 2376 2375 2375 2375 2378 2378 2378 2359 2359 2359 2368 2368 2371 2371 2371 2373 2375 2375 2375 2375 2375 2389 2390 2392 2392 2393 2394 2394 2405 2405 2405 2405 2408 2414 2418 2418 2418 2418 2414 2412 2408 2402 2402 2402 2402 2402 2408 2426 2466 2598 2735 2794 2876 2911 2924 2924 2911 2911 2898 2894 2850 2702 2579 2423 2360 2314 2314 2314 2347 2349 2352 2354 2358 2358 2358 2357 2346 2335 2334 2326 2312 2303 2293 2278 2259 2218 2067 2006 2001 1989 1997 1989 1972 1971 1972 1971 1971 1971 1965 1942 1939 1898 1894 1894 1894 1892 1892 1876 1839 1767 1591 1413 1329 1287 1259 1248 1238 1232 1225 1224 1219 1215 1213 1211 1210 1208 1207 1207 1207 1208 1212 1217 1224 1239 1273 1346 1430 1430 1430 1330 1278 1253 1226 1210 1203 1198 1194 1192 1190 1185 1182 1180 1179 1177 1175 1173 1170 1168 1166 1165 1165 1162 1158 1156 1155 1154 1154 1147 1138 1124 1110 1098 1084 1075 1067 1061 1057 1054 1051 1046 1043 1040 1039 1036 1035 1033 1032 1031 1031 1029 1028 1028 1028 1030 1030 1034 1034 1035 1048 1053 1063 1085 1104 1161 1268 1467 1743 1841 1881
1467 1467 1461 1461 1461 1461 1465 1472 1472 1472 1467 1467 1467 1467 1471 1476 1481 1484 1488 1492 1492 1492 1492 1497 1500 1500 1500 1499 1497 1497 1497 1499 1506 1513 1518 1519 1521 1533 1541 1544 1546 1551 1556 1563 1564 1565 1566 1568 1570 1575 1577 1579 1580 1591 1600 1600 1605 1609 1614 1625 1625 1625 1625 1625 1626 1637 1644 1644 1644 1631 1618 1616 1616 1618 1620 1657 1710 1714 1756 1860 1921 2000 2142 2386 2522 2541 2551 2575 2595 2626 2644 2646 2649 2659 2686 2710 2726 2728 2728 2735 2743 2755 2755 2756 2760 2763 2787 2821 2839 2841 2843 2849 2860 2868 2878 2895 2911 2918 2918 2919 2919 2919 2919 2919 2919 2919 2919 2925 2929 2934 2937 2940 2940 2942 2943 2943 2961 2985 2996 2996 2996 2977 2969 2969 2969 2969 2969 2968 2968 2968 2970 2970 2975 2978 2978 3000 3004 3010 3015 3015 3016 3020 3020 3020 3013 3010 3009 3004 3001 2993 2990 2990 2990 3002 3022 3043 3053 3056 3070 3074 3104 3152 3167 3196 3221 3246 3252 3259 3259 3285 3308 3311 3326 3366 3376 3377 3377 3377 3377 3381 3398 3407 3410 3411 3411 3418 3445 3449 3452 3452 3461 3461 3461 3455 3454 3432 3353 3332 3332 3332 3348 3348 3348 3348 3337 3327 3323 3320 3315 3310 3294 3270 3200 3078 2875 2604 2530 2508 2498 2478 2412 2329 2258 2206 2176 2164 2161 2161 2161 2164 2164 2165 2165 2165 2166 2167 2168 2170 2171 2173 2174 2176 2177 2179 2181 2183 2185 2187 2188 2190 2191 2192 2194 2195 2197 2197 2198 2200 2202 2204 2205 2206 2207 2208 2210 2212 2212 2214 2215 2217 2218 2220 2222 2223 2224 2225 2226 2227 2227 2228 2228 2229 2230 2232 2234 2236 2238 2240 2241 2242 2243 2245 2248 2249 2252 2254 2254 2256 2257 2259 2262 2263 2264 2264 2265 2267 2270 2271 2275 2277 2279 2281 2281 2284 2289 2289 2289 2294 2294 2295 2295 2296 2296 2296 2297 2297 2298 2301 2304 2309 2312 2316 2316 2316 2315 2311 2310 2310 2311 2315 2320 2323 2323 2323 2318 2318 2318 2324 2325 2325 2330 2331 2332 2332 2335 2339 2340 2343 2348 2352 2354 2355 2356 2357 2360 2361 2361 2362 2363 2364 2364 2364 2366 2368 2370 2370 2370 2368 2365 2365 2365 2367 2368 2374 2382 2382 2382 2382 2381 2380 2381 2381 2383 2384 2384 2383 2381 2381 2381 2383 2384 2384 2384 2384 2384 2380 2380 2380 2392 2401 2403 2404 2406 2406 2406 2406 2406 2409 2413 2414 2416 2417 2420 2425 2426 2426 2426 2425 2423 2422 2420 2420 2419 2419 2419 2421 2447 2479 2610 2763 2892 2950 2966 2969 2977 2977 2977 2971 2945 2916 2804 2579 2444 2419 2394 2393 2387 2387 2387 2375 2375 2375 2371 2371 2370 2360 2355 2354 2352 2336 2321 2309 2296 2280 2236 2141 2089 2080 2044 2029 2018 2017 2004 1998 1998 1994 1992 1985 1984 1979 1975 1966 1950 1944 1943 1935 1908 1871 1813 1602 1442 1342 1294 1266 1250 1240 1232 1226 1225 1220 1217 1214 1212 1211 1209 1207 1207 1207 1208 1210 1213 1221 1235 1257 1325 1454 1454 1454 1370 1314 1266 1230 1211 1203 1198 1196 1194 1192 1188 1184 1181 1179 1177 1176 1174 1172 1169 1167 1165 1164 1162 1158 1156 1154 1152 1149 1144 1133 1121 1109 1096 1082 1072 1065 1060 1056 1053 1050 1046 1042 1039 1038 1036 1034 1033 1031 1030 1028 1028 1027 1027 1027 1030 1031 1031 1033 1035 1039 1050 1060 1082 1104 1129 1195 1320 1588 1825 1865
1469 1469 1464 1464 1464 1464 1474 1491 1491 1491 1488 1487 1486 1485 1485 1486 1486 1488 1494 1503 1503 1503 1504 1504 1504 1504 1504 1502 1502 1502 1509 1511 1524 1533 1536 1537 1537 1543 1548 1553 1557 1563 1570 1576 1578 1581 1582 1583 1583 1584 1587 1589 1590 1595 1605 1609 1610 1615 1617 1625 1625 1625 1625 1625 1626 1637 1644 1644 1644 1631 1618 1616 1616 1618 1625 1673 1714 1718 1796 1892 1945 2060 2270 2491 2539 2586 2602 2609 2624 2649 2672 2672 2674 2690 2718 2738 2738 2738 2743 2743 2748 2761 2768 2770 2772 2774 2800 2830 2848 2859 2863 2866 2867 2868 2878 2899 2917 2918 2919 2919 2919 2919 2919 2919 2919 2919 2919 2925 2927 2927 2927 2915 2915 2915 2915 2926 2942 2962 2979 2979 2979 2977 2967 2967 2966 2962 2961 2951 2951 2951 2952 2954 2955 2959 2965 2996 2999 3000 3001 3001 3001 3001 2998 2994 2993 2992 2990 2984 2984 2980 2980 2980 2988 2997 3014 3014 3014 2982 2979 2979 2982 2994 2996 3003 3011 3024 3031 3038 3042 3044 3048 3062 3094 3138 3160 3193 3198 3210 3218 3220 3227 3253 3277 3280 3283 3291 3308 3314 3318 3320 3337 3354 3361 3361 3361 3355 3314 3309 3309 3314 3318 3325 3325 3325 3318 3305 3301 3300 3299 3297 3292 3268 3192 3075 2875 2588 2530 2508 2498 2466 2395 2321 2258 2206 2170 2164 2160 2160 2160 2163 2164 2164 2165 2165 2166 2167 2168 2170 2172 2173 2174 2176 2177 2179 2181 2182 2184 2186 2188 2189 2191 2192 2194 2196 2197 2198 2199 2202 2203 2205 2205 2207 2209 2210 2211 2212 2213 2215 2216 2217 2218 2220 2222 2223 2224 2225 2226 2227 2227 2228 2228 2229 2230 2233 2235 2237 2238 2240 2242 2242 2244 2247 2249 2251 2254 2255 2255 2256 2257 2259 2262 2263 2264 2265 2267 2270 2272 2274 2276 2277 2279 2281 2281 2288 2289 2291 2292 2294 2295 2296 2296 2297 2297 2297 2298 2300 2301 2303 2306 2312 2315 2318 2318 2318 2318 2316 2315 2315 2315 2318 2321 2324 2324 2324 2322 2322 2322 2328 2329 2331 2336 2336 2336 2336 2339 2341 2345 2349 2350 2353 2355 2356 2356 2358 2361 2361 2362 2363 2364 2364 2365 2365 2367 2368 2370 2371 2371 2371 2371 2371 2372 2375 2375 2380 2385 2386 2386 2386 2385 2385 2385 2386 2387 2389 2390 2390 2390 2391 2394 2397 2397 2397 2397 2396 2395 2393 2393 2393 2396 2409 2410 2413 2414 2414 2413 2413 2413 2413 2417 2419 2422 2423 2426 2430 2430 2431 2431 2430 2430 2431 2432 2433 2433 2434 2438 2440 2450 2485 2634 2796 2931 2991 2997 3010 3010 3010 3003 2985 2967 2929 2815 2579 2453 2428 2409 2409 2406 2406 2406 2391 2382 2382 2382 2382 2382 2377 2372 2371 2364 2350 2338 2326 2318 2311 2291 2262 2239 2110 2090 2069 2044 2035 2023 2014 2013 2013 2012 2012 2009 1998 1985 1969 1964 1960 1959 1954 1928 1890 1835 1632 1463 1361 1304 1269 1251 1240 1232 1229 1226 1224 1218 1215 1213 1211 1209 1207 1206 1206 1206 1207 1211 1218 1224 1247 1293 1427 1451 1451 1451 1358 1280 1238 1216 1205 1199 1198 1196 1193 1189 1185 1182 1180 1178 1176 1175 1172 1170 1168 1165 1164 1162 1158 1155 1154 1152 1148 1143 1130 1117 1106 1095 1082 1072 1065 1059 1055 1052 1049 1045 1042 1039 1038 1036 1034 1032 1031 1029 1028 1027 1027 1027 1027 1031 1031 1031 1033 1035 1035 1045 1053 1079 1102 1121 1172 1253 1407 1754 1850
1476 1476 1469 1471 1471 1471 1480 1496 1501 1502 1505 1505 1505 1497 1492 1492 1492 1494 1497 1508 1512 1512 1512 1509 1509 1509 1522 1524 1525 1526 1530 1533 1536 1541 1541 1547 1560 1572 1575 1579 1582 1594 1600 1600 1600 1600 1600 1600 1604 1610 1610 1610 1610 1610 1610 1612 1614 1615 1617 1625 1625 1625 1625 1625 1626 1637 1644 1644 1644 1631 1616 1614 1614 1614 1625 1673 1706 1730 1822 1923 1973 2182 2355 2558 2587 2636 2644 2645 2645 2664 2682 2689 2703 2706 2718 2738 2738 2742 2743 2743 2753 2768 2783 2787 2791 2796 2818 2830 2848 2859 2863 2868 2873 2876 2878 2900 2918 2918 2919 2921 2919 2918 2916 2912 2912 2912 2914 2925 2925 2925 2912 2903 2902 2902 2903 2916 2934 2950 2962 2974 2974 2974 2966 2962 2961 2956 2947 2942 2942 2942 2946 2946 2948 2950 2960 2978 2987 2990 2991 2990 2987 2980 2975 2972 2964 2964 2964 2969 2973 2975 2976 2976 2976 2989 2989 2989 2981 2961 2961 2961 2962 2972 2977 2979 2983 2989 2989 2989 2979 2970 2970 2970 2970 2976 2987 3011 3020 3023 3023 3023 3027 3038 3051 3054 3057 3076 3097 3112 3126 3134 3146 3163 3178 3181 3181 3191 3194 3207 3237 3237 3237 3226 3226 3226 3234 3241 3242 3247 3273 3273 3273 3225 3161 3004 2776 2579 2518 2496 2486 2458 2390 2321 2258 2205 2170 2164 2158 2158 2158 2162 2165 2166 2166 2166 2166 2168 2169 2171 2172 2173 2174 2176 2177 2179 2181 2182 2184 2186 2188 2189 2191 2192 2194 2196 2197 2199 2201 2202 2203 2205 2206 2208 2210 2212 2213 2214 2214 2215 2216 2218 2218 2220 2222 2223 2224 2225 2226 2227 2228 2228 2228 2230 2231 2234 2236 2237 2238 2241 2243 2243 2244 2247 2250 2252 2254 2255 2255 2256 2258 2260 2263 2264 2266 2267 2269 2271 2273 2275 2276 2278 2279 2281 2285 2289 2290 2291 2294 2294 2295 2296 2297 2297 2298 2298 2301 2302 2304 2306 2309 2313 2317 2319 2320 2320 2320 2319 2319 2319 2320 2322 2322 2324 2326 2326 2326 2327 2327 2329 2332 2335 2336 2338 2339 2340 2342 2346 2348 2351 2353 2354 2356 2357 2357 2359 2361 2363 2364 2365 2365 2365 2365 2365 2367 2369 2370 2373 2373 2373 2375 2375 2375 2378 2380 2382 2387 2388 2390 2392 2394 2394 2394 2394 2395 2395 2395 2395 2396 2397 2400 2403 2403 2403 2402 2400 2398 2398 2398 2398 2398 2410 2413 2415 2415 2416 2417 2417 2418 2419 2419 2423 2424 2426 2430 2433 2437 2438 2438 2438 2438 2439 2443 2445 2446 2446 2448 2453 2470 2501 2672 2799 2971 3013 3014 3022 3022 3022 3006 2992 2986 2931 2815 2558 2464 2431 2431 2427 2415 2415 2414 2404 2395 2395 2393 2392 2392 2385 2382 2380 2374 2362 2352 2340 2334 2326 2313 2289 2260 2146 2122 2089 2049 2036 2029 2023 2017 2015 2015 2013 2010 2009 1999 1976 1976 1970 1966 1966 1948 1916 1847 1772 1525 1398 1314 1274 1254 1243 1236 1233 1230 1225 1221 1217 1213 1211 1209 1207 1206 1206 1206 1206 1210 1212 1221 1242 1292 1387 1530 1530 1530 1445 1333 1276 1240 1214 1209 1204 1200 1196 1192 1187 1184 1181 1179 1177 1175 1174 1172 1169 1166 1165 1162 1158 1155 1154 1151 1147 1140 1128 1116 1104 1091 1079 1071 1063 1058 1054 1051 1047 1043 1041 1039 1037 1036 1033 1032 1030 1028 1028 1027 1027 1027 1027 1031 1031 1031 1033 1035 1035 1045 1052 1079 1088 1109 1136 1179 1274 1545 1816
