0 0 0 0 0 0 0 0 0 0 0 0 0 0 0 0 0 0 0 0 0 0 0 0 0 2 1658 1689 1704 1705 1710 1717 1758 1814 1814 1814 0 1814 1762 1762 1727 1727 1727 1737 1737 1746 1746 1746 1854 1928 1928 1928 1897 1897 1897 1909 1909 1909 1875 1841 1837 1837 1837 1871 1894 1905 1913 1918 1918 1918 1905 1862 1834 1829 1829 1829 1845 1865 1880 1880 1880 1867 1858 1858 1858 1869 1885 1892 1892 1897 1898 1898 1910 1921 1929 1929 1929 1919 1904 1904 1904 1905 1928 1930 1946 2032 2121 2121 0 0 2134 2141 2187 2355 2557 2805 3180 3422 3470 3477 3479 3498 3498 3498 3493 3493 3493 3493 3493 3494 3494 3494 3498 3502 3503 3503 3503 3498 3498 3498 3500 3508 3509 3510 3510 3512 3512 3512 3512 3515 3516 3516 3516 3512 3511 3506 3504 3495 3494 3493 3492 3492 3492 3495 3502 3502 3502 3499 3497 3492 3488 3487 3487 3487 3487 3487 3483 3483 3483 3483 3483 3484 3484 3484 3485 3485 3485 3482 3481 3480 3480 3480 3480 3481 3483 3483 3483 3483 3482 3479 3476 3473 3469 3466 3465 3464 3463 3461 3459 3456 3450 3450 3450 3451 3451 3451 3442 3438 3437 3435 3435 3423 3388 3365 3358 3349 3340 3333 3333 3329 3329 3326 3325 3323 3317 3305 3298 3293 3286 3253 3160 3020 2786 2756 2748 2737 2711 2654 2560 2440 2286 2151 2091 2084 2083 2082 2082 2081 2072 2060 2042 2018 1950 1832 1642 1601 1561 1522 1511 1506 1503 1498 1494 1490 1485 1479 1475 1472 1468 1464 1460 1457 1453 1449 1446 1442 1439 1436 1432 1430 1427 1424 1422 1419 1413 1412 1410 1408 1400 1395 1395 1395 1395 1395 1395 1377 1361 1351 1346 1344 1342 1339 1338 1338 1338 1334 1332 1327 1323 1318 1315 1312 1310 1307 1305 1302 1299 1296 1294 1291 1289 1287 1285 1284 1281 1279 1275 1274 1274 1272 1268 1267 1254 1236 1226 1226 1226 1226 1226 1223 1217 1208 1207 1204 1201 1200 1200 1200 1199 1197 1195 1193 1191 1189 1186 1184 1182 1179 1176 1174 1171 1170 1168 1165 1163 1161 1158 1156 1153 1152 1149 1145 1144 1140 1135 1129 1128 1128 1125 1125 1122 1115 1113 1108 1101 1096 1094 1094 1094 1094 1094 1089 1088 1088 1088 1088 1088 1082 1078 1076 1072 1071 1070 1067 1066 1064 1062 1060 1058 1056 1054 1051 1049 1047 1045 1043 1041 1039 1037 1035 1033 1031 1029 1027 1025 1024 1023 1020 1019 1018 1017 1012 1009 1007 1006 1005 1001 997 996 995 994 990 987 986 984 983 977 973 973 973 973 973 977 979 980 981 980 979 971 962 960 958 956 0 0 0 0 0 0 0 0 0 0 0 0 0 0 0 0 0 0 0 0 0 0 0 0 0 0 0 0 0 0 0 904 904 904 900 900 899 895 895 895 891 891 891 892 897 897 897 896 892 877 877 877 881 881 881 879 877 874 874 874 876 880 880 880 872 866 860 856 855 854 853 853 852 852 852 852 851 850 849 848 848 847 845 844 843 842 841 839 837 836 835 833 832 831 830 829 828 827 827 826 826 825 825 824 824 823 822 822 822 822 822 822 822 822 822 824 826 832 833 851 907 1030 1219 1222 1405 1449 1526 1670 1778 1816 1864 1883 1883 1883 1882 1882 1882 1881 1878 1873 1873 1871 1869 1869 1861 1851 1843 1835 1831 1831 1820 1803 1802 1802 1798 1793 1793 1788 1788 1788 1790 1794 1823 1852 1854 1873 1873
0 0 0 0 0 0 0 0 0 0 0 0 0 0 0 0 0 0 0 0 0 0 0 0 0 0 1654 1717 1774 1774 1774 1774 1774 1813 1813 1813 0 0 0 1740 1727 1703 1703 1703 1703 1716 1717 1718 1821 1928 1928 1928 1897 1897 1897 1920 1920 1920 1875 1841 1802 1802 1802 1868 1915 1936 1936 1936 1936 1931 1905 1882 1861 1852 1852 1852 1855 1862 1879 1887 1887 1887 1878 1878 1878 1897 1901 1901 1901 1898 1898 1898 1901 1904 1913 1919 1923 1923 1923 1923 1931 1933 1934 1945 1946 2032 2143 2143 2143 0 2142 2142 2187 2408 2670 2900 3234 3439 3476 3485 3499 3502 3507 3507 3507 3499 3498 3498 3496 3494 3494 3494 3499 3500 3502 3502 3501 3501 3501 3501 3513 3524 3524 3524 3524 3520 3520 3520 3520 3521 3521 3521 3516 3512 3511 3507 3505 3498 3496 3494 3492 3492 3492 3492 3501 3501 3501 3499 3497 3493 3488 3487 3487 3487 3487 3487 3485 3482 3482 3482 3482 3483 3484 3484 3485 3485 3485 3483 3482 3481 3480 3480 3480 3481 3483 3483 3483 3483 3482 3479 3476 3471 3469 3466 3465 3464 3463 3461 3460 3456 3450 3450 3450 3449 3449 3449 3442 3438 3437 3435 3435 3423 3388 3363 3357 3349 3340 3331 3331 3331 3331 3331 3329 3328 3322 3311 3302 3293 3284 3239 3134 2960 2785 2756 2748 2737 2713 2654 2560 2440 2286 2151 2093 2079 2079 2079 2078 2078 2073 2060 2042 2004 1925 1813 1641 1601 1559 1521 1511 1506 1503 1498 1492 1487 1482 1478 1474 1471 1467 1464 1460 1457 1453 1449 1446 1442 1439 1436 1432 1430 1427 1425 1422 1419 1413 1412 1410 1408 1403 1395 1395 1395 1393 1393 1393 1374 1361 1351 1346 1339 1338 1338 1335 1335 1334 1333 1331 1327 1323 1318 1314 1312 1310 1307 1305 1301 1299 1296 1294 1291 1289 1287 1286 1284 1282 1279 1277 1275 1275 1272 1272 1272 1260 1236 1226 1226 1226 1226 1226 1225 1218 1211 1209 1208 1204 1204 1201 1201 1200 1198 1195 1193 1191 1188 1186 1183 1181 1179 1176 1174 1171 1169 1167 1165 1163 1160 1157 1155 1152 1150 1148 1145 1144 1140 1136 1127 1127 1127 1127 1127 1122 1120 1117 1110 1102 1098 1095 1095 1095 1095 1094 1089 1089 1089 1089 1089 1089 1082 1078 1076 1072 1071 1070 1068 1066 1064 1062 1060 1058 1056 1053 1051 1049 1047 1044 1043 1040 1038 1037 1035 1033 1031 1029 1027 1025 1023 1023 1020 1019 1018 1017 1012 1010 1010 1009 1008 1005 999 997 996 995 990 989 989 987 986 980 974 973 973 973 976 980 980 980 981 980 979 971 962 960 958 956 5 0 0 0 0 0 0 0 0 0 0 0 0 0 0 0 0 0 0 0 0 0 0 0 0 0 0 0 0 0 0 903 903 903 899 899 899 895 895 895 891 891 891 892 895 895 895 889 883 877 877 877 881 881 881 878 877 876 876 876 876 879 879 879 872 866 863 863 860 857 853 853 852 852 852 852 851 850 849 849 848 847 845 844 843 842 841 839 837 836 835 833 831 831 829 828 828 827 827 825 825 825 824 824 824 823 822 822 821 821 821 821 818 818 818 818 826 832 833 861 922 1065 1219 1239 1404 1448 1537 1673 1772 1816 1874 1883 1883 1883 1882 1882 1882 1881 1875 1873 1873 1872 1871 1871 1867 1864 1855 1841 1833 1831 1818 1800 1800 1800 1803 1803 1803 1796 1790 1790 1792 1796 1823 1854 1854 1879 1879
0 0 0 0 0 0 0 0 0 0 0 0 0 0 0 0 0 0 0 0 0 0 0 0 0 0 0 1872 1872 1872 1846 1844 1844 1820 1820 1813 1744 1744 1740 1740 1736 1703 1701 1699 1693 1699 1699 1718 1805 1877 1877 1877 1867 1867 1867 1920 1920 1920 1875 1841 1802 1802 1802 1867 1916 1936 1936 1936 1935 1925 1921 1909 1889 1871 1870 1862 1862 1862 1875 1898 1898 1898 1904 1904 1904 1925 1925 1925 1901 1897 1897 1897 1901 1904 1906 1912 1913 1919 1923 1939 1941 1941 1944 1948 1948 1978 2099 2137 2142 2142 2142 2142 2244 2479 2729 2973 3295 3469 3485 3495 3502 3510 3510 3510 3510 3504 3502 3499 3497 3494 3494 3494 3499 3500 3502 3503 3504 3506 3512 3518 3525 3527 3527 3527 3524 3522 3522 3522 3524 3524 3524 3521 3516 3511 3511 3510 3508 3502 3500 3496 3492 3491 3491 3491 3499 3499 3499 3499 3497 3493 3488 3488 3488 3488 3490 3490 3490 3486 3485 3483 3481 3483 3484 3483 3483 3483 3482 3482 3482 3482 3482 3482 3482 3482 3483 3483 3483 3483 3481 3478 3475 3471 3469 3468 3466 3465 3464 3464 3464 3464 3457 3451 3451 3450 3449 3448 3442 3437 3436 3435 3433 3423 3388 3363 3356 3347 3340 3331 3331 3331 3332 3334 3334 3334 3328 3317 3309 3298 3284 3228 3114 2936 2785 2758 2756 2732 2713 2649 2559 2436 2278 2147 2096 2079 2079 2079 2078 2078 2073 2060 2040 2000 1918 1792 1630 1601 1551 1519 1511 1506 1503 1498 1492 1487 1482 1478 1474 1471 1467 1464 1460 1457 1453 1449 1446 1442 1439 1436 1432 1429 1427 1425 1422 1419 1413 1411 1411 1408 1411 1411 1407 1407 1407 1403 1393 1374 1364 1358 1351 1342 1338 1335 1334 1334 1334 1332 1330 1327 1323 1318 1314 1312 1309 1307 1304 1301 1299 1296 1294 1291 1289 1287 1285 1284 1282 1279 1278 1276 1276 1272 1272 1272 1260 1236 1223 1223 1223 1225 1225 1225 1221 1220 1218 1217 1209 1204 1201 1201 1200 1199 1195 1193 1190 1188 1185 1183 1181 1179 1176 1173 1171 1169 1167 1164 1162 1160 1157 1153 1151 1149 1148 1145 1144 1143 1136 1128 1128 1128 1128 1128 1127 1125 1122 1114 1105 1100 1098 1096 1095 1095 1094 1093 1093 1093 1089 1089 1089 1082 1078 1076 1074 1072 1070 1068 1066 1064 1062 1060 1058 1055 1053 1051 1048 1046 1044 1043 1040 1038 1036 1034 1032 1031 1028 1026 1025 1023 1023 1020 1018 1017 1016 1013 1013 1013 1011 1011 1009 1003 1000 1000 996 990 990 990 989 986 982 976 976 976 978 979 981 981 981 981 979 978 971 962 960 957 956 8 0 0 0 0 0 0 0 0 0 0 0 0 0 0 0 0 0 0 0 0 0 0 0 0 0 0 0 0 0 0 901 901 901 899 899 899 899 899 899 895 889 889 889 893 893 893 887 882 874 874 874 881 881 881 878 877 876 872 872 872 873 873 873 872 864 864 862 862 855 853 853 852 851 851 851 851 849 849 849 848 847 846 844 843 842 841 839 837 836 835 833 831 830 829 828 827 827 826 825 825 824 823 823 823 823 822 821 821 821 821 820 817 815 815 815 819 827 830 865 951 1065 1219 1257 1382 1448 1537 1673 1768 1816 1878 1889 1889 1889 1882 1882 1882 1874 1871 1871 1871 1872 1873 1874 1874 1873 1865 1850 1843 1833 1815 1802 1802 1802 1812 1812 1812 1801 1801 1801 1801 1805 1823 1864 1865 1887 1887
0 0 0 0 0 0 0 0 0 0 0 0 0 0 0 0 0 0 0 0 0 0 0 0 0 0 0 1872 1872 1872 1897 1897 1903 1903 1903 1813 1744 1744 1744 1744 1744 1719 1703 1699 1693 1699 1699 1718 1805 1851 1867 1867 1867 1867 1867 1920 1920 1920 1917 1850 1802 1802 1802 1867 1916 1936 1936 1936 1935 1925 1923 1921 1910 1892 1891 1864 1864 1864 1867 1898 1913 1921 1924 1927 1937 1937 1937 1925 1899 1888 1888 1888 1901 1904 1904 1904 1905 1905 1923 1939 1941 1941 1944 1948 1948 1978 2099 2137 2161 2175 2189 2199 2315 2527 2773 3029 3338 3499 3513 3513 3513 3516 3513 3510 3510 3507 3505 3503 3501 3499 3499 3501 3500 3501 3503 3503 3507 3510 3518 3521 3525 3527 3527 3527 3524 3522 3522 3522 3524 3524 3524 3521 3514 3511 3511 3510 3508 3505 3501 3497 3495 3491 3491 3491 3496 3499 3499 3499 3497 3493 3489 3488 3488 3488 3492 3492 3492 3486 3485 3481 3481 3481 3477 3477 3477 3477 3478 3479 3480 3483 3483 3483 3483 3483 3483 3483 3483 3483 3481 3475 3472 3471 3470 3468 3467 3465 3465 3465 3465 3465 3462 3458 3455 3454 3453 3448 3444 3442 3439 3438 3433 3423 3397 3363 3355 3349 3347 3341 3332 3332 3332 3339 3339 3339 3328 3321 3312 3301 3284 3228 3104 2936 2785 2777 2758 2734 2711 2649 2534 2407 2262 2145 2101 2085 2079 2079 2078 2078 2075 2069 2036 1993 1915 1776 1626 1584 1540 1512 1509 1506 1502 1496 1491 1486 1481 1478 1474 1471 1467 1465 1461 1457 1453 1450 1446 1443 1440 1437 1433 1429 1426 1425 1422 1418 1411 1411 1410 1410 1411 1412 1430 1430 1430 1415 1393 1374 1368 1362 1359 1342 1337 1337 1334 1334 1334 1332 1328 1326 1323 1317 1314 1312 1309 1307 1304 1301 1298 1296 1293 1291 1289 1288 1285 1284 1282 1279 1278 1276 1276 1273 1273 1273 1260 1233 1223 1223 1223 1225 1225 1226 1226 1225 1224 1222 1213 1209 1204 1202 1201 1200 1195 1193 1190 1188 1185 1183 1181 1178 1175 1173 1170 1168 1165 1163 1161 1159 1155 1153 1150 1149 1147 1145 1144 1143 1135 1128 1128 1128 1130 1130 1130 1130 1127 1120 1112 1107 1105 1105 1104 1103 1101 1098 1095 1095 1094 1091 1088 1081 1078 1076 1075 1072 1070 1068 1066 1064 1062 1059 1057 1054 1052 1050 1048 1046 1044 1042 1040 1038 1035 1034 1031 1030 1028 1026 1024 1022 1021 1019 1017 1016 1016 1014 1014 1014 1013 1013 1009 1007 1003 1003 996 991 991 990 990 987 984 982 981 981 981 982 982 982 978 978 974 974 971 963 962 957 957 0 0 0 0 0 0 0 0 0 0 0 0 0 0 0 0 0 0 0 0 0 0 3 0 0 0 903 903 905 905 905 905 905 901 899 899 899 899 899 899 897 889 889 889 890 890 890 886 880 880 880 888 888 888 881 878 876 876 872 872 870 870 870 865 863 863 863 863 863 857 853 853 852 852 852 851 850 849 849 849 848 846 846 844 843 842 840 838 837 836 834 832 831 829 828 828 826 826 825 824 824 824 823 823 822 822 821 821 821 820 820 820 816 813 813 813 819 823 830 865 951 1065 1219 1301 1359 1448 1537 1670 1745 1816 1878 1889 1889 1889 1882 1882 1877 1874 1871 1871 1871 1872 1875 1875 1875 1875 1867 1854 1844 1833 1815 1803 1803 1803 1819 1819 1819 1812 1808 1804 1804 1808 1829 1865 1873 1888 1888
0 0 0 0 0 0 0 0 0 0 0 0 0 0 0 0 0 0 0 0 0 0 1856 1856 1856 1856 1856 1872 1872 1881 1897 1897 1931 1931 1931 1853 1768 1768 1768 1784 1784 1784 1716 1703 1703 1703 1749 1760 1805 1847 1867 1867 1867 1867 1867 1920 1971 1971 1971 1954 1878 1867 1867 1867 1915 1936 1936 1936 1931 1925 1923 1921 1910 1907 1892 1864 1860 1860 1860 1880 1913 1927 1931 1946 1946 1946 1941 1900 1878 1878 1878 1887 1905 1905 1905 1905 1905 1905 1922 1939 1941 1948 1948 1948 1960 1978 2099 2149 2164 2172 2174 2263 2438 2683 2926 3147 3426 3531 3531 3531 3519 3517 3517 3512 3512 3512 3511 3509 3509 3506 3506 3506 3509 3509 3510 3510 3521 3521 3525 3525 3525 3526 3526 3526 3525 3525 3524 3524 3522 3522 3522 3518 3514 3513 3513 3512 3512 3506 3502 3499 3497 3493 3493 3493 3496 3498 3498 3498 3496 3493 3490 3490 3490 3491 3495 3495 3495 3486 3481 3479 3478 3477 3476 3476 3476 3476 3478 3479 3480 3482 3482 3482 3482 3482 3482 3482 3482 3481 3481 3475 3472 3471 3470 3468 3467 3466 3466 3466 3466 3466 3464 3461 3459 3455 3453 3448 3446 3443 3442 3438 3433 3424 3403 3363 3356 3349 3347 3342 3334 3334 3334 3339 3339 3339 3328 3321 3316 3303 3284 3228 3104 2936 2785 2779 2761 2738 2714 2625 2526 2392 2244 2143 2101 2091 2087 2080 2080 2080 2076 2069 2042 1977 1908 1773 1611 1583 1528 1509 1507 1502 1498 1493 1490 1486 1481 1478 1475 1471 1468 1465 1461 1457 1454 1450 1446 1443 1440 1437 1433 1429 1426 1423 1419 1417 1411 1410 1410 1410 1413 1415 1449 1449 1449 1432 1406 1386 1376 1370 1361 1342 1337 1337 1334 1334 1334 1331 1327 1324 1321 1317 1315 1312 1309 1306 1303 1300 1297 1295 1293 1291 1289 1288 1286 1283 1281 1281 1281 1281 1284 1284 1284 1274 1255 1233 1223 1223 1223 1227 1227 1227 1227 1227 1225 1225 1214 1211 1204 1202 1201 1200 1195 1193 1190 1188 1185 1183 1180 1178 1175 1173 1170 1168 1165 1163 1160 1158 1155 1152 1150 1148 1147 1144 1144 1143 1135 1132 1130 1130 1132 1132 1132 1132 1130 1124 1118 1114 1110 1108 1105 1103 1101 1098 1095 1095 1094 1091 1088 1081 1078 1076 1075 1073 1070 1068 1066 1064 1061 1059 1057 1054 1052 1050 1048 1045 1044 1042 1039 1037 1035 1033 1031 1029 1027 1025 1023 1022 1021 1019 1017 1016 1016 1015 1014 1014 1013 1013 1009 1007 1004 1003 1000 993 991 991 989 987 985 983 982 982 981 981 981 980 977 972 971 971 964 962 960 957 957 0 0 0 4 0 0 0 0 0 3 0 0 0 0 0 918 925 925 925 923 923 917 917 911 911 910 908 908 905 905 905 905 905 895 895 895 899 899 899 899 897 889 889 888 888 888 888 885 879 879 879 886 886 886 880 876 873 872 872 872 871 870 867 860 860 860 863 863 863 857 856 853 852 852 852 851 850 849 849 849 847 846 846 844 843 842 840 838 837 835 834 832 831 829 828 827 826 825 825 824 824 823 823 823 822 822 820 820 820 820 820 818 816 812 812 812 813 818 826 865 951 1067 1219 1301 1353 1416 1525 1644 1745 1816 1878 1889 1889 1889 1879 1877 1877 1874 1871 1871 1871 1872 1875 1877 1877 1877 1868 1855 1845 1836 1818 1806 1806 1806 1828 1828 1828 1817 1809 1809 1809 1830 1852 1874 1874 1897 1897
0 0 0 0 0 0 0 0 0 0 0 0 0 0 0 0 0 0 0 0 0 1902 1902 1902 1871 1825 1825 1825 1876 1884 1900 1904 1931 1931 1931 1878 1819 1819 1819 1819 1819 1819 1792 1768 1768 1768 1783 1807 1813 1842 1870 1877 1879 1879 1908 1949 1997 1997 1997 1997 1961 1921 1915 1915 1915 1927 1927 1927 1922 1922 1912 1910 1910 1907 1892 1882 1861 1861 1861 1871 1907 1927 1931 1946 1946 1946 1933 1900 1878 1878 1878 1887 1905 1905 1905 1905 1905 1905 1922 1929 1931 1938 1944 1948 1960 2004 2099 2147 2148 2149 2197 2303 2499 2719 3008 3287 3494 3535 3535 3535 3534 3524 3522 3521 3519 3518 3515 3515 3515 3515 3514 3514 3511 3513 3513 3513 3527 3527 3527 3525 3522 3522 3525 3525 3525 3525 3521 3521 3521 3521 3518 3516 3515 3515 3513 3513 3512 3508 3503 3502 3497 3495 3495 3495 3496 3496 3496 3496 3495 3494 3494 3494 3494 3496 3496 3496 3495 3486 3478 3478 3477 3477 3476 3476 3476 3476 3477 3478 3479 3481 3482 3482 3482 3482 3482 3482 3482 3480 3480 3475 3472 3471 3469 3468 3467 3466 3466 3466 3466 3466 3464 3462 3459 3456 3453 3450 3446 3443 3442 3438 3433 3427 3405 3369 3357 3349 3344 3342 3334 3334 3334 3339 3339 3339 3327 3321 3316 3310 3292 3230 3101 2944 2793 2781 2761 2734 2706 2623 2510 2376 2228 2141 2101 2091 2087 2083 2082 2081 2078 2069 2049 1974 1905 1769 1607 1581 1524 1508 1505 1500 1495 1492 1486 1482 1480 1478 1475 1472 1468 1465 1462 1458 1454 1450 1446 1443 1440 1437 1433 1427 1424 1421 1419 1416 1411 1406 1406 1406 1413 1415 1449 1449 1449 1434 1406 1386 1376 1375 1366 1343 1338 1338 1334 1334 1334 1329 1327 1322 1319 1317 1315 1312 1309 1306 1303 1300 1297 1295 1293 1291 1290 1288 1286 1283 1282 1282 1282 1283 1287 1287 1287 1272 1251 1226 1226 1226 1226 1227 1227 1227 1227 1227 1227 1226 1215 1211 1204 1202 1201 1200 1195 1193 1190 1187 1185 1182 1180 1178 1174 1172 1169 1167 1164 1162 1159 1157 1154 1152 1149 1147 1147 1144 1142 1141 1133 1133 1132 1132 1133 1133 1135 1135 1135 1129 1124 1118 1112 1108 1105 1103 1101 1098 1095 1095 1094 1091 1088 1081 1078 1076 1075 1074 1071 1068 1065 1064 1062 1059 1057 1054 1052 1050 1047 1045 1044 1042 1039 1037 1034 1033 1031 1029 1027 1025 1023 1022 1021 1018 1017 1016 1016 1015 1014 1013 1013 1009 1007 1007 1003 1003 1000 997 994 991 988 987 985 983 982 982 981 981 979 977 974 971 971 969 964 962 960 958 957 957 950 948 947 945 945 943 940 934 933 932 932 931 928 928 928 925 925 927 925 923 921 917 911 911 910 910 909 905 903 901 899 899 895 893 893 895 895 896 896 895 889 889 886 885 885 885 880 879 879 879 881 881 881 878 875 872 870 870 868 868 867 866 859 859 859 862 862 862 857 856 855 853 852 852 850 850 849 849 849 847 846 845 844 843 842 840 838 837 835 834 832 830 829 828 826 826 825 824 824 823 823 822 822 821 821 820 820 820 820 819 818 816 813 811 811 813 816 825 856 947 1067 1226 1323 1325 1391 1520 1642 1745 1812 1872 1888 1888 1888 1879 1877 1877 1874 1871 1871 1871 1872 1875 1878 1878 1878 1868 1855 1846 1837 1818 1812 1812 1812 1831 1831 1831 1821 1812 1812 1812 1831 1857 1875 1910 1910 1911
0 0 0 0 0 0 0 0 0 0 0 0 0 0 0 0 0 0 0 0 1862 1933 1933 1933 1929 1825 1825 1825 1876 1886 1900 1916 1931 1931 1931 1878 1835 1835 1835 1854 1859 1859 1859 1840 1840 1826 1816 1826 1847 1847 1870 1888 1912 1915 1957 1996 1998 2005 2005 1998 1974 1922 1916 1916 1916 1916 1916 1909 1909 1907 1905 1907 1907 1905 1884 1883 1861 1861 1861 1871 1907 1927 1933 1946 1946 1946 1933 1900 1878 1878 1878 1888 1905 1905 1907 1907 1907 1907 1922 1929 1929 1933 1944 1948 1961 2004 2099 2118 2121 2149 2197 2315 2501 2768 3141 3506 3544 3582 3582 3582 3543 3526 3523 3522 3521 3521 3518 3517 3517 3517 3516 3515 3515 3515 3515 3515 3528 3528 3528 3525 3522 3522 3525 3525 3525 3525 3521 3521 3521 3521 3518 3516 3515 3515 3514 3514 3513 3508 3503 3502 3498 3498 3498 3499 3499 3499 3498 3495 3495 3495 3495 3495 3496 3496 3496 3496 3493 3483 3478 3478 3478 3477 3477 3474 3474 3474 3477 3478 3479 3479 3479 3480 3480 3480 3479 3479 3478 3477 3476 3476 3475 3471 3469 3468 3467 3467 3467 3466 3466 3466 3465 3463 3460 3456 3453 3451 3447 3444 3442 3438 3433 3429 3406 3370 3359 3349 3343 3343 3334 3334 3334 3334 3334 3334 3323 3319 3316 3310 3292 3230 3099 2944 2793 2779 2758 2732 2698 2620 2497 2374 2228 2132 2101 2097 2094 2088 2084 2082 2078 2069 2032 1974 1905 1769 1605 1575 1524 1508 1504 1500 1495 1491 1486 1482 1479 1477 1475 1472 1469 1466 1462 1458 1454 1450 1447 1444 1439 1436 1432 1427 1424 1421 1419 1416 1409 1406 1406 1406 1413 1415 1449 1449 1449 1434 1406 1386 1376 1375 1366 1344 1342 1337 1334 1332 1332 1329 1325 1322 1319 1316 1315 1312 1309 1306 1303 1300 1297 1295 1293 1291 1290 1289 1286 1282 1282 1282 1282 1292 1292 1292 1287 1271 1245 1230 1230 1230 1239 1239 1239 1233 1233 1227 1227 1226 1215 1211 1204 1201 1200 1198 1196 1193 1190 1187 1184 1181 1179 1176 1174 1171 1167 1166 1163 1160 1159 1156 1153 1150 1147 1147 1146 1144 1141 1139 1133 1133 1132 1132 1133 1137 1139 1139 1139 1130 1124 1118 1112 1108 1105 1102 1099 1096 1094 1093 1093 1091 1086 1080 1077 1076 1076 1074 1071 1068 1065 1064 1062 1059 1057 1054 1052 1049 1047 1045 1043 1042 1039 1037 1034 1033 1031 1029 1027 1025 1023 1022 1020 1018 1016 1016 1016 1014 1013 1012 1010 1009 1006 1003 1001 1000 1000 997 994 990 988 986 985 983 982 981 980 977 977 976 974 971 968 966 963 961 958 958 957 957 950 948 947 945 945 945 943 936 935 935 935 933 930 930 930 930 930 929 927 923 921 913 912 911 911 911 909 905 903 901 899 897 897 893 892 892 892 892 892 892 0 0 0 0 0 0 0 0 0 0 0 0 0 0 0 0 0 0 867 867 867 0 0 0 859 859 859 859 857 857 857 857 854 852 850 850 849 849 849 847 846 846 844 843 842 840 838 837 835 834 832 830 829 827 826 825 824 823 823 823 822 822 822 821 821 820 820 819 819 819 818 816 814 810 810 813 814 824 856 947 1067 1232 1323 1325 1391 1491 1635 1751 1816 1862 1884 1884 1884 1879 1877 1877 1875 1874 1873 1873 1873 1875 1878 1878 1878 1867 1855 1848 1840 1819 1813 1813 1813 1823 1833 1833 1833 1827 1827 1827 1848 1864 1890 1924 1924 1925
0 0 0 0 0 0 0 0 0 0 0 0 0 0 0 0 0 0 0 0 2063 2063 2063 2042 1936 1825 1825 1825 1876 1907 1915 1916 1920 1920 1920 1878 1835 1835 1835 1855 1880 1900 1907 1907 1912 1907 1901 1854 1854 1854 1874 1906 1925 1936 1963 1996 1998 2005 2005 1998 1974 1940 1930 1930 1930 1929 1929 1907 1907 1902 1902 1902 1894 1891 1891 1886 1878 1877 1877 1877 1907 1920 1920 1923 1923 1920 1905 1903 1900 1899 1896 1896 1896 1896 1905 1914 1918 1922 1924 1928 1928 1932 1932 1949 1978 2004 2036 2080 2121 2152 2234 2319 2542 2773 3255 3508 3556 3588 3588 3588 3543 3535 3526 3526 3524 3521 3520 3519 3519 3518 3518 3516 3515 3515 3515 3515 3528 3528 3528 3525 3523 3523 3525 3526 3526 3526 3522 3521 3521 3521 3518 3516 3516 3516 3515 3515 3513 3510 3510 3509 3507 3507 3502 3501 3501 3500 3497 3497 3497 3496 3496 3496 3496 3496 3494 3493 3489 3483 3478 3478 3478 3477 3477 3476 3476 3475 3475 3476 3477 3477 3477 3477 3478 3478 3477 3477 3476 3476 3476 3476 3475 3471 3469 3468 3468 3467 3467 3467 3467 3466 3465 3463 3460 3458 3456 3453 3447 3444 3442 3438 3428 3424 3406 3391 3365 3344 3343 3343 3340 3337 3334 3332 3330 3329 3323 3318 3313 3310 3292 3230 3098 2944 2793 2777 2758 2732 2698 2619 2491 2365 2225 2131 2101 2099 2096 2091 2087 2084 2079 2071 2032 1974 1905 1771 1598 1572 1522 1507 1504 1499 1495 1491 1486 1482 1479 1477 1475 1472 1469 1466 1462 1458 1454 1451 1447 1444 1439 1434 1430 1427 1424 1421 1418 1416 1409 1406 1406 1406 1408 1411 1412 1418 1418 1418 1401 1375 1375 1370 1366 1351 1342 1334 1333 1333 1328 1327 1323 1321 1319 1316 1314 1312 1309 1306 1303 1300 1298 1295 1293 1292 1290 1289 1286 1282 1282 1282 1282 1292 1292 1292 1287 1268 1241 1240 1240 1240 1240 1240 1239 1233 1233 1227 1227 1226 1215 1207 1204 1201 1200 1198 1196 1193 1190 1187 1184 1181 1178 1176 1174 1170 1167 1165 1162 1160 1158 1155 1152 1150 1146 1145 1144 1143 1141 1138 1135 1135 1135 1136 1138 1141 1141 1141 1139 1130 1124 1118 1112 1108 1105 1102 1098 1095 1092 1092 1091 1090 1084 1080 1077 1076 1076 1075 1071 1068 1065 1064 1062 1058 1057 1054 1051 1049 1047 1045 1043 1042 1039 1036 1034 1033 1030 1028 1027 1025 1023 1022 1020 1017 1016 1016 1014 1012 1009 1007 1007 1007 1005 1003 1001 997 997 996 994 990 988 986 984 983 981 979 977 977 976 975 973 971 967 963 960 958 958 957 957 955 950 948 945 945 945 945 943 940 938 936 935 935 935 935 932 932 932 929 928 927 922 917 912 912 911 911 909 903 903 901 899 899 897 897 889 0 0 0 0 0 0 0 0 0 0 0 0 0 0 0 0 0 0 0 0 0 0 0 0 0 0 0 0 0 860 860 860 859 857 857 857 857 854 852 850 850 850 849 848 847 846 845 844 843 842 840 838 837 835 833 832 830 829 827 826 825 824 823 823 822 822 822 822 821 821 820 820 819 819 819 819 816 814 811 810 811 814 820 856 942 1067 1260 1323 1325 1391 1491 1635 1751 1818 1862 1884 1884 1884 1881 1877 1877 1875 1874 1874 1874 1874 1875 1875 1875 1870 1864 1855 1852 1840 1826 1813 1813 1813 1814 1823 1841 1845 1850 1859 1859 1871 1890 1929 1990 1990 1992
0 0 0 0 0 0 0 0 0 0 0 0 0 0 0 0 0 0 0 0 2063 2063 2063 2042 1936 1856 1856 1856 1885 1914 1914 1914 1905 1879 1851 1822 1822 1822 1835 1855 1880 1898 1936 1950 1952 1952 1952 1930 1894 1894 1894 1906 1925 1936 1964 1996 1997 1997 1997 1981 1974 1943 1943 1943 1943 1943 1929 1907 1907 1901 1898 1898 1890 1886 1886 1886 1902 1903 1927 1951 1951 1951 1922 1918 1918 1903 1903 1903 1900 1899 1896 1896 1896 1896 1909 1914 1921 1922 1924 1925 1927 1932 1932 1948 1949 1978 1978 2046 2121 2185 2275 2422 2683 3078 3380 3540 3556 3588 3588 3588 3542 3540 3531 3527 3525 3521 3521 3521 3519 3519 3519 3519 3518 3516 3516 3516 3519 3523 3524 3524 3525 3525 3525 3528 3528 3528 3527 3527 3526 3525 3519 3517 3516 3516 3516 3516 3514 3512 3512 3511 3510 3507 3505 3503 3502 3500 3496 3496 3496 3496 3496 3496 3495 3494 3494 3493 3489 3483 3478 3478 3478 3478 3478 3476 3474 3474 3474 3474 3475 3475 3475 3475 3476 3476 3476 3476 3476 3476 3476 3476 3475 3471 3468 3468 3468 3468 3468 3468 3468 3467 3467 3465 3461 3458 3458 3454 3450 3445 3442 3440 3428 3424 3405 3391 3365 3345 3343 3342 3342 3337 3333 3330 3329 3328 3323 3318 3313 3309 3283 3227 3098 2944 2788 2772 2748 2719 2679 2606 2473 2362 2225 2131 2099 2098 2096 2096 2092 2088 2083 2073 2049 1975 1905 1773 1598 1571 1523 1507 1504 1499 1496 1491 1486 1482 1479 1476 1474 1472 1469 1466 1462 1458 1454 1451 1447 1444 1439 1434 1430 1427 1424 1421 1418 1416 1407 1405 1405 1401 1401 1395 1395 1395 1391 1391 1390 1375 1375 1370 1366 1353 1342 1334 1334 1333 1327 1325 1323 1321 1318 1316 1313 1311 1308 1305 1303 1300 1298 1295 1293 1292 1290 1289 1286 1282 1282 1282 1289 1289 1289 1271 1252 1241 1231 1231 1231 1240 1240 1240 1239 1230 1228 1227 1224 1220 1214 1205 1201 1201 1200 1198 1196 1193 1190 1187 1184 1181 1178 1176 1172 1169 1166 1164 1162 1159 1158 1154 1152 1150 1146 1144 1143 1142 1140 1138 1136 1136 1136 1137 1138 1141 1141 1141 1139 1130 1121 1115 1110 1108 1104 1102 1097 1094 1092 1091 1090 1090 1083 1079 1077 1076 1076 1075 1071 1068 1065 1063 1061 1058 1055 1053 1050 1048 1046 1044 1042 1040 1038 1035 1033 1031 1029 1028 1026 1024 1023 1022 1020 1017 1015 1013 1013 1011 1009 1007 1006 1005 1005 1003 1000 997 995 993 992 990 988 984 982 981 980 979 976 975 975 974 971 969 966 963 960 958 957 954 952 950 944 943 943 944 944 943 942 940 940 936 932 932 932 932 932 932 932 929 926 924 922 913 911 911 911 910 909 904 904 903 902 901 900 900 0 0 0 0 0 0 0 0 0 0 0 0 0 0 0 0 0 0 0 0 0 0 0 0 0 0 0 0 6 8 859 0 0 0 857 857 857 857 854 853 851 850 850 849 849 847 846 845 844 843 841 840 838 836 835 833 832 830 828 827 826 825 824 823 822 822 822 822 822 821 821 820 820 820 820 820 820 820 818 813 811 811 813 820 862 947 1067 1272 1365 1401 1402 1491 1635 1756 1818 1862 1884 1884 1884 1881 1877 1877 1875 1874 1874 1872 1872 1872 1871 1870 1859 1855 1855 1852 1840 1827 1819 1815 1815 1815 1818 1841 1860 1881 1888 1894 1903 1931 2015 2057 2057 2058
0 0 0 0 0 0 0 0 0 0 0 0 0 0 0 0 0 0 0 0 2063 2063 2063 2042 1936 1859 1859 1859 1891 1914 1914 1914 1894 1842 1812 1781 1781 1781 1819 1855 1867 1898 1936 1950 1967 1987 1987 1987 1943 1906 1906 1906 1925 1936 1964 1987 1987 1987 1976 1939 1939 1939 1940 1943 1943 1943 1942 1907 1907 1898 1894 1894 1887 1886 1886 1886 1902 1903 1927 1951 1951 1951 1913 1904 1904 1903 1903 1903 1900 1899 1896 1894 1894 1894 1899 1909 1921 1922 1922 1922 1922 1925 1918 1948 1949 1978 1978 2046 2125 2210 2298 2474 2697 3089 3459 3544 3545 3545 3544 3542 3539 3534 3534 3531 3525 3521 3521 3521 3522 3522 3522 3520 3519 3516 3516 3516 3519 3520 3523 3523 3523 3525 3525 3528 3528 3530 3530 3528 3528 3527 3523 3520 3518 3518 3518 3517 3517 3515 3513 3512 3511 3508 3505 3504 3502 3498 3496 3496 3496 3496 3496 3495 3492 3492 3491 3491 3489 3484 3480 3478 3478 3478 3476 3476 3474 3473 3473 3473 3475 3475 3475 3475 3475 3476 3476 3476 3476 3476 3476 3476 3472 3469 3468 3468 3468 3469 3469 3469 3469 3469 3468 3466 3462 3460 3458 3456 3453 3448 3447 3440 3430 3418 3397 3391 3365 3351 3346 3342 3342 3339 3333 3330 3329 3328 3323 3318 3313 3303 3278 3227 3098 2944 2780 2760 2739 2718 2679 2598 2460 2362 2225 2131 2099 2098 2096 2096 2092 2088 2083 2073 2041 1975 1918 1779 1598 1555 1523 1507 1502 1499 1496 1492 1488 1483 1479 1476 1474 1471 1469 1466 1462 1458 1455 1451 1447 1444 1440 1434 1430 1427 1424 1421 1418 1416 1406 1406 1406 1401 1401 1395 1395 1395 1389 1389 1389 1375 1375 1370 1366 1359 1344 1343 1336 1333 1327 1325 1323 1321 1317 1315 1313 1311 1308 1305 1303 1300 1298 1295 1293 1291 1289 1288 1286 1282 1282 1282 1289 1289 1289 1271 1252 1241 1231 1231 1231 1239 1239 1239 1234 1228 1227 1226 1220 1216 1211 1205 1202 1201 1200 1198 1196 1193 1190 1187 1184 1181 1177 1175 1172 1169 1165 1162 1160 1159 1157 1154 1152 1149 1146 1144 1143 1142 1139 1138 1137 1137 1137 1137 1138 1138 1138 1133 1127 1125 1119 1114 1109 1105 1103 1098 1096 1093 1091 1089 1089 1088 1082 1077 1077 1077 1075 1074 1071 1067 1065 1063 1061 1058 1053 1052 1049 1047 1045 1043 1042 1039 1035 1033 1032 1030 1028 1026 1025 1024 1022 1020 1018 1015 1012 1011 1011 1010 1008 1006 1006 1005 1004 1002 999 997 995 993 992 990 985 983 980 980 980 979 976 974 973 972 971 968 965 963 960 958 951 951 950 950 943 942 940 940 938 938 938 938 938 938 930 930 930 932 932 932 929 923 923 920 915 913 911 910 910 910 909 904 904 903 903 903 901 900 0 0 0 0 0 0 0 0 0 0 0 0 0 0 0 0 0 0 0 0 0 0 0 0 0 0 0 0 4 5 858 0 0 0 857 857 855 855 855 853 851 851 850 849 848 847 846 845 844 842 840 839 838 836 835 832 831 830 828 827 826 825 824 823 822 822 821 821 821 821 821 820 820 820 820 820 822 822 822 811 808 808 808 820 878 947 1027 1321 1402 1444 1444 1503 1639 1769 1828 1872 1884 1884 1884 1881 1878 1877 1875 1874 1874 1873 1871 1869 1865 1865 1859 1855 1855 1852 1841 1830 1828 1821 1811 1811 1811 1816 1860 1881 1911 1924 1942 1963 2052 2061 2061 2065
0 0 0 0 0 0 0 0 0 0 0 0 0 0 0 0 0 0 0 0 2001 2001 2001 1959 1895 1863 1863 1863 1897 1914 1914 1914 1876 1842 1812 1770 1770 1770 1791 1836 1849 1872 1936 1950 1967 2006 2006 2006 1951 1891 1883 1883 1883 1936 1963 1987 1987 1987 1945 1901 1901 1901 1933 1947 1947 1947 1942 1907 1901 1898 1888 1887 1882 1879 1879 1879 1890 1902 1927 1951 1951 1951 1909 1871 1871 1871 1871 1874 1879 1888 1888 1888 1898 1898 1899 1909 1918 1918 1918 1911 1911 1911 1907 1948 1948 1955 1978 2046 2129 2244 2329 2495 2802 3135 3517 3530 3530 3530 3526 3526 3526 3531 3531 3531 3525 3521 3521 3521 3522 3522 3522 3520 3519 3516 3516 3516 3519 3520 3521 3521 3521 3521 3525 3529 3529 3530 3530 3529 3529 3529 3528 3527 3522 3519 3518 3517 3517 3515 3515 3513 3513 3510 3506 3504 3504 3498 3496 3496 3496 3496 3496 3495 3491 3491 3491 3491 3488 3485 3483 3479 3477 3477 3476 3474 3470 3470 3470 3473 3475 3475 3475 3475 3475 3475 3475 3475 3476 3476 3476 3476 3472 3469 3468 3468 3468 3469 3469 3469 3469 3469 3469 3467 3462 3462 3460 3459 3455 3455 3449 3440 3430 3418 3395 3374 3356 3351 3347 3341 3341 3341 3333 3333 3330 3328 3327 3320 3313 3303 3278 3223 3094 2942 2764 2751 2734 2714 2679 2590 2460 2348 2215 2128 2098 2096 2094 2094 2092 2088 2083 2073 2032 1975 1918 1779 1598 1544 1522 1507 1502 1499 1496 1492 1488 1483 1479 1476 1473 1471 1468 1464 1462 1458 1455 1451 1448 1446 1442 1436 1430 1427 1424 1421 1418 1414 1405 1405 1405 1402 1402 1395 1388 1388 1388 1388 1388 1389 1389 1391 1391 1391 1365 1348 1343 1333 1326 1325 1323 1321 1317 1315 1312 1310 1307 1305 1303 1299 1297 1295 1293 1291 1289 1286 1282 1281 1281 1281 1282 1282 1282 1270 1252 1241 1231 1231 1231 1236 1236 1236 1234 1228 1225 1224 1220 1216 1211 1205 1203 1202 1200 1198 1196 1193 1190 1187 1183 1180 1177 1174 1171 1168 1163 1162 1159 1157 1156 1153 1152 1147 1145 1144 1143 1141 1139 1137 1137 1136 1136 1136 1136 1130 1124 1123 1121 1115 1111 1108 1104 1103 1102 1098 1095 1093 1090 1088 1088 1087 1082 1077 1077 1076 1075 1075 1071 1068 1066 1064 1061 1057 1053 1049 1048 1047 1045 1042 1041 1038 1035 1033 1032 1030 1028 1026 1025 1023 1022 1020 1017 1015 1012 1010 1010 1008 1007 1006 1005 1004 1002 1001 999 997 994 992 991 989 985 983 980 980 980 979 977 973 972 972 969 967 964 961 959 955 951 951 950 950 943 942 940 940 938 938 938 940 940 940 929 929 929 929 929 929 925 923 923 919 915 913 911 911 910 907 907 905 905 905 906 906 906 900 0 0 0 0 0 0 0 0 0 0 0 0 0 0 0 0 0 0 0 0 0 0 0 0 0 0 0 0 0 0 857 858 858 857 857 857 855 855 854 854 853 852 850 849 848 847 846 845 844 842 840 839 837 836 834 832 831 829 828 827 826 824 824 823 822 821 821 821 821 820 820 820 820 820 820 820 822 822 822 812 808 808 808 827 879 956 1027 1351 1431 1467 1468 1526 1662 1785 1843 1873 1884 1884 1884 1881 1878 1877 1875 1874 1874 1873 1871 1869 1865 1862 1859 1855 1855 1852 1841 1837 1835 1833 1812 1810 1810 1810 1826 1883 1915 1937 1966 2001 2057 2061 2061 2065
0 0 0 0 0 0 0 0 0 0 0 0 0 0 0 0 0 0 0 0 1861 1890 1890 1890 1889 1863 1863 1863 1873 1873 1873 1854 1852 1839 1812 1770 1770 1770 1774 1800 1802 1808 1823 1867 1967 2007 2007 2007 1962 1915 1883 1883 1883 1931 1934 1935 1934 1934 1909 1898 1898 1898 1929 1943 1943 1943 1942 1907 1889 1888 1885 1882 1881 1879 1879 1879 1890 1902 1907 1928 1928 1928 1887 1864 1863 1863 1863 1867 1870 1888 1888 1888 1885 1885 1885 1885 1895 1896 1896 1896 1898 1904 1904 1941 1948 1949 2016 2074 2152 2273 2409 2611 2827 3170 3517 3527 3527 3527 3523 3523 3523 3531 3531 3531 3525 3525 3525 3524 3524 3524 3522 3520 3519 3516 3516 3516 3519 3520 3521 3521 3521 3521 3525 3529 3531 3531 3531 3531 3531 3529 3528 3527 3523 3520 3518 3517 3517 3517 3515 3513 3513 3511 3510 3508 3504 3498 3495 3495 3495 3495 3495 3495 3491 3491 3491 3490 3488 3485 3483 3479 3477 3476 3476 3474 3470 3470 3470 3473 3476 3476 3476 3476 3476 3475 3475 3475 3476 3475 3475 3474 3472 3469 3468 3468 3468 3470 3470 3470 3469 3469 3469 3468 3466 3462 3460 3459 3457 3456 3449 3440 3427 3417 3393 3366 3350 3350 3347 3343 3343 3343 3333 3333 3330 3330 3330 3326 3320 3302 3278 3223 3094 2937 2754 2741 2732 2713 2679 2588 2457 2318 2202 2128 2098 2094 2093 2092 2090 2087 2080 2071 2033 1981 1918 1779 1605 1538 1519 1507 1501 1496 1494 1492 1488 1483 1479 1476 1472 1469 1466 1464 1460 1458 1455 1451 1449 1446 1443 1438 1432 1428 1424 1421 1417 1412 1405 1405 1405 1405 1405 1405 1386 1383 1383 1383 1384 1388 1389 1419 1419 1419 1381 1361 1355 1334 1326 1325 1325 1321 1317 1315 1312 1309 1307 1305 1302 1299 1296 1295 1292 1290 1287 1284 1282 1281 1281 1281 1278 1276 1276 1262 1256 1249 1238 1236 1236 1236 1236 1236 1232 1228 1223 1222 1218 1216 1211 1204 1203 1201 1200 1198 1195 1193 1190 1186 1182 1179 1176 1174 1170 1167 1163 1161 1158 1157 1155 1152 1148 1146 1145 1143 1143 1140 1137 1136 1136 1136 1136 1132 1128 1124 1123 1122 1120 1114 1110 1107 1104 1103 1100 1097 1095 1093 1090 1088 1088 1087 1082 1079 1077 1076 1075 1073 1070 1067 1067 1064 1061 1057 1053 1049 1048 1047 1045 1042 1040 1038 1035 1033 1032 1030 1028 1025 1023 1022 1021 1020 1016 1014 1012 1010 1010 1008 1007 1006 1004 1003 1001 1000 998 997 994 991 990 988 985 983 980 980 980 979 977 973 971 971 968 965 962 961 959 955 951 951 951 950 947 943 942 940 938 938 938 940 940 940 929 929 928 924 924 920 916 914 914 914 914 914 912 911 909 907 903 903 903 905 906 906 906 0 0 0 0 0 0 0 0 0 0 0 0 0 0 0 0 0 0 0 0 0 0 0 0 0 0 0 0 0 0 0 0 857 858 858 858 857 855 854 854 853 853 852 850 849 848 847 846 845 843 842 840 839 837 835 834 832 831 829 828 826 825 824 824 823 822 821 821 821 821 820 820 819 819 819 819 820 822 822 822 812 808 808 808 835 894 957 1027 1357 1479 1502 1503 1569 1674 1790 1856 1877 1883 1883 1883 1881 1881 1880 1877 1877 1874 1873 1871 1869 1865 1861 1860 1859 1856 1852 1851 1845 1844 1844 1818 1815 1815 1815 1826 1888 1919 1944 1982 2031 2061 2063 2066 2066
0 0 0 0 0 0 0 0 0 0 0 0 0 0 0 0 0 0 0 0 1738 1742 1841 1855 1855 1856 1856 1856 1856 1856 1828 1828 1813 1812 1812 1787 1785 1785 1787 1798 1802 1806 1808 1867 1937 2007 2007 2007 1972 1926 1883 1883 1883 1889 1889 1889 1863 1859 1859 1859 1865 1896 1927 1943 1943 1943 1931 1902 1881 1876 1875 1870 1870 1870 1870 1879 1890 1898 1898 1908 1908 1908 1883 1864 1859 1859 1859 1863 1869 1880 1882 1882 1882 1877 1877 1877 1887 1891 1891 1892 1898 1904 1904 1925 1929 1948 2031 2102 2157 2282 2487 2709 2977 3407 3517 3527 3527 3527 3519 3519 3519 3524 3524 3524 3522 3522 3522 3524 3524 3524 3522 3520 3519 3516 3516 3516 3519 3519 3519 3520 3521 3521 3525 3527 3530 3531 3531 3531 3531 3529 3528 3527 3523 3520 3518 3517 3515 3515 3515 3515 3514 3514 3514 3511 3507 3500 3496 3496 3496 3494 3494 3494 3491 3491 3491 3489 3488 3485 3483 3479 3477 3475 3475 3474 3470 3470 3470 3475 3476 3476 3477 3476 3476 3475 3475 3475 3475 3475 3475 3473 3472 3471 3471 3470 3470 3469 3469 3469 3469 3469 3468 3468 3467 3463 3460 3459 3457 3457 3449 3440 3427 3415 3379 3365 3336 3336 3336 3345 3345 3345 3338 3334 3333 3333 3330 3326 3320 3301 3278 3223 3094 2914 2754 2732 2721 2713 2679 2584 2457 2313 2188 2128 2098 2093 2089 2089 2087 2083 2079 2071 2041 1983 1914 1771 1605 1537 1519 1507 1501 1496 1494 1491 1488 1483 1479 1475 1471 1468 1465 1463 1460 1458 1455 1452 1449 1446 1443 1439 1433 1428 1424 1420 1416 1411 1405 1405 1405 1405 1405 1405 1386 1377 1377 1377 1384 1384 1388 1419 1419 1419 1381 1370 1355 1334 1327 1325 1325 1321 1317 1314 1312 1309 1307 1304 1302 1299 1296 1294 1292 1289 1287 1284 1281 1279 1276 1276 1275 1272 1271 1262 1256 1249 1240 1236 1236 1236 1236 1236 1230 1228 1222 1219 1218 1216 1211 1203 1202 1201 1200 1197 1195 1192 1188 1183 1179 1177 1174 1171 1170 1166 1162 1160 1158 1157 1154 1151 1148 1145 1144 1143 1143 1138 1136 1135 1133 1131 1131 1131 1126 1123 1121 1120 1117 1111 1109 1107 1104 1103 1099 1097 1095 1093 1091 1088 1087 1085 1082 1079 1077 1076 1076 1071 1069 1066 1066 1065 1065 1059 1053 1049 1048 1047 1045 1041 1038 1037 1036 1033 1032 1030 1027 1024 1022 1021 1020 1016 1014 1014 1012 1010 1010 1008 1006 1005 1003 1001 999 998 997 996 994 991 989 987 985 983 980 980 980 979 977 973 970 970 968 965 961 957 956 954 952 951 951 951 947 945 943 941 938 938 938 939 939 939 935 931 928 928 923 920 916 914 914 914 914 914 912 911 909 906 905 905 905 906 906 906 906 0 0 0 0 0 0 0 0 0 0 0 0 0 0 0 0 0 0 0 0 0 0 0 0 0 0 0 0 0 0 0 0 857 858 858 858 857 855 854 854 853 853 852 850 849 848 847 845 844 843 841 840 838 837 835 834 832 831 829 828 826 825 824 824 823 822 821 821 820 820 820 820 819 819 819 819 820 820 820 819 812 809 809 809 836 900 1000 1174 1357 1485 1525 1526 1586 1697 1803 1864 1878 1879 1880 1880 1881 1883 1880 1878 1878 1874 1873 1871 1869 1865 1861 1861 1860 1860 1851 1851 1848 1844 1844 1828 1825 1825 1825 1826 1888 1922 1954 2004 2034 2066 2066 2066 2066
0 0 0 0 0 0 0 0 0 0 0 0 0 0 0 0 0 0 0 0 1738 1742 1825 1841 1841 1852 1855 1852 1852 1852 1787 1787 1787 1785 1812 1812 1803 1802 1803 1802 1802 1806 1808 1867 1920 2001 2001 2001 1972 1926 1898 1898 1898 1898 1890 1882 1863 1851 1851 1851 1869 1896 1924 1929 1929 1929 1916 1899 1881 1875 1870 1869 1868 1868 1870 1872 1876 1880 1884 1885 1884 1880 1874 1864 1851 1851 1851 1856 1862 1880 1881 1881 1881 1871 1871 1871 1882 1886 1886 1892 1898 1907 1907 1911 1925 1955 2045 2106 2175 2307 2522 2809 2997 3479 3524 3530 3530 3530 3523 3522 3522 3522 3522 3522 3522 3522 3523 3525 3525 3525 3522 3520 3519 3516 3516 3516 3519 3519 3519 3520 3521 3524 3526 3526 3530 3531 3531 3531 3531 3529 3527 3527 3523 3520 3518 3514 3513 3513 3513 3514 3514 3514 3514 3511 3508 3505 3500 3497 3496 3494 3494 3494 3492 3491 3491 3488 3488 3486 3484 3481 3477 3475 3474 3473 3473 3473 3473 3475 3476 3476 3477 3476 3476 3475 3475 3475 3475 3475 3473 3473 3472 3471 3471 3470 3470 3470 3470 3467 3467 3467 3467 3467 3467 3463 3460 3458 3457 3457 3449 3438 3425 3394 3370 3356 3336 3336 3336 3345 3345 3345 3338 3333 3333 3332 3330 3326 3320 3301 3278 3208 3074 2889 2754 2727 2711 2698 2676 2581 2457 2311 2188 2128 2098 2089 2085 2085 2084 2081 2078 2067 2033 1981 1906 1767 1605 1537 1519 1509 1501 1496 1494 1491 1487 1484 1479 1475 1471 1468 1465 1462 1459 1458 1455 1452 1450 1447 1443 1439 1433 1428 1424 1420 1416 1411 1407 1407 1407 1405 1405 1405 1382 1371 1371 1371 1374 1379 1388 1419 1419 1419 1381 1370 1355 1334 1327 1327 1325 1321 1317 1314 1312 1308 1306 1304 1301 1299 1296 1293 1290 1288 1286 1284 1281 1279 1275 1270 1264 1261 1256 1255 1255 1249 1244 1240 1239 1239 1236 1233 1231 1226 1220 1219 1218 1216 1211 1203 1203 1201 1200 1197 1195 1190 1187 1183 1178 1177 1174 1171 1169 1166 1162 1160 1158 1157 1154 1151 1147 1143 1143 1141 1139 1138 1136 1135 1132 1131 1130 1130 1126 1122 1120 1120 1116 1111 1109 1107 1104 1102 1099 1097 1095 1093 1089 1088 1086 1085 1081 1077 1077 1076 1074 1073 1069 1066 1065 1065 1065 1059 1054 1053 1051 1045 1045 1040 1038 1037 1036 1034 1032 1030 1027 1023 1020 1019 1018 1016 1014 1013 1012 1010 1009 1007 1006 1005 1003 1001 999 998 997 996 995 992 989 987 985 983 980 980 980 979 977 974 970 969 966 961 959 957 955 954 952 951 951 951 947 945 943 941 937 937 937 938 938 938 937 935 931 926 923 920 916 914 914 914 914 914 912 911 908 906 906 906 906 906 906 906 905 4 0 0 0 0 0 0 0 0 0 0 0 0 0 0 0 0 0 0 0 0 0 0 0 0 0 0 0 0 0 0 0 857 857 857 857 856 855 854 853 853 853 852 850 848 847 846 844 844 843 841 840 838 836 835 833 832 831 829 828 826 825 824 824 823 822 821 820 820 820 820 820 819 818 818 818 818 818 818 818 812 810 810 810 837 900 1012 1187 1385 1485 1526 1586 1588 1719 1809 1864 1876 1877 1877 1877 1878 1879 1879 1878 1878 1874 1873 1871 1869 1865 1860 1860 1860 1860 1851 1851 1848 1844 1844 1844 1843 1843 1843 1845 1891 1946 1969 2013 2045 2066 2066 2066 2066
0 0 0 0 0 0 0 0 0 0 0 0 0 0 0 0 0 0 1713 1738 1742 1742 1825 1832 1832 1832 1825 1814 1808 1807 1743 1743 1743 1769 1785 1804 1815 1838 1838 1838 1828 1828 1828 1883 1916 1946 1968 1968 1946 1926 1898 1898 1898 1898 1890 1882 1863 1851 1851 1851 1869 1898 1911 1911 1911 1906 1902 1897 1881 1875 1870 1869 1868 1868 1870 1871 1871 1871 1869 1861 1861 1861 1861 1861 1851 1851 1851 1856 1869 1880 1880 1880 1870 1861 1861 1861 1876 1880 1892 1901 1901 1910 1911 1925 1927 1955 2050 2111 2208 2349 2613 2947 3207 3486 3519 3523 3535 3535 3535 3523 3522 3522 3522 3522 3522 3522 3523 3527 3527 3527 3527 3526 3524 3521 3517 3517 3517 3517 3517 3520 3521 3524 3526 3527 3530 3530 3531 3531 3531 3529 3527 3527 3523 3520 3516 3514 3513 3513 3513 3513 3514 3514 3514 3511 3508 3505 3501 3497 3497 3496 3496 3496 3494 3492 3491 3489 3488 3488 3486 3482 3477 3474 3474 3474 3474 3474 3475 3475 3475 3476 3476 3476 3476 3476 3475 3474 3474 3474 3473 3472 3472 3471 3471 3471 3470 3470 3469 3467 3467 3467 3467 3467 3467 3463 3458 3457 3456 3456 3449 3438 3421 3387 3351 3345 3336 3336 3336 3345 3345 3345 3338 3333 3330 3327 3324 3319 3309 3295 3272 3197 3070 2883 2758 2727 2704 2692 2671 2579 2454 2310 2185 2128 2094 2088 2085 2084 2082 2080 2078 2058 2025 1973 1885 1736 1572 1538 1521 1509 1502 1497 1494 1490 1487 1483 1479 1475 1471 1467 1464 1462 1459 1457 1455 1452 1450 1446 1443 1439 1433 1428 1424 1420 1416 1411 1407 1399 1399 1399 1395 1395 1382 1371 1371 1371 1371 1375 1383 1383 1383 1373 1370 1368 1352 1330 1327 1327 1326 1321 1318 1315 1312 1308 1306 1304 1301 1299 1296 1293 1290 1287 1284 1282 1280 1279 1275 1270 1264 1261 1255 1254 1253 1249 1246 1243 1239 1239 1235 1233 1228 1224 1219 1219 1218 1214 1212 1210 1203 1202 1201 1198 1195 1187 1183 1181 1178 1177 1174 1171 1169 1165 1160 1158 1158 1157 1154 1151 1146 1142 1141 1141 1139 1137 1136 1133 1131 1130 1130 1126 1125 1122 1120 1118 1115 1111 1109 1107 1104 1102 1099 1097 1095 1092 1089 1088 1087 1084 1080 1076 1076 1076 1076 1076 1068 1066 1065 1065 1065 1059 1054 1053 1051 1045 1044 1040 1037 1036 1036 1034 1032 1030 1027 1022 1019 1018 1015 1015 1014 1013 1012 1010 1009 1007 1006 1004 1002 1000 999 998 997 996 994 991 989 987 984 982 980 979 979 979 977 973 970 968 964 961 958 955 954 951 951 951 951 951 947 945 942 941 936 935 935 935 937 937 937 935 931 928 923 921 919 918 918 917 916 914 912 909 907 906 906 905 905 906 906 905 902 4 0 0 0 0 0 0 0 0 0 0 0 0 0 0 0 0 0 0 0 0 0 0 0 0 0 0 0 0 0 0 0 0 857 857 857 856 855 853 852 852 852 852 850 848 847 845 844 843 842 840 839 838 836 834 833 832 831 829 828 826 825 824 824 823 822 821 820 820 820 820 819 819 818 818 818 818 818 818 817 812 812 812 817 841 900 1013 1194 1385 1485 1526 1586 1588 1719 1810 1864 1872 1872 1873 1873 1873 1878 1880 1880 1880 1874 1873 1870 1867 1857 1857 1857 1857 1857 1843 1843 1843 1844 1848 1856 1857 1864 1875 1890 1909 1951 1990 2026 2056 2077 2077 2077 2077
0 0 0 0 0 0 0 0 0 0 0 0 0 0 0 0 0 0 1832 1836 1836 1835 1833 1833 1831 1831 1825 1814 1808 1807 1730 1730 1730 1764 1804 1807 1852 1869 1880 1880 1880 1880 1880 1887 1905 1916 1943 1943 1943 1913 1898 1897 1897 1897 1890 1882 1876 1858 1858 1858 1869 1898 1906 1906 1906 1902 1891 1890 1881 1876 1872 1871 1869 1871 1871 1859 1859 1857 1845 1845 1845 1850 1851 1851 1851 1851 1851 1856 1870 1870 1870 1866 1862 1861 1861 1861 1876 1878 1894 1915 1936 1936 1938 1941 1941 2005 2052 2111 2282 2395 2649 3008 3358 3487 3512 3523 3535 3535 3535 3521 3521 3521 3522 3522 3524 3524 3527 3527 3528 3529 3529 3530 3530 3530 3521 3517 3517 3517 3517 3517 3521 3524 3526 3528 3530 3530 3530 3530 3530 3529 3527 3525 3523 3519 3516 3514 3513 3513 3513 3512 3512 3510 3510 3510 3508 3507 3502 3497 3497 3496 3497 3497 3496 3495 3492 3492 3492 3492 3492 3486 3477 3475 3474 3474 3474 3475 3475 3475 3475 3475 3476 3476 3476 3476 3475 3474 3474 3474 3472 3472 3472 3472 3471 3471 3471 3470 3469 3467 3467 3467 3467 3467 3467 3463 3457 3457 3456 3454 3449 3438 3420 3387 3349 3345 3345 3345 3344 3344 3344 3341 3334 3330 3326 3320 3316 3311 3307 3295 3272 3184 3066 2880 2770 2727 2704 2687 2665 2577 2453 2308 2180 2114 2088 2086 2085 2082 2082 2079 2072 2055 2025 1960 1841 1693 1564 1540 1521 1509 1502 1498 1494 1490 1487 1483 1478 1474 1470 1467 1464 1462 1459 1457 1455 1452 1450 1446 1443 1438 1433 1428 1424 1420 1416 1411 1407 1399 1399 1398 1394 1392 1382 1371 1371 1368 1368 1366 1357 1357 1357 1352 1352 1352 1338 1327 1327 1325 1324 1321 1318 1315 1312 1308 1306 1304 1301 1299 1296 1292 1288 1287 1284 1282 1279 1278 1275 1269 1264 1261 1255 1252 1250 1249 1246 1243 1239 1239 1235 1231 1228 1223 1221 1219 1217 1214 1211 1206 1205 1203 1201 1198 1195 1187 1183 1181 1178 1177 1174 1171 1167 1159 1158 1158 1158 1158 1157 1153 1146 1142 1141 1141 1139 1137 1136 1133 1131 1129 1129 1126 1124 1122 1120 1117 1115 1111 1109 1106 1104 1102 1098 1096 1094 1092 1090 1088 1087 1084 1080 1075 1075 1075 1070 1069 1059 1059 1059 1059 1059 1059 1054 1053 1051 1044 1039 1036 1036 1036 1036 1033 1031 1029 1025 1020 1019 1017 1015 1015 1014 1013 1011 1009 1008 1006 1005 1003 1001 1000 999 997 997 996 994 991 989 986 984 982 980 979 977 977 976 973 970 966 963 960 958 954 953 951 949 949 949 949 947 941 933 929 929 929 929 934 937 937 937 935 931 928 925 923 922 920 918 917 916 914 911 909 907 907 907 907 907 907 907 906 902 0 0 0 0 0 0 0 0 0 0 0 0 0 0 0 0 0 0 0 0 0 0 0 0 0 0 0 0 0 0 0 0 0 857 857 857 855 854 852 851 851 850 849 848 848 846 845 844 842 842 840 839 838 836 834 833 832 831 829 828 826 825 825 824 823 822 821 820 820 820 820 819 818 818 818 817 817 817 817 816 814 814 814 817 841 896 1013 1194 1385 1465 1498 1586 1588 1719 1814 1864 1872 1872 1872 1872 1872 1875 1881 1881 1881 1880 1873 1870 1863 1853 1853 1849 1846 1846 1831 1820 1820 1820 1846 1857 1874 1875 1896 1913 1924 1958 1995 2067 2085 2087 2087 2087 2085
0 0 0 0 0 0 0 0 0 0 0 0 0 0 0 0 0 0 1866 1873 1873 1873 1835 1825 1821 1820 1820 1814 1807 1807 1730 1730 1730 1764 1804 1807 1852 1874 1902 1902 1902 1887 1887 1887 1904 1904 1916 1904 1898 1894 1888 1888 1888 1892 1895 1895 1895 1874 1874 1874 1890 1901 1906 1906 1906 1902 1891 1876 1876 1876 1890 1890 1890 1874 1849 1830 1829 1829 1830 1833 1840 1840 1840 1824 1824 1824 1846 1863 1870 1870 1870 1866 1862 1845 1845 1845 1864 1864 1894 1915 1936 1938 1948 1956 2002 2033 2061 2131 2296 2478 2704 3057 3365 3487 3506 3523 3535 3535 3535 3521 3521 3521 3522 3524 3525 3526 3527 3528 3528 3531 3533 3533 3533 3532 3524 3517 3517 3517 3517 3517 3518 3522 3525 3528 3530 3530 3530 3530 3529 3529 3526 3525 3523 3519 3516 3516 3514 3514 3514 3512 3510 3509 3509 3508 3507 3507 3502 3498 3498 3498 3499 3499 3499 3497 3493 3493 3492 3492 3492 3487 3483 3475 3475 3475 3475 3475 3475 3475 3475 3475 3476 3476 3476 3476 3475 3474 3474 3474 3472 3472 3472 3472 3472 3472 3471 3470 3470 3468 3467 3467 3467 3467 3466 3463 3458 3457 3455 3454 3449 3437 3420 3387 3349 3345 3345 3345 3343 3343 3343 3337 3330 3327 3321 3317 3314 3310 3307 3295 3264 3166 3036 2842 2773 2730 2703 2683 2644 2572 2449 2289 2145 2096 2088 2086 2084 2081 2079 2072 2057 2042 2020 1953 1839 1693 1562 1540 1521 1508 1502 1498 1494 1490 1485 1482 1477 1474 1470 1467 1465 1462 1459 1457 1454 1451 1449 1446 1443 1437 1432 1428 1424 1420 1416 1411 1407 1399 1397 1394 1391 1388 1382 1379 1374 1367 1361 1359 1355 1354 1350 1348 1348 1344 1338 1327 1327 1325 1324 1320 1317 1314 1311 1308 1308 1303 1301 1299 1296 1292 1288 1287 1284 1282 1279 1278 1274 1268 1262 1261 1256 1252 1250 1248 1245 1241 1239 1239 1234 1231 1228 1223 1221 1219 1217 1214 1211 1206 1205 1205 1201 1197 1195 1187 1183 1181 1178 1174 1174 1170 1165 1158 1157 1157 1157 1157 1157 1153 1146 1141 1141 1141 1140 1137 1135 1133 1131 1129 1128 1125 1124 1122 1119 1117 1114 1111 1109 1105 1104 1101 1098 1096 1094 1092 1089 1088 1087 1084 1080 1075 1075 1071 1070 1069 1059 1057 1052 1052 1052 1051 1050 1049 1048 1043 1037 1035 1035 1035 1034 1031 1029 1026 1025 1020 1017 1016 1015 1015 1013 1012 1011 1009 1007 1006 1005 1003 1001 1000 998 997 996 995 994 991 988 984 984 982 980 979 0 0 0 0 0 966 963 960 958 954 952 951 949 949 949 948 945 937 931 929 929 929 929 931 935 935 935 934 931 928 926 926 924 921 918 917 915 913 911 909 909 909 909 909 907 907 907 906 902 0 0 0 0 0 0 0 0 0 0 0 0 0 0 0 0 0 0 0 0 0 0 0 0 0 0 0 0 0 0 0 0 0 856 856 856 855 854 852 851 850 849 848 848 848 846 845 843 842 841 840 839 837 836 834 833 832 831 829 828 827 826 825 824 823 823 822 820 820 820 819 819 818 818 817 817 817 817 817 817 817 817 817 817 841 896 1013 1194 1378 1442 1479 1586 1588 1716 1814 1864 1872 1872 1872 1870 1870 1870 1878 1885 1885 1885 1873 1869 1859 1849 1846 1845 1842 1835 1822 1820 1820 1820 1844 1859 1879 1879 1900 1916 1933 1965 2015 2093 2094 2099 2094 2094 2094
0 0 0 0 0 0 0 0 0 0 0 0 0 0 0 0 0 1 1866 1873 1873 1873 1825 1820 1820 1820 1820 1822 1822 1822 1730 1730 1730 1764 1810 1811 1874 1877 1902 1902 1902 1888 1879 1879 1879 1861 1861 1861 1864 1871 1875 1876 1878 1887 1895 1895 1895 1892 1892 1892 1909 1909 1909 1908 1906 1903 1891 1877 1877 1877 1903 1903 1903 1882 1849 1825 1825 1825 1829 1833 1840 1840 1840 1824 1824 1824 1849 1870 1872 1872 1870 1866 1862 1845 1845 1845 1862 1863 1894 1915 1936 1938 1948 1956 2002 2045 2092 2147 2304 2550 2763 3094 3377 3493 3519 3534 3534 3534 3530 3523 3523 3523 3523 3524 3525 3527 3528 3530 3532 3533 3533 3533 3533 3532 3527 3525 3521 3520 3518 3518 3518 3522 3525 3528 3530 3530 3530 3530 3529 3529 3526 3522 3521 3519 3517 3517 3517 3517 3517 3514 3510 3509 3509 3508 3508 3508 3508 3507 3505 3504 3504 3503 3503 3500 3499 3498 3495 3492 3492 3487 3486 3483 3477 3476 3476 3476 3475 3475 3475 3475 3476 3476 3476 3476 3475 3474 3474 3474 3472 3472 3472 3472 3472 3472 3472 3472 3471 3471 3469 3468 3468 3467 3466 3463 3458 3457 3454 3454 3448 3437 3421 3396 3349 3346 3346 3346 3340 3340 3340 3334 3329 3324 3321 3317 3314 3310 3307 3305 3262 3150 3019 2832 2773 2730 2703 2676 2636 2549 2436 2279 2145 2096 2088 2086 2084 2081 2079 2072 2057 2042 2019 1947 1835 1691 1559 1540 1520 1508 1502 1498 1494 1490 1484 1481 1477 1474 1471 1468 1465 1463 1460 1457 1454 1451 1449 1446 1442 1437 1432 1428 1424 1421 1416 1412 1402 1399 1395 1392 1391 1388 1382 1379 1374 1367 1361 1359 1355 1351 1350 1347 1347 1344 1338 1328 1327 1325 1324 1320 1316 1314 1311 1308 1308 1303 1301 1298 1296 1292 1287 1286 1284 1282 1278 1277 1274 1268 1264 1262 1257 1252 1250 1246 1244 1240 1238 1236 1233 1231 1227 1223 1221 1219 1217 1214 1211 1206 1205 1205 1203 1192 1189 1188 1187 1175 1174 1173 1170 1167 1163 1158 1157 1157 1157 1157 1157 1154 1146 1141 1141 1140 1140 1138 1135 1133 1131 1129 1128 1125 1123 1121 1119 1117 1114 1111 1108 1105 1103 1101 1098 1096 1094 1092 1089 1088 1087 1084 1079 1075 1075 1075 1075 1075 1059 1053 1051 1050 1050 1050 1050 1049 1046 1040 1036 1033 1033 1033 1030 1029 1026 1025 1025 1020 1016 1016 1016 1014 1013 1012 1011 1009 1007 1006 1004 1003 1000 999 998 996 996 995 992 991 988 984 984 982 979 978 0 0 0 0 0 966 963 960 959 954 952 951 950 949 949 946 942 935 930 929 928 928 928 928 932 934 934 934 931 929 928 926 924 921 918 915 914 912 911 910 910 909 908 907 907 907 906 904 902 0 0 0 0 0 0 0 0 0 0 0 0 0 0 0 0 0 0 0 0 0 0 0 0 0 0 0 0 0 0 0 0 0 854 855 855 854 854 852 851 850 848 848 848 847 846 845 843 842 841 840 839 837 836 834 833 832 831 829 828 827 826 825 824 823 823 822 820 820 820 819 819 818 817 817 817 817 817 817 817 817 817 817 817 835 896 1013 1186 1378 1439 1478 1586 1588 1710 1814 1872 1874 1874 1874 1866 1866 1866 1875 1885 1885 1885 1873 1858 1855 1846 1845 1845 1842 1835 1822 1820 1820 1820 1844 1861 1880 1881 1900 1917 1969 2013 2097 2099 2104 2109 2104 2104 0
0 0 0 0 0 0 0 0 0 0 0 0 0 0 0 0 0 0 0 1873 1873 1873 1799 1793 1793 1793 1801 1822 1822 1822 1809 1809 1809 1817 1862 1869 1869 1873 1877 1878 1880 1888 1880 1878 1864 1824 1824 1824 1824 1844 1855 1856 1872 1887 1895 1895 1895 1893 1893 1893 1928 1928 1928 1928 1925 1903 1892 1881 1881 1881 1903 1903 1903 1884 1849 1825 1825 1825 1829 1833 1843 1843 1843 1824 1824 1824 1852 1872 1879 1879 1879 1879 1863 1845 1845 1845 1861 1862 1864 1886 1918 1918 1930 1956 2007 2052 2111 2273 2398 2610 2867 3195 3420 3493 3519 3534 3534 3534 3530 3523 3523 3523 3524 3527 3530 3533 3533 3534 3535 3535 3535 3535 3533 3532 3528 3528 3528 3528 3528 3522 3522 3522 3525 3529 3533 3533 3533 3530 3530 3529 3527 3522 3522 3522 3522 3525 3525 3525 3521 3515 3512 3509 3509 3509 3509 3510 3510 3510 3510 3508 3505 3505 3505 3504 3503 3503 3496 3492 3492 3488 3487 3486 3483 3482 3480 3478 3477 3476 3476 3476 3476 3477 3477 3476 3475 3474 3474 3474 3475 3475 3475 3475 3475 3474 3474 3474 3474 3474 3474 3472 3471 3468 3466 3464 3460 3458 3456 3454 3442 3437 3419 3400 3366 3361 3348 3344 3340 3340 3340 3334 3329 3324 3320 3317 3314 3310 3307 3305 3262 3146 3003 2816 2773 2730 2697 2668 2636 2547 2414 2265 2145 2096 2089 2087 2084 2081 2079 2072 2057 2042 2014 1937 1826 1678 1559 1536 1518 1508 1502 1498 1493 1489 1484 1480 1477 1474 1471 1468 1467 1464 1461 1457 1454 1451 1449 1446 1442 1437 1432 1429 1427 1425 1420 1414 1402 1401 1395 1391 1389 1385 1382 1379 1374 1365 1361 1359 1355 1355 1350 1349 1344 1338 1335 1331 1328 1327 1322 1316 1314 1313 1311 1308 1305 1301 1296 1296 1296 1292 1287 1285 1284 1283 1278 1273 1270 1268 1264 1262 1257 1252 1250 1246 1243 1240 1238 1235 1233 1229 1226 1223 1221 1218 1215 1212 1209 1205 1205 1204 1203 1186 1186 1186 1183 1175 1163 1161 1159 1159 1159 1157 1157 1156 1156 1156 1156 1156 1146 1141 1141 1140 1140 1138 1135 1132 1131 1129 1127 1125 1123 1120 1119 1115 1114 1110 1108 1105 1102 1100 1098 1096 1094 1092 1089 1088 1087 1084 1079 1075 1075 1075 1075 1075 1059 1049 1049 1049 1050 1050 1050 1049 1046 1040 1035 1031 1030 1027 1025 1025 1025 1023 1023 1019 1016 1015 1013 1013 1013 1012 1011 1009 1007 1005 1004 1002 1000 999 998 995 994 993 992 991 988 984 984 979 0 0 0 972 972 972 969 966 964 961 960 955 952 951 950 949 949 946 938 931 930 929 929 928 929 929 929 933 933 933 931 929 928 926 924 921 917 914 913 912 911 911 911 911 910 907 907 907 903 903 902 0 0 0 0 0 0 0 0 0 0 0 0 0 0 0 0 0 0 0 0 0 0 0 0 0 0 0 0 0 0 0 1 0 0 0 854 854 854 852 852 850 848 848 848 847 845 844 843 842 841 840 839 837 835 834 833 832 831 829 828 827 826 825 824 823 822 822 821 820 820 819 819 818 817 816 816 816 816 816 816 816 817 817 817 835 897 1013 1186 1378 1436 1478 1583 1703 1705 1809 1875 1875 1875 1874 1866 1866 1866 1872 1885 1885 1885 1873 1856 1854 1846 1845 1845 1844 1835 1822 1822 1822 1837 1844 1861 1881 1882 1904 1921 1993 2064 2110 2110 2116 2116 2110 2116 0
0 0 0 0 0 0 0 0 0 0 0 0 0 0 0 0 0 0 0 1784 1784 1784 1718 1718 1718 1735 1753 1822 1838 1838 1838 1838 1839 1860 1872 1872 1872 1875 1877 1909 1910 1910 1909 1891 1864 1824 1802 1802 1802 1824 1830 1832 1840 1859 1859 1859 1865 1865 1865 1893 1929 1933 1933 1933 1925 1903 1892 1881 1881 1881 1903 1903 1903 1891 1849 1821 1821 1821 1832 1847 1847 1847 1843 1835 1835 1835 1857 1872 1879 1882 1892 1892 1892 1870 1869 1862 1862 1864 1864 1865 1879 1880 1896 1954 2007 2061 2173 2312 2422 2636 2930 3261 3439 3531 3545 3545 3545 3534 3530 3526 3526 3526 3528 3529 3532 3535 3535 3536 3537 3536 3535 3533 3531 3528 3528 3528 3528 3528 3528 3528 3528 3532 3532 3534 3534 3537 3537 3537 3531 3530 3527 3521 3521 3521 3524 3526 3526 3526 3521 3517 3515 3515 3513 3513 3513 3512 3512 3512 3510 3508 3505 3505 3505 3504 3503 3503 3496 3492 3492 3488 3488 3488 3488 3488 3488 3484 3479 3479 3479 3479 3479 3479 3478 3477 3475 3475 3475 3476 3476 3476 3476 3476 3476 3478 3478 3478 3475 3475 3475 3475 3475 3471 3467 3465 3462 3458 3456 3454 3442 3437 3427 3400 3370 3361 3348 3342 3340 3340 3340 3334 3329 3323 3319 3317 3317 3314 3312 3305 3257 3144 2989 2807 2764 2724 2691 2665 2635 2540 2413 2262 2148 2103 2094 2091 2087 2085 2082 2079 2067 2042 2014 1937 1826 1678 1559 1528 1514 1504 1499 1496 1491 1489 1484 1480 1477 1474 1473 1469 1467 1464 1461 1459 1458 1454 1451 1447 1442 1437 1435 1435 1433 1428 1422 1414 1402 1401 1395 1391 1386 1382 1378 1374 1370 1365 1363 1361 1359 1355 1351 1348 1342 1338 1335 1332 1329 1326 1315 1314 1314 1312 1311 1305 1299 1296 1296 1295 1295 1293 1287 1285 1285 1283 1277 1271 1270 1268 1264 1261 1257 1252 1250 1246 1243 1240 1238 1235 1231 1229 1226 1223 1221 1218 1215 1212 1209 1205 1205 1204 1203 1184 1184 1183 1180 1170 1163 1161 1159 1157 1150 1150 1150 1150 1153 1154 1154 1154 1146 1141 1141 1140 1140 1138 1135 1132 1130 1128 1126 1124 1122 1120 1118 1115 1113 1110 1108 1105 1102 1100 1098 1096 1094 1092 1089 1088 1087 1084 1081 1081 1081 1077 1075 1075 1059 1049 1049 1049 1050 1050 1050 1049 1045 1040 1035 1029 1026 1023 1023 1023 1023 1023 1023 1021 1019 1016 1013 1013 1013 1012 1010 1008 1006 1005 1004 1002 1000 999 998 995 994 993 992 991 989 987 985 0 0 0 0 973 973 973 970 967 964 961 960 958 952 951 950 949 949 941 936 931 929 929 928 928 929 929 929 933 933 933 929 929 928 926 924 920 916 914 913 913 913 912 912 912 911 907 907 907 903 903 898 3 0 0 0 0 0 0 0 0 0 0 0 0 0 0 0 0 0 0 0 0 0 0 0 0 0 0 0 0 0 0 0 0 0 0 0 855 855 855 852 850 848 848 846 845 845 844 843 842 841 839 838 837 835 834 833 832 831 829 828 827 826 825 824 823 822 822 821 820 820 819 819 818 817 816 816 816 816 817 817 817 817 822 829 835 907 1034 1186 1384 1436 1478 1583 1703 1704 1809 1880 1880 1880 1877 1867 1864 1864 1864 1874 1874 1874 1873 1856 1854 1848 1846 1845 1839 1838 1838 1838 1846 1852 1861 1879 1898 1898 1915 1946 2017 2087 2115 2116 2120 2120 2116 2124 0
0 0 0 0 0 0 0 0 0 0 0 0 0 0 0 0 0 0 0 1735 1735 1735 1702 1678 1678 1678 1729 1769 1823 1836 1843 1851 1857 1869 1869 1869 1827 1827 1827 1850 1909 1909 1909 1891 1864 1824 1802 1786 1781 1781 1768 1768 1768 1831 1831 1831 1831 1831 1854 1892 1929 1933 1933 1933 1925 1903 1892 1881 1881 1881 1884 1891 1891 1891 1849 1821 1821 1821 1838 1856 1856 1856 1843 1835 1835 1835 1857 1868 1870 1879 1901 1901 1901 1886 1880 1879 1878 1864 1863 1847 1847 1847 1858 1938 2001 2062 2173 2332 2444 2669 3031 3380 3497 3531 3545 3545 3545 3535 3532 3532 3532 3532 3532 3533 3537 3537 3537 3537 3537 3537 3535 3533 3528 3528 3528 3528 3528 3528 3528 3537 3541 3541 3541 3539 3539 3539 3537 3537 3537 3531 3528 3521 3521 3521 3524 3526 3526 3526 3521 3518 3518 3517 3515 3515 3515 3514 3514 3512 3511 3508 3506 3506 3506 3504 3504 3503 3496 3493 3493 3491 3490 3490 3489 3488 3488 3484 3479 3479 3479 3480 3480 3480 3480 3478 3476 3476 3476 3476 3477 3477 3477 3477 3477 3478 3478 3478 3475 3475 3475 3475 3475 3472 3469 3466 3462 3459 3458 3454 3442 3437 3427 3401 3370 3361 3344 3342 3339 3339 3339 3334 3329 3323 3320 3320 3318 3317 3316 3307 3246 3141 2978 2807 2764 2724 2691 2665 2626 2538 2412 2260 2148 2106 2101 2097 2090 2088 2088 2085 2073 2047 2012 1937 1824 1678 1559 1518 1509 1502 1498 1493 1491 1489 1484 1481 1477 1475 1473 1471 1469 1465 1464 1463 1460 1456 1453 1452 1449 1447 1445 1442 1433 1428 1422 1414 1402 1401 1394 1391 1386 1381 1377 1373 1370 1366 1363 1361 1359 1355 1351 1349 1343 1338 1335 1332 1330 1325 1314 1312 1311 1311 1311 1305 1299 1296 1296 1295 1295 1293 1287 1285 1285 1282 1277 1270 1269 1268 1263 1260 1257 1252 1249 1246 1243 1240 1238 1234 1231 1228 1226 1223 1221 1218 1215 1212 1209 1206 1206 1205 1204 1176 1173 1170 1170 1170 1161 1160 1158 1154 1150 1150 1147 1147 1147 1150 1150 1150 1145 1141 1139 1139 1139 1138 1135 1132 1130 1127 1125 1123 1121 1119 1117 1114 1112 1109 1107 1105 1102 1100 1098 1096 1094 1091 1089 1087 1086 1083 1082 1082 1082 1078 1075 1075 1059 1049 1049 1049 1051 1051 1051 1051 1044 1040 1033 1027 1026 1023 1023 1023 1023 1023 1023 1021 1019 1016 1014 1013 1013 1012 1010 1008 1006 1005 1004 1002 1000 999 998 995 994 994 993 992 989 987 985 0 0 0 977 977 977 973 970 967 964 961 960 958 953 951 945 941 938 938 936 931 928 928 927 928 928 929 929 931 931 931 927 926 926 924 923 919 915 913 912 912 912 912 912 912 911 907 903 903 898 897 894 3 0 0 0 0 0 0 0 0 0 0 0 0 0 0 0 0 0 0 0 0 0 0 0 0 0 0 0 0 0 0 0 0 0 0 0 855 855 855 852 850 848 847 845 844 844 843 842 842 841 839 838 837 835 834 833 832 831 829 828 827 826 825 824 823 823 822 821 821 820 819 819 818 817 816 815 815 815 816 816 817 817 822 829 835 907 1050 1193 1390 1436 1479 1591 1704 1704 1809 1880 1881 1881 1881 1872 1864 1864 1864 1874 1874 1874 1874 1856 1854 1850 1847 1846 1839 1839 1839 1840 1852 1861 1874 1896 1919 1920 1947 1997 2043 2103 2115 2116 2119 2119 2116 2124 0
0 0 0 0 0 0 0 0 0 0 0 0 1761 1761 1761 0 0 0 0 0 0 0 1702 1678 1678 1678 1729 1769 1823 1836 1853 1869 1872 1873 1872 1869 1715 0 1715 1744 1862 1891 1891 1891 1864 1832 1802 1786 1781 1781 1761 1761 1761 1787 1801 1807 1809 1826 1843 1891 1929 1929 1929 1906 1865 1851 1847 1847 1847 1866 1867 1879 1879 1879 1848 1824 1824 1824 1838 1861 1861 1861 1841 1835 1835 1835 1857 1860 1860 1867 1901 1901 1901 1886 1880 1879 1879 1878 1866 1847 1847 1847 1847 1925 1992 2074 2237 2344 2491 2765 3120 3465 3508 3531 3545 3545 3545 3535 3534 3534 3534 3535 3536 3537 3537 3537 3537 3537 3536 3535 3535 3532 3527 3524 3523 3523 3523 3525 3528 3537 3542 3542 3542 3539 3539 3539 3538 3538 3538 3535 3529 3523 3523 3523 3524 3524 3524 3522 3518 3518 3518 3515 3515 3515 3515 3515 3515 3514 3511 3508 3506 3506 3506 3504 3504 3500 3497 3497 3496 3494 3492 3492 3491 3490 3488 3484 3480 3480 3480 3482 3482 3482 3481 3479 3477 3476 3476 3476 3477 3477 3477 3477 3477 3478 3478 3478 3475 3475 3475 3475 3475 3472 3469 3466 3463 3462 3461 3454 3444 3441 3426 3400 3370 3360 3343 3342 3339 3339 3339 3334 3329 3321 3320 3320 3320 3320 3320 3307 3230 3119 2954 2807 2764 2724 2691 2663 2625 2527 2401 2255 2148 2106 2103 2101 2097 2094 2092 2091 2078 2047 2011 1927 1809 1660 1560 1518 1509 1502 1498 1493 1491 1488 1485 1481 1478 1476 1474 1471 1470 1467 1467 1466 1460 1456 1456 1456 1453 1453 1452 1442 1433 1428 1422 1413 1399 1393 1393 1392 1386 1380 1377 1372 1369 1366 1363 1361 1359 1354 1351 1349 1343 1336 1332 1332 1330 1324 1311 1311 1311 1311 1311 1304 1297 1297 1296 1295 1295 1292 1287 1285 1283 1280 1274 1268 1268 1267 1263 1259 1256 1252 1249 1246 1244 1240 1238 1234 1231 1228 1225 1223 1221 1219 1215 1213 1211 1210 1210 1206 1205 1176 1173 1170 1170 1170 1165 1160 1154 1153 1150 1150 1147 1145 1145 1145 1146 1146 1146 1141 1139 1139 1139 1138 1136 1132 1130 1127 1124 1122 1120 1118 1116 1114 1111 1109 1107 1105 1102 1100 1098 1095 1094 1091 1089 1087 1085 1083 1080 1080 1080 1078 1078 1075 1059 1052 1051 1051 1051 1051 1051 1051 1043 1030 1027 1026 1026 1023 1023 1023 1023 1023 1023 1023 1022 1021 1019 1016 1014 1012 1010 1008 1006 1005 1004 1002 1000 999 998 996 994 994 994 992 989 987 985 982 982 982 982 979 975 973 970 967 964 961 961 959 955 951 945 941 938 938 936 930 928 928 928 928 930 930 930 930 930 928 927 926 924 924 923 918 915 913 912 912 912 912 912 912 910 907 905 903 897 896 894 0 0 0 0 0 0 0 0 0 0 0 0 0 0 0 0 0 0 0 0 0 0 0 0 0 0 0 0 0 0 0 0 0 0 3 6 855 855 855 852 850 848 847 845 844 842 842 841 841 841 839 838 837 835 834 833 832 831 830 828 827 826 825 824 823 823 822 821 821 820 819 819 818 817 816 815 815 815 816 816 817 817 822 829 835 907 1053 1214 1406 1444 1486 1591 1705 1705 1817 1875 1884 1884 1884 1874 1864 1864 1864 1874 1875 1875 1875 1857 1854 1852 1850 1850 1847 1847 1847 1849 1856 1873 1890 1915 1941 1942 1970 2034 2104 2118 2118 2118 2119 2119 2116 2125 0
0 0 0 0 0 0 0 0 0 0 0 1761 1794 1794 1761 0 0 0 0 1735 1735 1735 1702 0 0 1678 1729 1769 1823 1836 1878 1878 1878 1874 1872 1844 1715 0 1715 1744 1776 1849 1864 1864 1864 1843 1815 1811 1809 1781 1761 1753 1753 1753 1790 1807 1809 1826 1843 1867 1876 1876 1876 1824 1805 1805 1805 1810 1823 1842 1843 1863 1863 1863 1833 1821 1821 1821 1838 1861 1861 1861 1833 1814 1814 1814 1822 1829 1847 1850 1876 1886 1886 1886 1880 1879 1879 1879 1879 0 1847 1847 1847 1917 1983 2115 2270 2344 2544 2853 3230 3472 3531 3537 3538 3538 3538 3535 3534 3534 3534 3535 3536 3537 3537 3537 3537 3537 3534 3534 3533 3531 3525 3523 3520 3520 3520 3523 3527 3537 3542 3542 3542 3539 3539 3539 3538 3538 3538 3536 3535 3525 3521 3521 3521 3521 3521 3518 3515 3515 3515 3515 3515 3515 3515 3515 3515 3514 3511 3508 3506 3506 3505 3504 3504 3498 3498 3498 3497 3497 3495 3493 3492 3491 3491 3486 3482 3482 3482 3483 3483 3483 3482 3481 3477 3477 3477 3477 3477 3477 3477 3477 3477 3477 3477 3477 3475 3475 3475 3475 3475 3474 3470 3467 3463 3462 3461 3458 3448 3445 3426 3400 3365 3355 3343 3342 3340 3340 3340 3334 3329 3320 3320 3320 3320 3320 3320 3307 3223 3110 2943 2814 2776 2744 2702 2663 2610 2502 2383 2241 2143 2106 2103 2101 2097 2094 2092 2091 2084 2047 2006 1916 1809 1660 1560 1518 1509 1502 1498 1493 1491 1488 1485 1481 1479 1476 1474 1471 1470 1467 1467 1466 1462 1460 1460 1458 1458 1458 1452 1442 1421 1419 1416 1409 1393 1392 1392 1387 1386 1379 1376 1372 1368 1365 1363 1360 1357 1354 1351 1349 1343 1336 1332 1332 1330 1322 1310 1310 1310 1310 1310 1303 1299 1299 1296 1296 1296 1291 1286 1285 1283 1278 1274 1267 1267 1267 1262 1259 1256 1252 1248 1246 1244 1240 1237 1234 1231 1228 1225 1223 1221 1219 1216 1214 1211 1210 1210 1206 1205 1176 1173 1172 1170 1170 1166 1160 1160 1160 1159 1159 1159 1145 1144 1144 1144 1144 1144 1141 1139 1139 1139 1138 1136 1132 1129 1126 1124 1122 1120 1117 1115 1113 1111 1108 1106 1105 1102 1100 1097 1094 1093 1091 1088 1086 1085 1083 1080 1080 1080 1078 1078 1074 1059 1052 1048 1048 1048 1051 1051 1051 1042 1030 1029 1026 1026 1026 1025 1025 1025 1026 1026 1026 1025 1022 1019 1016 1014 1012 1010 1008 1006 1005 1004 1002 1000 999 998 996 996 995 994 993 989 987 985 983 983 983 982 980 975 972 969 966 963 961 961 959 955 951 945 941 938 936 934 930 928 928 928 928 929 930 930 930 930 923 923 923 923 923 923 918 915 913 912 912 912 912 912 910 907 907 905 903 897 896 894 0 0 0 0 0 0 0 0 0 0 0 0 0 0 0 0 0 0 0 0 0 0 0 0 0 0 0 0 0 0 0 0 0 0 3 5 854 854 854 851 850 848 847 845 844 842 841 841 841 841 839 838 837 836 835 833 832 831 830 828 827 826 825 825 823 823 822 821 821 820 819 819 818 817 816 815 815 815 815 815 817 817 817 817 818 916 1056 1243 1421 1454 1491 1602 1717 1718 1819 1875 1887 1887 1887 1879 1873 1873 1873 1874 1875 1875 1875 1865 1862 1857 1852 1850 1850 1850 1852 1858 1876 1887 1909 1920 1941 1959 1970 2050 2117 2120 2120 2120 2120 2120 2118 2124 0
0 0 0 0 0 0 0 0 0 0 0 1773 1792 1792 1773 0 0 0 0 1770 1771 1772 1772 1770 1743 1743 1743 1771 1825 1882 1920 1920 1920 1890 1887 1844 1766 1744 1744 1744 1776 1812 1850 1850 1850 1863 1856 1845 1845 1804 1803 1755 1755 1755 1790 1807 1809 1826 1843 1856 1856 1856 1812 1769 1769 1769 1778 1788 1807 1834 1835 1850 1850 1850 1832 1821 1821 1821 1831 1856 1856 1856 1829 1808 1808 1808 1815 1822 1836 1842 1849 1858 1868 1868 1868 1876 1880 1880 1882 0 1865 1865 1882 1917 1983 2115 2326 2432 2552 3044 3325 3480 3529 3537 3538 3537 3537 3537 3534 3534 3534 3535 3536 3537 3537 3537 3537 3537 3533 3531 3531 3526 3521 3518 3518 3518 3518 3523 3527 3536 3543 3543 3543 3537 3537 3537 3538 3538 3538 3537 3535 3531 3526 3522 3521 3519 3518 3517 3514 3514 3514 3515 3515 3515 3515 3515 3513 3513 3511 3509 3509 3507 3506 3503 3499 3497 3497 3497 3497 3497 3496 3493 3493 3492 3491 3486 3483 3483 3483 3484 3484 3484 3483 3481 3478 3477 3477 3477 3478 3478 3478 3476 3476 3476 3476 3476 3475 3475 3475 3475 3475 3473 3470 3467 3463 3462 3461 3459 3456 3449 3427 3401 3365 3355 3342 3342 3340 3340 3340 3334 3321 3318 3318 3318 3320 3320 3320 3307 3223 3103 2939 2814 2776 2744 2702 2663 2598 2488 2370 2235 2137 2105 2103 2101 2097 2094 2094 2091 2084 2044 1968 1892 1771 1648 1559 1524 1510 1503 1498 1494 1490 1488 1485 1482 1480 1477 1474 1470 1470 1468 1467 1466 1464 1460 1460 1458 1458 1458 1452 1442 1421 1419 1407 1402 1391 1391 1391 1387 1386 1378 1374 1371 1368 1365 1362 1359 1356 1353 1351 1349 1345 1336 1332 1332 1330 1322 1310 1309 1309 1306 1306 1300 1300 1300 1297 1297 1297 1291 1283 1283 1281 1277 1274 1266 1265 1265 1262 1259 1256 1252 1249 1246 1244 1240 1236 1234 1231 1228 1225 1223 1221 1219 1216 1214 1211 1210 1210 1206 1205 1180 1179 1177 1175 1172 1166 1166 1166 1167 1169 1169 1169 1147 1144 1144 1144 1145 1145 1145 1139 1139 1138 1138 1136 1132 1128 1126 1124 1122 1119 1117 1115 1113 1111 1108 1106 1104 1101 1099 1097 1094 1093 1090 1088 1086 1084 1082 1080 1080 1080 1078 1078 1071 1058 1052 1046 1045 1045 1045 1045 1045 1042 1030 1030 1030 1030 1030 1030 1029 1029 1029 1028 1027 1025 1022 1019 1016 1015 1012 1010 1008 1006 1005 1003 1002 1000 999 998 997 996 996 995 993 989 987 985 984 983 983 983 980 975 970 967 965 963 962 961 959 955 951 945 944 939 937 936 930 928 928 928 928 929 930 930 930 929 924 924 924 924 924 921 917 915 913 912 911 911 911 910 908 907 907 905 903 901 896 896 0 0 0 0 0 0 0 0 0 0 0 0 0 0 0 0 0 0 0 0 0 0 0 0 0 0 0 0 0 0 0 0 0 0 0 0 0 0 0 0 851 849 847 845 844 842 841 841 841 840 839 838 837 836 835 834 832 831 830 828 827 826 825 825 824 823 822 821 821 820 820 819 818 817 816 815 814 814 814 813 815 815 815 817 818 916 1056 1243 1421 1454 1503 1628 1749 1750 1821 1874 1889 1889 1889 1883 1882 1882 1879 1881 1879 1878 1875 1868 1866 1866 1857 1856 1856 1856 1881 1884 1892 1903 1916 1920 1941 1980 1981 2063 2120 2127 2127 2127 2122 2122 2119 2122 0
0 0 0 0 0 0 0 0 0 0 0 1761 0 0 1761 0 0 0 0 1771 1803 1813 1816 1816 1816 1771 1771 1771 1882 1883 1939 1939 1939 1930 1927 1844 1790 1748 1748 1748 1776 1800 1836 1871 1873 1874 1893 1893 1893 1836 1835 1769 1769 1769 1790 1857 1862 1862 1858 1858 1854 1852 1812 1769 1769 1769 1778 1786 1801 1833 1833 1849 1849 1849 1829 1818 1818 1818 1828 1840 1840 1840 1828 1803 1798 1798 1798 1817 1830 1832 1832 1834 1839 1851 1861 1866 1880 1887 1920 1921 1921 1920 1923 1961 1983 2138 2339 2466 2691 3176 3500 3524 3524 3537 3537 3537 3537 3537 3532 3532 3532 3532 3532 3532 3534 3534 3534 3534 3527 3521 3520 3518 3515 3515 3515 3516 3517 3523 3527 3536 3543 3543 3543 3537 3537 3537 3538 3538 3538 3537 3536 3533 3529 3524 3521 3519 3518 3517 3514 3514 3514 3514 3514 3513 3512 3512 3512 3512 3511 3509 3509 3507 3506 3503 3499 3496 3496 3496 3498 3498 3498 3496 3495 3494 3492 3486 3484 3484 3484 3485 3485 3485 3483 3481 3478 3478 3478 3479 3479 3479 3479 3476 3476 3476 3477 3477 3477 3475 3474 3474 3473 3473 3470 3467 3467 3466 3466 3464 3462 3452 3426 3401 3365 3355 3342 3342 3339 3339 3339 3333 3321 3318 3318 3318 3320 3320 3320 3306 3219 3099 2932 2814 2776 2744 2702 2649 2566 2481 2367 2230 2136 2102 2100 2099 2095 2095 2094 2089 2084 2035 1968 1886 1760 1616 1544 1524 1512 1506 1499 1494 1490 1488 1484 1482 1480 1477 1473 1469 1468 1468 1466 1466 1464 1460 1460 1459 1458 1456 1450 1442 1421 1419 1407 1396 1390 1388 1388 1385 1383 1377 1373 1371 1368 1365 1362 1359 1356 1353 1351 1349 1345 1336 1333 1332 1330 1321 1311 1308 1306 1303 1290 1290 1290 1291 1297 1297 1297 1291 1283 1283 1280 1273 1272 1265 1264 1264 1262 1258 1255 1252 1249 1246 1243 1240 1236 1234 1230 1228 1225 1223 1220 1218 1216 1213 1211 1205 1198 1197 1195 1181 1179 1177 1175 1172 1168 1167 1167 1167 1169 1169 1169 1152 1144 1144 1144 1145 1145 1145 1139 1139 1138 1137 1135 1132 1128 1126 1124 1122 1119 1117 1115 1112 1111 1108 1106 1103 1101 1099 1096 1094 1091 1090 1088 1086 1083 1080 1078 1078 1078 1078 1078 1067 1057 1050 1045 1043 1043 1043 1042 1042 1041 1031 1031 1030 1030 1030 1030 1029 1029 1029 1028 1027 1025 1021 1019 1016 1015 1013 1010 1009 1006 1005 1003 1002 1000 999 998 997 996 996 995 992 988 986 985 984 983 983 983 980 972 969 967 964 964 963 961 960 955 949 947 945 943 938 933 929 928 928 928 928 929 930 931 931 931 928 925 925 924 924 921 917 914 913 911 911 910 910 909 908 907 907 903 902 902 901 897 0 0 0 0 0 0 0 0 0 0 0 0 0 0 0 0 0 0 0 0 0 0 0 0 0 0 0 0 0 0 0 0 0 0 0 0 0 0 0 0 852 849 847 846 845 843 841 841 841 840 840 838 837 836 835 834 833 831 830 828 827 826 825 825 824 823 823 821 821 820 820 819 818 817 816 816 814 814 814 813 814 814 815 817 818 916 1053 1243 1421 1454 1503 1689 1784 1785 1830 1871 1889 1889 1889 1889 1889 1888 1888 1885 1880 1879 1879 1875 1869 1868 1863 1856 1856 1856 1881 1892 1907 1916 1922 1928 1952 1992 1993 2071 2125 2135 2139 2139 2135 2127 2123 2123 0
0 0 0 0 0 0 0 0 0 0 0 1 1 1 0 0 0 0 0 1771 1806 1813 1823 1823 1823 1771 0 1771 1882 1946 1980 1980 1980 1974 1953 1894 1833 1797 1777 1777 1777 1800 1836 1874 1906 1929 1929 1929 1894 1861 1843 1803 1803 1803 1806 1871 1871 1871 1863 1854 1851 1848 1812 1769 1769 1769 1778 1786 1801 1833 1833 1840 1840 1840 1829 1806 1806 1806 1826 1826 1826 1823 1811 1800 1800 1800 1807 1822 1829 1829 1829 1827 1827 1827 1861 1866 1881 1910 1923 1925 1926 1933 1938 1971 2018 2186 2398 2525 2902 3281 3500 3524 3524 3528 3536 3536 3536 3535 3531 3531 3531 3531 3531 3531 3531 3531 3531 3528 3525 3521 3520 3518 3515 3515 3515 3516 3517 3525 3531 3536 3542 3542 3542 3530 3530 3530 3531 3535 3537 3537 3537 3537 3529 3524 3521 3519 3518 3518 3518 3517 3515 3515 3514 3513 3512 3511 3511 3511 3509 3509 3509 3507 3506 3503 3499 3496 3496 3496 3497 3498 3498 3498 3498 3497 3494 3491 3488 3486 3485 3485 3485 3485 3484 3481 3478 3478 3478 3481 3482 3482 3482 3480 3478 3478 3477 3477 3477 3475 3473 3473 3473 3473 3470 3468 3468 3468 3469 3469 3469 3452 3426 3399 3370 3358 3342 3342 3340 3340 3340 3333 3321 3321 3320 3320 3320 3320 3298 3284 3211 3076 2907 2785 2749 2723 2693 2644 2566 2478 2357 2224 2136 2099 2097 2097 2095 2095 2094 2089 2072 2010 1968 1885 1739 1575 1542 1524 1513 1506 1501 1496 1490 1488 1484 1482 1480 1477 1473 1469 1468 1467 1466 1464 1464 1460 1459 1459 1458 1454 1450 1445 1439 1433 1407 1396 1390 1388 1387 1385 1380 1376 1373 1371 1368 1365 1362 1359 1356 1353 1351 1349 1345 1339 1334 1332 1330 1321 1313 1306 1304 1286 1286 1286 1286 1291 1296 1296 1296 1286 1280 1280 1280 1273 1272 1265 1265 1264 1261 1258 1255 1252 1248 1245 1242 1239 1236 1234 1230 1228 1226 1223 1220 1218 1214 1212 1208 1201 1194 1193 1191 1182 1179 1177 1175 1172 1168 1168 1168 1168 1169 1169 1169 1160 1154 1150 1148 1148 1146 1145 1139 1139 1138 1137 1134 1131 1128 1126 1124 1122 1119 1117 1115 1112 1110 1107 1105 1103 1101 1098 1096 1094 1091 1089 1087 1085 1083 1079 1076 1075 1071 1067 1066 1061 1056 1050 1045 1043 1042 1042 1042 1042 1040 1031 1031 1031 1031 1031 1031 1029 1029 1029 1028 1027 1026 1021 1019 1016 1015 1014 1011 1009 1006 1005 1003 1002 1000 999 998 997 996 996 995 992 988 986 985 984 984 983 983 979 967 0 0 0 962 962 962 960 955 955 949 948 947 938 933 929 928 928 928 928 929 930 931 931 931 929 928 927 925 925 921 917 914 912 911 911 910 910 909 907 907 906 901 901 901 901 897 0 0 0 0 0 0 0 0 0 0 0 0 0 0 0 0 0 0 0 0 0 0 0 0 0 0 0 0 0 0 0 0 0 0 0 857 859 859 859 856 852 849 846 846 845 844 841 841 841 840 840 838 837 836 835 834 833 831 830 829 828 827 825 825 824 824 823 822 821 820 820 819 819 817 816 816 815 813 813 813 813 813 813 814 857 916 1052 1256 1420 1448 1503 1720 1790 1831 1831 1871 1889 1889 1889 1889 1889 1888 1888 1885 1880 1880 1879 1879 1869 1868 1863 1856 1856 1856 1882 1898 1919 1928 1931 1934 1952 2000 2001 2098 2135 2139 2139 2139 2135 2127 2121 2121 0
0 0 0 0 0 0 0 0 0 0 0 0 0 0 0 0 0 0 0 0 1806 1813 1823 1823 1823 1748 0 1748 1882 1946 1980 1980 1980 1974 1953 1894 1862 1807 1779 1779 1779 1800 1836 1879 1906 1929 1929 1929 1894 1861 1843 1814 1813 1813 1813 1872 1872 1872 1863 1848 1846 1839 1827 1825 1816 1796 1796 1796 1801 1833 1833 1838 1838 1838 1818 1806 1806 1806 1815 1815 1815 1812 1802 1802 1802 1807 1812 1822 1829 1829 1829 1827 1827 1827 1866 1869 1899 1925 1928 1935 1955 1982 2011 2042 2143 2374 2434 2794 3062 3500 3502 3524 3524 3528 3535 3537 3537 3537 3530 3530 3530 3530 3531 3531 3530 3530 3526 3525 3524 3521 3520 3518 3515 3515 3515 3516 3519 3526 3531 3538 3538 3538 3538 3530 3530 3530 3531 3535 3536 3537 3537 3537 3529 3525 3521 3521 3521 3522 3522 3522 3522 3516 3515 3512 3511 3511 3511 3510 3509 3506 3506 3504 3503 3503 3501 3496 3496 3496 3497 3498 3500 3500 3500 3497 3494 3493 3489 3487 3485 3485 3485 3485 3484 3483 3480 3480 3480 3483 3488 3488 3488 3485 3479 3479 3477 3477 3477 3474 3472 3472 3472 3472 3469 3469 3469 3470 3470 3470 3469 3452 3423 3389 3375 3361 3342 3342 3340 3340 3340 3333 3329 3329 3327 3323 3322 3317 3292 3263 3192 3047 2857 2762 2731 2706 2676 2643 2566 2473 2350 2224 2136 2099 2097 2097 2097 2096 2095 2086 2069 2010 1966 1884 1727 1573 1541 1524 1515 1509 1503 1498 1492 1488 1484 1482 1480 1477 1473 1469 1468 1466 1464 1464 1464 1460 1459 1458 1458 1453 1448 1446 1443 1434 1414 1396 1391 1388 1387 1387 1380 1376 1373 1372 1369 1366 1362 1360 1357 1354 1352 1349 1345 1339 1334 1332 1324 1317 1313 1303 1289 1285 1285 1285 1286 1291 1296 1296 1296 1286 1280 1280 1278 1274 1274 1265 1264 1264 1260 1258 1255 1252 1248 1245 1242 1239 1236 1234 1230 1228 1226 1223 1220 1218 1214 1211 1208 1201 1194 1193 1190 1184 1177 1172 1172 1171 1170 1168 1168 1167 1167 1167 1167 1160 1157 1155 1150 1145 1143 1143 1138 1137 1136 1136 1134 1131 1129 1127 1124 1122 1119 1117 1115 1112 1110 1107 1105 1102 1100 1098 1096 1094 1091 1089 1087 1085 1083 1078 1076 1075 1071 1066 1062 1061 1056 1050 1045 1044 1043 1042 1042 1040 1038 1031 1031 1031 1031 1031 1031 1028 1027 1027 1026 1026 1026 1021 1019 1016 1015 1014 1011 1009 1007 1005 1003 1002 1000 999 998 997 996 995 994 991 988 986 985 984 984 983 983 975 0 0 0 0 0 962 962 960 955 955 948 945 945 937 933 929 929 929 929 929 933 933 933 933 933 933 931 929 927 925 923 918 914 912 910 910 910 909 908 906 906 905 901 901 901 901 900 0 0 0 0 0 0 0 0 0 0 0 0 0 0 0 0 0 0 0 0 0 0 0 0 0 0 0 0 0 0 0 0 0 0 857 857 860 860 860 856 852 849 846 846 845 844 841 841 841 840 839 838 837 836 835 834 833 832 831 829 828 827 826 825 824 824 823 822 821 821 820 819 819 818 817 816 816 814 813 813 813 813 814 831 857 916 1043 1256 1396 1448 1504 1720 1790 1832 1833 1873 1888 1888 1888 1888 1888 1888 1888 1885 1880 1880 1879 1878 1869 1868 1863 1856 1856 1856 1881 1904 1937 1942 1959 1964 1985 2056 2056 2133 2135 2139 2139 2139 2135 2127 2121 2121 0
0 0 0 0 0 0 0 0 0 0 0 0 0 0 0 0 0 0 0 0 1796 1806 1809 1809 1796 1748 0 0 1882 1946 1972 1974 1974 1972 1953 1894 1875 1807 1783 1783 1783 1802 1839 1886 1906 1929 1929 1929 1891 1861 1843 1818 1818 1818 1840 1872 1872 1872 1863 1839 1834 1832 1827 1825 1816 1816 1816 1819 1833 1833 1838 1838 1838 1834 1817 1797 1797 1797 1809 1812 1812 1812 1802 1799 1799 1799 1807 1822 1829 1829 1829 1827 1827 1827 1883 1888 1942 1945 1953 1977 1999 2053 2103 2107 2242 2433 2706 2959 3281 3499 3502 3508 3521 3521 3535 3537 3537 3537 3530 3530 3530 3530 3530 3530 3530 3530 3526 3526 3525 3526 3527 3528 3528 3528 3523 3523 3523 3526 3533 3538 3538 3538 3537 3530 3530 3530 3531 3535 3536 3537 3537 3537 3528 3525 3525 3525 3524 3527 3527 3523 3522 3516 3514 3511 3511 3511 3510 3510 3509 3506 3506 3504 3503 3503 3501 3495 3495 3495 3497 3498 3500 3500 3500 3497 3495 3493 3491 3490 3487 3486 3486 3486 3486 3485 3483 3483 3483 3483 3488 3488 3488 3485 3479 3479 3479 3478 3478 3474 3472 3472 3472 3470 3469 3469 3469 3470 3470 3470 3469 3452 3423 3389 3377 3361 3342 3342 3340 3340 3340 3335 3329 3329 3328 3323 3322 3314 3276 3246 3176 3047 2845 2752 2714 2691 2662 2641 2565 2463 2345 2222 2136 2099 2099 2099 2097 2097 2097 2086 2067 2010 1960 1884 1723 1571 1541 1524 1515 1509 1504 1498 1492 1489 1486 1483 1480 1477 1473 1470 1469 1467 1463 1461 1459 1458 1458 1458 1457 1452 1448 1446 1446 1440 1429 1416 1398 1389 1389 1387 1380 1376 1374 1373 1370 1366 1363 1360 1358 1355 1352 1349 1345 1341 1334 1332 1324 1317 1313 1298 1287 1287 1287 1313 1313 1313 1309 1303 1296 1281 1280 1280 1278 1275 1275 1265 1265 1264 1260 1258 1255 1252 1248 1245 1242 1239 1236 1234 1231 1228 1225 1223 1220 1218 1214 1211 1207 1201 1194 1193 1188 1184 1174 1173 1173 1173 1173 1173 1171 1167 1163 1160 1160 1158 1157 1155 1151 1143 1143 1142 1138 1137 1136 1136 1134 1131 1129 1127 1124 1122 1119 1117 1115 1112 1109 1107 1104 1102 1100 1098 1095 1093 1091 1088 1086 1085 1083 1078 1075 1073 1071 1066 1062 1061 1056 1054 1052 1052 1051 1046 1041 1037 1034 1032 1032 1032 1031 1031 1031 1026 1026 1026 1027 1027 1027 1026 1020 1016 1015 1014 1011 1009 1007 1005 1004 1002 1000 999 998 997 996 995 993 991 988 986 985 984 983 983 983 0 0 0 0 0 0 961 961 960 954 954 948 945 943 937 933 931 930 930 930 932 936 939 939 939 936 935 934 929 927 925 923 918 914 912 910 910 909 909 908 906 906 901 901 901 903 903 903 0 0 0 0 0 0 0 0 0 0 0 0 0 0 0 0 0 0 0 0 0 0 0 0 0 0 0 0 0 0 0 0 0 852 857 857 860 860 860 856 852 848 846 846 845 844 841 841 840 839 839 838 838 836 835 834 833 832 831 829 828 827 826 825 824 824 823 822 821 821 820 819 819 818 817 816 816 815 813 813 813 813 815 834 857 904 1033 1256 1388 1448 1528 1720 1790 1835 1836 1874 1886 1886 1888 1888 1888 1888 1888 1884 1879 1879 1877 1871 1864 1860 1842 1842 1842 1856 1881 1904 1942 1974 1995 2031 2035 2106 2109 2131 2131 2131 2119 2116 2116 2116 2115 2118 0
0 0 0 0 0 0 0 0 0 0 0 0 0 0 0 0 0 0 1670 1673 1769 1784 1784 1784 1761 1748 0 1748 1901 1901 1901 1877 1877 1877 1875 1875 1875 1813 1807 1807 1813 1834 1862 1894 1894 1894 1881 1868 1839 1838 1833 1833 1833 1851 1859 1859 1859 1840 1840 1834 1833 1832 1827 1825 1816 1816 1816 1827 1838 1838 1838 1838 1837 1829 1814 1793 1793 1793 1799 1805 1805 1805 1802 1796 1796 1796 1800 1817 1830 1835 1837 1839 1841 1858 1883 1888 1942 1971 1977 1999 2008 2067 2116 2191 2297 2466 2728 2979 3314 3479 3502 3504 3507 3514 3530 3535 3535 3535 3529 3529 3528 3528 3528 3530 3530 3530 3530 3530 3530 3532 3534 3534 3534 3530 3527 3527 3527 3527 3535 3538 3538 3538 3535 3530 3530 3530 3535 3537 3537 3537 3537 3536 3528 3526 3526 3526 3526 3527 3527 3523 3522 3516 3513 3510 3509 3509 3508 3508 3508 3506 3506 3504 3503 3503 3501 3495 3495 3495 3498 3499 3501 3501 3501 3497 3497 3495 3495 3493 3492 3488 3488 3488 3486 3486 3483 3483 3483 3483 3488 3488 3488 3485 3481 3481 3481 3479 3478 3474 3472 3472 3472 3470 3469 3469 3469 3470 3470 3470 3464 3452 3423 3389 3382 3362 3350 3349 3346 3346 3346 3339 3329 3329 3328 3323 3322 3307 3273 3237 3166 3047 2845 2752 2714 2691 2662 2641 2565 2449 2337 2222 2136 2100 2100 2100 2100 2100 2097 2086 2064 2009 1951 1839 1696 1559 1541 1524 1515 1509 1504 1498 1493 1490 1487 1484 1481 1477 1474 1471 1469 1467 1464 1459 1459 1458 1458 1457 1457 1446 1446 1446 1440 1440 1429 1418 1398 1395 1394 1387 1381 1376 1375 1373 1371 1367 1364 1362 1358 1356 1353 1349 1345 1342 1334 1332 1324 1316 1305 1293 1284 1284 1284 1318 1318 1318 1309 1295 1281 1280 1278 1278 1278 1273 1273 1267 1265 1263 1260 1258 1254 1252 1248 1245 1242 1239 1236 1233 1230 1228 1225 1222 1220 1217 1214 1211 1207 1201 1195 1193 1186 1184 1168 1168 1168 1173 1173 1173 1171 1166 1162 1156 1156 1156 1155 1155 1151 1143 1143 1142 1140 1136 1136 1135 1134 1131 1129 1127 1124 1122 1119 1117 1114 1112 1109 1106 1104 1102 1100 1098 1095 1093 1091 1087 1085 1084 1083 1078 1075 1073 1071 1069 1062 1061 1060 1059 1057 1056 1054 1046 1041 1037 1034 1034 1034 1034 1034 1034 1031 1026 1026 1026 1027 1027 1027 1026 1020 1016 1015 1013 1011 1009 1007 1005 1004 1002 1000 999 998 997 996 995 993 991 988 986 984 983 982 981 980 0 0 0 0 964 964 964 960 959 953 948 945 943 942 936 935 934 933 934 934 934 940 945 945 945 939 935 934 929 925 923 922 918 914 911 910 910 909 908 907 906 905 905 905 905 905 905 0 0 0 0 0 0 0 0 0 0 0 0 0 0 0 0 0 0 0 0 0 0 0 0 0 0 0 0 0 0 0 0 0 0 852 857 857 860 860 860 856 850 847 846 845 844 842 841 840 840 839 839 838 838 836 835 834 833 832 831 829 828 827 826 825 824 824 823 822 821 821 821 819 819 818 817 817 816 816 816 815 814 814 814 834 857 904 1033 1256 1388 1456 1528 1623 1766 1835 1836 1877 1886 1886 1888 1888 1887 1887 1887 1881 1879 1879 1877 1871 1863 1860 1842 1842 1842 1856 1880 1904 1942 1976 2017 2084 2085 2131 2134 2134 2131 2125 2111 2111 2111 2111 2111 2117 0
0 0 0 0 0 0 0 0 0 1 1 0 0 0 0 0 0 1657 1670 1673 1742 0 0 1660 1637 1637 1660 1866 1875 1875 1875 1810 1810 1810 1852 1852 1852 0 1832 1832 1863 1895 1895 1895 1894 1859 1839 1837 1825 1825 1825 1825 1835 1856 1856 1856 1840 1839 1834 1833 1833 1832 1820 1819 1817 1817 1820 1827 1838 1838 1838 1838 1831 1821 1813 1794 1787 1787 1787 1801 1802 1802 1802 1802 1802 1807 1807 1817 1826 1837 1844 1855 1859 1861 1883 1888 1942 1971 1977 1999 2008 2067 2116 2191 2351 2549 2780 3061 3424 3434 3462 3498 3507 3510 3527 3527 3527 3526 3526 3524 3525 3526 3527 3528 3530 3530 3531 3531 3534 3536 3536 3536 3534 3530 3530 3530 3532 3533 3534 3534 3534 3534 3534 3534 3534 3539 3539 3539 3539 3538 3537 3536 3528 3528 3527 3527 3527 3526 3523 3520 3517 3512 3510 3509 3508 3508 3508 3507 3507 3506 3506 3504 3504 3504 3501 3496 3496 3496 3498 3499 3501 3501 3501 3498 3498 3497 3497 3497 3495 3490 3489 3488 3488 3486 3484 3483 3483 3483 3487 3487 3487 3487 3483 3482 3482 3481 3479 3477 3475 3473 3472 3470 3469 3468 3468 3467 3464 3463 3463 3457 3433 3398 3396 3364 3357 3356 3351 3351 3351 3341 3329 3323 3320 3319 3316 3307 3273 3237 3164 3050 2845 2752 2714 2691 2662 2628 2556 2447 2320 2198 2130 2101 2101 2101 2101 2101 2092 2079 2062 2009 1926 1814 1684 1558 1539 1523 1513 1508 1504 1498 1493 1490 1487 1485 1482 1480 1475 1471 1469 1467 1462 1455 1455 1455 1455 1455 1454 1442 1442 1440 1431 1431 1431 1418 1398 1395 1394 1388 1382 1378 1376 1374 1371 1368 1365 1362 1359 1356 1353 1350 1347 1342 1334 1332 1331 1314 1301 1289 1286 1286 1286 1339 1339 1339 1309 1286 1280 1277 1277 1277 1275 1273 1273 1267 1264 1262 1260 1258 1254 1251 1247 1245 1241 1239 1236 1233 1230 1227 1225 1222 1219 1217 1215 1211 1208 1203 1199 1190 1184 1182 1166 1166 1166 1173 1173 1173 1171 1165 1158 1152 1152 1152 1150 1150 1150 1144 1143 1142 1141 1138 1136 1135 1133 1131 1128 1127 1124 1122 1119 1117 1114 1111 1109 1106 1104 1102 1100 1097 1095 1092 1090 1087 1085 1084 1081 1078 1076 1074 1071 1069 1063 1063 1063 1063 1060 1056 1054 1046 1041 1037 1034 1034 1034 1035 1035 1035 1032 1026 1026 1026 1028 1028 1028 1026 1020 1016 1015 1013 1011 1009 1007 1006 1004 1002 1000 999 998 997 996 995 992 991 988 985 984 983 982 980 978 974 0 0 0 958 959 959 958 958 950 947 943 942 937 934 934 934 934 934 935 935 940 945 945 945 939 935 932 928 923 923 922 918 914 911 910 909 909 907 907 906 904 904 904 905 905 905 0 0 0 0 0 0 0 0 0 0 0 0 0 0 0 0 0 0 0 0 0 0 0 0 0 0 0 0 0 0 0 0 0 0 852 853 853 853 0 0 0 845 845 844 843 843 841 840 840 840 839 839 838 838 836 835 834 833 832 831 829 828 827 826 825 824 824 823 822 822 821 821 819 819 818 817 816 815 815 815 814 812 812 812 831 857 904 1033 1256 1388 1456 1528 1594 1756 1839 1841 1884 1886 1886 1888 1887 1886 1884 1883 1880 1879 1879 1877 1871 1863 1860 1842 1842 1842 1849 1875 1904 1945 1983 2020 2086 2121 2131 2131 2131 2129 2117 2111 2111 2111 2111 2111 2117 0
0 0 0 0 0 0 0 0 1694 1694 1694 0 0 0 0 0 0 1657 1670 1707 1737 1737 0 1661 1621 0 0 1884 1884 1884 1790 1782 1782 1782 1852 1858 0 0 1874 1874 1914 1914 1914 1910 1892 1859 1839 1837 1825 1825 1825 1825 1835 1841 1841 1841 1835 1831 1831 1833 1833 1831 1819 1817 1814 1814 1814 1827 1835 1835 1835 1831 1823 1816 1809 1794 1789 1787 1787 1787 1802 1802 1802 1802 1802 1807 1812 1817 1826 1833 1844 1862 1863 1866 1878 1882 1930 1961 1980 1980 2008 2067 2124 2195 2374 2594 2867 3125 3424 3437 3462 3498 3507 3510 3516 3520 3521 3522 3523 3523 3524 3526 3526 3527 3530 3530 3531 3531 3534 3536 3536 3536 3534 3529 3529 3529 3531 3532 3532 3533 3533 3533 3533 3534 3534 3539 3541 3542 3542 3541 3537 3536 3535 3531 3527 3526 3526 3521 3520 3520 3516 3512 3510 3509 3508 3507 3507 3507 3507 3507 3507 3507 3506 3504 3501 3495 3495 3495 3498 3499 3501 3501 3501 3501 3501 3501 3501 3500 3497 3494 3493 3492 3492 3489 3486 3485 3484 3484 3484 3485 3485 3485 3484 3484 3483 3483 3482 3480 3478 3475 3472 3470 3469 3467 3466 3464 3464 3462 3462 3457 3433 3398 3396 3366 3362 3356 3351 3351 3351 3342 3332 3323 3320 3317 3316 3307 3273 3237 3158 3050 2845 2814 2727 2694 2670 2616 2537 2420 2280 2182 2128 2103 2103 2103 2103 2103 2090 2078 2060 2008 1926 1810 1673 1557 1535 1521 1511 1505 1500 1495 1492 1490 1487 1485 1482 1480 1477 1472 1468 1467 1462 1451 1451 1451 1450 1450 1444 1432 1417 1417 1417 1426 1426 1426 1403 1395 1394 1389 1383 1380 1376 1374 1371 1368 1365 1362 1359 1356 1353 1350 1347 1342 1334 1334 1332 1316 1281 1281 1281 1289 1324 1339 1339 1339 1304 1281 1280 1277 1277 1277 1273 1272 1270 1267 1264 1262 1260 1258 1255 1251 1247 1245 1241 1238 1236 1232 1230 1227 1225 1222 1219 1217 1215 1212 1208 1206 1200 1190 1186 1182 1168 1166 1166 1163 1163 1165 1163 1161 1158 1151 1151 1151 1148 1148 1148 1148 1145 1142 1142 1138 1136 1135 1133 1131 1128 1127 1124 1122 1119 1117 1114 1111 1109 1106 1104 1102 1099 1096 1094 1092 1089 1087 1085 1082 1081 1078 1076 1074 1072 1069 1063 1063 1063 1063 1060 1056 1054 1045 1041 1039 1036 1036 1036 1036 1036 1035 1032 1032 1032 1034 1034 1034 1028 1025 1020 1018 1015 1012 1011 1009 1007 1006 1004 1002 1000 999 998 996 996 994 992 990 987 985 983 982 981 979 978 974 972 971 969 969 966 959 958 958 950 947 942 940 937 933 933 933 934 934 935 936 942 945 945 945 939 930 923 922 922 921 920 917 914 911 910 909 908 907 907 906 903 903 903 903 903 903 5 0 0 0 0 0 0 0 0 0 0 0 0 0 0 0 0 0 0 0 0 0 0 0 0 0 0 0 0 0 0 0 0 0 851 851 851 851 0 0 0 845 845 843 842 841 841 840 840 839 839 838 838 837 836 835 834 833 832 831 829 828 827 826 825 824 824 823 822 822 821 821 820 819 818 817 816 815 815 815 814 814 814 814 839 857 932 1040 1253 1372 1470 1525 1593 1754 1839 1842 1884 1886 1887 1888 1887 1887 1887 1883 1883 1883 1882 1882 1882 1863 1860 1845 1845 1845 1849 1875 1904 1945 1985 2036 2092 2122 2131 2131 2131 2124 2117 2111 2111 2111 2111 2111 2111 0
0 0 0 0 0 0 0 0 0 1694 1701 0 1 0 0 0 1 1663 1670 1707 1737 1737 1737 1661 1661 0 0 1812 1812 1812 1751 1751 1751 1782 1852 1916 1916 1917 1917 1917 1938 1938 1938 1910 1894 1859 1839 1837 1825 1825 1825 1825 1821 1821 1821 1821 1821 1827 1831 1833 1833 1831 1819 1817 1813 1813 1813 1826 1826 1826 1818 1815 1813 1812 1805 1801 1797 1794 1787 1787 1787 1787 1788 1796 1796 1808 1817 1818 1821 1828 1844 1862 1863 1863 1866 1866 1930 1961 1980 1980 2021 2027 2124 2218 2400 2603 2914 3275 3424 3444 3462 3498 3508 3512 3516 3520 3521 3522 3523 3522 3524 3524 3525 3527 3530 3530 3530 3531 3534 3535 3535 3535 3530 3529 3529 3529 3531 3531 3531 3531 3531 3531 3533 3533 3535 3539 3543 3546 3546 3546 3542 3537 3535 3531 3527 3524 3522 3521 3520 3520 3516 3512 3510 3509 3508 3507 3507 3507 3507 3508 3509 3509 3509 3504 3501 3498 3498 3498 3498 3499 3501 3502 3502 3503 3503 3503 3503 3501 3499 3497 3495 3494 3494 3493 3491 3488 3487 3485 3485 3485 3487 3489 3489 3489 3488 3485 3483 3480 3478 3476 3474 3470 3467 3464 3464 3463 3464 3462 3461 3457 3433 3398 3396 3368 3364 3359 3354 3354 3351 3342 3334 3328 3320 3316 3314 3313 3293 3253 3154 3050 2836 2814 2749 2709 2672 2604 2508 2384 2239 2148 2126 2104 2104 2104 2104 2100 2087 2073 2058 2008 1920 1804 1640 1556 1534 1517 1509 1505 1500 1495 1492 1490 1487 1485 1482 1480 1479 1473 1468 1462 1460 1451 1446 1444 1443 1439 1431 1423 1417 1417 1417 1426 1426 1426 1403 1395 1394 1389 1385 1381 1378 1374 1371 1368 1365 1362 1359 1356 1353 1351 1348 1342 1336 1334 1334 1320 1281 1281 1281 1303 1324 1324 1324 1318 1286 1283 1283 1277 1277 1276 1273 1271 1267 1267 1265 1263 1260 1258 1255 1251 1247 1245 1241 1238 1235 1232 1230 1227 1225 1222 1219 1217 1215 1213 1212 1209 1202 1190 1188 1182 1174 1164 1163 1162 1162 1162 1162 1161 1158 1151 1151 1151 1147 1147 1147 1147 1147 1143 1143 1138 1136 1134 1133 1131 1128 1127 1124 1122 1119 1117 1114 1111 1109 1106 1104 1101 1099 1096 1094 1091 1089 1087 1084 1082 1080 1078 1076 1074 1071 1069 1063 1063 1063 1063 1060 1057 1053 1045 1041 1041 1040 1039 1038 1038 1037 1034 1032 1032 1032 1034 1034 1034 1028 1024 1020 1018 1015 1012 1011 1009 1007 1006 1004 1002 1000 999 998 996 996 993 992 990 987 985 983 982 978 976 974 974 972 971 971 971 966 959 958 956 948 945 942 939 936 932 932 932 934 934 935 938 942 942 942 937 929 925 923 921 920 920 918 915 913 911 909 908 908 907 907 907 903 903 902 902 902 902 4 0 0 0 0 0 0 0 0 0 0 0 0 0 0 0 0 0 0 0 0 0 0 0 0 0 0 0 0 0 0 0 0 0 850 851 851 851 7 7 7 842 842 842 842 840 840 840 839 839 839 838 837 837 836 835 834 833 831 830 829 828 827 826 825 824 824 823 822 822 821 821 819 819 818 817 816 816 815 815 811 811 811 815 840 868 958 1058 1253 1372 1470 1524 1594 1749 1839 1844 1884 1887 1887 1888 1888 1887 1887 1883 1883 1883 1884 1884 1884 1874 1860 1857 1849 1849 1849 1875 1904 1952 1991 2040 2108 2131 2131 2131 2131 2120 2116 2116 2115 2111 2111 2111 2111 0
