796 796 804 808 812 815 816 818 820 820 825 825 826 826 828 830 834 837 841 844 847 851 853 854 856 867 873 881 887 895 901 905 907 907 909 911 918 928 938 938 940 941 941 946 950 951 952 954 956 956 956 955 952 952 952 953 953 955 956 956 957 958 960 962 962 962 962 962 962 962 963 963 965 965 965 961 956 955 954 953 954 953 953 953 954 954 954 955 955 955 954 952 952 952 951 950 947 947 947 948 950 951 951 951 952 952 952 952 952 951 950 949 948 948 944 938 934 930 926 922 916 913 911 909 907 906 905 905 905 905 905 905 906 907 907 911 914 916 917 919 919 926 933 942 949 969 1011 1022 1022 1022 973 949 939 935 932 932 932 931 930 930 929 928 928 928 929 930 931 933 935 936 936 938 950 970 989 1022 1102 1207 1375 1393 1393 1393 1378 1374 1372 1369 1364 1356 1346 1327 1307 1225 1124 1037 994 968 956 952 951 949 946 944 943 943 941 939 938 937 935 934 933 932 928 922 919 917 912 906 900 897 894 890 887 884 882 879 879 879 878 878 877 878 878 878 878 879 880 882 883 885 888 891 895 898 900 904 907 909 911 913 916 918 918 918 918 919 919 919 920 921 922 923 926 927 929 932 934 936 940 942 947 950 950 950 946 941 935 931 928 927 926 924 922 920 919 918 917 915 915 914 914 914 914 914 915 915 917 919 919 921 924 928 932 937 943 960 986 1028 1115 1305 1576 1576 1576 1512 1472 1453 1453 1453 1456 1459 1465 1465 1465 1461 1458 1457 1456 1456 1456 1456 1456 1455 1455 1455 1455 1455 1456 1456 1456 1457 1457 1459 1461 1465 1466 1468 1470 1473 1474 1475 1476 1476 1476 1476 1477 1477 1477 1479 1480 1480 1480 1480 1480 1479 1477 1477 1477 1480 1482 1482 1483 1483 1483 1487 1490 1495 1495 1495 1495 1495 1495 1497 1497 1497 1497 1500 1504 1505 1507 1509 1513 1518 1522 1526 1529 1532 1533 1533 1534 1534 1534 1537 1539 1541 1542 1543 1545 1546 1548 1549 1551 1555 1562 1563 1565 1565 1566 1567 1567 1569 1572 1574 1576 1578 1578 1578 1578 1579 1579 1579 1582 1582 1582 1579 1579 1579 1582 1582 1583 1583 1583 1585 1588 1592 1592 1592 1592 1592 1597 1599 1601 1601 1601 1601 1601 1601 1605 1607 1608 1609 1612 1612 1612 1613 1614 1616 1616 1617 1617 1618 1619 1621 1624 1627 1628 1628 1628 1631 1632 1632 1632 1630 1629 1628 1627 1627 1626 1626 1626 1627 1627 1627 1627 1625 1623 1623 1623 1622 1622 1622 1624 1625 1625 1625 1625 1624 1622 1621 1621 1621 1621 1623 1623 1623 1624 1625 1625 1625 1625 1625 1625 1626 1627 1627 1627 1629 1633 1637 1637 1637 1637 1639 1639 1640 1640 1640 1640 1640 1642 1642 1642 1642 1642 1643 1645 1645 1645 1645 1647 1649 1651 1651 1651 1648 1645 1643 1643 1643 1643 1645 1645 1645 1643 1640 1637 1637 1637 1638 1640 1641 1641 1643 1644 1645 1645 1646 1647 1647 1647 1647 1647 1647 1647 1647 1648 1649 1649 1649 1648 1643 1640 1635 1621 1601 1590 1586 1586 1586 1586 1586 1586 1583 1583 1583 1593 1593 1593 1576 1570 1570 1570 1574 1574 1574 1572 1568 1564 1562 1557 1553 1553 1553 1557 1558 1558 1558
794 796 803 808 811 813 816 818 820 820 825 827 828 828 829 831 835 840 844 844 847 852 854 855 860 868 875 882 888 895 901 905 910 910 912 916 923 930 941 941 943 943 943 946 950 951 952 954 956 956 956 955 955 955 956 956 956 957 958 958 959 960 962 963 963 964 964 965 965 965 965 965 965 965 965 961 958 958 956 954 954 954 954 954 954 954 954 955 955 955 955 955 955 954 953 949 947 947 947 948 949 950 950 951 951 951 951 951 951 951 950 948 948 946 944 939 934 930 927 922 915 912 910 907 905 904 903 903 903 903 903 904 905 906 907 910 911 912 912 915 921 926 936 945 959 995 1034 1034 1034 1028 975 949 939 935 932 931 931 931 930 929 928 928 928 928 929 929 929 930 931 933 934 937 948 959 979 1010 1071 1205 1345 1393 1393 1393 1378 1372 1370 1369 1365 1360 1351 1330 1307 1225 1139 1045 996 968 956 952 951 948 946 944 943 942 941 939 937 936 935 933 931 929 926 922 919 915 911 905 900 896 893 890 885 882 880 879 877 877 876 876 876 876 876 877 877 877 878 880 882 885 886 889 892 896 899 902 904 908 909 911 914 916 916 916 917 917 917 918 918 920 921 922 924 925 927 929 929 929 934 938 942 943 943 943 941 936 931 927 925 925 923 921 919 917 916 915 914 913 912 912 912 912 912 912 913 913 916 917 919 921 922 925 929 934 942 956 981 1015 1084 1234 1518 1526 1526 1526 1472 1453 1449 1449 1449 1452 1459 1459 1459 1459 1455 1453 1452 1452 1452 1452 1452 1452 1452 1453 1453 1454 1456 1456 1456 1455 1455 1455 1458 1461 1463 1464 1466 1467 1468 1470 1472 1473 1474 1474 1474 1473 1473 1473 1474 1475 1475 1475 1475 1475 1474 1474 1474 1478 1481 1482 1482 1483 1483 1487 1490 1492 1494 1494 1495 1495 1495 1497 1497 1497 1497 1500 1502 1503 1504 1508 1513 1518 1522 1526 1527 1528 1529 1530 1531 1531 1532 1536 1539 1540 1540 1541 1542 1542 1544 1547 1550 1552 1558 1563 1564 1564 1564 1564 1564 1565 1567 1570 1571 1572 1572 1572 1573 1575 1575 1578 1578 1578 1576 1575 1575 1575 1578 1579 1579 1579 1580 1580 1585 1590 1590 1590 1590 1590 1590 1593 1593 1597 1599 1600 1600 1600 1601 1601 1603 1605 1605 1605 1606 1606 1607 1609 1609 1611 1611 1612 1613 1616 1618 1619 1620 1620 1621 1624 1626 1626 1626 1623 1623 1622 1622 1621 1621 1621 1621 1622 1622 1622 1620 1618 1616 1615 1612 1612 1612 1612 1614 1618 1618 1618 1618 1616 1616 1615 1615 1615 1618 1618 1618 1618 1618 1618 1619 1620 1620 1620 1621 1621 1622 1622 1623 1625 1630 1632 1632 1633 1633 1634 1634 1634 1634 1634 1634 1635 1635 1635 1635 1635 1635 1638 1641 1641 1641 1642 1642 1643 1643 1643 1641 1640 1639 1638 1638 1638 1638 1638 1638 1638 1638 1637 1634 1633 1633 1633 1633 1634 1634 1636 1636 1641 1643 1646 1646 1646 1646 1645 1645 1644 1644 1643 1643 1642 1642 1641 1641 1636 1633 1630 1621 1601 1590 1586 1586 1586 1591 1591 1591 1583 1583 1583 1593 1593 1593 1576 1570 1570 1570 1572 1572 1572 1572 1566 1557 1552 1549 1549 1549 1553 1554 1555 1555 1557
794 796 803 807 810 813 814 815 819 820 825 828 830 830 831 834 837 841 844 845 851 853 855 858 863 868 876 883 890 895 901 907 910 911 916 922 929 941 945 945 945 946 946 948 950 951 952 952 954 955 955 955 956 958 958 958 958 959 959 959 960 961 962 964 964 964 965 966 966 966 966 966 966 966 966 962 960 959 957 956 955 955 956 956 956 956 956 956 956 956 956 956 956 955 953 949 948 947 947 947 948 948 948 949 949 950 951 951 951 951 950 947 947 946 942 939 934 931 927 922 914 911 908 905 904 903 902 901 901 901 902 903 904 904 905 908 908 909 911 915 921 926 936 946 962 1009 1072 1072 1072 1037 989 954 941 935 931 931 931 930 929 928 927 926 926 926 927 928 928 929 929 931 934 937 945 952 970 994 1045 1165 1345 1393 1393 1393 1379 1371 1370 1369 1368 1365 1354 1333 1307 1262 1177 1057 996 968 956 952 951 948 946 944 942 942 940 938 937 935 934 932 930 928 926 922 918 912 909 905 900 896 892 889 885 882 880 878 877 875 875 874 874 874 874 874 875 876 877 878 881 883 885 889 891 895 897 901 904 906 908 910 913 915 915 915 915 916 916 917 917 918 919 920 922 923 925 925 926 926 931 935 937 937 937 936 933 930 925 923 922 922 920 919 916 915 914 913 912 911 909 909 909 909 910 910 912 912 914 916 918 919 920 921 925 933 941 950 974 1009 1074 1213 1462 1528 1528 1528 1473 1453 1447 1445 1445 1445 1448 1452 1452 1452 1452 1450 1449 1449 1449 1449 1449 1449 1449 1449 1449 1450 1454 1454 1454 1454 1454 1454 1455 1457 1458 1461 1462 1463 1463 1465 1465 1465 1464 1464 1463 1463 1463 1463 1469 1470 1470 1470 1471 1470 1470 1470 1473 1473 1476 1479 1481 1482 1482 1483 1485 1489 1491 1491 1492 1492 1494 1496 1496 1497 1497 1498 1499 1500 1502 1506 1512 1518 1522 1523 1523 1524 1524 1526 1527 1529 1532 1536 1538 1539 1539 1540 1540 1541 1541 1543 1548 1550 1555 1559 1560 1560 1560 1560 1560 1562 1565 1566 1567 1567 1568 1568 1570 1571 1572 1573 1573 1573 1571 1571 1571 1572 1575 1575 1575 1575 1577 1578 1581 1587 1587 1587 1586 1586 1586 1586 1586 1589 1592 1593 1593 1594 1594 1596 1598 1600 1600 1600 1600 1600 1600 1600 1601 1601 1603 1605 1607 1609 1611 1611 1611 1611 1611 1614 1618 1618 1618 1616 1616 1616 1616 1616 1617 1617 1617 1617 1617 1616 1614 1612 1609 1606 1603 1602 1602 1602 1605 1607 1610 1610 1610 1609 1609 1609 1609 1611 1613 1613 1613 1613 1613 1613 1613 1613 1613 1614 1615 1616 1616 1617 1618 1621 1624 1625 1626 1627 1627 1629 1629 1629 1629 1629 1629 1629 1629 1629 1629 1629 1629 1632 1634 1634 1634 1634 1634 1634 1634 1634 1635 1635 1635 1635 1634 1634 1633 1633 1632 1632 1632 1632 1630 1629 1629 1629 1628 1628 1628 1630 1630 1636 1641 1644 1644 1644 1642 1640 1639 1639 1638 1637 1637 1637 1636 1635 1633 1632 1631 1628 1621 1606 1594 1594 1594 1601 1601 1601 1598 1593 1593 1593 1593 1593 1592 1576 1570 1570 1570 1572 1572 1572 1566 1558 1553 1545 1545 1545 1549 1553 1554 1555 1555 1554
791 796 802 807 810 813 814 815 819 820 825 828 830 831 833 836 840 843 846 848 852 854 856 859 865 871 878 883 890 895 901 907 911 915 922 929 935 941 946 946 947 947 948 948 950 951 952 952 953 954 955 955 957 959 959 959 960 960 960 961 961 963 964 965 965 966 966 967 967 967 967 967 967 967 967 964 962 961 959 957 957 957 957 957 957 957 957 958 957 957 956 956 956 955 953 949 948 947 947 947 947 947 947 947 948 949 949 949 950 950 950 947 946 944 942 939 935 931 926 920 912 909 907 904 903 901 899 899 899 899 900 901 902 903 904 906 908 909 911 915 921 926 936 947 964 1009 1107 1107 1107 1051 1006 975 941 936 931 931 929 929 928 926 925 925 925 925 926 927 928 928 929 930 933 937 944 950 965 989 1030 1123 1345 1393 1393 1393 1382 1371 1369 1369 1368 1365 1354 1334 1307 1262 1187 1078 1005 973 957 953 949 947 946 944 942 941 939 937 936 934 933 932 930 927 925 921 917 912 908 905 900 896 891 888 884 882 879 877 876 875 874 873 872 872 872 873 873 874 875 877 879 882 884 887 890 893 896 898 901 904 906 908 913 914 914 914 914 914 915 916 916 916 917 918 920 921 922 923 924 924 929 932 932 932 932 928 927 924 921 920 919 919 918 917 915 913 912 910 909 909 908 908 908 908 909 909 910 911 913 914 916 918 918 919 921 932 941 950 971 1000 1057 1167 1406 1528 1528 1528 1478 1453 1447 1444 1442 1442 1442 1443 1446 1446 1446 1445 1445 1445 1446 1447 1447 1447 1446 1446 1446 1448 1451 1452 1452 1452 1452 1452 1453 1453 1455 1458 1460 1460 1461 1461 1461 1460 1458 1458 1458 1459 1459 1459 1463 1466 1467 1467 1468 1468 1468 1468 1470 1470 1472 1475 1477 1478 1479 1480 1483 1486 1487 1488 1489 1489 1491 1493 1494 1495 1496 1496 1498 1499 1500 1504 1507 1509 1512 1513 1514 1517 1520 1523 1524 1525 1528 1534 1538 1538 1539 1539 1539 1539 1540 1541 1543 1546 1550 1552 1554 1555 1555 1555 1556 1559 1560 1563 1563 1564 1564 1565 1567 1567 1570 1570 1570 1569 1567 1567 1567 1568 1570 1571 1573 1573 1573 1574 1576 1580 1583 1583 1583 1581 1581 1581 1581 1581 1582 1584 1586 1588 1588 1590 1594 1595 1595 1595 1594 1593 1593 1594 1594 1595 1597 1598 1601 1602 1603 1603 1603 1603 1603 1604 1608 1610 1610 1610 1610 1610 1610 1610 1610 1609 1609 1609 1609 1609 1608 1607 1604 1599 1594 1591 1591 1591 1593 1596 1597 1601 1603 1603 1604 1604 1604 1606 1607 1608 1608 1608 1608 1607 1606 1606 1606 1606 1608 1608 1609 1611 1613 1616 1617 1618 1619 1620 1622 1623 1623 1623 1623 1623 1623 1624 1624 1624 1624 1624 1624 1625 1626 1627 1628 1628 1628 1628 1628 1628 1629 1630 1631 1631 1630 1630 1628 1627 1626 1626 1626 1626 1626 1626 1625 1624 1623 1622 1622 1622 1626 1633 1637 1639 1639 1639 1636 1635 1634 1634 1633 1633 1633 1632 1631 1630 1630 1628 1628 1624 1617 1607 1596 1596 1596 1602 1602 1602 1601 1601 1601 1604 1604 1604 1592 1578 1570 1570 1569 1569 1569 1563 1557 1554 1552 1545 1545 1545 1549 1553 1554 1555 1555 1554
791 796 801 807 810 813 814 815 819 821 826 828 830 831 837 840 842 845 847 850 853 855 859 863 869 874 880 885 890 895 901 908 916 920 928 934 939 942 948 948 948 949 949 950 951 951 952 952 953 954 955 955 957 959 959 960 960 961 961 962 962 964 965 965 966 967 968 969 969 969 969 970 970 970 968 965 964 964 962 959 959 959 959 959 959 959 959 959 958 957 956 956 955 955 951 949 948 947 947 946 946 946 946 946 946 946 947 948 948 948 948 946 945 944 942 939 935 931 925 917 911 908 904 902 900 898 897 897 897 897 898 899 900 901 901 904 907 909 917 920 922 927 937 956 984 1051 1141 1141 1141 1068 1027 976 945 937 931 930 927 925 925 925 924 925 924 924 925 926 927 927 928 929 932 934 938 945 957 979 1018 1087 1244 1393 1393 1393 1389 1371 1369 1368 1366 1365 1354 1334 1307 1262 1201 1104 1019 974 957 954 949 947 945 943 942 940 939 937 935 934 933 931 928 927 923 921 916 912 906 903 899 895 891 887 884 881 879 876 874 874 873 872 872 872 872 872 872 873 874 876 878 880 883 885 888 892 895 898 900 902 904 907 911 914 914 914 914 914 914 914 915 915 916 916 918 919 919 921 922 923 924 928 928 928 926 925 924 921 920 918 916 916 915 914 913 912 910 909 908 907 906 906 906 906 907 907 908 909 910 912 915 916 917 917 918 926 939 950 971 1000 1042 1145 1339 1540 1540 1540 1487 1458 1445 1443 1441 1438 1438 1438 1441 1441 1441 1442 1442 1442 1443 1444 1445 1445 1445 1445 1445 1446 1448 1448 1450 1450 1450 1451 1452 1452 1453 1455 1457 1458 1459 1459 1459 1458 1457 1456 1456 1456 1456 1456 1459 1462 1464 1465 1465 1466 1467 1468 1468 1468 1470 1471 1475 1476 1476 1476 1478 1481 1484 1484 1484 1486 1488 1489 1490 1492 1494 1495 1497 1499 1500 1501 1502 1505 1508 1509 1510 1513 1515 1517 1518 1519 1523 1528 1531 1533 1534 1536 1538 1538 1538 1539 1539 1541 1543 1547 1547 1547 1548 1548 1551 1553 1556 1558 1559 1559 1560 1561 1562 1563 1566 1566 1566 1566 1566 1566 1566 1566 1568 1569 1570 1570 1570 1570 1573 1574 1577 1577 1577 1578 1577 1577 1576 1576 1576 1576 1580 1581 1582 1584 1585 1588 1589 1589 1589 1588 1588 1588 1588 1589 1592 1593 1594 1597 1597 1597 1597 1597 1597 1597 1598 1600 1602 1603 1603 1604 1603 1603 1603 1602 1602 1602 1602 1602 1602 1602 1600 1595 1591 1586 1585 1585 1585 1586 1587 1588 1594 1595 1597 1598 1599 1602 1602 1602 1601 1601 1601 1600 1599 1599 1599 1599 1600 1600 1602 1603 1606 1609 1611 1612 1612 1613 1614 1615 1616 1616 1616 1616 1617 1619 1619 1619 1619 1619 1619 1619 1620 1620 1623 1623 1623 1623 1623 1623 1625 1627 1627 1627 1627 1627 1625 1623 1622 1621 1621 1621 1621 1621 1621 1621 1620 1619 1619 1619 1625 1628 1631 1633 1633 1633 1631 1631 1631 1630 1631 1631 1631 1630 1630 1627 1627 1627 1625 1622 1617 1607 1604 1604 1604 1604 1604 1602 1602 1602 1602 1604 1604 1604 1592 1578 1570 1570 1569 1568 1563 1556 1553 1552 1552 1545 1545 1545 1553 1556 1557 1563 1563 1563
795 796 801 807 814 816 817 818 821 824 826 828 830 832 840 845 847 847 850 852 856 859 864 869 874 879 884 887 893 899 909 918 925 927 934 938 941 947 948 949 949 949 949 951 952 952 953 953 953 954 954 955 957 958 959 960 961 962 962 963 963 964 965 967 968 968 969 970 971 971 971 971 971 971 970 968 965 965 963 962 961 961 960 960 960 960 960 959 958 957 955 955 953 953 950 947 947 947 946 944 944 944 944 944 944 945 946 946 946 946 945 944 943 942 942 938 935 931 923 915 910 905 903 900 899 896 895 895 895 895 896 897 897 899 901 904 907 911 917 920 923 929 938 964 1014 1144 1185 1185 1185 1117 1042 981 950 938 931 929 927 925 924 924 924 924 924 924 924 924 926 926 926 927 929 931 933 938 950 973 1002 1051 1189 1372 1392 1392 1392 1384 1365 1359 1357 1354 1342 1334 1307 1257 1201 1112 1026 974 959 955 951 947 944 942 942 940 938 936 933 932 931 929 925 920 918 917 916 912 906 900 896 893 889 886 884 881 878 875 874 872 871 870 870 870 870 871 871 872 873 875 877 880 882 884 888 890 894 897 900 902 904 907 910 913 913 913 913 913 913 914 914 914 915 915 916 917 918 919 919 920 921 924 924 924 924 922 922 919 917 916 914 913 912 911 910 909 908 906 905 905 904 904 905 905 905 906 907 908 909 910 913 914 914 916 917 925 939 953 971 999 1039 1118 1306 1564 1564 1564 1494 1458 1442 1440 1436 1435 1435 1435 1436 1436 1436 1437 1437 1438 1439 1440 1442 1442 1442 1442 1443 1444 1445 1446 1446 1446 1447 1448 1450 1451 1452 1453 1454 1455 1457 1457 1457 1456 1456 1455 1455 1455 1455 1455 1456 1458 1461 1462 1464 1464 1465 1465 1467 1468 1468 1469 1469 1472 1473 1473 1473 1474 1477 1478 1480 1483 1483 1485 1487 1489 1491 1494 1495 1496 1497 1497 1499 1502 1504 1505 1507 1509 1512 1513 1513 1513 1517 1521 1524 1526 1528 1531 1534 1535 1536 1536 1537 1537 1538 1540 1541 1541 1543 1544 1545 1547 1549 1552 1554 1555 1555 1555 1555 1558 1559 1561 1561 1561 1562 1562 1563 1564 1565 1566 1566 1566 1567 1567 1568 1568 1571 1572 1572 1573 1572 1572 1571 1571 1571 1571 1574 1575 1576 1576 1578 1581 1583 1583 1583 1583 1582 1581 1581 1581 1583 1585 1589 1592 1592 1592 1592 1592 1591 1591 1591 1592 1594 1597 1597 1597 1597 1597 1597 1597 1596 1597 1597 1597 1597 1597 1594 1590 1586 1584 1581 1581 1580 1580 1580 1581 1581 1587 1590 1592 1595 1595 1595 1593 1593 1593 1593 1593 1593 1593 1593 1593 1594 1595 1595 1595 1598 1600 1602 1603 1604 1606 1606 1609 1609 1610 1611 1611 1613 1613 1613 1613 1613 1613 1613 1614 1614 1616 1618 1620 1620 1620 1620 1620 1620 1621 1623 1623 1623 1623 1623 1623 1622 1620 1619 1618 1618 1618 1617 1618 1618 1618 1618 1619 1623 1623 1626 1627 1629 1629 1629 1629 1629 1629 1629 1629 1629 1629 1629 1625 1623 1623 1623 1622 1617 1609 1606 1606 1605 1605 1605 1602 1602 1602 1601 1599 1599 1593 1584 1578 1570 1570 1568 1567 1558 1553 1552 1551 1549 1552 1552 1552 1559 1560 1564 1565 1565 1564
795 797 801 809 814 818 820 821 822 824 827 828 831 835 842 850 851 852 853 856 861 864 870 875 880 884 890 897 905 912 918 923 927 939 941 945 947 948 949 949 950 950 952 953 953 953 953 953 953 953 954 955 957 958 959 960 961 962 962 964 964 965 965 967 968 969 970 971 972 972 972 973 973 973 971 970 969 967 965 963 963 961 960 960 960 960 960 959 957 957 955 954 953 952 949 947 947 945 943 942 942 942 942 942 942 943 943 943 943 943 942 941 940 940 940 938 934 930 920 914 907 904 900 898 895 893 893 893 893 894 895 896 896 898 900 903 907 911 917 921 924 931 957 1002 1085 1230 1230 1230 1213 1137 1050 984 950 938 931 929 927 925 924 924 923 923 923 923 923 923 924 924 924 925 926 927 930 935 946 968 998 1037 1139 1368 1392 1392 1392 1384 1360 1349 1345 1340 1334 1323 1306 1257 1205 1119 1033 980 962 954 949 947 943 942 941 939 938 935 933 930 928 926 924 920 917 914 913 912 905 898 893 889 887 884 882 879 877 874 872 872 871 870 869 869 869 870 870 871 873 874 876 879 881 884 887 890 894 897 900 902 904 906 909 912 912 912 912 912 912 913 913 914 914 914 915 915 916 916 916 917 919 921 921 921 920 919 918 917 916 914 911 910 908 907 907 906 905 904 903 903 903 903 903 903 903 904 905 906 907 908 910 913 914 916 917 925 939 958 975 999 1037 1102 1236 1513 1513 1513 1510 1458 1435 1434 1431 1430 1430 1430 1431 1431 1431 1432 1433 1433 1434 1436 1437 1438 1438 1439 1439 1440 1441 1441 1443 1443 1445 1447 1447 1448 1448 1448 1449 1450 1452 1453 1455 1455 1455 1454 1454 1452 1452 1453 1453 1453 1456 1460 1461 1461 1461 1461 1463 1465 1466 1467 1468 1469 1469 1470 1470 1472 1473 1475 1477 1479 1482 1485 1486 1487 1489 1491 1492 1493 1494 1494 1496 1498 1500 1500 1503 1507 1508 1508 1509 1509 1509 1512 1516 1518 1522 1525 1528 1530 1530 1530 1530 1531 1533 1534 1535 1535 1537 1538 1540 1540 1542 1545 1547 1547 1548 1549 1549 1552 1553 1555 1555 1557 1557 1559 1560 1561 1563 1564 1564 1564 1563 1563 1563 1563 1565 1567 1567 1567 1566 1565 1565 1565 1566 1567 1568 1569 1569 1569 1572 1574 1574 1576 1576 1576 1576 1575 1575 1575 1578 1579 1580 1581 1585 1585 1585 1585 1585 1585 1585 1587 1590 1592 1592 1592 1592 1591 1591 1591 1591 1592 1592 1592 1591 1591 1587 1585 1582 1580 1579 1578 1578 1577 1578 1578 1578 1581 1587 1587 1587 1587 1585 1585 1585 1585 1587 1587 1587 1587 1589 1592 1592 1592 1590 1590 1590 1591 1594 1597 1598 1598 1599 1600 1601 1604 1606 1607 1607 1608 1608 1608 1608 1608 1608 1611 1612 1613 1615 1616 1616 1616 1616 1616 1616 1617 1618 1620 1621 1623 1623 1623 1621 1619 1617 1616 1614 1614 1614 1614 1615 1616 1616 1618 1618 1618 1619 1623 1626 1626 1626 1626 1626 1627 1627 1627 1627 1627 1625 1622 1621 1621 1620 1620 1619 1613 1608 1607 1605 1605 1604 1602 1601 1599 1599 1596 1592 1586 1577 1574 1570 1568 1564 1562 1557 1553 1553 1553 1554 1556 1558 1558 1560 1562 1564 1565 1565 1564
795 799 802 810 815 819 821 822 822 824 827 830 834 838 846 853 855 857 859 862 867 872 875 878 883 890 900 908 913 918 923 925 927 940 943 947 948 949 949 949 950 951 953 953 953 953 953 953 954 954 954 955 957 958 959 960 961 962 963 964 964 965 966 967 968 969 970 972 972 973 974 974 974 974 974 972 970 968 967 964 964 962 962 961 960 960 960 959 957 957 955 954 953 951 948 946 945 944 942 940 939 939 939 939 939 940 940 940 940 940 940 940 939 938 938 934 932 927 916 911 906 901 899 895 893 892 891 891 891 892 892 895 895 896 899 902 906 911 917 921 928 947 975 1030 1146 1268 1268 1268 1217 1139 1054 993 956 937 931 928 927 925 923 923 923 922 922 922 922 922 922 922 922 923 924 927 930 935 942 961 993 1035 1119 1287 1392 1392 1392 1384 1355 1344 1339 1335 1330 1318 1306 1257 1207 1137 1041 985 962 953 949 946 943 941 941 939 937 935 933 929 928 925 924 919 917 913 907 904 901 896 890 886 884 883 881 878 875 874 872 872 871 869 869 868 868 868 869 870 871 873 876 877 880 883 886 890 894 897 900 902 904 906 909 910 911 911 911 911 911 911 912 912 912 912 913 914 914 915 915 916 918 918 918 917 915 914 914 914 912 911 908 907 906 905 904 904 903 902 901 901 901 901 901 901 902 902 904 905 906 908 909 912 914 915 917 925 939 958 975 999 1033 1091 1202 1432 1511 1511 1511 1453 1428 1427 1424 1423 1423 1423 1426 1427 1427 1428 1428 1428 1430 1431 1432 1433 1433 1434 1435 1436 1437 1438 1439 1441 1442 1443 1443 1443 1442 1442 1442 1445 1445 1446 1448 1449 1449 1449 1449 1449 1449 1449 1449 1449 1452 1454 1456 1456 1456 1457 1457 1461 1463 1465 1466 1466 1466 1466 1466 1469 1471 1473 1474 1476 1481 1483 1484 1485 1486 1488 1489 1490 1491 1491 1493 1493 1494 1497 1500 1503 1503 1503 1504 1504 1509 1510 1511 1514 1515 1518 1520 1521 1522 1522 1524 1526 1528 1529 1529 1529 1529 1532 1533 1534 1535 1538 1541 1542 1542 1542 1545 1546 1548 1551 1551 1551 1553 1555 1557 1557 1560 1560 1560 1560 1558 1558 1558 1558 1561 1561 1561 1560 1559 1559 1559 1560 1562 1562 1562 1563 1563 1564 1566 1568 1568 1569 1570 1570 1570 1569 1569 1569 1569 1572 1573 1574 1576 1577 1579 1579 1580 1580 1580 1583 1587 1587 1587 1587 1586 1586 1586 1586 1586 1586 1586 1586 1585 1585 1582 1580 1577 1576 1576 1576 1576 1576 1576 1577 1577 1577 1579 1579 1579 1578 1578 1578 1578 1580 1581 1581 1582 1582 1587 1587 1587 1587 1587 1586 1586 1586 1589 1591 1591 1591 1591 1593 1594 1596 1598 1600 1601 1602 1602 1602 1602 1602 1603 1606 1609 1609 1611 1611 1611 1611 1611 1611 1611 1612 1614 1615 1619 1620 1620 1620 1617 1615 1615 1612 1610 1610 1610 1610 1611 1613 1613 1613 1613 1614 1614 1617 1621 1622 1622 1623 1622 1622 1623 1622 1622 1622 1622 1618 1618 1618 1619 1619 1619 1613 1611 1607 1607 1605 1603 1601 1600 1599 1596 1593 1584 1577 1577 1574 1570 1568 1558 1557 1556 1556 1556 1558 1558 1558 1558 1558 1560 1562 1564 1564 1564 1557
799 802 804 811 816 819 821 823 824 826 830 833 839 844 850 854 859 860 867 871 876 878 881 884 889 900 908 914 919 926 926 927 929 940 947 947 947 948 948 948 950 953 954 954 954 953 953 953 954 954 954 955 957 958 959 960 961 962 963 964 965 966 967 968 969 970 971 972 973 975 975 975 975 975 974 972 971 970 969 966 965 964 962 962 961 960 960 959 957 957 956 954 952 949 947 946 945 943 940 938 937 936 936 936 936 937 937 938 938 938 938 938 937 937 935 931 929 922 914 909 903 899 895 893 891 889 889 889 889 890 892 892 895 896 898 902 905 909 917 927 943 968 1006 1087 1268 1268 1268 1268 1217 1143 1065 1006 958 937 931 927 926 924 922 921 921 921 921 921 921 921 921 922 922 922 924 926 929 935 942 953 969 1010 1085 1257 1374 1374 1374 1373 1349 1344 1336 1333 1327 1318 1304 1284 1219 1143 1066 997 965 954 949 946 942 941 940 938 936 935 933 929 928 923 922 919 916 911 904 901 897 892 885 882 881 880 879 877 875 873 871 871 870 869 869 868 868 868 868 869 871 872 874 877 880 882 886 890 893 897 900 902 904 907 909 909 910 910 910 909 909 909 910 910 910 910 911 912 913 913 913 915 915 915 915 912 911 911 911 910 909 907 905 903 903 902 901 901 901 900 900 899 899 899 899 900 901 902 903 903 905 907 909 912 914 915 917 925 939 958 975 998 1024 1076 1176 1401 1516 1516 1516 1450 1423 1420 1417 1417 1417 1420 1422 1422 1422 1421 1421 1421 1425 1425 1427 1428 1429 1430 1431 1432 1432 1434 1435 1438 1440 1440 1440 1438 1437 1437 1437 1438 1439 1439 1441 1442 1443 1443 1444 1444 1444 1444 1443 1443 1443 1445 1447 1450 1450 1451 1451 1455 1458 1461 1462 1462 1463 1463 1463 1464 1467 1468 1469 1473 1479 1480 1481 1481 1482 1484 1485 1486 1487 1487 1488 1488 1490 1492 1495 1496 1497 1497 1497 1497 1504 1506 1507 1508 1509 1510 1512 1513 1514 1516 1519 1521 1522 1522 1523 1523 1523 1525 1527 1529 1531 1534 1536 1537 1538 1540 1541 1542 1543 1544 1545 1546 1547 1549 1551 1551 1553 1556 1556 1556 1555 1553 1553 1553 1555 1555 1555 1554 1554 1554 1554 1555 1556 1556 1556 1556 1556 1559 1561 1562 1563 1564 1565 1565 1565 1564 1563 1563 1563 1564 1566 1568 1569 1571 1574 1574 1575 1575 1575 1578 1582 1583 1583 1583 1582 1581 1581 1581 1581 1581 1582 1581 1581 1581 1577 1574 1572 1572 1572 1572 1574 1574 1574 1575 1575 1574 1574 1574 1572 1572 1571 1571 1572 1573 1575 1576 1577 1579 1581 1581 1582 1582 1583 1583 1583 1584 1585 1585 1585 1585 1585 1585 1588 1589 1590 1590 1592 1594 1595 1595 1597 1597 1599 1601 1604 1605 1606 1606 1606 1606 1605 1605 1605 1606 1606 1611 1616 1616 1616 1615 1611 1610 1610 1608 1608 1607 1607 1606 1606 1607 1608 1609 1609 1609 1609 1610 1613 1617 1618 1618 1618 1618 1618 1617 1617 1616 1615 1615 1615 1616 1619 1619 1619 1613 1611 1608 1607 1604 1602 1599 1598 1596 1595 1591 1582 1577 1575 1574 1570 1568 1557 1557 1557 1557 1560 1560 1560 1560 1558 1558 1558 1558 1558 1555 1554 1550
802 802 806 811 814 819 821 826 827 829 834 837 842 847 851 856 859 863 868 875 886 889 894 895 898 902 914 926 927 927 929 929 929 939 947 947 947 948 948 948 951 953 954 954 954 953 953 953 954 954 955 955 956 958 959 960 961 962 963 965 966 967 968 969 970 971 972 972 974 975 975 975 975 975 975 973 972 972 971 970 967 966 964 963 962 961 960 959 959 957 956 954 952 949 946 945 943 942 939 936 934 933 933 933 934 934 934 934 935 936 936 936 936 936 934 928 925 916 910 904 899 896 892 889 888 888 888 888 888 890 890 891 893 894 897 901 904 909 917 929 950 983 1041 1164 1295 1295 1295 1256 1217 1180 1107 1020 958 935 930 927 925 924 921 921 920 920 920 920 920 920 920 920 920 922 923 925 929 934 941 952 961 982 1049 1176 1361 1364 1364 1361 1343 1341 1334 1330 1326 1318 1304 1284 1230 1163 1087 1007 966 955 950 946 941 940 940 938 936 935 933 929 926 922 918 918 915 909 901 898 894 888 881 879 877 877 876 875 873 870 869 868 866 866 866 866 867 867 867 868 870 870 873 875 878 881 884 890 893 897 899 903 905 907 909 909 909 909 909 909 909 909 908 908 909 909 909 910 912 912 912 912 912 911 910 908 908 908 908 908 907 905 903 902 900 900 900 899 899 899 897 897 897 897 898 898 900 901 901 902 904 906 908 910 913 915 917 925 936 949 969 998 1021 1062 1163 1360 1528 1528 1528 1445 1415 1411 1411 1411 1415 1418 1419 1419 1419 1417 1417 1417 1420 1422 1424 1424 1425 1425 1426 1426 1427 1429 1431 1434 1436 1436 1436 1435 1433 1432 1432 1432 1433 1433 1434 1436 1437 1437 1438 1439 1439 1438 1438 1438 1438 1439 1441 1442 1443 1443 1443 1447 1451 1456 1459 1459 1459 1460 1461 1462 1463 1464 1465 1467 1472 1475 1475 1476 1477 1480 1481 1482 1482 1482 1482 1483 1484 1486 1488 1490 1491 1491 1493 1494 1496 1501 1502 1503 1503 1503 1505 1507 1509 1512 1515 1516 1517 1517 1517 1518 1518 1520 1522 1524 1526 1528 1530 1531 1534 1535 1537 1539 1539 1539 1540 1540 1542 1544 1544 1545 1548 1550 1550 1550 1549 1547 1547 1547 1549 1550 1550 1550 1548 1548 1548 1548 1549 1549 1550 1550 1551 1554 1554 1558 1558 1560 1561 1561 1561 1560 1559 1559 1559 1559 1559 1560 1564 1566 1568 1570 1571 1571 1572 1573 1576 1577 1577 1577 1577 1576 1576 1576 1576 1576 1577 1577 1577 1577 1573 1569 1567 1567 1567 1567 1569 1570 1571 1572 1572 1572 1571 1570 1568 1566 1566 1566 1566 1568 1570 1571 1571 1572 1573 1574 1574 1575 1579 1582 1582 1582 1582 1581 1580 1579 1579 1579 1580 1580 1581 1582 1583 1585 1585 1587 1589 1592 1593 1595 1596 1597 1598 1599 1599 1599 1599 1599 1599 1600 1600 1605 1612 1612 1612 1607 1605 1605 1604 1604 1604 1604 1602 1602 1602 1602 1604 1605 1605 1605 1605 1605 1606 1610 1612 1614 1614 1614 1611 1611 1611 1610 1611 1611 1611 1615 1619 1619 1619 1613 1611 1608 1606 1604 1600 1599 1594 1587 1586 1583 1581 1577 1575 1574 1571 1569 1557 1557 1557 1557 1566 1566 1566 1563 1556 1555 1554 1554 1554 1554 1550 1550
808 808 808 812 815 819 822 827 830 834 838 843 846 849 852 857 861 865 870 878 890 902 903 905 906 913 928 929 929 931 929 931 932 940 947 947 947 947 948 949 951 953 954 954 954 953 953 953 953 954 955 955 956 958 959 960 961 962 963 965 966 967 968 969 971 972 973 973 974 976 976 976 976 976 975 974 973 973 972 972 970 968 966 965 964 963 963 962 960 958 956 954 951 948 945 943 942 940 937 934 932 930 930 930 931 931 931 932 933 933 933 933 933 933 930 927 924 914 910 902 898 893 889 888 888 887 887 887 887 888 889 890 892 893 897 901 904 909 915 937 964 995 1069 1229 1286 1286 1286 1248 1219 1180 1111 1020 960 934 930 926 922 922 921 921 920 920 919 919 919 919 919 919 920 922 923 925 929 933 937 945 948 962 1010 1110 1293 1352 1352 1352 1341 1339 1325 1323 1321 1314 1302 1284 1231 1173 1105 1025 976 955 950 946 940 937 937 936 935 933 932 929 925 918 916 915 910 904 898 895 891 885 877 874 874 874 873 873 870 869 867 866 864 864 864 864 864 865 866 866 867 869 871 873 876 878 881 888 891 894 898 904 908 909 909 909 909 909 908 907 906 906 906 907 907 907 907 909 909 909 909 908 908 907 907 905 905 905 905 905 903 902 901 900 899 898 897 896 896 896 896 896 896 897 897 897 899 899 901 901 903 905 907 907 908 912 915 926 936 949 965 996 1021 1062 1163 1360 1528 1528 1528 1445 1411 1407 1407 1407 1413 1415 1415 1415 1413 1413 1413 1413 1416 1418 1420 1420 1420 1420 1420 1420 1422 1425 1426 1430 1432 1432 1432 1432 1431 1430 1428 1428 1428 1428 1429 1431 1432 1432 1432 1433 1434 1434 1434 1434 1434 1434 1436 1438 1438 1438 1438 1441 1445 1452 1453 1454 1455 1456 1457 1459 1459 1461 1462 1462 1465 1466 1468 1469 1472 1475 1476 1476 1477 1477 1477 1478 1479 1480 1482 1484 1485 1486 1487 1490 1492 1494 1496 1497 1497 1497 1497 1501 1504 1507 1510 1511 1512 1512 1513 1513 1513 1515 1517 1518 1520 1522 1527 1527 1529 1532 1534 1534 1534 1535 1536 1537 1538 1538 1539 1540 1542 1545 1545 1545 1543 1541 1541 1541 1544 1546 1546 1546 1544 1543 1542 1542 1542 1543 1543 1545 1548 1550 1550 1552 1554 1555 1558 1558 1558 1557 1556 1556 1556 1554 1554 1554 1557 1561 1563 1565 1567 1567 1567 1569 1571 1572 1573 1573 1573 1572 1572 1572 1571 1571 1572 1572 1572 1572 1569 1565 1564 1563 1563 1563 1565 1566 1566 1566 1566 1566 1566 1566 1564 1562 1562 1562 1563 1564 1565 1565 1566 1566 1567 1568 1568 1570 1574 1578 1578 1578 1577 1576 1574 1573 1573 1573 1574 1575 1575 1575 1577 1577 1578 1581 1583 1585 1587 1588 1590 1593 1593 1593 1593 1593 1593 1592 1593 1593 1593 1597 1603 1603 1603 1600 1600 1600 1601 1601 1601 1600 1599 1598 1598 1598 1600 1602 1602 1602 1602 1602 1602 1604 1609 1609 1609 1609 1605 1604 1604 1604 1606 1606 1608 1613 1613 1613 1613 1610 1609 1608 1606 1604 1600 1595 1589 1584 1582 1580 1578 1577 1575 1574 1573 1569 1566 1558 1558 1558 1566 1566 1566 1564 1556 1555 1553 1549 1549 1549 1549 1549
812 812 813 815 816 821 824 830 837 841 843 846 849 850 853 857 861 867 875 883 894 902 910 915 918 927 932 932 934 934 936 936 940 940 943 944 945 946 947 949 952 953 954 954 954 953 953 953 953 954 954 955 956 957 959 960 961 962 963 965 966 967 969 969 971 972 973 973 975 976 976 976 976 976 976 976 975 974 974 973 973 971 968 968 966 965 964 963 961 959 956 954 951 948 944 942 940 937 935 932 928 928 928 928 928 928 929 929 930 930 930 931 931 931 930 926 924 914 909 900 895 891 887 886 886 885 885 885 885 886 887 888 890 891 896 900 904 912 915 944 988 1044 1148 1292 1292 1292 1261 1245 1223 1180 1122 1025 960 934 929 926 922 921 921 920 920 920 919 918 918 918 918 919 919 921 922 923 927 930 931 932 945 961 995 1062 1212 1341 1341 1341 1336 1321 1320 1318 1316 1310 1299 1278 1236 1187 1140 1042 983 963 950 944 940 937 935 934 933 932 932 929 921 908 907 904 902 897 892 890 885 879 874 872 867 867 867 867 867 867 864 864 864 864 864 863 864 864 864 864 866 868 870 872 873 875 880 886 890 891 898 904 909 909 909 909 909 908 907 906 906 905 905 905 905 906 906 906 906 906 905 905 904 904 903 902 902 902 901 901 901 900 899 897 896 895 895 895 894 894 894 894 894 896 896 896 898 898 900 901 902 904 904 904 905 909 915 926 936 949 964 986 1013 1062 1163 1360 1528 1528 1528 1444 1408 1405 1405 1405 1409 1410 1410 1410 1408 1408 1408 1410 1411 1413 1414 1414 1414 1414 1414 1415 1418 1421 1423 1424 1426 1426 1426 1426 1426 1425 1424 1424 1424 1424 1425 1427 1427 1428 1428 1429 1430 1430 1430 1430 1430 1430 1432 1434 1434 1434 1435 1438 1442 1446 1448 1450 1450 1452 1454 1455 1456 1458 1458 1459 1460 1461 1463 1464 1467 1470 1471 1471 1471 1471 1472 1472 1474 1477 1477 1478 1480 1482 1483 1485 1487 1489 1491 1491 1491 1491 1493 1496 1499 1503 1506 1507 1508 1508 1508 1509 1509 1510 1512 1515 1517 1518 1520 1521 1523 1526 1527 1528 1529 1530 1532 1533 1533 1534 1534 1534 1537 1540 1540 1540 1538 1537 1537 1537 1538 1541 1541 1541 1539 1539 1538 1538 1538 1538 1539 1541 1543 1543 1546 1547 1547 1549 1551 1553 1553 1553 1553 1553 1553 1550 1550 1550 1551 1553 1554 1556 1559 1562 1563 1565 1567 1569 1569 1569 1569 1568 1567 1567 1567 1566 1566 1563 1563 1562 1561 1561 1560 1560 1558 1558 1558 1558 1560 1560 1560 1560 1560 1560 1559 1558 1558 1558 1559 1559 1560 1562 1562 1563 1564 1564 1564 1565 1568 1571 1571 1571 1571 1570 1568 1568 1568 1568 1569 1570 1570 1571 1572 1572 1573 1575 1577 1580 1581 1583 1584 1584 1584 1584 1584 1585 1585 1586 1586 1586 1587 1589 1592 1593 1594 1594 1594 1595 1595 1597 1597 1597 1595 1594 1594 1594 1596 1598 1599 1599 1599 1599 1599 1599 1605 1605 1605 1602 1598 1598 1598 1599 1602 1604 1607 1610 1610 1610 1607 1607 1606 1605 1605 1604 1600 1594 1588 1583 1581 1580 1577 1577 1575 1574 1573 1572 1571 1571 1566 1566 1566 1566 1566 1565 1557 1555 1553 1547 1547 1547 1547 1547
815 816 816 818 818 822 826 832 841 847 850 851 852 855 857 860 863 875 880 885 897 905 913 918 926 932 935 936 936 937 938 941 941 942 943 944 945 946 947 950 952 952 953 953 953 953 953 953 953 953 954 955 956 957 958 960 961 962 963 965 966 967 969 969 971 972 973 973 974 976 976 977 977 977 977 977 976 975 975 974 974 974 972 971 969 968 966 964 962 959 956 954 951 947 944 942 939 937 934 930 926 924 924 924 925 926 926 926 927 927 927 928 928 928 928 925 921 913 906 898 894 891 887 886 885 885 884 884 884 884 886 887 888 890 893 900 904 913 917 945 998 1093 1276 1284 1284 1284 1252 1243 1223 1191 1122 1034 960 934 929 926 922 921 921 920 920 919 918 918 918 918 918 918 919 920 921 922 925 928 928 932 945 961 981 1020 1109 1312 1336 1336 1336 1319 1312 1312 1311 1308 1295 1274 1238 1191 1144 1066 990 965 956 948 942 935 932 932 930 930 921 914 907 898 893 889 886 882 879 879 874 870 866 864 864 864 864 862 862 862 862 862 862 862 862 862 861 861 861 862 864 865 868 870 871 874 879 885 888 891 897 904 909 909 909 909 908 908 906 905 905 904 904 905 904 904 904 903 903 902 902 901 901 900 900 900 901 901 901 901 900 897 896 895 893 893 893 893 892 892 892 893 894 894 895 896 896 898 899 900 901 902 902 902 905 909 915 928 939 946 962 981 1013 1064 1177 1362 1522 1522 1522 1444 1407 1402 1402 1402 1404 1404 1404 1404 1403 1403 1403 1404 1405 1407 1407 1407 1407 1407 1408 1413 1415 1416 1417 1418 1419 1419 1420 1421 1421 1421 1420 1420 1420 1420 1422 1423 1423 1423 1424 1425 1426 1427 1427 1427 1427 1427 1428 1430 1431 1432 1433 1435 1439 1442 1442 1445 1446 1447 1449 1451 1452 1453 1454 1454 1455 1456 1458 1461 1463 1466 1467 1467 1467 1469 1469 1469 1470 1472 1473 1473 1475 1477 1479 1481 1482 1483 1485 1485 1486 1486 1487 1490 1493 1496 1499 1500 1501 1501 1502 1502 1503 1506 1508 1510 1511 1513 1515 1515 1516 1518 1520 1522 1523 1526 1527 1528 1528 1528 1528 1528 1531 1533 1533 1533 1532 1532 1532 1532 1532 1534 1535 1536 1536 1536 1534 1534 1534 1534 1535 1535 1536 1538 1539 1539 1540 1543 1545 1547 1548 1549 1549 1549 1548 1546 1545 1545 1545 1546 1546 1547 1550 1554 1557 1561 1562 1564 1564 1564 1564 1563 1562 1562 1561 1561 1559 1556 1556 1556 1557 1557 1557 1556 1554 1553 1553 1553 1553 1553 1554 1555 1556 1556 1556 1554 1552 1552 1552 1555 1556 1558 1558 1559 1559 1560 1560 1561 1562 1563 1563 1565 1565 1565 1564 1564 1564 1564 1566 1566 1566 1567 1568 1568 1569 1571 1573 1574 1577 1579 1579 1579 1579 1579 1579 1579 1580 1581 1581 1581 1582 1582 1583 1585 1586 1587 1587 1587 1587 1592 1592 1592 1590 1590 1590 1591 1593 1594 1594 1595 1595 1595 1596 1597 1600 1600 1600 1595 1593 1593 1593 1594 1597 1602 1606 1606 1606 1604 1604 1604 1604 1604 1604 1604 1599 1593 1587 1583 1580 1580 1577 1575 1575 1574 1574 1573 1572 1572 1565 1565 1565 1565 1565 1565 1559 1557 1552 1545 1545 1545 1540 1540
816 820 820 820 820 823 827 836 847 855 858 859 861 864 866 869 875 884 890 892 901 912 917 925 928 934 938 939 939 939 940 942 943 943 943 944 945 946 948 951 952 952 953 953 953 953 953 953 953 953 954 954 955 956 958 959 961 962 963 965 966 967 969 969 970 970 971 972 974 975 976 977 977 977 978 978 978 977 977 977 977 976 974 972 971 970 967 966 964 959 956 953 948 944 942 940 938 935 931 927 924 922 922 922 923 923 923 924 924 925 925 926 926 926 926 923 919 912 904 896 894 891 887 885 884 884 883 883 883 883 884 886 886 888 891 900 904 914 941 962 1043 1186 1340 1340 1340 1281 1249 1243 1230 1192 1122 1040 968 934 929 926 923 921 920 920 920 919 918 918 917 917 917 918 919 920 921 921 922 924 927 931 942 956 969 995 1069 1235 1334 1334 1334 1319 1310 1310 1307 1304 1292 1274 1242 1205 1144 1066 1022 972 956 948 942 935 930 929 919 909 907 906 903 893 875 870 866 863 862 862 859 855 854 853 851 851 853 853 853 855 857 859 860 860 860 860 860 860 860 860 861 862 864 867 869 873 878 883 888 890 897 903 909 909 909 909 907 907 906 903 903 903 902 902 902 902 901 901 901 900 900 900 900 899 899 899 899 899 899 899 897 895 894 893 892 892 892 892 892 892 892 892 892 893 893 895 896 897 898 898 900 901 902 902 905 909 916 930 939 941 953 981 1013 1077 1199 1424 1504 1504 1504 1418 1397 1397 1397 1398 1399 1399 1399 1399 1398 1398 1398 1398 1398 1398 1398 1398 1399 1400 1404 1407 1410 1410 1411 1411 1411 1413 1414 1415 1415 1415 1415 1415 1416 1417 1417 1418 1419 1419 1420 1421 1422 1423 1423 1423 1422 1422 1422 1423 1424 1427 1429 1430 1432 1435 1436 1438 1440 1443 1445 1447 1447 1448 1450 1451 1452 1453 1454 1457 1459 1461 1464 1464 1464 1465 1465 1466 1468 1468 1468 1469 1471 1473 1476 1477 1479 1479 1480 1482 1482 1482 1482 1486 1488 1491 1493 1494 1495 1495 1498 1498 1499 1501 1502 1504 1507 1509 1512 1512 1512 1513 1514 1516 1518 1519 1520 1520 1520 1519 1519 1518 1518 1518 1520 1526 1526 1526 1526 1526 1526 1527 1530 1532 1532 1532 1531 1530 1529 1529 1529 1530 1530 1531 1532 1534 1535 1537 1541 1542 1542 1544 1544 1544 1543 1540 1540 1540 1541 1541 1541 1542 1544 1547 1551 1555 1557 1558 1558 1558 1558 1556 1556 1556 1555 1555 1554 1551 1551 1551 1552 1552 1552 1551 1549 1549 1548 1548 1548 1548 1549 1550 1552 1552 1552 1551 1548 1548 1548 1549 1551 1554 1555 1556 1556 1557 1557 1557 1557 1557 1557 1559 1560 1560 1560 1560 1560 1560 1561 1561 1561 1562 1563 1564 1566 1569 1571 1571 1572 1574 1574 1574 1574 1574 1575 1575 1576 1576 1576 1577 1577 1578 1578 1579 1579 1579 1579 1580 1581 1583 1584 1585 1585 1586 1587 1588 1590 1590 1590 1591 1591 1591 1592 1593 1592 1591 1591 1587 1587 1587 1587 1587 1594 1599 1602 1602 1602 1598 1597 1597 1597 1597 1599 1599 1599 1593 1585 1581 1579 1579 1578 1576 1575 1575 1575 1575 1575 1575 1568 1565 1565 1563 1563 1563 1559 1557 1552 1544 1543 1543 1543 1543
816 826 828 829 831 833 837 842 848 857 862 866 869 875 879 882 889 896 897 900 910 923 928 930 934 936 939 941 941 943 944 944 945 946 946 946 946 947 948 951 952 952 953 953 953 953 953 953 953 953 954 954 955 956 957 958 960 961 963 965 965 967 967 968 969 969 971 971 973 975 976 977 977 977 979 979 979 979 979 978 978 978 975 972 971 970 969 968 965 959 956 952 945 942 937 935 933 932 928 924 922 920 920 920 920 920 922 922 922 922 923 925 925 925 924 922 918 910 901 896 894 891 887 885 884 883 882 882 882 882 883 884 885 886 891 900 907 920 959 963 1088 1286 1328 1328 1328 1272 1249 1243 1233 1199 1124 1048 973 937 929 928 923 921 920 920 919 919 918 917 916 916 916 917 918 920 920 921 922 923 926 931 940 951 967 991 1050 1174 1317 1319 1319 1319 1304 1299 1299 1297 1290 1274 1242 1205 1144 1066 1022 982 954 944 942 935 926 907 902 898 896 887 877 866 857 853 849 846 845 844 841 840 840 840 842 842 842 844 844 849 853 857 857 858 858 858 859 860 860 860 861 862 863 866 868 871 874 880 885 890 897 903 909 909 909 907 906 906 905 903 902 901 900 900 900 900 900 900 899 899 899 898 898 898 897 896 896 896 895 893 893 892 891 890 890 890 890 891 891 891 891 891 891 892 893 894 895 896 897 898 898 900 901 902 906 912 917 930 939 941 953 981 1030 1093 1219 1444 1469 1469 1469 1403 1392 1392 1392 1394 1394 1394 1394 1393 1393 1393 1393 1393 1394 1394 1394 1394 1394 1396 1399 1402 1403 1403 1404 1404 1404 1408 1409 1410 1411 1412 1412 1412 1412 1412 1412 1412 1414 1415 1416 1417 1417 1417 1417 1417 1417 1417 1418 1418 1420 1422 1425 1426 1426 1427 1430 1432 1436 1440 1442 1442 1443 1443 1446 1447 1448 1450 1450 1451 1453 1456 1459 1460 1461 1462 1462 1463 1464 1465 1466 1466 1469 1470 1472 1474 1474 1475 1476 1476 1478 1478 1480 1481 1484 1486 1487 1490 1491 1491 1491 1492 1496 1497 1497 1499 1502 1506 1509 1509 1509 1509 1509 1511 1513 1515 1515 1515 1513 1511 1511 1511 1511 1511 1512 1517 1518 1519 1519 1519 1520 1521 1524 1526 1527 1527 1527 1525 1525 1524 1524 1524 1524 1524 1526 1527 1529 1531 1533 1535 1535 1539 1539 1539 1539 1536 1536 1536 1538 1538 1538 1538 1538 1541 1545 1547 1551 1551 1551 1550 1549 1548 1548 1548 1547 1547 1547 1545 1545 1545 1547 1547 1547 1546 1543 1543 1543 1543 1543 1544 1544 1546 1547 1547 1547 1546 1545 1545 1545 1545 1547 1549 1550 1551 1551 1552 1552 1552 1552 1552 1552 1554 1555 1555 1555 1555 1555 1556 1556 1557 1557 1557 1558 1560 1563 1566 1567 1568 1569 1569 1569 1570 1570 1570 1571 1571 1571 1571 1573 1573 1573 1573 1573 1574 1574 1574 1574 1575 1575 1576 1576 1576 1576 1581 1584 1585 1587 1587 1587 1587 1588 1588 1588 1586 1586 1585 1583 1583 1581 1581 1581 1582 1586 1592 1592 1592 1592 1592 1589 1588 1588 1589 1592 1592 1592 1589 1582 1579 1578 1577 1577 1577 1575 1575 1575 1575 1575 1575 1570 1563 1561 1561 1560 1560 1559 1557 1552 1544 1543 1543 1543 1544
816 828 828 829 831 843 844 847 852 858 864 870 877 886 889 895 899 903 905 907 918 928 932 933 936 938 939 941 942 943 945 945 946 946 948 948 948 948 948 951 953 953 953 953 953 953 953 953 953 953 954 954 954 956 957 958 959 961 963 964 965 965 966 967 969 969 970 970 972 973 974 975 975 977 979 979 979 980 980 980 980 978 976 974 973 972 971 970 965 961 956 950 945 942 937 933 930 928 924 920 919 917 917 917 918 918 920 920 922 922 923 924 924 924 924 920 916 910 901 896 894 892 888 885 884 883 882 882 882 882 882 883 885 886 891 900 914 934 986 1083 1089 1287 1304 1304 1304 1269 1249 1245 1238 1199 1124 1048 978 937 929 928 923 921 920 919 919 918 917 916 916 916 916 916 918 919 920 920 920 922 924 928 936 947 961 984 1027 1105 1253 1318 1318 1318 1304 1291 1291 1290 1287 1274 1242 1205 1145 1081 1022 982 953 936 932 924 913 906 899 888 871 863 859 852 846 840 834 830 830 829 823 823 823 826 831 835 836 837 839 842 846 849 853 856 857 857 858 859 859 859 860 860 862 865 866 868 872 877 882 889 897 902 904 905 905 905 905 905 903 902 902 900 899 898 898 897 897 897 896 896 896 896 896 896 894 892 891 890 889 889 889 888 888 889 889 889 889 889 890 890 890 891 891 892 892 893 894 895 896 897 898 899 900 902 907 912 917 930 937 939 953 983 1049 1133 1269 1508 1508 1508 1439 1384 1384 1384 1388 1389 1390 1390 1390 1389 1389 1388 1388 1388 1389 1389 1390 1391 1391 1391 1393 1395 1397 1397 1398 1398 1398 1402 1403 1404 1406 1406 1407 1407 1407 1407 1407 1407 1409 1410 1412 1412 1412 1412 1412 1412 1413 1414 1414 1415 1416 1419 1421 1421 1422 1422 1425 1426 1430 1434 1437 1438 1438 1439 1440 1443 1445 1446 1446 1446 1448 1450 1455 1456 1458 1458 1458 1460 1461 1462 1462 1464 1465 1468 1468 1470 1470 1471 1471 1472 1474 1476 1478 1478 1479 1482 1484 1484 1486 1486 1486 1489 1492 1495 1496 1496 1498 1501 1504 1504 1504 1504 1504 1506 1509 1509 1509 1507 1506 1505 1504 1504 1504 1506 1507 1509 1511 1513 1514 1514 1515 1519 1520 1523 1523 1523 1522 1521 1520 1520 1519 1519 1519 1519 1520 1521 1523 1524 1525 1526 1529 1533 1533 1533 1532 1531 1531 1531 1533 1534 1534 1534 1534 1534 1538 1541 1543 1543 1543 1542 1542 1541 1541 1541 1542 1542 1542 1540 1540 1540 1540 1540 1540 1540 1540 1540 1539 1539 1539 1539 1539 1542 1543 1543 1543 1542 1542 1542 1542 1544 1544 1544 1545 1546 1547 1547 1547 1547 1547 1547 1547 1547 1547 1548 1548 1549 1549 1550 1550 1550 1550 1551 1555 1557 1559 1563 1563 1564 1564 1565 1565 1566 1567 1568 1568 1568 1568 1569 1569 1569 1569 1570 1570 1570 1570 1571 1571 1571 1571 1572 1572 1573 1573 1577 1580 1584 1584 1584 1583 1582 1582 1582 1582 1582 1581 1578 1577 1576 1576 1576 1577 1577 1580 1582 1582 1582 1582 1582 1582 1582 1582 1582 1585 1585 1585 1582 1578 1578 1578 1577 1577 1577 1575 1575 1575 1577 1577 1577 1574 1563 1561 1560 1559 1559 1558 1557 1552 1544 1543 1543 1543 1544
817 828 828 830 833 846 854 855 862 872 878 884 894 897 900 901 904 908 914 918 927 931 933 933 937 938 939 941 942 943 945 945 946 947 949 949 949 950 950 952 953 953 953 953 953 953 953 953 953 953 953 954 954 955 956 957 959 961 963 963 964 965 966 966 967 968 969 969 970 971 973 974 974 977 978 979 980 980 981 981 981 980 977 975 973 973 973 970 965 961 956 949 943 940 936 932 928 925 921 919 917 915 915 915 916 917 918 919 921 922 923 924 924 924 924 920 916 910 901 896 894 892 889 888 885 883 882 882 882 882 882 883 885 886 891 902 919 940 987 1093 1325 1328 1328 1328 1285 1267 1256 1250 1238 1199 1124 1051 984 942 933 929 923 921 920 918 918 917 916 916 914 914 914 916 917 918 918 918 919 921 923 927 933 941 950 963 994 1061 1168 1311 1311 1311 1304 1290 1287 1284 1284 1274 1241 1196 1135 1064 1019 982 953 927 917 911 906 897 884 866 853 851 843 834 825 819 816 816 815 812 808 808 808 809 816 821 823 825 825 829 835 841 844 846 852 855 856 857 858 860 860 860 862 864 865 867 869 875 879 888 897 901 902 903 903 903 903 903 902 902 900 899 898 897 896 896 895 895 893 891 891 891 890 890 889 888 887 886 886 886 886 886 886 886 886 887 888 888 888 889 889 890 890 891 891 892 893 894 894 896 897 899 900 902 907 912 917 924 935 939 962 1001 1058 1153 1321 1516 1516 1516 1411 1371 1371 1371 1380 1384 1384 1385 1385 1385 1385 1384 1384 1384 1384 1385 1385 1386 1387 1387 1388 1390 1392 1392 1393 1393 1394 1394 1396 1398 1400 1402 1405 1405 1405 1403 1403 1403 1404 1407 1408 1408 1408 1408 1408 1409 1410 1411 1412 1412 1413 1415 1417 1418 1418 1419 1421 1422 1425 1428 1432 1434 1435 1436 1438 1439 1441 1441 1441 1442 1444 1447 1450 1453 1453 1454 1455 1457 1458 1459 1459 1460 1462 1463 1465 1465 1465 1467 1469 1470 1471 1473 1474 1475 1476 1476 1478 1479 1479 1481 1482 1485 1488 1491 1492 1492 1494 1496 1497 1497 1497 1497 1497 1500 1503 1503 1503 1502 1500 1499 1499 1499 1500 1501 1501 1502 1504 1508 1510 1511 1513 1515 1517 1519 1519 1519 1519 1518 1516 1516 1515 1515 1515 1514 1515 1515 1515 1516 1517 1518 1522 1525 1527 1527 1527 1526 1526 1526 1526 1527 1528 1528 1529 1529 1531 1535 1537 1537 1537 1537 1536 1534 1533 1533 1533 1534 1534 1534 1533 1533 1533 1534 1534 1534 1534 1535 1536 1536 1536 1537 1538 1539 1541 1541 1541 1540 1540 1540 1541 1542 1542 1542 1542 1542 1542 1542 1542 1542 1542 1541 1541 1541 1541 1541 1541 1542 1542 1544 1544 1544 1545 1546 1549 1554 1558 1559 1560 1561 1561 1561 1562 1564 1565 1565 1565 1565 1565 1565 1566 1567 1567 1567 1567 1568 1569 1569 1570 1570 1569 1570 1570 1570 1571 1575 1579 1582 1582 1582 1581 1578 1578 1578 1577 1577 1577 1572 1571 1571 1571 1572 1574 1574 1574 1574 1573 1573 1573 1574 1574 1576 1576 1578 1582 1582 1582 1577 1575 1575 1575 1577 1577 1577 1575 1575 1575 1577 1577 1577 1574 1563 1561 1560 1559 1559 1558 1557 1552 1551 1550 1549 1549 1548
817 825 832 834 843 847 858 869 871 889 901 906 906 909 910 912 913 915 917 925 930 932 933 934 937 938 940 941 943 943 945 947 947 947 949 950 950 951 952 952 952 953 953 953 952 952 952 952 953 953 953 954 954 955 956 957 958 961 962 963 963 964 965 966 966 967 968 968 969 970 971 972 974 975 977 979 980 980 982 982 982 981 977 977 977 975 974 972 965 961 956 949 943 938 935 932 925 922 918 917 915 914 914 914 915 916 918 919 920 921 923 924 924 924 924 920 916 910 902 897 894 892 889 888 886 884 882 882 882 882 882 883 886 890 894 904 920 949 1005 1139 1328 1328 1328 1327 1283 1266 1257 1250 1238 1200 1135 1062 994 948 934 929 923 921 920 918 917 917 916 915 914 914 914 915 915 917 917 917 918 918 922 925 930 935 936 943 966 1022 1103 1235 1304 1304 1304 1290 1280 1272 1271 1258 1230 1192 1135 1063 1018 979 930 910 905 900 892 868 854 847 843 830 819 813 808 804 801 800 799 799 796 795 795 795 802 804 809 811 817 817 822 828 831 835 842 850 854 857 858 859 860 860 862 863 864 865 868 873 878 886 895 900 902 902 902 901 901 900 900 900 899 896 895 894 893 892 892 892 891 889 888 888 887 887 886 883 882 882 882 883 884 885 885 885 886 886 887 887 887 887 887 888 890 891 891 892 893 893 894 895 896 898 900 902 907 910 917 924 935 943 969 1015 1069 1157 1347 1463 1463 1463 1401 1366 1366 1366 1369 1375 1377 1380 1380 1380 1380 1380 1380 1380 1380 1380 1381 1382 1383 1383 1383 1385 1385 1386 1387 1387 1387 1389 1391 1393 1395 1397 1399 1400 1400 1400 1400 1400 1402 1404 1404 1404 1404 1405 1405 1405 1406 1408 1408 1409 1410 1412 1413 1414 1415 1416 1417 1418 1420 1423 1428 1431 1432 1432 1433 1434 1435 1436 1437 1438 1441 1445 1447 1449 1449 1451 1452 1453 1454 1454 1455 1455 1457 1458 1460 1461 1462 1463 1465 1467 1468 1470 1470 1472 1472 1473 1473 1475 1475 1477 1479 1482 1485 1486 1487 1488 1489 1490 1490 1490 1491 1491 1493 1494 1497 1497 1497 1496 1493 1493 1493 1495 1496 1496 1496 1496 1496 1499 1504 1506 1509 1510 1512 1514 1515 1515 1515 1515 1515 1513 1512 1509 1509 1509 1509 1509 1509 1509 1509 1510 1512 1516 1517 1519 1520 1520 1521 1521 1521 1522 1522 1524 1524 1524 1525 1527 1530 1532 1532 1532 1530 1528 1528 1528 1528 1528 1528 1528 1525 1525 1525 1525 1528 1528 1529 1532 1533 1534 1534 1534 1536 1536 1536 1537 1537 1537 1538 1538 1540 1540 1540 1540 1540 1539 1539 1539 1537 1537 1537 1537 1537 1537 1536 1536 1536 1537 1537 1537 1537 1537 1540 1543 1546 1550 1554 1554 1556 1558 1558 1558 1558 1560 1562 1562 1562 1561 1561 1561 1562 1564 1564 1565 1565 1567 1568 1568 1568 1568 1568 1568 1568 1568 1570 1575 1579 1580 1580 1580 1576 1575 1575 1574 1574 1574 1572 1567 1567 1567 1568 1570 1571 1571 1571 1569 1567 1566 1566 1566 1568 1568 1571 1574 1575 1575 1575 1574 1571 1571 1571 1577 1577 1577 1575 1575 1575 1577 1577 1577 1574 1563 1563 1561 1561 1561 1558 1557 1555 1552 1551 1551 1549 1548
818 825 832 834 845 848 858 869 874 890 906 908 910 911 915 916 917 919 920 927 931 932 934 936 937 939 940 941 943 943 945 947 947 947 949 950 952 952 952 953 953 953 953 953 952 952 952 952 953 953 953 954 954 955 956 957 958 961 962 962 963 963 964 965 965 966 966 967 967 968 968 970 971 973 976 977 978 979 982 985 986 986 986 986 986 986 975 973 965 962 957 949 942 937 930 929 923 920 916 915 915 913 913 913 915 915 917 918 920 921 923 925 925 925 924 920 916 910 903 897 894 892 890 889 888 885 883 883 883 884 885 886 888 894 896 907 926 961 1036 1201 1329 1329 1329 1304 1276 1264 1257 1250 1230 1201 1138 1072 1010 958 935 929 923 921 920 918 917 916 915 914 914 913 913 913 914 915 915 915 915 915 918 922 928 931 934 937 953 994 1048 1159 1289 1290 1290 1290 1272 1261 1243 1243 1214 1173 1123 1063 1012 913 895 884 865 857 851 844 836 829 822 808 800 798 794 792 790 789 789 788 788 788 788 792 795 796 797 799 804 810 811 813 818 824 835 843 849 854 856 857 858 860 860 861 862 864 867 871 877 884 891 897 899 899 900 900 900 899 898 897 896 893 892 891 889 888 888 888 888 887 886 885 885 885 881 879 879 879 881 882 882 883 883 884 884 884 885 885 885 885 885 887 888 890 891 892 892 893 893 894 895 897 898 903 907 910 917 924 935 945 970 1018 1076 1172 1371 1458 1458 1458 1394 1365 1365 1365 1366 1370 1374 1375 1375 1375 1375 1375 1375 1375 1375 1376 1376 1377 1378 1379 1380 1381 1381 1381 1381 1381 1381 1383 1386 1388 1390 1392 1393 1395 1396 1396 1396 1397 1398 1399 1400 1400 1400 1401 1401 1402 1403 1404 1405 1406 1407 1408 1410 1411 1412 1413 1413 1414 1415 1417 1423 1426 1427 1428 1429 1430 1431 1432 1433 1436 1438 1441 1443 1445 1445 1446 1448 1449 1449 1449 1449 1450 1452 1454 1456 1458 1459 1460 1462 1463 1464 1465 1466 1467 1469 1469 1470 1472 1474 1475 1477 1479 1480 1481 1483 1483 1484 1484 1484 1484 1484 1484 1485 1488 1490 1490 1490 1489 1489 1489 1489 1491 1492 1492 1492 1492 1492 1493 1497 1500 1503 1504 1505 1507 1509 1511 1511 1511 1511 1511 1508 1506 1506 1505 1505 1504 1503 1503 1504 1505 1507 1509 1510 1510 1511 1513 1515 1516 1517 1517 1518 1520 1520 1521 1521 1522 1523 1525 1525 1525 1524 1521 1521 1521 1522 1522 1522 1522 1522 1522 1522 1523 1523 1525 1526 1529 1529 1529 1530 1531 1533 1533 1533 1534 1534 1534 1536 1538 1539 1539 1539 1536 1536 1535 1535 1534 1533 1533 1533 1533 1533 1532 1532 1532 1532 1531 1531 1531 1531 1532 1537 1540 1543 1547 1549 1549 1551 1555 1555 1555 1556 1557 1557 1557 1556 1556 1556 1557 1560 1562 1562 1563 1563 1563 1564 1564 1564 1563 1563 1563 1563 1566 1569 1574 1577 1577 1577 1576 1571 1571 1571 1571 1571 1571 1568 1565 1565 1565 1566 1568 1568 1568 1566 1564 1560 1560 1560 1560 1562 1563 1564 1567 1572 1572 1572 1572 1571 1571 1571 1576 1576 1576 1574 1571 1571 1571 1572 1572 1572 1563 1563 1563 1562 1562 1561 1558 1555 1552 1551 1551 1549 1548
818 825 832 840 849 850 859 869 880 893 907 910 910 912 915 921 921 922 922 927 931 932 935 937 940 940 940 941 943 945 946 948 948 948 949 952 953 954 954 954 953 953 953 953 952 952 952 952 953 953 953 954 954 955 956 957 958 961 961 962 962 962 963 963 963 964 965 965 965 966 967 968 969 971 973 975 977 977 981 985 986 987 988 988 988 988 979 974 968 964 959 949 942 935 928 921 919 916 914 914 914 913 913 913 913 914 916 917 919 921 923 926 927 927 927 923 920 914 906 898 894 892 890 890 889 886 883 883 883 885 885 886 893 899 905 913 940 986 1075 1309 1309 1309 1290 1290 1265 1261 1257 1250 1229 1201 1156 1104 1026 968 937 929 927 922 920 918 917 916 915 914 913 912 912 912 912 913 913 913 914 914 915 918 924 928 934 936 943 978 1031 1107 1244 1277 1277 1277 1257 1242 1219 1187 1185 1144 1088 1045 911 879 865 856 846 832 832 827 822 813 803 793 788 786 785 784 784 781 781 780 780 780 781 786 788 790 790 791 795 801 804 805 808 815 824 834 841 847 851 853 855 858 859 859 860 862 865 869 875 880 886 893 896 897 897 897 897 896 895 894 892 891 890 887 886 885 885 885 885 884 884 883 883 880 879 878 878 878 878 878 879 879 879 881 882 882 882 882 883 884 884 885 887 888 890 892 892 892 892 893 895 897 898 903 906 909 918 925 936 949 975 1020 1096 1228 1419 1419 1419 1414 1389 1363 1363 1363 1365 1369 1370 1370 1371 1371 1371 1372 1372 1372 1372 1372 1372 1372 1373 1375 1376 1376 1376 1376 1376 1376 1377 1379 1381 1384 1387 1388 1389 1389 1391 1393 1393 1393 1394 1394 1395 1397 1398 1398 1398 1398 1398 1400 1402 1403 1404 1405 1405 1406 1408 1409 1409 1410 1411 1412 1417 1421 1423 1424 1425 1427 1427 1428 1430 1432 1434 1436 1438 1440 1440 1441 1443 1444 1444 1445 1445 1446 1449 1451 1452 1454 1455 1456 1458 1460 1460 1460 1462 1463 1465 1467 1468 1470 1471 1472 1473 1474 1475 1476 1476 1477 1478 1479 1479 1479 1479 1479 1479 1480 1483 1483 1484 1484 1485 1485 1485 1487 1487 1487 1487 1487 1487 1489 1491 1494 1496 1497 1498 1500 1503 1505 1506 1506 1506 1505 1503 1502 1502 1501 1498 1498 1498 1499 1500 1502 1506 1506 1506 1506 1506 1506 1508 1510 1510 1512 1515 1516 1516 1516 1516 1517 1517 1519 1519 1519 1519 1518 1516 1516 1516 1516 1516 1516 1517 1518 1519 1519 1521 1522 1525 1525 1525 1525 1525 1527 1529 1529 1529 1529 1529 1529 1531 1536 1536 1536 1531 1530 1530 1530 1530 1527 1527 1527 1528 1528 1528 1527 1527 1527 1527 1527 1527 1527 1527 1528 1533 1538 1543 1543 1543 1544 1547 1549 1551 1551 1552 1553 1553 1553 1551 1551 1551 1553 1556 1558 1558 1558 1558 1558 1558 1558 1558 1558 1558 1559 1559 1564 1569 1572 1575 1575 1575 1571 1568 1568 1568 1568 1568 1568 1564 1564 1563 1563 1563 1565 1565 1565 1564 1561 1557 1557 1556 1556 1557 1558 1559 1560 1567 1567 1567 1567 1567 1567 1569 1576 1576 1576 1574 1568 1568 1568 1570 1570 1570 1563 1563 1563 1563 1563 1562 1559 1555 1552 1551 1549 1549 1547
826 832 842 846 849 853 859 869 880 898 907 910 910 915 917 921 922 922 923 928 931 933 935 938 940 940 940 942 944 945 946 948 948 949 950 952 954 954 954 954 954 953 953 953 952 952 952 952 953 953 953 954 954 955 956 957 959 960 961 962 962 962 962 962 963 963 964 964 964 965 966 966 967 969 971 973 973 975 978 982 986 987 988 988 995 1001 1001 1001 982 967 961 952 942 934 924 918 916 915 914 913 913 912 912 912 913 914 916 917 918 919 923 927 929 930 930 930 927 919 910 900 896 892 890 890 889 886 883 883 883 885 886 887 893 899 905 930 974 1028 1166 1321 1321 1321 1277 1277 1251 1251 1247 1238 1226 1200 1156 1105 1026 970 939 932 927 923 920 918 917 916 915 914 912 912 912 912 912 912 912 912 912 912 913 916 919 925 933 934 937 957 996 1054 1150 1246 1246 1246 1240 1197 1187 1144 1102 1099 1045 909 867 854 843 832 823 821 820 814 807 797 791 783 781 780 779 778 778 776 774 773 773 773 774 776 780 782 783 785 788 790 794 797 801 808 816 824 831 837 845 849 853 855 857 857 858 860 863 867 873 878 884 888 892 893 893 893 893 891 891 889 887 886 885 885 883 883 882 882 882 882 880 879 878 877 876 875 875 875 875 875 876 876 876 877 877 877 878 879 880 881 883 884 885 887 890 891 891 892 892 893 895 896 898 900 905 909 918 925 936 955 984 1027 1106 1257 1477 1477 1477 1408 1374 1359 1359 1359 1364 1367 1367 1367 1367 1367 1367 1367 1370 1370 1370 1369 1369 1369 1370 1372 1373 1373 1373 1373 1373 1375 1377 1377 1379 1380 1383 1384 1384 1386 1387 1388 1388 1389 1389 1390 1391 1393 1394 1394 1394 1394 1395 1396 1398 1399 1400 1400 1401 1401 1403 1405 1406 1407 1408 1411 1413 1413 1416 1420 1421 1422 1423 1425 1426 1428 1430 1432 1433 1435 1436 1437 1437 1438 1439 1441 1442 1443 1444 1446 1447 1449 1451 1452 1454 1455 1456 1456 1457 1460 1461 1463 1465 1467 1468 1469 1469 1470 1470 1471 1471 1471 1472 1473 1473 1473 1474 1474 1474 1476 1477 1479 1479 1481 1481 1482 1483 1484 1484 1484 1484 1484 1484 1484 1486 1488 1489 1490 1491 1492 1496 1499 1499 1499 1498 1497 1497 1496 1496 1494 1494 1494 1494 1496 1497 1500 1500 1500 1500 1498 1498 1498 1498 1499 1500 1505 1506 1508 1510 1511 1511 1512 1513 1513 1514 1514 1514 1513 1512 1512 1512 1512 1512 1512 1512 1514 1515 1515 1516 1520 1521 1521 1521 1522 1522 1522 1524 1524 1524 1523 1523 1523 1524 1525 1525 1525 1524 1524 1523 1523 1521 1519 1519 1519 1520 1521 1521 1521 1522 1522 1522 1522 1522 1522 1522 1524 1530 1537 1541 1541 1541 1541 1541 1542 1545 1546 1548 1548 1548 1548 1548 1548 1548 1551 1553 1553 1553 1553 1553 1553 1553 1553 1553 1553 1553 1553 1556 1559 1566 1570 1571 1571 1571 1568 1566 1565 1565 1565 1565 1563 1562 1558 1556 1556 1556 1560 1562 1562 1562 1559 1555 1555 1554 1554 1555 1556 1557 1557 1559 1565 1565 1565 1564 1564 1564 1571 1572 1572 1571 1568 1568 1568 1568 1568 1565 1561 1561 1561 1562 1562 1562 1562 1555 1552 1547 1545 1544 1544
838 845 853 856 857 858 862 871 884 899 909 910 910 916 918 921 922 923 926 929 932 934 937 938 940 940 940 942 944 945 946 948 948 949 950 952 954 955 955 955 954 954 954 953 953 953 953 953 953 953 953 953 954 955 956 957 959 960 961 961 961 961 961 961 961 962 962 962 962 963 964 965 966 968 969 971 973 974 977 980 984 987 988 989 995 1001 1001 1001 982 967 961 952 939 927 920 917 915 915 914 912 911 910 910 910 911 914 916 917 918 919 923 927 936 939 939 939 935 928 917 909 898 892 890 890 889 886 884 884 884 885 888 890 895 902 908 939 992 1074 1265 1270 1270 1270 1252 1244 1244 1242 1240 1234 1222 1199 1156 1105 1027 976 942 932 927 923 920 918 917 916 915 913 912 911 911 911 911 911 911 911 911 911 912 914 917 925 933 934 935 945 964 1008 1083 1190 1190 1190 1168 1117 1103 1080 1052 1051 961 866 846 830 822 819 817 815 809 801 795 788 781 778 777 776 774 774 771 769 768 768 768 768 769 771 773 775 777 780 784 787 791 793 795 802 810 816 822 829 836 845 850 852 854 854 855 858 861 865 870 874 879 887 890 891 891 890 890 890 885 884 883 883 883 882 882 882 881 880 880 878 877 876 875 875 874 874 874 873 873 873 873 873 873 874 874 874 875 877 878 880 880 882 884 886 887 889 891 891 892 893 895 896 897 900 905 909 918 925 939 956 987 1032 1122 1293 1487 1487 1487 1405 1372 1357 1357 1357 1362 1363 1364 1364 1364 1364 1364 1364 1366 1367 1367 1367 1367 1368 1369 1370 1370 1370 1370 1370 1371 1373 1374 1375 1375 1377 1379 1381 1382 1382 1382 1383 1383 1384 1384 1385 1387 1388 1390 1390 1390 1391 1393 1394 1394 1396 1396 1396 1397 1397 1398 1399 1401 1402 1405 1407 1408 1409 1411 1415 1417 1419 1420 1421 1422 1423 1425 1427 1430 1431 1432 1433 1434 1434 1435 1436 1437 1438 1440 1440 1442 1443 1446 1448 1450 1450 1451 1451 1453 1455 1457 1459 1461 1462 1463 1463 1463 1464 1464 1465 1466 1468 1468 1470 1470 1470 1471 1471 1471 1473 1474 1475 1476 1478 1478 1480 1481 1481 1481 1481 1481 1481 1482 1482 1483 1484 1484 1485 1485 1486 1487 1490 1491 1491 1490 1490 1490 1489 1488 1488 1488 1488 1491 1493 1493 1493 1493 1493 1492 1492 1492 1492 1492 1493 1493 1495 1499 1502 1503 1504 1505 1505 1506 1509 1509 1509 1509 1509 1508 1507 1507 1507 1507 1507 1507 1509 1509 1511 1512 1514 1516 1516 1516 1516 1516 1518 1519 1519 1519 1518 1518 1518 1518 1519 1520 1519 1519 1519 1518 1517 1514 1513 1513 1513 1514 1515 1516 1517 1517 1517 1517 1517 1517 1518 1518 1521 1529 1537 1539 1539 1539 1537 1537 1537 1538 1541 1542 1542 1542 1543 1543 1543 1545 1547 1549 1549 1549 1549 1548 1548 1548 1548 1548 1548 1548 1548 1552 1557 1562 1566 1567 1567 1567 1566 1564 1561 1561 1561 1560 1557 1557 1553 1553 1553 1553 1556 1557 1557 1557 1554 1551 1550 1550 1550 1553 1553 1554 1555 1558 1561 1561 1561 1558 1558 1558 1559 1559 1562 1563 1564 1565 1565 1565 1564 1561 1561 1561 1561 1562 1562 1562 1562 1555 1552 1547 1545 1544 1544
848 859 865 865 866 871 876 889 895 902 909 910 917 918 918 921 922 924 927 930 934 936 937 938 938 938 940 942 944 945 945 948 948 949 950 951 954 954 955 955 954 954 954 954 954 953 953 953 953 953 954 954 954 955 956 956 959 959 959 959 959 960 960 960 961 961 961 961 961 961 962 963 964 966 967 969 971 973 975 979 983 985 988 988 995 1001 1001 1001 982 967 961 952 933 922 917 915 913 912 912 910 910 909 909 910 911 914 916 916 918 919 923 931 945 947 948 948 948 941 922 913 905 894 891 891 890 887 884 884 884 885 890 890 896 902 908 939 996 1121 1282 1282 1282 1253 1245 1240 1238 1238 1235 1229 1218 1193 1154 1105 1027 977 943 932 927 923 921 918 917 916 913 912 910 910 910 910 910 910 910 910 910 910 911 912 914 923 929 932 934 941 953 983 1033 1108 1127 1127 1127 1068 1029 1008 992 900 898 840 826 816 809 804 802 801 798 792 786 781 777 775 771 770 769 768 767 766 765 765 765 766 767 768 768 769 772 777 782 785 788 789 789 793 802 811 816 822 830 837 844 849 849 851 853 855 858 862 868 871 876 883 887 888 889 889 889 888 883 882 881 881 881 881 880 879 878 878 877 876 875 874 874 874 873 873 873 872 872 871 871 871 870 870 870 872 873 874 875 877 879 880 882 883 885 887 889 890 892 893 895 896 897 900 905 909 915 924 939 957 987 1042 1150 1328 1487 1487 1487 1403 1368 1357 1357 1357 1358 1362 1362 1362 1361 1360 1360 1360 1362 1363 1365 1365 1365 1365 1366 1367 1367 1367 1367 1368 1370 1370 1371 1371 1371 1372 1375 1377 1377 1377 1377 1377 1378 1379 1379 1380 1382 1384 1385 1387 1389 1389 1389 1390 1390 1391 1392 1392 1393 1393 1394 1395 1396 1398 1399 1402 1405 1407 1408 1409 1412 1414 1416 1418 1420 1421 1421 1424 1426 1428 1428 1428 1428 1428 1429 1431 1432 1434 1435 1436 1437 1439 1441 1442 1444 1445 1445 1447 1448 1450 1452 1453 1455 1458 1458 1458 1459 1460 1460 1460 1462 1465 1468 1468 1468 1468 1468 1468 1468 1470 1471 1472 1473 1474 1476 1477 1478 1480 1480 1480 1480 1479 1479 1479 1479 1480 1480 1480 1480 1480 1481 1481 1483 1484 1484 1484 1483 1483 1483 1483 1483 1484 1485 1485 1485 1485 1485 1485 1485 1485 1485 1486 1486 1487 1487 1490 1492 1495 1497 1498 1498 1498 1502 1503 1504 1504 1504 1503 1503 1503 1503 1503 1502 1502 1502 1503 1505 1507 1509 1509 1510 1510 1510 1510 1512 1512 1512 1512 1512 1512 1512 1514 1515 1517 1517 1517 1517 1516 1515 1513 1510 1507 1507 1507 1507 1509 1512 1512 1512 1513 1513 1514 1514 1514 1516 1519 1525 1530 1535 1535 1535 1532 1532 1532 1532 1533 1533 1534 1534 1534 1536 1538 1540 1541 1542 1543 1544 1544 1544 1544 1544 1543 1543 1544 1544 1545 1547 1552 1558 1561 1564 1564 1564 1562 1560 1558 1557 1557 1555 1554 1552 1551 1551 1551 1552 1553 1553 1552 1551 1548 1546 1546 1546 1546 1549 1551 1553 1554 1558 1560 1560 1560 1554 1546 1546 1546 1547 1552 1553 1558 1562 1562 1562 1562 1560 1560 1560 1561 1562 1562 1562 1562 1555 1552 1547 1545 1544 1544
856 868 870 871 872 878 888 892 897 905 913 916 917 918 918 920 922 924 927 931 934 935 935 936 936 936 940 942 943 945 945 945 948 949 950 951 952 953 954 954 955 955 955 954 954 954 954 953 953 953 954 954 955 955 956 956 957 957 959 959 959 958 958 958 959 959 959 959 959 960 961 962 963 964 964 965 965 970 973 977 982 983 984 988 992 992 992 987 974 954 938 935 923 915 912 911 911 910 909 909 907 907 907 909 910 913 914 915 918 919 926 936 948 956 957 959 959 959 941 925 915 897 894 892 891 891 887 887 887 887 892 897 897 902 921 966 1047 1242 1264 1264 1264 1243 1236 1236 1235 1235 1234 1229 1218 1193 1154 1105 1065 982 943 932 926 923 921 918 917 916 913 911 909 909 908 908 908 908 908 908 909 909 909 909 911 917 924 926 928 935 943 961 991 1024 1024 1024 999 993 970 960 908 843 822 822 814 803 792 791 790 790 789 784 781 776 772 769 768 767 766 765 764 763 763 763 763 763 764 764 764 764 765 770 775 779 782 784 784 787 798 807 815 818 824 831 837 842 845 848 851 853 856 861 867 871 876 881 885 888 888 888 887 884 881 880 880 880 880 879 878 878 877 876 875 875 874 873 873 873 873 873 872 870 869 869 869 868 867 867 867 868 869 872 873 874 876 878 880 881 883 885 887 889 891 894 895 896 897 900 905 909 915 924 939 964 995 1057 1167 1344 1472 1472 1472 1391 1359 1355 1353 1353 1355 1357 1357 1357 1357 1357 1357 1357 1358 1361 1362 1362 1363 1363 1363 1363 1363 1364 1365 1365 1367 1367 1367 1367 1367 1367 1369 1372 1372 1372 1373 1373 1373 1374 1374 1375 1376 1379 1381 1383 1384 1385 1385 1385 1386 1386 1387 1388 1389 1389 1389 1391 1392 1394 1395 1397 1400 1402 1404 1405 1406 1409 1411 1414 1416 1417 1418 1420 1422 1423 1424 1424 1424 1424 1424 1426 1428 1430 1431 1431 1432 1435 1436 1438 1439 1439 1440 1441 1444 1445 1447 1448 1448 1450 1453 1454 1454 1454 1456 1457 1459 1461 1463 1464 1464 1464 1465 1465 1465 1465 1466 1468 1469 1471 1472 1473 1474 1476 1476 1476 1476 1476 1475 1475 1475 1474 1474 1475 1474 1474 1475 1476 1477 1478 1478 1478 1478 1478 1477 1477 1477 1477 1478 1478 1478 1478 1479 1479 1480 1480 1480 1481 1482 1482 1484 1484 1487 1490 1493 1494 1494 1494 1495 1496 1498 1499 1499 1499 1498 1498 1498 1498 1498 1498 1500 1500 1502 1504 1504 1504 1504 1504 1504 1505 1507 1507 1507 1506 1506 1506 1506 1508 1509 1512 1514 1514 1514 1512 1511 1509 1507 1504 1504 1504 1504 1504 1507 1508 1508 1508 1508 1508 1510 1512 1513 1515 1519 1521 1523 1523 1523 1523 1523 1523 1527 1527 1527 1525 1525 1525 1528 1531 1532 1533 1535 1537 1538 1538 1538 1539 1539 1539 1539 1539 1540 1540 1541 1547 1552 1555 1559 1559 1559 1559 1556 1554 1553 1552 1552 1552 1552 1551 1550 1550 1550 1549 1548 1548 1546 1544 1541 1541 1541 1542 1544 1548 1549 1550 1554 1557 1557 1557 1548 1542 1538 1538 1538 1539 1545 1550 1557 1560 1560 1560 1559 1559 1559 1561 1561 1561 1561 1560 1555 1551 1547 1544 1544 1544
856 871 872 872 873 879 892 896 903 910 916 917 917 917 918 920 922 924 927 931 934 934 934 934 934 935 938 941 943 945 945 945 948 949 950 951 952 953 954 955 956 956 956 956 956 956 954 954 954 954 954 955 955 955 956 956 957 957 958 958 958 958 958 958 959 959 959 959 959 959 961 962 962 963 963 963 964 966 972 975 976 980 981 987 987 987 981 970 957 941 925 922 914 909 908 907 907 907 907 907 907 907 907 909 910 913 913 915 919 928 937 947 956 962 968 969 975 975 975 947 927 899 895 895 894 894 894 891 891 891 897 906 906 917 941 999 1136 1294 1294 1294 1257 1238 1235 1234 1233 1233 1231 1229 1218 1193 1154 1105 1067 995 943 925 924 923 922 920 919 916 913 911 909 908 907 907 906 906 906 906 906 906 906 907 911 915 915 915 915 925 929 936 972 972 972 939 933 905 875 857 836 821 814 800 799 788 780 780 780 780 780 779 774 769 766 764 763 762 761 761 760 760 759 759 759 759 760 760 760 760 761 764 767 772 777 777 780 783 789 797 806 814 820 825 830 834 839 845 848 851 854 857 864 870 876 879 882 885 885 885 885 882 880 880 880 880 879 878 877 877 876 874 873 873 873 873 872 872 872 870 869 868 867 867 866 865 864 864 864 866 867 869 870 871 872 874 877 879 882 884 886 888 891 894 896 896 897 900 908 911 915 924 944 975 1012 1080 1198 1399 1461 1461 1461 1378 1350 1350 1349 1350 1350 1352 1353 1353 1353 1353 1353 1353 1355 1357 1358 1359 1359 1359 1360 1360 1360 1361 1361 1362 1363 1363 1363 1363 1363 1363 1364 1366 1367 1367 1368 1368 1368 1370 1370 1371 1372 1375 1376 1378 1379 1380 1380 1380 1381 1382 1382 1384 1386 1386 1387 1388 1389 1391 1391 1393 1396 1398 1400 1401 1403 1405 1408 1411 1413 1414 1415 1417 1417 1418 1419 1419 1419 1419 1420 1423 1424 1427 1428 1428 1429 1431 1431 1433 1433 1434 1435 1435 1439 1442 1443 1444 1444 1446 1448 1448 1450 1450 1451 1452 1455 1457 1459 1459 1459 1460 1460 1460 1460 1461 1462 1464 1466 1467 1467 1468 1469 1472 1472 1472 1472 1471 1469 1469 1468 1468 1468 1468 1468 1468 1468 1470 1470 1471 1472 1473 1473 1473 1471 1470 1470 1470 1471 1471 1471 1472 1472 1473 1474 1474 1474 1474 1475 1476 1478 1479 1482 1485 1488 1489 1489 1490 1490 1492 1493 1493 1493 1493 1493 1493 1493 1494 1495 1495 1496 1497 1500 1501 1501 1501 1499 1499 1499 1501 1501 1501 1501 1501 1500 1500 1500 1501 1503 1506 1509 1509 1509 1509 1507 1505 1504 1504 1503 1501 1501 1501 1502 1503 1503 1503 1503 1503 1504 1506 1508 1510 1512 1513 1513 1513 1513 1513 1515 1517 1520 1520 1520 1518 1518 1518 1521 1523 1524 1525 1528 1531 1531 1532 1534 1536 1536 1536 1536 1536 1536 1536 1537 1543 1546 1550 1552 1553 1554 1554 1554 1552 1549 1548 1548 1548 1549 1549 1549 1549 1547 1545 1545 1544 1543 1540 1538 1538 1538 1538 1540 1544 1546 1547 1549 1549 1549 1549 1546 1540 1538 1534 1533 1533 1533 1544 1550 1555 1556 1557 1559 1559 1559 1561 1561 1561 1560 1556 1552 1548 1546 1544 1544 1544
864 872 875 876 877 888 901 911 914 916 916 916 916 916 917 920 922 924 927 931 931 931 932 932 932 934 937 940 941 943 945 945 947 949 950 951 952 953 954 955 956 957 957 957 956 956 956 955 954 954 954 955 955 955 956 956 956 957 958 958 958 958 958 958 959 959 959 958 958 958 959 960 961 962 963 963 964 966 971 973 973 975 976 985 985 985 975 961 950 932 917 910 908 906 904 904 905 905 905 905 906 907 907 909 910 913 913 915 919 936 944 950 957 966 975 977 993 993 993 983 951 930 901 900 900 900 902 903 906 907 912 916 926 948 982 1068 1249 1253 1253 1253 1243 1236 1234 1232 1231 1231 1231 1227 1213 1200 1178 1121 1068 998 946 924 923 923 921 921 921 916 913 911 908 907 906 905 905 905 904 904 904 904 904 907 907 907 904 904 904 908 911 918 918 911 904 883 868 851 832 823 812 800 794 786 785 776 773 773 773 772 771 771 765 762 761 760 759 758 757 755 755 755 755 755 756 756 757 758 758 758 759 761 764 767 769 773 774 777 783 789 796 804 813 820 826 829 834 839 844 848 853 854 858 866 874 878 880 881 882 882 882 881 880 879 879 879 879 877 877 877 875 874 873 873 872 872 872 872 871 870 867 866 866 865 863 862 862 862 862 863 864 866 867 868 869 871 874 877 881 883 885 888 891 894 897 898 901 905 908 911 918 931 946 975 1021 1093 1226 1479 1479 1479 1441 1366 1348 1347 1346 1346 1346 1346 1346 1348 1348 1348 1348 1348 1351 1353 1354 1355 1356 1356 1356 1356 1356 1356 1357 1358 1359 1359 1359 1359 1359 1359 1360 1362 1364 1364 1364 1364 1365 1365 1365 1366 1366 1367 1369 1371 1373 1374 1375 1376 1376 1378 1380 1381 1383 1384 1384 1385 1386 1387 1388 1391 1392 1395 1396 1398 1400 1402 1403 1407 1409 1411 1412 1413 1414 1415 1416 1416 1416 1416 1417 1420 1421 1421 1423 1424 1425 1426 1428 1429 1430 1430 1430 1432 1435 1438 1439 1440 1440 1441 1443 1445 1445 1446 1446 1449 1452 1453 1454 1454 1454 1455 1457 1458 1458 1458 1459 1461 1462 1463 1463 1463 1464 1466 1466 1466 1465 1464 1462 1462 1462 1462 1463 1463 1463 1463 1463 1463 1464 1464 1465 1466 1466 1466 1465 1465 1465 1465 1465 1466 1466 1467 1467 1468 1469 1469 1469 1469 1470 1471 1472 1474 1477 1480 1483 1483 1484 1484 1485 1487 1488 1488 1489 1489 1489 1489 1489 1489 1490 1491 1494 1496 1497 1498 1498 1498 1496 1496 1496 1497 1498 1498 1498 1497 1495 1495 1495 1496 1499 1501 1503 1505 1506 1506 1506 1502 1501 1501 1501 1500 1498 1498 1498 1497 1497 1497 1497 1497 1499 1501 1504 1507 1507 1508 1508 1507 1507 1508 1509 1511 1511 1513 1513 1513 1513 1513 1516 1516 1517 1518 1523 1526 1528 1528 1530 1532 1533 1534 1534 1534 1534 1535 1535 1538 1541 1542 1543 1544 1545 1546 1546 1546 1544 1543 1543 1543 1545 1545 1545 1545 1541 1540 1539 1539 1538 1535 1534 1534 1534 1534 1537 1540 1543 1543 1544 1544 1544 1543 1541 1539 1537 1533 1530 1530 1530 1539 1544 1548 1550 1553 1556 1556 1559 1560 1560 1560 1557 1553 1547 1546 1545 1545 1545 1545
873 879 879 880 888 897 908 918 921 921 921 913 912 912 912 917 920 923 927 929 930 930 930 931 931 933 935 938 939 943 945 945 947 949 952 952 953 954 954 956 957 957 957 957 956 956 956 955 955 955 955 956 956 956 956 956 956 957 957 958 958 958 958 958 959 959 959 957 957 957 959 960 961 961 962 963 964 966 970 971 971 972 976 976 976 976 968 961 937 915 905 902 902 902 902 902 902 902 903 904 905 907 907 909 910 913 916 921 929 937 949 954 964 980 996 1024 1026 1057 1057 1057 1034 1009 952 920 912 912 912 915 915 924 941 943 956 990 1056 1152 1249 1249 1249 1241 1235 1234 1232 1231 1231 1231 1231 1227 1213 1200 1178 1138 1071 1006 949 924 923 922 921 921 921 916 912 910 908 906 905 904 904 904 903 903 903 903 904 904 904 904 900 900 899 898 893 888 886 873 859 850 837 826 812 802 795 787 779 774 768 768 764 764 764 764 764 762 758 757 756 755 753 752 752 752 752 752 752 752 752 752 754 755 756 756 758 759 761 763 766 769 772 775 781 785 790 795 804 813 820 823 829 834 840 846 849 849 855 863 872 876 879 880 882 882 882 881 880 879 879 879 879 877 877 877 875 874 873 873 873 873 872 872 871 868 866 866 864 863 860 860 860 860 861 861 862 863 864 865 866 869 872 876 879 883 885 887 891 893 897 898 901 905 909 911 918 932 950 986 1038 1107 1262 1499 1499 1499 1409 1355 1344 1344 1343 1343 1343 1343 1343 1344 1345 1345 1345 1345 1347 1349 1350 1351 1351 1351 1352 1352 1352 1353 1354 1356 1356 1356 1356 1356 1356 1356 1356 1358 1360 1360 1360 1361 1360 1360 1360 1360 1360 1362 1363 1364 1367 1368 1370 1370 1372 1374 1376 1377 1380 1380 1381 1382 1383 1384 1385 1387 1389 1391 1393 1394 1396 1398 1400 1402 1405 1407 1409 1409 1410 1411 1412 1413 1413 1414 1416 1416 1417 1418 1418 1420 1421 1423 1425 1425 1425 1427 1427 1429 1432 1433 1434 1436 1437 1438 1439 1439 1440 1440 1442 1444 1447 1449 1449 1450 1451 1452 1453 1455 1457 1457 1459 1459 1459 1459 1459 1459 1459 1459 1459 1459 1458 1456 1455 1455 1455 1455 1455 1455 1455 1455 1455 1456 1456 1457 1458 1458 1459 1460 1460 1460 1460 1461 1462 1462 1462 1462 1462 1464 1464 1464 1465 1465 1465 1465 1468 1470 1472 1475 1477 1479 1479 1479 1481 1482 1484 1484 1484 1484 1484 1485 1485 1486 1488 1488 1490 1493 1495 1495 1495 1495 1493 1492 1492 1492 1493 1494 1494 1494 1492 1492 1492 1492 1494 1496 1497 1501 1504 1504 1504 1499 1499 1498 1498 1496 1495 1493 1493 1493 1492 1492 1492 1492 1495 1497 1501 1504 1504 1505 1505 1505 1505 1505 1506 1508 1508 1508 1508 1508 1508 1510 1511 1512 1512 1514 1520 1525 1526 1526 1527 1528 1530 1530 1530 1530 1530 1530 1533 1535 1536 1536 1536 1536 1536 1540 1540 1540 1538 1537 1537 1537 1538 1539 1539 1539 1537 1534 1534 1534 1534 1533 1530 1530 1530 1531 1534 1536 1539 1539 1539 1539 1539 1538 1538 1537 1535 1532 1530 1530 1530 1535 1540 1545 1549 1551 1551 1554 1556 1556 1556 1556 1552 1547 1545 1543 1543 1544 1545 1545
876 879 879 883 894 904 915 921 922 922 921 913 912 912 912 916 920 922 927 928 929 929 930 930 931 932 934 936 939 942 943 945 946 949 952 953 954 955 955 956 957 957 957 957 957 956 956 956 956 956 956 956 956 956 956 956 956 957 957 958 959 959 959 960 960 959 959 957 957 957 958 959 960 961 961 963 964 966 970 970 971 971 970 970 970 964 957 947 915 905 902 897 897 897 898 898 898 899 900 902 904 907 909 910 911 915 918 925 934 942 950 956 986 1002 1021 1050 1052 1102 1102 1102 1058 1045 987 960 931 931 931 931 933 945 964 965 986 1050 1134 1228 1249 1249 1249 1237 1231 1230 1228 1227 1226 1223 1218 1210 1208 1200 1178 1148 1114 1033 970 932 923 922 921 921 920 916 911 909 907 905 904 904 903 902 900 900 900 900 904 904 904 903 898 897 894 884 872 872 866 853 839 823 812 804 795 788 785 777 772 766 760 759 759 760 760 760 760 757 754 752 752 751 750 749 749 749 749 749 749 749 749 749 751 752 754 755 755 756 759 761 764 767 770 775 780 784 788 792 798 806 814 818 824 830 836 842 846 847 852 858 867 874 879 880 882 882 882 881 879 879 879 879 879 877 877 877 875 874 874 873 873 872 872 872 871 868 866 864 863 861 859 858 858 858 859 859 860 861 861 862 865 867 870 874 877 881 884 887 890 893 897 898 903 908 909 913 921 933 959 1010 1044 1111 1291 1483 1483 1483 1402 1353 1339 1339 1339 1339 1339 1339 1339 1340 1342 1342 1342 1343 1343 1343 1345 1346 1347 1347 1347 1348 1348 1349 1351 1353 1354 1354 1354 1352 1352 1352 1353 1353 1354 1355 1356 1356 1355 1355 1356 1356 1356 1358 1359 1360 1361 1363 1365 1368 1368 1371 1373 1375 1376 1377 1377 1378 1380 1381 1382 1384 1386 1388 1389 1391 1392 1393 1396 1398 1401 1403 1405 1405 1407 1408 1409 1410 1410 1410 1411 1412 1413 1414 1414 1414 1416 1418 1420 1422 1422 1423 1425 1426 1427 1428 1428 1430 1432 1433 1433 1433 1434 1435 1437 1440 1443 1444 1445 1446 1447 1448 1450 1452 1454 1456 1456 1456 1456 1454 1454 1454 1454 1454 1454 1451 1450 1449 1449 1448 1447 1446 1446 1446 1446 1447 1447 1449 1451 1452 1452 1453 1453 1454 1454 1455 1456 1457 1459 1459 1459 1459 1459 1459 1459 1459 1460 1460 1461 1462 1463 1466 1468 1470 1471 1473 1473 1474 1477 1478 1479 1479 1480 1480 1481 1481 1481 1483 1484 1486 1488 1490 1491 1492 1492 1492 1489 1487 1487 1487 1487 1489 1489 1489 1488 1488 1488 1489 1491 1491 1494 1497 1499 1499 1499 1495 1495 1495 1494 1494 1492 1490 1488 1488 1488 1488 1488 1491 1493 1497 1501 1503 1503 1503 1504 1504 1504 1504 1504 1504 1504 1504 1504 1504 1504 1506 1507 1507 1508 1511 1518 1523 1523 1523 1523 1523 1524 1524 1524 1524 1525 1525 1527 1529 1531 1531 1531 1531 1531 1534 1534 1534 1534 1534 1534 1534 1534 1535 1535 1535 1533 1531 1531 1531 1530 1528 1527 1527 1527 1528 1530 1532 1534 1534 1535 1535 1535 1535 1534 1533 1532 1531 1529 1529 1529 1530 1537 1543 1546 1549 1549 1549 1549 1549 1549 1549 1548 1543 1541 1541 1541 1543 1544 1544
876 879 879 883 898 912 921 924 924 921 919 913 912 912 912 916 918 921 925 926 928 928 929 930 930 932 933 936 939 941 942 942 943 948 952 953 954 956 956 957 957 957 957 957 957 957 956 956 956 956 956 956 955 954 954 954 956 957 957 958 958 958 958 960 960 959 959 957 957 957 957 958 959 960 961 963 964 966 970 970 970 969 968 968 958 951 939 909 895 894 893 893 893 893 893 894 894 895 897 899 904 906 909 912 917 921 926 932 942 953 957 969 988 1004 1034 1085 1128 1128 1128 1123 1107 1084 1060 1051 1005 962 956 956 956 968 981 1009 1061 1146 1215 1228 1232 1232 1232 1227 1227 1225 1225 1223 1220 1216 1210 1206 1204 1195 1173 1150 1114 1053 983 944 925 923 922 919 916 913 910 908 906 904 903 903 901 899 897 897 897 897 898 900 900 900 897 889 870 862 861 858 847 835 819 804 795 788 783 779 776 773 770 764 758 758 758 758 758 758 756 753 750 750 748 748 747 747 747 747 747 747 747 747 747 747 748 749 751 752 753 755 756 758 762 766 769 774 780 784 787 789 795 801 807 813 818 825 831 836 842 845 851 857 863 873 879 880 882 882 882 881 879 879 879 878 878 877 877 877 875 874 874 873 873 872 871 871 870 868 866 864 862 859 858 857 857 857 858 858 859 859 860 861 862 865 868 871 876 880 882 884 888 891 896 898 903 908 909 916 921 934 964 1012 1053 1136 1366 1470 1470 1470 1393 1345 1332 1332 1332 1332 1333 1333 1334 1336 1337 1338 1338 1338 1338 1339 1340 1341 1343 1344 1344 1345 1345 1346 1348 1349 1350 1350 1350 1349 1349 1348 1348 1348 1348 1350 1351 1351 1351 1352 1352 1353 1353 1354 1355 1357 1358 1359 1361 1364 1365 1367 1369 1372 1373 1375 1375 1376 1378 1379 1380 1382 1384 1384 1386 1386 1388 1390 1391 1393 1395 1398 1400 1402 1403 1405 1405 1406 1406 1407 1408 1408 1408 1409 1410 1410 1413 1414 1415 1416 1417 1418 1420 1422 1423 1423 1423 1423 1425 1426 1426 1428 1428 1430 1432 1435 1437 1439 1440 1443 1444 1446 1447 1450 1453 1453 1453 1452 1451 1450 1450 1450 1450 1450 1447 1445 1444 1443 1442 1442 1441 1441 1441 1441 1441 1441 1441 1442 1444 1446 1447 1448 1449 1449 1451 1452 1453 1454 1456 1456 1456 1455 1454 1454 1454 1455 1457 1457 1457 1457 1459 1461 1463 1465 1466 1467 1468 1470 1473 1473 1474 1474 1475 1476 1476 1477 1478 1478 1481 1483 1484 1485 1485 1486 1486 1485 1484 1482 1482 1482 1483 1485 1485 1485 1483 1483 1483 1484 1485 1487 1489 1492 1492 1492 1492 1492 1491 1491 1491 1490 1487 1485 1484 1484 1485 1485 1486 1489 1492 1495 1497 1498 1500 1500 1501 1501 1501 1501 1501 1500 1500 1500 1499 1499 1499 1501 1502 1502 1504 1508 1512 1519 1520 1520 1520 1519 1519 1519 1519 1518 1518 1518 1520 1523 1527 1527 1527 1527 1527 1528 1531 1532 1532 1532 1533 1533 1533 1533 1532 1530 1529 1528 1527 1527 1527 1526 1525 1525 1525 1526 1528 1531 1533 1533 1533 1533 1533 1533 1532 1530 1529 1528 1527 1525 1525 1525 1532 1540 1546 1546 1546 1545 1545 1545 1545 1545 1545 1543 1540 1540 1540 1542 1543 1544
876 877 878 883 903 919 920 921 921 920 915 914 914 914 915 916 917 921 924 925 927 927 928 930 930 931 932 936 939 941 942 942 942 946 951 953 954 956 957 957 957 957 957 957 958 958 958 958 958 957 956 956 955 954 954 954 956 957 957 958 958 958 958 960 961 961 961 957 956 955 955 955 957 960 960 962 964 964 966 968 968 968 965 956 946 938 920 894 893 893 891 891 891 889 889 889 889 892 894 899 902 905 909 913 921 928 935 942 949 958 969 988 1008 1021 1037 1120 1155 1156 1156 1155 1131 1125 1105 1082 1069 1046 1046 1046 1047 1077 1078 1081 1159 1195 1215 1228 1228 1228 1223 1223 1223 1223 1223 1219 1216 1212 1208 1203 1194 1192 1173 1151 1120 1059 992 950 929 923 920 917 914 910 908 906 904 903 902 902 897 896 893 892 892 892 893 893 893 893 890 872 858 854 848 833 826 817 804 794 780 776 772 772 771 771 766 760 757 757 756 755 754 753 751 749 748 747 746 746 745 745 745 745 744 744 744 744 744 744 745 747 748 750 751 753 754 757 760 763 766 771 775 780 783 786 791 796 802 808 813 820 826 833 838 842 849 856 862 871 878 880 882 882 882 881 879 878 878 878 876 876 875 875 875 874 874 873 872 870 870 869 868 867 865 864 861 859 857 856 856 856 856 856 857 857 858 859 861 862 866 869 874 879 881 884 886 888 893 895 903 909 916 917 921 936 972 1020 1070 1159 1372 1448 1448 1448 1376 1337 1327 1327 1327 1328 1328 1329 1329 1329 1331 1333 1333 1334 1334 1335 1335 1337 1339 1340 1341 1341 1342 1342 1344 1345 1345 1345 1345 1345 1344 1344 1344 1344 1345 1346 1348 1348 1348 1348 1349 1349 1350 1350 1352 1352 1354 1356 1359 1360 1361 1363 1366 1367 1368 1371 1372 1374 1375 1376 1378 1380 1381 1381 1381 1382 1383 1385 1388 1389 1390 1393 1395 1398 1399 1401 1401 1402 1403 1403 1404 1404 1404 1405 1406 1406 1409 1409 1411 1411 1411 1412 1414 1417 1417 1418 1418 1418 1419 1422 1422 1423 1425 1426 1430 1434 1435 1435 1436 1439 1442 1443 1443 1445 1448 1448 1448 1447 1447 1446 1446 1445 1445 1444 1443 1440 1438 1438 1438 1438 1438 1438 1438 1438 1438 1438 1438 1438 1439 1442 1443 1445 1446 1447 1448 1449 1450 1450 1452 1452 1452 1452 1451 1451 1451 1451 1451 1452 1452 1453 1454 1456 1458 1460 1462 1462 1464 1465 1466 1467 1468 1469 1470 1470 1471 1472 1473 1474 1477 1479 1479 1479 1479 1479 1479 1479 1479 1479 1479 1479 1479 1480 1480 1480 1480 1480 1480 1480 1481 1482 1484 1486 1486 1487 1487 1488 1488 1488 1487 1487 1486 1482 1482 1482 1483 1484 1484 1486 1488 1490 1491 1493 1494 1497 1499 1499 1499 1499 1499 1495 1495 1495 1496 1496 1497 1497 1497 1497 1499 1502 1505 1515 1518 1518 1518 1516 1516 1516 1516 1515 1512 1512 1512 1517 1522 1522 1522 1523 1524 1528 1529 1530 1530 1530 1530 1530 1528 1526 1526 1526 1526 1526 1526 1526 1526 1525 1525 1525 1525 1526 1528 1529 1530 1530 1530 1532 1532 1532 1531 1528 1525 1524 1522 1522 1522 1522 1529 1536 1541 1542 1545 1545 1545 1545 1545 1545 1545 1543 1540 1540 1540 1540 1540 1537
876 877 877 883 907 919 919 919 913 912 911 911 912 914 915 916 917 919 921 924 925 926 927 928 930 930 932 935 938 940 940 941 942 945 949 951 954 956 957 957 957 958 958 958 958 958 958 958 958 958 956 955 955 954 954 954 955 957 957 957 957 955 955 955 960 960 960 958 955 954 954 954 955 958 959 960 961 962 962 963 963 963 958 948 938 923 901 894 888 886 886 885 885 884 884 884 885 888 891 895 900 904 907 913 921 928 935 942 958 971 993 1008 1019 1043 1079 1123 1171 1172 1172 1171 1155 1145 1141 1126 1124 1120 1119 1114 1113 1113 1113 1182 1189 1198 1215 1216 1216 1216 1216 1216 1216 1216 1215 1215 1211 1209 1205 1201 1193 1177 1173 1151 1123 1065 1005 956 932 923 920 916 911 908 906 905 903 901 900 897 896 892 890 888 888 888 889 889 889 884 870 859 852 839 820 814 809 802 792 777 768 766 766 766 766 765 761 756 755 752 748 748 748 747 747 746 746 745 744 743 743 742 742 742 742 742 742 742 743 743 744 745 746 747 749 751 752 754 759 760 764 767 771 774 778 783 786 792 796 801 808 816 821 828 833 838 845 851 856 866 876 880 882 882 882 881 879 877 877 875 874 874 874 873 872 871 871 871 870 869 868 867 865 864 864 863 861 858 857 856 855 855 855 855 855 856 856 857 859 861 863 867 871 876 879 881 884 887 891 895 903 909 916 917 921 937 974 1021 1070 1159 1373 1418 1418 1418 1352 1319 1319 1319 1324 1324 1324 1324 1324 1324 1326 1327 1329 1331 1331 1332 1332 1333 1335 1338 1338 1338 1338 1338 1341 1341 1341 1341 1341 1341 1341 1341 1341 1341 1341 1342 1343 1343 1344 1344 1345 1346 1348 1348 1349 1350 1352 1353 1356 1357 1359 1360 1361 1362 1364 1367 1368 1370 1372 1373 1375 1376 1377 1377 1377 1377 1379 1381 1384 1385 1386 1388 1390 1393 1395 1396 1397 1397 1399 1400 1401 1401 1401 1402 1402 1403 1404 1406 1406 1406 1405 1405 1405 1410 1411 1412 1413 1413 1413 1416 1418 1420 1421 1422 1425 1430 1431 1432 1434 1436 1437 1438 1438 1438 1440 1441 1442 1442 1442 1442 1441 1440 1440 1439 1437 1435 1434 1434 1434 1434 1434 1434 1434 1436 1436 1436 1437 1437 1438 1440 1442 1443 1444 1446 1446 1446 1446 1446 1447 1448 1448 1448 1446 1445 1445 1446 1447 1447 1448 1448 1450 1452 1455 1456 1457 1458 1459 1460 1460 1461 1463 1465 1466 1466 1466 1467 1468 1470 1472 1474 1474 1474 1473 1473 1473 1475 1475 1475 1475 1475 1476 1476 1476 1476 1476 1477 1478 1478 1478 1479 1480 1481 1482 1484 1484 1484 1484 1484 1484 1484 1483 1481 1481 1481 1481 1481 1481 1481 1484 1484 1484 1486 1489 1491 1494 1494 1494 1494 1494 1492 1492 1492 1494 1494 1494 1494 1494 1494 1495 1499 1502 1508 1514 1514 1514 1514 1513 1513 1513 1511 1509 1509 1509 1513 1516 1516 1517 1518 1524 1527 1527 1527 1527 1525 1525 1524 1523 1522 1522 1522 1524 1524 1525 1525 1525 1525 1523 1522 1522 1522 1524 1525 1525 1525 1527 1530 1530 1530 1530 1526 1521 1519 1517 1517 1517 1519 1525 1530 1535 1535 1537 1544 1545 1545 1545 1545 1545 1544 1542 1541 1540 1540 1534 1530
877 877 877 883 907 914 914 914 909 909 909 909 911 914 915 916 917 917 920 922 923 924 925 927 928 929 932 935 938 940 940 940 942 945 948 951 954 956 957 957 957 958 958 959 959 959 959 959 958 958 956 955 955 955 955 955 955 955 955 955 955 954 954 954 957 958 958 958 955 953 953 953 953 957 958 958 958 958 959 959 959 955 955 948 924 905 898 892 882 880 880 880 880 880 881 881 882 885 888 891 896 899 904 912 921 928 935 942 958 981 999 1014 1034 1063 1112 1168 1173 1173 1173 1172 1165 1163 1163 1159 1151 1143 1139 1139 1139 1144 1158 1182 1192 1198 1207 1208 1208 1208 1208 1208 1208 1209 1209 1209 1206 1205 1203 1200 1192 1176 1157 1151 1123 1076 1014 961 934 923 919 913 911 908 906 905 901 899 897 896 894 891 889 887 887 885 880 873 867 860 854 849 837 812 805 802 797 789 778 769 763 763 762 762 762 759 755 753 752 748 746 745 745 745 745 745 744 743 742 742 741 741 740 740 740 740 740 740 740 742 742 743 744 746 747 748 751 753 757 760 761 764 767 771 775 778 783 788 791 796 803 810 817 824 829 833 839 844 850 859 869 874 877 880 880 880 878 875 874 873 872 872 871 870 870 870 869 869 868 866 864 863 862 862 861 861 860 858 857 856 855 854 854 854 854 854 855 856 857 859 861 865 869 873 876 878 882 884 887 895 903 909 916 918 924 946 979 1031 1092 1218 1439 1439 1439 1415 1349 1317 1317 1317 1322 1322 1322 1321 1321 1321 1324 1324 1326 1328 1328 1328 1329 1330 1331 1334 1335 1335 1335 1335 1336 1337 1337 1337 1337 1337 1338 1338 1338 1338 1338 1339 1339 1339 1340 1340 1341 1344 1344 1345 1345 1346 1348 1349 1353 1354 1355 1356 1356 1357 1357 1359 1362 1365 1367 1369 1370 1371 1372 1372 1372 1373 1375 1378 1380 1381 1382 1383 1386 1389 1391 1391 1393 1394 1395 1397 1397 1397 1398 1398 1400 1401 1402 1402 1402 1400 1400 1400 1400 1402 1406 1407 1408 1409 1410 1413 1415 1416 1418 1418 1420 1421 1425 1427 1430 1430 1430 1431 1431 1431 1432 1434 1435 1436 1436 1436 1434 1433 1433 1432 1431 1431 1431 1430 1430 1430 1430 1430 1431 1433 1434 1434 1434 1434 1434 1436 1439 1440 1443 1443 1443 1442 1442 1442 1442 1444 1444 1444 1442 1442 1442 1442 1443 1444 1444 1445 1447 1450 1451 1452 1454 1455 1455 1457 1457 1458 1460 1461 1462 1462 1462 1463 1463 1465 1468 1470 1470 1470 1470 1470 1470 1472 1472 1472 1472 1472 1472 1472 1472 1473 1473 1474 1474 1475 1475 1476 1476 1477 1478 1479 1479 1480 1480 1480 1480 1480 1480 1479 1478 1478 1478 1478 1478 1479 1480 1480 1481 1481 1483 1484 1487 1490 1490 1490 1490 1490 1490 1491 1492 1493 1493 1493 1493 1493 1493 1495 1497 1503 1510 1510 1510 1509 1509 1509 1509 1509 1507 1506 1506 1506 1509 1510 1512 1516 1523 1525 1525 1525 1520 1518 1518 1516 1516 1517 1517 1517 1521 1523 1523 1523 1521 1520 1518 1517 1517 1517 1519 1519 1519 1520 1521 1526 1527 1527 1527 1524 1520 1516 1515 1515 1515 1519 1524 1527 1528 1532 1537 1542 1544 1544 1545 1545 1545 1544 1543 1542 1542 1538 1530 1525
