944 944 945 948 948 948 947 947 947 949 949 949 949 949 951 951 953 954 954 955 956 957 958 959 960 960 961 962 962 963 964 964 965 965 965 966 966 966 967 968 968 969 970 970 971 972 972 974 975 976 977 978 979 981 983 984 985 986 987 988 990 992 994 996 997 998 1000 1001 1002 1004 1005 1007 1009 1011 1014 1015 1017 1018 1021 1022 1024 1025 1026 1028 1030 1032 1034 1035 1037 1039 1040 1042 1045 1047 1048 1051 1053 1054 1056 1058 1062 1067 1070 1072 1077 1081 1084 1091 1096 1103 1110 1120 1134 1142 1147 1159 1174 1194 1214 1238 1272 1319 1380 1511 1816 2258 2361 2405 2627 3008 3008 3201 3311 3373 3392 3392 3392 3385 3385 3385 3399 3399 3399 3406 3406 3406 3414 3414 3417 3417 3421 3421 3421 3421 3419 3419 3418 3418 3418 3418 3418 3420 3421 3421 3422 3423 3423 3423 3422 3422 3422 3422 3423 3423 3423 3418 3412 3409 3407 3405 3405 3403 3403 3403 3403 3405 3406 3406 3406 3405 3404 3403 3401 3401 3397 3396 3390 3386 3384 3384 3384 3383 3383 3383 3383 3383 3383 3381 3380 3378 3378 3376 3374 3372 3369 3366 3365 3364 3363 3363 3359 3351 3345 3340 3335 3325 3304 3259 3239 3218 3208 3202 3197 3190 3186 3146 3089 3025 2865 2669 2468 2117 1657 1251 997 892 867 857 850 848 843 842 0 0 0 0 0 0 0 0 0 0 0 0 0 0 0 842 849 851 851 851 849 849 849 851 854 856 858 859 861 865 865 865 867 874 875 877 877 877 880 880 881 884 884 884 885 887 891 892 892 892 889 889 889 891 891 891 890 890 889 889 887 887 887 889 890 890 890 890 891 892 892 893 894 895 897 898 899 900 900 902 902 903 904 905 906 907 907 908 909 910 912 913 914 915 916 918 919 920 920 920 920 921 924 942 942 942 930 930 930 931 936 937 937 938 938 938 941 944 952 957 959 959 961 961 961 961 960 960 960 964 965 966 967 969 971 971 973 974 975 975 977 978 978 979 980 982 983 984 985 986 988 988 989 990 990 991 991 993 995 995 996 996 996 996 996 1001 1005 1014 1024 1026 1026 1024 1024 1023 1022 1022 1020 1020 1020 1024 1029 1033 1033 1033 1033 1033 1034 1034 1041 1049 1049 1051 1058 1059 1060 1060 1060 1061 1061 1061 1063 1064 1064 1066 1068 1070 1071 1073 1074 1075 1076 1080 1081 1082 1083 1084 1085 1087 1088 1092 1092 1093 1096 1096 1103 1103 1104 1108 1108 1108 1108 1107 1107 1107 1113 1116 1117 1121 1125 1125 1127 1130 1133 1135 1136 1138 1140 1142 1144 1144 1146 1146 1148 1151 1152 1153 1154 1154 1162 1177 1193 1233 1327 1596 1941 2080 2225 2225 2225 2225 2224 2221 2219 2217 2213 2211 2209 2207 2205 2203 2201 2197 2194 2192 2189 2188 2186 2182 2179 2177 2175 2172 2169 2167 2163 2162 2158 2156 2154 2153 2151 2149 2146 2144 2143 2142 2141 2140 2140 2139 2138 2137 2135 2134 2133 2132 2132 2131 2130 2129 2128 2128 2128 2127 2127 2127 2126 2125 2125 2125 2126 2126 2126 2126 2125 2125 2125 2125 2126 2127 2129 2131 2131 2131 2131 2131 2134 2138 2142 2144 2144 2144 2145 2145 2156 2164 2169 2176 2219 2244 2262 2281 2297 2306 2327 2340 2359 2368 2368 2368 2362 2354 2343 2330 2320 2304 2294 2294 2294 2297 2297 2297 2297 2281 2281 2274 2274 0
944 944 947 948 948 948 947 947 947 949 949 950 950 950 951 951 953 954 955 956 956 957 958 959 960 961 961 961 962 963 964 964 965 965 965 966 966 966 967 968 969 969 970 971 972 972 973 975 976 976 978 979 980 982 984 985 985 987 989 990 991 993 995 996 998 1000 1000 1002 1003 1004 1006 1008 1010 1012 1015 1016 1018 1020 1022 1024 1025 1027 1028 1030 1032 1033 1035 1036 1038 1041 1043 1045 1047 1049 1052 1054 1058 1060 1063 1066 1069 1072 1072 1074 1077 1082 1088 1094 1101 1108 1117 1125 1139 1149 1156 1175 1204 1230 1256 1288 1352 1455 1637 1913 2297 2398 2586 2896 3153 3269 3272 3340 3380 3399 3399 3399 3393 3393 3393 3394 3405 3410 3410 3410 3410 3410 3414 3416 3417 3418 3422 3422 3422 3420 3419 3419 3419 3421 3424 3424 3424 3424 3424 3425 3426 3426 3427 3427 3427 3425 3425 3425 3427 3427 3427 3424 3415 3409 3407 3406 3406 3406 3407 3408 3408 3409 3409 3409 3408 3407 3405 3403 3401 3400 3397 3396 3390 3385 3384 3384 3384 3383 3383 3383 3383 3383 3382 3380 3380 3378 3378 3376 3374 3372 3369 3367 3365 3364 3363 3363 3359 3351 3345 3340 3335 3325 3304 3259 3239 3218 3212 3212 3211 3208 3197 3171 3122 3031 2900 2801 2582 2226 1852 1426 1082 909 871 867 861 851 848 843 0 0 0 0 0 0 0 0 0 0 0 0 0 1 0 0 0 848 849 849 849 849 849 850 850 850 850 852 857 861 865 865 867 873 874 875 875 876 876 877 878 881 881 883 884 886 889 889 889 887 886 886 886 889 889 889 888 888 888 888 886 886 886 888 888 888 888 889 890 890 891 892 893 894 895 895 897 898 898 900 901 902 903 904 905 905 906 907 907 909 911 912 912 914 914 915 917 918 919 919 919 918 918 918 930 930 930 928 928 928 935 935 935 935 935 935 935 943 952 957 960 963 963 963 963 961 961 961 961 962 963 964 964 965 966 968 971 972 973 974 974 976 976 977 978 980 981 982 983 984 985 986 987 988 989 989 991 992 993 993 994 994 995 995 996 1001 1005 1014 1022 1022 1022 1022 1022 1022 1022 1022 1020 1020 1020 1024 1029 1032 1032 1032 1032 1032 1034 1040 1045 1047 1049 1049 1052 1053 1053 1054 1056 1056 1057 1060 1062 1062 1063 1063 1066 1067 1068 1070 1072 1073 1074 1075 1078 1082 1082 1083 1085 1087 1087 1092 1094 1094 1096 1098 1101 1101 1103 1105 1105 1107 1107 1107 1107 1107 1112 1114 1117 1119 1123 1125 1127 1128 1130 1132 1134 1136 1137 1139 1141 1142 1143 1144 1146 1149 1151 1152 1152 1153 1156 1172 1181 1203 1251 1348 1627 2001 2088 2225 2226 2226 2226 2221 2219 2217 2213 2211 2209 2207 2205 2203 2200 2197 2194 2192 2190 2189 2186 2183 2181 2178 2176 2173 2170 2168 2165 2162 2159 2157 2154 2153 2152 2150 2147 2145 2143 2143 2141 2141 2141 2141 2140 2139 2138 2137 2136 2135 2134 2132 2132 2130 2129 2129 2128 2128 2128 2128 2126 2126 2126 2127 2127 2127 2126 2126 2126 2126 2127 2127 2127 2127 2129 2131 2133 2133 2133 2134 2136 2139 2141 2144 2144 2144 2145 2145 2158 2164 2165 2168 2219 2250 2276 2302 2306 2308 2315 2315 2332 2367 2367 2367 2362 2352 2334 2313 2299 2284 2280 2280 2280 2291 2293 2293 2293 2293 2284 2279 2279 0
945 945 948 948 948 944 944 944 947 949 950 950 950 950 951 952 953 954 955 956 957 958 958 959 960 961 961 961 962 963 964 964 965 965 965 966 966 967 967 968 969 970 970 971 972 973 974 976 976 978 979 980 981 983 984 986 987 988 990 991 993 995 996 997 999 1000 1002 1003 1004 1006 1008 1010 1011 1014 1016 1018 1020 1021 1024 1025 1027 1029 1031 1032 1034 1036 1037 1039 1042 1044 1047 1049 1051 1053 1057 1060 1062 1066 1069 1071 1074 1074 1077 1079 1085 1093 1097 1101 1108 1119 1129 1141 1157 1163 1176 1207 1243 1278 1319 1370 1520 1876 2293 2368 2429 2720 3150 3267 3308 3345 3348 3399 3399 3401 3401 3399 3395 3395 3395 3403 3412 3413 3413 3413 3413 3413 3415 3418 3419 3420 3422 3422 3422 3419 3419 3419 3421 3423 3427 3427 3427 3429 3429 3429 3429 3429 3429 3430 3430 3430 3428 3428 3428 3428 3428 3424 3416 3411 3409 3409 3409 3409 3409 3410 3410 3410 3410 3409 3409 3407 3405 3403 3400 3399 3397 3396 3390 3385 3384 3384 3384 3384 3384 3383 3383 3383 3382 3380 3379 3377 3376 3375 3374 3372 3370 3367 3365 3364 3363 3363 3358 3350 3343 3338 3334 3325 3304 3257 3227 3222 3217 3217 3215 3215 3208 3183 3154 3072 2944 2835 2638 2320 1985 1594 1206 963 881 867 863 853 843 839 0 0 0 0 0 0 0 0 0 0 0 0 0 0 0 0 0 839 839 841 841 845 847 849 849 850 850 850 856 865 865 867 867 869 872 873 874 875 876 876 878 878 880 881 883 885 886 886 886 880 880 880 886 886 886 888 888 888 888 888 886 884 884 884 885 886 887 888 888 889 889 890 891 892 894 894 895 896 897 898 900 900 902 903 903 904 905 905 906 908 909 910 911 912 913 914 915 917 918 918 918 917 917 917 920 924 924 926 926 927 930 930 930 933 933 934 935 943 952 957 960 964 964 964 963 962 961 961 962 962 963 964 964 965 966 966 970 970 970 971 972 973 974 976 976 978 979 980 980 981 983 984 986 987 987 988 989 990 991 992 993 993 994 994 996 996 1002 1007 1009 1010 1013 1014 1022 1022 1022 1022 1021 1021 1021 1024 1029 1029 1031 1031 1031 1032 1033 1040 1045 1045 1045 1046 1046 1046 1046 1047 1050 1054 1056 1060 1062 1062 1063 1063 1066 1066 1067 1070 1071 1071 1071 1073 1077 1079 1080 1080 1081 1085 1087 1090 1096 1096 1097 1098 1098 1099 1099 1099 1103 1105 1105 1105 1105 1107 1111 1113 1115 1116 1120 1121 1123 1126 1127 1128 1130 1132 1134 1136 1139 1140 1141 1141 1143 1147 1149 1150 1151 1152 1156 1170 1179 1200 1250 1345 1621 1998 2086 2224 2227 2227 2227 2221 2219 2217 2213 2210 2208 2206 2204 2201 2199 2196 2194 2192 2191 2189 2187 2185 2181 2179 2176 2174 2171 2168 2166 2163 2160 2157 2155 2153 2152 2150 2148 2147 2145 2144 2143 2142 2142 2141 2140 2139 2139 2137 2137 2137 2135 2134 2132 2131 2131 2131 2130 2130 2130 2128 2127 2127 2127 2127 2127 2127 2127 2127 2127 2127 2127 2128 2128 2129 2129 2132 2135 2135 2136 2137 2138 2139 2141 2144 2144 2146 2148 2149 2157 2162 2165 2168 2219 2254 2276 2308 2308 2308 2321 2321 2330 2359 2360 2360 2359 2339 2315 2300 2273 2267 2264 2264 2264 2283 2288 2293 2293 2293 2284 2279 2279 0
945 945 947 947 947 945 945 945 947 949 949 950 950 950 951 952 953 954 955 956 957 958 959 959 960 961 961 961 962 963 964 964 965 965 966 966 967 967 968 969 970 971 971 972 972 974 975 977 978 979 980 982 983 984 986 987 989 989 992 992 994 996 997 999 1000 1001 1003 1005 1007 1008 1009 1011 1014 1015 1018 1020 1022 1023 1026 1027 1029 1031 1033 1034 1036 1038 1039 1042 1044 1047 1050 1053 1055 1057 1060 1063 1066 1069 1073 1079 1081 1084 1088 1093 1101 1106 1112 1116 1126 1138 1150 1160 1175 1200 1230 1264 1310 1378 1480 1638 1939 2406 2428 2674 3055 3189 3290 3333 3349 3381 3385 3405 3405 3405 3402 3401 3398 3398 3398 3408 3417 3420 3420 3420 3420 3420 3422 3422 3423 3423 3422 3421 3421 3420 3420 3420 3421 3423 3428 3428 3428 3430 3430 3429 3429 3430 3430 3430 3430 3430 3428 3428 3428 3428 3428 3424 3418 3412 3412 3411 3412 3412 3412 3412 3412 3412 3411 3409 3409 3408 3406 3402 3400 3399 3398 3396 3391 3386 3385 3385 3384 3384 3384 3384 3383 3383 3381 3379 3377 3375 3374 3373 3372 3372 3369 3367 3365 3363 3363 3363 3354 3350 3343 3338 3334 3325 3304 3257 3226 3224 3224 3223 3223 3223 3219 3191 3161 3112 2994 2883 2749 2459 2147 1757 1340 1039 909 870 864 853 843 837 0 0 0 0 0 0 0 0 0 0 0 0 0 0 0 0 0 0 0 0 0 841 843 843 845 846 846 850 856 862 867 869 871 871 871 873 874 875 875 875 875 875 875 877 880 881 881 881 880 880 880 880 886 886 886 886 886 887 887 887 886 883 883 883 885 886 886 886 886 887 888 888 889 891 892 893 894 894 895 896 897 898 899 901 901 902 903 904 905 906 907 909 910 910 912 913 914 915 915 916 916 916 917 917 918 918 918 919 923 925 926 930 930 933 933 934 935 942 951 955 960 964 964 964 963 962 961 961 961 961 964 964 964 964 964 964 966 967 967 969 969 970 971 973 974 975 977 978 979 980 981 983 983 985 986 986 987 989 990 991 991 992 992 993 994 994 995 1004 1006 1006 1007 1012 1018 1022 1022 1022 1022 1022 1022 1024 1026 1026 1027 1031 1031 1031 1033 1040 1045 1045 1045 1044 1044 1044 1045 1046 1049 1050 1056 1060 1060 1060 1063 1063 1064 1066 1067 1069 1070 1071 1071 1073 1076 1079 1080 1080 1080 1085 1086 1090 1096 1096 1096 1095 1095 1095 1095 1095 1097 1097 1099 1100 1103 1107 1110 1111 1112 1114 1116 1119 1120 1123 1125 1127 1128 1130 1133 1135 1137 1138 1139 1140 1142 1145 1148 1148 1150 1150 1153 1157 1166 1178 1204 1253 1355 1670 2050 2219 2225 2225 2225 2222 2219 2217 2212 2210 2207 2206 2203 2201 2199 2196 2194 2193 2191 2189 2188 2185 2183 2179 2176 2174 2171 2169 2166 2163 2162 2160 2157 2154 2152 2151 2149 2148 2146 2145 2143 2143 2143 2142 2142 2141 2140 2138 2137 2137 2136 2135 2134 2133 2131 2131 2131 2131 2131 2129 2128 2128 2128 2128 2128 2128 2127 2127 2127 2127 2127 2128 2129 2129 2130 2135 2136 2137 2137 2140 2141 2141 2141 2142 2144 2145 2148 2149 2156 2157 2165 2168 2224 2254 2276 2309 2309 2309 2324 2321 2321 2324 2332 2332 2332 2309 2283 2261 2228 2224 2222 2222 2224 2244 2249 2275 2279 2279 2279 2273 2253 0
948 948 948 948 947 945 945 945 947 949 949 949 950 950 951 952 954 954 955 957 958 958 959 960 960 961 961 961 962 963 964 964 965 966 967 967 967 967 968 969 971 971 972 972 973 975 976 977 979 980 982 983 985 986 987 988 989 991 992 994 995 997 999 1000 1001 1002 1005 1006 1008 1010 1011 1014 1015 1017 1020 1022 1025 1027 1028 1030 1032 1034 1035 1038 1039 1040 1042 1045 1047 1051 1053 1055 1057 1059 1061 1064 1067 1071 1078 1083 1089 1094 1098 1100 1107 1117 1126 1135 1147 1161 1179 1202 1223 1254 1300 1359 1472 1704 2094 2397 2450 2715 2991 3211 3327 3370 3377 3387 3387 3403 3403 3405 3405 3405 3402 3401 3401 3402 3403 3414 3419 3425 3425 3425 3427 3427 3427 3427 3427 3426 3423 3419 3417 3417 3417 3420 3424 3429 3431 3431 3431 3430 3430 3429 3429 3430 3430 3430 3430 3430 3428 3428 3428 3428 3428 3424 3418 3416 3414 3414 3414 3412 3412 3412 3412 3412 3411 3410 3410 3409 3406 3402 3400 3399 3398 3396 3393 3387 3387 3386 3385 3385 3385 3385 3385 3383 3381 3379 3377 3375 3373 3373 3372 3372 3369 3367 3365 3363 3363 3358 3352 3347 3343 3338 3334 3325 3310 3257 3223 3223 3223 3224 3224 3224 3219 3197 3167 3130 3053 2927 2795 2576 2262 1964 1546 1135 910 870 867 855 843 837 0 0 0 0 0 0 0 0 0 0 0 0 0 0 0 0 0 0 0 0 0 839 839 840 840 841 841 844 852 860 871 871 871 871 871 871 873 875 875 875 875 875 875 875 876 876 877 878 878 879 881 886 886 886 884 883 883 883 887 887 887 883 883 883 885 885 885 886 886 886 886 888 888 889 890 891 892 893 894 894 896 897 898 899 900 901 902 902 903 905 906 908 908 909 911 912 913 913 914 915 915 915 915 915 915 915 917 917 920 925 926 930 930 933 933 934 935 942 947 950 956 964 964 964 963 963 962 961 961 961 962 962 962 962 962 962 963 964 964 966 967 967 970 970 972 973 974 976 976 977 979 980 981 983 984 985 985 986 988 989 990 991 991 991 993 993 995 1001 1003 1004 1004 1005 1018 1019 1020 1020 1020 1020 1020 1020 1021 1021 1023 1028 1031 1031 1031 1032 1035 1035 1036 1038 1040 1041 1042 1045 1047 1050 1056 1058 1058 1061 1061 1061 1064 1065 1065 1067 1069 1069 1069 1069 1069 1069 1069 1078 1083 1085 1086 1086 1094 1094 1094 1094 1094 1094 1094 1094 1096 1097 1098 1099 1101 1105 1108 1110 1110 1113 1114 1117 1118 1120 1122 1124 1126 1127 1129 1132 1134 1136 1137 1138 1140 1142 1145 1147 1147 1147 1148 1153 1154 1163 1177 1194 1248 1406 1791 2056 2152 2222 2222 2222 2219 2217 2212 2209 2207 2205 2202 2201 2198 2196 2194 2193 2192 2190 2188 2185 2183 2179 2176 2174 2172 2169 2166 2164 2162 2160 2157 2155 2153 2152 2150 2148 2147 2145 2145 2145 2145 2143 2143 2142 2141 2139 2138 2137 2136 2136 2135 2133 2132 2131 2131 2131 2131 2130 2130 2130 2130 2129 2129 2128 2127 2127 2127 2127 2127 2128 2129 2131 2134 2135 2136 2137 2137 2140 2141 2141 2141 2141 2144 2144 2145 2149 2150 2164 2165 2186 2224 2256 2267 2314 2319 2319 2324 2320 2319 2314 2314 2281 2263 2253 2230 2205 2180 2180 2180 2202 2214 2229 2233 2255 2255 2255 2246 2217 2208 0
949 949 948 948 947 947 947 947 947 949 949 949 950 951 952 953 954 955 956 957 958 958 959 960 960 961 961 961 962 963 964 965 965 967 967 968 968 968 969 970 971 972 973 973 975 976 976 978 980 981 983 984 985 988 989 990 991 993 994 996 997 998 1000 1001 1003 1004 1006 1008 1010 1012 1013 1015 1017 1019 1022 1025 1027 1029 1030 1032 1034 1036 1037 1039 1041 1044 1047 1050 1054 1057 1058 1059 1060 1061 1062 1065 1070 1076 1083 1091 1098 1099 1099 1107 1126 1139 1147 1153 1166 1185 1210 1252 1301 1348 1442 1683 2102 2341 2410 2573 2990 3164 3316 3404 3404 3404 3391 3391 3391 3408 3411 3419 3419 3419 3414 3409 3409 3409 3415 3419 3423 3425 3427 3429 3430 3432 3432 3432 3431 3430 3424 3419 3419 3419 3421 3426 3433 3437 3437 3437 3434 3431 3431 3430 3429 3429 3428 3426 3426 3426 3427 3428 3428 3428 3428 3424 3418 3418 3417 3415 3415 3412 3412 3412 3412 3412 3412 3412 3411 3409 3407 3402 3400 3400 3400 3398 3396 3394 3390 3387 3386 3386 3386 3386 3386 3384 3381 3379 3377 3375 3373 3373 3372 3372 3370 3367 3365 3363 3363 3356 3349 3345 3345 3344 3343 3341 3317 3256 3219 3219 3219 3224 3224 3224 3221 3203 3179 3140 3079 2987 2876 2715 2428 2141 1731 1296 974 875 868 855 844 837 832 0 0 0 0 0 0 0 0 0 0 0 0 1 0 0 0 0 0 2 0 0 0 839 839 839 839 839 849 858 871 871 871 869 869 869 871 875 875 875 875 875 875 874 874 874 874 874 877 878 881 886 886 886 883 881 881 881 886 886 886 883 883 883 884 885 885 885 886 886 886 887 887 888 888 889 891 891 892 893 894 895 896 897 898 900 900 902 902 904 905 906 907 907 909 910 911 912 913 914 914 914 915 915 915 915 916 916 919 925 926 930 933 933 935 936 936 942 946 948 954 964 964 964 963 963 961 960 960 960 960 961 961 961 961 961 961 962 962 964 965 966 967 968 969 971 972 973 974 976 977 978 980 981 982 983 984 985 987 988 989 990 990 991 991 993 995 1000 1000 1001 1004 1005 1010 1013 1016 1016 1020 1020 1020 1019 1019 1019 1022 1025 1027 1027 1028 1031 1031 1031 1034 1037 1038 1039 1041 1044 1047 1048 1056 1058 1058 1061 1061 1060 1060 1060 1059 1059 1059 1062 1064 1064 1064 1064 1066 1077 1086 1086 1086 1088 1093 1094 1094 1094 1093 1093 1093 1093 1094 1095 1097 1098 1101 1104 1105 1107 1108 1109 1112 1113 1114 1117 1119 1121 1123 1124 1126 1128 1131 1133 1135 1137 1138 1140 1141 1142 1143 1143 1145 1148 1152 1155 1160 1169 1197 1274 1448 1860 2016 2141 2210 2214 2214 2214 2210 2209 2205 2204 2202 2201 2198 2196 2194 2193 2193 2191 2188 2185 2183 2179 2176 2174 2172 2169 2167 2165 2163 2161 2158 2156 2154 2153 2151 2149 2148 2147 2147 2147 2146 2144 2144 2143 2142 2140 2138 2137 2136 2136 2135 2133 2132 2131 2131 2131 2131 2130 2130 2130 2130 2129 2129 2128 2128 2128 2127 2127 2127 2127 2129 2131 2134 2135 2136 2137 2137 2140 2141 2141 2141 2141 2145 2145 2145 2149 2149 2166 2180 2194 2224 2254 2267 2314 2319 2319 2319 2291 2289 2286 2265 2243 2231 2226 2209 2191 2161 2161 2161 2176 2204 2223 2227 2227 2223 2202 2190 2183 2183 0
951 951 951 951 951 951 947 947 947 949 949 950 950 951 952 953 954 955 956 957 958 959 959 960 961 961 961 962 962 963 964 965 966 967 968 969 969 970 970 971 972 972 974 974 975 977 978 979 981 982 983 985 987 988 990 992 992 994 995 997 999 1000 1001 1003 1004 1006 1007 1009 1011 1013 1015 1016 1019 1021 1023 1026 1028 1029 1032 1033 1036 1037 1040 1041 1045 1047 1051 1054 1057 1058 1059 1061 1061 1063 1069 1075 1080 1084 1091 1096 1101 1104 1113 1136 1147 1151 1157 1166 1187 1225 1261 1339 1428 1579 1920 2236 2358 2458 2820 3133 3282 3412 3416 3417 3417 3417 3400 3400 3400 3412 3414 3427 3427 3427 3425 3425 3425 3426 3426 3426 3426 3426 3427 3430 3433 3435 3435 3435 3435 3432 3426 3419 3419 3419 3424 3432 3439 3442 3442 3442 3440 3432 3432 3432 3431 3431 3428 3426 3426 3426 3426 3429 3429 3429 3429 3428 3424 3421 3419 3419 3418 3414 3413 3413 3413 3413 3414 3414 3414 3414 3409 3406 3404 3402 3401 3399 3397 3396 3392 3389 3389 3389 3389 3389 3387 3385 3383 3380 3377 3375 3374 3373 3373 3373 3370 3368 3366 3365 3363 3356 3349 3345 3345 3344 3344 3341 3317 3244 3214 3214 3214 3218 3221 3221 3221 3214 3190 3159 3100 3014 2913 2781 2514 2228 1834 1432 1095 927 871 852 844 837 834 832 0 0 0 0 0 0 0 0 0 0 0 0 0 0 0 0 0 2 0 0 0 837 837 838 838 838 848 849 851 860 863 868 869 869 871 871 871 871 871 871 873 874 874 874 874 874 874 878 881 886 886 886 883 881 881 881 886 886 886 883 883 883 883 883 884 885 885 886 886 886 886 886 887 888 889 889 891 891 892 893 894 895 896 897 899 900 902 902 903 905 905 906 908 908 909 910 911 912 912 913 914 915 915 915 916 916 919 923 926 933 938 938 938 937 937 937 943 948 952 958 961 963 963 961 960 957 957 957 960 960 960 959 959 959 959 959 961 961 963 964 965 967 967 968 970 972 973 974 975 976 977 979 980 982 983 983 985 986 988 988 989 989 990 993 996 998 999 1001 1001 1002 1006 1013 1013 1013 1013 1011 1011 1011 1011 1012 1015 1018 1019 1021 1024 1028 1028 1029 1029 1031 1033 1036 1038 1040 1041 1045 1054 1054 1059 1063 1063 1059 1059 1058 1057 1056 1054 1054 1054 1059 1059 1060 1062 1072 1086 1086 1086 1088 1093 1094 1094 1094 1091 1091 1091 1092 1093 1095 1095 1097 1099 1101 1103 1104 1105 1108 1110 1111 1113 1115 1116 1118 1119 1120 1123 1125 1128 1130 1132 1133 1136 1137 1137 1137 1137 1138 1139 1143 1147 1151 1152 1157 1172 1207 1292 1586 1945 2093 2188 2214 2214 2214 2205 2204 2203 2202 2201 2200 2197 2196 2194 2194 2193 2191 2188 2185 2182 2179 2176 2174 2172 2169 2167 2165 2163 2161 2158 2156 2154 2153 2152 2150 2150 2148 2148 2147 2146 2145 2144 2143 2142 2140 2138 2137 2136 2136 2135 2133 2132 2131 2131 2131 2131 2130 2130 2130 2130 2130 2129 2128 2128 2128 2127 2127 2127 2127 2128 2131 2133 2134 2134 2134 2136 2137 2138 2139 2139 2141 2146 2146 2146 2149 2149 2163 2186 2200 2223 2248 2262 2314 2319 2319 2319 2289 2246 2242 2215 2214 2214 2211 2208 2191 2152 2152 2152 2156 2186 2203 2206 2206 2203 2201 2176 2165 2165 0
951 951 954 954 954 951 948 948 948 949 949 950 951 951 952 953 954 956 956 957 958 959 960 960 961 961 962 962 963 963 964 965 966 967 969 969 970 971 971 971 972 973 975 976 976 978 979 980 982 984 985 987 988 990 991 992 994 995 997 998 1000 1002 1003 1005 1006 1009 1010 1012 1014 1015 1017 1019 1021 1023 1025 1027 1029 1031 1034 1036 1038 1040 1042 1044 1048 1051 1053 1057 1059 1061 1062 1064 1067 1072 1079 1085 1088 1091 1097 1102 1110 1120 1136 1153 1154 1154 1171 1188 1249 1312 1393 1548 1840 2169 2277 2364 2706 3096 3249 3322 3403 3412 3416 3436 3436 3436 3426 3423 3423 3423 3425 3432 3440 3440 3440 3441 3442 3442 3442 3436 3431 3431 3431 3435 3439 3440 3440 3439 3439 3438 3433 3423 3423 3423 3425 3435 3444 3446 3446 3446 3444 3443 3437 3437 3435 3433 3428 3426 3425 3425 3425 3429 3432 3436 3436 3436 3430 3428 3424 3420 3418 3415 3413 3413 3413 3415 3415 3416 3416 3416 3414 3412 3408 3407 3405 3403 3400 3398 3394 3394 3393 3393 3392 3391 3389 3387 3384 3381 3379 3376 3375 3375 3374 3373 3370 3369 3368 3367 3364 3356 3349 3345 3345 3345 3345 3341 3317 3242 3211 3211 3211 3218 3221 3221 3221 3214 3190 3166 3122 3042 2955 2797 2620 2436 2092 1642 1194 960 881 852 844 837 834 832 0 0 0 0 0 0 0 0 0 0 0 0 0 0 0 0 0 0 0 4 6 836 836 836 837 837 843 846 846 848 849 862 863 868 871 871 871 869 869 869 872 873 873 873 873 873 873 877 881 883 883 883 880 880 880 881 886 886 886 883 882 881 881 881 884 884 884 885 885 885 885 886 886 887 887 888 889 890 891 892 892 894 895 895 897 899 899 901 902 903 904 905 906 907 908 908 909 909 911 912 912 913 913 914 914 916 919 923 926 933 938 938 938 932 932 932 936 941 945 947 949 954 959 959 959 953 952 952 952 952 952 953 953 955 957 959 959 960 963 963 963 965 966 968 969 970 971 972 973 975 976 977 978 979 980 981 983 985 986 986 987 989 990 993 996 998 999 1001 1001 1001 1005 1008 1008 1009 1009 1009 1010 1010 1010 1011 1014 1017 1019 1020 1022 1024 1025 1025 1027 1030 1032 1034 1036 1038 1038 1040 1044 1044 1045 1051 1059 1059 1059 1058 1057 1056 1054 1054 1054 1058 1058 1060 1060 1071 1086 1086 1086 1086 1086 1090 1090 1090 1090 1088 1088 1088 1091 1092 1094 1095 1097 1099 1100 1101 1103 1105 1107 1109 1110 1112 1113 1114 1115 1118 1120 1121 1124 1126 1129 1130 1131 1132 1133 1134 1134 1136 1137 1140 1144 1146 1147 1147 1155 1177 1228 1345 1695 1953 2128 2207 2207 2207 2203 2203 2203 2201 2201 2200 2196 2196 2194 2194 2193 2191 2187 2184 2181 2178 2176 2174 2172 2169 2167 2165 2164 2161 2159 2156 2154 2153 2152 2151 2150 2149 2148 2147 2146 2145 2144 2143 2142 2140 2138 2137 2136 2136 2135 2133 2132 2132 2131 2131 2131 2130 2130 2130 2130 2130 2129 2127 2127 2127 2127 2127 2127 2127 2128 2131 2131 2132 2132 2132 2135 2135 2135 2136 2136 2140 2146 2146 2146 2147 2147 2163 2189 2205 2210 2213 2256 2273 2273 2273 2273 2239 2202 2199 2199 2199 2200 2200 2200 2191 2152 2145 2145 2145 2181 2198 2198 2198 2198 2188 2169 2161 2147 0
949 949 954 954 954 951 948 948 948 949 949 950 951 952 952 953 954 956 957 958 959 960 960 961 961 962 962 962 963 964 964 966 967 968 969 970 970 971 972 973 973 974 976 977 978 979 980 981 983 985 987 988 990 991 992 994 996 998 1000 1000 1003 1004 1006 1008 1008 1010 1012 1014 1015 1017 1019 1021 1022 1024 1026 1029 1032 1034 1036 1039 1040 1042 1044 1047 1052 1055 1058 1061 1063 1064 1068 1069 1075 1080 1085 1089 1090 1094 1102 1110 1120 1134 1146 1156 1158 1160 1212 1309 1387 1516 1769 2210 2282 2404 2658 3005 3210 3322 3384 3402 3405 3412 3416 3436 3437 3437 3437 3425 3425 3425 3427 3432 3441 3443 3443 3448 3453 3453 3453 3447 3441 3441 3441 3442 3445 3447 3447 3447 3446 3443 3440 3434 3431 3431 3431 3438 3445 3448 3448 3448 3448 3447 3447 3442 3439 3436 3430 3426 3425 3425 3425 3430 3437 3440 3440 3440 3440 3436 3430 3425 3419 3415 3415 3415 3416 3416 3417 3418 3418 3418 3418 3417 3414 3411 3410 3407 3405 3401 3397 3395 3394 3394 3393 3392 3390 3389 3387 3385 3380 3378 3377 3375 3374 3373 3371 3369 3368 3367 3364 3356 3351 3349 3348 3345 3342 3325 3287 3229 3211 3211 3211 3218 3219 3219 3219 3214 3190 3166 3144 3087 3004 2830 2686 2505 2135 1733 1315 1012 884 856 847 838 834 832 0 0 0 0 0 0 0 0 0 0 0 0 0 0 0 1 0 0 0 3 4 834 834 834 831 831 831 838 841 844 845 858 863 872 877 877 877 869 869 869 869 873 873 873 873 873 873 876 881 881 881 880 879 879 879 881 883 883 883 880 880 880 880 881 883 883 884 884 884 884 884 884 885 885 886 887 887 888 889 890 891 892 892 894 895 896 897 899 900 902 903 903 904 905 906 907 907 907 909 910 911 912 913 914 914 914 919 920 925 933 938 938 938 931 928 928 928 931 935 938 940 952 959 959 959 946 944 944 944 945 946 947 952 955 956 957 958 959 962 963 963 963 965 967 967 968 968 970 971 973 975 976 976 978 979 979 980 982 983 985 985 986 990 993 995 996 996 996 996 998 1000 1001 1001 1002 1006 1008 1008 1009 1009 1009 1012 1014 1016 1017 1018 1021 1023 1024 1025 1027 1030 1030 1031 1034 1035 1035 1036 1039 1040 1045 1058 1058 1058 1059 1058 1056 1054 1052 1052 1050 1048 1050 1053 1056 1081 1081 1082 1082 1082 1085 1086 1086 1085 1087 1087 1087 1090 1090 1091 1093 1094 1096 1098 1099 1101 1104 1105 1107 1107 1108 1110 1112 1114 1116 1118 1120 1122 1124 1125 1127 1127 1130 1130 1130 1132 1135 1135 1137 1141 1143 1146 1147 1152 1171 1203 1260 1430 1872 1944 2204 2204 2204 2203 2203 2202 2201 2201 2200 2196 2196 2194 2194 2192 2190 2187 2183 2181 2178 2176 2174 2172 2169 2167 2165 2164 2161 2159 2157 2156 2154 2152 2151 2150 2149 2148 2147 2145 2144 2144 2143 2142 2140 2138 2137 2136 2135 2135 2134 2133 2132 2131 2131 2131 2130 2130 2130 2129 2129 2127 2127 2127 2127 2127 2127 2127 2127 2128 2130 2130 2130 2131 2132 2132 2132 2134 2134 2135 2139 2141 2141 2141 2141 2141 2163 2189 2200 2207 2210 2216 2227 2227 2227 2213 2190 2175 2170 2170 2170 2187 2191 2191 2191 2161 2143 2143 2143 2174 2192 2193 2193 2192 2179 2168 2149 2147 0
946 946 954 954 954 951 948 948 948 949 949 950 951 952 952 953 954 956 957 958 959 960 960 961 962 962 962 963 964 964 964 966 967 968 970 970 971 972 973 975 975 976 977 978 979 980 982 984 985 986 988 990 991 992 994 996 997 999 1001 1003 1005 1006 1008 1009 1011 1012 1014 1015 1018 1019 1021 1022 1023 1026 1028 1032 1034 1036 1038 1039 1042 1045 1049 1051 1056 1061 1065 1067 1068 1069 1073 1075 1081 1087 1094 1098 1098 1103 1112 1120 1126 1151 1182 1205 1206 1211 1319 1459 1662 2111 2205 2273 2492 2914 3174 3267 3314 3368 3399 3406 3409 3411 3412 3424 3437 3437 3437 3433 3433 3433 3435 3442 3443 3443 3443 3448 3454 3454 3454 3453 3447 3447 3447 3449 3454 3457 3457 3457 3455 3452 3448 3444 3439 3439 3439 3447 3453 3453 3453 3455 3455 3455 3454 3452 3452 3452 3433 3430 3426 3426 3426 3431 3441 3441 3441 3440 3440 3436 3434 3432 3424 3424 3422 3422 3422 3419 3419 3419 3423 3423 3423 3421 3418 3417 3414 3412 3408 3402 3398 3396 3395 3394 3393 3392 3391 3391 3389 3386 3381 3379 3378 3376 3375 3373 3371 3369 3368 3367 3363 3356 3355 3353 3350 3345 3332 3309 3269 3216 3211 3211 3211 3213 3213 3213 3213 3203 3184 3166 3145 3118 3063 2923 2719 2551 2306 1929 1409 1086 924 865 848 840 834 825 820 0 0 0 0 0 0 0 0 0 0 0 0 0 0 0 0 0 0 0 0 0 0 0 0 820 825 835 840 844 845 858 870 872 877 877 877 872 869 869 869 870 872 872 872 873 873 874 876 879 879 879 879 879 879 881 881 881 879 879 879 879 880 880 883 883 883 883 883 883 883 884 884 884 885 885 885 887 888 889 889 890 891 892 893 895 895 897 898 900 901 901 903 904 905 906 906 907 907 908 910 912 912 912 912 912 914 918 919 925 933 933 933 931 925 925 925 926 929 932 938 946 957 957 957 939 939 939 940 943 945 946 951 952 952 954 954 955 958 960 960 961 961 962 964 965 965 967 967 969 972 974 975 976 976 977 977 977 978 980 982 983 990 990 991 992 995 995 996 997 999 999 1000 1000 1001 1004 1005 1006 1007 1008 1010 1011 1013 1015 1016 1018 1020 1021 1024 1025 1027 1028 1029 1030 1032 1034 1036 1038 1040 1043 1058 1058 1058 1059 1058 1056 1054 1051 1051 1050 1048 1050 1053 1056 1077 1080 1080 1080 1082 1084 1084 1084 1084 1081 1081 1081 1085 1089 1089 1091 1092 1093 1095 1097 1098 1101 1103 1103 1104 1106 1107 1110 1112 1112 1115 1117 1119 1121 1122 1123 1124 1125 1127 1128 1132 1133 1134 1134 1135 1140 1143 1144 1150 1171 1197 1221 1270 1476 1901 2053 2202 2202 2203 2203 2203 2203 2203 2199 2196 2196 2194 2193 2191 2189 2186 2183 2181 2178 2176 2174 2171 2169 2167 2165 2164 2161 2159 2157 2156 2154 2152 2151 2150 2149 2148 2147 2145 2144 2143 2142 2141 2138 2136 2135 2135 2135 2134 2134 2133 2132 2131 2131 2131 2130 2127 2127 2126 2125 2125 2125 2125 2126 2126 2127 2127 2127 2128 2129 2129 2129 2129 2129 2129 2129 2129 2129 2134 2134 2134 2133 2132 2132 2132 2138 2186 2187 2187 2189 2187 2186 2186 2184 2178 2164 2151 2150 2150 2150 2174 2191 2191 2191 2161 2143 2143 2143 2174 2182 2182 2182 2161 2140 2140 2130 2130 0
940 940 943 951 951 951 948 948 948 949 949 950 951 952 952 953 954 956 957 958 959 960 960 961 962 963 963 963 964 964 965 966 967 969 970 972 972 972 974 976 977 978 979 979 981 982 984 986 986 988 989 991 993 995 996 997 999 1001 1003 1005 1007 1008 1010 1011 1012 1014 1015 1017 1019 1021 1022 1023 1026 1027 1029 1033 1036 1038 1039 1041 1044 1047 1051 1055 1058 1064 1068 1071 1074 1078 1083 1085 1090 1095 1102 1107 1112 1125 1138 1144 1156 1190 1220 1241 1290 1363 1473 1703 2235 2267 2351 2840 3143 3261 3322 3335 3356 3377 3400 3408 3409 3411 3412 3424 3438 3438 3438 3438 3438 3439 3439 3442 3443 3443 3443 3448 3454 3459 3459 3459 3452 3452 3452 3456 3460 3460 3460 3459 3459 3458 3456 3452 3451 3451 3451 3454 3458 3463 3464 3464 3463 3463 3462 3462 3457 3452 3445 3434 3428 3428 3428 3432 3441 3441 3441 3440 3440 3436 3434 3432 3432 3431 3430 3429 3426 3421 3421 3421 3425 3425 3425 3424 3421 3419 3416 3414 3410 3405 3399 3397 3396 3395 3394 3393 3391 3391 3390 3387 3382 3380 3378 3377 3375 3373 3371 3368 3367 3365 3362 3358 3357 3356 3351 3346 3332 3309 3269 3216 3211 3211 3211 3211 3211 3207 3204 3197 3184 3164 3145 3118 3075 2953 2794 2587 2396 2145 1534 1155 966 882 848 840 834 825 823 819 0 0 0 0 0 0 0 0 0 0 0 0 0 0 0 0 0 0 0 0 0 0 0 0 822 834 840 843 845 862 872 873 877 877 877 872 869 869 869 870 872 872 873 873 873 874 874 875 875 877 877 877 877 878 878 878 878 878 878 879 879 879 881 881 881 881 881 882 882 882 882 882 883 883 884 885 886 887 888 889 889 890 891 892 893 895 897 898 899 900 901 903 904 904 904 905 905 905 907 910 910 910 908 908 908 912 914 921 926 926 926 924 920 920 920 924 929 931 937 944 944 944 943 935 935 934 935 935 936 945 950 950 950 952 952 952 954 955 957 957 957 958 959 965 965 966 967 967 970 971 974 974 974 974 976 976 978 980 982 982 986 987 988 989 989 990 995 996 998 998 999 1000 1000 1001 1001 1003 1005 1006 1007 1009 1011 1013 1014 1015 1017 1019 1021 1023 1025 1026 1028 1028 1028 1031 1034 1036 1036 1038 1043 1055 1057 1058 1057 1055 1053 1052 1052 1050 1050 1050 1053 1056 1072 1072 1081 1082 1082 1082 1084 1080 1079 1079 1079 1079 1084 1087 1087 1088 1090 1091 1093 1095 1097 1098 1100 1101 1102 1104 1105 1108 1109 1111 1113 1115 1117 1118 1119 1121 1122 1123 1124 1127 1130 1131 1131 1131 1131 1133 1139 1140 1142 1150 1174 1191 1215 1311 1651 1968 2026 2176 2193 2199 2203 2203 2203 2199 2196 2195 2194 2192 2190 2189 2185 2182 2180 2177 2175 2172 2170 2169 2166 2165 2164 2161 2159 2157 2156 2154 2152 2151 2150 2148 2147 2146 2145 2143 2140 2139 2137 2136 2136 2135 2135 2135 2134 2133 2133 2132 2131 2131 2130 2128 2126 2125 2123 2123 2123 2123 2124 2124 2125 2126 2127 2127 2127 2127 2127 2125 2125 2124 2124 2124 2127 2129 2133 2133 2133 2127 2125 2123 2123 2123 2148 2166 2166 2166 2161 2160 2157 2157 2155 2148 2144 2144 2144 2148 2164 2190 2190 2190 2153 2138 2138 2138 2172 2172 2172 2156 2138 2130 2130 2128 2130 0
940 940 943 951 951 951 949 949 949 950 950 950 951 952 952 953 954 956 957 958 959 960 961 961 962 963 963 964 964 965 966 966 968 969 971 972 973 974 976 977 978 980 981 981 983 985 985 987 988 989 991 992 994 996 997 999 1001 1003 1005 1008 1009 1010 1011 1013 1014 1016 1017 1019 1021 1023 1024 1026 1027 1029 1031 1033 1037 1040 1042 1045 1048 1052 1054 1055 1059 1064 1071 1076 1084 1090 1099 1101 1105 1106 1110 1120 1133 1141 1150 1174 1216 1248 1272 1308 1401 1606 1975 2340 2393 2582 3013 3266 3357 3357 3369 3384 3390 3391 3401 3408 3409 3411 3415 3424 3438 3438 3438 3438 3438 3439 3439 3442 3444 3444 3446 3449 3457 3459 3459 3459 3458 3458 3458 3458 3460 3460 3460 3459 3459 3458 3458 3458 3464 3464 3464 3464 3463 3463 3464 3468 3468 3468 3462 3462 3457 3452 3447 3442 3433 3433 3433 3436 3438 3438 3438 3436 3434 3434 3433 3432 3432 3431 3430 3430 3427 3422 3422 3422 3425 3425 3425 3424 3422 3419 3417 3417 3414 3411 3406 3398 3398 3396 3394 3393 3393 3392 3390 3387 3383 3382 3381 3380 3377 3373 3371 3368 3366 3362 3362 3359 3358 3358 3352 3348 3332 3309 3269 3217 3216 3216 3215 3213 3213 3207 3204 3192 3180 3162 3145 3126 3087 3012 2851 2656 2449 2212 1717 1314 1031 890 858 850 834 825 825 821 0 0 0 0 0 0 0 0 0 0 0 0 0 0 0 0 0 0 0 0 0 0 0 0 0 833 837 839 845 862 870 871 875 872 872 872 870 870 870 870 872 873 877 877 877 874 872 872 872 876 876 877 877 877 877 877 877 878 878 879 879 879 879 879 878 878 878 878 879 880 881 882 882 882 883 883 884 886 886 887 889 889 890 891 893 894 896 897 898 898 899 900 902 902 903 903 904 904 905 907 907 907 906 906 906 907 914 919 919 919 918 918 918 918 920 923 927 928 930 938 938 938 933 931 931 932 932 933 935 942 944 947 948 948 948 951 952 952 955 955 955 957 959 964 965 966 966 966 966 968 974 974 974 971 971 971 973 976 978 979 981 985 986 986 987 988 992 994 994 995 996 998 998 998 1000 1002 1002 1004 1005 1007 1010 1011 1013 1014 1015 1017 1019 1020 1022 1025 1026 1027 1027 1029 1030 1034 1035 1035 1041 1041 1041 1038 1038 1038 1038 1055 1057 1060 1069 1249 1249 1249 1083 1082 1082 1082 1082 1082 1083 1076 1070 1076 1078 1078 1084 1085 1086 1087 1088 1089 1091 1093 1095 1096 1098 1099 1101 1102 1103 1106 1107 1108 1110 1113 1114 1116 1116 1118 1119 1121 1121 1124 1126 1128 1128 1128 1129 1131 1133 1138 1141 1146 1153 1171 1201 1256 1360 1712 1993 2094 2177 2196 2203 2203 2203 2199 2193 2192 2192 2192 2190 2187 2184 2182 2178 2176 2174 2171 2169 2167 2165 2164 2163 2161 2159 2158 2158 2155 2152 2151 2150 2148 2147 2145 2144 2143 2140 2139 2137 2135 2135 2135 2134 2134 2134 2133 2133 2131 2130 2130 2130 2127 2125 2124 2123 2123 2123 2123 2123 2123 2123 2124 2124 2124 2123 2121 2120 2119 2119 2120 2120 2121 2124 2126 2126 2126 2121 2119 2117 2117 2117 2123 2132 2148 2148 2148 2137 2137 2137 2137 2137 2137 2138 2139 2139 2146 2163 2174 2174 2174 2153 2138 2137 2137 2138 2138 2137 2132 2130 2128 2128 2128 2130 0
940 940 943 951 951 951 950 950 950 950 950 951 952 952 953 953 954 956 957 959 959 960 961 961 962 963 963 964 964 965 966 967 968 970 971 972 974 975 976 978 981 983 983 983 984 986 987 988 990 991 992 994 994 996 999 1000 1002 1004 1006 1010 1012 1013 1015 1015 1018 1018 1020 1021 1023 1024 1027 1029 1031 1032 1035 1037 1040 1045 1048 1051 1054 1056 1057 1062 1065 1070 1076 1079 1087 1096 1104 1106 1120 1129 1130 1135 1149 1162 1188 1239 1284 1316 1373 1495 1838 2261 2379 2527 2939 3247 3323 3377 3407 3407 3407 3400 3400 3400 3401 3408 3425 3429 3431 3438 3438 3438 3438 3438 3438 3439 3439 3441 3443 3446 3450 3451 3457 3459 3459 3459 3458 3458 3458 3458 3460 3460 3460 3459 3459 3458 3458 3458 3464 3464 3464 3464 3463 3463 3464 3468 3468 3468 3462 3462 3457 3452 3447 3442 3439 3439 3439 3441 3441 3441 3438 3436 3434 3433 3433 3432 3432 3432 3432 3432 3428 3424 3424 3424 3425 3425 3425 3425 3422 3420 3419 3419 3419 3419 3415 3406 3400 3398 3397 3397 3397 3395 3392 3388 3387 3385 3385 3384 3381 3376 3371 3368 3366 3366 3366 3363 3363 3363 3354 3348 3340 3308 3264 3219 3217 3217 3217 3215 3215 3207 3204 3192 3180 3162 3145 3127 3095 3026 2913 2720 2533 2295 1909 1392 1094 921 869 859 843 828 825 823 0 0 0 0 0 0 0 0 0 0 0 0 0 0 0 0 0 0 0 0 0 0 0 0 0 831 837 837 846 858 870 871 875 871 871 872 872 872 873 873 874 874 877 877 877 874 872 872 872 873 874 874 874 874 875 875 875 876 878 879 879 879 879 879 878 878 877 877 877 878 879 879 879 880 881 882 883 884 885 885 886 888 889 890 891 893 895 895 895 897 898 899 900 901 901 902 902 902 902 905 905 905 903 903 903 906 911 913 914 914 915 915 915 915 917 923 925 927 928 927 927 932 929 929 931 932 932 932 934 940 940 940 942 943 944 945 947 947 949 950 951 952 955 960 961 963 963 961 961 963 963 966 966 967 967 970 970 970 970 974 978 980 982 984 984 985 989 990 990 991 994 995 995 996 998 999 1000 1001 1002 1004 1007 1009 1011 1012 1014 1015 1017 1018 1020 1023 1024 1025 1026 1027 1028 1030 1033 1034 1039 1039 1039 1031 1031 1031 1035 1050 1057 1088 1124 1253 1253 1253 1086 1082 1082 1082 1082 1082 1070 1070 1070 1070 1075 1075 1081 1081 1083 1083 1085 1088 1089 1091 1092 1094 1095 1097 1098 1100 1101 1103 1105 1107 1108 1110 1112 1113 1113 1115 1116 1118 1118 1121 1122 1124 1125 1126 1128 1131 1132 1135 1140 1145 1149 1159 1185 1221 1277 1409 1757 1933 2155 2196 2203 2203 2203 2199 2192 2190 2190 2189 2188 2185 2183 2180 2177 2176 2172 2170 2168 2167 2165 2164 2163 2161 2159 2158 2158 2155 2152 2151 2150 2148 2146 2145 2144 2142 2140 2139 2136 2135 2134 2134 2134 2133 2133 2132 2132 2130 2129 2128 2125 2125 2124 2123 2123 2122 2122 2122 2122 2122 2122 2122 2121 2119 2119 2117 2116 2116 2116 2116 2117 2117 2118 2117 2117 2117 2115 2113 2113 2113 2113 2122 2131 2133 2133 2133 2120 2119 2119 2119 2127 2131 2132 2133 2134 2144 2160 2160 2160 2160 2147 2138 2131 2131 2129 2116 2115 2115 2115 2128 2134 2134 2151 0
947 947 948 952 952 952 950 950 950 950 951 951 952 952 953 954 955 956 957 959 959 961 961 961 962 963 963 964 964 966 966 968 970 971 972 973 974 976 978 980 982 984 985 985 986 987 988 990 992 993 994 995 996 997 1000 1002 1004 1007 1009 1012 1014 1016 1017 1019 1020 1022 1023 1024 1025 1028 1029 1032 1033 1034 1037 1041 1045 1050 1054 1056 1058 1060 1064 1069 1074 1076 1080 1086 1091 1098 1115 1117 1137 1158 1164 1167 1186 1216 1269 1320 1362 1423 1566 1953 2222 2318 2651 3044 3290 3398 3411 3411 3411 3411 3411 3410 3409 3409 3409 3409 3425 3443 3443 3443 3441 3440 3440 3439 3439 3439 3439 3440 3442 3446 3452 3455 3457 3459 3459 3459 3459 3459 3459 3458 3458 3456 3456 3456 3456 3456 3457 3458 3464 3464 3464 3463 3455 3455 3455 3467 3467 3467 3461 3457 3456 3452 3447 3443 3443 3443 3442 3442 3442 3438 3437 3436 3434 3433 3433 3432 3432 3432 3432 3432 3431 3428 3428 3428 3427 3427 3427 3425 3424 3422 3422 3421 3421 3421 3418 3415 3409 3403 3402 3402 3401 3401 3396 3395 3393 3393 3392 3389 3384 3377 3373 3368 3366 3366 3366 3365 3365 3363 3355 3349 3340 3308 3264 3220 3218 3218 3218 3218 3218 3212 3204 3192 3180 3162 3147 3129 3096 3030 2927 2772 2540 2295 2033 1448 1123 955 882 860 847 836 826 822 0 0 0 0 0 0 0 0 0 0 0 0 0 0 0 0 0 0 0 0 0 0 0 0 0 823 830 836 846 851 870 871 875 871 871 872 872 872 873 873 874 874 877 877 877 873 872 871 871 871 871 872 872 871 870 870 870 873 876 877 877 877 878 880 880 880 877 877 877 878 878 878 878 878 879 880 881 881 883 884 885 885 887 888 889 891 893 894 895 895 896 897 899 900 900 900 901 901 902 902 902 902 902 902 902 905 909 910 910 910 910 911 911 913 915 919 922 924 926 926 926 926 926 927 929 931 932 932 933 935 936 937 939 942 943 943 943 943 943 943 943 946 951 957 957 958 958 958 958 958 957 956 956 956 958 964 966 968 968 969 973 975 976 980 981 981 981 982 984 988 990 990 993 993 995 996 998 999 1001 1002 1004 1007 1008 1009 1012 1013 1014 1016 1017 1020 1022 1022 1024 1025 1026 1027 1029 1031 1033 1033 1033 1026 1026 1026 1028 1049 1057 1088 1124 1253 1253 1253 1086 1068 1068 1068 1068 1068 1068 1068 1068 1070 1071 1075 1075 1076 1076 1078 1082 1085 1086 1089 1090 1091 1094 1095 1096 1097 1098 1100 1102 1104 1106 1108 1109 1110 1111 1111 1113 1114 1116 1118 1119 1120 1123 1125 1128 1129 1130 1133 1138 1142 1146 1147 1157 1181 1208 1267 1483 1877 1998 2185 2203 2203 2203 2199 2192 2190 2190 2189 2185 2183 2182 2178 2176 2173 2172 2170 2168 2167 2165 2164 2162 2161 2159 2158 2158 2155 2152 2151 2149 2148 2145 2144 2143 2143 2142 2139 2136 2134 2132 2132 2131 2130 2130 2129 2127 2125 2124 2123 2121 2121 2121 2121 2121 2121 2120 2119 2118 2118 2118 2118 2117 2115 2115 2115 2115 2115 2115 2115 2114 2111 2110 2110 2109 2108 2108 2108 2108 2109 2113 2122 2130 2130 2130 2124 2113 2105 2105 2105 2121 2123 2124 2124 2127 2141 2156 2156 2156 2147 2141 2131 2131 2131 2129 2114 2110 2110 2110 2127 2134 2134 2151 0
948 948 949 953 953 953 953 952 951 951 951 951 952 952 953 954 955 957 958 959 960 961 962 962 963 963 964 965 965 966 968 969 971 972 973 974 976 977 979 982 984 986 986 987 987 989 990 992 994 995 996 997 998 1000 1001 1004 1007 1009 1012 1015 1017 1019 1020 1021 1023 1025 1026 1028 1030 1031 1032 1033 1034 1036 1039 1044 1049 1054 1058 1061 1062 1067 1072 1075 1075 1080 1089 1096 1102 1111 1132 1134 1153 1164 1182 1205 1229 1275 1341 1393 1468 1669 2103 2281 2319 2852 3192 3309 3348 3416 3416 3416 3411 3411 3411 3414 3414 3414 3421 3423 3426 3443 3443 3443 3441 3440 3440 3439 3438 3438 3438 3438 3442 3446 3453 3459 3461 3462 3462 3461 3459 3459 3458 3458 3458 3456 3453 3453 3453 3452 3453 3453 3459 3459 3459 3459 3454 3454 3454 3455 3455 3457 3457 3456 3455 3452 3447 3443 3443 3443 3442 3442 3442 3438 3437 3436 3436 3436 3433 3432 3432 3432 3433 3433 3433 3430 3429 3429 3429 3429 3428 3426 3425 3425 3423 3422 3422 3421 3420 3418 3415 3411 3407 3407 3406 3405 3404 3403 3401 3397 3395 3389 3385 3379 3374 3369 3368 3368 3368 3368 3368 3368 3358 3350 3340 3313 3252 3222 3218 3218 3218 3218 3218 3215 3208 3196 3185 3172 3156 3140 3109 3032 2930 2799 2577 2303 2122 1564 1234 1011 910 868 849 839 826 823 0 0 0 0 0 0 0 0 0 0 0 0 0 0 0 0 0 0 0 0 0 0 0 0 0 0 825 835 840 849 858 868 885 885 885 872 872 872 873 873 874 874 873 872 872 868 867 867 867 868 868 869 869 869 869 870 870 873 875 875 875 875 875 877 877 877 877 876 876 876 876 876 876 876 877 878 879 880 881 882 882 884 885 887 887 889 891 892 893 894 895 896 897 899 900 900 900 901 901 901 901 901 899 899 899 902 902 904 908 908 908 910 910 913 915 915 917 922 923 923 924 925 926 927 927 928 930 932 933 934 935 937 938 939 941 942 942 942 940 937 937 937 951 956 956 956 955 953 953 952 949 949 949 951 953 957 962 962 966 969 971 972 972 975 975 975 975 981 981 987 988 989 990 991 992 993 995 997 998 999 1002 1005 1006 1008 1009 1011 1012 1014 1015 1018 1018 1020 1021 1022 1024 1026 1028 1028 1030 1030 1030 1027 1027 1027 1028 1049 1058 1088 1124 1252 1252 1252 1083 1054 1054 1054 1059 1059 1062 1063 1067 1067 1068 1070 1073 1075 1076 1078 1080 1081 1083 1085 1086 1087 1090 1092 1093 1094 1096 1097 1099 1101 1104 1105 1107 1108 1109 1109 1110 1111 1114 1115 1117 1118 1120 1121 1123 1124 1126 1128 1132 1135 1135 1138 1139 1154 1172 1209 1295 1642 1923 2053 2203 2203 2203 2196 2192 2190 2190 2189 2181 2178 2178 2177 2174 2173 2171 2170 2168 2167 2164 2163 2161 2158 2157 2156 2156 2155 2152 2150 2148 2147 2145 2143 2143 2143 2142 2139 2136 2133 2131 2130 2128 2127 2127 2126 2118 2116 2116 2116 2116 2116 2116 2115 2114 2114 2114 2114 2115 2115 2115 2115 2112 2112 2112 2112 2112 2112 2111 2111 2108 2107 2105 2102 2101 2101 2101 2101 2101 2103 2112 2122 2128 2128 2128 2111 2101 2098 2098 2098 2112 2112 2116 2119 2120 2134 2140 2140 2140 2136 2131 2131 2129 2129 2128 2110 2107 2107 2107 2113 2134 2134 2151 0
948 948 950 953 953 954 954 954 953 951 951 951 952 953 953 954 956 957 958 959 961 961 962 963 964 964 964 965 966 968 968 970 972 973 975 976 978 980 981 983 985 987 988 988 990 991 992 994 995 997 999 1000 1001 1002 1004 1006 1009 1013 1016 1018 1020 1022 1024 1025 1026 1028 1029 1032 1033 1034 1035 1035 1037 1040 1044 1047 1051 1057 1062 1065 1071 1076 1078 1078 1078 1086 1103 1115 1123 1141 1158 1162 1173 1187 1215 1270 1351 1380 1426 1507 1629 2122 2311 2415 3001 3299 3351 3389 3412 3416 3416 3416 3411 3411 3411 3414 3421 3425 3428 3432 3433 3444 3444 3444 3441 3440 3440 3440 3438 3437 3437 3437 3438 3446 3455 3460 3463 3463 3463 3462 3459 3459 3458 3458 3458 3456 3453 3452 3451 3451 3451 3451 3454 3458 3458 3458 3454 3453 3451 3451 3451 3454 3455 3455 3455 3452 3447 3442 3442 3442 3440 3440 3439 3438 3437 3437 3438 3437 3437 3437 3437 3437 3437 3437 3435 3432 3432 3430 3430 3429 3429 3427 3426 3426 3423 3423 3423 3425 3425 3425 3421 3414 3411 3409 3408 3408 3404 3403 3401 3398 3396 3391 3385 3382 3378 3375 3372 3370 3370 3370 3370 3370 3365 3362 3343 3311 3252 3228 3218 3218 3218 3218 3218 3215 3208 3202 3193 3180 3166 3140 3109 3059 2941 2825 2603 2303 2142 1639 1331 1097 947 878 853 841 828 823 821 0 0 0 0 0 0 0 0 0 0 0 0 0 0 0 0 0 0 0 0 0 0 0 0 0 821 827 836 842 850 868 885 885 885 874 874 874 874 874 875 874 872 872 866 862 862 862 862 864 868 868 868 866 866 866 870 873 873 875 875 875 875 877 878 878 878 873 873 873 874 875 875 875 876 877 877 877 879 880 881 882 883 885 887 888 890 891 891 892 893 893 895 896 897 898 899 900 901 901 901 900 900 900 900 900 901 902 904 904 907 910 910 913 913 914 917 920 921 921 922 923 924 925 926 926 928 930 931 932 933 934 936 937 939 939 939 939 937 937 937 937 951 951 951 947 945 944 943 941 943 943 945 950 953 954 960 962 966 967 967 968 968 970 971 973 973 980 981 984 987 987 988 989 990 991 993 994 995 998 999 1002 1004 1005 1007 1008 1011 1012 1014 1016 1017 1019 1020 1021 1021 1022 1024 1026 1028 1028 1028 1027 1027 1027 1035 1050 1058 1061 1081 1098 1098 1098 1070 1054 1051 1051 1051 1057 1060 1061 1062 1061 1064 1068 1072 1074 1074 1077 1078 1080 1081 1082 1084 1085 1087 1088 1090 1093 1094 1094 1096 1098 1100 1102 1104 1105 1107 1107 1107 1109 1111 1113 1115 1116 1118 1119 1120 1121 1123 1126 1128 1131 1133 1133 1133 1138 1157 1183 1224 1366 1778 1916 2105 2194 2194 2194 2194 2193 2191 2189 2181 2178 2177 2175 2173 2173 2170 2169 2168 2166 2164 2161 2159 2155 2151 2151 2150 2150 2150 2150 2148 2147 2143 2142 2142 2142 2142 2139 2136 2132 2130 2127 2122 2122 2122 2119 2117 2115 2115 2114 2114 2114 2112 2110 2109 2107 2107 2107 2109 2109 2109 2109 2108 2107 2107 2106 2105 2105 2105 2105 2105 2104 2101 2097 2095 2095 2095 2099 2100 2101 2108 2116 2116 2116 2116 2103 2101 2098 2098 2098 2102 2102 2106 2106 2109 2111 2120 2120 2120 2120 2120 2125 2127 2127 2127 2110 2107 2100 2100 2100 2117 2117 2131 0
948 948 951 953 953 954 954 954 953 952 952 952 952 953 954 954 956 957 959 960 961 961 963 964 964 965 966 966 967 969 969 971 973 975 977 979 981 982 983 985 986 988 990 991 992 994 995 996 997 999 1001 1003 1005 1005 1007 1008 1012 1015 1018 1019 1022 1023 1025 1026 1027 1029 1030 1033 1035 1037 1039 1040 1043 1046 1048 1050 1054 1060 1065 1072 1076 1080 1080 1080 1089 1101 1117 1137 1154 1166 1173 1176 1194 1218 1248 1330 1430 1479 1626 1722 2037 2346 2449 2976 3303 3369 3408 3422 3422 3422 3416 3412 3410 3410 3412 3415 3422 3433 3439 3440 3440 3440 3440 3440 3440 3440 3440 3440 3438 3437 3437 3437 3438 3446 3455 3460 3466 3467 3467 3467 3464 3464 3464 3462 3459 3456 3453 3452 3451 3451 3451 3451 3452 3455 3455 3455 3455 3453 3451 3451 3451 3454 3455 3455 3455 3452 3447 3443 3443 3443 3443 3443 3439 3437 3437 3437 3437 3439 3439 3439 3440 3440 3440 3440 3435 3432 3432 3432 3432 3432 3432 3430 3429 3426 3425 3425 3425 3428 3428 3428 3425 3417 3413 3410 3408 3408 3405 3403 3401 3398 3398 3392 3389 3387 3385 3381 3379 3375 3374 3374 3374 3374 3374 3367 3343 3304 3250 3228 3225 3222 3218 3218 3218 3215 3208 3204 3197 3184 3166 3140 3109 3067 2994 2878 2636 2328 2159 1753 1420 1173 995 898 858 841 828 823 823 819 0 0 0 0 0 0 0 0 0 0 0 0 0 0 0 0 0 0 0 0 0 0 0 0 818 825 831 833 842 866 885 885 885 877 877 877 877 877 873 873 872 870 864 861 861 861 862 864 868 868 868 865 865 865 872 875 875 875 875 875 875 876 878 878 878 872 872 872 873 873 873 874 875 875 876 877 877 878 880 881 882 884 886 886 888 889 890 892 893 893 895 896 896 898 898 898 898 898 899 899 899 900 900 900 900 902 902 904 905 908 908 911 911 912 917 918 919 920 920 922 923 923 924 924 926 928 929 930 932 932 933 936 937 937 937 937 936 936 931 931 931 942 942 942 936 935 931 931 931 939 944 950 952 952 955 962 965 965 965 965 965 968 969 972 973 977 980 980 983 984 986 988 988 989 990 991 993 995 997 1000 1001 1002 1004 1006 1008 1010 1012 1014 1014 1016 1017 1019 1019 1020 1021 1021 1021 1021 1021 1019 1021 1026 1034 1050 1057 1059 1061 1061 1061 1059 1054 1052 1046 1046 1046 1053 1057 1057 1058 1060 1063 1065 1071 1072 1073 1074 1077 1079 1080 1081 1082 1083 1084 1086 1088 1090 1092 1093 1094 1095 1098 1099 1101 1102 1104 1104 1106 1107 1109 1111 1112 1114 1115 1117 1118 1118 1121 1124 1127 1128 1130 1131 1132 1137 1144 1152 1174 1222 1382 1826 1954 1955 2156 2193 2193 2193 2191 2189 2179 2178 2177 2175 2173 2172 2169 2168 2168 2165 2162 2159 2154 2149 2146 2145 2145 2143 2143 2141 2141 2140 2140 2138 2136 2131 2125 2124 2121 2119 2117 2115 2113 2113 2113 2113 2113 2112 2111 2109 2107 2107 2105 2105 2103 2103 2103 2103 2103 2103 2104 2104 2104 2104 2102 2101 2099 2099 2099 2099 2099 2099 2097 2095 2092 2092 2092 2097 2098 2101 2105 2108 2108 2108 2103 2098 2096 2096 2096 2098 2098 2098 2098 2097 2097 2097 2099 2099 2103 2103 2112 2115 2115 2115 2115 2108 2105 2093 2093 2093 2100 2100 2116 0
947 947 951 952 953 953 953 953 953 952 952 952 952 953 954 955 956 957 959 960 961 962 963 964 965 966 966 966 967 969 970 972 975 977 980 982 982 984 986 986 987 989 992 993 995 997 999 999 1001 1002 1002 1004 1005 1007 1009 1011 1014 1017 1019 1021 1024 1026 1027 1029 1031 1032 1034 1036 1038 1041 1044 1046 1048 1050 1052 1055 1059 1064 1071 1078 1081 1084 1089 1097 1112 1126 1136 1146 1166 1179 1188 1191 1215 1246 1285 1362 1453 1702 1808 1946 2251 2400 2736 3089 3303 3369 3408 3422 3422 3422 3412 3412 3411 3411 3412 3415 3424 3433 3443 3443 3443 3443 3440 3440 3440 3440 3443 3443 3440 3439 3438 3438 3439 3448 3457 3464 3466 3468 3471 3471 3471 3470 3466 3464 3460 3459 3454 3454 3451 3449 3449 3449 3450 3453 3454 3455 3455 3455 3455 3454 3454 3454 3456 3456 3456 3451 3447 3443 3443 3443 3443 3443 3439 3437 3437 3437 3438 3440 3440 3441 3441 3441 3441 3441 3435 3432 3432 3432 3432 3432 3432 3431 3429 3427 3425 3425 3425 3430 3430 3430 3425 3417 3413 3410 3408 3408 3405 3403 3401 3400 3398 3397 3395 3393 3390 3388 3385 3381 3379 3375 3375 3375 3374 3367 3340 3302 3248 3228 3228 3222 3221 3221 3220 3217 3212 3204 3200 3185 3166 3137 3106 3069 3015 2924 2656 2332 2191 1865 1531 1275 1050 917 864 842 834 833 823 821 818 0 0 0 0 0 0 0 0 0 0 0 0 0 0 0 0 0 0 0 0 0 0 0 0 825 827 832 838 862 877 877 877 877 877 877 877 877 873 871 871 869 863 861 861 861 862 864 869 869 869 863 863 863 872 874 874 875 875 874 873 875 875 873 873 871 871 871 872 872 872 873 873 874 875 875 876 876 878 880 881 883 884 886 887 888 890 892 893 893 895 896 896 897 897 897 897 897 897 898 899 899 899 899 900 901 902 904 905 907 908 909 910 911 913 915 916 917 918 919 920 921 921 923 924 925 927 928 929 930 931 933 934 934 935 935 935 935 934 934 934 939 939 939 936 932 930 930 930 935 944 947 949 950 953 962 965 965 965 965 965 967 969 972 973 975 977 980 981 982 984 984 986 987 988 990 992 993 995 997 998 999 1001 1003 1006 1008 1009 1010 1012 1014 1015 1016 1017 1019 1019 1019 1020 1020 1019 1019 1021 1026 1034 1050 1057 1059 1059 1059 1059 1052 1049 1048 1043 1043 1043 1043 1047 1050 1054 1060 1063 1063 1063 1064 1069 1072 1077 1077 1078 1079 1080 1081 1082 1084 1085 1087 1089 1091 1091 1092 1095 1096 1097 1099 1101 1102 1104 1105 1106 1108 1110 1112 1113 1114 1115 1116 1119 1122 1125 1127 1129 1130 1132 1134 1136 1142 1153 1179 1264 1564 1897 1900 2036 2167 2191 2191 2191 2189 2179 2176 2175 2174 2173 2169 2169 2168 2166 2163 2157 2149 2144 2142 2141 2138 2137 2137 2136 2131 2128 2127 2120 2118 2117 2116 2115 2114 2113 2108 2106 2106 2106 2111 2112 2112 2112 2110 2107 2103 2102 2101 2099 2098 2097 2097 2097 2099 2100 2100 2101 2101 2100 2096 2096 2095 2093 2093 2093 2093 2095 2095 2095 2093 2091 2091 2091 2095 2097 2100 2102 2102 2102 2100 2097 2095 2095 2097 2100 2102 2102 2102 2098 2097 2096 2092 2092 2092 2096 2096 2103 2104 2105 2105 2104 2104 2099 2091 2080 2080 2080 2079 2108 0
945 945 951 951 952 953 953 953 953 952 952 952 953 954 954 955 956 957 959 960 962 962 964 964 965 966 966 967 968 969 971 974 977 980 981 984 984 985 987 988 989 991 993 995 998 1000 1001 1003 1005 1005 1005 1005 1007 1010 1012 1014 1018 1021 1023 1025 1027 1029 1032 1034 1036 1039 1040 1043 1046 1048 1049 1052 1055 1059 1061 1064 1069 1073 1079 1084 1089 1096 1102 1111 1123 1139 1148 1161 1184 1198 1214 1217 1242 1267 1345 1452 1644 1797 1867 2069 2251 2400 2736 3089 3303 3369 3408 3412 3412 3412 3412 3412 3410 3412 3414 3415 3425 3438 3448 3448 3448 3441 3440 3440 3440 3443 3445 3445 3444 3444 3444 3444 3444 3448 3458 3465 3466 3469 3472 3472 3472 3472 3466 3464 3464 3464 3462 3462 3455 3450 3449 3449 3449 3453 3454 3455 3455 3458 3460 3460 3460 3460 3459 3457 3456 3451 3446 3443 3443 3443 3443 3443 3442 3437 3437 3437 3438 3441 3441 3446 3446 3446 3442 3441 3435 3430 3430 3430 3432 3432 3432 3431 3429 3427 3427 3427 3428 3430 3430 3430 3425 3417 3413 3410 3408 3408 3405 3403 3401 3400 3398 3397 3395 3393 3391 3389 3387 3385 3383 3379 3377 3375 3375 3367 3337 3301 3233 3221 3221 3221 3221 3221 3221 3217 3212 3205 3201 3186 3164 3135 3106 3076 3036 2949 2703 2364 2221 1968 1626 1368 1111 949 882 860 852 842 830 823 821 820 0 0 0 0 0 0 0 0 0 0 0 0 0 0 0 0 0 0 0 0 0 0 0 824 827 831 837 849 863 869 871 873 873 877 877 877 873 871 871 868 862 861 861 861 863 868 869 869 869 863 863 863 872 873 873 875 873 872 867 867 867 871 871 871 867 867 867 867 869 869 870 872 875 875 876 876 878 879 881 883 884 885 887 887 890 891 892 893 894 894 894 894 894 894 894 894 895 898 898 899 899 900 900 901 902 904 904 907 907 908 909 910 911 912 913 915 916 917 918 918 919 920 922 923 924 926 927 928 929 931 931 932 933 934 934 934 934 934 934 937 937 937 930 924 924 924 929 935 941 947 949 950 953 962 964 964 964 964 964 967 969 972 975 975 975 977 977 978 981 983 984 985 987 989 989 992 993 994 996 997 998 1000 1002 1004 1006 1006 1008 1010 1012 1013 1014 1016 1018 1018 1018 1019 1018 1017 1020 1025 1034 1050 1053 1055 1055 1054 1054 1049 1044 1043 1041 1039 1039 1039 1041 1045 1051 1059 1060 1061 1061 1061 1063 1071 1071 1074 1075 1076 1078 1079 1080 1082 1084 1085 1086 1087 1088 1090 1091 1093 1095 1096 1098 1100 1102 1102 1104 1106 1107 1109 1110 1112 1113 1115 1117 1119 1122 1125 1126 1128 1130 1132 1132 1132 1145 1175 1232 1390 1723 1728 2016 2047 2156 2177 2177 2177 2176 2175 2173 2173 2169 2167 2164 2163 2154 2145 2138 2131 2131 2128 2128 2127 2124 2123 2121 2119 2117 2113 2108 2108 2108 2108 2108 2108 2103 2103 2103 2103 2103 2108 2109 2109 2109 2107 2103 2100 2099 2097 2095 2094 2093 2093 2093 2096 2097 2099 2099 2099 2096 2092 2090 2090 2090 2089 2089 2089 2090 2091 2091 2091 2091 2091 2091 2093 2094 2096 2096 2096 2096 2096 2094 2094 2094 2097 2101 2103 2103 2103 2098 2097 2092 2092 2090 2090 2090 2090 2095 2096 2097 2098 2098 2098 2095 2085 2079 2079 2079 2074 2107 0
945 945 948 950 952 952 953 953 953 953 953 953 953 954 954 955 957 957 959 961 963 964 964 965 965 966 967 968 969 972 973 976 979 981 984 985 986 987 989 990 990 993 994 996 999 1002 1003 1006 1008 1008 1008 1009 1010 1012 1016 1018 1021 1024 1026 1028 1029 1032 1035 1040 1043 1045 1047 1049 1050 1051 1054 1058 1061 1064 1069 1075 1079 1081 1087 1094 1100 1109 1109 1112 1135 1168 1185 1209 1231 1240 1250 1252 1265 1411 1616 1667 1728 1801 1895 2080 2251 2400 2736 3089 3232 3304 3316 3381 3401 3403 3408 3408 3410 3412 3414 3415 3425 3438 3448 3448 3448 3445 3445 3445 3447 3447 3447 3447 3447 3447 3448 3450 3451 3452 3458 3465 3475 3477 3477 3477 3476 3472 3466 3464 3464 3464 3464 3464 3455 3450 3449 3449 3449 3453 3454 3455 3457 3458 3461 3463 3463 3463 3459 3457 3456 3449 3447 3444 3444 3444 3445 3445 3445 3440 3440 3440 3441 3442 3445 3448 3448 3448 3445 3441 3436 3430 3430 3429 3430 3430 3430 3429 3429 3429 3429 3429 3427 3427 3424 3423 3422 3416 3411 3408 3408 3408 3407 3405 3401 3400 3398 3397 3395 3393 3391 3389 3388 3386 3383 3381 3375 3375 3366 3352 3334 3297 3232 3223 3223 3223 3223 3223 3223 3217 3215 3211 3203 3186 3164 3135 3106 3084 3054 3003 2713 2402 2325 2012 1704 1447 1201 1024 917 873 857 845 832 829 825 824 823 0 0 0 0 0 0 0 0 0 0 0 0 0 0 0 0 0 0 0 0 0 0 823 827 828 829 830 840 865 867 868 868 875 875 875 873 865 864 864 861 861 861 866 868 872 872 872 865 858 852 852 852 859 862 862 865 865 865 865 865 871 871 871 865 865 865 867 867 868 869 872 875 875 876 876 878 879 881 883 883 885 886 886 889 891 893 894 894 894 894 893 891 890 890 890 891 893 897 898 899 900 900 901 902 904 904 904 904 906 907 908 909 911 912 913 914 914 915 917 917 919 920 922 923 924 924 926 927 930 930 930 930 930 931 932 932 933 934 932 932 929 925 922 922 922 929 935 940 941 944 944 947 954 959 959 960 960 960 967 968 972 973 975 975 975 975 978 979 983 984 984 986 987 988 989 991 992 993 995 996 998 1000 1002 1002 1003 1005 1007 1009 1011 1011 1013 1014 1015 1016 1015 1014 1013 1013 1013 1030 1036 1036 1038 1036 1036 1032 1032 1032 1036 1036 1036 1036 1036 1036 1042 1050 1054 1057 1057 1058 1058 1058 1069 1071 1071 1071 1074 1075 1076 1077 1078 1081 1082 1083 1084 1085 1088 1089 1091 1092 1094 1096 1098 1099 1100 1101 1103 1105 1107 1108 1109 1111 1113 1114 1116 1118 1119 1121 1125 1127 1127 1128 1130 1135 1162 1198 1289 1428 1434 1763 2046 2053 2132 2154 2156 2157 2165 2163 2163 2163 2159 2155 2148 2134 2127 2124 2123 2123 2122 2121 2119 2116 2115 2115 2115 2114 2111 2107 2102 2101 2099 2098 2098 2098 2098 2098 2099 2103 2107 2108 2108 2108 2105 2101 2098 2097 2095 2093 2092 2091 2091 2091 2093 2094 2094 2094 2094 2090 2088 2088 2087 2087 2087 2087 2087 2088 2089 2090 2090 2090 2090 2091 2091 2091 2093 2093 2093 2093 2093 2093 2093 2093 2098 2101 2103 2105 2105 2105 2105 2104 2098 2091 2084 2084 2084 2094 2095 2095 2095 2094 2077 2074 2068 2067 2067 2068 2065 2096 0
945 945 947 948 952 952 954 954 954 953 953 953 955 955 955 956 958 958 960 962 963 964 965 965 966 968 968 970 972 974 977 980 982 985 987 989 990 991 992 992 992 995 998 1000 1002 1005 1007 1009 1010 1012 1012 1013 1013 1016 1018 1021 1024 1027 1029 1031 1033 1035 1039 1044 1047 1050 1051 1052 1054 1055 1059 1063 1068 1073 1080 1083 1084 1085 1092 1108 1125 1128 1131 1133 1170 1211 1230 1233 1255 1262 1289 1420 1421 1497 1643 1696 1737 1840 1898 2089 2242 2415 2588 2647 2788 2935 3048 3231 3322 3340 3345 3381 3410 3412 3414 3415 3425 3438 3448 3448 3448 3445 3445 3445 3447 3447 3447 3447 3447 3447 3453 3456 3458 3459 3463 3475 3477 3478 3478 3477 3476 3472 3465 3464 3464 3464 3464 3464 3457 3451 3450 3450 3450 3452 3453 3456 3457 3458 3461 3463 3463 3463 3459 3454 3450 3449 3448 3448 3448 3449 3449 3449 3447 3442 3442 3442 3444 3445 3446 3448 3448 3448 3445 3441 3436 3436 3433 3429 3430 3431 3430 3430 3430 3430 3430 3428 3426 3424 3420 3419 3417 3410 3408 3407 3407 3407 3407 3407 3403 3400 3399 3398 3397 3396 3391 3390 3390 3388 3384 3382 3375 3375 3366 3352 3329 3293 3232 3223 3223 3223 3232 3232 3232 3231 3224 3218 3206 3186 3164 3135 3112 3090 3067 3004 2797 2431 2327 2082 1770 1562 1316 1092 959 893 862 849 835 829 827 826 823 0 0 0 0 0 0 0 0 0 0 0 0 0 0 0 0 0 0 0 0 0 0 0 823 824 827 829 836 848 858 860 864 869 869 869 863 863 861 860 861 861 861 866 872 872 872 872 860 855 850 850 850 857 858 859 860 860 860 862 862 862 863 865 863 863 865 866 867 867 868 871 873 876 876 877 877 879 881 883 883 883 885 885 885 886 893 894 894 894 894 893 890 889 889 889 891 893 895 897 899 899 900 901 902 902 902 903 904 905 905 907 908 909 911 911 912 913 914 915 916 918 919 920 921 922 923 924 925 927 928 928 929 929 929 931 932 932 933 932 932 929 925 924 924 924 930 936 937 937 938 938 938 943 948 948 949 952 959 965 968 972 973 974 974 974 974 975 977 978 981 982 984 986 986 986 987 989 991 992 993 995 997 998 999 1001 1003 1005 1007 1007 1009 1010 1011 1012 1012 1012 1011 1011 1011 1013 1016 1016 1016 1016 1016 1015 1011 1007 1007 1007 1015 1028 1028 1028 1033 1033 1042 1046 1046 1046 1049 1056 1057 1064 1066 1068 1069 1071 1072 1073 1074 1075 1076 1078 1079 1081 1082 1084 1087 1089 1090 1092 1094 1096 1097 1098 1099 1100 1102 1104 1105 1106 1109 1110 1111 1112 1114 1115 1118 1120 1123 1124 1124 1125 1125 1137 1163 1217 1344 1345 1570 1957 2053 2068 2117 2117 2120 2126 2126 2126 2126 2125 2118 2115 2115 2115 2115 2116 2117 2117 2117 2115 2112 2110 2110 2109 2109 2109 2104 2099 2095 2094 2094 2094 2094 2094 2095 2096 2099 2103 2104 2104 2104 2102 2098 2096 2096 2093 2092 2091 2090 2089 2089 2089 2089 2089 2089 2088 2086 2086 2086 2086 2086 2086 2086 2086 2086 2087 2087 2087 2088 2089 2090 2091 2091 2091 2091 2091 2090 2088 2088 2088 2093 2097 2100 2102 2105 2107 2107 2107 2105 2098 2087 2082 2082 2082 2092 2092 2092 2090 2087 2077 2074 2067 2067 2067 2067 2060 2074 0
947 947 947 948 952 952 954 954 954 954 954 955 955 956 957 957 958 960 961 963 963 965 966 968 968 970 971 973 976 978 981 982 984 987 989 991 993 993 994 995 996 998 1000 1003 1006 1008 1011 1012 1014 1015 1015 1017 1018 1019 1021 1023 1027 1030 1032 1035 1036 1040 1043 1048 1052 1054 1055 1057 1059 1062 1065 1066 1072 1082 1086 1088 1092 1102 1112 1132 1148 1150 1169 1207 1226 1236 1242 1245 1258 1341 1377 1453 1456 1525 1675 1727 1788 1852 1931 2102 2242 2415 2588 2646 2661 2692 2721 2723 2747 2774 2969 3113 3200 3265 3276 3316 3346 3379 3394 3410 3418 3421 3434 3445 3447 3447 3447 3446 3446 3446 3453 3456 3458 3462 3470 3479 3479 3479 3478 3477 3476 3471 3465 3464 3464 3464 3464 3464 3455 3451 3451 3451 3454 3459 3459 3459 3459 3459 3460 3463 3463 3463 3457 3449 3449 3447 3447 3449 3449 3453 3453 3453 3447 3444 3444 3444 3444 3445 3446 3449 3449 3449 3445 3441 3439 3439 3438 3437 3437 3431 3430 3430 3430 3430 3430 3428 3426 3424 3420 3419 3417 3410 3405 3403 3403 3403 3404 3404 3404 3400 3399 3398 3397 3396 3391 3390 3390 3390 3387 3382 3376 3374 3366 3352 3329 3297 3232 3225 3225 3225 3236 3236 3236 3233 3228 3221 3206 3187 3165 3144 3125 3106 3075 3006 2814 2467 2341 2177 1878 1672 1438 1201 1001 900 868 850 836 829 827 826 823 0 0 0 0 0 0 0 0 0 0 0 0 0 0 0 0 0 0 0 0 0 0 0 0 820 822 827 827 843 848 859 860 860 862 862 858 858 858 858 860 861 861 866 872 872 872 871 860 849 849 849 849 849 858 858 858 858 858 859 861 861 862 863 862 862 863 864 866 867 867 869 872 876 876 877 877 879 881 883 883 883 885 885 885 886 892 893 894 894 894 891 890 889 889 889 891 892 894 896 897 898 899 901 901 901 901 902 903 904 905 905 907 907 909 910 910 911 912 913 914 916 917 919 920 921 921 923 924 925 926 927 927 927 928 928 930 932 932 932 931 925 922 922 922 922 930 936 937 937 937 936 936 936 936 936 937 944 957 959 965 965 965 965 965 973 974 974 974 976 977 979 981 983 984 985 986 987 988 990 991 992 993 995 996 998 1000 1002 1003 1005 1006 1007 1009 1009 1009 1009 1009 1009 1010 1010 1011 1011 1011 1009 1006 1003 995 983 983 983 993 1013 1016 1017 1020 1020 1026 1029 1029 1037 1043 1043 1045 1048 1053 1063 1066 1067 1070 1072 1072 1073 1073 1075 1076 1078 1080 1083 1085 1086 1088 1090 1092 1094 1095 1096 1097 1098 1100 1102 1103 1104 1106 1108 1109 1111 1112 1113 1115 1117 1119 1121 1122 1122 1123 1124 1141 1180 1256 1256 1414 1670 1983 2037 2074 2104 2109 2110 2110 2111 2110 2110 2107 2106 2106 2107 2108 2110 2110 2110 2110 2110 2108 2107 2106 2105 2105 2103 2099 2094 2094 2094 2093 2093 2093 2093 2093 2093 2096 2097 2099 2099 2099 2098 2094 2093 2092 2091 2091 2090 2089 2086 2084 2084 2084 2084 2084 2083 2082 2082 2082 2084 2084 2084 2084 2083 2083 2083 2084 2085 2086 2088 2090 2090 2090 2090 2090 2090 2089 2088 2088 2088 2092 2097 2100 2102 2104 2107 2107 2107 2105 2100 2083 2072 2072 2072 2091 2091 2091 2090 2087 2077 2074 2067 2067 2067 2067 2060 2070 0
949 949 949 951 951 952 954 954 955 955 955 956 957 958 959 960 961 962 963 965 966 967 968 969 970 971 974 975 978 981 984 985 987 990 991 993 994 995 997 998 1000 1001 1004 1006 1008 1012 1014 1015 1017 1018 1019 1020 1022 1025 1028 1030 1033 1035 1036 1037 1041 1045 1051 1055 1056 1057 1058 1060 1065 1069 1072 1074 1082 1091 1098 1100 1109 1120 1133 1147 1158 1168 1202 1235 1262 1270 1272 1282 1338 1441 1454 1454 1456 1583 1696 1776 1842 1910 2000 2197 2242 2415 2588 2646 2661 2683 2691 2691 2691 2691 2691 2726 2752 2777 2816 2884 2938 2952 3020 3151 3235 3297 3349 3379 3404 3406 3407 3415 3431 3445 3453 3456 3458 3462 3470 3475 3475 3475 3475 3474 3471 3468 3464 3461 3459 3458 3458 3458 3453 3451 3451 3451 3464 3465 3465 3464 3459 3459 3459 3459 3459 3459 3456 3449 3448 3448 3448 3453 3454 3455 3454 3454 3454 3447 3446 3444 3444 3446 3446 3448 3448 3448 3447 3444 3440 3440 3439 3439 3439 3436 3436 3434 3434 3430 3428 3428 3426 3424 3420 3419 3417 3410 3403 3400 3400 3400 3406 3406 3406 3400 3400 3399 3397 3397 3393 3393 3391 3391 3391 3383 3379 3375 3370 3359 3334 3301 3232 3227 3227 3227 3236 3236 3236 3233 3228 3221 3208 3189 3173 3157 3147 3124 3092 3030 2834 2471 2356 2204 1934 1756 1541 1303 1075 931 873 851 839 830 827 826 819 0 0 0 0 0 0 0 0 0 0 0 0 0 0 0 0 0 0 0 0 0 0 0 0 818 820 824 827 840 847 852 853 856 857 857 857 857 857 857 859 859 861 861 872 872 872 869 859 843 842 842 842 848 851 855 857 857 855 855 855 855 857 857 862 862 862 864 866 866 866 867 871 876 876 877 877 878 880 882 883 883 885 885 885 886 892 893 893 893 893 891 890 889 889 889 891 892 893 894 895 897 899 900 900 900 901 902 903 903 904 904 905 906 907 908 909 910 910 911 912 914 915 916 918 918 920 921 923 924 925 926 926 926 926 928 928 928 928 928 928 926 922 922 922 922 927 936 937 937 937 934 929 928 928 928 928 936 947 948 954 954 955 958 962 971 971 973 973 974 974 975 978 981 982 983 984 985 986 988 990 990 991 992 994 995 998 999 1000 1002 1003 1005 1006 1008 1008 1008 1009 1009 1010 1013 1013 1013 1011 1009 1006 1003 995 983 983 983 991 998 1008 1009 1011 1011 1017 1020 1026 1037 1043 1043 1043 1047 1048 1049 1065 1066 1070 1070 1070 1070 1070 1071 1073 1075 1078 1081 1083 1084 1086 1088 1089 1092 1093 1094 1095 1097 1098 1098 1101 1102 1104 1106 1109 1109 1110 1111 1113 1114 1117 1117 1119 1119 1120 1123 1132 1161 1209 1210 1287 1451 1785 2016 2030 2090 2096 2102 2102 2102 2100 2099 2095 2095 2095 2101 2101 2102 2102 2104 2104 2104 2104 2103 2103 2103 2102 2099 2095 2094 2093 2093 2093 2093 2092 2092 2092 2092 2092 2093 2094 2094 2094 2093 2090 2087 2087 2087 2087 2086 2084 2081 2078 2078 2078 2079 2079 2079 2079 2079 2081 2082 2082 2082 2082 2082 2082 2082 2082 2083 2086 2087 2088 2089 2089 2090 2090 2090 2089 2088 2088 2088 2092 2097 2097 2099 2102 2107 2107 2107 2105 2098 2081 2068 2068 2068 2088 2090 2090 2090 2087 2084 2081 2072 2067 2067 2067 2060 2069 0
951 951 951 951 951 952 955 955 956 956 956 957 958 960 961 962 962 963 965 967 967 968 969 970 972 975 976 978 981 984 987 988 991 992 993 995 996 997 999 1001 1003 1006 1007 1009 1011 1013 1015 1018 1020 1022 1024 1025 1027 1030 1033 1036 1039 1040 1041 1045 1049 1054 1057 1060 1060 1061 1063 1066 1072 1079 1087 1090 1093 1098 1109 1118 1124 1132 1145 1165 1193 1223 1229 1246 1264 1312 1390 1425 1461 1463 1502 1614 1617 1689 1761 1793 1873 1938 2095 2343 2376 2554 2624 2646 2659 2671 2684 2684 2684 2684 2684 2726 2741 2744 2760 2783 2787 2809 2822 2845 2910 3000 3047 3078 3127 3176 3226 3310 3354 3399 3412 3415 3433 3462 3470 3470 3470 3464 3457 3457 3457 3458 3459 3459 3459 3449 3449 3449 3451 3451 3452 3464 3464 3464 3463 3459 3452 3452 3452 3459 3459 3459 3456 3449 3449 3449 3455 3456 3456 3456 3456 3456 3456 3451 3446 3446 3444 3443 3443 3443 3447 3447 3447 3444 3440 3440 3440 3440 3440 3437 3437 3436 3436 3423 3423 3423 3429 3429 3429 3426 3419 3410 3403 3400 3400 3400 3408 3410 3410 3410 3406 3404 3404 3397 3395 3395 3393 3393 3393 3385 3384 3376 3374 3362 3348 3315 3247 3237 3237 3237 3236 3236 3236 3233 3228 3221 3211 3195 3180 3169 3162 3138 3092 3006 2814 2471 2355 2213 1992 1814 1637 1409 1160 992 899 852 841 830 826 818 818 0 0 0 0 0 0 0 0 0 0 0 0 0 0 0 0 0 0 0 0 0 0 0 0 818 818 820 822 831 831 850 850 851 850 849 846 846 846 851 852 852 853 855 855 855 856 856 856 837 837 837 842 848 849 854 855 855 855 853 853 853 857 857 857 857 856 856 856 861 866 866 866 866 870 872 874 878 880 882 883 883 885 885 885 885 888 893 893 893 891 890 889 889 889 889 891 891 892 892 894 897 898 899 899 900 900 902 902 902 903 903 904 904 905 905 906 908 908 910 911 912 913 915 916 917 918 919 921 923 923 924 924 925 925 926 926 926 926 925 925 924 922 922 924 924 925 932 937 937 937 934 925 919 919 919 924 928 938 939 946 948 948 948 948 948 964 971 971 973 973 973 976 979 979 981 982 983 984 986 987 988 989 991 991 993 995 996 998 1000 1001 1002 1004 1006 1007 1007 1007 1008 1009 1013 1013 1013 1008 1007 1003 999 995 983 983 983 991 995 998 1003 1004 1004 1009 1017 1026 1037 1042 1042 1042 1036 1036 1036 1048 1060 1064 1067 1068 1069 1069 1070 1071 1073 1076 1078 1081 1083 1084 1086 1088 1089 1091 1092 1093 1095 1096 1096 1098 1100 1103 1105 1105 1107 1108 1110 1111 1112 1113 1115 1115 1118 1118 1120 1125 1139 1164 1165 1218 1311 1499 1867 1996 2030 2078 2097 2100 2100 2100 2098 2094 2090 2090 2090 2094 2096 2097 2098 2100 2100 2100 2100 2100 2099 2098 2096 2094 2093 2093 2092 2092 2091 2090 2090 2090 2088 2088 2088 2090 2090 2090 2090 2086 2084 2082 2082 2082 2081 2078 2076 2075 2075 2075 2075 2075 2076 2076 2077 2078 2080 2080 2081 2081 2080 2080 2080 2080 2083 2085 2086 2086 2087 2087 2087 2089 2089 2089 2088 2088 2088 2092 2093 2096 2098 2101 2104 2104 2104 2104 2094 2078 2066 2066 2066 2082 2090 2090 2090 2090 2086 2083 2079 2073 2063 2063 2055 2055 0
951 951 951 951 951 953 957 957 957 958 958 959 960 961 963 963 964 964 966 967 968 970 971 972 975 977 979 981 984 988 990 992 993 994 995 996 998 1000 1002 1004 1007 1009 1010 1012 1012 1015 1016 1018 1023 1025 1027 1030 1033 1035 1038 1041 1043 1044 1046 1052 1058 1062 1067 1069 1072 1073 1076 1081 1091 1091 1092 1096 1104 1107 1117 1130 1139 1160 1191 1204 1222 1264 1271 1295 1394 1452 1469 1475 1480 1493 1567 1616 1617 1714 1771 1814 1911 2078 2209 2405 2430 2558 2624 2646 2659 2669 2678 2678 2682 2682 2682 2726 2731 2738 2741 2751 2785 2791 2807 2826 2861 2866 2866 2873 2873 2873 2939 3054 3106 3138 3195 3229 3231 3241 3258 3275 3296 3339 3342 3351 3372 3388 3401 3407 3407 3409 3409 3409 3450 3451 3451 3464 3464 3464 3453 3450 3449 3449 3450 3454 3454 3454 3453 3449 3447 3447 3447 3453 3454 3455 3456 3456 3456 3461 3461 3461 3448 3441 3440 3440 3440 3444 3444 3444 3440 3440 3440 3440 3440 3437 3437 3436 3436 3423 3423 3423 3430 3432 3432 3432 3425 3414 3403 3400 3400 3400 3408 3410 3416 3416 3416 3411 3405 3401 3399 3397 3396 3396 3393 3387 3384 3380 3378 3365 3350 3315 3254 3245 3244 3241 3237 3237 3233 3228 3223 3221 3218 3212 3211 3179 3163 3138 3092 3004 2806 2467 2355 2258 2099 1919 1736 1523 1265 1045 923 881 854 830 826 818 813 0 0 0 0 0 0 0 0 0 0 0 0 0 0 0 0 0 0 0 0 0 0 0 0 0 813 818 818 823 831 835 842 846 846 842 841 841 841 844 844 844 845 849 849 852 852 852 848 837 832 832 832 836 849 850 850 851 850 850 852 852 852 853 853 854 854 854 856 861 866 866 866 866 870 872 874 878 880 882 883 884 884 884 884 884 888 891 891 891 891 889 886 885 885 885 889 891 891 891 894 897 898 898 898 898 899 900 901 901 902 902 902 903 903 904 905 905 906 907 909 911 912 912 914 915 916 918 918 920 922 922 922 923 924 924 924 924 924 924 924 923 922 922 922 922 922 926 936 936 936 934 923 919 919 919 924 926 929 930 944 947 947 947 948 948 952 968 969 970 972 973 975 977 977 978 979 981 983 984 985 986 987 988 989 991 993 994 996 998 999 1001 1002 1003 1004 1005 1005 1005 1006 1013 1013 1013 1008 1007 1003 1001 1001 997 993 993 993 994 998 998 1002 1003 1003 1016 1026 1037 1038 1038 1038 1035 1034 1034 1034 1045 1054 1059 1066 1066 1067 1068 1070 1072 1074 1076 1079 1081 1082 1082 1085 1088 1089 1091 1092 1093 1094 1094 1095 1097 1100 1102 1102 1105 1106 1108 1110 1110 1111 1112 1114 1116 1117 1118 1121 1128 1141 1142 1180 1234 1335 1571 1966 1987 2060 2078 2094 2098 2098 2098 2094 2090 2088 2088 2088 2090 2090 2093 2096 2098 2098 2098 2096 2095 2095 2095 2094 2093 2092 2092 2091 2091 2089 2089 2087 2085 2085 2085 2087 2087 2087 2085 2081 2078 2076 2076 2075 2075 2074 2072 2072 2072 2072 2072 2072 2073 2074 2076 2076 2078 2078 2079 2079 2079 2079 2079 2080 2082 2082 2082 2082 2082 2082 2083 2085 2085 2085 2085 2085 2088 2090 2091 2094 2096 2099 2100 2100 2100 2098 2094 2078 2066 2066 2066 2074 2084 2090 2090 2090 2088 2086 2085 2084 2073 2073 2055 2055 0
955 955 956 956 957 957 958 959 959 959 959 959 960 961 963 963 964 965 967 969 971 971 972 974 976 978 980 982 985 989 992 994 995 997 997 999 1000 1003 1005 1008 1010 1012 1013 1014 1016 1017 1020 1022 1027 1029 1032 1035 1037 1040 1042 1045 1046 1048 1052 1058 1063 1065 1070 1074 1077 1080 1082 1089 1093 1095 1097 1109 1121 1130 1143 1159 1179 1209 1240 1242 1257 1299 1352 1454 1493 1493 1493 1493 1493 1526 1570 1622 1625 1720 1781 1833 2013 2202 2430 2476 2501 2597 2624 2646 2659 2662 2668 2672 2674 2676 2700 2718 2721 2723 2726 2728 2753 2781 2789 2801 2810 2828 2828 2835 2835 2828 2827 2827 2827 2827 2850 2851 2942 2956 2980 3003 3012 3028 3058 3108 3134 3159 3180 3221 3253 3253 3254 3255 3301 3322 3412 3412 3415 3419 3419 3425 3431 3433 3448 3448 3449 3449 3449 3443 3443 3437 3437 3437 3449 3452 3454 3456 3456 3461 3461 3461 3448 3435 3429 3429 3429 3435 3435 3435 3437 3437 3437 3437 3437 3437 3436 3433 3428 3423 3423 3423 3431 3436 3436 3436 3430 3417 3408 3401 3401 3401 3408 3413 3421 3421 3421 3416 3407 3404 3402 3402 3400 3396 3395 3395 3393 3388 3379 3365 3350 3315 3258 3245 3245 3244 3237 3237 3227 3220 3216 3216 3214 3212 3212 3186 3163 3138 3078 2987 2806 2458 2362 2267 2154 2004 1810 1586 1350 1125 958 886 859 839 825 818 810 0 0 0 0 0 0 0 0 0 0 0 0 0 0 0 0 0 0 0 0 0 0 0 0 0 0 816 818 822 827 827 828 829 834 834 834 835 833 833 837 837 837 840 840 842 847 847 847 836 829 0 829 836 842 845 847 850 850 850 849 0 0 0 848 848 850 853 854 861 866 866 870 870 870 872 874 878 881 882 883 884 884 884 884 884 886 890 890 890 888 885 883 882 882 882 887 890 890 890 894 897 898 898 898 898 898 898 899 900 900 900 901 902 902 902 904 904 905 906 907 908 910 910 912 913 914 915 916 917 919 921 921 922 922 922 922 922 923 923 922 922 922 922 922 920 920 920 935 935 935 933 919 919 919 919 924 924 925 928 932 937 943 947 948 948 949 958 964 967 968 969 972 974 974 975 977 979 981 982 983 984 985 985 987 988 991 992 994 996 997 998 999 1000 1002 1003 1003 1004 1004 1007 1007 1007 1002 1002 1002 1002 1002 1000 993 993 993 994 996 996 997 1002 1002 1016 1026 1034 1034 1034 1034 1034 1031 1031 1031 1043 1050 1057 1063 1065 1066 1066 1066 1069 1071 1073 1075 1078 1080 1081 1083 1084 1087 1088 1090 1090 1092 1094 1094 1095 1098 1101 1102 1105 1106 1106 1109 1109 1110 1110 1111 1113 1113 1115 1120 1125 1140 1141 1161 1191 1260 1406 1662 1975 2002 2073 2090 2098 2098 2098 2094 2090 2088 2088 2087 2088 2088 2089 2096 2096 2096 2096 2093 2093 2093 2093 2093 2093 2092 2092 2090 2089 2087 2086 2083 2081 2081 2081 2081 2081 2079 2078 2077 2074 2071 2071 2070 2070 2070 2069 2069 2068 2067 2067 2067 2070 2070 2072 2074 2075 2075 2075 2076 2076 2077 2078 2079 2079 2079 2078 2076 2076 2076 2081 2081 2081 2080 2080 2080 2083 2086 2087 2088 2091 2094 2094 2094 2093 2091 2084 2075 2065 2065 2065 2070 2080 2089 2089 2089 2088 2086 2085 2084 2078 2078 2073 2078 0
959 959 959 959 960 960 960 960 959 959 959 959 960 962 963 963 964 966 967 970 971 973 973 975 978 979 981 984 986 989 993 995 997 997 998 1001 1003 1005 1008 1011 1012 1014 1015 1017 1019 1021 1024 1026 1029 1034 1036 1038 1041 1044 1047 1049 1050 1052 1055 1059 1063 1065 1070 1077 1086 1093 1096 1098 1099 1100 1110 1125 1136 1145 1172 1196 1220 1252 1271 1296 1353 1496 1540 1540 1540 1534 1493 1493 1493 1528 1572 1651 1654 1744 1786 1860 2054 2269 2462 2509 2545 2608 2620 2629 2637 2644 2652 2665 2670 2676 2700 2718 2718 2718 2720 2722 2726 2735 2746 2751 2757 2779 2785 2793 2795 2800 2800 2800 2788 2788 2788 2789 2795 2795 2816 2828 2833 2833 2855 2861 2861 2873 2873 2873 2905 2908 2932 2936 2949 2965 2979 3036 3184 3193 3213 3227 3265 3285 3318 3321 3328 3329 3359 3393 3401 3406 3410 3421 3439 3445 3447 3453 3455 3461 3461 3461 3448 3435 3425 3424 3424 3424 3429 3430 3433 3433 3433 3433 3433 3431 3423 3423 3418 3416 3418 3423 3431 3436 3436 3436 3430 3417 3409 3409 3409 3414 3416 3421 3424 3424 3424 3421 3413 3413 3411 3411 3404 3396 3395 3395 3391 3388 3385 3365 3350 3314 3258 3245 3245 3244 3237 3237 3225 3214 3214 3214 3214 3214 3214 3186 3163 3133 3076 2985 2783 2431 2362 2280 2170 2051 1852 1645 1422 1199 1023 911 863 840 827 817 810 0 0 0 0 0 0 0 0 0 0 0 0 0 0 0 0 0 0 0 0 0 0 0 0 0 0 815 816 819 823 826 826 827 827 828 830 831 830 830 828 828 828 828 830 836 836 836 832 0 0 0 0 0 0 0 0 2 0 0 0 0 0 0 843 846 848 851 853 857 866 866 870 870 870 874 876 880 882 883 883 883 883 880 880 880 882 885 885 885 884 880 880 880 880 880 885 887 887 887 893 897 897 897 897 896 896 897 897 898 898 898 899 900 900 902 902 903 904 905 906 906 908 909 910 912 913 914 915 916 917 918 919 920 921 921 921 921 921 922 922 921 922 920 920 920 920 920 929 929 929 923 919 919 919 921 924 925 925 924 925 928 942 949 949 951 951 951 961 964 964 966 967 972 974 975 975 978 979 980 981 981 983 984 985 987 988 990 992 993 995 996 996 998 999 1000 1002 1003 1003 1003 1003 1002 1001 1001 1001 1001 1001 1000 993 989 989 989 993 994 994 995 1002 1014 1022 1023 1024 1025 1027 1027 1027 1027 1027 1038 1048 1055 1060 1062 1063 1064 1064 1066 1068 1070 1072 1073 1075 1077 1079 1079 1080 1082 1088 1088 1092 1093 1094 1095 1097 1097 1099 1101 1103 1105 1106 1107 1108 1108 1109 1110 1112 1113 1115 1119 1126 1126 1141 1162 1200 1294 1433 1710 2002 2065 2085 2099 2099 2099 2096 2090 2086 2086 2086 2086 2086 2088 2094 2094 2094 2094 2092 2092 2092 2092 2092 2092 2091 2091 2090 2089 2087 2085 2081 2078 2077 2077 2076 2074 2073 2072 2072 2068 2064 2064 2064 2066 2067 2067 2067 2067 2063 2063 2063 2064 2066 2066 2068 2069 2070 2071 2073 2073 2074 2074 2075 2078 2078 2078 2076 2076 2076 2078 2078 2078 2072 2072 2072 2078 2080 2082 2083 2084 2087 2089 2089 2089 2088 2084 2075 2068 2068 2068 2070 2075 2079 2085 2086 2086 2085 2085 2084 2078 2075 2073 2058 0
965 965 960 961 961 961 961 961 960 960 960 960 960 962 963 963 965 966 969 971 973 974 976 978 979 981 983 985 988 990 993 995 998 1000 1001 1003 1005 1007 1010 1013 1015 1016 1019 1021 1023 1026 1028 1030 1033 1037 1040 1043 1046 1049 1053 1054 1055 1055 1057 1063 1067 1073 1082 1088 1095 1101 1105 1106 1119 1131 1137 1148 1151 1153 1195 1247 1277 1304 1354 1458 1545 1557 1558 1558 1557 1535 1493 1493 1493 1528 1606 1686 1690 1744 1798 1894 2063 2313 2462 2509 2574 2608 2608 2612 2613 2613 2632 2659 2667 2676 2700 2701 2701 2704 2704 2704 2720 2720 2720 2720 2720 2737 2758 2758 2758 2754 2748 2746 2746 2746 2759 2759 2775 2792 2797 2798 2804 2818 2831 2842 2842 2831 2801 2801 2801 2831 2831 2831 2837 2837 2848 2902 2902 2907 2939 2982 3017 3043 3063 3070 3071 3072 3086 3111 3141 3188 3225 3261 3265 3271 3290 3291 3309 3349 3385 3385 3385 3378 3335 3335 3335 3341 3394 3426 3429 3430 3430 3430 3430 3424 3410 3410 3410 3410 3415 3423 3431 3434 3434 3434 3430 3417 3409 3409 3409 3414 3416 3421 3424 3424 3424 3421 3413 3413 3411 3411 3404 3395 3395 3395 3389 3388 3385 3366 3350 3310 3258 3245 3245 3244 3237 3237 3223 3214 3211 3211 3211 3211 3211 3186 3160 3125 3075 2975 2783 2431 2362 2301 2212 2102 1932 1730 1509 1295 1098 959 879 840 828 817 0 0 0 0 0 0 0 0 0 0 0 0 0 0 0 0 0 0 0 0 0 0 0 0 0 0 0 815 815 816 821 823 824 824 826 827 828 829 829 829 0 0 0 0 0 0 0 0 0 0 0 0 0 0 0 0 0 0 0 0 0 0 0 5 841 843 844 847 850 857 866 866 871 871 871 875 879 881 883 883 884 884 884 880 880 880 880 880 880 880 878 877 877 877 878 878 881 884 885 886 889 894 895 895 895 895 895 895 896 896 897 897 898 898 900 900 901 901 903 904 904 905 907 908 909 910 911 912 913 914 916 917 918 918 920 920 920 920 921 921 921 921 919 919 919 919 920 920 920 920 915 911 911 911 915 921 925 926 926 925 925 928 942 949 949 949 949 949 955 959 963 964 967 970 973 974 974 977 978 978 979 980 981 982 984 985 986 988 990 991 992 992 994 995 997 998 1000 1001 1002 1002 1002 1002 1000 1000 1000 1000 1000 1000 993 989 989 989 993 993 994 994 1002 1011 1012 1012 1013 1020 1025 1025 1025 1025 1025 1035 1048 1052 1057 1060 1060 1060 1061 1063 1067 1067 1067 1069 1069 1071 1077 1079 1080 1082 1088 1088 1092 1092 1092 1091 1091 1091 1097 1100 1102 1103 1104 1106 1107 1107 1107 1108 1109 1111 1112 1115 1116 1119 1127 1144 1164 1218 1331 1497 1831 2053 2080 2099 2099 2099 2096 2090 2086 2085 2085 2085 2085 2088 2092 2092 2092 2092 2089 2089 2089 2091 2091 2091 2091 2091 2090 2088 2087 2083 2079 2078 2077 2077 2076 2073 2071 2070 2069 2067 2062 2059 2059 2059 2059 2059 2056 2053 2048 2048 2048 2056 2062 2062 2062 2066 2067 2069 2070 2070 2070 2070 2070 2075 2075 2075 2071 2071 2071 2071 2071 2067 2064 2064 2064 2073 2080 2082 2083 2084 2087 2089 2089 2089 2088 2084 2075 2069 2069 2069 2070 2075 2075 2075 2073 2073 2072 2072 2073 2077 2077 2077 2078 0
966 966 965 965 962 962 961 961 961 961 961 962 962 963 963 965 967 968 970 973 974 976 977 980 982 984 986 988 990 992 995 997 1000 1002 1004 1005 1007 1010 1012 1014 1018 1020 1022 1025 1027 1029 1031 1033 1037 1040 1044 1048 1053 1057 1059 1059 1059 1061 1062 1067 1075 1085 1095 1096 1102 1108 1111 1114 1125 1145 1160 1176 1183 1185 1247 1341 1394 1405 1490 1544 1560 1577 1577 1577 1563 1537 1493 1493 1493 1528 1637 1701 1703 1745 1825 1970 2106 2381 2462 2515 2576 2599 2599 2602 2602 2602 2624 2649 2666 2673 2686 2692 2695 2697 2698 2699 2719 2719 2719 2720 2720 2726 2736 2737 2737 2737 2729 2725 2725 2725 2742 2744 2766 2784 2784 2789 2792 2803 2831 2834 2834 2831 2801 2801 2801 2814 2824 2824 2824 2818 2816 2816 2816 2834 2862 2890 2914 2919 2921 2922 2922 2924 2937 2950 2967 2989 3017 3035 3037 3040 3042 3044 3047 3073 3099 3122 3148 3165 3166 3174 3210 3247 3306 3351 3351 3352 3354 3368 3368 3368 3332 3332 3332 3361 3394 3394 3394 3396 3396 3409 3409 3409 3409 3409 3409 3414 3416 3421 3424 3424 3424 3421 3413 3413 3411 3411 3404 3394 3390 3390 3385 3385 3385 3366 3350 3307 3248 3243 3243 3242 3236 3236 3223 3212 3211 3211 3206 3205 3194 3175 3158 3120 3070 2966 2770 2428 2372 2311 2245 2147 2027 1808 1586 1407 1246 1058 899 851 828 818 0 0 0 0 0 0 0 0 0 0 0 0 0 0 0 0 0 0 0 0 0 0 0 0 0 0 0 0 814 815 815 819 819 819 818 0 0 0 0 0 0 0 0 0 0 0 0 0 0 0 0 0 0 0 0 0 0 0 0 0 0 0 0 0 0 0 0 846 847 850 864 864 865 869 876 884 884 884 883 883 883 883 883 879 879 879 879 880 880 880 878 875 870 870 870 874 878 882 883 884 886 887 891 891 893 893 893 894 895 895 895 896 896 896 898 899 900 900 902 903 903 904 906 906 907 908 909 910 912 913 914 916 916 917 918 919 920 920 920 920 920 919 919 918 918 915 915 912 912 912 908 908 908 910 915 921 928 928 928 928 929 929 941 949 949 949 949 949 950 957 959 964 964 970 971 972 972 975 975 976 977 978 980 980 981 982 984 986 988 989 990 991 992 993 995 997 999 999 1000 1000 1000 1001 1001 1001 1000 997 996 995 992 987 987 987 987 987 988 994 1001 1001 1002 1002 1002 1013 1024 1024 1024 1024 1024 1035 1048 1048 1048 1051 1055 1058 1060 1063 1065 1065 1066 1068 1069 1071 1076 1077 1077 1082 1088 1088 1090 1090 1090 1090 1091 1091 1094 1099 1101 1101 1103 1104 1106 1106 1107 1107 1108 1109 1111 1113 1113 1116 1118 1127 1147 1183 1251 1381 1578 1867 2077 2096 2096 2096 2096 2090 2086 2085 2085 2085 2088 2089 2090 2090 2090 2086 2086 2086 2086 2087 2090 2091 2091 2091 2090 2088 2086 2083 2079 2078 2077 2076 2076 2073 2070 2069 2069 2066 2062 2059 2059 2059 2059 2059 2056 2053 2048 2048 2048 2054 2059 2060 2061 2065 2067 2067 2070 2070 2070 2068 2068 2068 2071 2071 2071 2071 2070 2070 2063 2055 2055 2055 2061 2072 2080 2082 2083 2084 2087 2088 2088 2088 2087 2083 2080 2077 2077 2077 2077 2077 2075 2071 2068 2066 2066 2066 2066 2068 2075 2075 2083 0
967 967 966 966 964 964 964 966 966 966 963 963 963 966 967 968 969 971 973 975 976 978 980 982 984 987 989 990 992 994 998 1000 1003 1005 1006 1008 1010 1011 1013 1016 1020 1023 1025 1028 1030 1033 1037 1040 1042 1045 1047 1052 1056 1059 1063 1065 1067 1069 1075 1085 1095 1096 1100 1100 1109 1123 1136 1139 1149 1166 1181 1204 1242 1297 1344 1439 1522 1528 1532 1551 1576 1580 1580 1580 1568 1548 1496 1496 1496 1561 1675 1718 1721 1756 1832 2004 2222 2381 2462 2526 2578 2593 2593 2595 2595 2595 2613 2636 2653 2673 2686 2692 2692 2696 2696 2698 2716 2716 2716 2716 2716 2724 2724 2724 2724 2722 2718 2718 2718 2718 2725 2728 2730 2754 2759 2761 2772 2794 2824 2824 2824 2798 2798 2798 2799 2809 2815 2815 2815 2809 2808 2808 2809 2822 2845 2890 2890 2896 2898 2898 2898 2905 2923 2931 2932 2934 2940 2940 2940 2925 2916 2908 2908 2908 2939 2967 2984 2992 2994 3001 3039 3074 3093 3134 3145 3163 3178 3191 3207 3207 3207 3210 3210 3234 3250 3256 3262 3268 3270 3307 3333 3340 3345 3350 3369 3385 3385 3386 3386 3386 3386 3394 3399 3405 3405 3405 3395 3385 3385 3385 3385 3385 3385 3366 3349 3294 3229 3229 3229 3236 3236 3236 3221 3211 3206 3205 3205 3195 3180 3166 3152 3115 3070 2966 2766 2431 2372 2312 2259 2216 2069 1832 1671 1521 1333 1156 960 856 830 818 807 0 0 0 0 0 0 0 0 0 0 0 0 0 0 0 0 0 0 0 0 0 0 0 0 0 0 0 0 0 0 0 0 0 0 0 0 0 0 0 0 0 0 0 0 0 0 0 0 0 0 0 0 0 0 0 0 0 0 0 0 0 0 0 0 0 0 846 846 850 850 861 861 863 876 887 887 887 883 883 883 883 882 878 877 877 877 879 879 879 878 875 870 869 869 869 876 879 880 880 882 885 887 889 891 891 891 893 893 894 894 894 895 895 896 897 898 899 900 901 902 902 904 905 906 906 908 909 911 912 913 913 915 916 916 918 918 918 918 917 917 917 918 918 918 911 909 908 907 907 907 907 908 908 914 920 927 928 928 928 932 932 941 947 947 947 943 943 943 950 957 958 959 963 967 967 969 972 973 974 975 977 977 979 979 980 982 984 984 986 987 988 989 990 993 995 996 997 999 999 1000 1000 1000 1000 1000 997 996 995 992 987 987 987 987 987 988 994 994 994 998 998 998 1012 1024 1024 1024 1024 1024 1035 1045 1047 1047 1050 1051 1056 1058 1060 1061 1062 1064 1065 1066 1071 1074 1076 1077 1083 1092 1092 1092 1092 1090 1084 1084 1084 1093 1097 1100 1100 1102 1104 1104 1105 1105 1106 1106 1108 1110 1112 1113 1116 1117 1121 1128 1147 1196 1271 1424 1651 2037 2065 2087 2087 2087 2081 2081 2081 2081 2086 2089 2090 2090 2090 2090 2086 2086 2086 2086 2087 2090 2090 2090 2090 2089 2087 2085 2083 2079 2079 2079 2078 2076 2071 2070 2069 2069 2066 2062 2059 2059 2058 2058 2058 2056 2053 2048 2048 2048 2054 2055 2057 2060 2065 2067 2067 2067 2066 2065 2065 2065 2065 2067 2069 2069 2069 2066 2061 2054 2046 2046 2046 2060 2071 2077 2077 2080 2081 2084 2087 2087 2087 2086 2083 2080 2080 2080 2080 2078 2075 2068 2063 2061 2061 2061 2061 2065 2066 2067 2067 2080 0
968 968 967 967 967 967 967 969 969 969 968 968 968 968 969 970 971 973 974 977 979 980 983 984 987 989 992 992 995 997 999 1002 1004 1007 1009 1011 1013 1013 1015 1017 1022 1026 1029 1031 1033 1038 1042 1043 1047 1049 1051 1054 1058 1062 1065 1068 1070 1075 1086 1095 1102 1102 1104 1110 1129 1151 1167 1169 1180 1204 1230 1248 1292 1409 1504 1517 1548 1562 1570 1580 1595 1595 1595 1580 1572 1548 1548 1548 1562 1607 1691 1724 1726 1758 1935 2174 2302 2392 2462 2536 2581 2593 2593 2595 2595 2595 2604 2625 2652 2671 2686 2690 2690 2696 2696 2698 2710 2710 2710 2710 2710 2722 2722 2722 2711 2711 2711 2714 2714 2714 2703 2703 2703 2705 2715 2730 2747 2768 2779 2792 2792 2792 2792 2792 2798 2798 2798 2798 2798 2798 2798 2799 2802 2816 2841 2879 2879 2880 2880 2880 2886 2902 2905 2913 2915 2916 2916 2915 2915 2904 2899 2897 2897 2897 2926 2926 2926 2910 2910 2910 2924 2958 2969 2969 2976 2976 2976 2976 2976 2973 2973 2973 2973 2985 2992 3025 3047 3058 3113 3139 3155 3162 3167 3173 3188 3192 3201 3212 3227 3230 3251 3272 3291 3293 3306 3306 3309 3331 3337 3352 3352 3354 3352 3352 3328 3278 3210 3210 3210 3230 3230 3230 3219 3210 3206 3201 3195 3183 3173 3158 3134 3100 3065 2951 2755 2431 2372 2316 2267 2218 2086 1872 1733 1578 1410 1248 1022 893 838 820 815 0 0 0 0 0 0 0 0 0 0 0 0 0 0 0 0 0 0 0 0 0 0 0 0 0 0 0 0 0 0 0 0 0 0 0 0 0 0 0 0 0 0 0 0 0 0 0 0 0 0 0 0 0 0 0 0 0 0 0 0 0 0 0 0 845 846 846 846 848 850 859 861 861 876 887 887 887 883 880 879 878 877 876 874 874 874 875 877 877 877 875 866 866 866 868 872 876 878 880 881 883 885 888 889 889 889 891 891 891 892 893 894 894 895 896 897 899 899 900 900 901 903 904 904 906 906 907 909 910 911 912 913 914 915 916 916 916 917 917 917 917 917 916 915 910 905 905 905 906 906 907 907 908 909 915 926 928 928 928 932 932 937 939 940 940 941 941 942 946 954 955 956 957 963 964 966 968 969 972 973 975 976 977 978 979 980 981 982 984 985 987 988 989 991 992 995 996 997 997 999 1000 1000 1000 1000 997 996 995 992 988 988 987 987 988 989 998 998 998 998 998 998 1012 1024 1024 1025 1026 1030 1035 1045 1046 1046 1048 1051 1054 1058 1058 1058 1060 1060 1063 1064 1068 1072 1076 1077 1083 1092 1092 1092 1087 1087 1083 1083 1083 1090 1095 1098 1099 1101 1102 1104 1104 1104 1105 1105 1106 1109 1111 1112 1116 1117 1119 1124 1133 1170 1213 1299 1500 1750 2030 2056 2074 2074 2074 2074 2074 2078 2086 2089 2089 2089 2089 2086 2083 2083 2083 2084 2086 2091 2091 2091 2090 2089 2086 2084 2083 2083 2082 2081 2081 2076 2071 2070 2070 2069 2066 2062 2059 2058 2057 2057 2057 2056 2055 2054 2053 2049 2049 2049 2057 2060 2066 2067 2067 2067 2065 2063 2062 2062 2059 2057 2057 2057 2056 2056 2051 2046 2041 2041 2041 2055 2069 2076 2077 2080 2081 2084 2085 2085 2085 2083 2080 2080 2080 2080 2080 2078 2075 2066 2055 2055 2055 2057 2059 2060 2065 2067 2067 2079 0
974 974 973 973 968 968 968 970 970 971 971 970 970 971 971 972 973 976 978 980 981 984 985 987 989 992 994 996 998 1001 1002 1004 1006 1009 1011 1014 1016 1019 1019 1021 1025 1029 1033 1035 1037 1040 1045 1047 1050 1055 1060 1063 1066 1069 1072 1077 1080 1084 1091 1099 1107 1109 1117 1131 1152 1179 1193 1195 1204 1239 1282 1325 1460 1503 1523 1545 1585 1601 1603 1606 1607 1607 1606 1583 1576 1576 1576 1590 1597 1621 1698 1752 1779 1782 1971 2183 2332 2403 2476 2554 2581 2593 2593 2595 2595 2595 2600 2623 2647 2667 2685 2685 2685 2693 2693 2693 2695 2695 2708 2708 2708 2708 2708 2706 2697 2697 2697 2712 2712 2712 2690 2679 2679 2679 2690 2707 2730 2753 2760 2766 2784 2787 2788 2790 2790 2790 2785 2775 2775 2775 2785 2791 2796 2815 2840 2855 2859 2866 2868 2868 2880 2886 2887 2889 2889 2890 2890 2889 2889 2887 2887 2887 2889 2889 2889 2887 2887 2879 2879 2879 2896 2911 2919 2924 2924 2924 2919 2919 2917 2914 2902 2885 2885 2885 2898 2931 2954 2956 2956 2954 2943 2943 2943 2966 2985 2989 2999 3021 3030 3037 3044 3048 3052 3082 3093 3114 3131 3154 3175 3175 3175 3179 3179 3174 3174 3168 3168 3168 3171 3196 3196 3196 3192 3172 3170 3162 3157 3157 3152 3135 3109 3078 3051 2950 2738 2428 2367 2316 2274 2227 2092 1936 1789 1662 1513 1369 1116 925 856 827 818 0 0 0 0 0 0 0 0 0 0 0 0 0 0 0 0 0 0 0 0 0 0 0 0 0 0 0 0 0 0 0 0 0 0 0 0 0 0 0 0 0 0 0 0 0 0 0 0 0 0 0 0 0 0 0 0 0 0 0 0 0 0 0 0 845 846 846 846 847 848 857 858 859 861 887 887 887 878 873 872 872 872 872 871 871 871 872 874 874 874 872 864 864 864 868 869 872 876 879 881 883 885 887 888 888 888 888 888 889 890 891 892 892 894 894 895 896 898 898 899 900 901 901 903 904 905 906 907 908 909 910 912 913 914 914 915 915 915 915 915 915 915 913 910 909 905 905 905 906 906 906 906 906 906 906 908 909 925 925 925 925 925 926 930 935 940 941 941 943 947 953 953 955 960 963 965 967 968 969 971 972 974 975 976 977 979 979 981 982 984 985 986 989 989 991 992 993 994 996 997 998 1000 1000 1000 999 999 999 999 999 993 988 988 988 989 998 998 998 998 998 998 1012 1016 1021 1025 1026 1030 1035 1041 1042 1044 1046 1047 1051 1056 1056 1056 1045 1045 1045 1054 1068 1069 1070 1077 1083 1092 1092 1092 1085 1082 1081 1081 1081 1084 1087 1091 1097 1100 1101 1101 1102 1102 1102 1103 1104 1108 1109 1109 1110 1115 1117 1121 1125 1139 1164 1215 1321 1533 1870 2001 2026 2068 2072 2072 2074 2076 2085 2089 2089 2089 2089 2085 2081 2081 2081 2081 2085 2087 2089 2089 2089 2088 2085 2084 2083 2083 2082 2081 2081 2076 2071 2070 2070 2068 2065 2060 2059 2058 2056 2057 2057 2055 2055 2054 2053 2048 2048 2048 2053 2060 2066 2066 2066 2066 2063 2061 2057 2054 2051 2051 2050 2050 2051 2051 2048 2042 2037 2037 2037 2048 2060 2076 2076 2080 2081 2081 2081 2080 2074 2074 2074 2078 2080 2080 2078 2075 2068 2051 2035 2025 2025 2025 2042 2060 2065 2067 2067 2080 0
