931 959 1011 1041 1057 1058 1062 1065 1066 1069 1074 1079 1082 1085 1087 1089 1091 1093 1095 1097 1099 1101 1103 1104 1106 1107 1110 1112 1113 1114 1116 1119 1120 1122 1124 1126 1127 1129 1130 1132 1134 1135 1136 1136 1140 1142 1143 1143 1149 1149 1149 1148 1148 1148 1151 1161 1163 1179 1182 1182 1182 1182 1182 1184 1192 1194 1194 1195 1195 1195 1199 1201 1203 1206 1207 1208 1210 1211 1214 1216 1218 1220 1221 1223 1225 1227 1229 1231 1234 1237 1240 1243 1245 1248 1250 1253 1255 1258 1260 1263 1265 1270 1273 1274 1278 1281 1286 1295 1296 1303 1308 1309 1316 1320 1320 1321 1320 1320 1323 1325 1325 1330 1332 1336 1336 1337 1342 1346 1346 1346 1347 1348 1350 1354 1356 1360 1362 1366 1369 1373 1376 1379 1382 1385 1389 1391 1395 1398 1402 1405 1408 1413 1416 1419 1423 1428 1430 1434 1438 1441 1444 1448 1451 1455 1459 1462 1465 1469 1473 1478 1484 1488 1493 1497 1500 1504 1508 1511 1515 1518 1520 1524 1528 1532 1536 1539 1544 1548 1553 1557 1562 1565 1569 1573 1578 1585 1591 1596 1599 1603 1608 1613 1616 1621 1625 1629 1635 1640 1645 1653 1658 1660 1662 1667 1671 1676 1683 1690 1698 1704 1714 1725 1733 1743 1748 1753 1756 1760 1765 1771 1777 1785 1792 1797 1802 1809 1815 1822 1827 1833 1839 1844 1852 1859 1866 1873 1879 1885 1893 1902 1912 1920 1929 1935 1939 1942 1944 1947 1952 1961 1969 1976 1983 1993 2002 2007 2012 2018 2039 2072 2139 2200 2231 2271 2275 2275 2278 2281 2283 2285 2287 2290 2292 2295 2295 2295 2298 2301 2302 2304 2306 2308 2309 2311 2313 2315 2317 2320 2321 2324 2325 2327 2330 2332 2334 2334 2336 2337 2341 2343 2345 2347 2349 2351 2355 2358 2360 2364 2368 2369 2369 2369 2372 2375 2376 2377 2377 2378 2379 2381 2383 2385 2388 2390 2392 2393 2394 2395 2397 2399 2402 2404 2406 2408 2410 2412 2414 2416 2417 2419 2420 2421 2422 2425 2428 2431 2433 2434 2437 2439 2441 2442 2444 2447 2448 2450 2452 2454 2455 2457 2459 2461 2464 2465 2468 2469 2470 2472 2472 2473 2474 2477 2481 2485 2486 2488 2489 2490 2492 2494 2496 2498 2498 2499 2500 2501 2501 2502 2502 2503 2503 2504 2505 2507 2509 2511 2512 2514 2518 2520 2521 2523 2525 2527 2529 2531 2533 2534 2535 2536 2537 2538 2539 2540 2541 2543 2543 2543 2544 2545 2545 2545 2545 2546 2555 2555 2558 2561 2567 2587 2648 2756 2842 2850 2870 3031 3127 3127 3127 3051 2827 2775 2662 2624 2599 2587 2584 2581 2579 2566 2561 2555 2541 2536 2534 2528 2519 2512 2505 2499 2496 2493 2492 2487 2476 2468 2455 2447 2439 2420 2384 2262 2202 2175 2119 2112 2109 2105 2100 2096 2094 2093 2090 2090 2090 2090 2090 2088 2088 2088 2088 2091 2091 2091 2090 2089 2089 2090 2090 2089 2086 2080 2071 2049 2033 2019 2001 1994 1986 1976 1969 1965 1961 1961 1960 1957 1956 1953 1950 1944 1938 1933 1928 1924 1921 1916 1911 1903 1895 1888 1882 1876 1871 1866 1860 1852 1845 1838 1832 1829 1824 1820 1815 1812 1809 1805 1801 1796 1790 1785 1779 1774 1769 1764 1758 1754 1750 1746 1741 1737 1735 1733 1730 1725 1721 1717 1714 1711 1706 1701 1697 1694 1690 1688 1685 1682 1679 1676 1674 1669 1662 1662 1662 1678 1679 1684 1704 1710 1729 1729 1767 1776 1787 1802 1836 1858
931 959 1011 1042 1057 1058 1061 1062 1064 1069 1074 1077 1080 1085 1086 1089 1091 1093 1095 1097 1099 1100 1102 1104 1106 1108 1110 1112 1113 1115 1116 1119 1120 1122 1124 1125 1127 1129 1130 1132 1134 1135 1136 1136 1140 1142 1143 1143 1153 1153 1153 1149 1149 1149 1151 1161 1163 1179 1185 1185 1185 1182 1182 1182 1183 1185 1185 1187 1192 1195 1199 1201 1203 1206 1207 1208 1210 1211 1214 1216 1218 1220 1221 1223 1225 1226 1229 1231 1234 1237 1240 1242 1245 1247 1250 1253 1255 1258 1260 1262 1265 1269 1272 1274 1278 1281 1285 1291 1295 1301 1303 1306 1306 1307 1311 1312 1314 1316 1319 1320 1323 1326 1328 1330 1332 1334 1339 1341 1344 1345 1346 1346 1349 1351 1355 1358 1362 1365 1368 1371 1375 1378 1381 1385 1387 1391 1395 1398 1402 1405 1408 1412 1416 1419 1423 1427 1430 1433 1437 1440 1444 1447 1450 1453 1457 1461 1465 1468 1471 1475 1480 1484 1489 1494 1499 1503 1506 1510 1513 1516 1518 1521 1526 1531 1536 1539 1543 1547 1551 1554 1558 1563 1567 1572 1576 1584 1588 1592 1595 1598 1605 1609 1614 1617 1622 1625 1629 1636 1643 1649 1653 1656 1658 1663 1667 1673 1676 1682 1697 1702 1711 1724 1733 1743 1749 1753 1756 1760 1765 1771 1776 1784 1791 1797 1802 1807 1812 1819 1826 1832 1839 1844 1850 1857 1864 1870 1877 1885 1893 1902 1912 1920 1929 1935 1939 1943 1944 1948 1958 1965 1973 1980 1987 1997 2004 2009 2016 2029 2056 2091 2142 2202 2231 2269 2273 2274 2277 2280 2283 2285 2288 2290 2294 2295 2295 2297 2298 2301 2303 2304 2306 2308 2310 2311 2313 2315 2317 2319 2321 2323 2325 2327 2330 2332 2334 2335 2336 2337 2340 2342 2345 2347 2349 2351 2353 2358 2360 2364 2368 2368 2369 2369 2372 2374 2375 2375 2377 2377 2379 2381 2383 2385 2388 2390 2392 2393 2394 2395 2397 2399 2402 2405 2406 2408 2410 2412 2413 2415 2417 2419 2420 2421 2422 2425 2428 2431 2433 2434 2436 2439 2441 2443 2444 2446 2448 2450 2453 2455 2456 2457 2459 2461 2464 2465 2468 2469 2471 2474 2474 2474 2476 2479 2485 2485 2486 2488 2489 2490 2492 2494 2496 2498 2499 2499 2500 2501 2502 2502 2503 2503 2503 2504 2505 2507 2509 2511 2512 2516 2518 2520 2522 2524 2526 2529 2529 2532 2534 2535 2537 2538 2539 2539 2540 2541 2542 2543 2543 2544 2545 2545 2545 2545 2545 2545 2555 2555 2560 2563 2567 2595 2648 2741 2818 2826 2836 2853 2901 2901 2901 2893 2769 2742 2647 2624 2601 2596 2591 2585 2579 2566 2561 2554 2541 2536 2534 2527 2518 2510 2505 2499 2496 2493 2492 2487 2476 2466 2454 2447 2440 2429 2397 2279 2225 2180 2119 2109 2109 2105 2100 2096 2094 2092 2090 2090 2090 2090 2090 2088 2088 2088 2088 2090 2090 2090 2090 2089 2089 2090 2090 2089 2086 2080 2070 2049 2033 2019 2003 1997 1986 1976 1970 1965 1960 1960 1958 1957 1956 1953 1948 1943 1938 1933 1928 1924 1921 1916 1911 1903 1895 1888 1879 1872 1868 1863 1858 1851 1845 1838 1833 1829 1826 1820 1815 1812 1809 1805 1801 1798 1792 1787 1782 1776 1771 1766 1760 1755 1751 1746 1741 1737 1735 1733 1730 1725 1721 1718 1715 1711 1706 1701 1697 1694 1690 1687 1684 1682 1677 1675 1674 1669 1662 1659 1659 1659 1660 1660 1661 1661 1662 1662 1694 1715 1732 1757 1774 1801
931 959 1020 1042 1054 1055 1057 1057 1064 1070 1074 1077 1080 1083 1086 1089 1091 1093 1095 1096 1098 1100 1102 1104 1106 1108 1110 1112 1113 1115 1117 1119 1120 1122 1124 1125 1127 1128 1130 1132 1133 1135 1136 1136 1140 1143 1143 1144 1161 1161 1161 1157 1155 1155 1155 1163 1165 1179 1185 1185 1185 1180 1180 1180 1181 1185 1185 1187 1191 1194 1199 1201 1203 1206 1207 1208 1210 1211 1214 1215 1218 1219 1221 1222 1224 1226 1228 1231 1234 1237 1239 1242 1245 1247 1250 1252 1255 1257 1260 1261 1265 1268 1271 1274 1277 1280 1283 1287 1292 1295 1298 1301 1303 1305 1307 1310 1313 1315 1316 1318 1320 1325 1326 1328 1330 1332 1335 1337 1340 1341 1342 1345 1347 1350 1354 1358 1361 1364 1368 1371 1374 1377 1380 1383 1387 1390 1394 1397 1402 1405 1408 1412 1416 1419 1423 1426 1430 1433 1437 1440 1443 1446 1449 1452 1455 1458 1461 1466 1469 1473 1476 1480 1486 1491 1496 1500 1505 1508 1510 1513 1516 1519 1525 1529 1534 1538 1541 1545 1548 1552 1556 1561 1565 1569 1575 1581 1585 1588 1591 1594 1603 1609 1612 1617 1622 1624 1629 1631 1637 1641 1647 1648 1648 1649 1648 1648 1648 1649 1671 1686 1701 1714 1731 1743 1749 1752 1759 1760 1765 1771 1776 1784 1791 1797 1802 1807 1812 1819 1826 1832 1839 1844 1850 1857 1864 1870 1872 1881 1894 1904 1912 1920 1929 1935 1939 1943 1945 1955 1964 1977 1986 1993 2007 2018 2024 2035 2053 2071 2079 2107 2163 2204 2255 2268 2269 2272 2276 2279 2283 2286 2288 2290 2294 2295 2296 2297 2299 2301 2304 2306 2307 2309 2310 2311 2313 2315 2317 2319 2321 2323 2325 2327 2330 2332 2335 2336 2336 2337 2340 2342 2346 2347 2349 2351 2353 2357 2360 2361 2363 2365 2365 2368 2371 2371 2373 2375 2376 2377 2378 2381 2382 2384 2387 2390 2392 2393 2395 2396 2398 2400 2403 2405 2406 2408 2410 2411 2413 2415 2417 2419 2421 2421 2422 2425 2428 2431 2433 2434 2436 2438 2441 2443 2444 2446 2448 2450 2453 2455 2456 2457 2458 2461 2464 2465 2468 2469 2472 2474 2474 2475 2478 2482 2485 2485 2486 2488 2489 2490 2492 2494 2496 2498 2499 2499 2500 2501 2502 2503 2503 2503 2503 2504 2505 2507 2509 2511 2512 2516 2519 2520 2523 2524 2526 2530 2531 2533 2534 2536 2537 2539 2540 2541 2543 2543 2544 2544 2545 2545 2545 2546 2546 2546 2546 2546 2554 2555 2560 2563 2584 2595 2650 2735 2770 2793 2814 2826 2826 2826 2824 2801 2747 2701 2644 2622 2604 2596 2591 2583 2570 2565 2561 2554 2541 2536 2533 2527 2518 2509 2501 2497 2495 2493 2492 2487 2476 2466 2454 2447 2441 2434 2415 2293 2235 2185 2119 2109 2109 2105 2100 2096 2093 2092 2090 2090 2090 2090 2089 2089 2089 2089 2089 2089 2089 2089 2089 2089 2089 2090 2090 2089 2088 2080 2070 2049 2033 2019 2007 1999 1987 1977 1970 1965 1960 1957 1957 1956 1955 1952 1948 1943 1938 1933 1928 1924 1919 1915 1907 1901 1893 1886 1878 1872 1867 1861 1858 1851 1845 1838 1834 1831 1827 1822 1816 1812 1808 1805 1801 1798 1794 1789 1784 1780 1774 1767 1761 1758 1751 1746 1741 1737 1735 1733 1729 1725 1722 1719 1716 1712 1707 1702 1697 1693 1690 1687 1684 1680 1676 1673 1673 1669 1662 1660 1659 1655 1646 1646 1645 1645 1646 1648 1648 1669 1689 1709 1727 1754
970 971 1053 1055 1055 1055 1055 1055 1064 1072 1075 1077 1080 1083 1086 1089 1091 1093 1094 1096 1098 1100 1102 1104 1107 1108 1110 1112 1114 1115 1117 1119 1120 1122 1123 1125 1126 1128 1130 1131 1133 1135 1136 1136 1140 1143 1144 1147 1161 1161 1161 1158 1155 1155 1155 1162 1163 1164 1164 1166 1174 1178 1180 1180 1181 1182 1185 1187 1190 1192 1196 1199 1201 1204 1205 1208 1210 1211 1213 1215 1217 1218 1220 1221 1223 1225 1228 1231 1233 1237 1239 1242 1244 1247 1249 1252 1254 1256 1259 1261 1265 1267 1270 1273 1276 1279 1282 1286 1290 1293 1297 1299 1302 1305 1306 1309 1312 1314 1316 1317 1319 1322 1324 1326 1327 1329 1331 1333 1336 1338 1340 1343 1346 1349 1353 1357 1361 1364 1367 1370 1374 1376 1379 1382 1386 1389 1392 1396 1399 1403 1408 1412 1416 1419 1422 1425 1429 1433 1437 1440 1443 1446 1449 1451 1454 1457 1459 1463 1467 1471 1474 1478 1483 1489 1495 1499 1502 1506 1509 1513 1516 1519 1523 1529 1533 1535 1540 1543 1547 1551 1555 1559 1563 1567 1572 1576 1581 1583 1587 1591 1601 1605 1609 1617 1622 1623 1624 1625 1630 1634 1634 1634 1621 1610 1597 1578 1578 1578 1586 1613 1642 1669 1699 1725 1748 1752 1759 1760 1764 1774 1776 1784 1791 1799 1804 1807 1812 1819 1826 1832 1840 1844 1850 1856 1861 1870 1872 1881 1894 1905 1912 1920 1929 1935 1939 1943 1970 1991 2004 2023 2046 2079 2089 2099 2107 2112 2127 2129 2157 2205 2243 2262 2266 2268 2269 2272 2276 2279 2283 2286 2289 2290 2294 2295 2296 2298 2302 2303 2304 2306 2309 2310 2311 2311 2313 2315 2317 2319 2321 2323 2325 2327 2330 2333 2335 2336 2337 2337 2340 2342 2346 2348 2349 2351 2353 2356 2360 2361 2361 2362 2365 2368 2369 2370 2372 2374 2376 2377 2378 2380 2381 2383 2385 2389 2392 2393 2395 2398 2400 2401 2404 2406 2406 2408 2409 2411 2413 2416 2417 2420 2421 2421 2421 2425 2428 2431 2434 2434 2436 2438 2441 2443 2445 2446 2448 2451 2454 2456 2456 2457 2458 2461 2464 2466 2468 2470 2474 2474 2475 2475 2480 2484 2485 2486 2487 2488 2489 2490 2492 2494 2496 2498 2499 2500 2500 2501 2502 2503 2503 2503 2503 2505 2506 2508 2509 2510 2513 2516 2519 2521 2524 2526 2527 2531 2532 2534 2536 2536 2537 2539 2540 2541 2543 2544 2544 2545 2545 2545 2546 2547 2547 2547 2547 2547 2549 2549 2558 2563 2584 2595 2650 2732 2756 2762 2770 2777 2789 2789 2784 2777 2734 2684 2639 2622 2604 2596 2591 2577 2567 2562 2557 2552 2541 2535 2532 2526 2518 2509 2501 2497 2495 2493 2490 2485 2476 2466 2454 2449 2449 2441 2415 2305 2239 2195 2120 2109 2109 2098 2096 2095 2093 2092 2090 2090 2090 2089 2089 2089 2089 2089 2089 2089 2089 2089 2088 2088 2088 2088 2088 2088 2088 2081 2071 2059 2042 2027 2012 1999 1987 1978 1971 1965 1960 1957 1957 1956 1955 1952 1948 1943 1939 1934 1928 1923 1918 1912 1907 1900 1892 1885 1878 1872 1867 1861 1858 1851 1845 1839 1836 1833 1828 1823 1817 1812 1808 1803 1800 1798 1794 1790 1786 1781 1776 1773 1766 1761 1753 1746 1741 1739 1735 1733 1729 1725 1723 1721 1717 1713 1708 1702 1697 1693 1690 1687 1684 1679 1676 1672 1672 1669 1663 1660 1656 1652 1643 1639 1638 1635 1638 1639 1643 1652 1657 1662 1681 1704
1027 1047 1053 1055 1055 1055 1055 1055 1067 1072 1076 1079 1081 1083 1086 1089 1091 1093 1094 1096 1098 1100 1102 1104 1107 1108 1110 1112 1114 1116 1118 1119 1120 1121 1122 1125 1126 1128 1129 1131 1132 1135 1136 1136 1140 1142 1145 1147 1161 1161 1161 1158 1158 1158 1159 1161 1162 1163 1164 1166 1172 1175 1178 1180 1182 1184 1185 1186 1189 1192 1196 1199 1201 1203 1205 1208 1209 1211 1213 1215 1216 1217 1219 1221 1223 1225 1228 1231 1233 1236 1238 1242 1244 1247 1249 1251 1253 1255 1258 1261 1264 1267 1270 1272 1275 1278 1281 1286 1290 1292 1296 1298 1301 1304 1306 1308 1311 1312 1314 1315 1317 1321 1323 1325 1326 1329 1331 1332 1335 1337 1339 1342 1345 1348 1352 1357 1360 1363 1366 1369 1372 1374 1378 1382 1385 1388 1392 1395 1398 1403 1407 1412 1416 1419 1422 1424 1429 1432 1435 1439 1442 1446 1448 1450 1453 1455 1458 1461 1466 1470 1474 1478 1483 1487 1493 1498 1501 1505 1509 1512 1515 1518 1523 1527 1531 1535 1538 1541 1545 1550 1553 1557 1560 1564 1568 1573 1576 1579 1583 1589 1595 1598 1607 1614 1619 1619 1619 1619 1619 1614 1606 1583 1565 1535 1535 1535 1539 1554 1573 1587 1596 1616 1635 1665 1701 1730 1759 1760 1763 1773 1774 1786 1799 1806 1812 1815 1818 1824 1830 1836 1842 1846 1849 1855 1860 1867 1871 1879 1894 1902 1922 1947 1957 1969 1990 2024 2068 2092 2104 2119 2131 2131 2133 2135 2140 2144 2182 2192 2245 2258 2262 2263 2267 2268 2269 2273 2276 2279 2284 2288 2290 2292 2293 2295 2296 2299 2302 2304 2305 2307 2309 2312 2312 2312 2313 2316 2317 2319 2321 2323 2326 2328 2330 2333 2335 2336 2337 2338 2341 2344 2347 2348 2350 2351 2353 2356 2360 2361 2361 2362 2365 2366 2369 2370 2372 2373 2374 2375 2377 2379 2379 2381 2385 2389 2392 2395 2399 2401 2401 2403 2405 2406 2407 2408 2409 2411 2413 2416 2417 2420 2421 2421 2421 2425 2428 2431 2434 2435 2436 2438 2441 2443 2445 2446 2448 2451 2454 2456 2456 2457 2458 2461 2464 2466 2468 2471 2474 2475 2475 2476 2481 2484 2486 2486 2487 2488 2489 2490 2493 2494 2496 2499 2499 2500 2501 2501 2502 2503 2503 2503 2504 2505 2507 2509 2510 2511 2514 2517 2519 2521 2524 2529 2531 2531 2532 2535 2536 2537 2538 2539 2541 2542 2543 2544 2544 2545 2545 2546 2546 2547 2547 2547 2548 2548 2549 2549 2558 2566 2584 2597 2654 2732 2755 2757 2757 2757 2735 2727 2725 2725 2717 2674 2630 2613 2604 2596 2587 2577 2566 2559 2556 2548 2538 2534 2530 2524 2517 2509 2500 2497 2495 2491 2487 2481 2476 2466 2458 2452 2449 2441 2415 2307 2249 2204 2122 2109 2107 2098 2096 2095 2093 2093 2092 2091 2089 2089 2089 2089 2089 2089 2089 2089 2089 2088 2087 2086 2086 2086 2086 2086 2086 2081 2071 2059 2045 2029 2012 1999 1988 1979 1972 1966 1960 1957 1957 1956 1955 1952 1949 1945 1940 1934 1928 1923 1918 1912 1907 1900 1892 1885 1878 1872 1867 1861 1858 1854 1848 1842 1837 1833 1828 1823 1818 1813 1807 1802 1799 1797 1794 1790 1786 1781 1776 1773 1768 1763 1754 1746 1742 1740 1735 1732 1729 1725 1723 1721 1717 1713 1708 1703 1697 1693 1690 1686 1683 1679 1676 1672 1670 1668 1663 1660 1656 1650 1642 1635 1631 1630 1630 1630 1631 1641 1641 1642 1644 1646
1053 1058 1058 1059 1059 1059 1059 1059 1067 1072 1076 1079 1081 1084 1087 1089 1091 1093 1094 1096 1098 1100 1102 1104 1106 1108 1110 1112 1114 1116 1118 1118 1120 1121 1122 1124 1126 1128 1129 1131 1132 1134 1135 1136 1139 1142 1145 1147 1150 1152 1157 1157 1158 1158 1159 1161 1162 1163 1164 1166 1172 1175 1178 1180 1181 1184 1185 1187 1189 1192 1196 1198 1201 1203 1204 1206 1208 1211 1213 1215 1216 1217 1219 1221 1223 1225 1227 1230 1233 1236 1238 1241 1244 1247 1248 1250 1253 1255 1258 1261 1264 1267 1270 1272 1275 1277 1280 1283 1288 1292 1294 1296 1299 1302 1305 1307 1308 1309 1311 1313 1316 1319 1322 1323 1325 1327 1329 1331 1334 1336 1338 1340 1344 1348 1352 1356 1359 1361 1365 1368 1371 1374 1378 1382 1385 1388 1391 1394 1397 1401 1407 1411 1415 1419 1421 1424 1427 1431 1434 1438 1441 1444 1447 1450 1452 1454 1457 1460 1465 1469 1473 1478 1483 1487 1491 1496 1500 1504 1508 1511 1514 1516 1521 1527 1531 1533 1536 1539 1542 1547 1551 1554 1557 1560 1565 1568 1571 1574 1578 1585 1588 1594 1604 1610 1617 1617 1617 1604 1572 1544 1523 1504 1503 1503 1503 1510 1526 1532 1537 1557 1578 1602 1617 1634 1661 1682 1703 1743 1763 1772 1774 1786 1799 1806 1814 1830 1840 1847 1850 1850 1850 1852 1852 1852 1855 1863 1868 1879 1894 1895 1922 1969 2006 2069 2087 2124 2139 2158 2186 2194 2206 2215 2219 2229 2230 2232 2247 2254 2258 2259 2262 2263 2267 2269 2273 2275 2278 2282 2286 2288 2290 2293 2293 2295 2297 2299 2302 2304 2305 2307 2309 2312 2312 2312 2315 2316 2318 2320 2322 2324 2327 2328 2330 2333 2334 2336 2337 2339 2342 2346 2347 2349 2350 2352 2353 2356 2358 2361 2361 2362 2365 2366 2368 2370 2372 2373 2374 2375 2377 2379 2379 2381 2385 2389 2395 2399 2399 2401 2404 2404 2406 2408 2408 2409 2409 2411 2416 2417 2419 2420 2420 2421 2421 2425 2429 2432 2434 2435 2436 2438 2440 2443 2445 2446 2448 2451 2454 2456 2456 2457 2458 2462 2464 2466 2468 2473 2475 2475 2475 2477 2481 2485 2487 2488 2489 2491 2491 2492 2494 2496 2497 2499 2501 2501 2502 2502 2503 2503 2503 2504 2504 2507 2509 2510 2511 2511 2514 2519 2521 2521 2526 2530 2531 2532 2533 2535 2538 2539 2539 2541 2541 2542 2543 2544 2545 2546 2547 2548 2548 2549 2549 2549 2549 2549 2549 2549 2560 2568 2584 2597 2654 2732 2754 2754 2754 2748 2731 2722 2718 2708 2699 2666 2618 2600 2595 2594 2582 2577 2566 2557 2554 2544 2535 2531 2527 2521 2515 2508 2500 2497 2495 2491 2485 2479 2473 2466 2459 2453 2449 2441 2406 2314 2263 2204 2128 2109 2107 2098 2096 2094 2093 2093 2092 2091 2089 2089 2089 2089 2089 2089 2089 2089 2089 2087 2087 2085 2085 2085 2084 2083 2083 2081 2070 2061 2047 2030 2014 1999 1990 1983 1976 1967 1962 1958 1958 1957 1955 1952 1950 1946 1940 1935 1928 1923 1918 1912 1907 1900 1892 1885 1878 1872 1868 1865 1863 1858 1851 1844 1838 1833 1828 1824 1818 1813 1807 1802 1799 1796 1793 1790 1786 1781 1776 1773 1768 1763 1755 1749 1744 1740 1736 1732 1729 1725 1723 1721 1717 1713 1708 1703 1697 1693 1690 1686 1683 1679 1676 1672 1670 1667 1664 1660 1655 1649 1642 1635 1631 1630 1630 1630 1631 1636 1636 1636 1636 1635
1047 1088 1080 1067 1067 1068 1067 1067 1068 1070 1076 1079 1081 1084 1087 1088 1091 1093 1094 1096 1098 1100 1102 1104 1106 1108 1110 1112 1114 1116 1118 1118 1120 1121 1122 1124 1126 1128 1129 1130 1132 1134 1135 1136 1139 1141 1145 1147 1150 1151 1155 1157 1157 1158 1159 1162 1163 1166 1168 1171 1172 1175 1177 1180 1181 1183 1185 1187 1189 1192 1195 1198 1200 1202 1204 1206 1208 1210 1212 1214 1216 1217 1219 1221 1223 1225 1227 1230 1232 1235 1237 1241 1243 1246 1248 1250 1252 1255 1258 1261 1264 1267 1269 1272 1274 1277 1280 1283 1286 1289 1292 1295 1298 1301 1304 1306 1307 1308 1310 1312 1315 1318 1321 1322 1324 1326 1328 1331 1333 1335 1337 1340 1343 1347 1350 1354 1357 1361 1365 1368 1371 1374 1378 1381 1384 1387 1390 1393 1397 1400 1406 1410 1415 1418 1421 1423 1427 1431 1433 1436 1439 1443 1446 1448 1451 1454 1457 1460 1465 1469 1473 1477 1482 1486 1490 1495 1499 1504 1507 1510 1513 1516 1521 1527 1530 1532 1534 1537 1541 1544 1547 1550 1552 1555 1560 1562 1564 1565 1572 1578 1584 1594 1598 1598 1598 1595 1581 1569 1531 1510 1495 1484 1477 1474 1474 1474 1480 1485 1488 1505 1532 1554 1588 1615 1646 1659 1664 1677 1709 1751 1768 1786 1799 1806 1814 1830 1840 1847 1850 1850 1850 1848 1846 1842 1842 1842 1866 1879 1893 1894 1922 1969 2006 2069 2087 2124 2139 2188 2205 2215 2228 2238 2240 2240 2244 2249 2257 2260 2260 2260 2264 2265 2267 2272 2277 2279 2282 2285 2288 2289 2291 2293 2293 2295 2298 2300 2302 2304 2305 2307 2309 2312 2312 2313 2316 2317 2320 2324 2325 2327 2329 2330 2330 2333 2334 2336 2337 2340 2343 2346 2348 2349 2350 2351 2352 2355 2358 2361 2362 2362 2365 2368 2368 2370 2372 2373 2374 2375 2377 2379 2379 2381 2386 2394 2398 2399 2401 2403 2404 2405 2408 2412 2413 2415 2415 2416 2417 2418 2419 2420 2420 2421 2421 2427 2432 2433 2435 2435 2437 2439 2440 2443 2443 2444 2448 2452 2455 2457 2457 2459 2460 2463 2465 2466 2470 2475 2475 2477 2477 2477 2483 2485 2488 2489 2491 2492 2493 2493 2494 2497 2499 2499 2501 2503 2505 2505 2505 2505 2505 2505 2506 2508 2509 2510 2511 2512 2516 2519 2522 2522 2526 2530 2531 2533 2534 2536 2539 2540 2542 2543 2545 2545 2546 2546 2547 2547 2547 2548 2548 2550 2551 2551 2551 2552 2557 2559 2565 2568 2584 2597 2680 2731 2747 2747 2747 2738 2729 2717 2701 2683 2671 2654 2612 2598 2595 2594 2582 2577 2565 2554 2547 2539 2531 2529 2526 2519 2514 2507 2500 2497 2495 2490 2484 2477 2472 2466 2461 2454 2445 2430 2398 2314 2269 2204 2128 2113 2109 2098 2098 2094 2093 2093 2092 2091 2089 2089 2089 2089 2089 2089 2089 2088 2088 2087 2086 2085 2084 2083 2082 2082 2079 2073 2069 2061 2047 2030 2017 2000 1992 1985 1977 1969 1963 1960 1960 1958 1956 1954 1951 1946 1941 1936 1929 1923 1918 1913 1908 1901 1892 1885 1878 1874 1870 1870 1866 1860 1853 1846 1839 1835 1829 1824 1818 1813 1807 1802 1799 1796 1793 1790 1786 1781 1776 1772 1768 1763 1755 1751 1747 1740 1736 1732 1729 1725 1724 1720 1717 1713 1708 1702 1697 1693 1690 1686 1683 1680 1677 1673 1670 1667 1664 1660 1655 1649 1642 1636 1631 1630 1630 1630 1631 1636 1636 1636 1634 1630
1036 1074 1068 1068 1069 1070 1069 1070 1070 1071 1075 1079 1082 1084 1086 1088 1091 1093 1094 1096 1098 1100 1102 1104 1106 1108 1110 1112 1114 1116 1118 1118 1120 1121 1122 1124 1126 1127 1129 1130 1132 1134 1135 1137 1139 1141 1145 1146 1149 1150 1154 1155 1157 1158 1160 1162 1163 1167 1168 1171 1172 1175 1177 1180 1181 1183 1185 1187 1189 1192 1195 1197 1200 1202 1203 1205 1208 1210 1212 1214 1216 1217 1219 1221 1223 1225 1227 1230 1232 1234 1237 1239 1242 1244 1247 1249 1252 1255 1258 1261 1263 1266 1269 1271 1274 1276 1279 1282 1284 1288 1291 1294 1297 1299 1301 1303 1306 1307 1309 1312 1315 1317 1319 1321 1323 1326 1328 1330 1333 1335 1337 1340 1343 1346 1348 1352 1355 1359 1364 1367 1370 1373 1377 1380 1384 1387 1390 1393 1397 1399 1405 1410 1414 1418 1420 1423 1427 1431 1433 1436 1439 1443 1445 1448 1451 1454 1457 1460 1465 1469 1473 1477 1482 1485 1489 1493 1498 1502 1506 1509 1512 1515 1521 1526 1529 1531 1533 1535 1539 1542 1544 1546 1549 1550 1552 1557 1557 1558 1561 1573 1583 1584 1586 1586 1586 1580 1571 1554 1513 1484 1469 1461 1456 1454 1454 1454 1458 1461 1469 1479 1494 1512 1529 1564 1599 1633 1642 1657 1678 1692 1703 1720 1773 1797 1814 1830 1840 1847 1850 1850 1850 1848 1823 1772 1757 1752 1752 1752 1793 1856 1866 1969 2006 2069 2087 2124 2142 2191 2205 2228 2241 2243 2243 2244 2245 2249 2257 2260 2263 2263 2265 2266 2267 2274 2280 2284 2288 2289 2290 2290 2292 2294 2294 2296 2298 2301 2302 2305 2306 2307 2309 2312 2315 2315 2317 2319 2322 2324 2327 2327 2329 2331 2332 2333 2334 2336 2337 2341 2343 2347 2348 2349 2351 2352 2352 2355 2358 2362 2365 2365 2365 2368 2369 2371 2373 2373 2374 2376 2378 2380 2381 2383 2390 2397 2399 2400 2401 2404 2405 2406 2409 2412 2415 2415 2416 2416 2419 2420 2421 2421 2421 2421 2421 2428 2432 2434 2435 2436 2437 2439 2440 2443 2443 2444 2448 2453 2455 2457 2458 2460 2463 2466 2469 2470 2475 2475 2476 2477 2477 2478 2483 2486 2488 2491 2492 2493 2493 2493 2494 2498 2499 2501 2504 2505 2506 2507 2507 2507 2508 2509 2509 2509 2510 2514 2515 2516 2517 2520 2522 2523 2526 2530 2533 2533 2534 2538 2540 2541 2542 2546 2548 2550 2551 2551 2551 2550 2549 2549 2549 2550 2552 2552 2553 2554 2558 2563 2570 2579 2589 2631 2680 2715 2715 2715 2712 2710 2709 2696 2674 2653 2642 2625 2607 2598 2593 2592 2582 2577 2566 2554 2547 2537 2529 2528 2525 2519 2512 2506 2500 2498 2494 2490 2483 2475 2470 2465 2461 2453 2441 2423 2398 2314 2276 2198 2128 2113 2109 2102 2098 2094 2093 2093 2093 2093 2089 2089 2089 2089 2089 2089 2089 2088 2087 2087 2086 2085 2083 2081 2081 2080 2076 2070 2067 2059 2045 2030 2019 2000 1992 1986 1978 1969 1964 1962 1961 1960 1959 1956 1952 1947 1942 1936 1930 1924 1919 1913 1908 1902 1894 1887 1880 1876 1873 1870 1866 1860 1853 1846 1841 1836 1830 1825 1818 1810 1806 1802 1799 1796 1793 1790 1786 1780 1774 1769 1765 1760 1755 1751 1747 1741 1736 1732 1729 1726 1724 1720 1717 1711 1707 1703 1697 1693 1690 1686 1683 1680 1677 1673 1670 1667 1664 1661 1655 1649 1643 1638 1636 1636 1636 1634 1634 1637 1634 1634 1634 1630
1018 1046 1046 1046 1068 1071 1071 1071 1072 1074 1075 1079 1082 1084 1086 1088 1091 1092 1094 1096 1098 1100 1103 1104 1106 1108 1110 1112 1114 1116 1117 1118 1119 1121 1122 1124 1126 1127 1129 1130 1132 1134 1135 1137 1139 1141 1144 1146 1149 1150 1152 1154 1155 1157 1160 1162 1164 1167 1169 1171 1172 1175 1177 1179 1181 1183 1185 1187 1189 1192 1195 1197 1200 1201 1203 1205 1208 1210 1212 1214 1216 1218 1219 1221 1223 1225 1227 1230 1232 1234 1237 1239 1242 1244 1246 1249 1251 1255 1257 1261 1263 1266 1268 1271 1274 1276 1278 1281 1284 1287 1290 1292 1296 1298 1301 1302 1304 1307 1309 1311 1313 1316 1318 1321 1323 1326 1328 1330 1333 1335 1337 1340 1343 1346 1348 1351 1355 1358 1363 1367 1370 1373 1376 1380 1384 1388 1390 1393 1396 1399 1404 1409 1414 1418 1420 1423 1427 1431 1433 1436 1439 1442 1445 1448 1451 1454 1457 1461 1465 1469 1473 1477 1482 1485 1488 1492 1497 1501 1504 1507 1511 1515 1521 1526 1529 1531 1532 1534 1537 1539 1542 1544 1546 1547 1549 1550 1552 1552 1557 1570 1572 1573 1573 1573 1570 1556 1537 1507 1482 1463 1452 1447 1442 1442 1442 1445 1449 1454 1462 1471 1484 1498 1509 1517 1546 1583 1611 1634 1662 1674 1684 1692 1710 1721 1731 1745 1761 1771 1771 1771 1763 1740 1718 1705 1705 1705 1712 1719 1754 1785 1819 1849 1932 2031 2087 2113 2142 2191 2205 2238 2246 2246 2246 2246 2246 2253 2258 2260 2264 2265 2267 2268 2270 2278 2286 2291 2294 2294 2294 2294 2294 2294 2296 2299 2304 2305 2306 2308 2309 2311 2312 2312 2316 2316 2319 2322 2325 2327 2327 2330 2333 2334 2335 2335 2337 2339 2341 2343 2345 2347 2349 2351 2351 2352 2353 2355 2360 2364 2367 2368 2368 2369 2371 2373 2374 2375 2376 2377 2387 2391 2391 2393 2394 2398 2400 2400 2401 2404 2406 2407 2410 2412 2417 2417 2417 2420 2421 2421 2421 2421 2422 2423 2424 2428 2433 2435 2436 2436 2437 2444 2444 2444 2444 2444 2448 2453 2458 2464 2466 2468 2470 2471 2472 2473 2478 2480 2480 2481 2483 2485 2487 2489 2490 2491 2493 2496 2497 2498 2501 2504 2506 2506 2506 2507 2507 2508 2508 2509 2510 2511 2512 2512 2513 2515 2519 2519 2520 2522 2523 2525 2528 2531 2533 2535 2537 2539 2540 2541 2543 2546 2548 2551 2551 2551 2551 2552 2552 2552 2552 2553 2554 2554 2554 2556 2559 2564 2572 2581 2596 2631 2680 2693 2695 2704 2704 2704 2700 2693 2669 2642 2626 2613 2604 2598 2593 2592 2582 2577 2566 2554 2546 2537 2529 2526 2524 2519 2512 2505 2500 2497 2494 2490 2482 2473 2469 2465 2459 2452 2440 2421 2397 2314 2276 2198 2128 2113 2109 2104 2099 2096 2093 2093 2093 2093 2089 2089 2089 2089 2089 2089 2088 2088 2087 2087 2086 2085 2082 2081 2080 2079 2072 2065 2058 2056 2042 2029 2019 2005 1994 1987 1980 1973 1967 1963 1963 1962 1960 1956 1952 1947 1942 1937 1932 1926 1921 1914 1908 1903 1897 1888 1883 1878 1873 1870 1866 1860 1853 1846 1841 1836 1830 1825 1818 1810 1806 1802 1799 1796 1793 1790 1786 1780 1774 1769 1765 1760 1755 1751 1747 1743 1737 1733 1730 1727 1724 1719 1715 1711 1706 1703 1698 1694 1690 1687 1683 1680 1678 1674 1671 1670 1667 1664 1658 1649 1644 1641 1641 1640 1640 1639 1637 1637 1636 1634 1634 1630
996 1044 1044 1044 1068 1070 1071 1074 1074 1075 1076 1079 1082 1084 1086 1088 1090 1092 1094 1096 1098 1101 1103 1104 1106 1108 1110 1111 1113 1115 1117 1118 1119 1121 1122 1124 1126 1127 1128 1130 1132 1134 1136 1137 1139 1142 1144 1147 1150 1151 1152 1154 1155 1157 1160 1162 1165 1167 1169 1171 1172 1175 1177 1179 1181 1183 1185 1187 1189 1192 1194 1196 1199 1201 1203 1205 1207 1209 1211 1214 1216 1218 1219 1221 1223 1225 1227 1230 1232 1234 1237 1239 1241 1244 1246 1248 1251 1255 1257 1260 1263 1265 1268 1270 1273 1275 1278 1280 1283 1286 1289 1292 1295 1297 1299 1301 1304 1306 1308 1310 1312 1315 1318 1320 1323 1326 1328 1330 1333 1334 1337 1340 1343 1346 1348 1351 1355 1358 1363 1367 1370 1373 1376 1380 1384 1387 1391 1393 1396 1399 1404 1409 1413 1417 1420 1423 1428 1431 1433 1436 1439 1442 1445 1448 1451 1455 1457 1462 1467 1470 1474 1477 1482 1485 1488 1492 1496 1500 1504 1507 1511 1515 1521 1525 1528 1530 1532 1534 1536 1537 1540 1541 1543 1545 1547 1547 1547 1550 1554 1559 1559 1559 1553 1551 1542 1526 1499 1480 1465 1457 1450 1445 1439 1439 1439 1442 1447 1450 1457 1466 1475 1483 1492 1502 1527 1554 1569 1586 1608 1632 1658 1671 1681 1694 1701 1719 1734 1742 1742 1742 1738 1715 1699 1687 1683 1680 1680 1683 1684 1706 1733 1769 1818 1894 1972 2077 2133 2191 2196 2238 2246 2249 2249 2255 2255 2256 2260 2266 2267 2268 2270 2274 2278 2284 2291 2293 2295 2299 2299 2300 2300 2301 2308 2308 2309 2309 2312 2314 2316 2319 2325 2327 2327 2327 2327 2327 2328 2329 2331 2334 2336 2337 2337 2338 2340 2343 2347 2351 2353 2355 2356 2359 2362 2362 2363 2364 2367 2368 2370 2372 2375 2377 2378 2378 2379 2379 2382 2386 2392 2395 2398 2400 2400 2402 2404 2404 2406 2409 2414 2417 2419 2420 2420 2421 2423 2426 2427 2428 2429 2430 2431 2433 2435 2438 2439 2439 2440 2442 2447 2451 2453 2453 2454 2455 2456 2459 2463 2468 2471 2476 2476 2476 2477 2478 2481 2484 2485 2486 2486 2487 2489 2490 2492 2493 2495 2498 2500 2502 2503 2505 2506 2506 2507 2508 2508 2509 2509 2510 2510 2511 2512 2513 2514 2517 2519 2521 2523 2523 2524 2526 2528 2530 2533 2535 2537 2540 2540 2542 2543 2546 2548 2551 2551 2551 2552 2553 2553 2553 2554 2554 2554 2554 2554 2559 2560 2565 2573 2582 2596 2631 2666 2679 2694 2699 2699 2699 2699 2689 2668 2642 2625 2611 2603 2598 2593 2592 2582 2574 2571 2564 2546 2537 2529 2526 2524 2519 2512 2504 2500 2497 2494 2488 2480 2473 2467 2465 2459 2452 2437 2421 2397 2315 2277 2198 2128 2113 2109 2105 2100 2099 2093 2093 2093 2092 2089 2088 2088 2088 2088 2088 2088 2088 2087 2086 2086 2084 2082 2081 2080 2077 2071 2062 2056 2056 2042 2029 2019 2007 1995 1988 1981 1976 1972 1968 1967 1963 1960 1957 1952 1947 1943 1939 1933 1927 1922 1917 1911 1905 1897 1890 1885 1878 1874 1870 1866 1860 1851 1846 1841 1836 1831 1825 1818 1810 1806 1802 1799 1796 1793 1790 1786 1780 1774 1769 1765 1759 1755 1751 1747 1744 1741 1736 1732 1727 1724 1719 1714 1710 1706 1703 1699 1694 1691 1687 1684 1680 1678 1675 1672 1670 1667 1664 1660 1652 1645 1642 1642 1641 1641 1639 1637 1637 1636 1636 1636 1634
988 1032 1032 1044 1070 1072 1072 1079 1079 1079 1079 1079 1081 1084 1085 1087 1090 1092 1094 1096 1098 1101 1103 1104 1106 1108 1109 1111 1113 1115 1117 1118 1119 1121 1122 1124 1125 1127 1128 1130 1132 1134 1136 1137 1139 1142 1145 1148 1150 1152 1152 1154 1155 1157 1160 1162 1165 1167 1169 1171 1172 1175 1176 1178 1181 1183 1184 1187 1188 1190 1192 1195 1198 1200 1202 1204 1207 1209 1211 1213 1216 1217 1219 1221 1223 1225 1227 1230 1232 1234 1237 1238 1241 1243 1245 1248 1251 1254 1257 1260 1263 1265 1268 1270 1273 1275 1277 1280 1283 1286 1288 1291 1294 1297 1299 1301 1303 1306 1308 1309 1311 1314 1318 1320 1323 1325 1328 1330 1332 1334 1337 1340 1343 1345 1348 1351 1355 1358 1363 1367 1370 1373 1376 1380 1384 1387 1391 1393 1396 1400 1404 1409 1413 1417 1419 1423 1428 1431 1433 1436 1439 1443 1445 1448 1451 1455 1458 1463 1467 1471 1474 1477 1482 1485 1488 1492 1496 1500 1504 1507 1511 1516 1520 1523 1526 1529 1531 1534 1535 1537 1538 1538 1540 1543 1546 1546 1547 1547 1550 1550 1550 1544 1536 1532 1523 1504 1487 1471 1457 1454 1449 1444 1437 1437 1437 1440 1445 1448 1455 1463 1471 1475 1480 1483 1497 1522 1542 1569 1583 1593 1610 1629 1648 1661 1664 1668 1669 1671 1680 1683 1683 1683 1674 1657 1650 1647 1641 1641 1641 1651 1669 1698 1747 1797 1859 1933 2050 2135 2195 2213 2238 2255 2258 2258 2260 2261 2262 2270 2271 2274 2284 2288 2288 2291 2293 2296 2298 2301 2304 2304 2306 2309 2312 2312 2312 2312 2313 2316 2317 2321 2327 2331 2331 2331 2331 2331 2331 2334 2340 2345 2345 2345 2345 2346 2347 2349 2354 2357 2362 2364 2366 2366 2366 2366 2366 2366 2368 2372 2374 2378 2378 2379 2379 2379 2379 2380 2383 2388 2392 2395 2398 2401 2403 2404 2405 2405 2408 2411 2415 2419 2420 2421 2423 2424 2427 2430 2431 2432 2432 2432 2432 2435 2438 2440 2441 2441 2442 2444 2448 2453 2456 2458 2460 2460 2462 2463 2466 2468 2472 2476 2477 2477 2478 2481 2482 2484 2485 2486 2489 2489 2490 2492 2493 2495 2495 2498 2500 2502 2503 2505 2506 2506 2507 2508 2508 2509 2509 2510 2511 2511 2512 2513 2514 2517 2519 2522 2523 2523 2524 2526 2528 2530 2533 2535 2537 2540 2542 2542 2543 2546 2548 2550 2551 2551 2551 2553 2553 2553 2556 2558 2559 2560 2560 2561 2562 2567 2573 2583 2596 2618 2638 2658 2682 2684 2684 2682 2682 2675 2662 2638 2618 2609 2603 2598 2591 2587 2572 2571 2569 2564 2548 2538 2530 2526 2521 2519 2510 2503 2498 2496 2492 2483 2476 2473 2467 2465 2458 2451 2434 2419 2397 2317 2277 2196 2129 2115 2111 2106 2102 2099 2093 2093 2092 2092 2089 2088 2088 2088 2088 2088 2088 2087 2087 2086 2085 2084 2081 2077 2075 2075 2065 2060 2056 2049 2039 2029 2020 2009 1997 1989 1982 1978 1975 1972 1967 1964 1960 1957 1952 1948 1944 1939 1935 1930 1924 1918 1912 1906 1898 1890 1885 1879 1874 1870 1864 1858 1851 1846 1841 1836 1831 1825 1820 1813 1807 1803 1800 1796 1793 1789 1785 1780 1774 1769 1765 1759 1755 1751 1748 1745 1742 1738 1732 1727 1724 1719 1714 1710 1706 1705 1700 1695 1692 1687 1684 1680 1678 1675 1672 1670 1667 1664 1660 1653 1646 1644 1643 1641 1641 1639 1636 1636 1636 1636 1636 1635
977 987 987 1029 1070 1072 1074 1079 1079 1079 1079 1079 1081 1083 1085 1087 1090 1092 1094 1096 1098 1101 1103 1104 1106 1108 1109 1111 1113 1115 1116 1118 1119 1121 1122 1124 1125 1127 1128 1130 1132 1134 1136 1138 1139 1142 1145 1148 1150 1152 1153 1155 1156 1158 1160 1162 1165 1167 1169 1171 1172 1174 1175 1178 1180 1182 1183 1185 1187 1190 1192 1194 1197 1199 1202 1204 1206 1209 1211 1213 1215 1218 1219 1221 1223 1225 1228 1230 1232 1234 1236 1238 1240 1242 1245 1248 1251 1254 1257 1260 1263 1265 1268 1270 1273 1275 1276 1279 1282 1284 1288 1291 1294 1297 1299 1301 1303 1306 1307 1308 1310 1313 1316 1320 1323 1325 1327 1329 1332 1334 1337 1340 1343 1345 1348 1351 1355 1360 1364 1367 1370 1374 1378 1380 1384 1387 1391 1393 1396 1400 1404 1409 1413 1415 1419 1423 1428 1432 1434 1437 1440 1444 1446 1450 1452 1455 1458 1464 1467 1471 1474 1477 1482 1486 1489 1492 1496 1500 1504 1509 1513 1517 1521 1523 1526 1528 1531 1533 1534 1536 1538 1538 1540 1542 1545 1545 1547 1547 1547 1544 1543 1535 1526 1519 1506 1492 1475 1461 1455 1452 1447 1440 1436 1436 1436 1439 1442 1447 1453 1458 1463 1468 1473 1478 1485 1500 1528 1557 1575 1587 1592 1599 1611 1627 1636 1636 1636 1635 1635 1635 1637 1638 1638 1638 1637 1628 1625 1625 1625 1635 1644 1656 1688 1738 1789 1848 1930 2017 2125 2209 2231 2258 2266 2271 2275 2275 2275 2276 2276 2280 2287 2294 2295 2296 2296 2298 2302 2304 2305 2305 2307 2310 2312 2316 2317 2318 2319 2322 2323 2325 2331 2333 2333 2334 2334 2334 2337 2340 2342 2345 2345 2346 2346 2347 2348 2350 2354 2357 2362 2364 2366 2366 2366 2366 2366 2367 2372 2376 2379 2380 2380 2380 2380 2380 2380 2381 2384 2389 2392 2395 2398 2401 2403 2405 2408 2409 2411 2414 2418 2422 2423 2424 2425 2428 2432 2435 2436 2436 2436 2436 2437 2438 2439 2440 2441 2443 2445 2446 2448 2453 2456 2458 2460 2461 2462 2465 2468 2470 2472 2476 2477 2477 2481 2484 2484 2486 2488 2488 2489 2489 2490 2492 2493 2495 2495 2498 2500 2502 2503 2505 2506 2506 2507 2508 2508 2509 2509 2510 2511 2511 2512 2513 2514 2516 2519 2522 2523 2523 2524 2526 2528 2529 2532 2534 2537 2540 2542 2542 2543 2544 2545 2548 2549 2550 2551 2553 2553 2553 2556 2558 2559 2559 2560 2561 2562 2567 2573 2582 2595 2605 2621 2643 2655 2655 2655 2655 2650 2646 2640 2630 2618 2609 2599 2590 2581 2572 2571 2567 2566 2564 2548 2538 2530 2525 2519 2513 2508 2501 2496 2492 2489 2481 2474 2472 2467 2465 2457 2449 2434 2418 2394 2317 2273 2196 2137 2119 2115 2109 2103 2099 2094 2092 2092 2090 2089 2089 2088 2088 2088 2087 2087 2087 2086 2085 2083 2081 2080 2076 2073 2071 2063 2060 2056 2049 2039 2025 2020 2017 2013 2000 1988 1982 1978 1973 1968 1964 1962 1958 1954 1949 1945 1939 1935 1931 1927 1919 1913 1907 1900 1891 1886 1880 1874 1870 1864 1858 1851 1846 1841 1836 1831 1825 1820 1816 1810 1804 1800 1796 1793 1789 1785 1780 1774 1769 1765 1759 1755 1751 1748 1746 1743 1740 1734 1728 1724 1719 1714 1711 1707 1706 1700 1695 1692 1687 1684 1682 1679 1676 1672 1670 1667 1664 1660 1653 1648 1645 1643 1641 1639 1638 1636 1636 1636 1636 1636 1635
977 981 981 1029 1070 1072 1072 1079 1079 1079 1079 1079 1080 1083 1085 1087 1090 1092 1094 1096 1098 1101 1103 1105 1106 1108 1109 1111 1113 1114 1116 1117 1119 1121 1122 1124 1125 1127 1129 1130 1132 1134 1136 1138 1140 1142 1145 1148 1150 1152 1153 1155 1156 1158 1160 1162 1165 1167 1169 1170 1172 1173 1175 1177 1179 1181 1183 1185 1187 1189 1192 1194 1196 1199 1202 1204 1206 1209 1211 1213 1215 1218 1220 1221 1223 1226 1228 1230 1231 1234 1236 1238 1240 1242 1245 1248 1251 1254 1257 1260 1263 1265 1268 1270 1273 1275 1276 1278 1281 1284 1288 1292 1294 1297 1298 1300 1303 1305 1307 1308 1309 1312 1315 1318 1322 1323 1326 1328 1331 1334 1337 1341 1343 1346 1348 1351 1357 1362 1368 1371 1374 1377 1378 1380 1383 1386 1389 1393 1396 1400 1404 1410 1413 1415 1419 1424 1428 1432 1434 1437 1440 1444 1447 1451 1453 1456 1460 1465 1469 1472 1474 1477 1482 1487 1491 1495 1497 1502 1506 1512 1518 1520 1521 1523 1526 1528 1531 1533 1534 1536 1538 1538 1540 1541 1544 1544 1544 1544 1534 1533 1533 1523 1513 1501 1491 1476 1461 1452 1445 1443 1443 1440 1436 1436 1436 1436 1438 1444 1447 1451 1457 1461 1469 1477 1482 1495 1511 1533 1564 1578 1582 1584 1594 1609 1620 1625 1625 1626 1625 1625 1625 1623 1623 1623 1623 1615 1615 1615 1619 1622 1629 1641 1656 1690 1743 1800 1865 1933 1998 2104 2225 2257 2268 2279 2279 2279 2279 2279 2279 2284 2289 2296 2299 2300 2301 2301 2303 2304 2305 2305 2307 2310 2312 2316 2318 2320 2322 2323 2327 2331 2331 2334 2334 2334 2334 2335 2337 2340 2342 2345 2345 2346 2346 2347 2348 2350 2354 2357 2362 2364 2366 2366 2366 2366 2366 2369 2372 2376 2379 2380 2380 2380 2380 2380 2381 2382 2384 2392 2394 2395 2398 2401 2403 2405 2408 2411 2414 2417 2420 2423 2425 2426 2427 2429 2432 2435 2436 2436 2437 2437 2437 2438 2439 2440 2441 2443 2445 2446 2448 2453 2456 2458 2460 2461 2462 2465 2468 2470 2471 2474 2475 2477 2481 2484 2484 2486 2488 2488 2489 2489 2490 2492 2493 2495 2495 2495 2496 2499 2500 2503 2504 2504 2505 2506 2508 2508 2509 2510 2510 2511 2512 2513 2514 2516 2519 2521 2521 2521 2522 2522 2524 2526 2528 2530 2534 2538 2540 2542 2543 2543 2544 2546 2548 2549 2551 2551 2552 2553 2556 2558 2559 2559 2560 2561 2562 2567 2573 2582 2595 2605 2621 2635 2643 2645 2645 2645 2640 2630 2615 2603 2592 2586 2582 2576 2573 2569 2566 2562 2561 2559 2546 2538 2530 2525 2519 2510 2506 2499 2492 2488 2483 2477 2473 2471 2467 2465 2457 2446 2433 2417 2392 2317 2273 2192 2143 2123 2117 2109 2103 2099 2095 2092 2089 2089 2088 2088 2088 2086 2086 2085 2085 2085 2085 2084 2081 2080 2078 2075 2071 2067 2061 2060 2056 2050 2039 2025 2020 2017 2013 2007 1997 1987 1980 1974 1969 1966 1964 1960 1955 1950 1945 1940 1935 1931 1927 1921 1915 1907 1900 1893 1886 1880 1875 1870 1864 1858 1851 1847 1841 1835 1830 1825 1820 1816 1810 1805 1801 1796 1793 1789 1785 1781 1775 1770 1765 1760 1755 1752 1749 1746 1743 1740 1734 1728 1724 1719 1715 1712 1710 1706 1702 1696 1693 1689 1686 1684 1680 1676 1673 1670 1667 1664 1661 1655 1651 1646 1644 1641 1639 1638 1637 1637 1636 1636 1636 1634
944 950 987 1033 1053 1070 1071 1077 1077 1078 1078 1078 1080 1082 1085 1087 1089 1092 1094 1096 1098 1101 1103 1105 1106 1108 1109 1111 1113 1114 1116 1117 1119 1121 1122 1124 1125 1127 1129 1130 1132 1134 1136 1138 1140 1142 1145 1148 1150 1152 1153 1155 1156 1158 1160 1162 1164 1166 1168 1170 1171 1173 1174 1177 1179 1181 1183 1184 1187 1189 1192 1194 1196 1199 1202 1204 1206 1208 1210 1213 1215 1218 1220 1222 1224 1226 1228 1230 1232 1234 1236 1238 1240 1242 1245 1248 1251 1254 1258 1260 1263 1265 1268 1270 1273 1275 1276 1278 1280 1284 1288 1292 1294 1296 1298 1300 1302 1305 1307 1308 1309 1312 1315 1318 1322 1323 1325 1327 1330 1334 1337 1341 1343 1346 1349 1351 1357 1363 1370 1373 1376 1377 1378 1381 1383 1386 1389 1393 1396 1400 1407 1410 1413 1415 1419 1424 1428 1432 1435 1437 1440 1445 1449 1452 1454 1458 1461 1465 1469 1472 1474 1477 1482 1488 1493 1499 1506 1511 1517 1519 1521 1523 1525 1525 1526 1528 1531 1533 1534 1536 1538 1540 1540 1542 1544 1544 1544 1544 1531 1520 1515 1509 1501 1491 1480 1464 1452 1442 1437 1435 1435 1434 1432 1431 1431 1431 1433 1438 1440 1442 1442 1453 1460 1468 1480 1485 1493 1507 1533 1554 1561 1566 1581 1597 1609 1614 1615 1617 1617 1617 1615 1609 1609 1608 1607 1608 1608 1608 1610 1615 1622 1631 1643 1664 1705 1751 1807 1870 1927 1995 2147 2253 2268 2283 2284 2286 2287 2287 2289 2290 2292 2297 2300 2301 2302 2302 2303 2304 2305 2305 2307 2310 2312 2316 2318 2320 2322 2323 2327 2331 2331 2334 2334 2334 2334 2335 2337 2340 2342 2343 2344 2346 2346 2347 2348 2350 2353 2356 2358 2362 2364 2365 2366 2366 2366 2369 2372 2376 2379 2380 2380 2380 2380 2382 2382 2383 2389 2392 2394 2395 2398 2401 2403 2405 2408 2411 2414 2417 2420 2423 2425 2426 2427 2429 2432 2435 2436 2436 2437 2437 2437 2437 2438 2439 2440 2443 2445 2446 2447 2450 2455 2457 2459 2461 2462 2465 2468 2470 2471 2471 2472 2475 2480 2484 2484 2486 2488 2488 2489 2489 2490 2492 2493 2493 2493 2494 2495 2496 2499 2501 2502 2502 2503 2503 2506 2507 2509 2510 2510 2511 2511 2511 2512 2513 2518 2520 2520 2520 2520 2520 2523 2525 2526 2527 2530 2533 2537 2540 2542 2543 2543 2544 2547 2549 2550 2550 2551 2552 2553 2556 2557 2557 2558 2558 2562 2567 2573 2582 2595 2605 2619 2630 2636 2636 2636 2635 2635 2626 2612 2598 2586 2577 2573 2571 2568 2566 2563 2556 2554 2551 2541 2532 2525 2518 2515 2509 2504 2499 2491 2485 2481 2476 2472 2470 2467 2465 2454 2443 2432 2416 2390 2342 2281 2192 2143 2123 2117 2109 2103 2098 2095 2093 2088 2088 2088 2088 2088 2086 2085 2085 2085 2084 2084 2081 2080 2077 2075 2073 2070 2067 2061 2060 2056 2049 2039 2032 2020 2017 2013 2007 1997 1987 1981 1974 1970 1966 1964 1960 1955 1950 1945 1940 1935 1931 1927 1921 1915 1907 1900 1893 1886 1880 1876 1871 1865 1859 1853 1847 1841 1835 1829 1824 1820 1816 1811 1807 1803 1797 1793 1790 1786 1782 1775 1771 1765 1760 1756 1753 1750 1747 1744 1740 1735 1729 1724 1720 1718 1715 1711 1706 1702 1698 1693 1690 1687 1685 1682 1679 1675 1670 1667 1664 1662 1658 1652 1649 1645 1642 1639 1638 1637 1637 1636 1636 1636 1634
944 950 987 1033 1045 1061 1071 1076 1077 1077 1078 1078 1080 1082 1085 1087 1089 1092 1094 1096 1098 1100 1102 1104 1106 1108 1109 1111 1112 1114 1116 1117 1119 1121 1122 1124 1125 1127 1129 1130 1133 1134 1136 1138 1140 1142 1145 1147 1150 1152 1153 1154 1156 1158 1160 1162 1164 1166 1168 1169 1171 1173 1174 1176 1178 1181 1183 1184 1187 1189 1192 1193 1196 1199 1202 1204 1206 1208 1210 1213 1215 1218 1221 1222 1224 1226 1228 1230 1232 1234 1236 1238 1239 1242 1245 1247 1251 1254 1258 1261 1263 1266 1268 1271 1273 1275 1276 1278 1280 1284 1287 1292 1294 1295 1297 1299 1301 1304 1307 1308 1309 1312 1315 1318 1322 1323 1325 1327 1330 1334 1337 1341 1347 1349 1350 1351 1357 1365 1372 1375 1377 1378 1379 1381 1383 1386 1389 1393 1396 1405 1415 1418 1419 1419 1420 1428 1434 1436 1439 1441 1442 1447 1452 1455 1458 1460 1463 1467 1470 1472 1474 1477 1483 1490 1495 1503 1508 1511 1518 1527 1528 1529 1530 1530 1531 1531 1532 1534 1535 1538 1540 1540 1540 1542 1542 1540 1540 1539 1528 1512 1508 1502 1494 1482 1467 1452 1443 1433 1425 1423 1422 1421 1419 1414 1414 1414 1419 1424 1425 1425 1426 1427 1433 1445 1464 1475 1481 1488 1503 1517 1530 1543 1558 1578 1591 1596 1599 1605 1608 1608 1608 1602 1599 1599 1599 1599 1599 1600 1604 1610 1618 1627 1637 1649 1677 1725 1758 1811 1877 1971 2090 2209 2266 2283 2294 2300 2300 2300 2300 2298 2298 2298 2300 2301 2302 2302 2303 2304 2305 2305 2306 2307 2308 2311 2318 2320 2322 2323 2327 2331 2331 2332 2334 2334 2334 2335 2337 2338 2338 2340 2343 2343 2343 2344 2346 2347 2350 2353 2355 2359 2361 2362 2363 2364 2365 2369 2372 2375 2377 2378 2378 2378 2380 2382 2383 2387 2390 2392 2394 2395 2398 2399 2401 2404 2407 2411 2414 2417 2420 2423 2425 2426 2427 2429 2432 2433 2434 2434 2436 2436 2436 2435 2435 2435 2435 2440 2442 2442 2444 2447 2452 2454 2457 2458 2460 2462 2464 2466 2468 2469 2471 2474 2478 2483 2484 2484 2488 2488 2488 2488 2489 2490 2490 2490 2491 2491 2491 2494 2495 2499 2499 2500 2501 2501 2501 2502 2506 2508 2510 2510 2510 2510 2510 2510 2515 2519 2519 2519 2520 2520 2520 2523 2524 2524 2526 2528 2534 2538 2540 2541 2542 2542 2543 2547 2548 2549 2549 2550 2551 2554 2554 2554 2555 2555 2561 2566 2570 2579 2594 2605 2618 2626 2626 2626 2627 2626 2626 2622 2610 2598 2585 2577 2572 2566 2564 2557 2550 2548 2546 2543 2533 2530 2522 2517 2508 2507 2504 2498 2490 2484 2480 2475 2472 2470 2467 2463 2453 2441 2432 2416 2386 2342 2293 2192 2143 2123 2117 2108 2103 2098 2095 2093 2088 2087 2087 2087 2087 2085 2084 2083 2082 2082 2081 2079 2078 2075 2072 2072 2070 2065 2060 2060 2055 2049 2036 2032 2020 2017 2012 2007 1997 1987 1981 1974 1970 1967 1964 1960 1955 1951 1945 1940 1935 1931 1927 1921 1915 1905 1898 1893 1885 1880 1876 1871 1865 1859 1853 1847 1841 1835 1829 1824 1819 1816 1812 1807 1803 1799 1795 1791 1786 1782 1777 1773 1766 1762 1757 1754 1752 1747 1744 1740 1735 1730 1726 1724 1721 1716 1711 1706 1702 1698 1694 1692 1689 1687 1684 1681 1678 1674 1670 1667 1664 1659 1653 1649 1645 1642 1639 1638 1638 1637 1637 1636 1636 1633
964 987 1010 1033 1045 1051 1067 1074 1075 1076 1076 1077 1080 1082 1085 1087 1089 1091 1094 1096 1098 1100 1102 1104 1106 1107 1108 1111 1112 1114 1116 1118 1120 1121 1123 1124 1126 1127 1129 1131 1133 1135 1136 1138 1141 1143 1145 1147 1150 1151 1153 1154 1156 1158 1160 1162 1164 1166 1167 1169 1170 1173 1174 1176 1178 1181 1183 1184 1187 1189 1192 1193 1196 1199 1202 1204 1206 1208 1211 1213 1216 1218 1221 1222 1224 1226 1229 1230 1232 1233 1236 1238 1239 1241 1245 1248 1251 1254 1258 1261 1263 1266 1268 1271 1273 1275 1276 1278 1281 1284 1287 1292 1293 1295 1296 1299 1301 1304 1307 1309 1310 1312 1315 1319 1322 1325 1326 1327 1330 1338 1347 1353 1353 1353 1353 1353 1357 1365 1375 1379 1381 1383 1385 1385 1386 1387 1389 1401 1412 1413 1419 1427 1427 1429 1432 1433 1437 1440 1443 1444 1446 1450 1456 1457 1458 1461 1465 1468 1472 1474 1477 1479 1483 1490 1495 1503 1508 1511 1518 1528 1530 1530 1535 1536 1536 1536 1536 1536 1537 1538 1540 1540 1540 1539 1538 1536 1535 1532 1526 1507 1498 1496 1484 1470 1451 1439 1431 1423 1411 1401 1400 1398 1397 1396 1396 1396 1403 1405 1407 1408 1411 1413 1417 1427 1444 1458 1466 1475 1484 1500 1515 1524 1533 1552 1566 1573 1582 1590 1596 1599 1599 1599 1596 1595 1594 1594 1594 1595 1600 1605 1614 1623 1633 1645 1662 1700 1734 1762 1817 1896 1989 2110 2227 2277 2294 2303 2303 2303 2300 2298 2298 2298 2300 2300 2300 2300 2300 2301 2301 2302 2302 2302 2302 2307 2314 2316 2318 2319 2323 2326 2328 2331 2332 2332 2332 2333 2334 2334 2336 2337 2339 2340 2341 2342 2344 2346 2348 2350 2352 2355 2358 2360 2361 2362 2364 2367 2370 2373 2373 2373 2375 2375 2375 2380 2383 2387 2390 2392 2394 2394 2396 2398 2399 2401 2405 2409 2412 2416 2419 2422 2424 2425 2425 2426 2427 2428 2429 2430 2431 2432 2432 2432 2430 2430 2430 2434 2436 2437 2439 2442 2445 2450 2453 2455 2457 2457 2459 2460 2462 2466 2470 2474 2478 2480 2481 2481 2481 2483 2484 2484 2484 2484 2485 2487 2487 2487 2489 2491 2492 2494 2498 2498 2498 2498 2498 2498 2501 2504 2506 2507 2507 2507 2507 2507 2512 2515 2516 2516 2517 2517 2518 2519 2519 2520 2521 2524 2529 2534 2536 2536 2537 2537 2537 2541 2543 2544 2547 2547 2548 2549 2549 2550 2551 2553 2558 2563 2566 2572 2594 2605 2615 2620 2620 2620 2620 2620 2619 2619 2605 2594 2585 2576 2572 2562 2554 2547 2544 2543 2543 2535 2528 2525 2522 2514 2506 2499 2499 2495 2488 2484 2479 2475 2470 2467 2462 2457 2450 2441 2432 2415 2388 2346 2294 2192 2143 2122 2114 2108 2103 2098 2094 2093 2090 2087 2087 2085 2084 2084 2082 2081 2081 2081 2079 2076 2075 2073 2070 2069 2069 2064 2060 2060 2055 2047 2036 2032 2020 2017 2009 2002 1995 1987 1981 1975 1970 1968 1964 1960 1956 1951 1946 1940 1935 1931 1926 1919 1911 1902 1897 1891 1885 1880 1875 1871 1865 1859 1853 1847 1841 1835 1829 1824 1819 1815 1812 1808 1803 1799 1795 1791 1786 1782 1777 1773 1767 1762 1758 1755 1752 1748 1744 1740 1737 1732 1729 1726 1723 1718 1712 1706 1702 1699 1696 1692 1689 1687 1684 1681 1678 1675 1671 1668 1664 1660 1655 1649 1646 1643 1640 1640 1639 1639 1637 1636 1636 1633
984 1012 1045 1051 1054 1055 1066 1074 1075 1076 1076 1077 1080 1082 1084 1087 1089 1091 1093 1096 1098 1100 1102 1104 1106 1107 1108 1110 1112 1114 1116 1118 1120 1121 1123 1124 1126 1128 1130 1131 1133 1135 1137 1139 1141 1143 1146 1147 1150 1151 1153 1154 1156 1158 1160 1161 1163 1165 1167 1169 1170 1173 1174 1176 1178 1180 1183 1185 1187 1191 1192 1194 1197 1199 1202 1205 1206 1208 1211 1213 1216 1218 1221 1222 1225 1227 1229 1230 1232 1233 1236 1238 1240 1241 1245 1248 1251 1254 1257 1261 1263 1266 1268 1271 1273 1273 1276 1279 1281 1284 1287 1290 1292 1294 1296 1298 1301 1304 1307 1309 1310 1313 1317 1319 1323 1327 1327 1329 1331 1343 1355 1357 1357 1358 1358 1361 1366 1371 1375 1379 1383 1388 1402 1405 1405 1408 1408 1424 1437 1444 1447 1446 1446 1446 1442 1442 1442 1447 1454 1458 1458 1459 1459 1459 1460 1462 1466 1469 1473 1474 1477 1479 1484 1488 1495 1503 1508 1511 1518 1528 1530 1535 1537 1537 1537 1537 1537 1537 1537 1538 1540 1540 1540 1539 1538 1536 1533 1523 1514 1504 1490 1481 1472 1453 1439 1428 1418 1408 1396 1389 1389 1387 1387 1387 1387 1387 1389 1394 1396 1397 1399 1401 1404 1412 1427 1439 1450 1457 1471 1486 1503 1513 1521 1534 1549 1559 1569 1579 1588 1594 1595 1595 1595 1592 1590 1590 1590 1591 1596 1602 1609 1619 1630 1643 1660 1682 1709 1741 1783 1848 1939 2036 2158 2266 2287 2303 2303 2303 2300 2298 2298 2298 2298 2298 2296 2296 2296 2297 2297 2297 2297 2297 2298 2304 2310 2312 2314 2316 2319 2321 2322 2326 2330 2330 2331 2331 2332 2332 2333 2335 2337 2338 2340 2342 2343 2343 2346 2347 2350 2353 2356 2357 2358 2360 2362 2366 2368 2369 2369 2369 2371 2371 2371 2377 2383 2387 2389 2390 2390 2390 2394 2394 2397 2398 2401 2405 2407 2410 2413 2416 2421 2422 2423 2423 2423 2423 2423 2424 2428 2428 2428 2423 2423 2423 2427 2430 2432 2433 2434 2435 2438 2442 2446 2448 2450 2452 2455 2456 2458 2462 2469 2473 2477 2478 2478 2478 2478 2478 2478 2478 2477 2477 2477 2478 2480 2482 2484 2486 2488 2489 2492 2494 2494 2494 2494 2494 2495 2497 2499 2502 2502 2502 2502 2502 2506 2511 2512 2512 2512 2513 2514 2514 2514 2516 2518 2521 2524 2528 2528 2528 2530 2530 2530 2530 2532 2532 2532 2540 2541 2543 2543 2543 2544 2549 2554 2558 2561 2566 2588 2602 2609 2615 2615 2615 2614 2613 2612 2610 2600 2591 2582 2575 2570 2561 2550 2542 2538 2538 2537 2531 2524 2519 2516 2510 2503 2495 2491 2491 2488 2483 2480 2475 2470 2465 2461 2455 2449 2440 2432 2415 2390 2348 2294 2192 2143 2122 2114 2108 2103 2098 2094 2093 2091 2089 2087 2085 2084 2083 2080 2080 2079 2078 2077 2076 2073 2071 2069 2068 2067 2064 2060 2053 2049 2047 2036 2032 2023 2017 2008 2002 1995 1987 1981 1977 1972 1968 1964 1960 1956 1952 1946 1940 1934 1929 1925 1917 1909 1902 1897 1891 1885 1880 1875 1871 1865 1859 1853 1847 1841 1835 1829 1824 1819 1815 1812 1808 1804 1799 1795 1791 1787 1782 1777 1773 1768 1763 1759 1755 1752 1748 1744 1741 1737 1733 1730 1726 1723 1718 1713 1706 1703 1699 1697 1693 1689 1687 1684 1681 1678 1675 1672 1669 1666 1662 1657 1650 1648 1643 1641 1641 1640 1639 1636 1636 1635 1632
990 1012 1045 1045 1060 1060 1065 1073 1073 1075 1075 1077 1080 1082 1084 1087 1089 1091 1093 1096 1097 1100 1102 1104 1106 1107 1108 1110 1112 1114 1116 1118 1120 1121 1123 1124 1126 1128 1130 1132 1133 1136 1137 1139 1142 1144 1146 1148 1150 1151 1153 1154 1156 1158 1159 1161 1163 1165 1167 1168 1170 1172 1174 1176 1178 1180 1183 1185 1187 1191 1192 1194 1197 1199 1202 1205 1206 1208 1211 1213 1217 1218 1220 1222 1225 1227 1229 1230 1232 1233 1236 1238 1240 1241 1245 1249 1251 1253 1256 1258 1262 1264 1267 1271 1273 1273 1276 1279 1283 1285 1287 1290 1292 1294 1296 1298 1301 1306 1308 1311 1313 1317 1320 1327 1329 1330 1330 1330 1338 1348 1355 1362 1368 1373 1378 1379 1379 1390 1397 1403 1415 1424 1442 1464 1479 1490 1515 1541 1563 1573 1573 1573 1554 1510 1468 1453 1453 1453 1458 1460 1460 1461 1461 1461 1461 1462 1466 1469 1473 1474 1477 1479 1483 1487 1492 1502 1507 1511 1517 1525 1526 1535 1537 1538 1538 1538 1537 1537 1537 1539 1540 1540 1540 1538 1538 1536 1532 1518 1508 1498 1482 1473 1451 1430 1420 1415 1407 1394 1385 1377 1377 1377 1375 1375 1375 1375 1375 1375 1378 1382 1384 1392 1396 1400 1409 1424 1434 1446 1459 1471 1483 1499 1513 1528 1541 1552 1562 1572 1582 1590 1594 1594 1594 1591 1590 1589 1589 1589 1591 1599 1606 1615 1628 1642 1658 1679 1700 1730 1767 1821 1880 1970 2065 2225 2277 2286 2296 2296 2296 2290 2290 2290 2289 2289 2290 2290 2290 2292 2292 2292 2292 2292 2294 2300 2304 2309 2311 2314 2315 2317 2318 2321 2324 2325 2327 2328 2330 2330 2330 2331 2333 2336 2339 2340 2341 2342 2344 2346 2347 2351 2352 2353 2354 2355 2358 2360 2362 2364 2364 2364 2365 2366 2367 2373 2380 2384 2385 2385 2386 2386 2390 2392 2393 2396 2399 2401 2403 2403 2405 2411 2417 2419 2419 2419 2418 2418 2418 2420 2421 2421 2421 2419 2419 2419 2424 2425 2427 2429 2430 2432 2433 2434 2438 2440 2444 2446 2449 2449 2452 2456 2463 2469 2473 2473 2473 2473 2473 2472 2472 2471 2469 2469 2469 2472 2475 2476 2479 2480 2481 2482 2485 2486 2488 2488 2488 2488 2490 2491 2493 2495 2495 2495 2496 2498 2502 2506 2506 2506 2506 2509 2509 2509 2510 2510 2513 2514 2518 2522 2522 2522 2523 2523 2524 2524 2524 2524 2525 2530 2534 2534 2534 2535 2536 2539 2547 2554 2556 2560 2577 2588 2594 2605 2607 2607 2607 2606 2605 2599 2592 2585 2578 2572 2568 2561 2550 2540 2534 2533 2530 2527 2520 2514 2511 2507 2499 2493 2487 2485 2484 2483 2479 2474 2467 2458 2455 2452 2449 2439 2432 2415 2390 2356 2294 2187 2143 2122 2114 2112 2109 2104 2094 2093 2092 2091 2088 2085 2084 2083 2080 2079 2078 2077 2076 2075 2073 2071 2068 2066 2065 2060 2057 2050 2045 2041 2036 2032 2024 2017 2008 2002 1995 1987 1981 1978 1973 1968 1964 1960 1957 1952 1946 1940 1934 1928 1922 1916 1909 1902 1897 1891 1885 1880 1875 1869 1864 1859 1853 1846 1840 1835 1829 1824 1819 1815 1812 1808 1804 1800 1795 1791 1787 1782 1778 1773 1768 1764 1759 1755 1752 1748 1744 1741 1737 1734 1730 1727 1723 1719 1713 1706 1703 1699 1697 1693 1690 1686 1684 1681 1678 1675 1672 1670 1666 1662 1657 1650 1648 1643 1642 1641 1640 1639 1635 1634 1633 1632
1012 1022 1045 1045 1062 1062 1065 1071 1072 1074 1074 1076 1080 1082 1083 1086 1089 1091 1093 1095 1097 1100 1102 1104 1106 1107 1109 1111 1112 1114 1116 1118 1120 1122 1123 1125 1126 1129 1131 1132 1134 1136 1138 1140 1142 1145 1147 1149 1151 1151 1153 1154 1156 1158 1159 1161 1163 1163 1166 1168 1170 1172 1174 1176 1178 1180 1183 1185 1188 1191 1192 1195 1197 1199 1203 1205 1206 1209 1212 1214 1217 1218 1219 1221 1225 1227 1229 1231 1232 1234 1236 1239 1243 1245 1248 1250 1251 1251 1254 1258 1262 1264 1267 1271 1273 1273 1276 1281 1283 1287 1289 1290 1292 1294 1296 1298 1308 1312 1317 1320 1321 1321 1333 1339 1347 1352 1352 1353 1353 1367 1381 1392 1410 1431 1442 1454 1458 1479 1503 1524 1548 1577 1611 1634 1668 1693 1731 1766 1769 1769 1769 1719 1651 1568 1505 1468 1459 1459 1459 1461 1461 1461 1461 1461 1461 1463 1466 1469 1472 1474 1477 1479 1483 1487 1489 1492 1495 1499 1509 1519 1525 1530 1535 1538 1538 1538 1536 1536 1536 1538 1538 1538 1538 1538 1538 1537 1530 1517 1503 1497 1477 1445 1429 1420 1410 1402 1392 1379 1372 1368 1359 1356 1356 1356 1358 1358 1358 1360 1363 1368 1372 1377 1381 1384 1388 1395 1410 1430 1446 1457 1470 1490 1506 1520 1540 1552 1560 1569 1576 1585 1590 1591 1591 1591 1590 1589 1589 1589 1591 1593 1602 1611 1625 1639 1658 1677 1696 1722 1751 1784 1840 1919 2003 2119 2268 2284 2284 2284 2283 2283 2280 2280 2280 2281 2282 2282 2284 2286 2286 2287 2287 2289 2290 2294 2300 2304 2307 2310 2311 2313 2315 2316 2319 2319 2322 2323 2325 2325 2325 2326 2329 2332 2335 2337 2339 2340 2341 2343 2344 2346 2347 2348 2348 2351 2352 2353 2353 2354 2357 2359 2359 2362 2363 2370 2375 2380 2380 2381 2381 2383 2386 2388 2390 2392 2394 2396 2398 2399 2400 2405 2411 2414 2414 2414 2414 2414 2414 2414 2414 2414 2413 2413 2413 2416 2419 2420 2421 2423 2425 2426 2428 2429 2430 2434 2438 2441 2443 2443 2444 2450 2456 2461 2464 2464 2464 2464 2463 2462 2461 2461 2462 2462 2464 2468 2469 2472 2473 2473 2473 2473 2476 2480 2480 2481 2481 2481 2483 2485 2488 2488 2488 2489 2489 2493 2499 2500 2500 2500 2502 2503 2503 2504 2505 2505 2506 2508 2510 2514 2516 2516 2517 2518 2518 2518 2518 2519 2519 2522 2525 2525 2526 2526 2527 2532 2538 2546 2547 2552 2564 2576 2585 2595 2597 2597 2597 2594 2587 2586 2580 2575 2570 2566 2561 2556 2548 2537 2529 2526 2523 2520 2516 2511 2506 2504 2499 2493 2487 2483 2480 2480 2479 2472 2464 2454 2446 2444 2441 2439 2432 2419 2398 2359 2294 2187 2143 2129 2121 2118 2113 2106 2100 2096 2093 2093 2092 2088 2085 2082 2080 2079 2078 2077 2075 2073 2073 2070 2068 2065 2063 2059 2055 2050 2045 2040 2036 2030 2024 2017 2006 2000 1995 1989 1983 1978 1973 1968 1965 1962 1957 1952 1946 1939 1931 1925 1920 1915 1909 1902 1898 1892 1887 1881 1875 1869 1864 1859 1853 1846 1840 1834 1829 1824 1819 1815 1811 1808 1804 1800 1796 1792 1788 1782 1778 1773 1768 1764 1759 1755 1751 1748 1746 1741 1738 1735 1731 1727 1723 1719 1713 1708 1705 1700 1697 1693 1690 1686 1684 1681 1677 1674 1672 1670 1666 1662 1657 1650 1648 1643 1642 1640 1638 1636 1634 1633 1633 1632
1022 1029 1042 1051 1062 1062 1063 1070 1071 1073 1073 1076 1080 1082 1083 1086 1089 1091 1093 1095 1097 1099 1102 1104 1106 1108 1109 1111 1112 1114 1116 1118 1120 1122 1124 1125 1127 1129 1131 1134 1136 1137 1139 1141 1144 1147 1149 1150 1151 1152 1153 1155 1156 1158 1159 1161 1162 1163 1166 1167 1169 1172 1173 1175 1177 1180 1183 1185 1188 1191 1192 1195 1197 1199 1203 1205 1207 1210 1213 1216 1218 1218 1219 1221 1225 1227 1231 1231 1234 1236 1237 1240 1245 1248 1249 1251 1251 1251 1254 1258 1262 1264 1267 1271 1277 1277 1279 1282 1285 1289 1293 1300 1306 1315 1317 1318 1320 1333 1339 1340 1349 1371 1392 1409 1422 1434 1450 1452 1473 1500 1517 1536 1563 1606 1644 1674 1697 1722 1741 1755 1766 1786 1796 1818 1870 1881 1899 1899 1899 1865 1812 1719 1651 1568 1505 1468 1461 1461 1461 1462 1462 1462 1461 1461 1461 1463 1466 1469 1471 1474 1476 1478 1481 1486 1488 1488 1489 1491 1499 1511 1521 1525 1525 1529 1535 1535 1536 1536 1536 1538 1538 1538 1538 1538 1537 1537 1528 1510 1495 1488 1450 1432 1424 1411 1401 1393 1381 1371 1362 1355 1346 1345 1344 1343 1341 1340 1340 1340 1347 1347 1349 1352 1356 1360 1366 1374 1390 1405 1422 1439 1456 1475 1494 1508 1535 1549 1557 1567 1575 1582 1588 1589 1590 1590 1590 1590 1590 1590 1591 1593 1602 1610 1622 1636 1654 1674 1694 1720 1741 1763 1808 1871 1951 2055 2202 2282 2282 2282 2278 2273 2269 2269 2269 2273 2273 2274 2278 2281 2282 2283 2283 2285 2285 2288 2293 2299 2302 2305 2307 2310 2311 2311 2311 2313 2315 2319 2320 2321 2321 2321 2323 2327 2330 2331 2333 2335 2336 2338 2339 2341 2342 2343 2344 2345 2346 2347 2348 2348 2353 2356 2358 2358 2359 2364 2369 2372 2374 2377 2378 2381 2383 2384 2386 2387 2389 2392 2394 2396 2397 2401 2405 2406 2407 2407 2407 2409 2409 2409 2407 2407 2407 2409 2409 2411 2412 2413 2415 2416 2420 2420 2422 2424 2426 2430 2435 2435 2437 2438 2440 2444 2447 2450 2451 2454 2454 2454 2450 2449 2449 2449 2451 2454 2460 2463 2467 2468 2468 2468 2468 2468 2469 2473 2473 2474 2475 2476 2476 2480 2484 2484 2485 2486 2487 2492 2492 2493 2494 2494 2494 2495 2495 2496 2497 2498 2499 2502 2504 2508 2509 2510 2510 2511 2512 2512 2512 2512 2512 2512 2516 2516 2517 2517 2520 2525 2531 2534 2536 2542 2559 2575 2581 2583 2586 2586 2586 2581 2574 2567 2567 2564 2560 2556 2551 2545 2538 2530 2522 2515 2513 2510 2509 2509 2506 2502 2498 2493 2487 2481 2477 2476 2475 2470 2461 2453 2445 2438 2437 2435 2432 2420 2399 2368 2302 2187 2149 2143 2131 2122 2117 2109 2104 2098 2094 2093 2092 2088 2085 2082 2080 2079 2077 2076 2075 2073 2072 2069 2068 2065 2063 2059 2055 2050 2045 2040 2036 2030 2023 2016 2006 1999 1995 1989 1983 1978 1973 1968 1965 1962 1957 1951 1945 1938 1931 1924 1920 1915 1910 1903 1899 1892 1887 1882 1876 1869 1864 1859 1853 1846 1840 1834 1830 1824 1819 1815 1811 1808 1804 1801 1797 1793 1789 1784 1780 1773 1768 1764 1760 1755 1751 1748 1746 1742 1739 1735 1732 1728 1724 1721 1716 1710 1707 1702 1698 1694 1690 1686 1684 1681 1677 1674 1672 1670 1666 1662 1656 1652 1647 1644 1642 1640 1638 1634 1633 1633 1633 1631
1022 1036 1042 1051 1060 1060 1063 1068 1069 1070 1073 1076 1079 1082 1083 1086 1089 1091 1093 1095 1097 1099 1102 1104 1106 1108 1110 1111 1113 1115 1117 1119 1120 1122 1124 1125 1128 1130 1132 1134 1136 1137 1140 1142 1144 1147 1149 1151 1151 1153 1153 1155 1157 1158 1159 1161 1162 1163 1164 1166 1168 1169 1172 1174 1177 1180 1183 1185 1188 1191 1192 1195 1197 1199 1203 1205 1208 1210 1214 1217 1218 1218 1219 1221 1225 1227 1232 1232 1235 1237 1238 1241 1245 1248 1250 1251 1251 1251 1254 1258 1264 1267 1271 1276 1277 1279 1281 1288 1293 1300 1307 1313 1342 1365 1366 1367 1386 1408 1423 1435 1469 1524 1574 1609 1632 1664 1676 1687 1688 1704 1728 1736 1750 1782 1819 1855 1888 1901 1914 1929 1933 1945 1956 1956 1956 1948 1937 1917 1909 1865 1812 1719 1651 1568 1505 1468 1461 1461 1461 1462 1462 1462 1461 1461 1461 1463 1466 1468 1471 1473 1474 1476 1479 1483 1487 1488 1489 1491 1492 1501 1508 1513 1515 1519 1525 1526 1526 1529 1532 1537 1537 1538 1538 1538 1537 1537 1524 1498 1480 1466 1440 1427 1417 1402 1389 1379 1372 1360 1349 1342 1335 1333 1333 1332 1329 1328 1328 1328 1330 1331 1334 1340 1347 1349 1352 1362 1371 1384 1401 1421 1436 1451 1475 1498 1525 1540 1551 1563 1573 1580 1586 1589 1590 1592 1592 1593 1593 1593 1593 1593 1602 1610 1622 1634 1651 1670 1689 1711 1738 1755 1788 1846 1917 2007 2139 2264 2275 2275 2275 2272 2267 2263 2263 2263 2266 2268 2272 2274 2276 2277 2278 2278 2278 2280 2287 2292 2295 2297 2301 2304 2305 2305 2306 2306 2308 2311 2314 2315 2315 2316 2316 2320 2324 2325 2327 2329 2330 2332 2333 2336 2336 2338 2338 2339 2341 2341 2341 2343 2347 2351 2353 2353 2354 2356 2360 2363 2368 2372 2375 2377 2379 2382 2382 2383 2385 2388 2391 2392 2394 2394 2396 2396 2398 2398 2400 2400 2400 2399 2399 2399 2400 2406 2406 2406 2406 2407 2409 2411 2412 2414 2416 2419 2423 2427 2428 2429 2430 2431 2434 2437 2438 2439 2440 2441 2441 2441 2440 2440 2440 2443 2447 2450 2453 2457 2461 2464 2464 2464 2464 2464 2464 2467 2470 2470 2470 2470 2470 2472 2477 2480 2484 2484 2484 2485 2485 2487 2487 2487 2488 2490 2490 2490 2490 2490 2493 2496 2500 2503 2503 2503 2505 2505 2506 2506 2506 2507 2508 2509 2508 2509 2509 2509 2513 2520 2523 2525 2527 2532 2558 2571 2573 2573 2575 2575 2575 2570 2561 2556 2555 2551 2546 2541 2536 2530 2527 2522 2516 2507 2503 2503 2503 2503 2503 2502 2497 2493 2487 2480 2475 2474 2473 2470 2459 2453 2444 2438 2434 2434 2432 2420 2400 2371 2320 2203 2161 2150 2131 2123 2120 2112 2105 2099 2095 2093 2093 2088 2085 2083 2080 2079 2077 2076 2074 2073 2070 2068 2066 2065 2062 2059 2055 2049 2045 2039 2034 2029 2022 2015 2006 1999 1994 1989 1983 1978 1973 1968 1965 1962 1958 1951 1943 1937 1929 1924 1920 1916 1910 1905 1900 1892 1887 1882 1877 1871 1865 1860 1853 1846 1840 1834 1830 1825 1820 1816 1811 1808 1804 1801 1797 1793 1789 1784 1780 1774 1770 1764 1760 1755 1751 1748 1746 1742 1739 1736 1732 1729 1725 1722 1717 1713 1709 1704 1700 1696 1691 1687 1684 1680 1677 1674 1671 1669 1666 1662 1656 1652 1647 1644 1643 1640 1637 1634 1633 1633 1633 1631
985 1014 1042 1051 1058 1058 1063 1067 1068 1070 1073 1076 1079 1081 1084 1086 1089 1091 1093 1095 1097 1099 1102 1104 1106 1108 1110 1112 1113 1116 1117 1119 1121 1122 1124 1125 1128 1130 1133 1135 1136 1138 1140 1142 1144 1147 1149 1151 1151 1154 1155 1156 1157 1158 1159 1161 1162 1162 1163 1166 1167 1168 1171 1174 1177 1180 1185 1186 1190 1192 1194 1195 1197 1200 1203 1206 1209 1213 1213 1216 1218 1219 1221 1226 1228 1231 1236 1237 1239 1242 1244 1245 1245 1250 1251 1255 1258 1259 1266 1275 1285 1286 1288 1300 1306 1308 1308 1318 1329 1336 1359 1403 1446 1493 1531 1562 1605 1624 1658 1697 1727 1758 1806 1823 1829 1841 1870 1883 1885 1896 1917 1933 1934 1940 1946 1952 1956 1958 1958 1959 1959 1960 1960 1960 1956 1948 1937 1917 1909 1865 1812 1688 1550 1504 1467 1461 1460 1460 1461 1462 1462 1462 1462 1462 1462 1463 1465 1468 1471 1472 1473 1474 1477 1480 1485 1487 1488 1489 1492 1497 1502 1505 1508 1510 1512 1516 1519 1523 1529 1532 1534 1537 1537 1534 1532 1528 1519 1488 1472 1454 1428 1415 1402 1380 1368 1365 1361 1346 1339 1332 1330 1325 1324 1324 1323 1322 1320 1320 1320 1322 1327 1330 1332 1335 1337 1344 1354 1365 1378 1397 1415 1432 1453 1476 1508 1531 1542 1554 1568 1579 1585 1587 1590 1593 1595 1596 1596 1596 1596 1597 1603 1610 1622 1634 1649 1664 1683 1702 1725 1744 1784 1826 1883 1969 2075 2244 2275 2275 2275 2269 2265 2259 2257 2257 2257 2260 2263 2266 2268 2269 2269 2269 2270 2272 2278 2284 2287 2290 2292 2297 2297 2297 2299 2300 2302 2305 2307 2309 2310 2310 2311 2313 2314 2316 2318 2322 2323 2323 2326 2329 2331 2332 2333 2333 2333 2333 2333 2336 2341 2345 2346 2348 2348 2348 2350 2355 2361 2368 2370 2373 2375 2377 2378 2378 2379 2381 2382 2385 2385 2387 2387 2387 2388 2388 2390 2391 2391 2391 2391 2391 2395 2401 2401 2401 2402 2402 2402 2405 2407 2407 2409 2413 2416 2418 2420 2421 2422 2424 2428 2430 2430 2431 2432 2433 2433 2433 2433 2433 2434 2438 2443 2445 2447 2449 2453 2456 2459 2459 2459 2459 2459 2460 2463 2463 2463 2462 2462 2462 2466 2472 2477 2480 2480 2480 2479 2479 2479 2480 2481 2482 2482 2482 2482 2482 2486 2492 2497 2497 2497 2497 2497 2497 2498 2499 2499 2500 2505 2505 2505 2505 2505 2505 2511 2516 2519 2525 2527 2532 2555 2564 2564 2567 2567 2564 2564 2562 2553 2547 2545 2540 2530 2524 2519 2517 2516 2515 2509 2501 2500 2500 2500 2500 2500 2499 2495 2493 2487 2480 2475 2473 2472 2466 2459 2453 2444 2438 2434 2434 2431 2420 2402 2371 2330 2290 2188 2152 2131 2123 2120 2114 2108 2100 2096 2093 2091 2088 2085 2083 2081 2079 2077 2076 2074 2072 2070 2068 2065 2063 2062 2059 2055 2049 2043 2037 2032 2026 2020 2012 2004 1998 1992 1987 1983 1978 1973 1967 1965 1962 1957 1951 1943 1936 1929 1924 1921 1917 1912 1907 1900 1892 1887 1882 1877 1873 1867 1860 1854 1847 1842 1836 1831 1826 1821 1816 1812 1808 1804 1801 1797 1793 1789 1784 1780 1774 1770 1764 1760 1755 1751 1748 1746 1743 1739 1736 1733 1730 1726 1722 1717 1713 1709 1705 1700 1696 1691 1687 1684 1681 1677 1674 1671 1669 1666 1662 1656 1652 1647 1644 1643 1640 1637 1634 1634 1634 1633 1631
982 1010 1032 1042 1046 1062 1067 1068 1070 1070 1073 1076 1079 1081 1085 1087 1089 1091 1094 1095 1097 1099 1102 1104 1106 1108 1110 1112 1114 1116 1118 1120 1123 1124 1127 1129 1131 1133 1135 1136 1137 1138 1141 1142 1144 1147 1149 1151 1152 1154 1155 1156 1157 1158 1159 1160 1162 1162 1163 1166 1167 1168 1170 1174 1177 1181 1185 1188 1191 1192 1194 1195 1197 1201 1204 1209 1211 1213 1215 1218 1224 1227 1227 1230 1233 1236 1248 1248 1248 1250 1256 1256 1265 1267 1272 1284 1292 1302 1323 1341 1356 1375 1402 1429 1443 1461 1461 1461 1456 1456 1456 1504 1625 1704 1756 1790 1803 1825 1852 1891 1904 1923 1940 1940 1941 1941 1944 1945 1946 1947 1947 1947 1947 1948 1948 1952 1956 1958 1958 1959 1959 1960 1960 1960 1956 1948 1937 1917 1874 1808 1683 1544 1460 1446 1446 1446 1451 1455 1458 1462 1462 1463 1463 1463 1463 1463 1465 1467 1469 1471 1472 1474 1476 1477 1482 1486 1487 1489 1492 1494 1496 1497 1499 1502 1506 1510 1513 1515 1522 1530 1533 1533 1533 1533 1529 1521 1504 1474 1463 1432 1406 1394 1377 1356 1352 1350 1344 1336 1329 1326 1322 1319 1317 1316 1316 1315 1312 1310 1310 1310 1314 1319 1322 1325 1325 1331 1340 1352 1359 1372 1388 1405 1429 1457 1481 1500 1522 1542 1554 1568 1580 1586 1590 1595 1597 1600 1601 1603 1605 1606 1610 1614 1623 1634 1649 1664 1682 1702 1725 1741 1772 1812 1849 1924 2023 2174 2269 2269 2269 2257 2257 2255 2252 2252 2252 2253 2254 2258 2259 2261 2262 2262 2263 2264 2271 2277 2280 2282 2282 2284 2289 2291 2292 2292 2295 2298 2300 2303 2303 2304 2305 2306 2306 2308 2311 2313 2316 2317 2320 2324 2326 2326 2326 2326 2326 2326 2326 2330 2335 2339 2341 2342 2343 2344 2344 2346 2351 2359 2363 2365 2371 2373 2373 2373 2372 2372 2372 2373 2375 2377 2378 2379 2379 2379 2380 2380 2380 2381 2382 2383 2388 2394 2395 2396 2396 2397 2398 2398 2400 2400 2401 2402 2407 2410 2411 2411 2413 2416 2420 2421 2423 2425 2427 2427 2427 2424 2424 2424 2424 2430 2436 2437 2438 2439 2440 2445 2448 2449 2449 2449 2450 2450 2453 2453 2453 2451 2451 2451 2451 2460 2466 2473 2473 2473 2471 2471 2471 2471 2473 2475 2475 2475 2475 2475 2478 2484 2487 2487 2487 2487 2487 2489 2490 2491 2492 2493 2494 2498 2501 2502 2502 2504 2511 2515 2518 2522 2527 2532 2555 2555 2555 2557 2557 2555 2555 2551 2545 2539 2536 2530 2519 2512 2510 2509 2509 2508 2503 2494 2494 2494 2495 2495 2495 2493 2492 2489 2486 2478 2473 2471 2470 2464 2456 2451 2445 2438 2434 2434 2431 2422 2403 2377 2345 2295 2191 2153 2134 2123 2120 2116 2111 2105 2097 2093 2091 2088 2085 2083 2082 2079 2077 2076 2074 2072 2070 2067 2064 2062 2062 2059 2053 2048 2042 2036 2031 2026 2020 2012 2004 1998 1992 1987 1982 1977 1972 1967 1965 1962 1957 1949 1943 1935 1929 1925 1921 1917 1912 1907 1901 1894 1887 1882 1879 1874 1867 1860 1854 1848 1842 1837 1831 1826 1821 1816 1812 1808 1804 1801 1796 1793 1788 1784 1780 1774 1770 1764 1760 1756 1752 1749 1746 1743 1740 1738 1734 1730 1726 1722 1717 1713 1709 1705 1700 1696 1691 1688 1684 1681 1677 1674 1671 1669 1666 1663 1658 1655 1651 1647 1644 1641 1637 1634 1634 1634 1633 1631
903 963 1000 1039 1042 1063 1067 1068 1070 1071 1074 1077 1079 1082 1085 1088 1089 1091 1094 1095 1097 1099 1102 1104 1106 1108 1110 1113 1115 1117 1119 1121 1123 1124 1127 1129 1133 1137 1137 1138 1138 1139 1141 1143 1144 1147 1148 1150 1152 1154 1155 1156 1158 1158 1159 1160 1161 1162 1163 1166 1167 1168 1170 1175 1181 1185 1190 1195 1195 1196 1197 1200 1202 1205 1212 1215 1216 1217 1217 1221 1231 1237 1244 1248 1260 1273 1295 1315 1315 1316 1318 1350 1377 1388 1400 1425 1457 1489 1531 1565 1595 1641 1664 1666 1667 1709 1709 1709 1671 1667 1667 1667 1760 1855 1866 1873 1880 1886 1897 1911 1917 1923 1940 1940 1941 1941 1944 1945 1946 1947 1947 1947 1947 1948 1948 1952 1956 1958 1958 1959 1959 1960 1960 1960 1954 1938 1907 1873 1824 1692 1557 1477 1438 1425 1425 1425 1433 1442 1454 1461 1462 1463 1464 1463 1464 1464 1465 1466 1468 1470 1471 1473 1474 1476 1477 1479 1481 1483 1484 1486 1488 1490 1491 1493 1495 1500 1504 1509 1513 1520 1526 1529 1529 1529 1523 1505 1488 1469 1446 1409 1387 1374 1359 1347 1342 1340 1332 1328 1323 1318 1313 1309 1309 1309 1308 1308 1307 1306 1306 1306 1309 1312 1313 1316 1317 1322 1328 1338 1344 1351 1366 1377 1397 1421 1444 1466 1486 1511 1531 1554 1569 1580 1589 1595 1599 1604 1608 1611 1613 1613 1615 1620 1629 1638 1649 1664 1682 1702 1724 1739 1757 1794 1829 1895 1984 2118 2263 2263 2263 2246 2246 2246 2249 2249 2249 2249 2249 2251 2253 2254 2255 2255 2255 2257 2264 2270 2273 2275 2276 2277 2278 2284 2286 2286 2288 2290 2292 2295 2296 2299 2300 2300 2300 2300 2304 2307 2311 2313 2314 2318 2319 2319 2319 2317 2317 2317 2319 2324 2329 2334 2337 2337 2339 2339 2339 2341 2345 2350 2354 2356 2361 2366 2366 2366 2361 2361 2361 2362 2365 2370 2371 2371 2372 2372 2372 2373 2373 2373 2374 2378 2381 2385 2386 2387 2388 2390 2390 2392 2393 2393 2393 2393 2397 2402 2403 2406 2407 2409 2410 2413 2415 2417 2421 2421 2421 2418 2417 2417 2417 2420 2424 2426 2426 2427 2429 2432 2436 2438 2439 2439 2439 2441 2443 2443 2443 2441 2441 2441 2443 2450 2459 2464 2464 2464 2460 2460 2460 2461 2463 2463 2463 2463 2463 2463 2469 2475 2476 2476 2476 2476 2476 2479 2482 2483 2484 2484 2486 2488 2494 2497 2497 2499 2504 2513 2516 2520 2526 2529 2539 2539 2541 2542 2542 2542 2542 2537 2534 2531 2528 2521 2511 2508 2506 2505 2505 2502 2494 2487 2486 2486 2486 2487 2487 2487 2485 2483 2482 2475 2471 2468 2466 2464 2456 2445 2443 2442 2434 2433 2431 2422 2404 2382 2346 2297 2192 2154 2137 2123 2120 2117 2112 2107 2100 2096 2091 2088 2085 2084 2082 2079 2077 2076 2074 2072 2070 2067 2064 2062 2061 2057 2053 2047 2041 2036 2031 2026 2020 2012 2004 1998 1992 1987 1982 1975 1971 1965 1963 1960 1955 1948 1942 1935 1929 1925 1921 1917 1912 1908 1902 1895 1890 1884 1879 1874 1867 1861 1854 1848 1843 1838 1832 1826 1822 1816 1812 1807 1803 1799 1796 1791 1786 1783 1779 1773 1768 1764 1761 1758 1754 1750 1747 1744 1742 1739 1735 1730 1726 1721 1717 1713 1709 1705 1700 1696 1691 1688 1684 1681 1677 1674 1671 1669 1666 1663 1661 1657 1653 1650 1647 1641 1637 1635 1634 1634 1633 1632
833 909 981 1025 1045 1065 1068 1070 1073 1074 1076 1079 1081 1082 1085 1088 1090 1092 1094 1095 1097 1099 1102 1104 1107 1108 1112 1115 1116 1118 1120 1122 1123 1125 1127 1130 1134 1138 1142 1143 1144 1144 1146 1146 1146 1147 1148 1149 1151 1153 1156 1157 1158 1158 1159 1160 1162 1163 1164 1166 1167 1169 1171 1176 1190 1194 1198 1201 1205 1212 1216 1221 1226 1231 1237 1238 1238 1238 1244 1244 1266 1282 1321 1346 1369 1405 1451 1485 1487 1515 1563 1592 1604 1618 1626 1662 1680 1697 1745 1770 1784 1805 1843 1843 1843 1840 1794 1790 1714 1714 1714 1733 1778 1855 1880 1886 1891 1891 1900 1911 1917 1923 1940 1940 1941 1941 1944 1945 1946 1947 1947 1947 1947 1948 1948 1949 1953 1956 1956 1956 1954 1954 1954 1954 1945 1914 1881 1843 1734 1589 1494 1440 1415 1414 1414 1414 1425 1434 1448 1456 1460 1462 1463 1464 1464 1464 1465 1466 1468 1470 1471 1473 1474 1476 1477 1478 1479 1479 1480 1482 1484 1486 1488 1490 1491 1492 1495 1498 1504 1508 1512 1514 1514 1514 1499 1493 1475 1455 1423 1390 1370 1362 1353 1343 1338 1331 1326 1323 1317 1311 1306 1304 1303 1303 1303 1303 1303 1303 1303 1305 1307 1307 1308 1309 1309 1314 1317 1322 1328 1339 1348 1361 1375 1397 1418 1446 1472 1498 1511 1529 1559 1572 1584 1595 1603 1610 1617 1622 1622 1623 1623 1625 1633 1642 1651 1664 1682 1705 1724 1739 1757 1785 1816 1886 1972 2100 2256 2256 2256 2236 2236 2236 2245 2245 2245 2244 2244 2244 2246 2246 2247 2247 2249 2251 2259 2267 2268 2268 2268 2268 2270 2275 2278 2281 2281 2283 2285 2286 2289 2292 2293 2293 2293 2293 2297 2302 2304 2306 2309 2313 2313 2313 2313 2312 2312 2312 2314 2318 2323 2327 2330 2331 2332 2336 2337 2337 2340 2343 2346 2349 2351 2351 2351 2351 2351 2351 2351 2353 2355 2361 2364 2364 2364 2364 2364 2364 2364 2366 2368 2371 2374 2375 2376 2378 2380 2383 2384 2385 2385 2385 2385 2386 2389 2394 2399 2402 2403 2404 2406 2407 2409 2410 2412 2412 2412 2412 2409 2409 2409 2413 2414 2414 2416 2417 2419 2423 2425 2426 2427 2428 2429 2432 2433 2433 2433 2433 2433 2434 2437 2442 2449 2456 2456 2456 2451 2451 2451 2453 2453 2453 2453 2454 2454 2454 2460 2465 2468 2468 2468 2468 2469 2472 2474 2475 2475 2475 2477 2480 2486 2490 2490 2490 2490 2490 2499 2518 2526 2527 2527 2527 2529 2529 2528 2528 2528 2524 2520 2518 2515 2510 2506 2505 2503 2503 2503 2498 2481 2476 2476 2476 2480 2480 2480 2479 2476 2474 2472 2471 2467 2464 2461 2457 2456 2445 2443 2442 2434 2432 2428 2422 2407 2384 2353 2306 2200 2156 2141 2123 2121 2120 2115 2107 2101 2096 2092 2089 2086 2084 2083 2080 2077 2076 2074 2073 2070 2067 2064 2061 2060 2056 2052 2047 2040 2036 2031 2025 2019 2012 2004 1998 1992 1987 1981 1975 1970 1964 1961 1957 1953 1947 1942 1935 1930 1926 1921 1917 1912 1908 1902 1897 1891 1885 1880 1874 1867 1861 1854 1848 1843 1838 1832 1827 1822 1816 1812 1807 1803 1799 1795 1790 1786 1783 1779 1773 1768 1764 1761 1758 1754 1751 1748 1745 1743 1740 1735 1730 1726 1721 1716 1711 1707 1704 1699 1695 1691 1688 1685 1681 1677 1674 1671 1669 1666 1663 1661 1659 1656 1652 1648 1642 1639 1635 1634 1634 1634 1632
840 909 981 1003 1046 1069 1071 1072 1074 1074 1077 1079 1082 1082 1085 1088 1089 1093 1094 1096 1097 1099 1102 1105 1109 1110 1113 1116 1119 1121 1121 1123 1123 1125 1127 1130 1134 1138 1142 1145 1148 1148 1150 1150 1150 1149 1149 1149 1151 1153 1157 1158 1158 1158 1159 1161 1162 1166 1171 1176 1180 1181 1183 1188 1192 1225 1234 1241 1260 1279 1295 1310 1324 1346 1359 1363 1379 1385 1403 1405 1405 1427 1452 1547 1608 1630 1648 1666 1668 1689 1720 1735 1752 1759 1768 1806 1827 1837 1839 1841 1841 1850 1853 1857 1857 1857 1827 1816 1814 1786 1779 1779 1779 1855 1889 1893 1901 1901 1901 1911 1917 1923 1928 1930 1934 1939 1942 1942 1942 1942 1942 1940 1940 1940 1942 1944 1951 1953 1953 1953 1951 1950 1949 1945 1935 1905 1873 1797 1682 1536 1449 1421 1406 1406 1406 1414 1425 1431 1437 1449 1454 1457 1460 1462 1464 1464 1464 1466 1468 1469 1469 1471 1473 1475 1476 1478 1478 1479 1480 1480 1481 1483 1485 1488 1490 1492 1493 1495 1497 1502 1502 1502 1502 1502 1492 1486 1464 1435 1399 1375 1367 1359 1350 1338 1330 1325 1320 1317 1313 1308 1304 1301 1299 1299 1299 1299 1300 1301 1302 1302 1302 1303 1303 1303 1304 1307 1310 1316 1321 1328 1334 1347 1364 1381 1402 1423 1447 1476 1496 1513 1538 1560 1576 1591 1603 1618 1626 1630 1630 1630 1630 1630 1634 1642 1652 1664 1683 1706 1724 1739 1757 1785 1816 1875 1963 2092 2249 2249 2249 2225 2225 2225 2238 2238 2238 2238 2237 2237 2237 2237 2239 2241 2244 2248 2257 2262 2262 2262 2261 2261 2261 2265 2269 2272 2274 2274 2276 2278 2281 2284 2285 2285 2286 2286 2289 2294 2297 2299 2303 2306 2307 2307 2307 2305 2305 2305 2307 2311 2315 2317 2318 2320 2322 2330 2334 2334 2335 2337 2339 2339 2339 2338 2338 2338 2341 2343 2344 2346 2350 2355 2356 2356 2356 2353 2353 2353 2354 2356 2360 2363 2365 2368 2369 2372 2375 2376 2376 2376 2376 2377 2378 2380 2385 2389 2394 2397 2399 2400 2401 2401 2402 2403 2403 2404 2404 2404 2404 2404 2404 2405 2406 2408 2409 2411 2414 2414 2416 2416 2417 2418 2421 2424 2426 2426 2426 2426 2426 2426 2429 2435 2440 2445 2445 2445 2443 2443 2443 2444 2445 2446 2446 2446 2447 2447 2452 2456 2458 2458 2460 2460 2463 2464 2464 2464 2465 2466 2468 2474 2478 2480 2480 2480 2480 2480 2485 2494 2506 2511 2511 2512 2513 2514 2514 2514 2514 2508 2504 2501 2500 2498 2498 2498 2497 2497 2495 2479 2470 2470 2470 2472 2472 2472 2471 2468 2464 2464 2463 2462 2462 2459 2454 2451 2446 2444 2443 2442 2434 2432 2428 2422 2407 2384 2356 2311 2208 2161 2146 2131 2127 2124 2118 2111 2101 2098 2094 2089 2086 2084 2083 2081 2079 2076 2074 2073 2071 2067 2064 2061 2060 2056 2052 2046 2040 2035 2030 2025 2019 2012 2004 1998 1992 1987 1981 1974 1968 1964 1961 1957 1953 1947 1942 1935 1930 1926 1921 1917 1912 1908 1903 1897 1891 1885 1880 1873 1867 1861 1854 1848 1844 1839 1834 1828 1823 1818 1812 1807 1803 1798 1794 1790 1786 1782 1778 1773 1768 1764 1761 1758 1755 1751 1748 1746 1743 1740 1735 1730 1726 1720 1716 1711 1707 1702 1697 1695 1691 1687 1685 1681 1678 1674 1672 1668 1666 1663 1661 1659 1656 1652 1648 1643 1639 1636 1634 1634 1633 1632
847 909 981 1003 1046 1065 1070 1072 1074 1076 1078 1080 1082 1083 1085 1088 1089 1093 1094 1096 1098 1100 1103 1107 1110 1112 1114 1117 1119 1121 1121 1123 1124 1125 1127 1130 1134 1138 1142 1146 1148 1149 1151 1151 1151 1151 1151 1152 1152 1153 1163 1163 1163 1162 1162 1162 1165 1171 1179 1185 1189 1196 1197 1204 1216 1229 1380 1413 1468 1499 1523 1534 1551 1560 1571 1578 1580 1585 1601 1612 1614 1614 1614 1683 1691 1692 1719 1769 1785 1786 1795 1801 1808 1822 1843 1843 1844 1844 1846 1846 1847 1850 1853 1857 1860 1860 1860 1859 1857 1834 1815 1815 1815 1850 1906 1906 1906 1906 1906 1907 1911 1913 1916 1917 1922 1925 1931 1934 1936 1936 1936 1936 1936 1935 1935 1935 1935 1940 1940 1940 1940 1937 1937 1937 1923 1889 1847 1757 1619 1504 1439 1411 1406 1406 1406 1411 1419 1423 1429 1435 1445 1451 1453 1458 1462 1464 1464 1465 1467 1469 1469 1470 1473 1474 1475 1477 1477 1478 1480 1480 1481 1481 1482 1484 1487 1487 1487 1487 1488 1493 1493 1493 1492 1487 1476 1466 1441 1403 1382 1368 1362 1355 1343 1333 1323 1317 1313 1311 1307 1303 1301 1298 1296 1296 1296 1296 1297 1297 1299 1299 1299 1299 1298 1298 1298 1300 1303 1308 1316 1323 1326 1332 1348 1368 1389 1412 1427 1447 1474 1499 1522 1545 1564 1581 1603 1618 1630 1639 1639 1639 1635 1635 1635 1644 1654 1666 1684 1707 1724 1741 1757 1785 1816 1874 1963 2092 2247 2247 2247 2215 2215 2215 2224 2229 2230 2230 2229 2229 2229 2229 2230 2234 2238 2242 2250 2252 2252 2253 2252 2252 2253 2253 2259 2263 2264 2267 2268 2272 2274 2275 2276 2277 2277 2278 2280 2285 2288 2289 2292 2295 2299 2299 2299 2298 2298 2298 2300 2301 2304 2305 2307 2310 2313 2321 2327 2330 2330 2330 2330 2330 2329 2329 2329 2330 2333 2338 2339 2340 2342 2347 2348 2348 2348 2346 2344 2344 2344 2345 2350 2353 2358 2362 2366 2367 2368 2368 2368 2368 2368 2371 2373 2375 2378 2382 2386 2391 2392 2393 2393 2394 2393 2393 2394 2395 2395 2396 2397 2397 2398 2399 2400 2402 2403 2406 2406 2406 2407 2407 2409 2412 2415 2417 2418 2419 2419 2420 2420 2420 2421 2424 2430 2434 2438 2439 2439 2439 2438 2439 2439 2439 2440 2441 2441 2443 2445 2447 2450 2450 2451 2453 2456 2456 2456 2456 2456 2456 2460 2465 2470 2471 2471 2472 2472 2472 2479 2484 2492 2497 2499 2499 2499 2499 2499 2497 2497 2495 2492 2488 2486 2486 2486 2486 2486 2484 2478 2471 2467 2467 2467 2467 2467 2459 2456 2454 2453 2453 2453 2453 2453 2453 2449 2444 2440 2437 2437 2434 2434 2432 2428 2422 2411 2387 2357 2325 2264 2174 2148 2131 2127 2124 2120 2114 2104 2099 2095 2089 2086 2085 2083 2081 2079 2077 2075 2073 2071 2067 2064 2061 2060 2056 2052 2047 2040 2035 2030 2023 2017 2008 2002 1997 1992 1986 1980 1973 1968 1963 1960 1957 1952 1947 1942 1936 1932 1926 1921 1917 1912 1908 1903 1898 1892 1885 1880 1873 1867 1861 1854 1849 1845 1841 1837 1830 1824 1820 1812 1808 1803 1798 1793 1790 1786 1782 1778 1773 1769 1764 1762 1758 1755 1752 1750 1747 1744 1740 1735 1731 1726 1720 1716 1711 1707 1702 1697 1694 1691 1687 1685 1681 1678 1675 1672 1669 1665 1663 1660 1659 1656 1652 1648 1643 1641 1638 1635 1634 1632 1631
872 1003 1029 1032 1046 1066 1070 1073 1075 1076 1079 1080 1082 1083 1083 1086 1089 1093 1095 1098 1098 1102 1104 1107 1111 1113 1117 1117 1119 1121 1121 1125 1125 1125 1127 1131 1134 1138 1144 1146 1149 1150 1151 1151 1155 1155 1155 1157 1159 1159 1166 1169 1171 1175 1178 1182 1185 1185 1185 1194 1213 1244 1246 1280 1313 1352 1385 1417 1643 1670 1691 1693 1696 1700 1725 1725 1725 1715 1697 1691 1690 1690 1690 1697 1709 1719 1719 1769 1785 1786 1795 1802 1824 1840 1843 1844 1845 1846 1847 1850 1850 1851 1853 1857 1859 1859 1859 1859 1857 1848 1847 1847 1847 1848 1910 1910 1910 1904 1904 1904 1904 1907 1909 1911 1914 1915 1919 1923 1930 1933 1933 1933 1931 1930 1923 1923 1923 1922 1922 1924 1925 1926 1926 1926 1911 1872 1819 1731 1619 1504 1438 1411 1408 1408 1408 1411 1412 1412 1413 1422 1434 1441 1443 1448 1455 1461 1463 1465 1467 1469 1469 1470 1472 1474 1475 1475 1477 1478 1479 1480 1481 1481 1481 1482 1483 1484 1484 1484 1484 1484 1483 1483 1483 1478 1463 1447 1430 1393 1374 1365 1358 1350 1336 1324 1319 1312 1308 1306 1303 1301 1298 1295 1293 1293 1293 1293 1293 1295 1295 1295 1295 1295 1295 1295 1295 1296 1296 1296 1302 1310 1315 1317 1331 1351 1376 1403 1421 1433 1443 1469 1499 1523 1538 1559 1591 1618 1630 1639 1642 1642 1642 1642 1642 1648 1659 1670 1685 1707 1724 1741 1762 1792 1818 1874 1963 2092 2242 2242 2242 2209 2207 2207 2207 2214 2216 2216 2219 2220 2221 2221 2221 2225 2230 2232 2237 2241 2243 2243 2243 2244 2244 2245 2248 2253 2255 2257 2260 2263 2265 2268 2268 2268 2268 2268 2270 2274 2274 2276 2276 2278 2283 2288 2288 2288 2289 2290 2291 2293 2294 2297 2297 2298 2301 2310 2316 2320 2323 2323 2323 2323 2322 2322 2322 2322 2326 2330 2332 2334 2334 2337 2340 2340 2340 2337 2334 2334 2334 2337 2340 2342 2345 2353 2358 2359 2359 2359 2359 2359 2361 2364 2368 2369 2369 2370 2374 2375 2379 2381 2382 2382 2382 2382 2383 2385 2387 2387 2388 2389 2392 2392 2393 2394 2395 2397 2398 2399 2399 2399 2404 2406 2408 2410 2410 2412 2412 2413 2413 2413 2414 2416 2419 2424 2428 2432 2433 2433 2433 2433 2433 2433 2433 2433 2434 2436 2439 2442 2444 2444 2445 2447 2447 2447 2447 2447 2447 2447 2451 2456 2461 2461 2462 2462 2462 2464 2470 2474 2479 2483 2486 2487 2489 2489 2489 2489 2488 2486 2481 2479 2474 2473 2473 2472 2469 2468 2465 2461 2458 2455 2453 2452 2452 2447 2446 2445 2443 2443 2443 2444 2444 2444 2440 2437 2433 2431 2429 2428 2424 2423 2421 2419 2411 2389 2358 2326 2267 2190 2150 2131 2127 2124 2120 2114 2104 2099 2095 2089 2086 2085 2083 2081 2079 2077 2075 2073 2072 2067 2064 2061 2061 2058 2053 2047 2039 2033 2026 2020 2013 2006 2002 1996 1991 1985 1978 1972 1966 1962 1960 1957 1952 1947 1942 1937 1933 1927 1921 1917 1912 1908 1903 1898 1893 1886 1880 1873 1867 1861 1854 1849 1846 1844 1841 1834 1825 1820 1815 1809 1804 1798 1793 1789 1785 1782 1778 1774 1770 1766 1762 1758 1755 1752 1751 1747 1744 1740 1735 1731 1726 1720 1716 1712 1708 1702 1697 1695 1691 1687 1684 1681 1678 1675 1672 1669 1665 1663 1660 1656 1654 1652 1648 1644 1642 1639 1637 1634 1632 1631
872 1032 1033 1036 1051 1069 1070 1079 1080 1080 1082 1082 1083 1083 1084 1086 1089 1093 1096 1098 1099 1104 1106 1108 1111 1113 1117 1117 1119 1124 1125 1125 1126 1126 1127 1131 1134 1139 1144 1146 1153 1153 1154 1155 1156 1164 1169 1172 1175 1175 1176 1190 1205 1223 1234 1244 1248 1254 1283 1323 1365 1469 1482 1485 1511 1538 1582 1618 1647 1744 1757 1757 1757 1757 1757 1756 1752 1742 1741 1736 1714 1714 1714 1716 1721 1731 1735 1769 1785 1786 1795 1802 1824 1840 1843 1844 1845 1846 1847 1850 1850 1850 1850 1852 1856 1857 1859 1859 1857 1848 1847 1847 1847 1848 1886 1901 1901 1901 1894 1894 1894 1899 1906 1909 1909 1911 1911 1914 1919 1925 1925 1925 1925 1921 1915 1910 1910 1909 1910 1910 1910 1910 1910 1910 1890 1854 1819 1730 1619 1504 1438 1411 1409 1409 1409 1411 1411 1411 1412 1412 1419 1426 1431 1438 1445 1453 1459 1462 1466 1467 1468 1469 1472 1473 1474 1475 1476 1478 1478 1479 1480 1480 1480 1481 1481 1483 1483 1483 1483 1481 1478 1478 1476 1474 1454 1437 1421 1387 1370 1362 1354 1344 1331 1321 1315 1310 1305 1302 1299 1296 1294 1292 1291 1291 1291 1291 1292 1292 1292 1292 1292 1292 1293 1293 1293 1293 1293 1293 1295 1296 1303 1309 1318 1336 1355 1380 1408 1420 1429 1449 1480 1498 1518 1543 1574 1602 1630 1639 1643 1649 1649 1653 1654 1657 1663 1675 1691 1712 1732 1751 1773 1801 1826 1874 1964 2101 2235 2235 2235 2206 2196 2196 2196 2198 2202 2205 2209 2210 2210 2211 2211 2214 2219 2222 2225 2230 2234 2235 2235 2236 2236 2238 2242 2244 2249 2251 2251 2252 2254 2258 2258 2258 2259 2259 2259 2261 2262 2262 2263 2264 2272 2274 2277 2279 2279 2280 2281 2283 2287 2288 2289 2290 2290 2297 2303 2305 2308 2312 2314 2314 2314 2312 2312 2312 2317 2322 2325 2326 2327 2327 2329 2329 2329 2327 2327 2327 2329 2332 2332 2332 2304 2304 2304 2344 2347 2348 2349 2350 2352 2358 2358 2358 2358 2358 2358 2360 2364 2368 2371 2371 2371 2373 2375 2377 2377 2378 2378 2381 2383 2383 2384 2385 2385 2386 2387 2390 2393 2395 2400 2402 2402 2403 2404 2405 2407 2407 2407 2407 2407 2407 2409 2413 2419 2424 2425 2425 2425 2424 2424 2424 2424 2425 2428 2428 2431 2435 2437 2437 2438 2438 2438 2438 2438 2438 2438 2439 2441 2445 2449 2452 2452 2453 2453 2457 2459 2462 2466 2473 2477 2477 2477 2476 2476 2476 2476 2476 2473 2468 2465 2463 2463 2459 2456 2454 2454 2453 2447 2443 2439 2438 2438 2438 2438 2437 2437 2437 2437 2437 2437 2437 2432 2429 2426 2424 2422 2419 2419 2418 2418 2417 2404 2389 2363 2329 2275 2196 2151 2131 2125 2122 2120 2114 2105 2099 2094 2089 2086 2084 2080 2079 2079 2077 2075 2074 2072 2069 2064 2064 2062 2061 2057 2047 2039 2031 2025 2017 2012 2006 2001 1996 1991 1985 1978 1971 1966 1962 1959 1956 1952 1947 1942 1938 1933 1927 1922 1918 1913 1909 1903 1898 1893 1886 1880 1875 1868 1861 1854 1850 1847 1845 1841 1834 1827 1822 1817 1812 1805 1798 1793 1789 1785 1781 1778 1774 1770 1766 1762 1758 1756 1753 1751 1747 1744 1739 1735 1731 1727 1723 1719 1714 1708 1702 1697 1695 1691 1687 1684 1681 1678 1676 1672 1669 1665 1663 1660 1656 1654 1652 1648 1646 1644 1641 1638 1634 1632 1631
872 1032 1037 1069 1070 1079 1079 1080 1084 1084 1086 1084 1084 1084 1086 1086 1089 1093 1096 1100 1102 1104 1106 1109 1113 1115 1118 1119 1120 1124 1128 1129 1129 1134 1136 1136 1138 1143 1147 1162 1170 1172 1172 1172 1193 1225 1242 1242 1242 1227 1227 1227 1246 1268 1301 1339 1380 1413 1531 1602 1626 1630 1634 1634 1649 1678 1697 1711 1726 1745 1760 1762 1763 1763 1764 1764 1764 1764 1765 1762 1761 1761 1738 1735 1733 1733 1735 1747 1753 1757 1764 1802 1824 1830 1831 1840 1841 1841 1847 1848 1848 1850 1850 1850 1853 1853 1853 1848 1848 1847 1847 1837 1837 1837 1847 1890 1890 1890 1890 1890 1890 1894 1898 1902 1905 1908 1908 1908 1908 1905 1905 1904 1904 1904 1902 1901 1900 1900 1899 1899 1899 1899 1899 1897 1875 1853 1819 1730 1623 1508 1439 1412 1411 1410 1410 1410 1410 1411 1411 1412 1417 1420 1424 1430 1437 1445 1451 1456 1461 1465 1468 1469 1470 1472 1473 1473 1475 1477 1478 1479 1479 1479 1479 1480 1481 1482 1482 1482 1482 1481 1478 1474 1471 1466 1444 1424 1410 1379 1365 1355 1346 1339 1325 1316 1310 1307 1305 1299 1296 1292 1291 1288 1287 1287 1287 1287 1287 1287 1287 1287 1287 1287 1289 1289 1289 1287 1287 1287 1289 1289 1293 1297 1309 1322 1343 1357 1378 1403 1420 1434 1454 1479 1500 1521 1546 1584 1618 1636 1643 1649 1659 1665 1668 1669 1674 1684 1700 1719 1738 1759 1779 1807 1835 1885 1975 2104 2228 2228 2228 2199 2189 2189 2189 2191 2194 2195 2197 2198 2198 2198 2199 2201 2208 2211 2215 2220 2224 2224 2225 2227 2227 2230 2233 2237 2240 2243 2245 2245 2245 2246 2250 2251 2251 2251 2251 2251 2251 2253 2253 2255 2259 2264 2269 2272 2272 2272 2273 2276 2279 2280 2280 2281 2282 2287 2291 2293 2295 2299 2302 2304 2304 2304 2304 2304 2308 2314 2317 2319 2319 2320 2320 2320 2320 2320 2320 2321 2323 2323 2323 2321 2288 2288 2288 2325 2336 2339 2339 2341 2344 2348 2348 2348 2348 2347 2347 2348 2350 2356 2357 2358 2360 2363 2366 2366 2368 2368 2369 2370 2373 2373 2373 2373 2373 2373 2375 2381 2385 2389 2394 2396 2396 2396 2396 2396 2396 2396 2396 2396 2396 2397 2399 2403 2406 2411 2414 2414 2414 2414 2414 2414 2415 2419 2419 2421 2423 2425 2427 2427 2427 2427 2427 2427 2428 2428 2428 2429 2429 2430 2434 2436 2438 2446 2450 2450 2450 2451 2455 2463 2465 2465 2465 2463 2462 2461 2461 2461 2461 2458 2452 2448 2447 2442 2442 2442 2441 2441 2431 2425 2425 2425 2427 2429 2429 2429 2429 2429 2429 2428 2428 2428 2423 2420 2418 2417 2414 2414 2413 2412 2411 2408 2402 2389 2370 2354 2291 2213 2154 2131 2125 2122 2120 2112 2105 2099 2092 2089 2086 2084 2080 2078 2078 2076 2075 2074 2072 2070 2066 2065 2063 2062 2058 2047 2039 2031 2025 2017 2010 2005 2000 1995 1991 1985 1978 1971 1966 1961 1958 1954 1951 1947 1944 1940 1935 1929 1923 1920 1913 1910 1904 1898 1893 1888 1882 1877 1870 1864 1856 1851 1847 1845 1841 1834 1827 1823 1818 1812 1805 1798 1793 1789 1785 1781 1777 1774 1770 1766 1763 1760 1757 1754 1751 1747 1743 1739 1735 1731 1727 1723 1719 1715 1709 1704 1699 1695 1691 1687 1684 1681 1678 1676 1673 1669 1665 1663 1660 1656 1654 1652 1650 1647 1644 1641 1638 1635 1632 1631
872 1032 1080 1080 1080 1087 1087 1087 1087 1087 1087 1087 1087 1092 1094 1094 1096 1102 1103 1104 1104 1105 1106 1109 1113 1115 1119 1120 1121 1124 1133 1134 1134 1136 1136 1136 1138 1182 1198 1205 1212 1252 1292 1293 1294 1294 1294 1279 1259 1252 1248 1248 1252 1283 1316 1404 1500 1542 1601 1653 1688 1704 1706 1708 1718 1729 1750 1768 1771 1771 1771 1768 1768 1768 1769 1771 1775 1775 1776 1776 1776 1778 1778 1778 1759 1753 1753 1747 1753 1756 1757 1758 1764 1780 1784 1789 1793 1820 1841 1843 1845 1845 1847 1849 1849 1849 1842 1838 1835 1834 1825 1813 1813 1813 1825 1882 1888 1888 1888 1887 1887 1887 1890 1891 1896 1898 1898 1898 1894 1891 1891 1891 1891 1893 1893 1894 1894 1894 1893 1893 1893 1893 1892 1886 1871 1853 1822 1730 1631 1532 1450 1418 1411 1410 1410 1410 1410 1411 1411 1412 1416 1420 1423 1429 1432 1439 1446 1451 1456 1460 1465 1468 1469 1469 1472 1472 1474 1476 1477 1478 1479 1479 1479 1480 1481 1482 1482 1482 1482 1480 1477 1473 1471 1458 1435 1413 1405 1378 1362 1350 1338 1331 1319 1311 1307 1303 1300 1296 1290 1287 1286 1284 1283 1281 1281 1281 1280 1280 1280 1280 1280 1280 1280 1279 1278 1278 1278 1278 1280 1284 1287 1291 1298 1311 1329 1346 1362 1382 1400 1417 1433 1459 1479 1497 1523 1559 1594 1615 1638 1649 1663 1675 1679 1683 1685 1693 1707 1721 1740 1767 1791 1825 1849 1893 1977 2109 2209 2209 2209 2180 2180 2180 2181 2184 2186 2188 2188 2188 2188 2189 2190 2191 2195 2199 2204 2209 2214 2214 2214 2214 2216 2220 2224 2227 2231 2234 2234 2234 2234 2237 2240 2242 2243 2243 2243 2243 2243 2244 2245 2248 2251 2257 2261 2262 2262 2263 2265 2269 2269 2270 2271 2271 2273 2277 2279 2281 2284 2287 2292 2294 2295 2295 2297 2297 2298 2304 2311 2313 2313 2313 2311 2311 2311 2313 2314 2316 2316 2316 2316 2310 2288 2288 2288 2314 2327 2333 2333 2334 2334 2335 2337 2337 2338 2338 2338 2339 2342 2343 2344 2345 2345 2350 2355 2356 2356 2357 2357 2358 2361 2364 2364 2364 2363 2363 2363 2369 2375 2380 2385 2385 2385 2384 2384 2384 2384 2384 2384 2385 2385 2387 2389 2390 2390 2392 2394 2396 2397 2400 2401 2402 2406 2410 2411 2411 2412 2414 2414 2414 2414 2414 2415 2416 2417 2418 2418 2418 2417 2417 2417 2421 2431 2439 2442 2443 2443 2443 2444 2449 2453 2453 2453 2449 2447 2447 2447 2447 2447 2441 2432 2429 2429 2428 2428 2428 2426 2426 2417 2415 2415 2415 2419 2422 2424 2424 2424 2422 2420 2420 2418 2415 2410 2408 2408 2408 2408 2408 2407 2406 2406 2401 2395 2389 2370 2356 2327 2250 2175 2134 2125 2122 2118 2112 2105 2099 2092 2089 2086 2085 2080 2078 2076 2076 2075 2074 2072 2071 2068 2067 2065 2064 2058 2047 2039 2031 2025 2017 2010 2005 2000 1995 1991 1985 1978 1971 1966 1961 1957 1954 1951 1947 1944 1940 1935 1931 1926 1922 1917 1911 1904 1898 1892 1888 1882 1877 1871 1864 1857 1851 1847 1845 1841 1834 1827 1823 1818 1812 1805 1799 1794 1789 1785 1781 1777 1773 1770 1766 1763 1761 1757 1754 1751 1747 1742 1738 1734 1731 1727 1723 1719 1715 1710 1704 1700 1696 1692 1688 1684 1681 1678 1677 1673 1670 1666 1664 1661 1658 1656 1654 1651 1647 1644 1641 1638 1635 1634 1631
