1504 1507 1516 1523 1523 1523 1521 1521 1521 1521 1523 1527 1527 1548 1552 1568 1602 1606 1606 1606 1606 1592 1589 1586 1586 1592 1593 1618 1618 1618 1617 1606 1606 1606 1627 1640 1652 1658 1683 1683 1683 1682 1656 1652 1652 1648 1648 1648 1642 1638 1630 1615 1604 1597 1587 1577 1540 1497 1466 1439 1350 1230 1087 968 878 814 783 776 774 767 767 767 768 769 769 768 768 768 768 768 768 768 768 769 769 769 769 769 769 770 771 772 772 773 774 776 777 778 779 781 782 783 784 784 786 786 787 788 789 790 790 791 792 793 794 796 796 797 800 801 802 802 803 805 805 806 808 809 810 810 811 812 813 814 815 815 815 817 818 819 819 819 821 821 823 824 824 825 827 828 828 829 830 830 831 833 833 834 834 835 836 837 838 839 839 840 842 843 843 845 847 849 850 854 855 856 858 862 878 878 879 879 879 881 883 886 889 892 895 895 897 898 898 898 901 903 907 911 915 915 915 915 913 913 913 913 913 914 914 915 915 915 915 913 912 908 908 908 907 908 909 909 909 910 911 912 913 914 915 916 917 918 919 920 921 922 923 925 926 927 929 930 932 934 935 936 938 940 942 944 946 948 949 952 954 955 957 958 962 964 966 967 971 973 977 980 984 984 990 994 1006 1014 1021 1046 1087 1167 1450 1647 1779 1878 1949 1975 1996 2001 2005 2005 2007 2011 2011 2011 2011 2011 2017 2022 2022 2023 2023 2023 2026 2029 2032 2035 2036 2039 2042 2046 2051 2054 2057 2059 2061 2063 2065 2066 2069 2071 2072 2073 2074 2076 2078 2080 2081 2081 2081 2082 2083 2084 2085 2086 2086 2086 2086 2087 2087 2090 2095 2100 2103 2105 2108 2111 2113 2115 2119 2122 2125 2128 2132 2134 2136 2138 2138 2139 2141 2142 2144 2144 2146 2147 2148 2149 2149 2151 2151 2152 2153 2153 2153 2157 2159 2164 2170 2170 2171 2172 2174 2177 2179 2182 2183 2184 2186 2188 2190 2193 2194 2196 2197 2197 2199 2200 2202 2202 2203 2204 2205 2205 2206 2207 2211 2214 2217 2217 2219 2221 2223 2227 2229 2230 2232 2234 2236 2237 2238 2240 2242 2244 2245 2247 2247 2248 2250 2251 2252 2254 2257 2258 2259 2259 2264 2265 2265 2267 2270 2274 2277 2279 2281 2281 2281 2280 2280 2280 2280 2281 2282 2283 2283 2284 2284 2285 2285 2285 2285 2285 2285 2286 2288 2289 2292 2295 2295 2295 2295 2302 2304 2307 2309 2310 2311 2312 2314 2315 2319 2321 2321 2321 2322 2322 2322 2323 2323 2325 2326 2326 2326 2324 2324 2324 2327 2331 2351 2357 2451 2669 2754 2879 2913 2913 2913 2912 2910 2907 2907 2907 2909 2912 2912 2912 2909 2907 2905 2903 2903 2903 2905 2911 2911 2915 2917 2917 2917 2913 2912 2909 2902 2879 2832 2774 2679 2587 2492 2279 2235 2205 2193 2174 2166 2161 2157 2151 2144 2136 2128 2122 2114 2107 2100 2093 2085 2081 2075 2070 2065 2058 2052 2047 2042 2037 2032 2027 2022 2018 2013 2009 2006 2003 2000 1997 1993 1990 1988 1986 1984 1981 1978 1973 1970 1967 1962 1959 1955 1951 1948 1944 1943 1939 1937 1934 1931 1930 1930 1930 1930 1929 1928 1927 1926 1924 1924 1924 1923 1923 1923 1920 1920 1919 1916 1915 1914 1912 1912 1910 1909 1908 1905 1902 1897 1897 1897
1502 1507 1512 1516 1520 1520 1521 1521 1521 1527 1527 1528 1537 1549 1569 1577 1602 1606 1608 1608 1608 1605 1604 1601 1593 1593 1593 1618 1619 1619 1619 1609 1609 1609 1640 1648 1656 1673 1686 1686 1686 1682 1660 1658 1658 1649 1649 1648 1642 1636 1627 1615 1605 1597 1585 1569 1530 1463 1428 1395 1285 1153 1085 966 859 814 783 779 772 768 768 768 768 769 769 768 768 768 768 768 768 768 768 769 769 769 769 770 770 771 771 772 773 773 775 776 777 778 780 781 782 783 784 785 786 787 788 789 789 791 791 791 792 793 795 796 798 799 800 801 803 803 804 807 808 810 810 810 811 811 812 812 815 815 816 816 816 818 819 820 820 821 822 822 823 825 826 827 828 828 829 831 832 832 833 834 834 835 836 836 837 838 839 839 841 841 843 843 845 846 847 849 851 854 856 857 860 873 879 879 879 879 879 881 883 886 889 893 895 895 896 898 898 898 901 902 904 907 915 915 915 915 915 915 915 920 920 920 919 918 918 918 916 915 914 913 912 911 910 910 910 910 910 911 912 913 913 914 915 917 918 919 920 920 922 923 924 926 927 928 930 931 932 934 935 937 939 940 942 944 946 948 949 952 954 956 957 959 961 964 965 967 970 972 975 978 982 983 986 993 997 1001 1008 1014 1026 1063 1147 1390 1664 1730 1825 1895 1961 1995 2005 2005 2007 2007 2007 2008 2008 2008 2016 2021 2021 2022 2022 2023 2025 2028 2031 2034 2036 2039 2044 2047 2051 2054 2057 2058 2061 2063 2065 2067 2070 2071 2073 2073 2074 2076 2078 2080 2081 2081 2081 2082 2083 2084 2085 2086 2086 2086 2086 2087 2088 2092 2098 2101 2104 2106 2109 2113 2115 2117 2120 2124 2125 2128 2132 2134 2137 2138 2139 2140 2141 2144 2144 2145 2146 2147 2148 2149 2150 2151 2152 2153 2153 2154 2154 2157 2159 2164 2170 2170 2171 2172 2174 2177 2179 2182 2183 2184 2186 2188 2190 2191 2194 2196 2197 2197 2199 2200 2202 2203 2203 2204 2206 2207 2208 2210 2211 2214 2217 2217 2219 2221 2223 2227 2230 2233 2233 2235 2236 2237 2238 2240 2242 2244 2245 2246 2247 2248 2250 2251 2253 2255 2257 2258 2258 2259 2264 2265 2265 2267 2271 2274 2277 2280 2281 2281 2281 2281 2281 2281 2281 2282 2283 2284 2284 2285 2285 2286 2286 2286 2286 2286 2286 2286 2288 2290 2292 2295 2295 2296 2298 2302 2307 2310 2312 2313 2315 2315 2315 2317 2319 2322 2322 2322 2323 2323 2323 2323 2323 2325 2327 2327 2327 2325 2325 2325 2327 2331 2344 2348 2452 2666 2754 2896 2921 2921 2921 2912 2910 2910 2910 2912 2913 2913 2915 2915 2913 2912 2909 2906 2905 2905 2905 2911 2914 2915 2915 2915 2915 2913 2912 2909 2902 2870 2832 2753 2673 2571 2375 2260 2227 2205 2193 2174 2171 2168 2157 2151 2144 2136 2128 2122 2116 2109 2100 2093 2085 2079 2075 2070 2065 2058 2052 2046 2042 2037 2032 2028 2022 2018 2012 2007 2005 2002 2000 1997 1994 1992 1991 1987 1984 1981 1978 1973 1970 1967 1963 1959 1954 1950 1949 1946 1944 1941 1938 1934 1931 1930 1930 1930 1930 1929 1928 1927 1926 1924 1923 1923 1923 1923 1923 1920 1920 1919 1916 1915 1914 1912 1912 1910 1909 1908 1905 1902 1898 1897 1895
1502 1505 1516 1516 1520 1520 1520 1520 1520 1520 1525 1537 1547 1567 1588 1594 1598 1606 1635 1642 1642 1642 1634 1622 1616 1616 1616 1618 1626 1626 1626 1628 1628 1638 1642 1650 1659 1679 1695 1695 1695 1686 1662 1662 1662 1651 1651 1649 1638 1632 1627 1615 1605 1596 1583 1555 1502 1425 1397 1362 1234 1153 1042 943 852 788 781 779 772 769 769 769 769 769 768 768 768 768 768 768 768 769 769 769 769 770 770 771 771 772 772 772 774 774 776 777 777 779 780 781 783 783 785 786 786 788 788 789 790 791 791 793 793 794 795 797 798 800 802 802 803 805 807 810 810 811 811 811 811 813 813 814 815 816 817 817 818 818 820 821 822 822 823 823 825 826 828 828 829 830 830 831 833 834 834 835 835 836 837 838 838 838 839 841 842 842 843 845 846 847 849 850 851 855 856 857 867 873 879 879 879 879 879 881 883 886 889 893 895 895 895 898 898 899 900 900 901 901 907 915 915 915 915 915 916 922 923 924 924 924 923 922 920 917 917 916 914 913 912 911 911 911 911 912 913 913 914 914 916 917 918 919 921 922 923 924 925 927 927 929 930 932 933 935 936 937 939 941 943 945 946 948 950 952 954 956 958 960 962 964 965 967 969 972 973 977 978 981 985 991 992 993 994 998 1005 1032 1063 1111 1243 1530 1738 1780 1856 1960 1993 2005 2007 2007 2007 2004 2004 2004 2013 2020 2020 2022 2022 2023 2025 2028 2031 2034 2037 2042 2045 2048 2051 2053 2056 2058 2060 2063 2065 2067 2070 2071 2073 2074 2074 2076 2078 2080 2080 2081 2081 2082 2083 2084 2085 2086 2086 2086 2086 2087 2089 2092 2098 2101 2104 2107 2111 2113 2116 2117 2121 2124 2125 2128 2132 2134 2137 2138 2139 2140 2142 2144 2144 2145 2146 2148 2149 2149 2150 2151 2152 2153 2153 2155 2156 2157 2160 2164 2170 2170 2170 2172 2174 2177 2179 2182 2182 2184 2186 2188 2189 2191 2194 2196 2197 2197 2199 2201 2202 2203 2204 2205 2206 2208 2209 2210 2212 2216 2217 2218 2219 2221 2224 2228 2231 2233 2234 2235 2236 2237 2238 2240 2242 2244 2245 2246 2246 2248 2250 2252 2254 2255 2257 2257 2258 2259 2262 2265 2265 2268 2271 2275 2277 2280 2281 2283 2283 2283 2281 2281 2281 2282 2283 2284 2284 2285 2286 2286 2286 2287 2287 2287 2288 2288 2288 2290 2292 2296 2296 2297 2299 2303 2308 2310 2312 2314 2316 2318 2318 2319 2320 2323 2323 2323 2323 2323 2323 2323 2324 2325 2326 2326 2326 2326 2326 2326 2330 2331 2338 2346 2454 2666 2775 2896 2921 2921 2921 2912 2910 2910 2910 2912 2913 2915 2917 2917 2917 2916 2913 2908 2905 2905 2905 2912 2913 2913 2913 2912 2911 2910 2909 2908 2892 2870 2832 2747 2673 2556 2343 2258 2223 2205 2196 2191 2186 2176 2162 2151 2143 2136 2129 2122 2116 2110 2102 2093 2085 2079 2074 2071 2066 2058 2052 2046 2041 2036 2032 2028 2022 2018 2012 2006 2002 2001 1998 1997 1994 1992 1991 1987 1984 1981 1979 1974 1971 1968 1963 1959 1954 1951 1949 1948 1945 1941 1938 1935 1932 1930 1930 1930 1930 1929 1928 1927 1926 1924 1923 1923 1923 1923 1923 1920 1920 1917 1916 1914 1913 1912 1912 1910 1908 1907 1905 1902 1900 1897 1895
1519 1519 1502 1502 1502 1509 1509 1509 1511 1511 1522 1537 1547 1569 1588 1594 1598 1606 1638 1667 1667 1667 1653 1629 1627 1627 1627 1630 1642 1659 1665 1665 1665 1658 1658 1658 1667 1679 1695 1695 1695 1690 1662 1662 1662 1654 1654 1649 1638 1632 1626 1615 1605 1584 1570 1546 1499 1401 1368 1362 1234 1101 989 901 836 787 778 770 769 769 769 769 769 769 768 768 768 768 768 768 768 769 769 769 769 770 770 771 772 772 773 773 774 775 776 777 778 780 781 782 783 784 785 786 787 788 789 790 790 791 792 793 794 794 795 797 799 801 803 804 805 805 808 811 811 812 812 812 813 813 815 816 816 820 820 820 820 820 820 821 823 824 824 825 826 827 829 829 831 831 832 833 834 834 835 835 836 837 838 838 839 840 840 841 842 843 844 845 846 848 849 850 852 856 858 859 868 873 879 879 880 880 880 884 885 886 889 892 894 895 895 898 898 899 900 900 901 901 907 915 915 916 916 917 920 923 924 925 926 927 927 926 924 922 921 918 915 913 912 911 911 911 912 912 913 914 915 915 916 918 919 920 921 922 924 925 926 928 928 930 931 932 934 936 937 939 940 941 943 945 947 948 950 953 954 957 958 960 962 964 966 967 969 972 973 976 978 981 984 988 990 992 993 996 1005 1017 1028 1054 1114 1213 1430 1677 1788 1853 1968 1987 1994 2004 2004 2004 2004 2004 2009 2017 2018 2021 2022 2023 2025 2028 2030 2034 2039 2043 2046 2049 2051 2053 2056 2058 2060 2063 2065 2067 2070 2071 2073 2074 2075 2076 2078 2079 2080 2081 2082 2083 2084 2085 2085 2086 2086 2086 2086 2087 2089 2092 2098 2101 2104 2107 2111 2113 2116 2117 2121 2124 2125 2127 2131 2134 2137 2138 2139 2140 2142 2144 2145 2146 2147 2149 2150 2151 2152 2152 2152 2153 2154 2156 2157 2158 2160 2164 2168 2170 2170 2173 2174 2178 2179 2182 2182 2184 2186 2187 2189 2191 2194 2196 2197 2198 2199 2201 2202 2204 2205 2206 2208 2208 2210 2211 2212 2216 2217 2220 2220 2223 2225 2229 2232 2234 2235 2236 2237 2238 2239 2240 2243 2245 2246 2246 2247 2248 2250 2252 2254 2256 2257 2258 2258 2258 2261 2265 2265 2269 2271 2275 2277 2280 2282 2283 2283 2283 2281 2281 2281 2282 2283 2284 2284 2285 2286 2287 2287 2287 2287 2288 2288 2289 2289 2290 2292 2297 2297 2301 2301 2304 2308 2312 2313 2316 2318 2319 2319 2320 2321 2324 2326 2326 2326 2326 2326 2326 2326 2327 2327 2327 2326 2326 2326 2327 2331 2331 2338 2346 2472 2666 2778 2910 2921 2921 2921 2909 2909 2909 2910 2912 2913 2915 2919 2919 2919 2916 2914 2912 2908 2908 2908 2912 2913 2913 2913 2910 2909 2909 2908 2903 2892 2870 2824 2744 2665 2543 2314 2251 2223 2208 2204 2194 2186 2176 2164 2149 2140 2136 2129 2123 2118 2111 2104 2094 2086 2079 2075 2071 2066 2061 2052 2046 2041 2036 2032 2028 2022 2014 2010 2005 2001 1998 1998 1997 1994 1992 1991 1987 1983 1981 1978 1975 1972 1968 1964 1959 1954 1951 1949 1948 1945 1942 1939 1936 1932 1930 1930 1929 1929 1929 1927 1927 1926 1924 1923 1923 1922 1921 1921 1920 1917 1917 1915 1913 1912 1912 1911 1910 1908 1906 1904 1902 1900 1897 1895
1525 1525 1506 1503 1503 1503 1503 1503 1511 1511 1522 1537 1551 1580 1597 1597 1600 1606 1638 1668 1668 1668 1658 1632 1631 1631 1631 1638 1642 1671 1671 1671 1670 1668 1668 1669 1669 1679 1695 1695 1695 1690 1662 1662 1662 1660 1660 1649 1638 1632 1625 1615 1601 1574 1561 1545 1469 1367 1348 1326 1203 1035 944 861 836 787 772 769 769 769 769 769 769 769 769 768 768 768 768 768 769 769 769 769 770 770 770 771 772 773 774 774 775 775 777 778 779 780 781 782 783 784 785 786 787 789 789 790 791 792 792 793 795 795 796 798 800 802 803 806 806 806 809 812 812 812 812 813 813 813 815 818 819 820 820 820 821 821 821 822 823 824 825 826 827 829 830 831 832 833 833 834 835 835 835 836 837 838 839 840 840 841 841 842 843 844 845 846 847 849 849 850 852 856 858 861 868 873 876 877 877 878 881 884 885 886 889 890 893 895 896 898 898 899 900 900 900 901 907 915 916 916 920 922 922 923 924 925 926 927 927 926 924 922 921 919 915 914 914 912 912 912 913 913 914 915 915 917 917 918 919 921 922 923 924 927 928 928 930 931 932 933 935 936 938 939 940 942 944 946 948 949 951 953 955 957 958 960 962 964 966 967 970 972 973 976 978 980 983 987 990 990 992 995 1004 1009 1013 1029 1055 1087 1146 1284 1561 1749 1849 1898 1970 2003 2003 2003 2004 2004 2009 2015 2016 2020 2020 2020 2023 2026 2029 2032 2039 2043 2046 2049 2052 2053 2056 2058 2060 2063 2065 2067 2070 2071 2073 2074 2075 2076 2078 2079 2080 2081 2082 2083 2084 2086 2087 2087 2087 2087 2087 2088 2089 2092 2097 2100 2104 2108 2111 2112 2116 2117 2121 2123 2125 2126 2127 2131 2136 2138 2138 2140 2142 2144 2146 2146 2148 2150 2151 2152 2153 2153 2153 2153 2154 2157 2158 2160 2161 2164 2165 2168 2170 2173 2175 2178 2179 2181 2182 2184 2185 2187 2189 2192 2194 2196 2197 2199 2201 2202 2203 2204 2205 2207 2208 2210 2212 2213 2214 2216 2217 2220 2221 2224 2228 2231 2233 2234 2235 2236 2237 2239 2240 2242 2243 2245 2246 2246 2247 2248 2250 2252 2254 2256 2257 2258 2258 2258 2261 2265 2267 2270 2271 2275 2277 2280 2282 2282 2282 2282 2282 2282 2282 2282 2283 2284 2284 2285 2286 2287 2287 2287 2288 2289 2291 2291 2292 2292 2293 2298 2302 2305 2306 2307 2309 2313 2315 2316 2318 2320 2320 2321 2322 2325 2326 2329 2329 2329 2329 2328 2328 2328 2328 2328 2326 2326 2326 2327 2331 2331 2338 2346 2479 2670 2781 2911 2915 2915 2915 2907 2907 2907 2909 2910 2910 2914 2919 2919 2919 2916 2915 2915 2914 2914 2915 2915 2915 2915 2912 2910 2910 2909 2908 2903 2892 2877 2824 2740 2665 2450 2314 2251 2221 2208 2204 2194 2186 2176 2164 2149 2140 2137 2129 2125 2120 2114 2105 2095 2087 2079 2074 2071 2066 2061 2052 2046 2040 2036 2030 2024 2016 2012 2007 2004 2000 1997 1997 1996 1994 1992 1989 1985 1983 1981 1978 1975 1972 1968 1964 1959 1954 1951 1949 1948 1945 1942 1940 1936 1933 1930 1928 1928 1927 1927 1927 1926 1923 1923 1922 1922 1921 1919 1919 1917 1917 1916 1915 1913 1912 1911 1910 1908 1907 1905 1904 1902 1900 1898 1896
1525 1525 1512 1502 1502 1502 1509 1509 1511 1511 1525 1537 1558 1589 1600 1600 1604 1608 1638 1668 1668 1668 1658 1632 1632 1632 1637 1644 1645 1674 1690 1690 1690 1684 1669 1669 1669 1673 1695 1697 1697 1697 1688 1682 1676 1670 1659 1649 1638 1632 1625 1618 1601 1568 1552 1529 1468 1348 1315 1264 1110 981 900 857 825 785 768 768 768 768 768 769 769 769 769 768 768 768 768 769 769 769 770 770 770 770 771 771 773 773 774 775 776 777 778 778 780 780 782 782 783 785 786 787 788 789 790 790 792 792 793 794 795 796 797 799 801 802 804 806 807 809 810 813 813 813 813 813 813 813 815 818 820 820 820 820 821 821 823 823 823 824 827 828 829 831 832 832 833 834 835 835 836 836 837 837 838 839 839 840 841 842 842 843 843 845 846 847 849 849 850 850 852 856 858 862 868 871 873 875 875 878 881 884 885 887 888 890 893 895 896 898 898 898 900 900 904 909 913 916 917 918 924 924 924 924 924 925 926 927 927 926 924 923 921 920 919 917 915 913 913 913 914 914 915 916 916 917 918 920 921 922 923 925 926 927 929 930 932 932 934 935 936 937 939 940 942 943 944 946 948 950 952 953 955 957 959 961 963 965 966 968 970 972 975 976 978 980 982 986 989 990 990 993 1003 1007 1012 1020 1036 1047 1070 1127 1240 1519 1682 1764 1869 1992 2001 2003 2005 2005 2009 2012 2015 2015 2015 2018 2020 2023 2029 2031 2040 2043 2046 2049 2052 2054 2056 2058 2060 2061 2062 2065 2069 2070 2072 2073 2075 2076 2078 2079 2080 2081 2082 2083 2084 2086 2087 2088 2088 2088 2088 2088 2088 2091 2096 2099 2104 2108 2110 2112 2114 2117 2120 2123 2123 2126 2127 2131 2134 2136 2137 2137 2141 2143 2146 2147 2148 2150 2151 2152 2153 2154 2155 2155 2155 2159 2160 2161 2162 2164 2165 2168 2170 2173 2175 2178 2179 2181 2183 2184 2185 2187 2190 2193 2195 2196 2199 2199 2201 2202 2204 2206 2207 2207 2209 2210 2212 2214 2215 2218 2219 2220 2222 2225 2230 2234 2235 2236 2236 2237 2238 2240 2241 2242 2244 2245 2246 2246 2248 2249 2251 2253 2255 2257 2258 2258 2258 2260 2261 2265 2269 2270 2272 2275 2278 2281 2282 2282 2282 2282 2282 2282 2282 2282 2283 2284 2284 2285 2286 2287 2288 2290 2291 2291 2292 2293 2294 2294 2295 2299 2306 2308 2310 2311 2311 2314 2315 2316 2319 2321 2322 2323 2325 2328 2329 2331 2331 2331 2330 2330 2330 2330 2330 2329 2326 2326 2326 2327 2334 2340 2340 2348 2484 2671 2840 2910 2910 2910 2906 2906 2906 2906 2909 2910 2910 2914 2919 2919 2919 2918 2917 2917 2917 2917 2918 2918 2918 2915 2912 2910 2910 2909 2908 2901 2892 2877 2824 2740 2665 2440 2314 2249 2221 2208 2204 2194 2186 2176 2164 2149 2140 2137 2132 2129 2123 2115 2105 2096 2087 2079 2074 2070 2066 2061 2052 2043 2038 2035 2030 2024 2016 2012 2007 2004 2000 1997 1995 1995 1993 1991 1988 1985 1982 1981 1978 1975 1972 1968 1964 1959 1954 1951 1949 1947 1945 1942 1940 1938 1934 1930 1927 1926 1924 1923 1923 1921 1920 1920 1920 1920 1920 1919 1918 1916 1916 1915 1914 1913 1912 1910 1909 1908 1907 1905 1904 1903 1901 1898 1898
1515 1515 1515 1501 1501 1501 1518 1532 1532 1534 1537 1537 1564 1589 1600 1600 1604 1608 1632 1668 1668 1668 1658 1633 1633 1633 1640 1645 1650 1674 1690 1690 1690 1684 1669 1669 1669 1673 1695 1702 1702 1702 1696 1693 1684 1670 1659 1648 1638 1632 1625 1618 1601 1568 1541 1529 1453 1348 1293 1212 1058 939 878 854 802 782 767 767 767 769 769 769 769 769 769 769 769 769 769 769 769 770 770 770 771 771 771 772 773 774 775 776 777 777 778 779 781 781 782 783 784 786 787 788 788 790 790 791 792 793 794 794 796 797 798 800 802 803 805 807 809 812 813 813 813 813 812 812 812 814 815 819 821 821 821 822 822 822 823 823 824 824 827 830 830 832 833 834 834 835 835 836 837 837 837 838 839 839 840 841 842 843 843 844 845 845 846 848 849 849 850 851 852 857 859 862 865 870 873 874 875 878 881 884 886 887 888 890 892 896 897 898 898 898 898 901 904 909 913 916 920 923 924 925 926 926 926 926 926 926 926 925 924 924 922 921 921 919 916 914 914 914 915 916 916 917 918 918 919 921 922 923 925 925 927 929 930 931 933 933 935 937 937 939 940 942 943 944 946 948 949 951 953 954 956 958 960 961 963 965 966 968 970 972 975 977 978 980 982 985 987 989 989 993 999 1001 1005 1017 1024 1028 1042 1078 1122 1195 1406 1693 1743 1865 1948 1999 2005 2005 2009 2009 2009 2010 2010 2015 2019 2020 2029 2031 2041 2043 2046 2049 2052 2054 2056 2058 2058 2059 2061 2064 2067 2070 2071 2073 2073 2076 2077 2079 2080 2081 2082 2082 2084 2086 2087 2088 2088 2088 2088 2088 2088 2090 2093 2099 2104 2108 2110 2112 2114 2116 2119 2121 2123 2126 2127 2131 2134 2136 2137 2137 2140 2143 2146 2147 2150 2152 2153 2155 2155 2155 2156 2156 2156 2160 2161 2162 2162 2164 2165 2168 2170 2173 2176 2177 2179 2181 2183 2184 2186 2187 2190 2194 2196 2198 2199 2201 2201 2204 2206 2207 2209 2209 2210 2211 2214 2215 2217 2220 2221 2222 2223 2227 2231 2234 2235 2236 2237 2237 2238 2240 2241 2242 2244 2245 2247 2248 2249 2251 2253 2254 2255 2258 2259 2259 2260 2262 2263 2267 2269 2271 2272 2275 2279 2282 2282 2282 2282 2282 2282 2282 2282 2283 2283 2284 2284 2286 2287 2288 2289 2292 2293 2294 2294 2295 2295 2295 2298 2302 2307 2310 2312 2313 2314 2315 2315 2316 2319 2321 2324 2325 2329 2330 2331 2332 2333 2333 2333 2333 2333 2332 2332 2331 2327 2327 2327 2327 2337 2346 2357 2358 2499 2671 2841 2908 2908 2908 2906 2906 2906 2909 2910 2911 2911 2914 2919 2919 2919 2919 2919 2920 2920 2921 2920 2920 2919 2916 2912 2912 2911 2910 2908 2900 2892 2877 2803 2721 2634 2426 2308 2248 2218 2203 2201 2193 2185 2175 2161 2149 2143 2141 2137 2129 2124 2115 2105 2096 2087 2078 2073 2069 2064 2058 2051 2043 2038 2035 2030 2024 2016 2011 2007 2004 2000 1997 1995 1994 1992 1989 1986 1983 1982 1980 1978 1975 1971 1967 1963 1959 1954 1951 1948 1947 1944 1942 1940 1938 1935 1930 1927 1923 1923 1923 1923 1921 1919 1919 1919 1919 1919 1918 1917 1916 1915 1915 1914 1913 1912 1910 1909 1908 1907 1905 1905 1904 1904 1901 1900
1519 1519 1519 1500 1500 1500 1518 1534 1540 1541 1557 1566 1592 1620 1622 1622 1625 1632 1632 1668 1668 1668 1658 1637 1637 1637 1641 1648 1650 1675 1692 1692 1692 1684 1669 1669 1669 1673 1698 1702 1702 1702 1701 1696 1684 1671 1659 1646 1638 1634 1627 1625 1605 1568 1541 1521 1441 1333 1272 1141 1022 934 863 841 802 772 766 766 766 770 770 770 769 769 769 769 769 769 769 770 770 770 770 771 771 772 772 773 774 775 776 777 777 778 778 779 781 782 783 783 785 786 787 788 789 790 791 791 792 794 794 795 797 797 798 801 802 804 806 807 810 813 813 814 814 813 813 813 813 814 815 819 822 822 823 823 824 824 826 827 827 827 829 831 833 835 835 836 836 837 837 837 838 838 838 839 840 840 841 842 843 843 844 845 845 846 847 849 850 850 850 851 853 857 859 862 865 870 873 874 875 877 881 884 885 887 888 890 892 896 897 898 898 898 898 901 904 909 913 916 920 923 924 925 926 926 926 926 926 926 926 925 925 924 924 922 921 919 916 915 915 915 916 916 916 917 918 918 921 922 922 924 926 926 928 929 931 932 934 935 937 937 939 940 941 943 944 946 947 949 950 951 954 955 957 958 960 962 963 965 967 969 971 973 975 977 978 980 982 984 987 988 989 993 996 998 1004 1012 1017 1022 1036 1049 1057 1090 1160 1276 1552 1729 1802 1903 2005 2005 2009 2009 2009 2009 2009 2009 2014 2016 2022 2031 2040 2043 2044 2048 2051 2054 2056 2058 2058 2059 2061 2064 2067 2069 2071 2072 2073 2075 2076 2078 2079 2080 2082 2082 2084 2084 2086 2087 2088 2088 2088 2088 2088 2090 2093 2099 2104 2108 2110 2112 2114 2116 2119 2121 2123 2126 2127 2131 2134 2136 2137 2137 2139 2143 2146 2148 2151 2153 2155 2157 2157 2157 2156 2156 2156 2160 2161 2162 2163 2165 2165 2168 2171 2173 2176 2177 2179 2180 2183 2184 2185 2188 2190 2194 2196 2198 2200 2201 2202 2205 2206 2208 2210 2210 2211 2211 2214 2216 2219 2222 2223 2224 2225 2229 2232 2234 2235 2236 2237 2238 2239 2240 2241 2243 2244 2245 2247 2248 2250 2252 2254 2255 2256 2258 2260 2260 2261 2262 2263 2267 2270 2272 2272 2276 2279 2283 2283 2283 2283 2283 2283 2283 2284 2285 2286 2286 2286 2288 2289 2290 2291 2293 2296 2296 2296 2296 2296 2296 2299 2303 2308 2312 2313 2314 2315 2315 2316 2317 2319 2322 2324 2327 2329 2332 2333 2333 2334 2336 2336 2336 2336 2336 2336 2334 2327 2327 2327 2330 2340 2351 2365 2365 2540 2670 2865 2893 2893 2895 2895 2895 2906 2913 2913 2914 2916 2920 2920 2920 2919 2919 2919 2921 2922 2922 2922 2921 2919 2917 2917 2913 2913 2911 2908 2900 2886 2859 2787 2689 2572 2426 2308 2248 2213 2203 2201 2193 2185 2174 2158 2149 2143 2141 2137 2129 2124 2115 2105 2096 2086 2078 2073 2067 2063 2057 2047 2038 2033 2031 2030 2025 2019 2012 2007 2004 2000 1997 1994 1993 1991 1988 1985 1982 1979 1976 1975 1973 1970 1966 1963 1959 1954 1951 1948 1947 1942 1941 1940 1938 1935 1931 1927 1925 1923 1923 1922 1920 1919 1919 1919 1919 1919 1918 1917 1916 1915 1914 1914 1913 1912 1909 1908 1908 1908 1907 1906 1906 1906 1903 1901
1522 1522 1522 1501 1501 1501 1520 1534 1540 1555 1559 1581 1612 1625 1625 1625 1625 1632 1632 1668 1668 1668 1658 1637 1637 1637 1642 1649 1650 1678 1691 1691 1691 1680 1669 1669 1669 1681 1698 1710 1710 1710 1707 1696 1684 1672 1658 1645 1638 1635 1628 1625 1605 1568 1541 1490 1399 1316 1221 1078 964 910 861 834 799 772 767 767 767 771 771 771 770 770 770 770 770 770 770 770 770 770 771 771 772 772 774 774 775 775 776 777 778 778 779 780 782 783 784 784 785 786 788 788 789 790 791 792 793 794 795 796 797 798 800 801 803 805 807 810 815 816 816 815 814 813 813 813 813 815 818 821 824 824 824 824 824 825 826 830 830 831 831 833 836 838 838 838 839 839 839 839 839 840 840 841 841 841 842 844 844 845 845 845 847 847 848 849 850 850 851 852 856 860 862 864 865 871 873 874 875 877 881 883 884 886 888 889 892 896 898 898 898 898 898 900 904 909 913 916 920 923 924 925 925 926 926 926 926 926 926 925 925 925 925 922 921 919 916 915 915 915 916 917 917 918 919 920 921 922 924 925 927 928 930 930 933 933 935 936 938 939 940 942 944 944 946 947 949 950 951 953 954 956 958 959 961 963 964 965 967 969 971 973 975 977 978 980 982 984 987 988 989 993 995 997 1001 1005 1010 1012 1021 1029 1036 1045 1078 1123 1193 1442 1724 1804 1854 1963 2004 2004 2004 2004 2004 2004 2008 2013 2019 2031 2041 2043 2043 2045 2049 2054 2055 2057 2058 2059 2061 2064 2067 2069 2071 2072 2073 2074 2075 2077 2078 2079 2081 2082 2083 2084 2084 2087 2087 2088 2088 2088 2088 2090 2093 2099 2104 2108 2110 2112 2114 2116 2119 2121 2124 2126 2129 2131 2134 2136 2137 2137 2139 2142 2145 2149 2152 2154 2155 2157 2157 2157 2157 2157 2157 2160 2161 2163 2163 2165 2165 2169 2171 2174 2176 2177 2179 2180 2182 2184 2185 2188 2190 2194 2196 2198 2200 2202 2203 2205 2207 2208 2210 2211 2211 2212 2216 2218 2220 2223 2224 2225 2227 2229 2232 2235 2235 2237 2238 2238 2240 2240 2242 2244 2245 2245 2247 2249 2250 2252 2255 2256 2258 2259 2262 2262 2262 2264 2264 2267 2273 2273 2273 2276 2279 2283 2283 2283 2283 2283 2283 2283 2284 2285 2286 2288 2288 2290 2291 2292 2293 2295 2298 2298 2298 2297 2297 2297 2300 2303 2308 2312 2313 2314 2315 2315 2316 2318 2320 2323 2325 2329 2331 2333 2334 2334 2335 2337 2338 2339 2340 2340 2340 2337 2333 2333 2333 2335 2343 2356 2421 2588 2603 2670 2869 2877 2877 2877 2877 2877 2908 2915 2920 2921 2924 2924 2924 2922 2919 2919 2919 2921 2922 2922 2922 2922 2919 2917 2916 2914 2913 2911 2908 2899 2874 2841 2764 2664 2551 2413 2292 2231 2213 2203 2201 2192 2179 2168 2157 2149 2144 2141 2137 2129 2124 2113 2101 2093 2085 2078 2072 2067 2062 2055 2046 2036 2032 2031 2030 2025 2019 2012 2007 2004 2000 1997 1993 1992 1988 1985 1983 1980 1977 1976 1972 1969 1967 1965 1961 1959 1954 1950 1946 1944 1942 1941 1940 1938 1935 1931 1927 1926 1924 1923 1922 1920 1919 1919 1919 1919 1918 1918 1917 1916 1915 1914 1914 1912 1910 1910 1910 1910 1910 1910 1908 1908 1907 1906 1904
1522 1523 1523 1523 1520 1520 1520 1534 1548 1559 1563 1598 1621 1632 1632 1632 1632 1636 1638 1681 1681 1681 1668 1652 1644 1644 1644 1654 1661 1678 1686 1686 1686 1674 1674 1674 1679 1686 1698 1711 1711 1711 1707 1696 1682 1671 1656 1645 1642 1635 1628 1625 1605 1555 1541 1458 1352 1241 1151 1045 924 869 860 834 790 772 767 767 767 771 771 771 770 770 770 770 770 770 770 770 771 771 772 772 772 774 774 775 776 777 778 778 779 780 780 781 782 783 784 785 786 787 788 789 790 791 792 793 793 794 796 796 797 799 800 803 804 806 808 812 817 817 817 816 815 815 815 815 816 818 821 822 825 826 826 826 826 826 826 830 833 834 835 837 837 838 840 840 840 841 840 840 841 841 841 842 842 843 844 844 845 846 846 847 848 849 849 849 850 850 851 852 856 861 865 867 868 872 874 874 875 877 881 883 883 884 886 888 891 896 899 899 899 900 900 900 904 905 907 910 912 913 914 915 916 917 926 926 928 927 926 926 925 925 925 922 919 919 917 915 915 915 917 917 918 918 919 920 922 924 924 926 927 929 931 932 934 935 936 938 939 940 942 943 944 946 947 948 949 951 952 954 955 957 959 960 962 963 964 966 967 969 971 973 975 977 979 980 982 985 987 988 989 993 995 997 1001 1004 1008 1011 1015 1026 1032 1041 1047 1070 1104 1171 1335 1591 1736 1845 1923 2001 2001 2003 2003 2003 2007 2010 2017 2032 2041 2043 2043 2045 2047 2050 2054 2056 2057 2058 2061 2064 2067 2069 2071 2072 2073 2074 2075 2077 2078 2079 2081 2082 2083 2084 2084 2087 2087 2088 2088 2089 2089 2092 2097 2103 2105 2108 2111 2112 2115 2118 2122 2125 2126 2126 2129 2131 2134 2136 2137 2137 2139 2142 2146 2149 2152 2154 2155 2157 2157 2157 2158 2158 2158 2160 2162 2164 2165 2166 2167 2170 2173 2175 2177 2178 2179 2180 2182 2184 2186 2188 2190 2193 2195 2197 2200 2202 2203 2205 2207 2209 2211 2211 2212 2215 2217 2219 2221 2224 2225 2225 2228 2230 2232 2235 2235 2237 2238 2238 2240 2241 2243 2245 2246 2248 2248 2250 2252 2253 2256 2257 2259 2260 2262 2263 2264 2265 2266 2268 2273 2273 2274 2276 2280 2283 2283 2283 2283 2283 2284 2284 2285 2285 2286 2288 2289 2290 2292 2293 2293 2295 2298 2298 2298 2298 2298 2298 2301 2303 2308 2311 2313 2314 2315 2316 2317 2318 2320 2323 2326 2329 2333 2334 2335 2335 2336 2337 2339 2339 2340 2340 2340 2337 2336 2336 2336 2339 2346 2368 2441 2592 2665 2671 2875 2877 2877 2877 2877 2877 2908 2923 2924 2924 2926 2924 2924 2922 2919 2919 2919 2920 2922 2922 2922 2922 2919 2917 2916 2914 2911 2910 2898 2897 2866 2831 2748 2648 2547 2369 2256 2231 2213 2209 2204 2190 2178 2166 2157 2149 2144 2140 2134 2126 2120 2111 2099 2090 2085 2078 2072 2067 2061 2052 2043 2035 2032 2031 2029 2026 2019 2012 2007 2003 1999 1996 1992 1989 1986 1984 1982 1980 1977 1975 1972 1968 1966 1962 1959 1956 1953 1948 1946 1944 1941 1941 1940 1937 1933 1931 1927 1927 1925 1924 1922 1920 1919 1919 1918 1918 1918 1917 1916 1916 1915 1914 1913 1912 1910 1910 1910 1910 1910 1910 1908 1908 1908 1907 1907
1522 1531 1531 1531 1521 1521 1521 1534 1548 1559 1595 1621 1628 1634 1634 1634 1638 1638 1641 1689 1700 1700 1700 1673 1661 1661 1661 1672 1687 1689 1689 1689 1683 1677 1677 1677 1684 1695 1708 1721 1721 1721 1707 1690 1680 1671 1656 1646 1642 1635 1627 1623 1605 1555 1526 1436 1305 1182 1085 999 900 865 828 804 783 770 767 767 767 771 771 771 770 770 770 770 770 770 770 771 771 771 772 773 773 774 775 776 777 778 778 779 780 780 781 783 783 784 785 785 787 788 788 789 790 791 792 793 795 796 796 797 799 800 802 803 805 806 809 813 821 821 821 817 817 817 818 819 820 821 821 823 825 827 827 827 827 827 828 831 836 837 838 838 840 840 842 842 843 843 843 843 843 843 843 844 844 845 845 846 846 846 847 848 849 849 850 852 852 852 852 853 857 865 869 872 873 874 875 875 875 877 881 883 883 884 886 888 891 896 900 900 900 900 900 901 904 904 905 905 907 910 912 913 914 917 925 926 926 927 926 926 925 925 925 921 918 918 917 916 916 916 917 918 918 919 919 921 922 925 926 928 928 930 932 933 934 936 938 939 941 942 943 944 946 947 948 950 951 952 954 954 956 958 960 961 962 963 965 966 968 970 971 973 976 977 979 981 983 985 988 989 991 993 995 997 1001 1004 1006 1011 1012 1024 1028 1035 1038 1053 1065 1097 1153 1248 1489 1702 1730 1937 1981 1996 1999 1999 2002 2005 2015 2032 2041 2043 2043 2045 2047 2050 2052 2055 2057 2058 2061 2064 2067 2070 2071 2072 2073 2074 2075 2077 2078 2079 2081 2082 2083 2084 2084 2087 2087 2088 2089 2089 2089 2093 2098 2103 2108 2110 2113 2114 2117 2119 2123 2126 2127 2128 2130 2133 2134 2136 2137 2139 2140 2142 2146 2149 2152 2154 2155 2157 2158 2158 2158 2159 2160 2162 2164 2166 2167 2167 2168 2171 2174 2175 2177 2179 2180 2181 2182 2184 2186 2188 2190 2193 2195 2197 2200 2202 2203 2205 2207 2209 2211 2212 2213 2215 2218 2220 2221 2225 2226 2227 2229 2232 2233 2235 2235 2237 2238 2240 2241 2243 2245 2247 2248 2249 2250 2252 2254 2255 2257 2258 2259 2260 2262 2264 2265 2265 2266 2269 2273 2274 2275 2277 2280 2283 2283 2284 2284 2284 2285 2285 2285 2286 2286 2288 2290 2290 2292 2293 2293 2295 2298 2298 2298 2298 2298 2299 2301 2303 2308 2310 2311 2314 2315 2316 2317 2318 2320 2323 2327 2330 2333 2335 2335 2336 2336 2337 2339 2340 2340 2340 2340 2337 2337 2337 2337 2340 2355 2372 2448 2598 2712 2717 2875 2877 2877 2877 2877 2877 2913 2923 2924 2924 2926 2924 2924 2923 2920 2920 2920 2920 2922 2922 2922 2921 2919 2916 2914 2912 2911 2910 2898 2887 2866 2824 2728 2624 2529 2343 2256 2225 2219 2212 2204 2190 2176 2166 2157 2152 2146 2138 2131 2124 2114 2109 2096 2088 2082 2078 2072 2067 2060 2050 2040 2035 2032 2031 2029 2025 2019 2012 2007 2003 1999 1996 1992 1989 1985 1983 1982 1980 1977 1974 1971 1968 1965 1962 1959 1954 1951 1948 1946 1944 1941 1941 1940 1936 1933 1930 1927 1927 1925 1924 1922 1920 1919 1918 1918 1918 1917 1917 1916 1915 1914 1913 1912 1911 1910 1910 1910 1910 1910 1910 1908 1908 1908 1908 1908
1522 1533 1533 1535 1535 1535 1535 1555 1582 1604 1623 1630 1634 1638 1638 1638 1638 1638 1651 1700 1703 1705 1705 1703 1689 1689 1689 1693 1693 1695 1695 1692 1683 1678 1678 1678 1688 1703 1717 1721 1721 1721 1701 1684 1672 1663 1655 1650 1642 1629 1611 1591 1569 1536 1492 1414 1245 1135 1036 944 871 835 824 786 772 770 767 767 767 771 771 771 771 771 771 771 771 771 771 772 772 772 773 773 774 775 776 776 777 778 779 780 780 781 782 783 784 784 786 786 787 788 789 790 791 792 793 794 795 796 797 798 800 801 802 803 806 808 809 815 820 821 821 821 821 821 821 822 822 822 822 823 825 827 827 827 828 828 828 835 839 841 841 842 843 844 844 844 844 844 845 845 845 845 845 845 846 846 846 846 847 848 848 849 850 851 852 854 854 854 855 855 862 868 872 873 875 875 875 876 876 879 882 884 884 884 886 888 891 897 901 901 901 901 901 902 904 904 905 905 907 908 912 913 914 917 923 926 926 927 926 926 925 923 923 920 918 918 918 917 917 917 918 918 919 920 921 922 924 925 927 928 930 931 932 934 936 937 939 941 942 943 945 946 947 948 949 950 952 953 954 955 957 959 960 962 963 964 966 968 969 970 972 974 976 978 979 982 983 985 988 990 992 994 996 998 1000 1003 1005 1008 1012 1017 1019 1025 1035 1046 1058 1065 1078 1124 1208 1365 1631 1835 1887 1963 1979 1998 2000 2003 2014 2032 2041 2043 2044 2045 2047 2050 2052 2055 2057 2058 2061 2064 2067 2070 2071 2072 2073 2074 2075 2077 2078 2080 2081 2082 2083 2084 2084 2087 2087 2088 2089 2089 2092 2094 2099 2104 2109 2111 2113 2115 2117 2121 2125 2126 2128 2129 2131 2133 2134 2136 2138 2141 2142 2144 2146 2149 2152 2154 2155 2157 2157 2158 2158 2161 2162 2164 2164 2166 2168 2169 2171 2172 2174 2176 2178 2179 2181 2182 2182 2184 2186 2188 2190 2193 2195 2197 2200 2202 2204 2205 2207 2209 2211 2213 2213 2216 2220 2223 2223 2225 2226 2228 2230 2232 2234 2236 2237 2239 2240 2241 2242 2244 2247 2249 2250 2251 2252 2254 2256 2257 2258 2259 2259 2260 2262 2265 2266 2266 2267 2272 2274 2274 2276 2278 2279 2282 2283 2283 2284 2285 2285 2286 2287 2287 2288 2289 2290 2291 2292 2293 2293 2295 2298 2298 2298 2298 2298 2300 2301 2303 2307 2309 2311 2313 2315 2316 2317 2318 2320 2324 2328 2330 2334 2335 2335 2336 2338 2339 2339 2340 2340 2340 2338 2336 2336 2336 2340 2345 2355 2372 2452 2602 2745 2895 2895 2895 2895 2887 2887 2887 2914 2923 2923 2923 2922 2922 2921 2921 2921 2920 2920 2920 2921 2921 2921 2919 2916 2916 2914 2912 2911 2910 2898 2883 2866 2813 2715 2579 2496 2324 2250 2225 2219 2212 2204 2189 2175 2166 2159 2153 2146 2138 2128 2119 2109 2104 2096 2087 2080 2073 2067 2062 2056 2049 2040 2035 2032 2031 2029 2025 2019 2012 2007 2003 1999 1995 1992 1988 1985 1983 1982 1980 1977 1974 1970 1968 1965 1962 1958 1954 1951 1948 1945 1943 1941 1940 1938 1936 1932 1930 1927 1927 1925 1924 1922 1920 1919 1918 1917 1917 1917 1917 1916 1915 1914 1913 1912 1911 1910 1910 1910 1910 1909 1909 1908 1908 1908 1908 1908
1545 1549 1549 1549 1549 1549 1553 1577 1592 1604 1623 1630 1634 1648 1657 1671 1679 1683 1695 1702 1709 1715 1715 1709 1709 1699 1699 1699 1719 1719 1719 1698 1683 1681 1681 1681 1689 1703 1717 1717 1717 1712 1693 1676 1663 1657 1654 1650 1640 1620 1595 1569 1532 1515 1491 1347 1195 1085 989 903 848 830 799 783 772 772 769 769 769 772 772 772 771 771 771 771 771 772 772 772 772 773 774 774 775 776 776 778 779 779 780 780 782 782 783 784 784 785 786 787 788 789 790 791 791 792 793 794 796 797 798 800 801 802 803 803 806 809 812 815 820 821 821 822 823 823 825 825 825 823 823 823 826 827 828 828 828 829 831 837 840 841 842 842 845 847 847 847 847 846 845 845 845 845 845 846 846 846 847 848 848 848 850 851 852 852 854 856 857 857 859 859 868 872 873 874 875 875 877 878 879 883 885 886 886 888 889 890 895 899 901 902 903 903 905 905 905 905 905 905 907 908 912 914 916 917 923 926 926 926 925 922 921 921 919 919 918 918 918 918 918 918 918 919 920 921 922 923 925 927 928 929 931 932 933 935 937 938 940 942 943 944 946 947 948 949 950 951 953 955 955 957 958 960 961 962 964 965 966 968 969 971 973 975 976 978 980 982 983 986 989 991 992 994 996 998 1001 1003 1005 1007 1010 1012 1013 1017 1025 1038 1040 1042 1047 1077 1120 1358 1628 1835 1885 1963 1978 1997 2000 2003 2012 2031 2041 2043 2044 2045 2047 2050 2052 2055 2057 2058 2061 2065 2068 2070 2071 2072 2074 2074 2075 2077 2079 2080 2082 2083 2083 2084 2085 2087 2087 2088 2090 2092 2093 2096 2100 2106 2110 2112 2113 2115 2119 2123 2126 2127 2129 2130 2132 2133 2135 2136 2139 2141 2143 2145 2146 2149 2152 2154 2155 2156 2157 2157 2158 2161 2163 2164 2164 2166 2168 2170 2173 2173 2175 2176 2178 2180 2181 2182 2184 2185 2187 2188 2191 2193 2196 2199 2200 2202 2204 2206 2207 2209 2211 2213 2213 2216 2220 2223 2226 2227 2227 2229 2231 2234 2237 2238 2240 2240 2242 2243 2244 2246 2248 2250 2252 2253 2254 2256 2258 2259 2260 2261 2261 2262 2262 2266 2268 2268 2270 2272 2274 2275 2276 2278 2279 2282 2282 2283 2284 2285 2286 2287 2287 2289 2289 2290 2291 2291 2292 2293 2293 2295 2298 2298 2298 2298 2298 2300 2301 2303 2307 2307 2310 2313 2315 2317 2318 2319 2320 2324 2328 2331 2334 2335 2336 2337 2338 2339 2340 2340 2340 2340 2338 2338 2338 2339 2342 2345 2355 2373 2453 2636 2747 2907 2915 2915 2915 2906 2906 2906 2916 2922 2922 2922 2922 2922 2922 2922 2922 2922 2922 2923 2923 2923 2921 2919 2916 2916 2916 2916 2914 2912 2901 2872 2865 2802 2701 2571 2479 2307 2240 2226 2219 2212 2202 2189 2175 2166 2159 2155 2146 2135 2124 2115 2108 2100 2096 2087 2077 2071 2066 2062 2056 2049 2040 2035 2032 2030 2029 2025 2019 2012 2007 2002 1998 1995 1992 1988 1985 1982 1981 1978 1976 1973 1970 1968 1965 1961 1958 1954 1951 1947 1945 1943 1941 1940 1938 1936 1932 1930 1927 1927 1925 1924 1922 1920 1919 1918 1917 1917 1916 1916 1915 1915 1914 1913 1912 1911 1910 1910 1910 1910 1910 1909 1908 1908 1908 1908 1908
1547 1553 1553 1553 1553 1553 1553 1583 1596 1611 1623 1636 1637 1648 1657 1671 1701 1701 1704 1704 1708 1710 1713 1713 1710 1704 1704 1704 1719 1719 1719 1710 1690 1686 1686 1686 1690 1703 1717 1717 1717 1701 1685 1672 1660 1657 1653 1652 1640 1617 1573 1524 1502 1473 1410 1269 1140 1044 941 852 838 803 786 779 773 771 771 771 772 772 772 772 772 772 772 772 772 772 772 773 773 774 774 775 775 776 777 778 779 780 781 781 783 784 784 785 785 786 787 788 788 789 790 792 792 793 794 795 796 797 799 801 801 804 805 806 808 812 814 815 820 820 821 824 825 826 827 827 827 827 827 827 827 829 830 832 833 834 837 839 840 841 842 842 846 848 850 850 850 846 846 846 846 846 846 847 848 848 848 849 849 850 851 853 853 854 856 858 859 860 861 863 873 873 875 875 875 875 879 879 880 883 885 888 890 890 891 893 896 899 903 904 904 906 907 907 907 905 905 905 905 908 912 914 916 917 922 924 924 924 921 920 920 919 919 919 918 918 918 918 918 918 918 920 920 922 923 924 926 927 929 930 932 933 934 936 938 940 941 943 944 946 946 948 949 950 952 953 954 955 956 958 960 961 962 963 965 966 967 969 970 972 974 975 977 979 980 982 984 986 989 991 992 994 996 999 1001 1003 1005 1007 1010 1012 1013 1017 1024 1038 1040 1040 1046 1075 1119 1178 1294 1527 1679 1785 1913 1986 1996 1997 2010 2027 2035 2040 2044 2045 2048 2050 2053 2055 2057 2058 2061 2065 2069 2070 2071 2072 2074 2076 2076 2078 2080 2081 2082 2083 2084 2085 2086 2087 2088 2089 2090 2092 2094 2096 2101 2106 2112 2114 2115 2117 2122 2125 2128 2129 2130 2132 2133 2135 2137 2138 2139 2142 2144 2146 2147 2149 2152 2154 2155 2155 2157 2157 2158 2161 2163 2164 2164 2166 2168 2170 2174 2174 2175 2176 2179 2180 2183 2184 2184 2186 2189 2190 2192 2194 2196 2199 2200 2203 2205 2206 2208 2209 2212 2212 2213 2216 2220 2223 2226 2228 2228 2230 2231 2234 2237 2239 2241 2242 2243 2244 2245 2247 2249 2251 2253 2255 2257 2258 2259 2260 2261 2263 2263 2264 2264 2268 2269 2270 2271 2273 2274 2276 2276 2278 2280 2281 2282 2284 2285 2286 2286 2287 2288 2289 2290 2290 2291 2293 2293 2293 2294 2295 2296 2298 2298 2299 2299 2300 2301 2303 2307 2307 2310 2313 2315 2317 2318 2319 2321 2326 2330 2333 2335 2335 2337 2339 2339 2339 2340 2341 2341 2341 2338 2338 2338 2340 2342 2345 2352 2379 2471 2645 2759 2913 2920 2920 2920 2920 2920 2920 2922 2922 2922 2922 2922 2922 2922 2924 2924 2924 2924 2924 2923 2923 2920 2918 2916 2916 2916 2921 2921 2921 2904 2871 2865 2800 2699 2539 2433 2271 2237 2226 2219 2211 2198 2187 2175 2168 2160 2155 2146 2135 2124 2114 2107 2099 2089 2085 2077 2071 2066 2062 2056 2049 2042 2036 2032 2029 2026 2024 2018 2012 2007 2002 1998 1995 1992 1988 1985 1982 1980 1978 1976 1973 1970 1967 1965 1961 1958 1954 1951 1947 1945 1943 1941 1940 1938 1935 1933 1930 1928 1927 1925 1924 1922 1920 1919 1918 1917 1917 1916 1916 1915 1915 1913 1912 1912 1910 1910 1910 1910 1910 1910 1909 1908 1908 1908 1908 1909
1557 1558 1558 1558 1558 1558 1561 1584 1605 1621 1625 1636 1637 1641 1657 1671 1701 1701 1701 1701 1701 1708 1710 1710 1710 1704 1704 1704 1719 1719 1719 1710 1694 1691 1690 1690 1690 1702 1702 1702 1702 1686 1677 1672 1660 1657 1653 1650 1640 1615 1573 1511 1475 1439 1360 1229 1095 968 881 838 819 798 785 778 773 773 773 773 773 773 773 773 773 773 773 773 773 773 773 774 774 774 775 776 777 777 779 779 780 781 781 782 783 784 785 785 786 786 787 789 790 790 791 792 792 794 795 796 797 798 800 801 802 805 806 807 809 813 814 819 821 821 822 824 828 828 829 829 829 827 827 827 829 830 831 833 834 836 839 840 840 841 842 845 846 848 852 852 852 852 852 852 849 849 849 849 849 850 850 850 851 852 853 854 855 855 858 861 862 865 867 873 873 873 872 872 872 875 879 880 881 883 885 888 890 892 894 894 896 901 904 904 904 907 907 907 907 905 905 905 905 908 912 914 916 917 919 922 922 922 920 919 919 918 918 918 918 918 918 918 918 919 920 921 921 923 924 926 927 928 930 931 932 934 936 937 939 940 942 944 945 946 947 949 950 951 953 954 955 957 958 959 961 962 963 965 966 967 969 970 971 973 974 976 978 980 982 984 986 987 989 991 994 995 997 1000 1002 1004 1006 1007 1010 1012 1013 1017 1024 1031 1032 1035 1044 1057 1077 1115 1157 1202 1369 1599 1793 1814 1958 1985 1995 2019 2029 2035 2042 2045 2048 2050 2053 2055 2056 2058 2061 2067 2069 2070 2071 2072 2074 2076 2078 2079 2080 2081 2082 2083 2085 2086 2087 2089 2089 2090 2091 2093 2095 2096 2102 2109 2112 2114 2116 2119 2123 2126 2128 2130 2131 2133 2134 2136 2138 2139 2140 2143 2145 2146 2148 2151 2152 2153 2154 2155 2156 2157 2158 2159 2162 2164 2164 2166 2169 2171 2174 2175 2175 2176 2179 2180 2183 2184 2186 2187 2190 2191 2194 2196 2198 2200 2203 2204 2206 2207 2209 2211 2212 2212 2212 2213 2217 2223 2226 2228 2228 2230 2231 2234 2237 2239 2241 2242 2243 2244 2246 2248 2250 2252 2254 2256 2259 2260 2261 2262 2263 2265 2265 2266 2266 2270 2270 2271 2271 2273 2276 2276 2277 2278 2280 2281 2282 2284 2285 2286 2287 2288 2289 2290 2291 2291 2293 2294 2294 2294 2294 2295 2297 2298 2298 2299 2299 2300 2301 2303 2307 2308 2310 2314 2316 2318 2319 2321 2323 2326 2330 2333 2336 2337 2338 2339 2339 2340 2340 2341 2341 2341 2339 2339 2339 2342 2345 2347 2352 2384 2508 2665 2817 2913 2923 2923 2923 2923 2922 2922 2923 2923 2922 2922 2922 2922 2924 2924 2924 2924 2924 2924 2923 2922 2920 2920 2920 2921 2924 2928 2928 2928 2904 2869 2793 2787 2675 2537 2397 2265 2237 2226 2219 2209 2197 2183 2173 2168 2162 2155 2146 2135 2123 2114 2107 2098 2089 2083 2077 2071 2065 2060 2054 2049 2042 2037 2032 2028 2024 2023 2018 2012 2007 2001 1998 1994 1991 1988 1985 1982 1980 1978 1976 1973 1970 1967 1965 1961 1958 1954 1951 1947 1945 1943 1939 1939 1937 1935 1933 1931 1929 1927 1925 1924 1922 1921 1919 1918 1918 1917 1916 1916 1915 1915 1913 1912 1912 1911 1911 1910 1910 1910 1910 1910 1910 1911 1912 1912 1913
1557 1558 1570 1572 1572 1572 1580 1590 1605 1621 1624 1632 1633 1635 1635 1666 1701 1701 1701 1701 1701 1702 1709 1709 1709 1704 1704 1704 1708 1710 1710 1710 1695 1691 1691 1691 1693 1693 1693 1687 1684 1679 1677 1672 1660 1659 1653 1650 1636 1609 1564 1499 1448 1392 1279 1129 991 898 840 820 803 786 779 778 774 774 774 774 774 774 774 774 773 773 773 773 774 774 774 775 775 775 777 777 778 779 779 780 781 781 782 783 784 785 785 786 787 788 788 789 790 791 792 792 793 795 796 796 797 799 801 802 804 806 807 808 811 813 817 821 821 822 822 826 829 829 829 829 829 829 829 829 831 831 832 834 836 839 841 841 842 842 842 847 849 852 854 855 855 855 855 854 854 851 850 850 850 850 851 851 852 854 854 856 856 858 858 861 863 868 875 875 875 875 872 872 872 875 879 881 882 883 885 888 890 892 895 897 898 901 904 904 905 907 908 908 908 905 905 905 905 908 911 914 914 915 916 919 919 919 920 919 918 918 918 918 918 918 918 919 919 920 920 922 922 923 925 926 928 929 931 932 934 936 937 938 940 942 943 945 946 948 949 950 952 952 954 956 956 957 958 960 961 963 965 966 966 968 969 971 972 974 975 977 979 980 982 984 986 988 991 992 994 996 998 1000 1002 1004 1006 1008 1010 1013 1016 1017 1022 1029 1031 1034 1038 1047 1057 1078 1105 1130 1178 1290 1597 1748 1791 1936 1985 2011 2028 2034 2038 2044 2048 2050 2053 2054 2057 2058 2063 2067 2069 2069 2071 2072 2074 2077 2078 2079 2080 2081 2083 2084 2086 2088 2088 2090 2090 2091 2092 2094 2096 2099 2105 2109 2112 2114 2116 2119 2123 2126 2128 2130 2131 2133 2135 2137 2140 2141 2142 2143 2145 2148 2149 2152 2153 2153 2153 2154 2155 2157 2158 2159 2161 2163 2165 2167 2170 2172 2174 2175 2176 2177 2179 2181 2183 2184 2186 2189 2190 2193 2195 2198 2200 2202 2205 2206 2207 2208 2211 2211 2211 2211 2212 2212 2213 2221 2226 2228 2228 2230 2231 2234 2237 2239 2241 2242 2243 2245 2246 2249 2251 2253 2255 2256 2259 2262 2264 2264 2264 2266 2266 2266 2268 2270 2271 2272 2272 2275 2278 2278 2278 2278 2280 2281 2283 2285 2286 2287 2288 2289 2290 2291 2291 2292 2294 2294 2295 2295 2296 2296 2298 2299 2299 2299 2299 2300 2302 2304 2309 2311 2312 2314 2317 2320 2321 2323 2325 2326 2330 2333 2336 2337 2338 2339 2339 2340 2341 2341 2342 2342 2342 2342 2342 2343 2345 2347 2352 2385 2538 2684 2821 2913 2921 2923 2923 2923 2923 2923 2923 2923 2923 2924 2924 2924 2924 2924 2924 2924 2923 2923 2922 2921 2920 2920 2920 2921 2930 2930 2930 2929 2904 2851 2758 2628 2622 2500 2396 2262 2237 2229 2220 2206 2190 2177 2173 2167 2162 2155 2144 2134 2123 2112 2104 2096 2088 2083 2077 2070 2065 2058 2053 2049 2042 2038 2032 2028 2023 2020 2016 2011 2006 2001 1997 1994 1991 1988 1985 1982 1980 1977 1976 1972 1970 1967 1964 1960 1957 1954 1951 1949 1945 1943 1939 1938 1937 1935 1933 1931 1929 1927 1925 1924 1922 1921 1919 1919 1918 1917 1916 1916 1915 1915 1913 1912 1912 1911 1911 1911 1911 1911 1911 1912 1913 1914 1915 1918 1918
1579 1580 1585 1586 1587 1589 1597 1602 1605 1614 1624 1627 1627 1636 1637 1664 1685 1695 1695 1695 1695 1698 1704 1704 1704 1702 1701 1701 1701 1702 1702 1702 1695 1691 1691 1691 1694 1694 1694 1684 1679 1679 1675 1672 1665 1663 1650 1640 1621 1597 1535 1465 1416 1324 1196 1027 920 848 816 803 784 777 773 773 773 775 775 775 775 774 774 774 773 773 773 774 774 775 775 776 776 777 777 778 778 780 781 781 782 782 783 784 785 786 786 787 787 789 789 790 791 792 792 794 794 795 797 798 799 800 802 803 804 806 808 809 812 814 818 821 821 822 824 828 829 829 829 829 829 829 830 831 831 832 833 835 838 840 842 842 843 843 844 848 852 854 856 857 857 857 856 856 855 854 853 853 852 852 853 853 853 855 856 857 857 858 861 861 863 870 875 875 875 875 872 872 872 875 879 881 883 883 885 888 890 893 896 898 900 902 904 905 907 909 909 909 909 907 905 905 905 908 908 910 910 911 912 915 917 919 919 919 918 918 918 918 918 918 919 919 919 920 921 922 923 924 925 927 929 930 932 933 935 936 938 940 941 942 944 945 947 948 950 951 952 954 955 957 958 959 960 961 962 964 966 967 968 969 971 972 974 975 977 979 980 982 984 986 988 990 992 993 995 997 999 1000 1003 1005 1006 1008 1011 1014 1017 1019 1022 1027 1028 1033 1037 1041 1046 1055 1067 1082 1113 1160 1246 1480 1712 1760 1882 1995 2028 2032 2035 2036 2037 2046 2048 2050 2056 2058 2063 2067 2069 2069 2071 2073 2074 2077 2078 2079 2081 2082 2083 2084 2087 2088 2091 2091 2092 2092 2092 2094 2097 2102 2108 2109 2112 2114 2117 2119 2123 2126 2128 2130 2131 2133 2135 2138 2141 2143 2143 2144 2145 2148 2151 2153 2153 2153 2153 2153 2155 2157 2158 2159 2161 2163 2166 2167 2171 2172 2174 2175 2176 2177 2179 2181 2183 2185 2187 2190 2192 2194 2197 2199 2201 2203 2205 2207 2208 2209 2211 2212 2212 2212 2212 2212 2213 2219 2224 2225 2227 2228 2231 2233 2236 2239 2241 2242 2244 2245 2247 2249 2251 2253 2256 2257 2260 2262 2264 2265 2265 2266 2266 2267 2268 2270 2271 2272 2272 2275 2278 2278 2279 2280 2282 2283 2285 2287 2288 2289 2290 2290 2290 2292 2292 2293 2294 2296 2296 2296 2297 2298 2299 2299 2299 2300 2300 2302 2304 2308 2312 2313 2315 2315 2319 2321 2323 2324 2325 2327 2329 2333 2336 2337 2338 2339 2339 2341 2342 2342 2343 2343 2344 2344 2345 2346 2349 2349 2354 2399 2599 2692 2853 2913 2919 2923 2923 2923 2923 2923 2923 2923 2923 2924 2924 2924 2924 2924 2923 2923 2923 2923 2922 2921 2920 2920 2920 2922 2930 2930 2930 2925 2887 2822 2720 2593 2588 2484 2340 2258 2238 2230 2220 2201 2184 2177 2173 2167 2162 2155 2144 2134 2123 2113 2104 2096 2088 2082 2077 2070 2063 2057 2052 2049 2042 2038 2032 2028 2023 2019 2015 2011 2006 2001 1997 1994 1991 1988 1985 1981 1978 1975 1972 1972 1970 1967 1962 1960 1957 1954 1951 1949 1947 1943 1939 1938 1937 1936 1934 1931 1929 1927 1925 1924 1923 1922 1920 1919 1918 1917 1916 1916 1915 1915 1913 1912 1912 1911 1911 1911 1911 1911 1911 1913 1915 1916 1917 1919 1920
1583 1590 1590 1592 1592 1593 1597 1603 1608 1617 1625 1625 1625 1630 1630 1630 1657 1682 1687 1689 1691 1695 1695 1695 1691 1690 1690 1690 1692 1695 1695 1695 1695 1687 1687 1687 1691 1691 1691 1682 1678 1677 1673 1671 1667 1663 1641 1621 1599 1577 1527 1461 1388 1268 1120 961 854 833 815 789 778 771 771 771 771 774 775 775 775 775 774 774 774 775 775 775 775 775 776 776 777 778 778 779 780 781 781 782 782 783 784 784 785 786 787 788 789 789 790 791 792 793 794 794 795 797 797 799 800 801 803 804 806 807 809 810 813 815 819 821 822 822 824 828 829 829 829 829 829 830 831 831 832 832 833 836 839 842 843 843 844 844 844 850 854 855 856 857 857 857 857 857 855 855 855 855 854 854 853 853 853 856 858 859 859 859 861 862 864 870 875 875 875 875 873 873 873 876 879 882 883 883 885 888 890 894 897 899 900 902 904 906 907 909 910 910 910 908 908 908 908 908 908 907 907 907 910 914 914 915 916 916 917 917 917 918 918 918 919 919 920 921 922 923 924 925 927 928 930 931 932 934 936 938 939 941 942 943 945 946 948 949 951 952 953 955 956 957 959 960 962 963 964 965 967 968 969 971 972 973 976 977 979 981 982 983 984 987 989 991 993 994 996 998 1000 1002 1004 1005 1007 1009 1012 1014 1017 1019 1022 1024 1028 1031 1035 1039 1039 1047 1053 1062 1076 1097 1133 1201 1411 1600 1672 1883 2003 2030 2031 2032 2033 2034 2040 2049 2055 2057 2061 2066 2069 2069 2071 2073 2075 2078 2079 2080 2081 2082 2083 2085 2087 2088 2091 2092 2092 2093 2094 2095 2098 2103 2108 2109 2113 2115 2118 2120 2122 2125 2127 2129 2131 2133 2135 2138 2141 2143 2144 2144 2144 2148 2151 2153 2153 2153 2153 2153 2153 2156 2158 2159 2161 2163 2166 2167 2171 2172 2174 2175 2177 2178 2179 2181 2183 2186 2188 2191 2193 2195 2198 2201 2202 2204 2205 2207 2208 2209 2211 2212 2212 2212 2212 2212 2213 2217 2220 2224 2225 2227 2231 2233 2235 2239 2241 2242 2244 2245 2248 2250 2253 2254 2256 2258 2260 2263 2265 2265 2266 2266 2267 2267 2268 2269 2271 2272 2272 2275 2278 2280 2281 2282 2284 2285 2286 2287 2289 2291 2291 2292 2292 2293 2293 2294 2295 2296 2297 2297 2297 2299 2301 2301 2301 2301 2302 2303 2305 2311 2313 2315 2317 2317 2320 2321 2323 2324 2325 2327 2329 2333 2335 2336 2336 2338 2339 2341 2342 2342 2343 2344 2344 2344 2350 2350 2352 2355 2357 2421 2618 2699 2859 2911 2917 2923 2923 2923 2923 2923 2923 2923 2923 2924 2924 2924 2924 2924 2923 2923 2923 2923 2922 2921 2921 2921 2921 2921 2930 2930 2930 2923 2886 2803 2684 2557 2466 2461 2308 2250 2239 2231 2219 2199 2184 2177 2173 2166 2157 2149 2140 2131 2122 2113 2104 2095 2088 2080 2073 2068 2062 2056 2050 2047 2042 2038 2033 2028 2023 2019 2015 2011 2006 2001 1997 1994 1991 1988 1985 1981 1977 1974 1972 1968 1967 1965 1962 1960 1957 1954 1951 1949 1947 1943 1940 1938 1937 1936 1934 1932 1930 1927 1927 1926 1923 1922 1921 1919 1918 1918 1916 1916 1916 1915 1914 1912 1912 1911 1911 1911 1911 1911 1911 1913 1916 1917 1918 1920 1921
1597 1597 1597 1593 1593 1593 1599 1603 1608 1621 1625 1625 1625 1630 1630 1630 1657 1682 1687 1687 1688 1688 1688 1686 1681 1679 1679 1679 1686 1695 1695 1695 1685 1685 1685 1685 1691 1691 1691 1681 1677 1673 1672 1671 1667 1663 1627 1594 1569 1545 1486 1447 1380 1216 1044 920 852 819 805 788 771 771 771 771 771 775 775 775 775 775 775 775 775 775 775 775 776 776 776 777 777 778 778 780 780 782 782 782 783 784 785 786 787 787 788 788 790 790 791 791 792 793 794 795 796 797 798 799 801 802 804 805 807 807 811 813 815 815 819 821 822 822 825 828 829 829 830 830 830 831 832 832 833 833 833 837 841 842 843 844 845 849 852 855 856 857 857 857 858 858 858 858 858 858 858 858 858 858 858 858 858 858 859 859 859 860 863 864 866 870 873 874 875 875 876 876 877 879 880 882 883 883 885 889 893 896 899 900 901 902 905 906 908 909 911 911 911 911 909 909 909 909 909 906 906 906 910 911 913 913 913 916 916 916 917 918 918 919 920 921 921 922 923 924 925 926 927 928 930 932 933 935 937 939 939 942 943 944 945 947 948 950 951 953 954 956 957 958 960 961 962 964 966 967 968 969 971 972 974 974 977 978 980 982 983 984 986 987 989 992 994 996 998 999 1000 1002 1004 1006 1008 1010 1012 1015 1017 1019 1021 1023 1028 1030 1033 1035 1039 1041 1045 1052 1065 1074 1092 1112 1145 1255 1648 1732 1911 2013 2022 2024 2027 2034 2040 2048 2053 2057 2060 2063 2068 2069 2072 2075 2077 2078 2079 2080 2081 2083 2084 2085 2087 2089 2091 2092 2092 2093 2094 2096 2098 2103 2108 2109 2113 2116 2118 2120 2122 2124 2127 2129 2131 2133 2136 2138 2141 2143 2144 2144 2144 2146 2151 2152 2152 2152 2152 2152 2153 2156 2159 2159 2162 2164 2166 2167 2171 2172 2174 2176 2178 2180 2182 2182 2184 2186 2189 2191 2195 2198 2199 2201 2203 2204 2206 2207 2208 2209 2211 2212 2212 2212 2212 2213 2214 2217 2220 2224 2225 2227 2230 2233 2235 2238 2241 2242 2244 2247 2249 2252 2254 2255 2257 2258 2260 2263 2265 2265 2266 2266 2268 2268 2269 2269 2271 2272 2272 2274 2278 2280 2282 2283 2284 2286 2287 2288 2290 2291 2292 2292 2292 2294 2294 2294 2295 2297 2298 2298 2299 2300 2301 2301 2302 2303 2304 2305 2307 2313 2316 2316 2318 2318 2320 2321 2323 2324 2326 2328 2329 2332 2334 2335 2336 2338 2340 2341 2343 2343 2344 2344 2344 2345 2351 2353 2355 2356 2362 2436 2622 2708 2873 2909 2917 2920 2920 2921 2922 2922 2922 2923 2923 2923 2924 2924 2924 2924 2924 2924 2924 2924 2924 2922 2922 2922 2922 2922 2927 2927 2927 2917 2883 2770 2667 2541 2435 2430 2302 2250 2239 2231 2211 2198 2184 2179 2174 2166 2157 2147 2137 2129 2121 2113 2102 2095 2086 2077 2068 2064 2058 2055 2050 2047 2042 2038 2033 2028 2023 2019 2015 2011 2006 2001 1997 1994 1991 1988 1985 1981 1977 1974 1972 1968 1967 1964 1961 1958 1956 1954 1951 1949 1947 1943 1940 1939 1937 1936 1935 1933 1931 1929 1928 1926 1924 1923 1921 1920 1919 1918 1917 1917 1916 1916 1914 1913 1912 1911 1911 1910 1910 1911 1911 1913 1917 1918 1918 1920 1923
1597 1597 1597 1593 1593 1593 1599 1604 1608 1617 1624 1624 1624 1630 1630 1630 1657 1682 1687 1687 1688 1688 1688 1686 1681 1676 1676 1676 1686 1695 1695 1695 1685 1685 1685 1685 1691 1691 1691 1680 1673 1668 1667 1667 1666 1652 1616 1580 1552 1523 1474 1425 1310 1138 1002 902 837 817 801 779 771 771 771 772 773 775 775 775 775 775 775 775 775 775 776 776 776 777 777 777 778 779 780 780 781 782 783 784 784 785 785 786 787 787 788 790 790 791 791 792 793 794 795 796 797 798 800 800 801 802 804 806 808 809 813 817 818 819 820 821 823 823 825 828 829 829 830 830 831 833 834 834 834 835 836 840 842 843 843 844 846 850 854 857 857 859 859 858 858 859 860 861 861 861 860 859 859 859 859 859 860 860 860 860 860 862 864 865 867 868 869 873 876 876 880 881 882 883 883 883 883 883 886 890 894 898 900 900 901 902 906 907 908 910 911 912 912 912 910 910 910 909 909 906 906 906 908 911 911 912 913 915 916 916 917 919 919 920 920 922 922 923 924 925 927 928 928 930 931 933 935 937 938 940 941 942 943 945 946 948 949 951 952 954 955 956 958 959 960 962 964 965 967 969 971 972 973 973 975 977 978 980 982 984 985 987 988 989 991 993 995 997 998 1000 1001 1003 1005 1007 1009 1011 1014 1015 1017 1019 1021 1023 1026 1029 1032 1035 1038 1039 1043 1051 1057 1060 1070 1078 1091 1156 1316 1457 1750 1843 1921 2018 2020 2028 2040 2046 2053 2057 2058 2062 2067 2069 2072 2075 2078 2079 2079 2081 2081 2083 2084 2085 2087 2089 2091 2092 2092 2092 2094 2096 2098 2103 2108 2110 2113 2116 2118 2120 2122 2124 2127 2129 2131 2133 2136 2138 2141 2143 2144 2144 2144 2146 2148 2152 2152 2152 2152 2152 2153 2156 2159 2161 2164 2165 2166 2167 2171 2172 2174 2176 2180 2182 2183 2185 2185 2188 2190 2193 2197 2198 2201 2202 2203 2205 2207 2209 2210 2210 2211 2212 2212 2212 2213 2213 2216 2217 2220 2224 2225 2227 2230 2233 2235 2238 2240 2242 2246 2248 2251 2252 2254 2255 2257 2258 2260 2263 2265 2266 2266 2267 2268 2269 2269 2269 2271 2272 2272 2274 2279 2280 2283 2283 2284 2286 2287 2289 2290 2291 2292 2293 2293 2294 2294 2296 2297 2298 2298 2299 2301 2301 2302 2303 2303 2304 2306 2307 2308 2313 2317 2318 2318 2318 2320 2321 2323 2323 2326 2328 2330 2332 2334 2335 2336 2338 2340 2342 2343 2344 2344 2345 2345 2346 2351 2355 2355 2358 2368 2499 2624 2728 2891 2907 2907 2920 2920 2921 2922 2922 2922 2923 2923 2923 2924 2924 2924 2924 2924 2924 2925 2925 2925 2925 2924 2923 2922 2922 2923 2916 2916 2914 2863 2769 2642 2526 2433 2304 2299 2249 2239 2231 2209 2198 2184 2180 2174 2165 2157 2146 2136 2128 2121 2113 2102 2095 2084 2075 2068 2064 2058 2055 2050 2047 2042 2038 2033 2027 2023 2019 2015 2011 2006 2002 1997 1995 1991 1988 1985 1981 1977 1974 1972 1968 1967 1963 1960 1957 1955 1953 1952 1950 1947 1945 1942 1940 1937 1936 1935 1933 1932 1930 1929 1927 1925 1925 1923 1922 1920 1920 1919 1917 1916 1916 1915 1914 1912 1911 1911 1910 1910 1911 1911 1916 1919 1919 1919 1923 1924
1597 1597 1597 1593 1593 1593 1599 1606 1609 1614 1625 1625 1625 1630 1630 1652 1683 1697 1697 1697 1692 1688 1688 1686 1681 1675 1675 1675 1686 1696 1696 1696 1685 1685 1685 1685 1685 1685 1681 1669 1663 1656 1656 1655 1654 1644 1614 1566 1520 1489 1448 1354 1201 1043 926 846 809 798 781 772 770 770 770 773 773 775 775 775 775 775 776 776 776 776 776 777 777 777 777 778 778 779 780 781 782 783 784 784 785 785 787 787 787 788 789 790 790 791 792 793 794 795 796 797 798 799 800 801 802 804 805 807 810 812 815 818 819 820 820 821 823 825 826 828 830 831 832 832 833 834 835 836 836 837 838 840 842 843 844 844 847 850 854 857 860 861 861 862 862 862 864 864 864 863 862 862 862 861 860 860 861 861 861 862 863 864 865 865 867 867 868 870 876 876 880 881 884 884 884 884 884 886 888 891 894 899 900 901 901 902 908 909 910 911 912 912 912 912 910 910 910 910 910 909 908 908 908 911 911 912 913 915 916 916 918 919 920 921 921 922 923 924 925 926 927 929 930 932 932 934 935 937 939 941 941 943 945 945 947 948 950 952 953 955 956 957 960 960 962 965 966 968 969 971 973 974 975 975 977 978 979 982 983 985 987 988 990 991 993 994 996 998 999 1000 1002 1004 1006 1008 1010 1011 1014 1016 1017 1019 1022 1023 1027 1029 1031 1033 1034 1037 1043 1050 1050 1051 1055 1064 1079 1111 1172 1257 1412 1743 1761 1947 2015 2026 2037 2044 2053 2057 2058 2062 2066 2068 2072 2075 2078 2079 2080 2081 2081 2083 2084 2085 2087 2089 2091 2091 2092 2092 2095 2096 2099 2102 2107 2110 2113 2116 2117 2119 2122 2125 2127 2130 2133 2134 2136 2138 2140 2142 2144 2145 2145 2146 2148 2150 2151 2152 2152 2154 2154 2157 2161 2164 2165 2165 2167 2168 2171 2173 2176 2178 2181 2183 2184 2185 2187 2189 2192 2195 2198 2199 2201 2203 2204 2207 2208 2210 2210 2211 2211 2212 2212 2213 2214 2214 2216 2218 2220 2224 2225 2227 2230 2233 2235 2238 2241 2243 2246 2249 2251 2252 2254 2255 2257 2258 2260 2263 2265 2266 2266 2267 2269 2269 2269 2270 2272 2272 2272 2274 2279 2281 2283 2283 2285 2286 2287 2289 2291 2291 2293 2293 2294 2295 2297 2298 2298 2300 2300 2302 2303 2303 2304 2304 2304 2305 2306 2308 2311 2314 2317 2318 2318 2319 2319 2320 2322 2323 2326 2328 2330 2332 2334 2335 2336 2339 2341 2343 2344 2345 2345 2345 2346 2347 2351 2356 2356 2360 2371 2501 2627 2750 2907 2907 2917 2920 2920 2921 2922 2922 2922 2923 2924 2924 2924 2924 2924 2924 2924 2924 2925 2927 2928 2928 2928 2925 2923 2912 2912 2910 2906 2899 2848 2757 2636 2523 2402 2270 2254 2249 2239 2231 2209 2196 2184 2180 2174 2165 2157 2146 2136 2128 2121 2113 2100 2091 2082 2075 2068 2063 2058 2055 2051 2047 2043 2039 2033 2027 2023 2019 2015 2011 2007 2003 2000 1996 1992 1989 1986 1982 1978 1974 1972 1970 1967 1963 1960 1957 1955 1953 1952 1950 1949 1946 1944 1940 1938 1936 1935 1934 1933 1932 1930 1928 1927 1925 1924 1923 1922 1921 1919 1918 1917 1917 1917 1914 1913 1911 1911 1910 1910 1911 1914 1917 1919 1920 1922 1923 1924
1578 1585 1585 1593 1593 1593 1601 1610 1615 1617 1625 1628 1630 1632 1641 1672 1697 1700 1700 1700 1701 1700 1697 1695 1693 1675 1675 1675 1688 1696 1696 1696 1695 1686 1686 1686 1686 1686 1671 1655 1647 1643 1642 1642 1642 1632 1605 1560 1511 1465 1365 1239 1105 975 869 814 800 788 776 772 772 772 772 773 773 775 775 775 775 775 776 776 777 777 777 777 778 778 778 778 779 780 781 782 782 784 784 785 785 786 787 788 788 789 789 790 791 791 793 794 795 795 797 798 799 799 801 802 803 805 806 808 810 812 816 819 820 820 821 822 823 826 828 830 832 833 834 835 837 837 838 838 839 839 839 841 843 843 845 845 847 851 854 857 860 861 863 864 864 865 866 866 866 866 865 865 864 864 864 862 862 862 862 862 863 864 865 865 866 867 867 869 876 879 881 881 884 884 884 884 885 888 891 893 896 899 900 901 901 903 909 911 911 912 912 912 912 912 911 911 911 911 911 910 908 908 908 911 912 912 914 915 916 917 919 920 920 921 922 924 925 925 926 928 928 930 932 932 934 935 937 938 939 941 942 943 945 947 948 950 951 953 954 956 957 959 961 963 965 965 969 970 971 972 974 976 977 977 980 980 981 983 986 987 989 990 992 992 994 996 997 999 1000 1001 1003 1005 1007 1009 1010 1013 1014 1016 1018 1020 1022 1024 1027 1029 1030 1032 1034 1037 1041 1046 1046 1047 1049 1054 1065 1082 1117 1159 1220 1414 1695 1767 1850 2025 2031 2044 2053 2057 2058 2062 2066 2067 2069 2074 2078 2079 2080 2080 2081 2082 2082 2086 2086 2089 2090 2090 2090 2092 2095 2096 2100 2102 2107 2110 2113 2114 2117 2119 2122 2125 2128 2131 2133 2134 2136 2138 2140 2142 2144 2145 2146 2147 2148 2150 2151 2151 2152 2154 2156 2160 2165 2165 2165 2166 2167 2168 2171 2173 2176 2180 2184 2184 2185 2187 2188 2191 2194 2197 2199 2201 2203 2205 2206 2208 2209 2211 2211 2212 2212 2213 2214 2214 2214 2216 2217 2218 2221 2224 2226 2228 2231 2233 2235 2238 2241 2243 2246 2249 2251 2252 2254 2255 2256 2256 2259 2263 2265 2266 2266 2268 2269 2269 2270 2270 2272 2273 2274 2275 2279 2281 2284 2284 2285 2286 2287 2289 2291 2292 2293 2294 2296 2296 2298 2300 2301 2302 2303 2306 2306 2306 2306 2306 2306 2307 2308 2309 2311 2316 2318 2318 2319 2319 2319 2319 2321 2323 2326 2329 2330 2333 2334 2335 2338 2340 2342 2343 2344 2345 2346 2346 2346 2348 2351 2357 2361 2361 2372 2505 2627 2855 2907 2907 2919 2920 2922 2922 2924 2924 2924 2925 2925 2926 2926 2925 2925 2925 2925 2925 2925 2927 2929 2930 2930 2930 2918 2910 2898 2897 2896 2871 2822 2741 2634 2510 2330 2270 2253 2248 2239 2221 2205 2194 2184 2180 2172 2165 2157 2146 2136 2128 2120 2106 2094 2087 2081 2075 2069 2063 2058 2055 2051 2047 2043 2039 2033 2027 2022 2018 2015 2012 2008 2004 2000 1996 1992 1989 1986 1982 1979 1975 1972 1970 1967 1963 1960 1957 1955 1953 1952 1951 1949 1947 1945 1942 1938 1936 1935 1934 1933 1933 1932 1930 1927 1926 1925 1923 1923 1922 1920 1919 1919 1918 1917 1915 1913 1913 1912 1912 1912 1914 1916 1917 1919 1920 1922 1923 1924
1577 1585 1585 1586 1587 1600 1601 1613 1615 1621 1629 1630 1632 1635 1657 1680 1699 1701 1701 1703 1703 1706 1706 1706 1700 1685 1685 1685 1688 1696 1696 1696 1696 1686 1686 1685 1685 1685 1664 1647 1639 1638 1633 1628 1627 1614 1593 1548 1502 1446 1354 1208 1052 927 846 814 799 783 776 771 771 771 772 774 775 775 776 776 776 776 776 776 777 777 777 778 778 778 779 779 780 781 782 782 784 785 786 786 786 787 787 788 789 790 790 791 792 792 793 794 795 797 798 798 799 800 801 803 804 805 807 808 810 812 816 819 820 821 822 823 823 826 830 831 833 833 834 835 838 840 840 840 840 840 841 841 843 845 847 848 849 851 854 857 860 861 864 866 866 867 867 867 867 867 867 867 867 867 864 864 864 863 863 863 863 864 865 865 866 866 867 869 875 876 881 881 884 884 885 885 886 890 892 894 896 899 900 901 901 903 909 912 914 914 914 914 913 912 911 911 911 911 911 912 912 912 912 913 913 913 914 915 916 918 919 920 921 923 923 925 926 927 928 929 930 931 933 934 935 937 938 939 941 942 944 944 946 947 950 951 953 954 955 957 958 961 962 964 966 968 971 973 975 976 978 980 980 981 981 982 984 986 987 989 990 992 994 994 996 998 999 1000 1002 1003 1003 1005 1007 1009 1011 1013 1015 1017 1018 1020 1022 1024 1027 1029 1030 1032 1034 1036 1040 1041 1043 1047 1049 1050 1061 1069 1086 1107 1133 1192 1327 1604 1693 1840 1953 2041 2052 2054 2057 2066 2066 2067 2069 2074 2077 2079 2079 2079 2079 2080 2082 2086 2086 2088 2089 2090 2090 2092 2095 2096 2100 2102 2107 2109 2112 2114 2117 2119 2123 2127 2129 2132 2133 2135 2136 2138 2140 2142 2144 2146 2148 2148 2149 2150 2151 2151 2152 2154 2159 2163 2165 2165 2166 2167 2167 2170 2171 2173 2176 2180 2184 2186 2186 2188 2191 2192 2195 2198 2200 2202 2204 2205 2207 2209 2211 2212 2212 2212 2213 2213 2214 2214 2215 2216 2218 2219 2221 2224 2226 2229 2231 2233 2235 2238 2241 2243 2247 2249 2251 2252 2253 2254 2254 2255 2258 2263 2265 2265 2266 2268 2269 2270 2272 2272 2274 2274 2275 2275 2279 2282 2284 2285 2286 2286 2287 2289 2291 2292 2295 2296 2296 2298 2299 2301 2302 2304 2305 2307 2308 2308 2308 2308 2308 2309 2310 2310 2312 2316 2318 2318 2318 2319 2319 2319 2321 2323 2327 2330 2332 2333 2334 2336 2339 2340 2342 2343 2344 2345 2346 2346 2347 2348 2352 2360 2366 2369 2381 2510 2631 2859 2912 2919 2919 2932 2932 2932 2928 2928 2928 2928 2928 2927 2927 2927 2927 2927 2927 2927 2927 2927 2929 2930 2930 2930 2918 2905 2898 2897 2896 2871 2797 2720 2622 2409 2302 2270 2253 2235 2230 2216 2205 2194 2184 2176 2170 2164 2157 2146 2136 2127 2119 2105 2094 2087 2081 2075 2069 2063 2059 2055 2051 2047 2043 2039 2033 2027 2022 2018 2015 2012 2008 2004 2000 1996 1992 1989 1986 1983 1980 1976 1973 1970 1968 1963 1960 1958 1956 1954 1953 1951 1950 1948 1946 1942 1939 1936 1935 1934 1934 1933 1932 1930 1929 1927 1927 1925 1924 1923 1921 1920 1920 1920 1918 1916 1913 1913 1913 1915 1915 1916 1916 1917 1918 1920 1922 1923 1923
1577 1586 1587 1590 1599 1602 1625 1627 1642 1642 1642 1647 1647 1647 1668 1687 1699 1701 1701 1703 1703 1706 1706 1706 1702 1688 1688 1688 1693 1697 1697 1697 1696 1686 1686 1684 1683 1683 1659 1647 1639 1638 1633 1628 1615 1596 1569 1516 1498 1395 1279 1121 991 898 835 814 791 781 776 771 771 771 773 774 775 775 776 776 776 777 777 777 777 778 778 778 778 778 779 780 780 782 782 783 784 785 786 786 787 788 788 789 790 790 791 791 793 793 794 795 796 797 798 799 800 800 801 803 805 806 808 808 810 813 817 819 821 823 825 827 827 829 831 833 833 834 834 835 838 840 841 841 841 841 842 844 845 847 848 849 850 852 854 857 858 860 864 867 868 868 869 869 869 868 868 868 867 867 865 865 864 863 863 863 863 864 864 865 866 866 867 869 873 875 879 881 881 884 885 886 886 892 893 894 896 899 900 900 901 903 909 912 914 916 916 916 915 913 912 912 912 912 912 913 913 914 913 913 914 914 914 916 918 918 919 920 921 923 924 926 927 928 929 931 931 933 934 935 936 938 939 941 942 943 945 945 947 949 950 952 954 956 957 958 960 961 963 965 967 970 973 976 976 978 981 982 984 985 986 987 988 989 990 991 992 994 995 996 997 999 1001 1002 1003 1004 1005 1006 1008 1011 1013 1014 1016 1017 1019 1020 1023 1025 1028 1029 1030 1032 1034 1037 1039 1041 1043 1047 1049 1050 1053 1061 1067 1073 1091 1128 1173 1247 1428 1691 1731 1885 2022 2054 2057 2065 2066 2067 2067 2072 2076 2079 2079 2079 2079 2079 2082 2086 2086 2088 2089 2090 2090 2092 2095 2096 2101 2104 2107 2109 2112 2114 2117 2121 2124 2128 2131 2132 2133 2135 2136 2138 2140 2142 2144 2146 2148 2149 2149 2150 2151 2151 2152 2154 2160 2164 2166 2166 2167 2168 2169 2171 2172 2174 2176 2181 2184 2186 2187 2188 2191 2194 2196 2198 2201 2202 2204 2206 2208 2210 2212 2212 2212 2212 2213 2214 2215 2215 2216 2217 2218 2219 2222 2226 2227 2229 2231 2233 2236 2238 2241 2244 2247 2249 2251 2252 2252 2253 2254 2254 2258 2260 2262 2263 2264 2268 2269 2270 2273 2273 2275 2275 2276 2276 2280 2283 2284 2285 2287 2287 2287 2289 2291 2294 2295 2296 2297 2298 2300 2301 2302 2304 2306 2307 2308 2308 2308 2309 2309 2310 2311 2311 2313 2316 2318 2318 2319 2319 2320 2320 2321 2323 2329 2330 2332 2334 2335 2337 2339 2340 2343 2344 2345 2347 2347 2347 2347 2348 2353 2361 2366 2369 2391 2520 2637 2870 2913 2919 2923 2932 2932 2932 2929 2929 2928 2928 2928 2929 2929 2929 2929 2928 2927 2927 2927 2927 2928 2930 2930 2930 2915 2905 2898 2897 2896 2869 2755 2678 2599 2369 2290 2270 2253 2231 2227 2213 2204 2193 2181 2173 2167 2162 2157 2146 2136 2127 2118 2105 2094 2087 2081 2075 2069 2063 2059 2054 2051 2046 2043 2038 2032 2028 2023 2018 2015 2012 2008 2004 1998 1994 1990 1987 1986 1983 1980 1976 1973 1970 1968 1965 1961 1958 1956 1955 1953 1951 1950 1948 1946 1943 1940 1938 1937 1936 1935 1933 1932 1930 1929 1928 1928 1927 1926 1924 1923 1923 1922 1922 1919 1917 1914 1914 1914 1916 1916 1916 1916 1917 1918 1920 1921 1922 1922
1581 1586 1587 1591 1600 1626 1654 1654 1667 1667 1667 1658 1658 1658 1674 1687 1697 1697 1698 1699 1699 1706 1706 1706 1702 1692 1692 1692 1694 1698 1698 1698 1695 1684 1683 1677 1673 1666 1659 1647 1639 1638 1633 1628 1615 1582 1548 1507 1479 1351 1198 1050 947 881 823 803 785 780 775 772 772 772 773 775 775 776 776 776 777 777 777 777 778 778 778 779 779 779 779 780 781 782 782 784 785 786 786 787 788 789 789 789 790 791 792 793 793 794 795 796 797 798 799 799 801 802 802 804 806 807 809 809 811 813 817 819 821 824 825 827 829 830 832 833 833 834 834 835 838 840 841 841 841 842 843 844 845 848 849 850 851 853 855 857 858 860 864 869 870 870 870 869 869 868 868 868 868 867 865 865 864 863 863 863 863 863 864 865 866 867 867 870 873 875 878 880 880 884 885 886 889 893 893 894 896 897 898 899 900 903 909 912 914 916 916 916 915 915 914 913 913 913 913 913 914 914 914 914 914 915 915 916 918 919 920 921 922 924 925 927 928 929 930 931 932 933 935 936 938 938 940 942 943 944 946 947 948 949 951 953 955 957 958 960 961 962 965 966 968 971 975 976 979 980 984 986 987 989 990 992 992 992 993 994 995 995 996 997 999 1000 1002 1003 1004 1005 1006 1008 1009 1011 1013 1016 1017 1018 1020 1022 1024 1026 1028 1030 1031 1033 1034 1037 1039 1041 1043 1047 1050 1052 1053 1055 1060 1060 1074 1095 1114 1151 1243 1424 1673 1737 1847 1975 2057 2063 2065 2066 2066 2072 2076 2077 2077 2077 2078 2079 2082 2086 2087 2088 2088 2088 2090 2092 2094 2096 2101 2105 2107 2109 2112 2114 2117 2121 2125 2128 2131 2133 2134 2135 2137 2139 2140 2142 2145 2146 2148 2149 2149 2150 2151 2152 2153 2156 2160 2164 2166 2167 2168 2169 2170 2172 2172 2175 2177 2181 2184 2186 2188 2189 2192 2195 2197 2199 2201 2203 2204 2206 2208 2210 2212 2212 2213 2213 2214 2215 2215 2216 2216 2218 2220 2222 2224 2226 2228 2230 2232 2234 2237 2239 2242 2245 2247 2248 2249 2251 2252 2253 2254 2254 2258 2260 2262 2262 2264 2268 2269 2270 2273 2273 2275 2275 2276 2276 2280 2283 2284 2286 2287 2288 2289 2289 2292 2295 2296 2297 2298 2299 2300 2302 2303 2304 2306 2307 2307 2308 2308 2309 2309 2310 2311 2311 2314 2316 2318 2318 2319 2320 2321 2321 2322 2326 2329 2330 2332 2334 2335 2337 2339 2341 2343 2344 2346 2347 2347 2347 2348 2349 2349 2361 2366 2369 2408 2594 2653 2872 2914 2924 2926 2932 2932 2932 2929 2929 2929 2929 2929 2929 2929 2929 2929 2928 2927 2927 2927 2927 2927 2927 2927 2926 2915 2905 2903 2899 2891 2849 2747 2627 2560 2365 2288 2270 2249 2228 2218 2209 2204 2193 2180 2170 2159 2157 2152 2144 2136 2127 2118 2105 2095 2087 2080 2074 2069 2063 2059 2053 2050 2046 2041 2037 2032 2028 2023 2019 2015 2012 2008 2003 1998 1994 1989 1986 1985 1983 1980 1976 1973 1970 1968 1965 1962 1960 1958 1956 1954 1953 1952 1950 1947 1945 1942 1939 1939 1938 1937 1935 1933 1931 1930 1930 1929 1928 1926 1925 1924 1924 1924 1923 1921 1917 1915 1915 1915 1916 1916 1916 1916 1917 1918 1920 1921 1922 1922
1595 1597 1601 1601 1614 1648 1659 1663 1667 1667 1667 1658 1658 1658 1674 1687 1693 1693 1694 1694 1694 1704 1704 1704 1702 1696 1696 1696 1697 1699 1699 1699 1691 1680 1670 1663 1661 1660 1657 1654 1649 1649 1643 1634 1613 1582 1544 1481 1407 1283 1145 1022 907 848 816 785 784 775 775 772 772 772 775 776 776 776 776 777 778 778 778 778 778 778 778 779 779 780 780 780 782 783 783 784 785 786 787 788 789 789 790 790 791 791 793 793 794 794 795 796 797 798 799 800 802 802 803 805 806 808 810 810 811 813 817 819 822 824 825 827 829 832 834 834 834 834 835 835 838 840 841 841 841 842 843 844 845 848 850 850 851 855 856 858 859 860 865 871 871 871 870 869 869 869 869 868 868 866 865 865 862 862 862 862 862 863 863 863 866 867 867 870 873 875 878 879 880 884 885 886 889 893 893 894 895 897 898 899 900 902 906 912 913 916 916 916 916 916 915 915 916 916 917 917 917 916 915 915 915 916 916 918 919 919 920 922 924 924 926 927 929 930 931 932 933 934 936 937 938 939 940 942 944 945 947 947 949 950 952 953 956 957 959 960 962 964 965 968 971 975 979 981 981 984 984 986 990 992 993 994 996 996 997 997 997 998 999 1000 1001 1002 1003 1005 1006 1006 1007 1010 1011 1013 1015 1016 1018 1020 1022 1023 1025 1027 1028 1030 1032 1033 1035 1038 1039 1041 1044 1048 1051 1052 1053 1055 1058 1059 1066 1078 1085 1100 1140 1192 1295 1477 1711 1745 1935 2029 2054 2064 2065 2069 2072 2073 2074 2076 2077 2078 2082 2086 2087 2087 2088 2088 2090 2092 2094 2096 2101 2105 2109 2111 2113 2115 2118 2122 2126 2129 2131 2133 2134 2135 2137 2139 2142 2143 2145 2147 2148 2149 2150 2150 2151 2153 2154 2159 2162 2164 2166 2167 2168 2169 2170 2172 2174 2175 2177 2181 2184 2187 2188 2191 2193 2196 2197 2199 2201 2203 2204 2206 2208 2210 2212 2212 2213 2214 2215 2215 2216 2216 2218 2220 2222 2224 2226 2227 2229 2231 2233 2235 2237 2240 2243 2245 2247 2248 2249 2251 2252 2253 2254 2256 2258 2260 2262 2262 2264 2267 2269 2269 2273 2273 2275 2276 2276 2278 2280 2284 2285 2288 2290 2290 2290 2290 2293 2296 2297 2298 2298 2299 2300 2302 2303 2305 2306 2306 2307 2307 2308 2308 2310 2311 2311 2312 2314 2316 2319 2319 2320 2320 2322 2323 2324 2327 2329 2331 2332 2334 2337 2338 2340 2341 2343 2346 2347 2347 2347 2347 2350 2351 2353 2360 2363 2374 2429 2633 2692 2873 2925 2926 2926 2935 2935 2935 2930 2929 2929 2929 2930 2930 2930 2929 2929 2928 2928 2928 2927 2927 2928 2928 2927 2926 2915 2908 2906 2902 2891 2849 2740 2590 2522 2332 2281 2262 2247 2228 2218 2208 2204 2191 2180 2162 2155 2150 2147 2142 2135 2127 2118 2105 2095 2087 2080 2074 2068 2063 2058 2053 2050 2046 2041 2037 2032 2028 2023 2019 2015 2010 2007 2002 1998 1994 1989 1986 1985 1982 1979 1976 1972 1970 1968 1965 1962 1961 1959 1957 1957 1955 1954 1952 1949 1947 1945 1942 1940 1939 1939 1937 1934 1933 1932 1931 1929 1928 1927 1926 1925 1925 1925 1923 1921 1918 1915 1915 1915 1916 1917 1917 1917 1917 1918 1920 1921 1922 1922
1599 1599 1605 1605 1621 1648 1662 1682 1682 1682 1667 1658 1658 1658 1674 1687 1687 1687 1688 1690 1690 1699 1702 1702 1702 1699 1699 1699 1699 1699 1699 1696 1684 1674 1666 1663 1660 1659 1656 1654 1653 1649 1645 1635 1613 1581 1539 1468 1373 1217 1098 980 875 815 814 785 775 775 774 774 774 774 776 776 777 777 777 777 778 778 778 778 779 779 779 779 780 780 781 782 783 783 784 785 786 787 788 788 789 790 790 791 791 793 793 794 794 795 796 798 798 799 800 801 802 803 804 806 807 808 810 811 813 814 817 819 822 824 825 827 829 832 834 835 835 835 835 835 837 840 841 842 843 843 843 844 845 848 851 851 852 855 856 859 861 863 868 872 872 872 870 869 868 868 868 868 868 866 865 865 862 862 862 862 863 863 863 864 866 867 867 870 873 875 878 879 880 883 885 885 889 892 893 893 895 896 897 899 900 902 906 909 913 916 916 916 916 916 916 916 916 917 917 918 918 918 917 916 916 916 917 918 920 920 921 923 924 926 927 928 930 931 932 933 934 936 937 938 939 940 942 943 945 946 947 949 950 952 953 955 957 959 960 961 963 965 969 971 973 977 981 983 984 988 989 991 996 996 997 997 997 1000 1000 1000 1000 1000 1001 1003 1003 1004 1005 1006 1007 1009 1009 1012 1012 1014 1016 1017 1020 1021 1022 1024 1026 1027 1029 1031 1033 1035 1037 1038 1041 1042 1044 1048 1052 1053 1053 1055 1058 1059 1064 1072 1084 1088 1097 1118 1155 1227 1422 1639 1746 1859 1915 2034 2055 2058 2061 2062 2062 2067 2074 2077 2082 2086 2087 2087 2087 2088 2088 2090 2093 2099 2101 2105 2109 2111 2114 2116 2119 2123 2126 2129 2131 2133 2135 2136 2138 2139 2142 2143 2145 2147 2149 2150 2151 2152 2153 2154 2156 2160 2163 2164 2166 2167 2169 2170 2171 2172 2174 2175 2178 2182 2185 2188 2190 2192 2194 2197 2198 2199 2201 2203 2205 2206 2208 2210 2211 2212 2213 2214 2216 2216 2216 2217 2219 2221 2223 2225 2227 2228 2230 2232 2233 2236 2238 2241 2243 2245 2247 2248 2249 2251 2252 2253 2255 2258 2260 2261 2262 2263 2264 2267 2269 2269 2271 2272 2274 2276 2276 2279 2282 2285 2288 2290 2290 2291 2292 2293 2295 2297 2298 2298 2299 2300 2301 2302 2304 2306 2306 2306 2306 2307 2308 2309 2311 2311 2312 2313 2315 2317 2319 2320 2320 2322 2322 2325 2326 2327 2329 2331 2333 2334 2337 2339 2340 2342 2344 2346 2347 2347 2348 2349 2351 2351 2353 2363 2363 2376 2436 2633 2694 2920 2926 2926 2927 2929 2931 2931 2931 2931 2931 2931 2931 2930 2930 2929 2929 2928 2928 2928 2928 2928 2928 2928 2927 2926 2917 2914 2913 2904 2881 2849 2713 2582 2504 2298 2271 2259 2246 2228 2218 2209 2204 2191 2177 2162 2153 2147 2142 2138 2134 2127 2117 2105 2095 2087 2079 2073 2068 2063 2058 2053 2050 2046 2041 2037 2032 2028 2023 2019 2013 2010 2006 2002 1998 1994 1989 1986 1983 1979 1977 1975 1972 1970 1968 1966 1964 1962 1961 1960 1958 1958 1957 1954 1952 1949 1946 1944 1943 1941 1939 1937 1936 1935 1933 1931 1930 1928 1927 1927 1926 1925 1925 1924 1922 1919 1917 1917 1917 1917 1917 1917 1918 1918 1920 1921 1923 1924 1924
1599 1600 1605 1607 1627 1648 1662 1682 1682 1682 1659 1650 1650 1650 1670 1684 1686 1687 1688 1689 1689 1695 1698 1698 1699 1700 1700 1700 1700 1699 1696 1688 1676 1669 1666 1663 1660 1659 1656 1654 1653 1651 1645 1635 1613 1572 1504 1418 1299 1166 1039 919 834 800 797 784 774 774 774 774 774 777 777 777 777 777 777 778 778 779 779 779 779 779 780 780 780 780 782 782 783 784 785 786 786 787 788 789 789 791 791 792 792 793 794 795 796 796 797 798 799 800 801 802 803 805 806 807 808 808 812 813 814 814 817 820 823 824 825 827 829 832 834 836 836 836 836 836 837 838 841 844 844 844 845 845 845 848 852 854 855 856 858 862 864 868 870 872 872 872 870 868 868 868 867 867 867 865 865 863 862 862 862 863 863 863 863 864 865 866 866 870 872 875 878 879 880 882 885 885 887 888 890 893 894 895 897 899 900 901 905 907 911 915 915 915 916 916 916 916 917 917 917 918 918 918 918 917 917 917 919 919 921 921 923 924 926 927 928 929 931 932 934 934 936 937 938 940 940 942 943 944 946 948 948 950 952 952 954 956 957 959 961 963 965 967 971 975 977 977 981 984 986 992 998 1002 1007 1007 1007 1003 1003 1003 1003 1004 1004 1004 1005 1005 1007 1007 1008 1008 1009 1010 1012 1013 1015 1017 1018 1020 1021 1022 1023 1025 1027 1029 1031 1032 1035 1036 1037 1039 1041 1043 1046 1048 1052 1053 1056 1058 1058 1059 1064 1070 1083 1085 1088 1088 1102 1133 1184 1297 1524 1715 1799 1868 2019 2048 2058 2059 2062 2066 2067 2067 2072 2076 2084 2084 2085 2088 2088 2089 2093 2099 2101 2105 2109 2112 2114 2116 2120 2123 2126 2128 2131 2133 2135 2137 2138 2140 2142 2143 2145 2147 2149 2150 2152 2152 2153 2155 2159 2160 2163 2164 2166 2167 2169 2170 2171 2172 2174 2176 2180 2182 2186 2188 2190 2193 2195 2197 2199 2199 2201 2202 2204 2206 2208 2210 2211 2212 2214 2215 2216 2217 2217 2218 2220 2222 2224 2225 2227 2229 2231 2233 2235 2236 2240 2242 2243 2246 2247 2249 2250 2251 2253 2255 2256 2259 2261 2262 2262 2263 2265 2267 2269 2269 2270 2272 2274 2276 2277 2279 2283 2287 2289 2291 2292 2293 2293 2294 2296 2298 2300 2300 2301 2301 2301 2303 2304 2306 2306 2306 2306 2306 2308 2309 2311 2312 2312 2313 2315 2319 2320 2322 2322 2323 2323 2325 2326 2328 2329 2331 2334 2336 2338 2340 2342 2343 2345 2346 2347 2347 2347 2351 2351 2353 2354 2363 2363 2377 2439 2634 2699 2920 2926 2927 2929 2929 2932 2932 2932 2932 2932 2932 2932 2931 2931 2929 2929 2929 2929 2929 2929 2930 2931 2933 2933 2933 2925 2914 2913 2902 2879 2824 2694 2577 2469 2281 2263 2257 2245 2228 2219 2209 2204 2191 2177 2161 2153 2147 2142 2136 2132 2124 2114 2104 2095 2087 2079 2073 2066 2062 2057 2053 2050 2046 2042 2037 2033 2027 2022 2016 2012 2009 2006 2002 1998 1994 1991 1986 1983 1979 1976 1973 1972 1970 1968 1966 1965 1963 1961 1960 1960 1959 1957 1957 1953 1950 1948 1945 1943 1941 1940 1938 1937 1936 1934 1932 1930 1928 1928 1927 1926 1926 1926 1925 1923 1920 1919 1918 1918 1918 1918 1919 1919 1920 1921 1922 1923 1924 1924
1599 1600 1605 1609 1633 1657 1664 1682 1682 1682 1659 1650 1650 1650 1670 1684 1686 1687 1688 1689 1689 1695 1698 1699 1702 1703 1703 1703 1700 1696 1682 1678 1676 1669 1666 1665 1662 1659 1657 1656 1655 1652 1647 1635 1601 1552 1476 1365 1245 1101 964 865 816 800 797 784 774 774 774 775 778 778 778 777 777 777 778 778 779 779 779 779 779 780 780 780 780 780 782 782 784 785 785 787 787 788 789 790 790 791 791 792 793 794 795 795 796 797 798 799 800 801 802 804 805 806 807 808 809 811 813 815 815 816 818 821 823 824 825 827 829 832 834 836 836 837 837 837 837 838 841 846 846 846 845 845 845 848 854 855 855 857 858 862 864 870 871 871 871 871 870 868 868 867 866 866 865 865 865 861 861 861 862 862 863 863 863 863 865 866 866 870 873 875 877 879 880 882 885 885 887 888 890 891 892 895 897 899 900 901 904 907 911 912 914 914 915 915 916 917 917 917 918 918 918 918 918 918 918 918 919 920 922 922 924 926 926 927 929 930 932 934 934 935 937 938 940 941 942 943 944 945 947 948 949 950 952 954 956 958 959 961 964 966 968 969 973 976 982 982 984 985 989 995 1002 1006 1009 1012 1012 1012 1008 1008 1008 1008 1008 1009 1009 1012 1012 1012 1012 1012 1012 1013 1014 1015 1016 1018 1020 1021 1022 1023 1025 1026 1028 1030 1031 1033 1035 1037 1039 1041 1043 1045 1046 1048 1052 1054 1056 1059 1060 1061 1064 1070 1078 1081 1081 1082 1090 1111 1143 1185 1262 1426 1715 1819 1873 1980 2030 2058 2061 2063 2065 2067 2068 2073 2078 2082 2082 2083 2087 2089 2093 2099 2100 2102 2109 2112 2115 2116 2120 2123 2126 2128 2131 2133 2135 2137 2139 2140 2142 2144 2145 2148 2149 2150 2152 2153 2155 2157 2160 2163 2165 2165 2166 2167 2169 2170 2171 2172 2174 2176 2180 2183 2186 2188 2191 2193 2196 2198 2199 2200 2201 2203 2204 2206 2207 2209 2211 2213 2214 2215 2217 2217 2218 2220 2222 2222 2224 2226 2228 2230 2232 2233 2236 2238 2240 2243 2246 2247 2249 2250 2252 2253 2254 2255 2257 2260 2262 2263 2264 2265 2266 2268 2269 2270 2270 2272 2274 2278 2279 2281 2284 2287 2289 2292 2292 2293 2294 2296 2297 2299 2300 2301 2301 2302 2302 2303 2305 2306 2306 2306 2306 2306 2310 2311 2312 2312 2313 2313 2319 2321 2321 2323 2323 2323 2324 2325 2327 2329 2331 2334 2336 2338 2338 2340 2342 2344 2345 2347 2347 2347 2347 2352 2354 2356 2357 2357 2365 2379 2450 2645 2759 2927 2927 2928 2930 2932 2934 2935 2935 2935 2935 2933 2933 2932 2931 2931 2931 2931 2931 2931 2931 2931 2931 2933 2933 2933 2925 2913 2908 2899 2876 2780 2661 2568 2436 2272 2257 2256 2244 2228 2219 2208 2198 2189 2174 2159 2153 2147 2142 2136 2130 2121 2112 2103 2095 2085 2078 2071 2066 2060 2057 2053 2049 2046 2042 2037 2033 2027 2022 2016 2012 2009 2005 2003 1999 1994 1991 1986 1982 1979 1975 1973 1971 1969 1968 1966 1965 1963 1961 1960 1960 1959 1957 1957 1953 1950 1948 1945 1944 1942 1940 1939 1937 1937 1935 1933 1931 1930 1929 1928 1927 1926 1926 1925 1923 1923 1921 1921 1919 1919 1919 1920 1921 1921 1922 1922 1923 1924 1924
1577 1591 1612 1632 1643 1667 1667 1675 1675 1675 1659 1650 1650 1650 1663 1665 1676 1684 1688 1688 1692 1695 1698 1699 1704 1705 1705 1705 1700 1689 1682 1678 1677 1676 1676 1670 1670 1663 1657 1656 1655 1651 1645 1635 1587 1530 1442 1321 1166 1019 896 819 808 798 787 781 774 774 774 777 778 778 778 778 778 778 778 779 779 779 779 779 779 780 780 780 780 781 783 783 784 785 786 787 788 789 789 791 791 792 793 793 794 794 795 797 797 798 799 799 801 803 804 805 807 808 809 810 810 811 813 815 816 818 820 822 823 825 826 827 829 831 833 836 837 837 837 837 837 838 841 846 846 846 846 846 846 849 854 855 855 857 858 862 864 870 871 871 871 871 869 867 867 867 865 865 865 865 864 861 861 861 862 862 863 863 864 865 865 866 866 870 873 876 878 880 880 883 885 886 887 888 890 891 892 894 895 897 900 901 903 905 909 912 914 914 914 914 917 917 918 918 918 918 918 918 918 919 919 919 920 922 922 924 925 926 927 929 931 931 933 934 936 937 938 939 941 942 942 944 946 946 948 949 951 951 953 954 956 958 960 963 965 967 969 972 974 977 982 983 984 989 995 1001 1006 1011 1015 1015 1017 1018 1018 1017 1017 1016 1016 1016 1015 1016 1016 1015 1015 1015 1015 1015 1016 1017 1019 1019 1021 1023 1024 1025 1026 1028 1029 1031 1032 1034 1036 1038 1040 1042 1045 1046 1047 1049 1052 1055 1057 1059 1060 1063 1064 1069 1076 1078 1079 1080 1082 1090 1110 1134 1163 1214 1312 1562 1835 1855 1919 2020 2059 2061 2063 2064 2066 2072 2078 2081 2082 2083 2087 2089 2093 2097 2098 2102 2109 2113 2117 2119 2121 2124 2126 2128 2131 2133 2135 2137 2139 2140 2142 2144 2146 2148 2149 2151 2152 2154 2156 2158 2160 2163 2165 2166 2166 2168 2169 2171 2172 2173 2174 2176 2181 2184 2188 2190 2192 2195 2196 2198 2199 2200 2201 2202 2205 2206 2207 2209 2211 2213 2214 2215 2217 2218 2219 2221 2222 2223 2224 2226 2230 2230 2233 2234 2236 2238 2242 2244 2246 2249 2252 2253 2253 2254 2255 2257 2258 2261 2263 2264 2266 2266 2267 2268 2269 2270 2271 2273 2276 2279 2281 2282 2285 2287 2290 2292 2293 2293 2295 2297 2299 2300 2300 2301 2302 2302 2302 2303 2305 2307 2307 2307 2307 2307 2310 2311 2312 2312 2313 2314 2319 2322 2323 2323 2323 2323 2324 2326 2328 2330 2333 2335 2337 2338 2339 2340 2342 2344 2346 2347 2348 2348 2348 2354 2354 2357 2358 2358 2365 2387 2488 2645 2777 2928 2928 2929 2931 2932 2934 2935 2935 2935 2935 2933 2933 2932 2932 2932 2932 2932 2932 2932 2931 2931 2931 2933 2933 2933 2925 2911 2905 2899 2863 2750 2644 2558 2409 2270 2257 2255 2243 2228 2219 2208 2193 2179 2173 2157 2152 2147 2142 2135 2129 2118 2107 2100 2091 2085 2078 2071 2065 2060 2056 2053 2049 2046 2042 2037 2032 2027 2022 2016 2012 2009 2006 2003 1999 1994 1991 1986 1981 1978 1975 1973 1971 1969 1968 1966 1965 1963 1961 1960 1960 1959 1957 1957 1954 1951 1948 1946 1944 1943 1940 1939 1938 1937 1936 1934 1933 1932 1931 1929 1929 1927 1927 1925 1925 1924 1923 1922 1921 1921 1921 1921 1922 1922 1922 1922 1923 1923 1923
1570 1591 1626 1644 1648 1649 1664 1671 1671 1671 1669 1659 1659 1659 1663 1663 1675 1679 1687 1689 1695 1696 1700 1700 1708 1709 1709 1708 1694 1689 1682 1679 1679 1679 1681 1681 1681 1668 1660 1659 1655 1650 1645 1626 1569 1485 1374 1223 1091 958 856 819 803 789 780 777 776 776 776 777 778 778 778 778 778 778 779 779 779 779 779 779 780 780 781 781 781 782 783 784 785 786 787 788 789 790 790 791 791 793 793 794 794 795 796 797 798 799 800 801 802 803 804 805 807 808 809 810 810 811 813 815 817 819 821 822 823 825 826 828 829 830 833 836 837 837 837 837 837 838 841 848 848 848 847 847 847 849 854 855 857 857 858 861 864 870 870 870 869 868 866 865 865 865 865 864 864 863 863 861 861 861 862 863 864 864 864 865 865 865 867 867 872 876 878 880 880 883 885 886 887 888 890 891 892 894 895 897 898 900 903 905 909 912 914 914 916 920 920 921 921 920 919 919 919 919 919 919 920 920 921 922 923 925 926 927 929 930 931 933 934 935 937 938 940 940 942 943 944 945 946 948 949 950 951 953 954 956 957 959 962 964 966 968 972 975 977 982 989 990 991 993 1000 1006 1011 1016 1020 1020 1020 1021 1021 1024 1024 1024 1018 1018 1018 1017 1017 1017 1017 1017 1017 1017 1018 1020 1021 1022 1023 1025 1026 1027 1028 1030 1031 1032 1033 1035 1037 1039 1041 1043 1045 1047 1048 1049 1052 1055 1057 1059 1061 1063 1065 1069 1073 1075 1077 1079 1082 1084 1093 1108 1123 1145 1189 1256 1427 1687 1828 1851 1980 2061 2063 2063 2065 2072 2078 2079 2080 2082 2085 2090 2096 2097 2098 2102 2109 2113 2117 2121 2124 2124 2126 2128 2131 2133 2135 2137 2139 2141 2143 2145 2146 2148 2149 2151 2154 2155 2156 2159 2161 2163 2166 2167 2168 2169 2170 2172 2173 2174 2176 2178 2183 2186 2188 2190 2192 2195 2197 2198 2199 2200 2201 2202 2205 2206 2207 2209 2211 2212 2214 2215 2217 2218 2219 2221 2223 2224 2225 2226 2230 2231 2234 2235 2236 2239 2242 2245 2247 2251 2252 2253 2254 2255 2257 2259 2261 2263 2265 2266 2266 2268 2269 2271 2271 2271 2272 2274 2276 2279 2282 2283 2286 2288 2290 2292 2294 2294 2295 2297 2299 2301 2301 2302 2302 2303 2303 2304 2305 2307 2307 2308 2308 2308 2310 2311 2312 2313 2314 2314 2319 2324 2324 2325 2325 2325 2326 2327 2330 2331 2333 2336 2337 2338 2339 2340 2342 2345 2348 2349 2349 2350 2350 2358 2358 2358 2358 2358 2365 2394 2506 2645 2780 2927 2928 2928 2930 2931 2934 2935 2935 2935 2935 2933 2933 2933 2933 2934 2934 2934 2934 2932 2930 2930 2930 2929 2929 2927 2921 2911 2903 2893 2849 2745 2624 2544 2355 2270 2257 2249 2240 2223 2211 2201 2187 2169 2165 2157 2152 2147 2142 2135 2127 2113 2105 2098 2090 2084 2078 2071 2065 2060 2056 2053 2048 2043 2040 2035 2032 2027 2022 2016 2011 2009 2006 2003 1999 1994 1991 1986 1981 1978 1975 1973 1971 1969 1968 1966 1965 1963 1961 1960 1959 1958 1957 1956 1954 1951 1948 1947 1946 1944 1942 1940 1938 1937 1936 1935 1934 1933 1932 1930 1929 1928 1927 1926 1925 1924 1923 1923 1922 1922 1922 1922 1922 1922 1922 1922 1922 1922 1922
1569 1591 1626 1644 1648 1649 1657 1669 1674 1674 1674 1672 1663 1660 1660 1663 1672 1679 1680 1689 1695 1701 1707 1711 1713 1713 1711 1699 1694 1693 1693 1693 1693 1694 1695 1695 1695 1685 1680 1659 1655 1650 1624 1598 1532 1428 1321 1167 1026 913 855 819 803 788 780 774 774 774 776 778 778 778 778 778 778 778 780 780 780 780 780 780 780 781 781 782 782 783 784 785 786 787 788 788 790 790 791 792 793 794 794 794 795 796 797 797 799 800 801 802 803 804 805 806 807 808 810 811 811 812 814 816 818 819 821 822 823 825 827 828 829 830 833 836 837 837 838 838 838 838 841 848 848 848 847 847 847 850 854 855 857 857 858 859 863 867 867 867 867 865 864 864 864 864 865 865 865 863 863 862 862 862 863 863 864 864 865 865 865 867 867 867 873 875 878 881 881 884 886 887 887 889 890 891 892 894 895 897 898 899 902 904 909 912 913 914 918 921 921 921 921 921 921 921 921 921 921 921 921 922 923 924 925 925 927 928 930 931 932 934 936 937 938 939 941 941 942 944 945 945 947 948 950 951 952 954 955 957 960 961 964 967 967 969 972 976 978 986 992 995 996 1001 1004 1009 1016 1022 1026 1026 1026 1026 1026 1026 1026 1026 1023 1023 1023 1021 1020 1018 1018 1018 1019 1019 1020 1021 1022 1024 1025 1026 1027 1028 1029 1031 1033 1034 1035 1037 1038 1041 1043 1045 1047 1048 1049 1051 1053 1056 1058 1059 1061 1063 1065 1068 1071 1071 1073 1076 1079 1083 1089 1095 1101 1108 1127 1153 1206 1339 1672 1778 1849 1965 2035 2062 2062 2072 2078 2078 2080 2082 2085 2090 2096 2097 2098 2103 2109 2114 2118 2122 2125 2127 2128 2129 2131 2133 2135 2137 2139 2141 2143 2145 2147 2149 2151 2152 2154 2156 2156 2159 2161 2164 2167 2169 2171 2171 2171 2173 2175 2176 2178 2180 2185 2187 2189 2191 2193 2195 2197 2198 2199 2200 2202 2203 2205 2206 2207 2209 2210 2212 2213 2215 2217 2218 2219 2221 2223 2225 2226 2228 2231 2233 2234 2236 2237 2240 2243 2246 2249 2251 2252 2254 2255 2256 2259 2260 2263 2264 2266 2267 2268 2268 2269 2271 2272 2274 2274 2275 2279 2280 2282 2285 2286 2288 2291 2292 2294 2295 2297 2298 2300 2301 2302 2303 2303 2304 2304 2305 2305 2307 2307 2308 2309 2309 2311 2311 2311 2313 2314 2314 2321 2325 2325 2326 2327 2328 2328 2330 2331 2332 2335 2336 2338 2339 2340 2340 2343 2346 2348 2350 2351 2351 2352 2359 2359 2359 2359 2359 2371 2395 2509 2653 2839 2927 2928 2929 2931 2932 2934 2935 2935 2935 2934 2933 2933 2933 2933 2934 2934 2934 2934 2932 2929 2929 2929 2929 2929 2927 2921 2911 2901 2886 2843 2721 2605 2525 2344 2270 2257 2248 2233 2218 2206 2191 2180 2169 2165 2157 2152 2146 2142 2134 2122 2111 2105 2098 2089 2084 2078 2071 2065 2059 2055 2051 2047 2041 2035 2033 2029 2027 2022 2016 2011 2008 2005 2003 1999 1994 1991 1986 1981 1978 1975 1973 1971 1969 1968 1966 1965 1963 1961 1960 1959 1958 1957 1956 1953 1951 1948 1948 1946 1945 1942 1941 1939 1938 1936 1935 1935 1934 1932 1931 1930 1928 1927 1927 1925 1924 1924 1924 1923 1922 1922 1922 1922 1922 1922 1921 1921 1921 1921
