0 0 0 0 2354 2354 2354 2320 2320 2320 2474 2481 2481 2481 2394 2297 2297 2297 2347 2390 2401 2401 2401 2387 2387 2387 2385 2387 2387 2385 2378 2352 2352 2352 2351 2344 2351 2351 2376 2376 2376 2367 2328 2286 2286 2286 2317 2336 2336 2336 2330 2316 2316 2316 2320 2320 2320 2319 2311 2310 2305 2305 2305 2297 2274 2274 2274 2296 2296 2296 0 0 0 0 0 0 2174 2206 2296 2392 2498 2580 2641 2724 2881 3145 3172 3213 3250 3293 3293 3295 3295 3287 3287 3287 3287 3306 3306 3281 3274 3138 3098 3098 3098 3159 3197 3215 3266 3266 3266 3244 3205 3174 3142 3121 3116 3114 2924 2902 2859 2853 2859 2859 2929 3079 3182 3234 3234 3234 3234 3234 3227 3227 3181 3133 3096 3074 3042 3041 3014 2953 2943 2941 2934 2899 2870 2869 2862 2863 2846 2830 2822 2817 2808 2805 2785 2766 2760 2758 2758 2758 2758 2758 2758 2754 2750 2749 2742 2732 2718 2718 2718 2719 2734 2749 2749 2749 2743 2698 2694 2691 2683 2680 2667 2667 2667 2696 2720 2741 2741 2741 2733 2709 2707 2697 2697 2695 2695 2697 2699 2703 2718 2730 2734 2736 2741 2741 2741 2733 2712 2698 2698 2698 2716 2716 2722 2722 2718 2718 2718 2716 2712 2710 2706 2702 2699 2695 2695 2695 2711 2720 2720 2720 2720 2720 2719 2719 2719 2713 2711 2711 2709 2706 2701 2700 2700 2700 2718 2723 2727 2727 2723 2716 2665 2619 2619 2617 2608 2580 2452 2367 2367 2367 2369 2375 2375 2375 2278 2165 2096 2053 2052 2051 2051 2051 2051 2052 2053 2056 2058 2059 2060 2060 2061 2063 2064 2066 2067 2069 2070 2070 2072 2073 2073 2075 2075 2077 2078 2078 2079 2081 2082 2084 2085 2086 2088 2091 2093 2095 2097 2099 2100 2102 2103 2104 2106 2108 2110 2112 2112 2113 2114 2115 2116 2117 2118 2120 2122 2122 2124 2125 2127 2128 2130 2132 2133 2136 2136 2139 2140 2142 2143 2144 2145 2146 2148 2149 2150 2152 2154 2156 2157 2159 2161 2164 2166 2168 2169 2170 2172 2173 2174 2175 2176 2180 2184 2184 2185 2185 2187 2189 2191 2191 2191 2192 2195 2197 2198 2198 2200 2202 2203 2206 2208 2211 2213 2215 2216 2219 2220 2221 2222 2223 2223 2224 2226 2226 2226 2226 2227 2229 2232 2233 2235 2238 2241 2243 2245 2248 2250 2253 2255 2258 2259 2261 2261 2262 2262 2267 2268 2270 2272 2274 2276 2277 2278 2279 2281 2281 2282 2282 2282 2282 2282 2284 2287 2288 2289 2289 2291 2292 2294 2296 2297 2299 2301 2302 2305 2307 2309 2309 2310 2312 2314 2316 2316 2316 2316 2316 2316 2316 2318 2319 2321 2322 2322 2323 2323 2324 2326 2328 2330 2332 2334 2335 2337 2338 2339 2341 2343 2345 2346 2347 2349 2351 2352 2352 2354 2357 2361 2364 2367 2392 2499 2639 2786 2918 2921 2925 2933 2934 2934 2934 2933 2933 2933 2933 2935 2935 2936 2937 2938 2938 2938 2938 2939 2939 2939 2938 2937 2934 2929 2924 2917 2910 2891 2832 2751 2649 2490 2325 2287 2264 2239 2235 2214 2201 2189 2183 2176 2170 2164 2153 2142 2135 2127 2119 2111 2099 2091 2087 2082 2077 2072 2068 2063 2058 2052 2046 2040 2033 2027 2022 2018 2013 2009 2005 2000 1994 1989 1984 1980 1977 1974 1972 1970 1968 1966 1965 1962 1961 1959 1957 1955 1952 1950 1948 1946 1944 1941 1939 1936 1934 1933 1932 1932 1930 1928 1926 1924 1922 1921 1920 1917 1916 1916 1916 1916 1914 1912 1910 1910 1910 1910 1911 1911 1911 1911 1911 1912
0 0 0 2327 2354 2354 2354 2320 2320 2320 2474 2516 2516 2516 2450 2312 2312 2312 2350 2391 2391 2391 2382 2364 2364 2364 2375 2382 2382 2382 2378 2352 2352 2352 2351 2332 2351 2351 2376 2376 2376 2367 2284 2280 2280 2280 2300 2324 2335 2335 2335 2334 2320 2320 2320 2320 2320 2320 2311 2311 2309 2305 2305 2299 2278 2278 2278 2296 2296 2296 0 0 2186 2186 2186 2186 2187 2253 2334 2418 2498 2580 2641 2724 2848 3145 3196 3219 3250 3263 3309 3309 3309 3297 3297 3295 3297 3331 3333 3331 3331 3147 3147 3147 3216 3259 3278 3289 3342 3356 3358 3358 3356 3340 3303 3303 3302 3283 3254 3145 3096 2963 2963 2963 3004 3123 3257 3275 3276 3276 3276 3261 3261 3259 3257 3244 3239 3216 3200 3186 3179 3171 3168 3162 3141 3124 3124 3123 3122 3101 2871 2871 2870 2870 2854 2837 2822 2822 2822 2822 2822 2812 2811 2807 2804 2802 2802 2800 2780 2757 2732 2731 2731 2731 2739 2779 2779 2779 2765 2732 2720 2713 2713 2712 2672 2672 2672 2709 2737 2755 2755 2755 2742 2723 2718 2717 2715 2714 2707 2705 2705 2705 2727 2748 2748 2748 2745 2744 2742 2732 2715 2714 2714 2714 2716 2716 2722 2722 2720 2720 2720 2720 2712 2707 2704 2699 2699 2696 2696 2696 2711 2718 2718 2720 2720 2720 2720 2720 2719 2713 2711 2711 2707 2705 2700 2695 2695 2700 2718 2720 2720 2720 2704 2686 2654 2619 2619 2617 2614 2577 2423 2361 2361 2361 2368 2368 2368 2357 2237 2148 2068 2055 2053 2052 2051 2051 2051 2052 2053 2056 2058 2058 2060 2060 2061 2063 2064 2066 2068 2069 2070 2070 2072 2073 2074 2075 2076 2077 2078 2078 2081 2082 2082 2084 2085 2087 2089 2092 2093 2095 2097 2099 2100 2102 2104 2105 2106 2109 2110 2112 2112 2113 2114 2115 2116 2117 2118 2120 2122 2123 2124 2125 2127 2129 2130 2132 2133 2136 2137 2139 2141 2142 2144 2146 2146 2147 2149 2150 2151 2153 2154 2156 2157 2159 2162 2164 2167 2168 2169 2170 2172 2173 2174 2175 2177 2181 2184 2184 2185 2186 2187 2189 2190 2191 2191 2192 2195 2197 2198 2198 2200 2203 2204 2207 2210 2213 2214 2216 2219 2220 2222 2223 2224 2225 2225 2226 2227 2227 2227 2228 2228 2229 2232 2233 2236 2238 2241 2243 2245 2248 2250 2253 2254 2257 2259 2259 2260 2260 2262 2265 2267 2269 2271 2274 2276 2277 2278 2279 2281 2282 2282 2282 2282 2282 2282 2285 2287 2288 2289 2289 2291 2292 2294 2296 2297 2299 2301 2303 2306 2308 2309 2310 2310 2312 2314 2316 2316 2316 2316 2316 2318 2318 2319 2321 2322 2322 2323 2323 2324 2324 2326 2328 2331 2333 2335 2335 2337 2339 2340 2342 2344 2345 2347 2349 2350 2353 2354 2354 2356 2361 2367 2368 2368 2392 2502 2639 2818 2922 2927 2930 2937 2937 2937 2937 2937 2937 2937 2937 2938 2939 2939 2940 2941 2941 2941 2940 2940 2940 2940 2938 2938 2938 2937 2936 2931 2919 2890 2805 2743 2610 2394 2305 2285 2264 2236 2232 2212 2196 2189 2183 2176 2170 2164 2155 2146 2135 2127 2121 2111 2099 2091 2085 2080 2074 2070 2066 2061 2056 2051 2044 2036 2029 2025 2021 2018 2013 2009 2006 2001 1995 1989 1984 1980 1977 1974 1972 1970 1968 1966 1965 1962 1961 1959 1957 1954 1952 1950 1948 1946 1944 1941 1939 1937 1935 1933 1932 1932 1931 1928 1926 1924 1923 1922 1920 1918 1917 1917 1917 1917 1915 1913 1911 1911 1911 1912 1912 1912 1912 1912 1912 1913
0 0 2325 2325 2346 2325 2325 2338 2354 2397 2477 2516 2516 2516 2450 2331 2331 2331 2378 2393 2393 2393 2382 2364 2364 2364 2375 2382 2382 2382 2378 2352 2345 2328 2319 2316 2316 2316 2328 2328 2328 2317 2284 2280 2280 2280 2300 2320 2332 2334 2334 2334 2325 2322 2321 2320 2318 2316 2316 2315 2309 2305 2304 2304 2302 2302 2304 2307 2304 2324 0 2346 2243 2243 2241 2241 2243 2267 2353 2418 2498 2580 2641 2724 2828 3032 3196 3229 3236 3263 3317 3317 3317 3297 3297 3284 3297 3331 3337 3331 3331 3251 3251 3251 3279 3282 3283 3336 3354 3360 3363 3369 3363 3363 3346 3339 3331 3314 3306 3301 3295 3253 3129 3129 3129 3144 3258 3287 3290 3290 3290 3278 3278 3278 3280 3283 3283 3283 3284 3283 3280 3274 3250 3227 3227 3227 3232 3232 3232 3130 3122 3117 3117 3060 3040 3001 2931 2895 2888 2888 2887 2886 2885 2874 2867 2860 2847 2833 2817 2786 2763 2755 2755 2755 2761 2781 2799 2799 2799 2780 2743 2741 2739 2720 2720 2720 2726 2736 2751 2758 2758 2758 2743 2741 2730 2729 2727 2725 2710 2705 2705 2705 2735 2752 2752 2752 2749 2746 2745 2729 2717 2715 2714 2714 2714 2715 2716 2718 2723 2723 2723 2721 2712 2706 2704 2702 2700 2697 2697 2697 2714 2718 2718 2720 2720 2720 2720 2720 2716 2713 2711 2711 2706 2703 2692 2691 2691 2691 2713 2713 2713 2712 2704 2684 2654 2620 2619 2618 2604 2565 2417 2353 2353 2353 2368 2368 2368 2340 2222 2124 2062 2055 2053 2052 2051 2051 2051 2052 2053 2056 2058 2058 2060 2060 2061 2062 2064 2066 2068 2069 2070 2072 2072 2073 2074 2075 2076 2077 2079 2080 2081 2082 2083 2085 2085 2088 2091 2093 2094 2097 2098 2099 2101 2102 2104 2105 2107 2109 2111 2112 2113 2114 2115 2116 2117 2117 2119 2121 2122 2123 2124 2126 2127 2130 2130 2132 2133 2136 2137 2139 2141 2142 2145 2146 2147 2149 2150 2152 2152 2153 2155 2156 2157 2159 2163 2165 2167 2168 2170 2171 2172 2173 2174 2175 2177 2181 2183 2184 2184 2186 2187 2189 2189 2191 2191 2192 2195 2197 2198 2199 2201 2203 2205 2208 2211 2214 2216 2217 2219 2220 2222 2224 2225 2225 2226 2227 2227 2227 2228 2228 2230 2231 2233 2235 2237 2238 2241 2243 2245 2248 2250 2253 2254 2257 2258 2259 2259 2260 2262 2265 2267 2269 2271 2271 2272 2275 2277 2277 2281 2282 2282 2282 2282 2282 2282 2285 2287 2289 2290 2290 2292 2292 2294 2296 2298 2300 2301 2303 2306 2308 2309 2310 2311 2313 2315 2317 2317 2317 2317 2318 2319 2320 2321 2321 2323 2323 2323 2324 2324 2325 2327 2329 2331 2333 2335 2336 2338 2339 2340 2342 2344 2346 2348 2351 2352 2353 2354 2356 2356 2362 2367 2368 2368 2392 2540 2663 2878 2922 2927 2930 2937 2938 2938 2938 2938 2938 2938 2938 2940 2942 2943 2943 2943 2945 2945 2945 2942 2941 2940 2939 2939 2939 2939 2939 2931 2919 2879 2773 2704 2593 2379 2301 2280 2262 2235 2217 2209 2196 2189 2181 2174 2170 2164 2155 2146 2135 2130 2122 2113 2100 2091 2084 2079 2073 2069 2063 2057 2053 2046 2041 2035 2029 2024 2021 2018 2013 2009 2006 2001 1995 1989 1984 1980 1977 1974 1972 1970 1968 1966 1965 1962 1961 1959 1957 1955 1953 1951 1949 1946 1945 1942 1939 1938 1936 1934 1932 1932 1931 1928 1926 1924 1923 1922 1920 1919 1918 1918 1917 1917 1917 1914 1911 1911 1911 1912 1912 1912 1912 1912 1912 1913
2388 2388 2358 2358 2354 2344 2344 2354 2421 2567 2599 2610 2610 2610 2450 2365 2365 2365 2384 2391 2391 2391 2379 2364 2364 2364 2375 2382 2382 2382 2379 2366 2345 2325 2318 2313 2306 2306 2306 2317 2317 2317 2284 2280 2280 2280 2300 2316 2331 2334 2334 2334 2325 2322 2321 2318 2318 2318 2317 2317 2309 2309 2309 2318 2326 2326 2326 2326 2326 2378 2378 2378 2360 2349 2268 2268 2268 2285 2353 2418 2440 2475 2577 2696 2813 3026 3196 3229 3257 3280 3322 3322 3322 3324 3326 3325 3326 3335 3337 3335 3335 3322 3316 3314 3313 3314 3316 3343 3360 3361 3361 3363 3363 3363 3360 3347 3347 3347 3340 3337 3336 3320 3312 3310 3304 3310 3312 3320 3353 3372 3375 3375 3372 3369 3366 3365 3363 3356 3356 3356 3361 3361 3361 3312 3293 3286 3286 3286 3286 3267 3288 3280 3267 3263 3259 3231 3182 3142 3124 3114 3101 3076 3039 3006 3000 2994 2986 2953 2922 2894 2857 2826 2816 2816 2816 2856 2858 2858 2858 2827 2818 2815 2803 2792 2783 2778 2774 2773 2772 2772 2772 2771 2767 2761 2746 2745 2738 2733 2716 2716 2716 2717 2745 2755 2755 2755 2752 2751 2746 2729 2720 2718 2715 2714 2714 2715 2716 2718 2728 2728 2728 2724 2712 2707 2706 2704 2700 2700 2700 2700 2714 2714 2714 2715 2715 2720 2720 2720 2716 2714 2711 2711 2706 2703 2692 2692 2692 2693 2711 2712 2712 2712 2704 2684 2654 2621 2620 2619 2604 2563 2405 2350 2350 2350 2364 2364 2364 2334 2211 2113 2062 2055 2053 2052 2052 2052 2052 2054 2055 2056 2058 2058 2059 2060 2061 2062 2064 2066 2068 2069 2071 2072 2073 2073 2074 2075 2076 2077 2079 2080 2081 2082 2083 2085 2087 2089 2092 2094 2094 2097 2098 2100 2101 2103 2104 2106 2107 2109 2111 2113 2113 2114 2116 2117 2118 2119 2120 2122 2122 2123 2124 2126 2127 2130 2132 2133 2133 2136 2137 2139 2141 2143 2145 2146 2148 2150 2152 2154 2154 2155 2156 2157 2159 2161 2164 2166 2167 2170 2170 2172 2172 2173 2174 2175 2179 2182 2183 2184 2184 2186 2187 2189 2189 2191 2192 2192 2195 2197 2198 2201 2203 2204 2205 2209 2211 2215 2216 2217 2219 2220 2223 2224 2225 2226 2226 2227 2227 2228 2228 2229 2231 2233 2234 2235 2238 2239 2241 2243 2245 2248 2250 2253 2255 2257 2258 2259 2259 2260 2262 2265 2267 2269 2271 2271 2272 2274 2274 2276 2279 2281 2281 2281 2281 2282 2283 2285 2287 2289 2290 2291 2292 2292 2294 2296 2299 2300 2303 2304 2307 2308 2309 2311 2312 2313 2315 2317 2317 2319 2319 2319 2320 2320 2321 2322 2324 2324 2325 2325 2325 2327 2329 2330 2331 2333 2335 2336 2338 2340 2341 2343 2345 2347 2349 2351 2352 2353 2353 2356 2356 2363 2367 2368 2368 2410 2557 2669 2879 2922 2927 2930 2939 2939 2939 2939 2939 2939 2939 2942 2942 2943 2943 2944 2945 2945 2945 2945 2945 2943 2941 2940 2940 2940 2940 2940 2931 2919 2871 2767 2663 2589 2371 2289 2270 2252 2235 2216 2207 2196 2187 2178 2169 2162 2159 2155 2146 2135 2130 2122 2113 2100 2090 2083 2077 2072 2067 2061 2055 2052 2046 2041 2035 2029 2024 2020 2016 2011 2009 2006 2001 1995 1989 1984 1980 1978 1975 1972 1970 1968 1966 1965 1963 1961 1960 1957 1955 1954 1953 1952 1949 1946 1943 1940 1939 1936 1935 1933 1932 1931 1929 1927 1924 1923 1922 1921 1919 1918 1918 1918 1918 1917 1914 1912 1912 1912 1912 1912 1912 1912 1912 1912 1914
2411 2411 2402 2402 2357 2357 2357 2393 2482 2567 2599 2642 2642 2642 2391 2371 2371 2371 2385 2389 2389 2389 2378 2363 2363 2363 2369 2396 2396 2396 2379 2366 2329 2314 2312 2302 2299 2299 2299 2317 2317 2317 2298 2297 2297 2298 2302 2316 2327 2327 2327 2327 2325 2322 2321 2316 2316 2316 2316 2316 2309 2309 2309 2318 2326 2326 2326 2326 2326 2357 2357 2357 2349 2346 2268 2268 2268 2287 2353 2396 2401 2448 2542 2669 2809 3026 3229 3262 3282 3303 3306 3306 3306 3324 3328 3325 3330 3337 3337 3337 3337 3337 3338 3340 3345 3350 3355 3356 3360 3363 3365 3365 3363 3363 3360 3347 3347 3347 3345 3345 3345 3343 3343 3337 3340 3343 3350 3358 3376 3376 3378 3377 3377 3377 3377 3377 3375 3375 3375 3369 3369 3369 3373 3373 3373 3344 3344 3335 3335 3335 3304 3304 3298 3293 3293 3284 3255 3248 3248 3248 3250 3250 3250 3243 3223 3200 3187 3156 3117 3081 3043 3023 2994 2994 2994 2998 2998 2998 2966 2921 2881 2871 2871 2871 2869 2869 2849 2835 2815 2815 2813 2804 2803 2794 2793 2751 2751 2745 2743 2739 2739 2739 2762 2772 2772 2772 2759 2756 2752 2742 2721 2721 2721 2717 2716 2716 2716 2718 2728 2730 2730 2730 2712 2712 2712 2722 2722 2722 2715 2715 2715 2715 2714 2714 2714 2720 2720 2720 2717 2717 2716 2714 2707 2705 2695 2693 2693 2693 2708 2712 2712 2712 2704 2684 2660 2643 2632 2617 2599 2543 2405 2350 2350 2350 2364 2364 2364 2321 2198 2113 2062 2055 2053 2053 2053 2053 2053 2055 2057 2057 2058 2058 2059 2060 2061 2062 2064 2066 2068 2069 2071 2073 2074 2074 2075 2075 2076 2078 2079 2080 2082 2082 2084 2085 2087 2090 2092 2095 2096 2097 2098 2100 2102 2104 2104 2106 2107 2110 2112 2113 2115 2116 2116 2117 2118 2120 2120 2122 2122 2123 2124 2126 2127 2130 2132 2133 2133 2135 2137 2139 2142 2143 2145 2147 2149 2151 2153 2154 2156 2156 2156 2158 2160 2162 2164 2166 2169 2170 2171 2172 2173 2174 2176 2178 2180 2183 2183 2184 2184 2186 2187 2189 2189 2192 2192 2193 2196 2198 2200 2202 2203 2205 2207 2209 2212 2215 2216 2218 2219 2220 2223 2224 2225 2227 2227 2227 2228 2228 2229 2230 2231 2234 2235 2236 2238 2239 2241 2243 2245 2248 2251 2253 2255 2257 2258 2259 2260 2261 2263 2265 2267 2270 2271 2271 2272 2274 2274 2276 2279 2279 2279 2279 2279 2281 2284 2286 2288 2290 2291 2293 2293 2293 2294 2297 2300 2303 2304 2305 2307 2308 2309 2311 2313 2314 2316 2317 2318 2319 2319 2320 2320 2320 2321 2323 2325 2325 2325 2325 2326 2327 2329 2330 2332 2333 2336 2337 2339 2340 2342 2343 2345 2347 2349 2351 2352 2353 2353 2354 2357 2365 2369 2369 2371 2416 2610 2673 2881 2921 2927 2927 2939 2939 2940 2941 2941 2942 2942 2942 2943 2944 2944 2944 2945 2945 2946 2946 2946 2944 2942 2942 2940 2940 2939 2937 2926 2901 2866 2740 2635 2561 2341 2277 2260 2247 2232 2213 2201 2195 2186 2175 2165 2161 2156 2152 2145 2135 2130 2122 2113 2100 2090 2082 2076 2071 2065 2059 2055 2052 2046 2041 2035 2029 2024 2018 2012 2009 2006 2002 1997 1994 1989 1985 1981 1978 1975 1973 1970 1968 1966 1965 1963 1962 1961 1959 1957 1955 1955 1953 1950 1947 1943 1940 1939 1937 1935 1933 1932 1931 1930 1927 1925 1923 1922 1921 1920 1919 1919 1918 1918 1917 1914 1912 1912 1912 1912 1912 1912 1912 1912 1913 1914
2411 2411 2403 2403 2383 2383 2383 2447 2528 2567 2599 2599 2599 2558 2391 2381 2381 2381 2397 2397 2397 2378 2377 2363 2363 2363 2370 2395 2395 2395 2380 2366 2313 2290 2272 2272 2272 2284 2299 2321 2321 2321 2315 2314 2312 2312 2312 2318 2322 2322 2322 2316 2313 2313 2313 2315 2316 2316 2316 2316 2309 2309 2309 2318 2326 2326 2326 2326 2326 2347 2347 2349 2349 2346 2268 2268 2268 2301 2330 2341 2370 2399 2472 2605 2782 3032 3257 3275 3280 3282 3302 3302 3302 3325 3329 3336 3337 3340 3341 3341 3344 3350 3357 3362 3363 3365 3370 3370 3370 3364 3364 3364 3369 3369 3369 3362 3362 3361 3354 3354 3353 3353 3353 3362 3368 3373 3379 3379 3382 3384 3386 3386 3386 3378 3378 3378 3377 3375 3375 3369 3369 3369 3373 3373 3373 3373 3370 3366 3366 3349 3346 3346 3344 3344 3344 3338 3314 3314 3314 3313 3314 3313 3306 3301 3273 3273 3269 3264 3254 3223 3223 3223 3225 3252 3252 3252 3222 3211 3211 3200 3161 3107 3083 3054 3022 3003 2994 2967 2942 2931 2928 2904 2866 2825 2824 2796 2796 2795 2795 2796 2802 2802 2803 2815 2815 2815 2798 2777 2757 2743 2730 2729 2729 2730 2733 2742 2748 2750 2750 2750 2748 2736 2730 2730 2730 2743 2743 2744 2746 2743 2738 2729 2714 2714 2714 2720 2720 2720 2718 2718 2718 2721 2721 2721 2701 2693 2693 2693 2708 2712 2712 2712 2710 2694 2673 2653 2632 2617 2599 2539 2395 2352 2352 2352 2358 2358 2358 2263 2179 2113 2076 2061 2055 2054 2054 2054 2055 2057 2058 2058 2058 2059 2059 2060 2061 2062 2064 2066 2068 2070 2072 2073 2074 2075 2076 2077 2078 2078 2080 2081 2082 2082 2085 2086 2088 2091 2094 2096 2097 2098 2099 2100 2102 2104 2105 2106 2109 2111 2112 2113 2116 2117 2117 2117 2119 2120 2120 2122 2122 2123 2124 2125 2127 2130 2132 2133 2133 2134 2137 2140 2142 2144 2146 2147 2149 2151 2153 2155 2157 2158 2158 2159 2160 2162 2165 2167 2169 2170 2171 2172 2173 2175 2178 2181 2183 2184 2184 2184 2185 2186 2187 2189 2190 2192 2192 2195 2197 2199 2201 2202 2204 2206 2207 2210 2212 2216 2217 2218 2219 2220 2223 2225 2225 2227 2227 2228 2228 2229 2230 2231 2232 2234 2235 2237 2238 2239 2241 2243 2245 2248 2251 2253 2255 2257 2258 2260 2261 2262 2264 2266 2268 2270 2272 2272 2273 2274 2274 2276 2279 2279 2279 2279 2279 2281 2285 2286 2288 2290 2291 2293 2294 2295 2295 2298 2300 2303 2304 2306 2307 2308 2310 2312 2313 2315 2316 2317 2319 2319 2320 2320 2321 2321 2322 2324 2325 2325 2326 2326 2326 2327 2329 2331 2332 2333 2336 2337 2339 2341 2343 2344 2345 2348 2349 2351 2352 2353 2353 2354 2358 2365 2369 2369 2375 2417 2610 2673 2891 2921 2923 2927 2938 2940 2941 2942 2942 2943 2945 2945 2945 2945 2944 2944 2945 2946 2946 2946 2946 2946 2946 2946 2945 2940 2940 2932 2915 2886 2838 2714 2616 2529 2321 2272 2257 2245 2231 2213 2198 2195 2183 2174 2165 2160 2155 2150 2139 2132 2124 2117 2108 2100 2090 2081 2076 2068 2063 2059 2055 2052 2047 2043 2038 2031 2024 2018 2012 2009 2006 2002 1997 1994 1990 1986 1983 1978 1975 1973 1971 1969 1967 1966 1964 1962 1961 1959 1957 1956 1955 1953 1951 1947 1943 1941 1939 1937 1936 1934 1932 1932 1930 1927 1926 1923 1922 1921 1920 1919 1919 1919 1918 1918 1914 1913 1913 1913 1913 1912 1912 1912 1912 1913 1914
2410 2410 2410 2411 2423 2432 2450 2480 2495 2501 2564 2532 2532 2532 2391 2389 2389 2389 2397 2397 2397 2377 2355 2355 2355 2361 2370 2395 2395 2395 2380 2363 2303 2246 2246 2246 2251 2277 2298 2317 2317 2317 2315 2314 2314 2315 2316 2318 2322 2322 2322 2315 2313 2313 2313 2315 2315 2315 2311 2303 2292 2287 2287 2287 2292 2292 2300 2300 2300 2302 2303 2303 2302 2257 2250 2250 2250 2282 2316 2318 2330 2360 2418 2546 2766 3032 3257 3275 3276 3280 3297 3297 3297 3325 3329 3337 3344 3344 3347 3347 3352 3357 3368 3369 3372 3374 3374 3374 3374 3364 3364 3364 3370 3370 3370 3366 3364 3364 3363 3362 3359 3359 3359 3367 3373 3375 3379 3384 3385 3385 3386 3390 3390 3390 3386 3385 3383 3383 3376 3369 3369 3369 3373 3373 3373 3373 3370 3370 3369 3368 3357 3355 3355 3355 3362 3362 3362 3358 3352 3352 3352 3360 3360 3360 3340 3324 3318 3316 3310 3310 3310 3318 3318 3318 3317 3317 3317 3317 3311 3311 3293 3265 3237 3214 3214 3214 3208 3208 3208 3162 3161 3156 3082 3081 2992 2949 2921 2906 2885 2885 2885 2891 2900 2900 2891 2879 2861 2823 2822 2817 2786 2767 2767 2767 2776 2802 2802 2802 2799 2793 2782 2771 2752 2752 2752 2760 2760 2762 2763 2760 2760 2733 2717 2717 2717 2721 2721 2721 2721 2721 2722 2722 2722 2721 2709 2696 2690 2690 2690 2706 2712 2715 2715 2712 2679 2653 2632 2617 2596 2521 2394 2358 2358 2358 2358 2358 2345 2261 2173 2109 2076 2061 2054 2054 2054 2054 2055 2057 2058 2058 2059 2059 2060 2061 2061 2062 2064 2066 2068 2070 2072 2073 2074 2076 2077 2078 2078 2080 2080 2081 2082 2085 2085 2088 2089 2092 2095 2096 2098 2098 2099 2100 2102 2104 2106 2107 2110 2111 2113 2114 2116 2117 2117 2118 2119 2120 2120 2121 2121 2123 2125 2125 2127 2130 2132 2133 2133 2134 2137 2141 2143 2144 2146 2147 2150 2152 2153 2156 2157 2158 2159 2159 2161 2163 2165 2167 2169 2170 2172 2173 2173 2175 2178 2181 2183 2185 2186 2186 2186 2188 2188 2191 2192 2192 2193 2196 2197 2200 2202 2204 2205 2208 2209 2211 2213 2216 2217 2218 2220 2221 2223 2225 2226 2227 2227 2228 2228 2229 2230 2232 2233 2234 2235 2237 2238 2241 2243 2244 2247 2250 2252 2254 2256 2258 2261 2261 2263 2264 2265 2267 2270 2271 2272 2273 2273 2274 2274 2276 2279 2279 2279 2279 2279 2284 2286 2288 2289 2291 2292 2294 2296 2296 2298 2300 2301 2303 2305 2306 2308 2309 2310 2312 2315 2316 2317 2318 2321 2321 2321 2321 2321 2322 2322 2325 2326 2326 2326 2326 2326 2328 2329 2331 2333 2334 2336 2338 2340 2342 2344 2345 2347 2348 2349 2351 2353 2353 2353 2354 2361 2363 2367 2370 2378 2428 2613 2682 2893 2921 2923 2935 2938 2940 2941 2943 2945 2946 2946 2945 2945 2945 2945 2945 2947 2947 2947 2946 2946 2946 2946 2946 2945 2940 2939 2930 2909 2873 2808 2694 2596 2486 2308 2271 2256 2244 2227 2212 2198 2186 2182 2172 2165 2159 2153 2144 2135 2128 2119 2110 2105 2098 2090 2081 2074 2068 2063 2059 2056 2052 2047 2043 2038 2032 2024 2018 2012 2009 2006 2002 1997 1994 1991 1987 1983 1978 1975 1973 1971 1969 1967 1966 1964 1962 1961 1959 1957 1956 1956 1954 1951 1947 1944 1941 1939 1937 1936 1934 1932 1932 1930 1927 1926 1924 1923 1922 1921 1921 1920 1920 1920 1918 1915 1914 1914 1914 1914 1913 1913 1913 1913 1913 1914
2370 2380 2380 2403 2423 2432 2527 2527 2527 2485 2438 2438 2435 2414 2406 2399 2399 2399 2399 2399 2384 2375 2344 2344 2344 2358 2369 2378 2380 2380 2378 2343 2286 2240 2240 2240 2251 2277 2298 2317 2317 2317 2315 2314 2314 2315 2316 2317 2322 2322 2322 2315 2313 2313 2313 2315 2315 2315 2311 2303 2292 2279 2276 2272 2268 2268 2272 2272 2284 2284 2284 2267 2235 2212 2212 2212 2255 2282 2294 2317 2318 2360 2418 2546 2766 3026 3257 3262 3262 3267 3276 3331 3331 3335 3335 3344 3348 3350 3356 3357 3359 3362 3370 3373 3373 3375 3377 3377 3377 3365 3365 3365 3374 3374 3374 3375 3374 3374 3371 3362 3362 3362 3362 3371 3373 3375 3379 3384 3385 3385 3386 3393 3393 3393 3391 3389 3386 3384 3380 3369 3369 3369 3371 3373 3374 3374 3374 3374 3373 3371 3357 3355 3355 3355 3362 3368 3368 3368 3367 3365 3365 3365 3371 3373 3373 3373 3353 3349 3349 3349 3350 3350 3350 3342 3342 3335 3331 3323 3323 3323 3318 3294 3269 3247 3247 3247 3313 3313 3313 3303 3299 3288 3288 3270 3251 3238 3238 3230 3226 3218 3200 3162 3140 3126 3074 3046 3011 2967 2948 2923 2886 2832 2832 2832 2839 2886 2886 2886 2873 2853 2843 2828 2807 2797 2790 2790 2788 2788 2772 2771 2765 2760 2760 2758 2753 2753 2736 2730 2729 2728 2728 2722 2722 2722 2712 2697 2690 2690 2690 2694 2699 2709 2709 2709 2686 2653 2618 2598 2579 2467 2364 2359 2359 2359 2359 2359 2344 2249 2170 2109 2076 2061 2054 2054 2054 2054 2055 2057 2058 2058 2059 2060 2061 2061 2062 2063 2065 2067 2069 2070 2072 2073 2075 2076 2077 2078 2079 2080 2080 2082 2083 2086 2087 2088 2090 2092 2095 2096 2098 2098 2099 2100 2102 2104 2107 2108 2111 2112 2114 2115 2116 2117 2117 2119 2119 2119 2120 2120 2121 2123 2125 2125 2128 2130 2132 2133 2133 2134 2137 2141 2144 2145 2147 2148 2150 2152 2154 2157 2159 2159 2160 2160 2162 2164 2165 2168 2170 2170 2172 2174 2175 2177 2178 2181 2183 2185 2186 2186 2186 2188 2189 2192 2192 2192 2193 2196 2199 2201 2204 2206 2207 2209 2210 2211 2214 2216 2218 2219 2220 2222 2224 2225 2226 2227 2227 2228 2229 2230 2231 2233 2234 2235 2236 2238 2241 2242 2244 2245 2248 2250 2253 2255 2257 2261 2263 2264 2264 2265 2266 2269 2272 2273 2274 2274 2275 2275 2275 2277 2279 2281 2282 2282 2282 2285 2287 2289 2290 2292 2295 2296 2298 2298 2300 2301 2302 2304 2305 2307 2308 2309 2311 2312 2316 2317 2318 2319 2321 2321 2321 2322 2322 2322 2323 2326 2327 2327 2328 2328 2328 2328 2330 2332 2334 2335 2338 2340 2340 2342 2344 2345 2347 2349 2351 2352 2353 2353 2355 2359 2361 2363 2367 2369 2380 2435 2613 2755 2911 2923 2930 2935 2938 2939 2941 2943 2945 2946 2946 2945 2945 2945 2945 2945 2947 2947 2947 2946 2946 2946 2946 2946 2945 2936 2928 2922 2901 2854 2771 2676 2584 2433 2307 2271 2256 2243 2225 2210 2198 2185 2176 2171 2164 2155 2146 2141 2135 2127 2118 2109 2102 2096 2089 2081 2074 2068 2063 2059 2056 2052 2047 2043 2038 2032 2026 2020 2014 2010 2007 2003 1998 1994 1991 1987 1983 1979 1975 1973 1971 1969 1967 1966 1964 1962 1961 1958 1957 1956 1956 1954 1951 1947 1944 1941 1939 1938 1936 1934 1932 1932 1930 1929 1928 1926 1925 1924 1923 1922 1921 1921 1920 1919 1917 1916 1916 1914 1914 1914 1914 1914 1914 1914 1914
2311 2334 2334 2342 2423 2432 2527 2527 2527 2481 2405 2405 2405 2408 2409 2409 2409 2409 2409 2402 2384 2371 2341 2341 2341 2357 2359 2363 2363 2363 2349 2306 2260 2240 2240 2240 2251 2277 2298 2310 2311 2311 2310 2308 2308 2308 2316 2317 2321 2321 2321 2315 2312 2312 2312 2315 2315 2315 2311 2303 2292 2279 2276 2272 2268 2268 2272 2272 2266 2266 2266 2246 2205 2182 2182 2182 2239 2261 2286 2317 2318 2360 2418 2546 2766 3152 3223 3233 3242 3242 3267 3332 3341 3344 3344 3344 3349 3352 3357 3358 3359 3362 3370 3373 3375 3377 3377 3377 3377 3377 3377 3377 3378 3383 3383 3384 3383 3383 3379 3367 3365 3365 3365 3367 3371 3372 3375 3382 3382 3385 3391 3397 3397 3397 3392 3390 3386 3384 3380 3369 3369 3369 3371 3373 3374 3374 3374 3374 3373 3371 3360 3355 3355 3355 3362 3368 3368 3368 3368 3366 3366 3366 3371 3377 3377 3377 3369 3369 3368 3368 3366 3366 3366 3369 3369 3369 3366 3356 3354 3350 3349 3349 3349 3339 3332 3332 3332 3336 3350 3353 3355 3355 3353 3336 3313 3313 3313 3318 3318 3318 3292 3268 3267 3260 3260 3242 3216 3213 3208 3205 3190 3152 3115 3107 3083 3066 3062 3039 3038 2966 2931 2923 2915 2910 2878 2794 2794 2794 2797 2797 2797 2790 2779 2777 2777 2763 2738 2731 2731 2731 2731 2727 2727 2726 2720 2703 2693 2693 2693 2694 2699 2709 2709 2709 2700 2653 2618 2598 2559 2447 2360 2359 2359 2359 2359 2359 2334 2248 2154 2102 2065 2054 2054 2054 2054 2055 2056 2057 2058 2059 2060 2061 2062 2062 2063 2064 2066 2068 2069 2070 2072 2073 2074 2076 2078 2078 2079 2080 2081 2082 2084 2086 2087 2089 2090 2092 2095 2096 2097 2098 2099 2101 2102 2105 2107 2108 2111 2112 2114 2116 2116 2117 2118 2119 2119 2120 2120 2120 2121 2123 2125 2126 2128 2131 2133 2134 2135 2136 2139 2142 2144 2146 2148 2150 2151 2153 2155 2157 2159 2161 2161 2162 2162 2165 2166 2168 2170 2171 2173 2174 2176 2177 2179 2181 2183 2185 2187 2187 2187 2188 2190 2193 2193 2193 2193 2198 2200 2202 2206 2206 2208 2210 2211 2213 2214 2216 2218 2219 2221 2222 2224 2225 2226 2227 2227 2228 2229 2230 2232 2234 2235 2235 2237 2240 2241 2243 2245 2247 2248 2251 2254 2255 2258 2261 2263 2264 2264 2266 2268 2270 2273 2274 2275 2275 2275 2276 2276 2277 2280 2283 2283 2283 2285 2286 2289 2291 2293 2294 2296 2297 2299 2300 2301 2303 2304 2304 2306 2307 2308 2309 2311 2313 2316 2319 2320 2322 2322 2323 2324 2324 2324 2324 2324 2326 2329 2330 2330 2330 2330 2330 2332 2333 2335 2337 2340 2341 2341 2343 2345 2346 2347 2350 2353 2354 2354 2356 2356 2361 2363 2363 2367 2369 2388 2477 2614 2785 2923 2924 2930 2931 2935 2937 2940 2943 2945 2946 2946 2945 2945 2947 2947 2947 2947 2947 2947 2942 2940 2940 2937 2937 2937 2928 2921 2913 2893 2838 2748 2655 2566 2374 2287 2269 2250 2238 2217 2206 2196 2185 2175 2171 2162 2152 2145 2139 2134 2127 2117 2109 2102 2096 2089 2081 2074 2068 2063 2059 2056 2049 2045 2041 2036 2032 2026 2020 2016 2011 2008 2005 2000 1997 1992 1987 1983 1979 1975 1974 1972 1969 1967 1966 1964 1962 1961 1958 1957 1956 1956 1954 1950 1947 1944 1942 1940 1938 1936 1935 1933 1932 1931 1929 1929 1928 1927 1925 1923 1923 1922 1922 1921 1920 1918 1917 1916 1916 1916 1915 1915 1915 1914 1914 1914
2307 2307 2311 2334 2348 2432 2527 2527 2527 2473 2400 2400 2400 2400 2408 2409 2409 2409 2409 2402 2384 2331 2331 2331 2340 2354 2354 2354 2352 2345 2312 2288 2260 2249 2249 2249 2270 2284 2286 2286 2286 2284 2284 2284 2284 2293 2302 2306 2311 2315 2315 2315 2312 2312 2312 2313 2314 2314 2314 2311 2295 2281 2276 2272 2268 2268 2272 2272 2249 2249 2249 2231 2196 2168 2168 2168 2239 2251 2273 2317 2340 2397 2492 2625 2806 3152 3207 3210 3237 3237 3245 3341 3344 3344 3349 3350 3350 3354 3359 3360 3362 3362 3370 3374 3375 3377 3377 3379 3380 3381 3384 3387 3387 3387 3387 3389 3389 3389 3389 3380 3367 3367 3367 3367 3368 3368 3368 3368 3371 3385 3391 3397 3397 3397 3393 3393 3392 3385 3382 3372 3371 3371 3371 3373 3374 3375 3375 3375 3375 3371 3360 3354 3354 3354 3362 3364 3368 3368 3368 3368 3368 3368 3370 3377 3377 3377 3376 3375 3373 3372 3372 3372 3374 3374 3374 3373 3367 3359 3359 3359 3362 3370 3370 3370 3373 3372 3370 3370 3366 3362 3362 3358 3358 3353 3331 3319 3319 3319 3324 3324 3331 3331 3330 3330 3330 3329 3317 3317 3316 3316 3306 3284 3263 3263 3250 3250 3235 3235 3235 3202 3201 3201 3159 2922 2882 2858 2852 2852 2852 2852 2852 2836 2806 2787 2779 2765 2755 2748 2748 2748 2748 2748 2748 2742 2729 2706 2693 2693 2693 2694 2699 2709 2709 2709 2700 2655 2618 2598 2559 2432 2357 2357 2357 2359 2359 2359 2334 2237 2154 2101 2060 2054 2054 2054 2054 2055 2056 2057 2058 2059 2060 2061 2062 2063 2063 2065 2067 2068 2070 2072 2072 2074 2075 2076 2078 2079 2079 2081 2081 2082 2084 2086 2087 2089 2091 2092 2094 2096 2097 2099 2100 2101 2103 2105 2107 2109 2111 2113 2114 2116 2117 2118 2118 2119 2119 2120 2120 2120 2121 2122 2125 2127 2130 2131 2134 2134 2136 2138 2141 2143 2145 2147 2149 2151 2153 2155 2156 2159 2160 2161 2162 2162 2163 2165 2167 2169 2170 2171 2173 2175 2176 2178 2179 2181 2183 2185 2187 2188 2188 2189 2191 2193 2193 2194 2195 2200 2202 2204 2207 2209 2209 2210 2212 2214 2216 2217 2219 2220 2221 2223 2224 2225 2226 2227 2228 2228 2229 2230 2232 2234 2236 2236 2239 2241 2242 2244 2246 2247 2249 2251 2254 2256 2258 2261 2263 2264 2265 2266 2269 2271 2273 2274 2275 2275 2276 2277 2277 2278 2280 2284 2284 2284 2287 2288 2291 2291 2294 2296 2296 2298 2299 2301 2303 2304 2305 2305 2307 2308 2309 2310 2311 2313 2316 2319 2321 2322 2323 2324 2325 2325 2325 2326 2326 2326 2332 2332 2333 2333 2333 2333 2333 2335 2336 2339 2340 2341 2342 2344 2345 2347 2348 2352 2353 2355 2356 2356 2358 2363 2364 2364 2367 2374 2388 2519 2657 2788 2923 2931 2931 2931 2932 2937 2940 2943 2943 2943 2943 2943 2944 2945 2947 2947 2947 2947 2947 2936 2935 2935 2935 2935 2935 2928 2917 2907 2888 2837 2727 2629 2540 2346 2284 2254 2246 2237 2215 2204 2193 2182 2173 2164 2160 2152 2145 2138 2132 2125 2117 2109 2102 2096 2089 2081 2073 2068 2063 2059 2055 2049 2043 2038 2035 2032 2026 2020 2016 2011 2008 2005 2001 1997 1993 1988 1983 1979 1975 1974 1972 1970 1967 1966 1964 1962 1960 1958 1956 1956 1956 1953 1950 1947 1944 1942 1941 1940 1937 1935 1933 1932 1931 1929 1929 1928 1927 1926 1925 1923 1923 1922 1921 1921 1920 1919 1917 1917 1917 1917 1916 1915 1915 1914 1914
2307 2307 2311 2334 2348 2367 2429 2432 2432 2432 2400 2400 2400 2400 2408 2408 2408 2408 2303 2274 2274 2274 2301 2303 2329 2345 2352 2352 2352 2330 2312 2288 2274 2274 2274 2274 2279 2286 2286 2286 2286 2278 2278 2278 2284 2290 2292 2293 2294 2303 2303 2304 2305 2305 2305 2309 2314 2314 2314 2311 2295 2288 2288 2281 2277 2277 2277 2249 2245 2245 2245 2218 2188 0 0 2168 2217 2248 2261 2294 2340 2467 2599 2733 2907 3155 3207 3207 3207 3207 3210 3289 3341 3344 3348 3350 3350 3352 3359 3362 3362 3367 3372 3376 3376 3377 3377 3381 3386 3386 3386 3387 3387 3389 3389 3390 3393 3393 3393 3393 3381 3374 3374 3368 3368 3368 3368 3368 3368 3375 3391 3395 3395 3395 3394 3393 3392 3388 3385 3378 3375 3375 3375 3378 3378 3378 3378 3378 3378 3373 3360 3354 3354 3354 3362 3367 3367 3368 3368 3368 3368 3368 3370 3377 3378 3378 3378 3378 3378 3381 3382 3385 3385 3385 3382 3375 3368 3363 3363 3363 3366 3371 3371 3373 3374 3374 3373 3373 3370 3367 3365 3365 3367 3371 3371 3371 3371 3361 3361 3361 3361 3361 3361 3361 3361 3352 3351 3346 3326 3326 3326 3327 3327 3327 3313 3296 3287 3287 3275 3261 3243 3207 3166 3083 3023 3005 2995 2985 2983 2956 2930 2915 2889 2877 2865 2864 2837 2829 2826 2825 2800 2799 2797 2798 2797 2785 2760 2710 2710 2710 2718 2718 2718 2718 2700 2699 2672 2630 2559 2432 2357 2357 2357 2359 2359 2359 2319 2228 2152 2082 2060 2054 2054 2054 2054 2055 2056 2057 2058 2059 2060 2062 2063 2063 2064 2066 2068 2069 2070 2072 2073 2074 2075 2076 2078 2079 2080 2081 2081 2082 2085 2087 2088 2089 2091 2092 2094 2096 2097 2099 2100 2102 2104 2106 2107 2109 2111 2113 2116 2116 2117 2118 2119 2120 2120 2120 2120 2120 2121 2122 2125 2127 2130 2132 2135 2135 2136 2138 2141 2143 2146 2148 2150 2152 2154 2156 2157 2159 2161 2162 2163 2164 2165 2167 2168 2169 2171 2172 2173 2175 2177 2178 2180 2181 2183 2186 2188 2188 2190 2191 2192 2193 2194 2196 2197 2201 2204 2206 2208 2209 2211 2212 2214 2215 2217 2218 2219 2220 2222 2223 2224 2226 2226 2227 2228 2229 2229 2231 2233 2235 2236 2238 2239 2242 2243 2244 2246 2248 2250 2252 2255 2257 2259 2261 2264 2265 2265 2267 2269 2271 2273 2275 2275 2276 2277 2277 2277 2280 2282 2285 2287 2288 2288 2289 2292 2295 2295 2297 2298 2299 2301 2303 2303 2305 2306 2306 2308 2309 2311 2311 2312 2315 2317 2319 2321 2322 2323 2324 2325 2326 2326 2327 2327 2329 2332 2333 2333 2334 2335 2335 2335 2337 2337 2339 2341 2342 2344 2345 2345 2348 2348 2352 2355 2356 2356 2357 2361 2363 2364 2365 2367 2378 2389 2539 2686 2798 2931 2932 2932 2936 2937 2937 2940 2942 2943 2943 2943 2943 2944 2945 2947 2947 2947 2947 2942 2933 2930 2930 2930 2928 2928 2928 2917 2904 2880 2835 2713 2603 2518 2342 2282 2253 2244 2233 2215 2204 2190 2176 2169 2164 2159 2152 2145 2136 2129 2123 2117 2109 2102 2095 2089 2081 2073 2068 2063 2058 2053 2048 2042 2038 2033 2028 2025 2020 2016 2011 2008 2005 2001 1997 1993 1989 1984 1981 1977 1975 1972 1970 1967 1966 1964 1962 1960 1958 1955 1953 1953 1952 1949 1947 1944 1942 1941 1940 1938 1936 1934 1932 1931 1930 1929 1929 1928 1926 1925 1925 1924 1922 1922 1921 1921 1920 1920 1919 1918 1918 1917 1915 1915 1915 1915
2307 2307 2314 2338 2348 2354 2354 2367 2374 2371 2372 2378 2378 2372 2372 2333 2332 2264 2264 2256 2256 2267 2287 2297 2301 2329 2349 2349 2349 2329 2312 2292 2292 2292 2292 2292 2293 2292 2287 2286 2286 2278 2278 2278 2284 2284 2284 2281 2281 2281 2301 2302 2305 2305 2305 2309 2310 2311 2311 2310 2296 2291 2291 2284 2277 2277 2234 2211 2194 2193 2190 2176 2172 2168 0 0 2217 2248 2282 2294 2340 2467 2644 2798 3047 3207 3210 3210 3207 3184 3184 3184 3341 3346 3348 3350 3350 3350 3359 3360 3361 3367 3372 3376 3377 3378 3383 3385 3388 3388 3388 3388 3389 3389 3390 3394 3397 3397 3397 3395 3389 3376 3374 3374 3374 3372 3368 3368 3368 3372 3373 3377 3385 3386 3392 3392 3392 3388 3385 3379 3378 3378 3378 3379 3379 3379 3379 3378 3378 3373 3365 3358 3358 3358 3362 3367 3367 3369 3369 3369 3369 3369 3370 3377 3380 3381 3384 3384 3385 3388 3392 3392 3392 3385 3382 3377 3370 3366 3366 3366 3373 3375 3375 3377 3377 3377 3377 3377 3371 3367 3367 3367 3373 3377 3377 3377 3374 3367 3363 3363 3363 3363 3368 3368 3368 3359 3357 3354 3354 3354 3363 3363 3363 3351 3326 3312 3297 3297 3297 3346 3346 3346 3329 3270 3230 3220 3213 3212 3212 3212 3212 3194 3169 3112 3063 3036 2991 2948 2939 2930 2930 2888 2888 2920 2920 2869 2869 2822 2805 2794 2781 2769 2757 2756 2753 2741 2717 2686 2586 2432 2357 2357 2357 2359 2359 2359 2286 2223 2140 2081 2060 2058 2056 2056 2057 2058 2058 2059 2059 2060 2060 2062 2063 2065 2066 2067 2069 2070 2072 2073 2073 2075 2075 2076 2078 2079 2080 2082 2082 2084 2085 2087 2088 2089 2091 2092 2094 2096 2097 2099 2101 2103 2105 2107 2108 2110 2113 2114 2116 2117 2118 2118 2119 2120 2120 2120 2120 2120 2121 2121 2123 2127 2130 2133 2135 2135 2136 2138 2142 2144 2147 2148 2151 2153 2155 2157 2159 2161 2162 2162 2163 2165 2166 2167 2169 2170 2172 2173 2174 2176 2178 2179 2181 2182 2184 2186 2188 2189 2190 2192 2193 2193 2194 2196 2198 2201 2204 2206 2208 2211 2212 2214 2215 2216 2218 2218 2220 2221 2222 2223 2224 2226 2228 2228 2230 2231 2232 2232 2234 2235 2237 2239 2239 2243 2243 2245 2247 2249 2251 2254 2256 2258 2260 2261 2264 2265 2267 2269 2270 2272 2274 2275 2275 2277 2278 2278 2280 2282 2283 2285 2288 2289 2289 2290 2294 2296 2297 2297 2299 2300 2302 2304 2305 2306 2307 2308 2309 2311 2311 2312 2314 2317 2318 2319 2321 2323 2324 2325 2325 2326 2327 2328 2328 2330 2332 2333 2334 2334 2336 2336 2336 2337 2338 2339 2342 2343 2345 2346 2346 2348 2350 2352 2355 2357 2358 2359 2361 2365 2367 2368 2371 2380 2403 2542 2696 2825 2931 2932 2938 2938 2939 2942 2942 2942 2942 2942 2942 2942 2944 2945 2946 2947 2947 2947 2942 2933 2930 2930 2930 2927 2926 2926 2914 2895 2866 2812 2700 2591 2498 2331 2278 2252 2242 2232 2215 2203 2189 2174 2169 2163 2157 2152 2144 2135 2126 2119 2114 2109 2102 2094 2086 2079 2073 2068 2062 2057 2051 2046 2041 2037 2032 2027 2022 2018 2015 2011 2008 2005 2001 1997 1993 1989 1986 1983 1981 1979 1975 1971 1969 1967 1964 1962 1960 1957 1955 1953 1952 1951 1949 1947 1944 1942 1941 1940 1939 1936 1934 1933 1932 1931 1930 1930 1929 1927 1926 1926 1925 1924 1923 1922 1921 1920 1920 1920 1920 1918 1917 1915 1915 1915 1915
2337 2337 2374 2374 2374 2367 2367 2354 2353 2353 2353 2354 2371 2371 2371 2333 2328 2264 2264 2256 2256 2267 2287 2297 2303 2329 2349 2349 2349 2326 2316 2315 2314 2311 2305 2299 2296 2295 2293 2286 2286 2286 2286 2286 2287 2287 2287 2268 2268 2268 2272 2290 2299 2301 2305 2308 2310 2310 2310 2308 2296 2294 2294 2285 2285 2285 2245 2211 2190 2170 2168 2144 2143 2143 2168 2172 2188 2192 2195 2251 2340 2467 2644 2873 3051 3259 3259 3259 3219 3184 3184 3184 3342 3346 3346 3346 3346 3346 3346 3358 3360 3367 3373 3377 3380 3383 3383 3387 3388 3389 3389 3388 3389 3389 3390 3394 3397 3397 3397 3395 3389 3383 3380 3378 3374 3372 3369 3369 3369 3372 3373 3373 3384 3385 3387 3388 3388 3388 3385 3379 3379 3379 3379 3380 3380 3380 3379 3378 3378 3373 3369 3363 3363 3363 3365 3367 3367 3371 3372 3372 3374 3374 3374 3378 3381 3383 3384 3388 3390 3395 3395 3395 3392 3386 3383 3379 3376 3372 3372 3372 3374 3375 3375 3378 3377 3377 3377 3377 3373 3371 3371 3373 3377 3381 3381 3381 3377 3373 3368 3367 3367 3367 3371 3371 3371 3365 3364 3362 3362 3362 3367 3369 3370 3372 3370 3369 3323 3323 3323 3354 3354 3354 3352 3336 3326 3326 3316 3315 3315 3315 3315 3310 3310 3286 3256 3252 3252 3236 3191 3124 3077 3077 3070 3069 3022 3017 3012 3001 2975 2946 2931 2927 2918 2904 2883 2835 2784 2746 2640 2445 2361 2361 2361 2360 2360 2360 2286 2210 2137 2079 2060 2060 2058 2058 2058 2059 2059 2059 2060 2060 2062 2063 2065 2066 2068 2069 2070 2072 2073 2075 2075 2076 2076 2077 2078 2079 2081 2083 2084 2084 2086 2087 2088 2089 2092 2093 2096 2097 2097 2100 2102 2103 2106 2108 2109 2111 2113 2115 2116 2118 2119 2119 2119 2120 2120 2120 2120 2120 2121 2121 2123 2126 2130 2133 2135 2135 2136 2140 2142 2145 2148 2150 2151 2153 2156 2158 2160 2161 2162 2163 2164 2165 2166 2168 2169 2171 2173 2175 2175 2177 2179 2180 2182 2183 2185 2186 2188 2189 2191 2192 2193 2193 2194 2197 2199 2201 2204 2206 2208 2211 2212 2214 2215 2217 2218 2219 2221 2221 2222 2224 2225 2226 2228 2229 2230 2232 2232 2234 2235 2236 2238 2239 2240 2244 2245 2248 2249 2251 2253 2255 2257 2259 2260 2262 2264 2265 2268 2270 2272 2274 2275 2276 2276 2278 2279 2280 2280 2283 2285 2286 2288 2289 2289 2291 2294 2296 2297 2298 2300 2300 2302 2304 2305 2307 2307 2309 2310 2311 2312 2314 2315 2317 2319 2319 2321 2323 2324 2325 2326 2327 2327 2329 2330 2330 2332 2333 2335 2336 2336 2336 2337 2337 2338 2340 2342 2345 2346 2348 2348 2349 2351 2353 2355 2357 2359 2359 2361 2368 2373 2374 2376 2380 2409 2553 2696 2879 2931 2938 2939 2940 2945 2945 2945 2942 2942 2942 2943 2943 2945 2945 2945 2945 2942 2941 2938 2933 2930 2927 2927 2927 2925 2925 2912 2891 2853 2791 2678 2572 2467 2311 2263 2250 2241 2229 2215 2203 2185 2173 2168 2163 2155 2152 2142 2133 2124 2116 2112 2108 2101 2094 2086 2079 2073 2066 2061 2056 2051 2045 2040 2036 2031 2027 2022 2018 2015 2011 2008 2004 2000 1997 1993 1990 1987 1984 1982 1980 1977 1974 1970 1967 1965 1962 1960 1957 1955 1952 1952 1950 1948 1946 1944 1942 1941 1940 1939 1937 1935 1934 1933 1932 1931 1930 1930 1929 1927 1927 1926 1925 1924 1922 1921 1921 1921 1920 1920 1918 1917 1916 1915 1915 1916
2337 2337 2374 2374 2374 2367 2364 2354 2353 2353 2353 2354 2354 2354 2351 2328 2327 2264 2264 2263 2263 2269 2287 2297 2308 2329 2349 2349 2349 2317 2317 2315 2315 2315 2305 2300 2299 2296 2295 2293 2289 2289 2289 2296 2296 2296 2285 2268 2253 2253 2253 2277 2296 2300 2305 2308 2310 2310 2310 2307 2296 2294 2294 2288 2288 2288 2255 2211 2190 2170 2140 2132 2132 0 2151 2172 2188 2192 2195 2251 2340 2467 2644 2873 3051 3259 3259 3259 3219 3184 3184 3184 3332 3338 3346 3346 3346 3346 3346 3360 3361 3369 3375 3381 3384 3387 3387 3387 3388 3389 3389 3388 3389 3389 3390 3394 3394 3394 3394 3393 3392 3390 3380 3378 3374 3372 3372 3372 3371 3372 3372 3373 3377 3379 3380 3380 3380 3380 3380 3380 3380 3380 3380 3381 3381 3381 3378 3377 3377 3374 3373 3373 3373 3378 3381 3382 3382 3384 3384 3384 3382 3382 3381 3381 3381 3384 3385 3389 3393 3399 3399 3399 3396 3388 3384 3380 3380 3380 3380 3380 3381 3381 3381 3378 3378 3377 3377 3377 3377 3374 3374 3374 3378 3383 3383 3383 3379 3377 3374 3367 3367 3367 3371 3371 3371 3365 3364 3364 3364 3364 3368 3373 3373 3374 3374 3377 3377 3377 3370 3366 3361 3361 3360 3356 3353 3353 3353 3353 3354 3355 3355 3355 3353 3353 3337 3326 3324 3319 3316 3264 3177 3142 3142 3142 3147 3148 3148 3148 3145 3143 3130 3111 3088 3067 3046 2969 2860 2777 2646 2519 2393 2385 2378 2377 2368 2368 2286 2210 2129 2076 2059 2059 2058 2058 2058 2059 2059 2059 2060 2061 2063 2064 2066 2067 2068 2069 2071 2073 2074 2075 2076 2077 2077 2078 2079 2080 2082 2083 2084 2086 2086 2087 2089 2090 2092 2094 2097 2098 2099 2101 2102 2105 2107 2109 2110 2112 2114 2116 2118 2120 2120 2120 2120 2120 2122 2122 2122 2121 2121 2121 2123 2126 2131 2133 2135 2136 2137 2140 2143 2146 2149 2151 2152 2155 2156 2159 2161 2162 2163 2163 2164 2166 2167 2168 2169 2171 2173 2176 2177 2178 2180 2181 2183 2184 2185 2186 2188 2189 2191 2192 2193 2193 2195 2198 2200 2203 2205 2207 2209 2211 2212 2214 2215 2217 2218 2220 2221 2221 2222 2224 2225 2227 2228 2230 2231 2232 2233 2235 2237 2237 2239 2240 2241 2245 2247 2248 2250 2253 2254 2257 2259 2260 2262 2262 2265 2267 2269 2271 2273 2275 2276 2276 2278 2279 2280 2281 2282 2283 2286 2288 2289 2290 2291 2292 2295 2297 2298 2299 2300 2301 2303 2305 2306 2307 2308 2310 2311 2312 2314 2314 2316 2317 2319 2319 2320 2323 2324 2325 2326 2327 2328 2329 2331 2331 2332 2333 2336 2336 2336 2336 2337 2338 2339 2341 2344 2347 2348 2349 2349 2351 2353 2354 2357 2357 2359 2359 2361 2368 2373 2374 2376 2380 2412 2590 2700 2908 2943 2944 2945 2945 2946 2946 2946 2944 2943 2943 2943 2943 2945 2945 2945 2945 2942 2941 2938 2934 2931 2927 2927 2927 2926 2924 2910 2890 2853 2778 2659 2556 2413 2278 2254 2250 2239 2226 2215 2203 2183 2173 2168 2163 2155 2143 2138 2132 2124 2116 2112 2107 2101 2094 2086 2079 2073 2066 2061 2056 2051 2045 2039 2034 2030 2026 2021 2018 2014 2011 2008 2004 2000 1997 1994 1990 1987 1984 1983 1980 1977 1974 1971 1968 1966 1962 1960 1957 1954 1952 1951 1950 1948 1946 1944 1942 1941 1939 1939 1937 1936 1935 1934 1933 1933 1932 1932 1931 1930 1928 1928 1927 1926 1924 1922 1922 1921 1921 1920 1919 1917 1917 1917 1917 1917
2337 2337 2374 2374 2374 2374 2364 2364 2356 2354 2354 2340 2336 2336 2331 2326 2323 2318 2318 2318 2315 2315 2316 2316 2316 2336 2336 2336 2327 2317 2317 2317 2317 2317 2305 2303 2303 2299 2298 2296 2294 2294 2294 2296 2296 2296 2283 2257 2250 2250 2250 2277 2295 2298 2298 2303 2305 2305 2305 2305 2301 2297 2297 2295 2295 2295 2295 2292 2291 2170 2140 2132 0 0 0 2179 2188 2192 2195 2202 2286 2397 2644 2873 3051 3244 3244 3244 3219 3187 3187 3187 3320 3332 3346 3346 3346 3346 3346 3360 3366 3372 3379 3383 3387 3387 3387 3387 3387 3387 3387 3387 3389 3385 3385 3385 3387 3387 3390 3390 3390 3390 3380 3378 3375 3372 3372 3372 3371 3372 3372 3373 3374 3375 3375 3376 3376 3377 3378 3379 3380 3381 3382 3382 3381 3381 3378 3377 3377 3377 3378 3379 3383 3384 3386 3386 3386 3386 3386 3386 3386 3386 3388 3388 3388 3388 3388 3390 3397 3400 3400 3400 3397 3390 3384 3381 3381 3381 3382 3382 3382 3382 3381 3381 3380 3380 3380 3380 3381 3381 3381 3382 3383 3383 3383 3383 3380 3379 3376 3374 3374 3374 3376 3376 3376 3373 3367 3367 3367 3372 3374 3374 3375 3375 3382 3386 3386 3386 3383 3368 3367 3366 3363 3360 3360 3360 3362 3369 3369 3369 3368 3360 3356 3355 3355 3341 3338 3334 3327 3284 3260 3219 3210 3210 3204 3204 3204 3204 3204 3204 3204 3202 3191 3188 3187 3169 3051 2890 2664 2528 2423 2423 2410 2396 2396 2396 2291 2210 2124 2071 2059 2059 2058 2058 2058 2059 2059 2059 2061 2062 2064 2065 2066 2068 2069 2070 2071 2074 2074 2076 2076 2078 2078 2079 2081 2081 2082 2084 2084 2086 2088 2089 2089 2090 2093 2095 2098 2098 2099 2101 2103 2106 2107 2110 2111 2114 2116 2117 2118 2120 2120 2120 2120 2121 2122 2122 2122 2122 2123 2123 2123 2126 2131 2133 2135 2136 2137 2141 2143 2147 2149 2151 2153 2155 2157 2160 2162 2163 2164 2164 2165 2167 2167 2169 2170 2171 2173 2176 2178 2179 2180 2181 2183 2185 2185 2186 2188 2189 2191 2193 2193 2194 2195 2198 2201 2203 2205 2207 2209 2211 2212 2214 2215 2218 2219 2221 2221 2222 2223 2224 2226 2227 2229 2230 2232 2232 2234 2236 2237 2238 2240 2241 2243 2246 2248 2249 2252 2253 2255 2257 2259 2261 2262 2263 2265 2267 2269 2271 2274 2275 2277 2278 2280 2281 2281 2283 2284 2285 2287 2289 2291 2292 2293 2295 2297 2298 2299 2300 2301 2302 2303 2305 2306 2307 2309 2310 2311 2314 2314 2315 2316 2319 2320 2320 2320 2323 2324 2326 2326 2327 2329 2331 2331 2331 2333 2335 2336 2337 2337 2338 2338 2339 2341 2343 2346 2348 2348 2350 2350 2351 2353 2355 2358 2359 2359 2360 2361 2369 2374 2377 2380 2382 2416 2635 2700 2917 2943 2944 2945 2945 2949 2949 2949 2946 2945 2945 2945 2946 2947 2947 2947 2945 2942 2941 2938 2934 2932 2929 2928 2928 2927 2924 2910 2890 2851 2763 2639 2541 2371 2278 2252 2243 2232 2218 2207 2199 2181 2173 2168 2162 2153 2143 2137 2131 2124 2116 2112 2107 2101 2094 2088 2080 2073 2066 2061 2056 2051 2045 2039 2034 2030 2025 2021 2018 2014 2011 2008 2004 1999 1997 1994 1991 1988 1985 1983 1980 1978 1975 1972 1969 1966 1962 1959 1957 1953 1950 1948 1948 1947 1946 1943 1942 1941 1939 1938 1937 1936 1935 1935 1934 1933 1933 1933 1932 1932 1931 1928 1928 1926 1925 1924 1922 1921 1921 1920 1920 1920 1919 1919 1919 1919
2337 2337 2369 2370 2371 2371 2374 2374 2374 2371 2356 2345 2342 2324 2324 2324 2328 2358 2358 2381 2381 2355 2335 2335 2335 2351 2351 2351 2319 2317 2317 2317 2317 2317 2305 2303 2303 2300 2300 2297 2296 2296 2296 2296 2295 2294 2275 2253 2246 2246 2246 2276 2278 2288 2288 2290 2290 2290 2298 2298 2301 2302 2302 2303 2307 2317 2350 2350 2350 2255 2140 2132 2132 2140 2156 2156 2156 2156 2156 2167 2283 2394 2544 2769 2983 3164 3168 3192 3192 3192 3192 3192 3297 3335 3346 3352 3354 3354 3356 3362 3366 3370 3379 3386 3387 3387 3387 3386 3386 3386 3386 3386 3385 3385 3385 3381 3381 3381 3385 3390 3390 3390 3382 3378 3375 3372 3372 3372 3371 3371 3371 3371 3371 3372 3374 3375 3376 3377 3379 3379 3381 3382 3384 3384 3384 3381 3378 3378 3378 3381 3382 3385 3390 3390 3390 3388 3388 3386 3386 3386 3386 3386 3389 3389 3389 3394 3394 3394 3397 3400 3400 3400 3396 3390 3388 3385 3383 3383 3383 3383 3383 3382 3382 3382 3382 3383 3383 3383 3383 3386 3386 3386 3385 3385 3384 3384 3383 3382 3378 3378 3378 3381 3381 3381 3381 3379 3373 3373 3373 3376 3380 3381 3381 3382 3382 3386 3387 3387 3386 3376 3367 3366 3363 3363 3363 3363 3367 3375 3375 3375 3375 3367 3361 3360 3360 3354 3345 3343 3343 3307 3287 3251 3242 3242 3237 3235 3230 3230 3227 3227 3227 3223 3223 3223 3204 3180 3126 2976 2725 2546 2423 2423 2423 2430 2430 2430 2318 2217 2124 2071 2058 2057 2057 2057 2058 2058 2060 2060 2061 2063 2065 2066 2067 2069 2070 2071 2073 2074 2076 2077 2078 2078 2079 2080 2082 2084 2084 2084 2085 2086 2088 2089 2089 2091 2094 2095 2098 2099 2100 2101 2103 2106 2108 2110 2113 2115 2116 2117 2118 2120 2120 2121 2122 2122 2122 2123 2123 2124 2124 2125 2125 2128 2131 2134 2135 2137 2140 2142 2144 2147 2149 2152 2154 2156 2158 2160 2163 2164 2165 2165 2166 2167 2168 2169 2170 2171 2173 2176 2178 2179 2181 2181 2184 2185 2186 2187 2189 2190 2191 2193 2193 2194 2196 2199 2201 2203 2205 2207 2209 2212 2213 2215 2217 2218 2220 2221 2221 2222 2224 2226 2229 2229 2229 2231 2232 2232 2234 2236 2237 2239 2240 2241 2244 2247 2249 2251 2253 2254 2255 2257 2260 2261 2262 2263 2265 2268 2270 2273 2274 2276 2278 2280 2281 2282 2284 2284 2285 2287 2289 2290 2292 2293 2295 2297 2298 2299 2300 2301 2301 2302 2304 2305 2306 2308 2309 2310 2312 2314 2314 2315 2317 2319 2320 2320 2320 2323 2325 2326 2326 2328 2329 2331 2332 2332 2333 2335 2336 2337 2338 2339 2340 2342 2342 2344 2346 2349 2349 2350 2350 2352 2354 2357 2358 2359 2360 2360 2361 2369 2374 2377 2380 2382 2419 2652 2714 2926 2943 2944 2945 2945 2949 2949 2949 2947 2947 2947 2949 2949 2949 2949 2949 2947 2944 2941 2938 2935 2934 2934 2931 2931 2930 2924 2910 2889 2839 2740 2631 2524 2371 2278 2252 2243 2230 2214 2204 2194 2181 2174 2168 2162 2151 2142 2137 2131 2126 2120 2113 2107 2101 2096 2089 2082 2074 2066 2060 2056 2051 2045 2039 2034 2029 2025 2021 2018 2014 2011 2008 2004 1999 1997 1994 1992 1989 1986 1983 1981 1978 1975 1972 1969 1966 1963 1959 1957 1953 1949 1948 1946 1945 1944 1943 1940 1939 1939 1938 1937 1936 1936 1935 1934 1934 1934 1933 1933 1932 1931 1930 1928 1927 1925 1924 1922 1922 1921 1921 1921 1921 1921 1921 1920 1920
2337 2337 2369 2371 2371 2371 2374 2375 2374 2374 2356 2345 2329 2301 2301 2301 2328 2358 2358 2381 2381 2355 2347 2347 2347 2344 2344 2344 2305 2305 2305 2310 2310 2310 2305 2303 2303 2300 2300 2299 2297 2297 2296 2296 2296 2288 2275 2253 2246 2246 2246 2266 2269 2278 2280 2280 2281 2290 2298 2298 2298 2301 2310 2317 2324 2347 2382 2382 2382 2285 2167 2158 2158 2158 2158 2158 2130 2130 2130 2165 2253 2339 2472 2671 2888 3073 3075 3211 3211 3211 3211 3211 3297 3335 3351 3353 3355 3355 3362 3367 3370 3372 3379 3385 3385 3385 3375 3375 3375 3385 3385 3385 3384 3381 3380 3380 3380 3381 3385 3385 3385 3384 3382 3378 3375 3374 3369 3368 3367 3367 3367 3370 3371 3372 3374 3375 3376 3377 3379 3379 3381 3383 3384 3384 3384 3381 3381 3381 3384 3389 3390 3393 3393 3393 3392 3390 3390 3389 3383 3383 3383 3387 3389 3389 3390 3394 3394 3394 3397 3398 3398 3398 3396 3394 3389 3385 3384 3384 3384 3384 3383 3382 3382 3382 3382 3383 3385 3385 3386 3386 3386 3386 3385 3385 3385 3386 3386 3386 3386 3384 3384 3384 3386 3386 3386 3379 3377 3377 3377 3378 3381 3382 3382 3382 3384 3387 3387 3387 3387 3385 3378 3372 3372 3372 3372 3374 3380 3380 3380 3379 3375 3367 3364 3362 3360 3358 3348 3344 3343 3334 3306 3277 3270 3260 3260 3258 3258 3258 3242 3237 3237 3230 3228 3228 3215 3204 3166 3043 2820 2576 2426 2426 2426 2459 2459 2459 2354 2233 2123 2070 2056 2056 2056 2056 2057 2058 2060 2061 2063 2064 2066 2067 2068 2069 2071 2072 2074 2076 2076 2078 2078 2080 2080 2082 2084 2084 2084 2084 2085 2086 2088 2090 2090 2093 2094 2096 2099 2100 2102 2103 2105 2108 2109 2111 2113 2116 2116 2117 2119 2119 2120 2121 2122 2123 2124 2124 2125 2126 2126 2127 2128 2130 2132 2134 2137 2138 2142 2142 2145 2148 2150 2153 2155 2156 2159 2161 2163 2165 2166 2166 2166 2167 2169 2169 2170 2172 2174 2176 2178 2179 2181 2182 2184 2186 2186 2188 2189 2190 2192 2193 2194 2195 2197 2200 2201 2203 2205 2207 2209 2212 2213 2215 2218 2219 2220 2221 2222 2223 2226 2228 2229 2231 2232 2232 2232 2233 2235 2236 2238 2240 2241 2242 2245 2248 2250 2251 2253 2254 2256 2257 2260 2261 2262 2264 2265 2268 2270 2273 2274 2276 2278 2280 2282 2283 2284 2285 2287 2288 2290 2291 2293 2294 2296 2298 2298 2299 2300 2301 2303 2304 2305 2306 2307 2308 2309 2310 2312 2314 2315 2315 2317 2319 2320 2320 2321 2324 2326 2326 2327 2328 2329 2331 2332 2332 2334 2336 2337 2339 2339 2341 2342 2343 2345 2346 2347 2349 2349 2350 2352 2352 2355 2357 2358 2359 2360 2361 2363 2369 2373 2377 2382 2382 2427 2654 2783 2934 2944 2945 2945 2945 2949 2949 2949 2948 2948 2948 2952 2952 2952 2950 2949 2947 2945 2942 2942 2940 2938 2935 2933 2933 2930 2924 2910 2887 2832 2740 2629 2515 2342 2278 2252 2243 2229 2214 2204 2194 2181 2175 2169 2163 2151 2142 2137 2132 2127 2121 2114 2108 2102 2096 2089 2082 2074 2066 2060 2056 2051 2045 2039 2034 2029 2025 2021 2018 2014 2011 2007 2004 1999 1997 1995 1993 1991 1987 1985 1981 1978 1976 1972 1970 1966 1963 1960 1957 1953 1949 1947 1945 1944 1943 1942 1940 1939 1939 1938 1937 1937 1937 1936 1935 1935 1934 1934 1934 1933 1932 1930 1929 1928 1926 1925 1924 1922 1922 1922 1922 1922 1922 1922 1922 1922
2345 2345 2361 2364 2371 2373 2374 2374 2374 2374 2356 2340 2328 2289 2289 2289 2322 2367 2367 2367 2355 2346 2343 2343 2346 2343 2343 2325 2305 2305 2305 2308 2308 2308 2307 2297 2297 2297 2297 2299 2299 2299 2296 2296 2289 2281 2275 2253 2246 2246 2246 2258 2262 2266 2269 2280 2281 2290 2296 2298 2298 2298 2310 2333 2357 2364 2382 2382 2382 2285 2199 2179 2179 2179 2179 2179 2130 2130 2130 2155 2234 2316 2423 2620 2818 2821 3074 3220 3220 3220 3257 3287 3297 3335 3355 3357 3358 3358 3365 3370 3370 3372 3379 3380 3380 3380 3375 3375 3375 3383 3383 3383 3378 3377 3377 3377 3379 3381 3385 3385 3385 3384 3382 3381 3380 3374 3369 3363 3363 3363 3364 3368 3371 3372 3374 3375 3377 3378 3379 3380 3382 3384 3384 3384 3384 3383 3383 3383 3387 3390 3390 3393 3394 3394 3394 3391 3390 3389 3383 3383 3383 3387 3391 3391 3391 3394 3394 3394 3396 3397 3397 3397 3397 3394 3390 3386 3385 3385 3385 3384 3382 3381 3381 3381 3382 3383 3385 3386 3386 3386 3386 3386 3385 3385 3385 3386 3386 3386 3386 3386 3386 3387 3387 3387 3386 3379 3377 3377 3377 3379 3381 3382 3382 3383 3383 3383 3384 3386 3387 3387 3387 3384 3383 3383 3383 3386 3386 3386 3384 3379 3375 3368 3367 3367 3363 3360 3350 3349 3349 3340 3310 3288 3278 3264 3264 3260 3260 3259 3256 3250 3242 3240 3239 3233 3220 3204 3167 3087 2853 2543 2449 2449 2449 2482 2482 2482 2390 2243 2123 2071 2056 2056 2056 2056 2057 2058 2060 2062 2064 2065 2067 2068 2069 2070 2072 2073 2075 2076 2078 2078 2079 2080 2081 2082 2084 2085 2085 2085 2087 2087 2090 2091 2092 2093 2094 2096 2099 2101 2103 2105 2107 2108 2110 2112 2113 2116 2117 2118 2119 2119 2120 2121 2123 2123 2125 2126 2126 2127 2127 2128 2130 2132 2134 2136 2139 2139 2143 2144 2146 2149 2151 2153 2155 2158 2159 2161 2163 2165 2167 2167 2168 2169 2170 2170 2171 2172 2175 2176 2178 2179 2181 2182 2184 2186 2187 2189 2189 2191 2192 2194 2194 2196 2198 2200 2201 2203 2205 2207 2209 2212 2213 2216 2218 2219 2220 2222 2222 2224 2226 2229 2231 2231 2232 2232 2233 2235 2236 2237 2239 2240 2241 2242 2246 2249 2250 2252 2253 2254 2256 2257 2259 2261 2262 2264 2265 2268 2270 2273 2274 2276 2278 2280 2282 2284 2285 2286 2288 2289 2291 2293 2293 2295 2297 2298 2299 2299 2301 2302 2303 2304 2305 2306 2307 2308 2309 2311 2313 2314 2315 2316 2319 2319 2320 2321 2323 2326 2327 2327 2328 2328 2329 2331 2334 2334 2334 2336 2338 2340 2340 2343 2343 2345 2346 2347 2348 2350 2350 2351 2352 2354 2355 2357 2359 2360 2360 2362 2364 2368 2373 2377 2384 2396 2456 2659 2811 2939 2944 2945 2945 2945 2949 2949 2949 2949 2949 2949 2952 2952 2952 2950 2949 2947 2945 2942 2942 2942 2940 2940 2938 2935 2930 2923 2907 2886 2805 2691 2567 2479 2338 2278 2256 2243 2229 2214 2204 2194 2183 2178 2172 2162 2151 2143 2137 2132 2127 2121 2114 2109 2102 2096 2089 2082 2075 2066 2061 2056 2052 2045 2039 2034 2029 2026 2021 2018 2014 2011 2007 2004 2000 1998 1997 1994 1991 1988 1985 1981 1978 1976 1973 1970 1966 1963 1960 1957 1953 1949 1947 1944 1943 1942 1942 1940 1939 1938 1938 1938 1938 1937 1936 1935 1935 1935 1934 1934 1933 1933 1931 1930 1929 1927 1926 1925 1923 1922 1922 1922 1922 1923 1923 1924 1924
2363 2365 2363 2365 2365 2373 2373 2374 2374 2373 2356 2340 2328 2289 2289 2289 2322 2358 2358 2358 2332 2331 2331 2332 2341 2341 2341 2323 2305 2305 2305 2308 2308 2308 2307 2297 2290 2290 2290 2292 2297 2297 2297 2297 2289 2281 2270 2270 2267 2266 2260 2260 2262 2266 2268 2280 2289 2295 2295 2295 2297 2298 2310 2333 2357 2364 2382 2382 2382 2285 2230 2230 2229 2223 2223 2189 2130 2130 2130 2155 2233 2316 2423 2605 2806 2810 3058 3220 3220 3220 3263 3316 3316 3351 3358 3358 3359 3362 3367 3372 3372 3373 3378 3380 3380 3380 3375 3375 3375 3383 3383 3383 3378 3376 3376 3376 3381 3386 3390 3390 3390 3384 3384 3383 3381 3378 3369 3363 3362 3362 3362 3366 3372 3374 3376 3379 3380 3382 3386 3389 3389 3389 3389 3388 3388 3386 3386 3386 3388 3391 3391 3393 3394 3394 3394 3393 3391 3389 3383 3383 3383 3387 3390 3390 3390 3390 3390 3394 3396 3397 3397 3397 3397 3395 3394 3391 3387 3386 3386 3385 3380 3377 3377 3377 3381 3381 3386 3387 3387 3387 3386 3386 3384 3384 3384 3386 3386 3386 3386 3387 3388 3389 3389 3389 3386 3379 3379 3379 3379 3379 3381 3384 3384 3384 3384 3384 3384 3385 3387 3387 3387 3386 3383 3383 3383 3386 3386 3386 3384 3379 3376 3371 3371 3370 3369 3364 3361 3359 3358 3346 3314 3302 3278 3264 3264 3260 3260 3259 3256 3251 3245 3240 3240 3235 3220 3204 3182 3092 2853 2543 2466 2466 2466 2483 2483 2483 2393 2249 2124 2076 2057 2056 2056 2056 2057 2059 2060 2062 2065 2067 2068 2069 2070 2070 2072 2074 2076 2077 2079 2080 2080 2082 2082 2083 2085 2085 2086 2088 2089 2090 2092 2093 2093 2094 2095 2097 2099 2102 2103 2105 2107 2110 2112 2113 2114 2116 2117 2118 2119 2119 2121 2123 2124 2125 2126 2128 2128 2128 2129 2129 2131 2132 2134 2136 2139 2139 2143 2146 2148 2150 2151 2154 2156 2158 2161 2162 2164 2166 2167 2167 2168 2169 2170 2171 2172 2173 2175 2176 2178 2179 2181 2182 2185 2186 2188 2190 2191 2192 2194 2195 2196 2197 2199 2200 2202 2203 2205 2207 2209 2211 2213 2216 2218 2219 2221 2222 2223 2224 2227 2229 2231 2232 2233 2233 2234 2236 2237 2238 2239 2240 2241 2242 2246 2249 2250 2252 2253 2254 2256 2257 2259 2261 2262 2264 2266 2267 2269 2272 2274 2276 2278 2280 2282 2284 2285 2286 2289 2291 2292 2293 2294 2296 2298 2298 2299 2300 2301 2303 2304 2306 2306 2307 2308 2308 2309 2311 2313 2314 2316 2318 2320 2321 2322 2323 2324 2326 2328 2328 2328 2328 2329 2331 2334 2334 2335 2336 2338 2341 2343 2344 2345 2346 2347 2349 2349 2352 2352 2353 2354 2355 2357 2357 2359 2360 2361 2363 2365 2368 2376 2379 2389 2408 2522 2675 2812 2945 2945 2945 2945 2946 2949 2949 2949 2949 2949 2949 2952 2952 2952 2950 2949 2947 2945 2945 2945 2945 2945 2945 2944 2941 2931 2923 2902 2872 2805 2690 2567 2472 2310 2271 2256 2243 2229 2214 2204 2196 2187 2178 2172 2161 2151 2143 2138 2132 2127 2121 2114 2109 2102 2094 2088 2082 2075 2067 2061 2056 2052 2045 2040 2034 2029 2026 2021 2018 2014 2011 2007 2005 2001 1999 1997 1995 1992 1988 1985 1981 1978 1976 1973 1970 1967 1963 1960 1957 1953 1949 1947 1944 1943 1942 1942 1940 1939 1938 1938 1938 1938 1938 1937 1937 1936 1935 1935 1935 1935 1933 1932 1931 1929 1928 1927 1926 1925 1923 1923 1923 1923 1923 1924 1925 1925
2371 2371 2371 2371 2371 2374 2374 2376 2374 2373 2356 2340 2329 2290 2290 2290 2299 2350 2350 2350 2332 2331 2331 2332 2336 2336 2336 2323 2316 2309 2308 2308 2308 2308 2307 2295 2290 2290 2290 2291 2302 2302 2302 2302 2289 2281 2281 2281 2274 2274 2272 2271 2268 2268 2268 2280 2289 2294 2295 2295 2295 2295 2296 2333 2357 2364 2364 2364 2356 2260 2260 2242 2242 2242 2242 2191 2145 2145 2145 2155 2233 2315 2417 2596 2608 2802 3048 3220 3228 3263 3267 3325 3334 3358 3358 3362 3364 3364 3369 3370 3372 3373 3378 3380 3380 3380 3379 3379 3379 3383 3383 3383 3378 3376 3376 3376 3381 3386 3392 3392 3392 3386 3385 3385 3385 3381 3369 3363 3362 3362 3362 3366 3373 3376 3378 3383 3387 3389 3397 3397 3397 3393 3391 3391 3390 3390 3390 3391 3391 3391 3391 3393 3394 3394 3394 3394 3394 3392 3387 3387 3387 3390 3390 3390 3390 3390 3390 3393 3395 3396 3396 3398 3398 3398 3398 3397 3394 3388 3386 3385 3380 3374 3374 3374 3374 3381 3387 3388 3388 3388 3386 3386 3384 3384 3384 3384 3385 3386 3386 3389 3389 3390 3390 3389 3386 3382 3381 3381 3381 3382 3382 3384 3387 3387 3387 3385 3385 3385 3387 3387 3387 3386 3385 3385 3385 3385 3385 3385 3382 3379 3376 3374 3372 3372 3371 3371 3371 3371 3370 3355 3317 3302 3278 3264 3263 3260 3260 3259 3256 3251 3248 3246 3242 3236 3222 3203 3182 3095 2853 2543 2481 2481 2481 2519 2519 2519 2393 2250 2128 2077 2062 2056 2056 2056 2058 2060 2061 2063 2065 2067 2069 2071 2071 2072 2074 2076 2077 2078 2079 2080 2081 2082 2083 2085 2085 2086 2088 2089 2090 2092 2093 2093 2095 2095 2097 2098 2100 2104 2106 2107 2108 2111 2113 2114 2116 2117 2117 2118 2120 2120 2122 2124 2126 2127 2128 2129 2130 2130 2131 2131 2133 2133 2135 2136 2139 2139 2143 2146 2148 2150 2151 2154 2156 2158 2161 2163 2165 2167 2167 2168 2168 2169 2170 2171 2172 2173 2175 2176 2178 2180 2182 2183 2185 2187 2189 2190 2192 2193 2194 2195 2197 2198 2199 2201 2202 2203 2205 2207 2209 2211 2213 2216 2218 2219 2221 2222 2223 2225 2227 2230 2231 2232 2233 2233 2234 2236 2238 2239 2240 2240 2241 2242 2246 2249 2250 2252 2252 2255 2256 2257 2259 2261 2263 2265 2266 2267 2269 2272 2274 2276 2278 2280 2282 2284 2286 2288 2290 2292 2293 2293 2295 2296 2298 2298 2300 2301 2302 2304 2305 2306 2307 2307 2308 2309 2311 2311 2314 2315 2317 2319 2321 2323 2323 2324 2325 2327 2328 2328 2328 2329 2330 2333 2335 2335 2335 2337 2338 2341 2343 2345 2345 2347 2348 2350 2351 2352 2354 2355 2355 2356 2357 2359 2360 2360 2361 2363 2366 2368 2376 2389 2397 2411 2545 2706 2834 2945 2946 2947 2947 2947 2947 2949 2949 2949 2949 2949 2950 2950 2950 2950 2949 2947 2946 2946 2946 2945 2945 2945 2945 2943 2933 2923 2902 2872 2803 2678 2566 2449 2298 2262 2256 2243 2229 2216 2206 2196 2187 2178 2172 2158 2151 2145 2138 2132 2125 2120 2114 2109 2101 2094 2088 2082 2076 2067 2061 2056 2052 2047 2040 2034 2029 2026 2022 2018 2014 2011 2008 2005 2002 2000 1998 1996 1992 1989 1985 1981 1978 1976 1973 1970 1966 1963 1960 1957 1953 1950 1947 1944 1943 1942 1942 1941 1940 1940 1939 1939 1939 1938 1938 1937 1936 1936 1936 1935 1935 1934 1933 1931 1929 1929 1928 1927 1925 1925 1925 1924 1924 1924 1924 1925 1925
2375 2375 2374 2375 2375 2376 2376 2376 2376 2373 2361 2359 2342 2340 2312 2312 2312 2350 2350 2350 2341 2340 2338 2340 2340 2338 2336 2323 2320 2318 2314 2308 2307 2300 2298 2295 2290 2290 2290 2290 2298 2308 2308 2308 2303 2283 2283 2283 2284 2286 2286 2286 2276 2276 2276 2280 2289 2291 2291 2291 2290 2290 2290 2301 2335 2357 2357 2357 2335 2260 2260 2242 2242 2242 2242 2220 2176 2176 2176 2191 2233 2309 2417 2595 2608 2797 3009 3164 3263 3307 3325 3338 3347 3358 3364 3366 3369 3369 3369 3371 3376 3377 3378 3381 3383 3384 3384 3384 3384 3384 3383 3382 3378 3376 3376 3376 3381 3386 3392 3392 3392 3386 3385 3385 3385 3381 3375 3364 3362 3362 3362 3368 3374 3378 3380 3385 3388 3392 3398 3398 3398 3395 3392 3391 3391 3391 3392 3392 3392 3392 3392 3392 3394 3395 3396 3396 3396 3393 3391 3391 3391 3392 3392 3392 3390 3390 3390 3393 3393 3395 3396 3398 3398 3399 3399 3399 3395 3388 3386 3385 3380 3373 3373 3373 3374 3381 3387 3389 3389 3389 3388 3387 3385 3385 3385 3385 3385 3386 3386 3389 3389 3389 3389 3388 3388 3383 3381 3381 3382 3383 3384 3385 3387 3389 3389 3389 3388 3388 3388 3388 3388 3387 3387 3386 3383 3381 3380 3380 3378 3377 3376 3375 3374 3373 3372 3372 3372 3372 3370 3364 3319 3302 3272 3256 3254 3252 3252 3252 3251 3250 3250 3246 3242 3235 3220 3203 3183 3095 2850 2526 2493 2493 2493 2528 2528 2528 2393 2249 2128 2078 2062 2057 2057 2057 2059 2061 2063 2064 2066 2068 2070 2072 2073 2074 2075 2076 2077 2078 2079 2081 2081 2082 2084 2086 2087 2089 2089 2089 2091 2093 2093 2095 2096 2098 2100 2102 2104 2106 2108 2109 2109 2111 2114 2116 2117 2118 2119 2121 2121 2123 2125 2127 2127 2128 2128 2129 2130 2132 2133 2133 2134 2134 2135 2138 2139 2139 2144 2146 2148 2150 2152 2154 2157 2159 2162 2163 2165 2167 2167 2168 2168 2169 2170 2171 2172 2174 2175 2177 2178 2180 2182 2183 2185 2187 2190 2191 2192 2193 2194 2195 2197 2198 2200 2201 2203 2204 2205 2207 2209 2211 2213 2216 2218 2219 2221 2222 2223 2225 2227 2230 2232 2233 2234 2234 2234 2237 2238 2239 2240 2241 2241 2242 2246 2249 2250 2252 2252 2255 2257 2258 2259 2262 2263 2265 2266 2267 2269 2272 2274 2276 2278 2280 2282 2284 2286 2288 2291 2292 2293 2294 2295 2296 2298 2299 2301 2303 2303 2305 2306 2306 2307 2308 2310 2310 2312 2312 2314 2315 2317 2321 2324 2325 2325 2325 2326 2327 2328 2329 2329 2330 2330 2333 2335 2335 2336 2337 2339 2341 2343 2345 2346 2348 2349 2351 2352 2354 2354 2356 2356 2357 2358 2359 2361 2361 2361 2363 2369 2372 2378 2389 2397 2420 2567 2720 2897 2947 2948 2949 2949 2949 2949 2949 2950 2950 2951 2951 2951 2950 2950 2950 2949 2947 2945 2945 2945 2945 2945 2945 2945 2943 2933 2923 2902 2872 2802 2667 2559 2449 2297 2262 2247 2240 2229 2217 2206 2196 2187 2177 2166 2158 2151 2145 2138 2131 2123 2119 2112 2108 2101 2093 2087 2081 2077 2070 2062 2057 2052 2047 2041 2035 2029 2026 2022 2018 2015 2012 2009 2006 2003 2000 1998 1996 1992 1988 1985 1981 1978 1976 1973 1970 1966 1963 1960 1957 1953 1950 1948 1945 1944 1943 1942 1941 1940 1940 1940 1940 1940 1940 1939 1939 1937 1937 1937 1936 1935 1935 1933 1932 1931 1929 1929 1927 1927 1926 1925 1925 1924 1924 1924 1925 1925
2387 2389 2387 2387 2383 2377 2375 2377 2377 2375 2363 2360 2355 2353 2320 2317 2317 2317 2342 2342 2342 2341 2340 2340 2340 2338 2336 2325 2324 2323 2322 2310 2307 2300 2296 2296 2295 2292 2292 2292 2296 2308 2308 2308 2303 2284 2284 2284 2285 2292 2292 2292 2292 2278 2278 2278 2282 2282 2282 2281 2280 2280 2280 2292 2300 2302 2307 2307 2307 2260 2260 2243 2243 0 2221 2208 2208 2208 2208 2221 2249 2309 2417 2463 2608 2797 3009 3164 3200 3309 3323 3348 3355 3359 3365 3366 3373 3372 3372 3375 3381 3382 3384 3384 3386 3388 3388 3388 3388 3386 3385 3382 3379 3376 3376 3376 3377 3386 3392 3392 3392 3386 3385 3385 3385 3381 3376 3370 3369 3369 3369 3377 3379 3379 3383 3387 3388 3393 3398 3398 3398 3395 3392 3392 3392 3392 3394 3394 3394 3393 3393 3393 3394 3395 3396 3396 3396 3394 3394 3394 3394 3394 3394 3394 3392 3391 3391 3391 3393 3394 3396 3398 3398 3399 3399 3399 3395 3390 3388 3387 3384 3373 3373 3373 3374 3385 3391 3391 3391 3390 3388 3387 3387 3387 3386 3386 3386 3386 3386 3389 3389 3389 3389 3388 3388 3383 3382 3382 3382 3383 3384 3385 3387 3389 3389 3389 3388 3388 3388 3388 3388 3387 3387 3386 3383 3380 3379 3379 3378 3377 3376 3375 3374 3374 3373 3373 3373 3372 3370 3364 3319 3302 3272 3256 3254 3252 3252 3252 3250 3250 3249 3246 3242 3233 3220 3203 3183 3095 2850 2526 2526 2526 2526 2530 2530 2530 2379 2243 2128 2078 2064 2060 2060 2060 2061 2062 2064 2065 2066 2068 2070 2072 2073 2075 2075 2077 2078 2079 2079 2081 2082 2083 2084 2086 2089 2089 2090 2091 2091 2093 2094 2095 2098 2100 2102 2103 2105 2106 2108 2110 2111 2113 2115 2116 2118 2119 2120 2121 2122 2125 2126 2127 2127 2128 2128 2129 2131 2132 2133 2134 2134 2134 2135 2138 2139 2139 2144 2147 2148 2150 2152 2154 2157 2160 2162 2164 2166 2167 2167 2168 2168 2169 2170 2171 2173 2174 2176 2178 2179 2181 2183 2184 2186 2188 2191 2192 2193 2195 2195 2195 2197 2199 2200 2202 2203 2204 2206 2207 2210 2212 2213 2216 2218 2219 2221 2222 2223 2226 2228 2230 2233 2233 2234 2235 2236 2237 2238 2240 2241 2242 2242 2243 2247 2249 2250 2252 2253 2256 2257 2259 2260 2262 2264 2265 2266 2267 2270 2272 2274 2277 2279 2281 2282 2286 2287 2290 2291 2292 2294 2294 2295 2296 2298 2300 2301 2303 2304 2306 2306 2307 2308 2309 2311 2312 2312 2313 2314 2316 2318 2321 2324 2326 2327 2327 2328 2328 2329 2329 2330 2330 2332 2333 2335 2336 2337 2338 2339 2341 2343 2345 2346 2349 2351 2352 2353 2354 2355 2356 2357 2357 2359 2360 2361 2362 2363 2363 2369 2372 2379 2389 2398 2431 2568 2720 2905 2948 2948 2949 2949 2949 2949 2950 2950 2951 2951 2951 2951 2950 2950 2949 2948 2947 2945 2945 2945 2945 2945 2945 2945 2943 2933 2923 2902 2870 2764 2633 2549 2419 2292 2262 2247 2234 2228 2218 2206 2187 2177 2173 2166 2158 2151 2145 2138 2129 2121 2114 2109 2106 2100 2093 2086 2081 2077 2071 2064 2058 2052 2047 2041 2035 2030 2026 2022 2018 2015 2013 2010 2006 2003 2000 1998 1996 1992 1988 1985 1981 1978 1974 1972 1970 1967 1964 1960 1957 1954 1951 1948 1945 1944 1943 1943 1943 1942 1941 1941 1940 1940 1940 1940 1940 1939 1939 1939 1937 1936 1936 1934 1934 1932 1931 1930 1929 1927 1926 1926 1926 1924 1924 1924 1925 1925
2388 2399 2388 2388 2383 2377 2377 2380 2380 2377 2376 2366 2364 2364 2336 2301 2301 2301 2342 2345 2345 2345 2342 2342 2342 2342 2342 2341 2337 2336 2335 2321 2307 2300 2298 2297 2296 2294 2294 2294 2296 2308 2308 2308 2303 2287 2286 2286 2286 2296 2298 2298 2298 2282 2281 2281 2278 2278 2278 2277 2277 2277 2280 2292 2296 2301 2301 2301 2288 2282 0 2214 2214 2219 2214 2213 2219 2221 2225 2234 2255 2306 2413 2463 2608 2797 3009 3164 3200 3269 3323 3359 3363 3371 3371 3368 3373 3373 3377 3382 3384 3387 3387 3387 3389 3390 3392 3392 3392 3389 3386 3383 3380 3378 3377 3377 3377 3385 3390 3390 3390 3387 3386 3386 3383 3379 3376 3374 3374 3374 3377 3382 3383 3385 3386 3387 3392 3396 3398 3398 3398 3396 3395 3393 3393 3393 3396 3397 3397 3397 3394 3394 3394 3395 3397 3397 3397 3394 3394 3394 3395 3395 3395 3395 3393 3391 3391 3391 3393 3394 3396 3397 3397 3398 3398 3398 3396 3392 3389 3389 3387 3379 3378 3378 3379 3388 3391 3391 3391 3390 3388 3388 3387 3387 3387 3387 3386 3386 3386 3388 3389 3389 3389 3388 3388 3386 3384 3383 3383 3383 3384 3385 3387 3389 3389 3389 3389 3388 3388 3388 3388 3387 3387 3386 3382 3379 3379 3379 3378 3377 3376 3375 3375 3374 3373 3372 3372 3371 3371 3364 3319 3302 3272 3256 3254 3252 3252 3252 3251 3250 3249 3246 3240 3230 3220 3204 3184 3095 2850 2512 2512 2512 2529 2539 2539 2539 2379 2242 2128 2078 2065 2062 2062 2062 2063 2064 2064 2065 2066 2069 2070 2072 2073 2075 2076 2077 2078 2079 2080 2081 2082 2083 2085 2087 2089 2090 2090 2091 2091 2093 2094 2095 2099 2101 2102 2104 2105 2107 2108 2110 2111 2113 2115 2117 2118 2119 2120 2121 2123 2125 2126 2128 2128 2129 2130 2130 2132 2133 2134 2135 2135 2135 2137 2139 2141 2142 2144 2147 2148 2150 2152 2154 2157 2160 2162 2164 2166 2167 2167 2168 2168 2169 2170 2171 2173 2175 2177 2178 2180 2181 2183 2185 2186 2189 2191 2193 2195 2195 2195 2196 2197 2200 2201 2202 2204 2206 2208 2209 2211 2212 2215 2216 2218 2220 2221 2222 2224 2226 2229 2230 2234 2234 2236 2236 2237 2238 2239 2240 2241 2242 2242 2243 2247 2249 2250 2252 2254 2256 2258 2261 2262 2263 2264 2266 2267 2269 2271 2273 2275 2278 2279 2282 2284 2286 2288 2290 2291 2292 2294 2295 2295 2297 2298 2300 2301 2304 2305 2306 2308 2308 2309 2310 2311 2312 2312 2313 2314 2316 2318 2321 2324 2326 2328 2328 2328 2328 2329 2329 2331 2332 2332 2333 2335 2336 2337 2338 2340 2341 2343 2345 2347 2349 2351 2353 2353 2355 2356 2356 2357 2358 2359 2360 2362 2362 2363 2364 2369 2372 2379 2388 2405 2435 2609 2732 2916 2949 2950 2950 2950 2950 2950 2950 2950 2952 2952 2952 2951 2950 2950 2949 2948 2947 2946 2944 2942 2942 2941 2939 2932 2930 2930 2923 2902 2870 2746 2601 2530 2366 2290 2265 2247 2234 2228 2220 2206 2186 2177 2173 2166 2158 2150 2143 2135 2127 2117 2112 2108 2104 2099 2093 2086 2081 2077 2071 2066 2060 2053 2047 2042 2035 2031 2026 2022 2020 2016 2013 2010 2007 2003 2000 1998 1995 1991 1988 1985 1980 1977 1974 1972 1970 1967 1964 1961 1957 1954 1951 1948 1946 1945 1944 1943 1943 1943 1942 1941 1941 1941 1941 1941 1941 1940 1940 1940 1939 1938 1937 1936 1936 1933 1932 1931 1929 1928 1927 1927 1927 1926 1925 1925 1925 1925
2388 2388 2388 2388 2379 2377 2377 2379 2391 2391 2391 2381 2377 2373 2336 2301 2301 2301 2342 2363 2365 2365 2366 2366 2365 2365 2363 2357 2355 2351 2347 2345 2329 2314 2300 2297 2296 2296 2296 2296 2296 2303 2303 2303 2303 2294 2294 2294 2296 2297 2303 2303 2303 2290 2281 2281 2278 2278 2278 2277 2277 2277 2280 2292 2292 2292 2291 2288 2280 2279 0 2162 2162 2180 2180 2220 2251 2253 2255 2277 2277 2306 2330 2423 2656 2875 3061 3179 3200 3247 3323 3359 3367 3367 3367 3367 3368 3371 3382 3383 3387 3389 3389 3389 3391 3394 3395 3395 3395 3392 3388 3385 3385 3383 3382 3385 3385 3385 3390 3390 3390 3387 3387 3386 3382 3378 3377 3377 3377 3378 3383 3386 3390 3391 3394 3394 3396 3397 3397 3398 3398 3398 3398 3396 3396 3396 3397 3400 3400 3400 3396 3394 3394 3394 3396 3396 3396 3396 3395 3395 3395 3395 3395 3395 3393 3391 3391 3391 3393 3394 3395 3395 3395 3396 3395 3395 3395 3393 3390 3389 3388 3385 3385 3385 3385 3388 3391 3391 3391 3384 3384 3384 3387 3387 3387 3387 3387 3387 3387 3388 3389 3390 3390 3390 3390 3390 3385 3383 3383 3383 3385 3386 3387 3389 3390 3391 3391 3391 3389 3389 3389 3388 3388 3387 3383 3380 3379 3379 3379 3379 3379 3377 3376 3374 3373 3372 3372 3371 3371 3361 3316 3298 3278 3259 3255 3255 3255 3253 3251 3250 3249 3246 3240 3230 3220 3206 3184 3095 2850 2508 2508 2508 2534 2539 2539 2539 2379 2240 2127 2075 2065 2065 2064 2064 2064 2064 2064 2065 2067 2069 2071 2072 2073 2075 2076 2077 2078 2079 2081 2082 2083 2083 2085 2087 2089 2090 2091 2091 2092 2094 2094 2095 2100 2102 2103 2105 2105 2107 2109 2110 2112 2114 2116 2117 2118 2119 2121 2122 2124 2126 2127 2128 2129 2130 2130 2132 2132 2134 2135 2135 2136 2137 2137 2139 2141 2143 2145 2148 2149 2150 2152 2155 2159 2161 2162 2164 2166 2167 2168 2168 2169 2170 2171 2171 2174 2176 2177 2179 2180 2182 2184 2185 2186 2189 2192 2194 2195 2196 2197 2198 2199 2200 2204 2204 2205 2207 2208 2210 2211 2213 2215 2217 2219 2220 2221 2223 2226 2227 2229 2231 2234 2235 2236 2237 2238 2239 2239 2241 2242 2242 2242 2244 2247 2250 2251 2254 2255 2258 2260 2262 2263 2265 2265 2266 2269 2270 2272 2274 2275 2278 2280 2282 2284 2286 2288 2290 2291 2293 2294 2296 2297 2297 2298 2301 2302 2305 2306 2308 2308 2308 2310 2310 2311 2312 2313 2313 2314 2316 2318 2321 2323 2326 2328 2328 2329 2329 2329 2330 2331 2332 2333 2333 2334 2337 2338 2340 2342 2343 2343 2345 2347 2350 2352 2353 2354 2355 2356 2357 2358 2358 2360 2361 2362 2363 2363 2365 2367 2368 2379 2385 2407 2454 2654 2751 2923 2951 2951 2952 2956 2954 2954 2954 2954 2954 2953 2953 2953 2952 2950 2949 2949 2947 2946 2944 2941 2940 2938 2933 2928 2924 2922 2916 2901 2866 2745 2563 2500 2341 2289 2265 2247 2234 2228 2223 2206 2186 2177 2173 2166 2158 2150 2140 2132 2124 2117 2112 2108 2104 2098 2092 2086 2081 2076 2072 2067 2062 2055 2048 2043 2037 2032 2028 2024 2020 2016 2013 2010 2007 2003 2001 1997 1992 1990 1986 1983 1980 1977 1974 1972 1970 1968 1965 1962 1958 1955 1952 1948 1946 1945 1944 1944 1943 1943 1942 1942 1941 1941 1941 1941 1941 1941 1941 1941 1939 1938 1938 1937 1937 1935 1934 1931 1931 1930 1929 1927 1927 1927 1925 1925 1925 1926
2353 2353 2369 2369 2369 2369 2369 2374 2394 2395 2395 2395 2393 2388 2346 2301 2301 2301 2348 2363 2365 2365 2366 2366 2376 2376 2376 2369 2357 2357 2353 2347 2331 2315 2306 2305 2300 2300 2300 2300 2300 2303 2303 2303 2303 2301 2301 2300 2300 2302 2305 2305 2305 2292 2285 2283 2281 2281 2278 2278 2278 2279 2287 2294 2294 2294 2291 2288 2278 2274 0 2147 2147 2168 2168 2219 2260 2262 2262 2278 2278 2304 2330 2436 2711 2976 3185 3200 3238 3244 3309 3370 3370 3370 3368 3368 3368 3372 3378 3383 3388 3389 3390 3391 3393 3395 3396 3396 3396 3392 3388 3388 3387 3386 3386 3386 3386 3386 3389 3390 3390 3389 3388 3387 3382 3377 3377 3377 3378 3381 3385 3389 3393 3398 3401 3401 3401 3400 3399 3399 3399 3399 3398 3398 3397 3397 3397 3400 3400 3400 3398 3396 3396 3396 3396 3396 3396 3396 3396 3396 3396 3396 3396 3395 3393 3393 3393 3393 3395 3395 3395 3395 3395 3395 3395 3394 3394 3394 3392 3390 3389 3388 3388 3388 3389 3391 3391 3391 3390 3384 3384 3384 3387 3388 3388 3388 3388 3387 3387 3387 3389 3391 3392 3392 3392 3390 3386 3383 3383 3383 3385 3386 3388 3390 3391 3392 3392 3392 3392 3392 3391 3390 3390 3388 3383 3381 3380 3380 3380 3380 3380 3380 3377 3374 3373 3373 3372 3372 3371 3357 3316 3298 3278 3265 3257 3256 3255 3253 3252 3252 3251 3246 3240 3230 3220 3206 3184 3060 2850 2503 2503 2503 2534 2549 2549 2549 2388 2236 2123 2074 2065 2064 2064 2064 2064 2064 2064 2066 2067 2069 2071 2072 2073 2075 2076 2077 2079 2079 2081 2083 2083 2085 2086 2087 2089 2090 2091 2091 2092 2095 2096 2097 2101 2102 2103 2105 2105 2108 2110 2111 2113 2115 2116 2117 2119 2120 2121 2123 2124 2126 2128 2129 2130 2130 2131 2132 2133 2135 2137 2137 2137 2138 2138 2140 2142 2144 2147 2148 2150 2152 2154 2156 2159 2162 2163 2164 2166 2167 2168 2168 2169 2170 2171 2173 2174 2176 2178 2179 2180 2182 2184 2186 2187 2189 2193 2195 2196 2196 2197 2200 2202 2203 2204 2205 2207 2207 2209 2211 2212 2215 2216 2218 2219 2222 2224 2225 2227 2228 2229 2231 2234 2235 2236 2237 2238 2239 2241 2242 2243 2243 2244 2245 2248 2250 2253 2255 2257 2258 2260 2262 2265 2266 2266 2268 2269 2270 2273 2274 2277 2279 2280 2282 2284 2286 2288 2290 2291 2293 2296 2297 2298 2299 2300 2302 2304 2306 2306 2308 2309 2309 2310 2310 2311 2312 2313 2314 2315 2316 2318 2321 2323 2326 2328 2329 2329 2329 2329 2330 2332 2332 2333 2333 2334 2337 2339 2343 2344 2344 2345 2345 2348 2350 2352 2354 2355 2356 2356 2358 2359 2359 2361 2361 2362 2365 2365 2365 2366 2366 2367 2383 2404 2470 2664 2783 2924 2951 2951 2955 2956 2957 2957 2957 2956 2956 2956 2955 2954 2954 2954 2951 2949 2947 2945 2943 2941 2939 2932 2930 2927 2920 2916 2906 2888 2846 2690 2548 2477 2320 2289 2265 2247 2235 2229 2223 2205 2186 2179 2174 2167 2158 2150 2140 2132 2124 2117 2112 2108 2103 2098 2092 2086 2081 2076 2072 2067 2062 2055 2048 2043 2038 2034 2030 2024 2020 2016 2013 2010 2007 2003 2001 1997 1992 1989 1986 1983 1980 1977 1975 1972 1971 1968 1966 1963 1959 1955 1953 1950 1947 1946 1944 1944 1944 1943 1942 1942 1942 1942 1942 1942 1942 1942 1941 1941 1940 1939 1938 1937 1937 1936 1935 1933 1932 1930 1930 1929 1928 1927 1927 1926 1926 1926
2335 2335 2356 2356 2356 2356 2356 2365 2394 2395 2395 2395 2395 2393 2372 2342 2342 2342 2356 2363 2365 2365 2366 2366 2376 2376 2376 2369 2357 2357 2355 2353 2353 2340 2322 2321 2305 2305 2305 2307 2307 2307 2306 2303 2303 2301 2301 2300 2300 2302 2305 2305 2305 2305 2298 2290 2285 2284 2278 2278 2278 2282 2290 2294 2294 2294 2291 2285 2285 2278 2278 0 0 2147 2147 2193 2265 2278 2278 2295 2295 2304 2330 2463 2723 2976 3185 3189 3200 3244 3309 3383 3383 3383 3368 3368 3368 3372 3378 3383 3386 3389 3390 3392 3395 3397 3397 3397 3396 3392 3390 3389 3388 3387 3388 3388 3388 3388 3389 3390 3391 3390 3389 3387 3381 3377 3377 3377 3379 3381 3386 3391 3398 3400 3406 3406 3406 3399 3399 3399 3399 3399 3398 3398 3397 3397 3397 3399 3400 3400 3399 3396 3394 3394 3394 3395 3396 3396 3396 3396 3396 3396 3395 3395 3394 3394 3394 3394 3396 3396 3396 3394 3394 3394 3394 3395 3395 3395 3394 3393 3393 3392 3391 3391 3391 3394 3394 3394 3390 3384 3384 3384 3386 3387 3388 3388 3388 3388 3388 3388 3389 3391 3392 3392 3392 3390 3387 3385 3385 3385 3387 3389 3389 3390 3391 3392 3394 3394 3394 3393 3393 3392 3391 3389 3384 3383 3383 3383 3383 3383 3383 3380 3377 3375 3375 3374 3374 3373 3372 3354 3314 3300 3278 3268 3257 3256 3255 3253 3253 3252 3251 3249 3241 3234 3226 3204 3155 3023 2761 2490 2490 2490 2537 2550 2550 2550 2388 2231 2119 2072 2065 2064 2064 2064 2064 2064 2064 2066 2067 2069 2070 2072 2073 2075 2076 2078 2079 2081 2082 2083 2084 2085 2087 2088 2090 2091 2091 2092 2094 2096 2098 2099 2101 2103 2104 2106 2107 2109 2111 2113 2114 2115 2117 2118 2119 2121 2122 2123 2125 2127 2128 2129 2130 2130 2131 2132 2133 2135 2137 2138 2138 2138 2139 2141 2144 2145 2147 2149 2150 2152 2155 2157 2159 2162 2164 2165 2166 2167 2168 2168 2169 2170 2172 2173 2174 2176 2178 2179 2181 2182 2184 2186 2187 2189 2193 2196 2196 2196 2198 2200 2204 2204 2205 2205 2207 2208 2210 2212 2213 2216 2217 2220 2221 2223 2224 2226 2227 2229 2231 2233 2234 2236 2237 2237 2238 2240 2242 2243 2244 2244 2245 2248 2250 2252 2254 2257 2257 2258 2260 2263 2266 2267 2268 2269 2271 2272 2273 2275 2278 2279 2281 2283 2284 2286 2288 2290 2291 2293 2296 2298 2299 2299 2301 2303 2305 2307 2308 2308 2309 2310 2310 2310 2311 2312 2313 2314 2315 2317 2318 2321 2323 2326 2328 2329 2329 2330 2330 2330 2332 2333 2333 2333 2334 2338 2340 2344 2345 2346 2346 2347 2349 2351 2353 2355 2356 2357 2358 2359 2359 2361 2361 2362 2363 2365 2365 2366 2366 2367 2367 2381 2407 2480 2681 2855 2946 2951 2951 2954 2954 2957 2958 2958 2958 2958 2957 2956 2954 2954 2954 2952 2951 2948 2946 2943 2938 2934 2930 2930 2925 2916 2905 2899 2881 2825 2652 2532 2450 2307 2284 2265 2246 2235 2229 2223 2205 2187 2182 2176 2169 2159 2150 2140 2132 2124 2116 2112 2107 2100 2096 2092 2086 2080 2076 2071 2067 2062 2055 2048 2043 2039 2035 2030 2024 2019 2014 2012 2009 2007 2003 2001 1997 1992 1989 1986 1983 1980 1977 1975 1974 1972 1970 1967 1963 1960 1956 1954 1951 1949 1947 1945 1944 1944 1944 1943 1943 1942 1942 1942 1942 1942 1942 1941 1941 1940 1939 1939 1939 1938 1937 1935 1934 1934 1932 1931 1929 1928 1928 1928 1926 1926 1926
2335 2335 2356 2356 2356 2356 2356 2358 2380 2395 2395 2395 2395 2401 2401 2401 2390 2373 2358 2342 2341 2341 2341 2359 2376 2376 2376 2369 2351 2351 2351 2359 2359 2359 2350 2337 2311 2311 2311 2315 2320 2320 2320 2312 2306 2301 2301 2300 2300 2302 2304 2309 2309 2309 2301 2292 2285 2284 2279 2279 2279 2284 2290 2294 2298 2298 2298 2285 2285 2285 2285 0 0 0 2156 2189 2265 2285 2293 2304 2304 2304 2355 2491 2754 2999 3183 3183 3193 3244 3309 3383 3383 3383 3373 3373 3373 3373 3378 3383 3386 3389 3392 3392 3397 3397 3397 3397 3396 3394 3391 3389 3388 3387 3388 3388 3388 3388 3390 3390 3391 3390 3390 3387 3379 3379 3379 3379 3381 3384 3387 3395 3399 3401 3406 3406 3406 3398 3398 3398 3399 3399 3399 3398 3394 3393 3393 3393 3399 3399 3399 3396 3393 3393 3393 3395 3396 3396 3397 3396 3396 3396 3396 3395 3395 3394 3394 3394 3395 3395 3395 3393 3393 3393 3394 3395 3395 3395 3395 3395 3394 3394 3394 3394 3395 3395 3395 3395 3390 3385 3385 3385 3386 3387 3388 3389 3389 3389 3389 3389 3389 3391 3392 3392 3392 3390 3388 3388 3388 3388 3389 3390 3391 3391 3391 3392 3394 3395 3395 3395 3393 3392 3391 3389 3387 3385 3385 3385 3385 3385 3385 3382 3379 3378 3378 3378 3378 3378 3375 3348 3314 3300 3278 3270 3257 3254 3253 3252 3252 3251 3251 3249 3243 3236 3226 3205 3138 3000 2727 2469 2469 2469 2534 2550 2550 2550 2388 2226 2110 2069 2064 2063 2063 2063 2063 2063 2065 2066 2068 2069 2070 2072 2073 2075 2076 2079 2080 2081 2082 2084 2084 2087 2088 2089 2091 2091 2092 2094 2095 2098 2098 2100 2101 2103 2105 2107 2109 2110 2112 2114 2115 2117 2118 2119 2120 2121 2123 2124 2126 2127 2128 2129 2130 2131 2131 2133 2134 2136 2138 2139 2139 2139 2140 2142 2145 2147 2147 2149 2150 2152 2155 2157 2159 2162 2164 2165 2167 2168 2169 2169 2171 2171 2173 2173 2175 2177 2178 2180 2181 2183 2184 2186 2187 2190 2193 2196 2197 2197 2198 2200 2205 2206 2206 2207 2209 2210 2211 2213 2215 2216 2219 2220 2222 2224 2224 2226 2227 2229 2232 2233 2235 2237 2237 2237 2238 2240 2242 2244 2244 2246 2247 2250 2250 2252 2254 2257 2258 2259 2262 2264 2267 2268 2270 2270 2271 2273 2274 2276 2278 2280 2281 2283 2285 2286 2288 2290 2291 2294 2296 2298 2299 2300 2302 2304 2305 2307 2308 2309 2310 2311 2311 2311 2312 2313 2314 2316 2316 2319 2321 2323 2325 2326 2328 2329 2329 2331 2332 2332 2333 2333 2334 2334 2335 2340 2344 2345 2346 2347 2347 2348 2350 2353 2354 2355 2357 2358 2359 2359 2360 2361 2362 2362 2363 2366 2367 2367 2367 2367 2367 2381 2407 2525 2710 2856 2947 2950 2951 2951 2951 2956 2958 2958 2958 2958 2957 2956 2955 2955 2954 2953 2952 2950 2946 2943 2938 2934 2930 2930 2925 2916 2903 2897 2878 2822 2619 2515 2418 2307 2279 2258 2243 2235 2229 2218 2205 2190 2183 2177 2170 2159 2150 2141 2133 2124 2116 2108 2102 2097 2092 2088 2084 2079 2076 2071 2067 2059 2052 2048 2043 2039 2035 2030 2024 2019 2014 2012 2009 2007 2003 2001 1997 1993 1989 1986 1983 1980 1978 1976 1975 1972 1970 1967 1964 1961 1958 1956 1954 1951 1948 1946 1945 1944 1944 1943 1943 1942 1942 1942 1942 1942 1942 1942 1941 1940 1940 1940 1939 1939 1937 1937 1935 1934 1933 1931 1930 1929 1928 1928 1927 1927 1927
2335 2335 2353 2353 2353 2353 2353 2358 2374 2375 2375 2377 2386 2401 2401 2401 2394 2383 2358 2342 2341 2341 2341 2354 2356 2356 2354 2351 2345 2345 2345 2359 2359 2359 2350 2337 2325 2325 2325 2324 2324 2324 2320 2315 2308 2306 2302 2302 2301 2301 2302 2308 2308 2308 2301 2292 2285 2284 2282 2282 2282 2284 2290 2291 2306 2306 2306 2305 2304 2301 2285 2277 2236 2189 2189 2189 2261 2298 2298 2313 2313 2328 2371 2510 2759 2999 3183 3183 3193 3243 3332 3389 3389 3389 3376 3373 3373 3373 3378 3383 3386 3389 3393 3396 3400 3400 3400 3397 3396 3394 3391 3390 3388 3388 3388 3388 3388 3388 3390 3390 3391 3390 3388 3386 3379 3379 3379 3380 3384 3387 3390 3396 3399 3401 3406 3406 3406 3398 3398 3398 3399 3399 3399 3396 3392 3387 3386 3386 3386 3398 3398 3398 3393 3393 3393 3395 3397 3397 3397 3397 3396 3396 3396 3396 3395 3395 3395 3395 3395 3395 3395 3393 3393 3393 3394 3395 3395 3396 3396 3395 3395 3395 3395 3396 3396 3396 3396 3395 3391 3389 3386 3386 3386 3387 3388 3389 3389 3389 3389 3389 3389 3392 3392 3392 3392 3390 3389 3389 3389 3391 3391 3391 3389 3389 3389 3390 3394 3396 3396 3396 3394 3392 3392 3391 3388 3387 3387 3387 3387 3387 3387 3385 3383 3383 3383 3386 3386 3386 3378 3345 3314 3300 3278 3271 3258 3254 3252 3252 3252 3251 3251 3249 3243 3236 3226 3203 3138 2988 2714 2467 2467 2467 2534 2550 2550 2550 2384 2217 2110 2069 2060 2060 2060 2062 2063 2064 2065 2067 2068 2069 2071 2072 2074 2075 2077 2079 2080 2082 2083 2084 2086 2088 2089 2090 2092 2093 2093 2095 2096 2099 2101 2103 2103 2104 2106 2108 2110 2111 2113 2115 2116 2117 2119 2120 2121 2122 2123 2125 2126 2128 2129 2131 2132 2132 2133 2133 2136 2138 2138 2139 2139 2140 2141 2142 2146 2147 2149 2149 2151 2152 2155 2158 2159 2162 2164 2165 2167 2168 2169 2170 2171 2172 2173 2174 2175 2177 2179 2180 2182 2184 2185 2186 2187 2191 2193 2196 2198 2199 2199 2202 2205 2207 2209 2211 2213 2213 2214 2215 2216 2218 2219 2220 2222 2224 2225 2227 2229 2231 2232 2234 2235 2237 2237 2238 2239 2241 2243 2244 2245 2247 2249 2251 2251 2253 2256 2257 2259 2261 2263 2266 2268 2270 2271 2271 2272 2273 2275 2276 2279 2280 2281 2283 2285 2287 2288 2290 2292 2294 2296 2299 2300 2302 2302 2304 2306 2307 2308 2310 2311 2312 2312 2312 2314 2316 2318 2318 2319 2321 2323 2325 2326 2327 2328 2329 2331 2332 2334 2335 2335 2336 2337 2339 2341 2342 2344 2345 2346 2348 2348 2348 2351 2353 2354 2356 2357 2358 2359 2359 2360 2361 2362 2363 2366 2367 2368 2368 2368 2368 2371 2381 2413 2551 2741 2878 2948 2950 2950 2951 2951 2956 2959 2961 2961 2961 2957 2957 2955 2955 2954 2954 2953 2953 2951 2943 2938 2934 2930 2930 2925 2916 2899 2873 2868 2789 2583 2501 2375 2307 2278 2252 2236 2231 2227 2217 2204 2190 2183 2177 2170 2159 2151 2142 2133 2124 2114 2107 2101 2095 2091 2087 2083 2078 2075 2070 2066 2058 2052 2047 2043 2039 2035 2030 2024 2018 2014 2012 2009 2007 2004 2001 1998 1995 1990 1987 1985 1982 1980 1977 1975 1973 1971 1969 1965 1963 1961 1958 1956 1954 1950 1948 1947 1945 1945 1943 1943 1943 1942 1942 1942 1942 1942 1942 1941 1940 1940 1940 1940 1939 1938 1937 1935 1934 1933 1932 1930 1930 1929 1928 1927 1927 1927
2335 2335 2353 2356 2356 2356 2357 2357 2358 2358 2358 2358 2373 2391 2394 2394 2394 2383 2358 2342 2341 2341 2341 2341 2343 2347 2343 2341 2337 2337 2337 2354 2354 2354 2350 2337 2325 2325 2325 2324 2324 2324 2320 2316 2311 2306 2302 2302 2301 2301 2302 2306 2306 2306 2301 2292 2285 2285 2285 2285 2288 2290 2290 2291 2306 2306 2306 2306 2304 2301 2296 2285 2247 2189 2189 2189 2260 2298 2298 2313 2313 2328 2399 2535 2759 2978 3167 3167 3176 3242 3360 3387 3387 3387 3379 3373 3373 3373 3380 3387 3393 3395 3397 3400 3400 3400 3399 3397 3396 3394 3392 3391 3390 3388 3388 3388 3388 3389 3389 3389 3389 3388 3386 3383 3379 3379 3379 3381 3386 3391 3392 3397 3398 3398 3399 3399 3398 3398 3399 3399 3399 3399 3399 3396 3392 3387 3386 3386 3386 3396 3396 3396 3395 3395 3395 3398 3398 3398 3398 3398 3398 3397 3398 3398 3398 3398 3398 3397 3397 3396 3396 3394 3394 3394 3394 3395 3396 3396 3396 3396 3395 3395 3395 3397 3397 3397 3397 3396 3396 3393 3392 3391 3390 3390 3390 3390 3390 3389 3389 3389 3389 3392 3392 3392 3392 3390 3390 3390 3390 3391 3391 3391 3390 3390 3390 3390 3393 3395 3395 3395 3395 3394 3393 3392 3392 3390 3390 3390 3390 3390 3390 3388 3388 3388 3389 3389 3389 3386 3378 3344 3319 3300 3278 3272 3258 3254 3252 3251 3251 3250 3248 3247 3243 3236 3224 3203 3138 2979 2708 2467 2467 2467 2522 2527 2527 2527 2382 2217 2110 2069 2060 2060 2060 2062 2063 2065 2065 2067 2068 2069 2071 2072 2074 2075 2077 2079 2081 2082 2083 2084 2086 2088 2090 2091 2093 2094 2095 2097 2097 2100 2102 2103 2104 2105 2107 2109 2110 2112 2113 2115 2117 2118 2119 2120 2122 2123 2124 2125 2127 2128 2130 2131 2133 2133 2134 2135 2136 2138 2139 2139 2140 2142 2143 2143 2146 2148 2150 2150 2151 2154 2155 2158 2160 2162 2164 2165 2167 2168 2169 2170 2172 2173 2174 2175 2176 2177 2179 2181 2182 2184 2185 2187 2191 2192 2194 2197 2200 2201 2202 2202 2207 2210 2212 2213 2215 2216 2217 2217 2218 2219 2221 2222 2224 2225 2227 2227 2229 2231 2233 2235 2236 2237 2238 2238 2239 2242 2243 2244 2246 2247 2249 2252 2253 2255 2257 2258 2261 2262 2264 2266 2269 2270 2271 2272 2273 2275 2276 2277 2279 2280 2282 2284 2286 2288 2290 2291 2293 2294 2296 2299 2300 2302 2303 2304 2306 2308 2310 2312 2312 2313 2313 2315 2316 2318 2319 2320 2321 2321 2323 2326 2327 2327 2328 2330 2333 2334 2335 2336 2337 2337 2339 2341 2343 2344 2344 2345 2347 2348 2348 2350 2352 2353 2354 2356 2357 2358 2359 2360 2360 2362 2363 2364 2366 2368 2370 2371 2372 2373 2376 2387 2418 2559 2744 2893 2949 2949 2950 2950 2950 2956 2960 2962 2962 2962 2959 2957 2956 2955 2954 2954 2954 2954 2954 2949 2940 2939 2939 2935 2927 2914 2891 2853 2847 2709 2571 2499 2366 2304 2278 2248 2235 2230 2225 2214 2200 2190 2183 2177 2170 2159 2151 2143 2134 2125 2113 2106 2100 2095 2090 2086 2082 2077 2073 2070 2065 2057 2052 2047 2043 2038 2034 2028 2024 2018 2015 2012 2009 2007 2004 2001 1998 1995 1991 1988 1986 1984 1981 1978 1977 1975 1972 1969 1967 1964 1962 1960 1957 1954 1951 1949 1947 1946 1945 1944 1944 1943 1942 1942 1942 1942 1942 1942 1941 1941 1941 1940 1940 1939 1939 1937 1936 1934 1934 1933 1931 1930 1929 1928 1927 1927 1927
2335 2335 2335 2353 2356 2356 2357 2357 2357 2356 2356 2356 2356 2374 2392 2392 2392 2383 2357 2341 2341 2341 2347 2347 2347 2347 2343 2341 2319 2319 2319 2343 2343 2343 2343 2336 2325 2325 2325 2322 2322 2322 2322 2320 2311 2308 2306 2305 2303 2303 2303 2304 2304 2304 2297 2289 2286 2286 2286 2290 2290 2291 2291 2291 2298 2306 2306 2306 2304 2298 2285 2284 2251 2200 2200 2200 2245 2285 2295 2298 2303 2334 2399 2535 2754 2953 3162 3168 3184 3199 3364 3386 3386 3386 3381 3373 3373 3373 3380 3387 3393 3395 3400 3400 3400 3399 3397 3397 3397 3397 3397 3394 3390 3388 3388 3388 3388 3390 3390 3390 3390 3388 3385 3383 3380 3380 3380 3385 3389 3391 3394 3397 3398 3398 3399 3399 3398 3398 3399 3400 3400 3400 3400 3396 3392 3387 3386 3386 3386 3395 3395 3395 3396 3396 3396 3398 3398 3398 3398 3398 3398 3397 3398 3398 3399 3399 3399 3399 3398 3396 3396 3396 3395 3395 3395 3395 3396 3396 3396 3396 3396 3397 3397 3397 3397 3398 3398 3398 3398 3398 3397 3396 3395 3395 3395 3394 3394 3392 3392 3392 3393 3394 3394 3394 3392 3390 3390 3390 3391 3392 3392 3392 3390 3390 3390 3390 3393 3395 3396 3397 3397 3397 3397 3397 3394 3394 3393 3393 3392 3390 3390 3390 3391 3391 3391 3390 3389 3386 3378 3343 3319 3300 3277 3271 3267 3258 3255 3251 3249 3247 3246 3246 3243 3234 3224 3204 3142 2970 2687 2462 2462 2462 2522 2522 2522 2517 2371 2208 2106 2069 2060 2060 2060 2062 2064 2065 2065 2066 2068 2069 2071 2073 2075 2076 2077 2079 2081 2082 2083 2085 2086 2088 2090 2092 2094 2096 2096 2097 2098 2101 2103 2104 2105 2106 2108 2109 2110 2112 2113 2115 2117 2118 2119 2120 2122 2123 2124 2126 2127 2129 2131 2132 2133 2134 2135 2135 2137 2138 2140 2140 2142 2142 2144 2145 2147 2149 2151 2151 2153 2155 2156 2158 2161 2163 2164 2165 2167 2168 2169 2170 2172 2173 2174 2175 2177 2179 2181 2182 2184 2186 2187 2190 2192 2194 2196 2199 2200 2201 2203 2204 2209 2213 2214 2215 2216 2216 2217 2218 2219 2221 2222 2224 2226 2227 2228 2229 2230 2232 2234 2236 2237 2238 2239 2239 2240 2242 2244 2246 2246 2249 2249 2252 2254 2256 2259 2259 2261 2263 2265 2267 2269 2271 2272 2274 2275 2276 2276 2277 2279 2281 2283 2284 2286 2288 2290 2292 2294 2295 2296 2299 2300 2302 2303 2305 2307 2309 2310 2312 2314 2314 2315 2316 2318 2320 2320 2321 2321 2322 2324 2326 2327 2328 2330 2331 2333 2337 2337 2337 2338 2339 2340 2342 2344 2344 2345 2346 2347 2348 2349 2351 2353 2354 2354 2356 2357 2358 2359 2361 2362 2362 2363 2364 2367 2368 2374 2376 2378 2380 2383 2391 2422 2576 2744 2914 2950 2950 2950 2950 2950 2959 2962 2962 2962 2962 2961 2960 2957 2957 2955 2955 2955 2954 2954 2953 2950 2948 2946 2941 2930 2910 2879 2836 2716 2705 2564 2496 2351 2298 2268 2245 2230 2225 2219 2210 2196 2186 2181 2174 2165 2159 2151 2143 2134 2124 2113 2106 2100 2094 2089 2085 2081 2076 2070 2067 2062 2057 2051 2047 2042 2038 2033 2028 2024 2019 2015 2012 2009 2007 2004 2000 1998 1995 1991 1989 1986 1985 1983 1980 1978 1975 1973 1971 1968 1965 1962 1960 1957 1954 1951 1949 1947 1946 1945 1945 1944 1943 1942 1942 1942 1942 1942 1942 1942 1941 1941 1941 1940 1940 1939 1938 1936 1935 1934 1933 1932 1931 1930 1928 1927 1927 1927
