0 0 941 1194 1194 1458 1688 1780 1852 1952 2169 2581 2728 2823 2872 2882 2887 2889 2893 2905 2905 2905 2907 2907 2905 2907 2908 2908 2908 2908 2905 2896 2890 2888 2884 2864 2831 2794 2758 2699 2593 2475 2258 2036 1751 1488 1483 1245 1076 971 912 885 884 884 884 885 885 885 885 885 885 886 887 887 888 889 889 889 889 889 889 890 891 891 892 892 892 893 893 894 895 895 895 895 895 896 896 897 898 899 899 899 899 900 900 900 901 902 902 902 902 903 904 904 904 904 904 904 905 905 906 906 906 906 907 907 907 907 908 908 908 909 909 909 910 911 912 913 915 916 917 919 924 925 927 935 942 943 944 946 946 948 950 950 950 951 951 954 954 954 949 947 947 947 947 951 956 959 959 959 962 968 972 972 973 973 973 973 973 973 971 968 962 957 944 941 940 939 939 937 935 935 935 935 936 937 937 938 938 939 939 940 940 940 941 942 943 943 944 945 945 945 946 946 948 948 948 949 950 950 951 952 954 956 956 959 965 975 982 992 1001 1008 1012 1019 1025 1025 1025 1021 1017 1013 1013 1013 1015 1016 1018 1018 1021 1022 1022 1024 1026 1028 1028 1028 1028 1028 1029 1029 1029 1024 1020 1017 1016 1014 1003 993 988 987 986 983 981 981 981 981 981 981 981 981 981 981 981 982 982 982 982 983 984 984 984 985 986 986 987 987 988 988 988 988 988 988 991 992 993 997 1001 1005 1014 1016 1017 1018 1022 1024 1026 1028 1031 1034 1037 1037 1037 1035 1033 1033 1033 1032 1032 1032 1031 1029 1027 1027 1027 1029 1031 1035 1038 1038 1038 1037 1029 1027 1025 1021 1018 1015 1014 1014 1014 1014 1014 1014 1014 1014 1016 1016 1016 1017 1017 1018 1018 1018 1020 1020 1020 1021 1022 1024 1025 1027 1027 1028 1029 1031 1032 1032 1032 1034 1036 1038 1043 1050 1064 1064 1064 1057 1057 1057 1065 1067 1067 1067 1065 1065 1065 1066 1066 1067 1067 1067 1067 1066 1064 1064 1063 1062 1062 1062 1073 1074 1074 1074 1071 1065 1060 1059 1059 1056 1056 1056 1057 1059 1060 1060 1061 1062 1063 1063 1063 1063 1063 1063 1063 1065 1066 1066 1067 1067 1067 1068 1070 1071 1073 1073 1074 1075 1077 1082 1083 1088 1093 1093 1100 1101 1101 1101 1101 1101 1105 1105 1105 1106 1106 1106 1106 1106 1105 1103 1092 1090 1090 1090 1090 1098 1098 1098 1098 1098 1098 1098 1094 1094 1094 1094 1094 1094 1095 1098 1098 1099 1100 1100 1101 1102 1102 1102 1101 1101 1101 1100 1100 1100 1100 1100 1100 1100 1100 1100 1100 1100 1100 1101 1111 1127 1157 1234 1409 1785 2048 2125 2276 2337 2376 2382 2390 2397 2401 2401 2404 2411 2412 2414 2415 2417 2422 2435 2435 2435 2433 2423 2417 2411 2409 2397 2384 2371 2369 2331 2254 2224 2224 2155 2155 2158 2158 2158 2170 2182 2297 2373 2447 2477 2477 2477 2475 2475 2475 2475 2482 2482 2484 2492 2504 2508 2508 2508 2508 2501 2501 2501 2509 2509 2509 2510 2510 2511 2511 2511 2511 2508 2507 2504 2498 2493 2489 2489 2489 2489 2489 2489 2484 2480 2476 2475 2475 2475 2493 2501 2501 2501 2492 2491 2489 2451 2451 2451 2475 2477 2555 2640 2663 2675 2687 2687 2687 2674 2651 2612 2574 2506 2411 2057 2052 0 0 0 0 0 0 0 0 0 0 0 0 0 0 0 0 2037 2519 0
0 0 1046 1319 1319 1570 1697 1817 1883 1956 2241 2607 2788 2837 2872 2887 2891 2892 2893 2895 2895 2895 2890 2890 2890 2902 2905 2905 2907 2907 2904 2893 2882 2871 2860 2829 2801 2760 2724 2647 2517 2305 2088 1821 1555 1307 1305 1119 996 922 890 882 881 881 881 881 881 881 881 882 882 883 884 884 885 886 886 886 886 886 886 887 888 889 889 889 890 890 891 891 891 892 892 893 893 894 894 894 895 896 896 896 897 897 897 897 898 898 899 899 899 900 901 901 901 901 901 901 902 903 903 903 903 903 904 904 904 905 905 906 906 907 907 907 907 908 909 911 912 914 915 919 923 924 926 934 939 941 943 943 944 945 946 946 947 947 948 948 948 948 942 942 942 942 946 951 956 956 956 957 957 960 965 966 967 967 967 968 968 967 966 955 948 943 942 936 936 935 934 931 931 931 931 932 933 933 933 933 934 935 936 936 936 937 937 939 939 940 941 941 941 942 942 943 944 945 945 946 946 948 948 949 950 953 955 958 960 969 971 988 999 1007 1011 1017 1021 1021 1021 1017 1013 1013 1013 1013 1015 1016 1019 1021 1021 1022 1022 1024 1025 1025 1025 1025 1025 1025 1027 1027 1027 1023 1020 1015 1012 1010 1001 991 985 984 984 980 979 977 977 976 976 976 976 977 977 977 977 978 979 979 979 980 980 981 981 981 982 982 983 983 984 984 984 984 985 985 986 988 992 997 999 1002 1005 1006 1009 1009 1013 1018 1023 1025 1028 1031 1033 1033 1033 1029 1029 1029 1029 1029 1029 1028 1028 1027 1025 1025 1025 1026 1028 1028 1032 1032 1032 1031 1023 1021 1018 1016 1015 1011 1011 1011 1011 1011 1010 1010 1010 1010 1011 1013 1013 1013 1013 1013 1014 1015 1015 1016 1017 1018 1018 1020 1021 1023 1023 1024 1024 1026 1027 1027 1027 1027 1028 1031 1035 1039 1051 1051 1051 1051 1051 1056 1063 1064 1064 1064 1064 1064 1064 1064 1064 1064 1064 1063 1063 1063 1063 1063 1063 1061 1061 1061 1067 1072 1072 1072 1071 1064 1059 1058 1058 1055 1053 1053 1053 1054 1054 1055 1056 1056 1057 1058 1058 1058 1057 1057 1057 1058 1059 1060 1061 1063 1066 1066 1066 1067 1068 1069 1071 1071 1071 1073 1074 1080 1086 1091 1098 1098 1098 1098 1098 1098 1104 1105 1105 1104 1102 1100 1099 1099 1098 1092 1092 1090 1090 1089 1089 1089 1092 1094 1096 1094 1094 1094 1093 1091 1091 1091 1091 1092 1092 1094 1094 1095 1095 1095 1096 1096 1096 1097 1097 1096 1096 1096 1094 1094 1094 1095 1095 1096 1096 1097 1097 1098 1099 1099 1099 1106 1123 1158 1239 1399 1704 2064 2170 2280 2336 2370 2386 2396 2396 2398 2399 2401 2409 2411 2412 2412 2415 2425 2432 2432 2432 2426 2420 2413 2410 2404 2399 2396 2395 2389 2387 2363 2326 2289 2258 2170 2158 2158 2158 2101 2101 2182 2236 2339 2387 2424 2430 2445 2461 2462 2464 2468 2473 2488 2498 2498 2498 2498 2497 2491 2491 2491 2496 2505 2506 2507 2508 2508 2508 2506 2502 2499 2498 2495 2493 2488 2487 2487 2487 2487 2486 2486 2484 2480 2469 2467 2467 2467 2479 2490 2491 2492 2492 2491 2489 2481 2477 2475 2475 2477 2555 2623 2637 2657 2687 2687 2687 2674 2651 2615 2584 2564 2530 2458 2453 2136 0 0 0 0 0 0 0 0 0 0 0 0 0 0 0 0 2168 0
0 0 1075 1347 1347 1570 1697 1828 1891 1962 2267 2609 2791 2837 2872 2887 2890 2890 2890 2882 2879 2878 2874 2874 2874 2878 2887 2892 2897 2897 2897 2882 2864 2849 2838 2824 2783 2738 2635 2486 2365 2207 1948 1683 1407 1177 1176 1019 926 889 876 876 876 876 877 877 877 878 878 878 879 880 881 882 883 883 883 883 883 883 884 885 885 885 887 887 887 887 887 888 889 889 890 890 891 891 891 892 893 894 894 895 895 895 895 895 895 895 896 896 897 897 897 898 898 898 898 899 900 900 900 900 901 901 901 901 901 902 903 903 904 904 905 905 905 906 906 908 909 910 911 914 919 921 922 933 933 934 935 936 939 940 942 942 942 942 942 947 947 947 942 942 942 942 946 951 956 956 956 955 955 955 959 959 959 959 959 961 962 959 959 952 941 940 940 934 932 931 930 929 928 928 928 928 929 929 929 929 930 932 933 933 934 934 934 935 936 936 937 937 937 938 939 939 939 940 941 941 942 944 946 947 947 951 952 953 954 958 968 987 999 1006 1009 1014 1019 1019 1019 1014 1013 1013 1013 1013 1015 1019 1020 1021 1021 1022 1022 1023 1023 1023 1023 1023 1023 1023 1023 1023 1023 1022 1019 1015 1009 1005 997 988 982 980 980 977 976 975 974 973 973 973 973 973 973 973 974 975 975 976 976 977 977 977 977 978 978 978 979 980 980 980 981 981 982 983 984 985 987 988 992 998 1001 1004 1004 1005 1005 1012 1017 1019 1023 1025 1025 1025 1024 1024 1024 1024 1026 1027 1027 1027 1027 1026 1025 1024 1024 1023 1023 1023 1025 1028 1028 1028 1019 1018 1018 1014 1014 1010 1008 1008 1008 1007 1007 1007 1007 1007 1008 1010 1011 1011 1011 1011 1011 1011 1011 1012 1013 1013 1015 1016 1017 1018 1019 1019 1019 1020 1021 1022 1022 1022 1023 1023 1026 1029 1031 1042 1042 1042 1045 1053 1061 1061 1061 1060 1060 1060 1061 1061 1061 1059 1059 1059 1059 1061 1063 1063 1063 1061 1061 1061 1066 1066 1066 1064 1061 1056 1056 1055 1053 1051 1050 1049 1048 1048 1048 1049 1049 1049 1049 1051 1052 1052 1052 1052 1052 1053 1054 1054 1055 1056 1059 1060 1061 1061 1061 1063 1065 1066 1067 1068 1072 1073 1077 1089 1093 1093 1093 1092 1092 1092 1104 1104 1104 1101 1097 1097 1096 1096 1095 1092 1091 1090 1089 1089 1089 1089 1090 1092 1092 1093 1093 1093 1092 1090 1089 1089 1089 1089 1089 1090 1090 1090 1091 1091 1091 1091 1091 1091 1091 1091 1091 1091 1090 1089 1089 1089 1089 1090 1093 1094 1096 1096 1096 1095 1095 1095 1099 1118 1139 1212 1376 1673 2090 2191 2207 2329 2382 2391 2393 2393 2394 2401 2406 2406 2407 2409 2411 2416 2424 2424 2424 2423 2417 2413 2411 2408 2408 2408 2415 2415 2415 2411 2409 2405 2371 2291 2206 2182 2170 2101 2101 2101 2101 2123 2190 2247 2320 2373 2439 2448 2451 2452 2467 2478 2487 2487 2487 2485 2485 2483 2483 2483 2493 2497 2503 2505 2505 2505 2503 2499 2497 2495 2493 2489 2487 2487 2486 2486 2485 2485 2485 2484 2481 2474 2465 2465 2465 2465 2476 2476 2479 2481 2484 2484 2484 2481 2477 2477 2477 2477 2508 2578 2605 2614 2639 2674 2674 2674 2661 2629 2609 2603 2589 2566 2562 2483 2205 0 0 0 0 0 0 0 0 0 0 0 0 0 2037 0 2168 0
0 1058 1182 1364 1365 1586 1707 1829 1902 2083 2415 2613 2791 2837 2872 2887 2887 2887 2880 2866 2861 2861 2860 2851 2851 2851 2868 2872 2872 2872 2872 2863 2848 2833 2821 2803 2769 2711 2577 2405 2265 2045 1795 1510 1263 1067 1066 943 893 873 873 873 873 874 874 874 874 875 876 876 876 877 878 878 879 880 880 880 881 881 882 882 882 883 883 884 884 884 885 885 885 887 887 887 888 888 889 890 890 891 891 892 892 892 892 892 892 892 893 893 894 894 894 895 895 896 896 897 897 897 897 897 898 898 898 899 899 900 900 901 901 902 902 903 903 903 903 905 905 906 908 908 912 916 921 928 928 929 929 931 933 935 937 937 937 937 937 941 942 942 942 942 942 942 946 953 955 955 955 951 949 949 949 950 953 955 955 956 956 955 954 946 941 938 934 933 930 928 927 926 926 926 926 926 926 926 927 927 927 929 929 930 930 931 931 931 932 933 933 933 934 934 935 936 937 937 937 938 939 940 942 944 945 947 950 950 950 953 968 985 997 1001 1005 1008 1011 1011 1011 1011 1011 1011 1012 1013 1015 1019 1020 1021 1022 1023 1023 1023 1023 1022 1022 1022 1022 1022 1023 1023 1023 1021 1019 1012 1007 998 991 988 981 977 974 974 973 971 971 970 969 969 968 968 968 969 969 971 972 972 972 973 973 973 973 974 974 975 975 975 976 976 977 977 977 979 981 982 982 984 989 990 991 1000 1004 1004 1005 1008 1013 1016 1019 1019 1019 1018 1016 1016 1016 1019 1025 1025 1026 1026 1025 1024 1023 1022 1021 1021 1021 1021 1024 1027 1027 1027 1018 1018 1018 1013 1013 1009 1006 1006 1006 1004 1004 1003 1003 1003 1003 1006 1007 1007 1007 1008 1008 1008 1008 1009 1010 1010 1011 1012 1013 1014 1015 1015 1016 1016 1017 1018 1019 1019 1019 1019 1019 1025 1027 1034 1036 1037 1037 1046 1058 1058 1058 1058 1057 1057 1057 1057 1057 1057 1057 1057 1057 1058 1063 1063 1063 1061 1061 1061 1064 1064 1064 1061 1053 1053 1053 1053 1051 1048 1047 1046 1042 1042 1042 1042 1043 1044 1044 1046 1049 1049 1049 1049 1049 1050 1051 1051 1051 1052 1052 1053 1053 1054 1056 1059 1061 1061 1061 1061 1066 1071 1071 1075 1093 1093 1093 1089 1089 1089 1089 1089 1087 1087 1087 1093 1093 1093 1093 1091 1090 1090 1090 1089 1086 1084 1084 1084 1087 1091 1091 1091 1091 1088 1086 1086 1086 1086 1086 1087 1087 1087 1087 1087 1087 1086 1086 1086 1086 1086 1086 1085 1085 1085 1085 1085 1086 1087 1088 1090 1091 1092 1092 1092 1091 1089 1089 1089 1106 1135 1209 1372 1688 2080 2173 2252 2353 2371 2371 2372 2373 2387 2399 2399 2400 2403 2405 2412 2419 2422 2422 2422 2417 2413 2411 2408 2408 2408 2415 2415 2415 2411 2411 2410 2405 2382 2357 2348 2330 2200 2190 2101 2101 2120 2120 2120 2123 2212 2364 2428 2443 2451 2456 2468 2469 2469 2471 2474 2474 2474 2482 2482 2489 2491 2494 2502 2502 2502 2502 2497 2490 2489 2488 2487 2487 2487 2485 2484 2483 2482 2480 2480 2477 2471 2464 2464 2464 2465 2473 2473 2473 2474 2474 2474 2477 2477 2477 2474 2467 2467 2467 2474 2551 2570 2587 2620 2661 2661 2661 2629 2621 2617 2609 2596 2591 2586 2532 0 0 0 0 0 0 0 0 0 0 0 0 0 2072 2072 2168 0
1084 1084 1223 1389 1389 1586 1707 1829 1917 2165 2512 2731 2790 2830 2863 2875 2875 2875 2857 2847 2844 2843 2843 2843 2843 2846 2854 2854 2854 2852 2849 2848 2836 2822 2805 2749 2689 2632 2487 2319 2105 1885 1638 1360 1128 975 975 902 874 869 869 869 871 871 871 871 871 872 872 873 874 875 875 875 876 876 877 878 878 878 879 879 879 880 881 881 882 882 882 883 884 884 884 885 886 886 887 888 888 888 888 888 889 889 889 889 889 890 890 890 890 891 891 892 893 894 894 894 894 895 895 895 895 895 896 897 897 898 899 899 899 900 900 900 900 900 902 902 903 903 904 906 909 913 920 927 927 929 929 930 931 932 933 932 932 934 934 936 940 942 942 942 942 946 950 953 954 954 954 950 944 942 942 942 951 952 952 952 950 950 950 942 937 937 932 930 930 927 925 925 924 924 924 923 923 924 924 924 925 926 926 927 927 928 928 928 929 930 930 931 931 931 932 933 934 935 936 936 937 937 939 941 941 942 946 946 946 951 967 985 988 993 997 1001 1001 1002 1003 1004 1007 1011 1012 1013 1015 1019 1020 1020 1021 1021 1022 1022 1022 1022 1021 1020 1020 1020 1019 1019 1019 1019 1018 1009 999 987 987 984 978 973 972 970 969 969 967 967 967 965 965 965 965 965 966 967 968 968 968 968 968 969 969 970 970 971 971 971 972 972 973 973 975 976 977 978 979 982 986 987 989 999 1003 1004 1005 1006 1009 1011 1014 1014 1014 1014 1011 1011 1011 1018 1021 1024 1025 1025 1025 1023 1022 1020 1020 1020 1020 1021 1022 1025 1025 1025 1018 1018 1018 1013 1012 1009 1005 1003 1002 1001 999 999 999 999 999 1002 1003 1003 1004 1004 1004 1005 1005 1006 1006 1007 1007 1008 1008 1010 1010 1011 1011 1012 1013 1013 1014 1014 1014 1015 1015 1017 1023 1029 1030 1031 1031 1040 1053 1056 1056 1056 1055 1055 1055 1055 1055 1055 1056 1057 1057 1058 1061 1062 1062 1062 1062 1063 1062 1062 1061 1055 1053 1051 1051 1051 1050 1047 1045 1043 1038 1038 1038 1038 1038 1039 1040 1041 1043 1044 1044 1044 1045 1046 1047 1048 1048 1049 1049 1049 1049 1051 1051 1054 1056 1056 1057 1059 1062 1062 1063 1065 1065 1083 1085 1086 1086 1085 1085 1082 1082 1082 1082 1091 1092 1092 1092 1090 1090 1089 1089 1089 1085 1080 1080 1080 1084 1086 1087 1087 1087 1086 1085 1083 1083 1083 1082 1082 1082 1082 1082 1082 1082 1082 1082 1082 1082 1082 1081 1081 1081 1081 1081 1082 1082 1083 1083 1084 1084 1084 1084 1084 1084 1085 1085 1085 1090 1109 1135 1211 1371 1696 2079 2132 2275 2326 2359 2359 2360 2370 2380 2387 2389 2390 2396 2406 2414 2419 2419 2419 2416 2413 2411 2408 2408 2408 2415 2415 2415 2411 2411 2411 2414 2414 2414 2405 2401 2369 2319 2300 2190 2123 2120 2120 2123 2133 2176 2219 2346 2380 2392 2444 2456 2457 2458 2464 2465 2470 2476 2479 2482 2482 2484 2493 2493 2493 2493 2488 2484 2484 2482 2482 2484 2484 2484 2484 2482 2482 2480 2480 2477 2469 2464 2464 2464 2465 2469 2469 2469 2469 2468 2463 2463 2463 2466 2466 2466 2463 2463 2463 2468 2474 2504 2576 2661 2661 2661 2629 2621 2618 2617 2617 2614 2614 2539 2358 0 0 0 0 0 0 0 0 0 0 0 0 2255 2255 2255 0
1109 1109 1248 1450 1450 1586 1707 1817 1924 2253 2565 2731 2788 2808 2833 2847 2847 2847 2833 2823 2823 2823 2823 2824 2826 2844 2854 2854 2854 2835 2833 2826 2818 2809 2783 2719 2633 2549 2374 2179 1978 1725 1461 1229 1045 930 929 878 866 865 865 866 868 868 868 868 868 869 869 871 871 871 872 873 874 874 874 875 875 875 876 876 876 877 877 877 878 879 880 880 881 881 881 882 883 884 884 885 886 886 886 886 886 886 886 886 886 887 887 887 888 888 889 889 890 891 891 891 891 891 892 893 893 894 894 894 895 896 896 897 897 898 898 898 899 898 899 899 900 902 902 903 904 908 918 926 926 929 929 929 929 929 930 930 929 930 931 932 937 940 942 942 942 948 950 951 951 951 949 945 941 941 941 942 946 952 952 952 949 947 947 939 936 935 930 927 926 925 923 923 923 922 921 921 921 921 922 923 923 924 925 926 926 926 926 926 926 928 928 928 928 929 929 930 932 933 933 934 935 936 937 938 938 938 940 943 944 948 965 980 983 989 992 992 993 994 995 999 1002 1004 1007 1011 1013 1013 1015 1020 1020 1020 1020 1020 1020 1018 1017 1016 1016 1017 1017 1016 1017 1013 1013 1006 990 983 981 980 973 970 968 967 965 964 964 963 961 961 961 961 961 962 962 962 964 965 965 965 965 966 966 966 968 968 968 968 968 969 969 970 971 973 974 974 974 976 979 983 989 997 1003 1004 1004 1004 1006 1008 1012 1012 1012 1012 1010 1010 1010 1015 1019 1020 1021 1022 1022 1022 1020 1019 1018 1017 1017 1018 1018 1020 1020 1020 1018 1017 1015 1014 1009 1004 1001 997 996 995 995 995 995 995 995 997 998 999 1000 1000 1001 1002 1002 1002 1002 1002 1004 1004 1005 1006 1006 1008 1008 1008 1009 1009 1010 1011 1012 1012 1013 1016 1019 1026 1028 1029 1030 1037 1046 1051 1052 1052 1052 1052 1052 1052 1052 1052 1055 1056 1057 1058 1061 1062 1063 1066 1066 1066 1064 1059 1053 1051 1051 1049 1049 1049 1045 1042 1039 1039 1036 1035 1035 1035 1035 1036 1037 1038 1039 1040 1040 1040 1041 1041 1043 1043 1044 1045 1045 1045 1046 1047 1047 1049 1050 1051 1052 1053 1057 1060 1062 1063 1063 1080 1081 1085 1086 1085 1085 1082 1080 1080 1080 1084 1089 1089 1089 1090 1090 1089 1089 1089 1085 1079 1076 1076 1076 1081 1082 1083 1083 1083 1083 1082 1081 1081 1080 1080 1079 1079 1079 1078 1078 1078 1078 1078 1078 1078 1078 1078 1077 1077 1077 1078 1079 1079 1079 1078 1078 1078 1077 1077 1077 1079 1079 1084 1085 1087 1106 1151 1230 1377 1749 2084 2128 2249 2309 2347 2354 2362 2367 2374 2375 2383 2392 2396 2404 2413 2413 2413 2413 2411 2410 2408 2408 2408 2413 2413 2413 2409 2409 2409 2414 2414 2414 2407 2406 2406 2405 2400 2399 2358 2297 2176 2133 2133 2155 2161 2161 2219 2264 2341 2363 2424 2456 2460 2463 2464 2464 2464 2464 2467 2474 2477 2478 2478 2477 2477 2473 2472 2472 2472 2482 2484 2484 2484 2482 2482 2480 2480 2477 2469 2467 2466 2465 2466 2467 2467 2467 2467 2467 2457 2439 2439 2439 2448 2452 2456 2456 2461 2466 2468 2474 2501 2602 2608 2609 2612 2612 2617 2617 2617 2617 2617 2614 2527 2301 0 0 0 0 0 0 0 0 0 0 2349 2411 2411 2445 0
1125 1125 1249 1480 1482 1612 1707 1795 1924 2318 2566 2731 2768 2784 2803 2811 2811 2811 2808 2792 2792 2792 2802 2802 2813 2834 2840 2840 2840 2820 2817 2808 2800 2787 2762 2715 2603 2465 2244 2041 1817 1569 1315 1117 974 893 892 864 864 864 864 864 864 865 865 866 866 866 867 868 868 868 869 869 870 871 872 872 872 873 873 874 874 874 874 875 875 876 877 878 878 879 879 879 880 882 882 883 884 884 884 884 884 884 884 884 884 884 884 885 885 886 886 887 888 888 889 889 889 889 890 890 892 892 892 893 893 894 895 895 895 896 896 896 896 896 896 896 896 898 899 900 900 902 917 921 922 924 924 928 928 928 927 927 926 926 925 925 925 931 937 942 942 948 948 948 944 941 939 938 936 936 936 939 940 940 940 940 940 940 940 933 929 929 928 926 924 923 921 921 920 919 919 919 920 920 920 921 922 923 923 924 924 924 924 925 925 925 926 926 926 927 927 929 929 930 930 931 932 933 935 935 935 935 937 939 941 945 955 973 979 985 985 986 986 987 988 990 994 995 997 999 1000 1002 1006 1014 1018 1018 1018 1017 1013 1009 1009 1009 1010 1014 1014 1014 1009 1008 1008 1001 984 980 978 974 970 967 964 962 959 959 959 958 958 959 959 959 959 959 960 960 960 961 961 962 962 963 963 965 965 965 965 966 966 966 966 967 967 969 970 970 971 973 977 980 984 990 1003 1003 1003 1003 1003 1006 1010 1012 1012 1012 1010 1010 1010 1014 1014 1015 1018 1019 1019 1019 1017 1016 1015 1015 1013 1013 1013 1015 1018 1018 1018 1016 1015 1010 1006 1001 997 993 992 991 991 991 991 992 992 993 994 995 995 996 996 997 998 999 999 999 1000 1001 1001 1002 1002 1003 1004 1004 1004 1005 1005 1007 1008 1009 1009 1010 1015 1022 1028 1028 1030 1035 1040 1042 1044 1045 1047 1050 1050 1050 1051 1051 1053 1056 1059 1061 1061 1062 1063 1066 1066 1066 1064 1056 1047 1047 1047 1048 1048 1048 1044 1041 1037 1036 1034 1033 1033 1032 1032 1033 1034 1034 1035 1035 1036 1037 1037 1038 1038 1039 1040 1040 1041 1041 1041 1042 1043 1044 1045 1046 1046 1048 1051 1056 1058 1059 1062 1070 1075 1080 1085 1085 1085 1082 1074 1074 1074 1075 1082 1087 1088 1088 1088 1088 1088 1087 1083 1078 1072 1070 1070 1070 1075 1081 1081 1081 1080 1080 1080 1080 1080 1078 1076 1076 1075 1075 1075 1075 1074 1073 1073 1073 1073 1073 1073 1073 1073 1073 1075 1075 1075 1074 1073 1072 1071 1070 1069 1069 1069 1076 1076 1079 1087 1116 1142 1224 1421 1902 2106 2155 2272 2319 2349 2358 2363 2364 2365 2370 2379 2386 2395 2406 2406 2408 2408 2408 2408 2408 2408 2408 2408 2409 2409 2408 2408 2409 2414 2414 2414 2407 2406 2406 2407 2410 2410 2410 2397 2324 2234 2219 2176 2161 2161 2161 2155 2161 2224 2241 2349 2366 2367 2420 2447 2447 2449 2449 2456 2459 2460 2461 2461 2464 2465 2465 2468 2468 2470 2482 2482 2482 2481 2479 2479 2479 2476 2469 2468 2467 2466 2465 2462 2462 2460 2460 2460 2444 2437 2435 2435 2435 2438 2441 2449 2461 2466 2466 2466 2466 2466 2491 2527 2560 2577 2594 2608 2614 2617 2618 2617 2617 2508 2330 0 0 0 0 0 0 0 0 2380 2436 2464 2464 2471 0
1125 1125 1251 1481 1483 1614 1707 1794 1935 2360 2584 2715 2747 2766 2781 2790 2790 2790 2789 2781 2781 2781 2781 2783 2794 2819 2819 2819 2819 2803 2800 2795 2781 2761 2740 2681 2540 2363 2152 1904 1676 1416 1179 1027 921 869 869 863 863 862 862 862 862 862 862 862 863 864 865 865 865 866 866 867 868 868 869 869 870 870 870 871 871 871 871 872 873 874 874 875 875 876 876 877 879 880 881 881 882 882 882 882 882 882 881 882 882 882 882 882 883 883 884 884 885 885 886 886 886 887 888 889 889 890 891 891 892 892 893 893 893 894 894 894 894 894 894 894 894 895 896 899 899 902 909 909 910 910 915 920 921 921 921 921 921 921 916 916 916 920 927 934 942 945 945 945 937 932 928 928 928 932 933 934 934 934 933 934 934 933 930 930 927 926 925 922 920 920 919 919 918 918 918 918 919 919 920 920 921 922 922 923 923 923 923 923 924 923 924 924 924 924 925 927 928 928 928 929 931 932 932 933 933 933 934 936 938 942 952 969 978 978 978 979 979 979 982 984 986 987 987 988 989 989 996 1004 1008 1008 1008 1007 1005 1003 1000 1000 1000 1003 1003 1003 1000 999 998 991 983 975 971 968 967 964 960 957 955 955 955 955 956 956 957 957 957 958 958 958 958 958 959 959 960 960 960 961 961 962 962 963 964 964 964 964 965 967 967 968 969 972 975 978 982 990 1001 1001 1002 1003 1003 1006 1010 1011 1011 1011 1010 1010 1010 1010 1011 1013 1013 1014 1015 1015 1015 1013 1013 1013 1012 1010 1010 1010 1016 1016 1016 1016 1010 1002 997 995 993 991 990 989 989 988 989 989 989 990 991 991 992 993 993 994 995 995 996 996 997 997 997 998 998 999 999 1000 1000 1000 1000 1001 1004 1004 1004 1005 1007 1014 1024 1028 1030 1035 1037 1037 1037 1039 1043 1049 1049 1049 1050 1050 1050 1056 1059 1060 1061 1062 1062 1066 1066 1066 1064 1055 1047 1047 1047 1045 1045 1043 1040 1038 1035 1032 1032 1030 1029 1029 1029 1029 1030 1030 1030 1031 1032 1032 1033 1033 1034 1035 1036 1036 1036 1037 1037 1038 1038 1039 1041 1041 1043 1044 1044 1047 1048 1049 1054 1064 1070 1071 1084 1095 1095 1095 1087 1076 1074 1074 1074 1080 1083 1083 1085 1085 1085 1082 1079 1076 1069 1069 1069 1070 1075 1081 1081 1081 1078 1078 1077 1076 1075 1074 1073 1073 1072 1071 1071 1071 1070 1068 1068 1068 1068 1068 1068 1068 1068 1068 1068 1069 1069 1069 1069 1069 1069 1068 1068 1066 1066 1066 1073 1074 1075 1076 1096 1150 1260 1470 1916 2110 2200 2279 2336 2357 2357 2358 2363 2363 2368 2377 2381 2385 2393 2399 2401 2405 2405 2405 2404 2404 2399 2399 2399 2402 2405 2406 2407 2407 2407 2406 2404 2404 2404 2410 2410 2410 2407 2406 2360 2320 2286 2220 2220 2161 2155 2161 2141 2141 2158 2158 2158 2246 2387 2387 2408 2437 2445 2447 2448 2449 2451 2451 2454 2459 2459 2465 2466 2470 2479 2479 2481 2479 2479 2479 2476 2471 2468 2467 2466 2462 2449 2447 2445 2444 2442 2440 2437 2435 2435 2435 2438 2441 2448 2461 2466 2466 2466 2441 2429 2429 2429 2443 2521 2561 2577 2585 2589 2599 2617 2617 2617 2502 2367 0 0 0 0 0 2239 2243 2442 2480 2480 2480 2476 0
1138 1138 1285 1498 1500 1618 1706 1788 1935 2360 2586 2715 2747 2766 2780 2789 2789 2789 2787 2780 2780 2780 2781 2783 2791 2815 2816 2816 2816 2801 2797 2795 2780 2761 2739 2681 2539 2362 2151 1903 1675 1414 1178 1025 920 869 868 862 861 861 861 860 860 860 860 861 861 862 862 863 863 863 864 865 866 866 866 867 868 868 868 868 868 868 870 870 871 871 871 872 873 873 874 874 875 877 877 879 880 880 880 880 880 880 878 878 878 879 879 879 880 881 882 882 883 884 884 884 884 884 886 887 888 889 889 889 890 890 891 891 891 892 892 892 892 892 892 892 892 893 894 894 897 897 897 899 899 899 904 906 911 912 913 914 914 914 914 910 909 909 909 917 923 927 927 927 924 920 920 920 924 926 926 926 927 926 926 929 929 926 926 926 926 925 922 919 918 917 917 917 917 917 918 918 918 919 920 920 921 921 921 921 922 923 923 923 923 923 923 923 923 924 924 925 926 927 928 928 928 930 930 931 931 932 933 935 937 942 949 963 975 975 975 972 972 972 980 981 984 984 984 983 983 983 987 988 991 992 992 995 995 995 995 994 994 994 994 994 993 992 991 984 982 972 967 964 963 960 957 954 953 953 953 953 953 953 954 954 956 956 956 956 956 956 956 957 958 959 959 959 959 959 959 960 962 962 962 962 963 964 964 966 968 970 973 975 980 989 1000 1001 1002 1003 1003 1006 1010 1010 1010 1010 1010 1010 1010 1010 1010 1011 1010 1010 1010 1010 1010 1010 1011 1010 1010 1008 1008 1008 1014 1016 1016 1016 1008 1001 995 989 989 989 988 986 986 986 986 986 986 986 988 989 990 991 991 992 992 992 993 994 995 995 995 995 995 996 997 997 997 997 997 997 998 998 999 1000 1001 1004 1012 1023 1030 1034 1034 1035 1035 1037 1042 1048 1048 1048 1047 1047 1047 1048 1059 1059 1060 1061 1061 1063 1063 1063 1059 1053 1046 1046 1046 1045 1045 1042 1037 1033 1030 1028 1025 1025 1025 1025 1025 1025 1025 1026 1026 1027 1027 1029 1029 1029 1030 1031 1032 1032 1032 1033 1033 1034 1034 1035 1037 1038 1039 1040 1042 1043 1045 1045 1049 1060 1065 1065 1083 1098 1098 1098 1089 1076 1071 1071 1071 1072 1073 1074 1077 1077 1077 1073 1073 1071 1069 1069 1069 1070 1074 1076 1076 1076 1076 1072 1072 1071 1071 1070 1069 1068 1068 1067 1067 1066 1066 1065 1065 1064 1064 1064 1065 1065 1065 1065 1065 1065 1066 1066 1066 1067 1067 1067 1067 1065 1065 1065 1066 1066 1070 1070 1074 1112 1168 1278 1545 1922 2086 2139 2271 2345 2356 2356 2361 2361 2362 2372 2379 2382 2383 2389 2393 2398 2398 2398 2398 2398 2391 2391 2391 2395 2397 2398 2400 2401 2402 2403 2403 2404 2404 2409 2409 2409 2407 2407 2405 2401 2371 2351 2303 2267 2224 2206 2141 2141 2142 2142 2142 2145 2152 2169 2183 2323 2372 2403 2413 2419 2432 2443 2447 2450 2452 2452 2452 2452 2459 2477 2477 2477 2477 2475 2475 2472 2468 2466 2463 2451 2435 2420 2420 2420 2426 2434 2434 2435 2435 2435 2438 2441 2448 2457 2466 2466 2466 2440 2429 2429 2429 2442 2519 2560 2576 2584 2588 2597 2617 2617 2617 2503 2367 0 0 0 0 0 2239 2243 2443 2480 2480 2480 2479 0
1154 1154 1331 1513 1515 1621 1701 1775 2042 2442 2623 2715 2747 2766 2780 2789 2789 2789 2781 2780 2780 2780 2781 2783 2786 2804 2804 2804 2794 2791 2786 2779 2751 2711 2668 2553 2404 2271 2034 1788 1523 1302 1076 939 882 860 860 859 859 858 858 858 858 857 857 858 859 859 859 859 860 860 862 862 863 863 864 864 865 865 865 866 866 866 867 867 867 869 869 870 871 871 872 872 874 875 875 876 879 879 879 879 879 878 877 877 877 877 878 878 878 879 879 881 881 882 882 882 882 882 884 885 886 887 887 888 888 889 889 890 890 890 890 890 890 890 890 890 890 890 891 891 891 894 894 894 895 898 900 900 900 900 901 903 904 904 904 903 900 900 900 907 913 915 918 918 918 919 919 918 918 917 911 911 911 915 917 917 918 919 919 920 920 920 920 917 916 916 916 916 916 916 917 918 918 918 919 920 920 921 921 921 921 921 921 921 921 921 921 921 921 922 923 923 923 924 925 925 926 927 928 929 930 930 931 932 935 939 949 955 958 960 965 968 968 972 975 980 983 983 983 981 981 981 980 980 980 975 973 973 973 973 973 975 976 980 988 988 988 985 980 978 976 968 963 960 959 954 952 950 950 950 950 951 951 952 952 953 954 954 955 955 955 955 955 955 955 956 956 957 957 957 957 957 958 959 959 960 961 961 963 963 966 966 968 970 976 988 995 998 1000 1000 1003 1004 1010 1010 1010 1010 1010 1010 1010 1010 1010 1009 1008 1007 1007 1006 1006 1006 1008 1008 1008 1008 1008 1008 1012 1012 1012 1012 1005 1000 992 988 986 984 982 982 982 982 982 982 983 984 985 987 988 988 989 989 990 990 990 992 992 992 992 992 993 993 994 994 995 995 995 996 997 997 997 997 1000 1004 1005 1016 1028 1031 1031 1033 1033 1034 1040 1045 1047 1047 1047 1045 1045 1045 1058 1058 1058 1060 1059 1058 1058 1054 1049 1047 1045 1045 1045 1045 1045 1041 1035 1032 1027 1024 1021 1021 1021 1021 1021 1021 1021 1021 1022 1023 1024 1025 1025 1026 1027 1027 1028 1028 1028 1029 1030 1031 1031 1032 1033 1034 1036 1036 1036 1037 1039 1041 1042 1046 1057 1064 1076 1098 1098 1098 1089 1076 1068 1067 1067 1067 1067 1068 1068 1066 1065 1065 1065 1066 1069 1069 1069 1070 1074 1075 1075 1075 1074 1070 1070 1068 1068 1068 1067 1064 1064 1064 1064 1064 1062 1062 1061 1060 1060 1060 1061 1061 1062 1062 1062 1062 1062 1062 1063 1063 1063 1063 1063 1063 1063 1063 1065 1065 1066 1066 1068 1079 1113 1161 1275 1509 1886 2116 2119 2274 2348 2353 2356 2360 2362 2372 2377 2380 2381 2383 2387 2389 2390 2390 2389 2388 2383 2383 2383 2385 2385 2387 2387 2390 2395 2397 2399 2403 2403 2404 2404 2407 2407 2407 2405 2401 2391 2381 2365 2352 2346 2339 2312 2206 2145 2142 2142 2145 2152 2169 2181 2321 2370 2400 2410 2416 2429 2440 2445 2447 2448 2448 2449 2449 2456 2476 2476 2476 2476 2474 2474 2472 2468 2466 2460 2449 2433 2417 2417 2417 2424 2434 2434 2434 2434 2434 2437 2441 2447 2455 2466 2466 2466 2439 2429 2420 2403 2403 2403 2502 2537 2544 2546 2562 2606 2606 2606 2542 2512 2249 0 0 0 2047 2243 2362 2493 2493 2493 2480 2479 0
1237 1237 1375 1526 1528 1627 1701 1775 2120 2509 2674 2738 2755 2771 2780 2789 2789 2789 2781 2780 2780 2780 2783 2785 2785 2796 2796 2796 2781 2771 2770 2751 2708 2667 2596 2480 2345 2120 1863 1609 1384 1176 994 897 858 851 851 851 855 855 855 855 855 855 855 855 855 856 857 857 858 858 859 860 860 861 861 861 862 862 862 863 863 863 863 864 865 866 867 868 869 869 869 870 870 872 873 874 875 876 877 878 878 878 877 877 877 877 877 878 878 878 878 879 881 881 881 881 881 881 882 883 884 885 886 886 887 887 887 888 888 888 888 888 888 888 888 888 888 888 888 888 888 890 891 891 894 895 896 896 896 897 898 898 900 900 900 900 896 896 896 903 909 912 914 914 914 915 915 913 913 913 907 907 907 911 913 914 914 916 916 917 917 917 917 916 915 915 915 915 915 916 917 918 918 919 919 920 920 920 921 921 920 920 919 919 919 919 919 919 920 920 921 922 922 922 923 924 925 927 928 928 929 929 929 932 933 938 942 942 942 942 943 963 965 968 970 975 979 979 979 979 979 979 979 979 974 971 967 967 967 968 969 970 971 974 983 983 983 980 976 975 973 966 960 959 957 951 948 948 948 948 948 948 949 950 950 950 951 953 953 953 953 953 953 953 954 955 955 955 955 955 956 957 957 957 958 958 959 960 961 962 962 963 966 966 967 977 990 997 997 998 1003 1003 1006 1006 1006 1003 1003 1003 1003 1003 1002 999 999 999 999 1000 1001 1001 1003 1003 1003 1007 1007 1007 1009 1009 1009 1006 1001 997 991 982 980 979 979 979 979 979 979 979 980 981 983 984 984 986 987 988 988 988 988 989 989 990 990 990 991 991 992 992 992 993 993 993 995 996 996 996 999 1002 1003 1008 1019 1027 1027 1027 1027 1027 1032 1038 1042 1042 1042 1044 1044 1044 1054 1054 1054 1053 1052 1052 1051 1046 1043 1041 1038 1038 1038 1038 1038 1037 1031 1026 1020 1019 1018 1018 1018 1017 1017 1017 1017 1018 1018 1019 1021 1021 1021 1022 1023 1023 1024 1025 1026 1027 1027 1027 1028 1028 1029 1030 1031 1031 1032 1032 1032 1034 1036 1036 1041 1048 1059 1080 1089 1089 1089 1068 1064 1064 1061 1061 1061 1061 1061 1061 1060 1060 1060 1062 1064 1066 1069 1070 1073 1073 1073 1073 1073 1069 1067 1064 1061 1061 1059 1060 1060 1060 1060 1060 1058 1056 1056 1056 1056 1056 1056 1058 1059 1059 1059 1059 1059 1059 1059 1059 1059 1059 1059 1059 1060 1061 1063 1063 1063 1064 1065 1065 1080 1105 1153 1253 1445 1857 2103 2125 2285 2330 2352 2356 2361 2369 2373 2376 2378 2381 2385 2385 2385 2385 2380 2376 2376 2376 2377 2379 2380 2383 2383 2388 2394 2396 2398 2401 2401 2402 2402 2405 2405 2405 2405 2401 2391 2381 2368 2353 2348 2341 2316 2209 2145 2145 2145 2145 2152 2152 2169 2181 2300 2318 2327 2357 2367 2378 2423 2423 2430 2433 2433 2433 2442 2454 2466 2466 2466 2466 2463 2461 2461 2452 2441 2429 2416 2410 2410 2410 2423 2434 2434 2434 2434 2434 2437 2437 2437 2427 2427 2427 2429 2429 2429 2419 2402 2381 2381 2381 2482 2502 2505 2547 2589 2589 2589 2542 2512 2383 2182 0 0 2076 2243 2376 2494 2494 2494 2481 2481 0
1257 1257 1430 1534 1536 1627 1701 1788 2209 2563 2723 2769 2775 2785 2791 2791 2791 2789 2781 2781 2781 2784 2784 2784 2785 2786 2786 2786 2768 2750 2748 2720 2689 2662 2596 2369 2173 1959 1668 1441 1227 1034 928 871 850 847 847 847 850 852 852 852 852 852 852 853 853 853 854 854 855 856 857 857 857 857 858 858 858 858 859 859 859 860 861 861 862 863 864 865 865 866 866 868 870 871 871 872 873 874 876 876 876 876 876 876 876 877 877 877 877 877 877 877 878 878 879 880 880 880 880 881 882 883 883 884 884 885 885 885 885 885 885 885 886 886 886 886 886 885 885 885 884 884 884 884 887 887 887 887 888 888 889 889 891 893 893 893 891 891 891 892 893 896 898 899 899 900 900 899 899 897 897 897 899 901 901 901 902 904 908 911 914 914 914 914 914 914 914 915 915 916 917 918 918 919 919 920 920 920 921 921 920 920 919 919 919 919 919 919 920 920 920 921 921 921 923 923 924 926 927 927 928 929 929 931 931 935 939 939 939 939 939 940 940 941 943 946 949 951 955 959 961 961 961 956 956 956 956 959 960 960 960 953 953 953 958 958 958 952 948 948 948 956 956 956 952 946 946 945 945 944 944 944 945 945 946 948 949 950 951 951 952 952 952 952 953 953 953 953 954 955 955 956 956 957 957 958 958 959 960 960 960 961 963 963 964 968 976 992 994 994 996 998 999 999 999 996 996 996 995 995 983 978 978 978 980 983 985 985 985 985 985 985 990 994 994 994 994 993 993 993 982 976 975 975 975 975 975 975 975 976 978 979 980 981 983 984 985 986 986 986 986 986 987 987 988 989 989 989 990 990 990 990 991 991 992 994 994 994 996 996 997 1002 1017 1026 1026 1026 1021 1021 1021 1029 1032 1033 1035 1036 1036 1043 1047 1047 1047 1047 1046 1045 1042 1040 1036 1034 1031 1031 1031 1030 1030 1029 1025 1022 1016 1016 1015 1014 1013 1013 1012 1012 1013 1013 1014 1016 1017 1017 1018 1018 1019 1019 1021 1022 1023 1023 1023 1024 1024 1025 1025 1025 1026 1027 1027 1027 1027 1027 1029 1029 1029 1032 1037 1051 1059 1064 1064 1064 1059 1059 1058 1057 1054 1054 1054 1054 1056 1058 1058 1060 1060 1062 1066 1066 1066 1063 1063 1063 1066 1066 1066 1063 1061 1059 1058 1058 1054 1054 1054 1053 1053 1053 1051 1051 1051 1052 1053 1054 1056 1057 1057 1057 1056 1056 1055 1055 1055 1055 1055 1055 1056 1056 1058 1058 1058 1058 1058 1058 1065 1084 1107 1140 1228 1407 1748 2077 2161 2243 2351 2356 2360 2368 2371 2375 2376 2380 2383 2383 2383 2383 2379 2375 2375 2375 2376 2377 2377 2378 2378 2379 2384 2389 2393 2393 2393 2393 2393 2393 2393 2395 2395 2395 2391 2381 2381 2381 2383 2383 2383 2371 2347 2334 2333 2200 2199 2185 2185 2200 2251 2251 2251 2211 2211 2211 2303 2308 2315 2331 2345 2382 2435 2440 2441 2444 2442 2443 2444 2443 2442 2441 2432 2420 2410 2410 2410 2410 2423 2428 2431 2431 2432 2431 2429 2428 2424 2415 2408 2408 2408 2416 2416 2416 2399 2365 2365 2365 2379 2439 2440 2491 2491 2521 2521 2512 2484 2450 2366 2104 2104 2104 2368 2396 2461 2474 2488 2474 2474 0
1280 1280 1456 1561 1562 1630 1701 1831 2346 2611 2744 2777 2783 2791 2793 2793 2791 2789 2781 2781 2781 2784 2784 2784 2783 2778 2778 2768 2753 2733 2731 2696 2672 2620 2439 2200 1996 1748 1502 1277 1083 955 880 852 850 847 847 847 847 848 849 849 850 850 850 850 850 851 851 852 852 853 853 853 854 854 854 854 854 855 855 855 857 857 858 859 859 860 862 862 862 863 865 866 868 871 871 871 872 874 874 874 874 874 874 875 876 876 877 877 877 876 876 876 876 877 877 877 877 877 877 880 881 882 882 882 883 884 884 884 884 884 884 884 885 885 885 885 883 881 881 881 881 882 882 884 884 884 884 884 884 885 885 885 886 886 886 886 886 886 886 886 886 886 886 887 890 891 891 891 891 891 892 893 896 896 896 897 898 899 906 907 907 908 911 911 913 914 914 915 916 918 918 918 919 919 920 920 920 920 921 921 920 920 919 919 919 919 919 919 920 920 920 920 921 921 921 922 924 926 927 927 928 928 928 928 928 929 930 930 932 932 931 933 933 933 933 934 934 935 936 936 936 939 939 941 941 941 944 944 944 942 940 939 939 939 939 939 939 939 939 939 939 941 946 946 946 943 943 943 944 944 944 944 945 945 945 946 947 948 948 949 950 950 951 951 952 952 952 952 952 953 953 954 955 956 956 957 957 957 958 958 958 958 960 961 964 966 966 970 970 971 971 974 979 985 985 985 985 985 983 981 974 971 970 970 969 970 970 970 970 971 971 972 974 975 975 975 974 974 973 973 972 971 971 971 971 973 974 974 974 975 976 978 980 981 983 984 984 985 985 984 984 984 984 984 984 986 986 986 987 988 988 988 988 989 989 990 990 992 994 995 995 997 1006 1010 1014 1014 1014 1010 1007 1007 1007 1012 1015 1017 1018 1027 1029 1029 1029 1029 1029 1029 1032 1032 1032 1028 1028 1027 1027 1026 1025 1023 1020 1020 1016 1014 1013 1011 1009 1009 1009 1009 1009 1009 1011 1012 1013 1014 1015 1015 1015 1016 1017 1019 1019 1020 1020 1020 1020 1021 1021 1021 1021 1023 1023 1023 1023 1023 1024 1025 1026 1026 1028 1032 1032 1046 1058 1058 1058 1057 1056 1048 1048 1048 1049 1049 1049 1053 1056 1057 1058 1059 1062 1062 1062 1054 1054 1054 1058 1058 1058 1057 1057 1057 1057 1057 1051 1048 1048 1047 1047 1048 1048 1048 1048 1049 1050 1050 1052 1053 1053 1053 1052 1052 1052 1052 1052 1052 1052 1052 1052 1052 1054 1057 1057 1057 1057 1057 1064 1083 1106 1139 1228 1403 1748 2076 2158 2239 2308 2346 2356 2359 2366 2370 2373 2378 2378 2378 2377 2374 2370 2369 2369 2369 2371 2374 2374 2375 2377 2377 2377 2382 2389 2389 2389 2385 2383 2382 2382 2382 2378 2378 2378 2374 2374 2374 2383 2384 2384 2384 2381 2375 2373 2361 2338 2290 2251 2251 2251 2251 2251 2198 2178 2164 2142 2134 2134 2134 2164 2187 2355 2356 2365 2375 2400 2403 2439 2439 2439 2435 2422 2411 2405 2405 2405 2416 2422 2424 2426 2426 2426 2416 2414 2414 2412 2408 2408 2408 2408 2405 2404 2404 2396 2365 2365 2365 2375 2426 2426 2426 2412 2390 2389 2389 2389 2389 2389 2257 2257 2257 2368 2445 2451 2452 2474 2452 2474 0
1295 1295 1476 1575 1576 1643 1814 2023 2415 2632 2745 2779 2790 2791 2793 2793 2791 2789 2787 2784 2784 2784 2784 2784 2782 2776 2762 2754 2737 2711 2710 2658 2581 2443 2279 2109 1883 1635 1373 1158 1001 898 854 847 845 845 844 844 845 846 846 847 847 848 848 848 848 848 849 849 849 850 850 850 850 851 851 851 851 852 852 852 853 854 855 856 857 857 859 859 860 861 863 864 865 865 868 870 871 873 874 874 874 873 873 872 872 872 872 873 874 874 874 874 875 875 875 874 874 874 874 877 878 879 880 880 880 881 882 883 883 883 882 882 882 882 880 880 880 878 878 878 878 878 879 880 880 880 879 879 879 881 882 882 882 882 882 882 882 882 883 883 883 885 885 885 886 887 887 887 887 887 887 889 891 891 892 893 893 898 900 901 903 907 908 909 911 913 914 915 920 922 922 922 922 922 922 922 923 923 923 922 921 920 919 919 919 919 919 919 919 920 920 920 920 921 921 921 923 925 926 927 927 928 927 927 926 924 924 924 922 921 921 921 920 919 918 918 918 920 921 922 923 928 930 931 931 931 930 928 926 925 925 925 929 929 931 931 931 930 930 930 930 930 934 935 936 936 938 942 944 944 944 944 945 945 945 945 946 947 948 949 949 949 949 950 950 950 951 951 952 953 953 954 955 956 956 956 957 957 958 958 958 958 958 959 960 960 960 960 960 960 960 961 964 964 965 966 966 967 967 967 965 964 963 963 963 965 966 966 966 966 966 969 971 971 971 968 966 965 965 966 967 967 969 969 969 970 972 972 972 975 976 978 980 981 983 984 984 984 984 984 983 982 982 982 983 983 983 984 985 985 986 986 986 987 987 989 990 992 992 994 995 995 1005 1008 1009 1009 1009 1006 1002 1002 1002 1004 1006 1006 1006 1006 1006 1007 1008 1009 1010 1013 1017 1021 1024 1024 1024 1020 1020 1019 1018 1018 1016 1012 1008 1004 1004 1004 1004 1005 1005 1005 1005 1004 1004 1004 1008 1011 1011 1011 1012 1013 1013 1014 1015 1017 1017 1017 1018 1018 1018 1018 1018 1019 1020 1020 1020 1022 1022 1023 1024 1026 1026 1027 1027 1034 1046 1053 1053 1053 1052 1047 1047 1046 1046 1046 1047 1048 1049 1050 1053 1057 1058 1058 1058 1048 1048 1048 1051 1051 1051 1051 1050 1050 1050 1048 1045 1042 1042 1042 1042 1042 1043 1044 1045 1045 1046 1046 1047 1048 1049 1049 1049 1049 1049 1049 1049 1049 1049 1049 1050 1050 1051 1052 1052 1052 1051 1051 1051 1063 1067 1082 1118 1197 1359 1631 2054 2152 2190 2289 2351 2354 2360 2363 2364 2371 2371 2371 2370 2365 2364 2364 2364 2367 2370 2374 2374 2374 2373 2373 2373 2376 2379 2381 2381 2381 2381 2378 2373 2367 2364 2364 2364 2365 2366 2371 2383 2384 2384 2384 2381 2375 2373 2361 2354 2354 2350 2354 2327 2285 2253 2198 2178 2164 2142 2134 2134 2113 2094 2089 2089 2089 2114 2158 2272 2274 2348 2371 2392 2392 2392 2390 2390 2390 2405 2416 2421 2422 2422 2421 2420 2408 2400 2400 2400 2409 2409 2409 2401 2401 2399 2398 2387 2380 2361 2357 2357 2361 2389 2389 2389 2382 2334 2334 2334 2370 2370 2399 2399 2409 2413 2446 2446 2447 2474 2447 2474 0
1361 1361 1492 1588 1589 1666 1814 2060 2442 2637 2748 2782 2782 2784 2788 2788 2787 2787 2787 2784 2782 2782 2781 2781 2781 2775 2748 2731 2709 2685 2683 2602 2451 2344 2197 1949 1730 1462 1232 1058 924 865 846 840 840 840 841 841 842 843 844 844 844 844 845 845 845 845 845 846 846 846 846 847 847 848 848 848 848 849 849 849 849 850 852 854 854 855 856 857 858 859 859 862 862 864 868 869 870 873 873 873 873 871 870 869 869 869 871 872 872 872 872 872 872 872 873 873 873 873 874 875 876 876 877 877 879 880 882 883 883 883 881 879 879 879 878 877 877 873 873 873 873 873 873 873 873 873 874 876 877 879 879 879 879 879 879 879 879 879 880 880 880 881 881 882 882 882 882 883 883 884 884 884 887 888 888 889 891 894 894 896 901 907 907 908 912 914 915 918 921 922 923 923 923 924 925 925 925 925 926 926 926 925 922 921 921 920 920 920 920 920 920 920 920 921 921 921 921 922 925 925 926 926 926 925 924 920 918 918 916 914 913 913 913 912 912 912 915 916 918 919 920 921 921 922 922 922 921 920 920 920 921 921 921 921 921 922 924 925 925 926 927 928 929 929 930 930 935 941 944 944 944 944 945 945 945 946 946 947 948 948 948 949 949 950 950 950 950 950 952 953 953 954 955 956 956 956 956 957 957 957 958 958 958 959 959 959 959 958 958 958 959 961 961 961 955 955 955 954 954 954 953 953 953 955 956 957 958 958 958 958 959 960 962 962 962 961 961 961 961 961 961 962 963 963 965 966 969 969 970 975 976 978 980 981 983 983 983 983 983 983 983 982 982 982 982 982 982 983 983 984 985 985 986 987 987 989 990 991 991 992 993 993 998 998 998 992 990 986 986 986 990 992 993 993 993 993 993 994 993 993 994 998 998 1001 1003 1003 1003 1003 1002 1001 1000 1000 998 997 996 996 996 999 1001 1001 1001 1001 1001 1001 1001 1001 1002 1005 1008 1008 1009 1010 1011 1012 1013 1013 1013 1013 1014 1014 1014 1015 1015 1016 1016 1016 1017 1017 1019 1020 1022 1023 1024 1027 1027 1028 1036 1049 1051 1051 1051 1045 1043 1039 1037 1034 1034 1034 1037 1038 1038 1040 1040 1041 1041 1041 1041 1042 1043 1044 1046 1046 1046 1046 1044 1044 1041 1041 1040 1039 1039 1039 1039 1040 1041 1042 1043 1043 1044 1045 1045 1045 1045 1045 1045 1046 1046 1046 1046 1046 1047 1047 1047 1048 1048 1048 1046 1046 1046 1048 1048 1061 1074 1100 1181 1328 1620 2018 2105 2166 2302 2319 2342 2350 2351 2351 2350 2348 2348 2348 2357 2360 2363 2363 2364 2366 2370 2370 2370 2366 2366 2366 2368 2370 2372 2376 2376 2376 2372 2363 2357 2354 2354 2354 2364 2371 2382 2384 2384 2384 2381 2375 2373 2361 2354 2354 2354 2359 2359 2359 2318 2249 2178 2164 2142 2134 2134 2113 2094 2089 2089 2089 2089 2089 2081 2081 2081 2135 2274 2347 2347 2351 2367 2384 2405 2413 2415 2416 2415 2415 2415 2399 2389 2389 2389 2409 2409 2409 2398 2389 2388 2387 2387 2387 2368 2361 2361 2361 2361 2361 2361 2358 2330 2330 2330 2350 2370 2385 2399 2409 2413 2446 2446 2447 2474 2447 2478 0
1391 1391 1521 1619 1620 1708 1819 2079 2498 2650 2750 2785 2785 2785 2779 2779 2779 2784 2784 2784 2782 2781 2778 2777 2776 2770 2744 2714 2690 2665 2663 2532 2364 2229 2006 1786 1518 1265 1070 925 869 848 838 837 837 837 838 838 840 840 840 840 841 841 841 842 842 842 842 843 843 843 844 844 845 845 845 845 846 846 846 846 847 847 848 850 851 852 853 854 856 857 858 859 861 863 866 868 868 868 867 866 866 866 866 867 867 867 867 867 868 870 870 871 871 871 871 870 870 870 870 872 874 874 874 874 878 880 881 881 881 880 878 878 877 876 875 874 873 871 871 870 870 870 870 870 871 872 872 872 873 874 874 874 874 874 874 874 875 875 876 876 876 876 876 876 876 877 879 879 879 880 880 881 882 883 883 885 888 891 892 892 897 900 901 905 912 914 915 918 921 922 923 923 925 926 926 926 926 926 927 927 927 925 924 922 921 920 920 919 919 919 919 919 919 920 920 920 921 921 922 926 926 926 922 921 918 916 914 912 911 911 911 910 910 911 911 912 914 915 915 915 915 916 917 917 917 917 916 915 915 915 915 915 915 915 915 916 919 920 922 923 924 924 924 924 924 926 933 941 944 944 945 947 947 947 947 947 947 947 949 949 949 949 949 950 950 950 950 950 952 953 953 954 954 955 956 956 957 958 958 958 958 958 958 958 958 954 954 954 954 954 956 956 956 956 955 952 949 949 949 949 950 950 950 950 951 952 952 952 952 954 954 954 954 953 952 952 952 952 953 953 954 956 956 957 957 960 966 969 969 975 977 979 981 982 983 984 984 984 983 983 982 982 982 982 982 982 982 982 983 983 984 985 986 987 987 989 990 991 991 992 992 992 989 989 983 983 983 983 985 985 985 985 983 983 983 983 984 984 985 985 985 986 987 989 989 990 993 993 993 993 995 995 995 995 995 995 995 997 998 998 998 998 999 999 999 1001 1002 1004 1005 1006 1007 1008 1010 1010 1010 1010 1011 1011 1011 1012 1012 1013 1013 1014 1014 1014 1014 1014 1015 1015 1017 1020 1024 1027 1027 1028 1034 1034 1044 1044 1044 1035 1034 1034 1034 1033 1031 1031 1031 1033 1035 1035 1035 1033 1033 1033 1035 1038 1039 1039 1039 1040 1040 1040 1041 1040 1038 1038 1037 1035 1035 1035 1036 1037 1037 1037 1037 1038 1039 1039 1039 1040 1041 1041 1041 1041 1042 1043 1043 1043 1044 1044 1044 1044 1042 1041 1040 1039 1039 1039 1040 1043 1049 1061 1092 1150 1267 1595 2003 2073 2158 2256 2303 2331 2339 2339 2339 2339 2341 2343 2348 2349 2356 2358 2358 2361 2367 2367 2367 2358 2356 2356 2356 2358 2359 2363 2363 2363 2358 2356 2355 2352 2352 2352 2354 2363 2369 2371 2371 2371 2371 2369 2367 2356 2354 2354 2354 2359 2359 2359 2336 2305 2286 2278 2273 2226 2210 2202 2166 2089 2089 2089 2089 2089 2081 2081 2081 2081 2082 2106 2106 2130 2151 2182 2222 2266 2297 2317 2318 2326 2366 2372 2374 2375 2375 2409 2409 2409 2397 2376 2376 2376 2376 2376 2376 2373 2361 2357 2357 2355 2353 2347 2330 2297 2297 2297 2318 2370 2385 2409 2413 2446 2446 2447 2472 2447 2485 0
1395 1395 1537 1662 1662 1750 1835 2171 2515 2673 2745 2782 2782 2782 2777 2775 2775 2775 2782 2782 2782 2775 2769 2767 2765 2757 2732 2706 2660 2547 2546 2456 2319 2096 1895 1616 1347 1127 964 880 854 839 835 833 833 833 834 834 835 836 837 837 837 838 838 838 839 839 839 840 840 841 841 842 842 842 842 842 843 843 843 843 844 845 845 847 848 849 850 851 852 855 857 857 861 862 865 865 865 865 862 862 860 860 860 861 861 861 860 860 860 866 869 869 869 868 866 866 866 866 867 870 872 872 873 873 875 878 878 878 878 876 875 874 874 874 871 869 868 867 867 867 867 867 868 868 868 868 869 869 870 870 870 870 871 871 871 872 872 872 872 872 873 873 873 873 873 875 875 876 876 876 877 878 879 879 881 881 883 887 889 890 890 894 898 905 912 914 915 918 921 922 923 923 925 926 926 926 926 926 927 927 927 925 924 923 921 920 920 919 918 918 918 918 918 919 919 920 920 921 922 924 924 924 920 916 915 914 913 909 907 907 907 907 906 906 906 907 907 908 909 909 910 912 912 912 911 910 910 910 910 912 912 912 912 912 913 913 916 917 918 919 919 920 921 921 921 922 929 940 944 945 951 953 953 953 952 951 951 951 951 951 950 950 950 950 950 950 950 950 952 953 953 954 954 956 956 957 958 958 958 958 958 958 957 957 957 952 949 949 949 949 949 950 950 950 949 947 947 947 947 948 948 948 948 946 945 945 945 945 946 948 948 948 947 946 946 946 946 947 948 949 950 950 951 952 953 954 958 959 969 975 979 982 983 984 984 984 984 984 982 982 982 982 982 982 982 982 982 982 982 982 984 985 986 987 988 989 990 991 991 991 992 990 988 986 981 981 981 981 981 981 980 978 977 977 978 979 981 981 982 982 982 983 984 984 984 986 986 986 987 987 987 988 988 988 988 988 990 991 991 994 995 996 997 997 999 999 1002 1003 1004 1004 1005 1006 1007 1008 1010 1010 1010 1009 1009 1009 1009 1011 1012 1012 1012 1012 1012 1012 1013 1014 1016 1018 1023 1026 1026 1026 1027 1027 1027 1027 1024 1024 1024 1024 1024 1024 1024 1024 1025 1025 1026 1027 1027 1027 1028 1028 1032 1034 1034 1035 1035 1036 1036 1036 1037 1035 1033 1033 1032 1031 1031 1031 1031 1032 1032 1032 1032 1033 1034 1034 1035 1035 1035 1035 1036 1036 1036 1036 1037 1038 1039 1039 1039 1039 1038 1036 1035 1035 1035 1036 1038 1039 1039 1052 1059 1077 1134 1253 1581 1981 2044 2161 2246 2291 2319 2326 2328 2331 2331 2335 2335 2336 2344 2349 2350 2352 2356 2356 2356 2349 2347 2347 2347 2347 2348 2350 2350 2350 2350 2350 2348 2348 2350 2351 2351 2355 2359 2359 2360 2361 2361 2361 2361 2355 2354 2354 2354 2357 2357 2357 2350 2349 2349 2343 2342 2342 2342 2326 2324 2315 2228 2190 2132 2101 2081 2081 2081 2081 2082 2106 2106 2130 2151 2153 2176 2186 2187 2192 2194 2211 2230 2244 2247 2274 2326 2344 2360 2368 2368 2368 2368 2368 2372 2373 2373 2373 2361 2357 2356 2347 2340 2338 2330 2297 2292 2292 2292 2350 2385 2407 2410 2435 2455 2469 2473 2473 2480 0
1428 1428 1569 1688 1688 1789 1891 2329 2539 2680 2745 2782 2782 2782 2776 2765 2762 2762 2763 2763 2763 2763 2763 2759 2754 2743 2719 2679 2579 2450 2448 2333 2201 1995 1703 1425 1204 1020 913 861 837 832 831 830 830 830 830 831 832 832 833 834 834 834 834 835 836 836 837 837 838 838 838 839 839 840 840 840 840 840 840 840 841 842 842 843 845 846 846 849 850 851 852 854 860 862 863 863 863 863 862 862 860 860 860 859 858 856 856 856 857 863 864 864 864 861 861 861 861 863 866 869 872 872 872 872 873 875 875 875 875 873 871 871 869 868 866 864 863 863 863 864 864 864 864 866 866 866 866 866 866 866 867 867 868 869 869 869 869 870 870 870 870 870 870 870 870 871 872 872 872 873 874 874 875 876 877 879 880 883 886 887 887 888 894 905 909 910 912 915 917 919 920 922 925 926 926 926 926 926 926 926 926 925 924 923 922 921 920 918 915 915 915 916 916 917 919 919 920 921 922 924 924 924 919 915 912 911 911 906 905 905 903 903 903 903 902 902 902 903 905 906 907 907 907 906 906 906 906 906 907 907 907 908 908 909 909 911 912 914 915 915 915 917 917 918 918 921 927 941 945 945 951 953 953 953 952 951 951 951 952 952 952 950 950 950 950 950 950 950 951 952 952 953 953 956 956 957 958 958 958 958 957 957 956 956 955 952 944 944 944 944 945 945 945 945 943 943 943 943 943 940 940 940 940 940 940 940 940 940 940 942 943 943 943 942 942 942 942 943 944 944 945 946 947 948 950 953 957 958 968 975 979 982 983 984 984 983 983 982 982 981 981 981 981 981 981 981 980 980 980 980 983 985 986 987 988 989 990 991 991 991 988 983 982 981 980 980 979 975 975 975 973 973 973 974 974 974 975 976 977 978 980 980 981 981 981 981 981 982 982 983 983 983 983 984 984 984 984 984 985 989 991 992 994 994 994 999 1001 1002 1002 1002 1002 1003 1007 1008 1010 1010 1010 1009 1009 1008 1008 1009 1011 1011 1011 1011 1012 1012 1012 1013 1014 1017 1022 1022 1022 1024 1021 1020 1020 1015 1015 1015 1017 1019 1019 1019 1019 1018 1018 1018 1023 1023 1024 1025 1025 1025 1026 1028 1028 1028 1026 1026 1025 1025 1025 1026 1026 1026 1026 1027 1027 1027 1027 1028 1028 1028 1029 1029 1029 1030 1030 1030 1030 1030 1031 1031 1032 1033 1033 1033 1033 1033 1034 1034 1034 1033 1033 1033 1033 1035 1035 1036 1037 1038 1045 1054 1070 1124 1237 1535 1994 2044 2172 2243 2286 2312 2313 2315 2315 2319 2324 2326 2332 2336 2337 2339 2341 2342 2342 2342 2341 2340 2339 2339 2339 2340 2340 2340 2340 2340 2343 2347 2348 2348 2350 2351 2352 2352 2355 2355 2355 2355 2355 2351 2345 2345 2345 2351 2353 2354 2354 2353 2353 2353 2350 2342 2342 2342 2342 2342 2342 2321 2307 2289 2254 2251 2169 2129 2106 2106 2106 2130 2151 2153 2176 2186 2187 2192 2192 2192 2188 2144 2140 2088 2088 2088 2213 2225 2227 2246 2271 2327 2354 2369 2369 2369 2361 2357 2356 2342 2337 2334 2330 2297 2277 2277 2277 2314 2376 2407 2410 2431 2455 2469 2472 2472 2472 0
1434 1434 1574 1688 1688 1789 1896 2346 2561 2686 2738 2779 2779 2779 2776 2765 2762 2751 2748 2748 2746 2747 2747 2746 2744 2729 2703 2676 2555 2390 2387 2241 2070 1811 1530 1279 1075 949 875 840 829 827 827 827 827 827 828 829 829 830 830 831 831 831 831 832 833 834 834 834 835 835 836 836 837 837 838 838 838 838 838 838 838 838 840 841 842 843 843 845 847 848 848 852 859 860 860 861 862 862 862 862 860 860 859 859 858 854 854 854 854 857 857 858 859 858 858 859 859 861 863 866 868 870 870 871 871 872 872 872 872 869 868 866 861 861 861 860 860 860 860 860 861 861 862 862 862 863 863 863 864 864 864 865 866 866 866 866 867 867 867 867 867 867 867 867 867 868 868 869 869 870 870 871 872 873 875 876 877 880 882 884 886 887 889 906 908 908 909 911 914 916 917 919 921 922 922 923 923 923 923 923 924 923 923 923 922 921 920 918 915 915 915 916 916 917 919 919 920 921 921 922 922 922 917 911 909 909 907 904 902 902 901 901 900 900 900 900 900 900 901 902 902 902 902 902 902 902 902 903 904 904 904 904 904 905 907 907 908 910 910 911 912 914 914 914 914 917 927 941 944 945 951 953 953 953 952 951 951 951 952 952 952 950 950 950 949 949 949 949 949 949 950 951 953 955 956 957 958 958 958 958 956 954 953 950 949 947 942 939 939 939 939 939 939 938 937 936 936 936 935 935 935 935 935 935 935 935 936 936 937 937 939 939 939 939 939 938 938 938 939 939 940 942 944 944 945 946 946 947 948 969 979 982 982 982 981 981 980 980 979 979 979 979 980 980 980 980 979 978 978 978 978 981 986 986 986 986 986 985 983 981 980 980 980 980 978 977 976 972 969 969 969 969 969 970 970 970 970 971 974 976 976 977 977 978 978 978 978 978 978 978 978 979 979 979 980 980 980 981 981 983 986 987 987 988 993 998 999 1000 1000 1000 1000 1001 1004 1005 1006 1006 1008 1008 1008 1008 1007 1007 1006 1006 1005 1005 1004 1004 1004 1006 1010 1015 1018 1018 1020 1020 1018 1016 1015 1014 1014 1015 1015 1016 1016 1016 1016 1015 1015 1015 1016 1018 1019 1019 1019 1019 1020 1021 1021 1021 1020 1020 1020 1020 1020 1020 1020 1021 1022 1022 1023 1023 1023 1023 1023 1024 1025 1026 1026 1026 1026 1026 1026 1027 1027 1027 1028 1029 1029 1029 1029 1029 1029 1030 1031 1031 1031 1031 1031 1031 1032 1032 1034 1037 1038 1041 1047 1068 1121 1238 1504 2007 2048 2180 2235 2270 2305 2308 2309 2311 2318 2320 2321 2324 2325 2326 2332 2337 2339 2339 2339 2334 2334 2334 2334 2339 2339 2339 2338 2338 2338 2340 2343 2345 2347 2351 2351 2351 2351 2351 2351 2351 2351 2347 2339 2339 2339 2342 2352 2353 2353 2353 2353 2353 2350 2342 2342 2342 2343 2343 2346 2343 2343 2343 2341 2336 2328 2298 2254 2230 2209 2170 2170 2170 2176 2186 2187 2192 2192 2192 2188 2144 2140 2084 2084 2084 2178 2178 2178 2124 2124 2124 2223 2239 2242 2245 2245 2245 2250 2258 2300 2300 2300 2293 2270 2270 2270 2302 2353 2389 2391 2423 2450 2469 2473 2473 2480 0
1447 1447 1574 1688 1688 1794 1899 2347 2566 2692 2737 2763 2768 2768 2768 2765 2762 2751 2728 2726 2725 2725 2725 2725 2722 2707 2672 2643 2494 2293 2289 2116 1898 1659 1379 1151 988 885 849 829 824 824 824 824 825 826 826 826 826 827 828 828 829 829 829 829 830 831 831 832 833 833 833 834 834 835 835 835 835 835 835 835 835 836 836 838 840 841 841 842 844 846 847 851 857 858 858 859 861 862 862 862 862 861 860 859 858 853 851 851 851 854 856 856 856 856 856 856 856 857 857 860 863 866 867 868 869 870 870 870 869 867 862 859 856 856 856 856 857 857 857 857 857 857 858 858 858 859 860 860 861 861 862 862 862 863 863 863 863 863 863 863 863 864 864 864 864 865 865 866 866 867 868 869 869 870 872 872 874 876 879 882 884 885 889 906 906 906 906 906 908 909 909 911 916 917 917 918 920 921 922 922 923 923 923 922 922 921 919 917 914 912 912 912 913 914 915 918 919 919 919 919 915 913 912 908 905 904 903 900 899 898 898 898 897 897 897 897 897 897 898 899 899 899 899 899 899 899 900 901 901 902 902 902 902 903 903 905 905 906 906 907 909 910 910 910 911 913 925 936 936 936 940 940 944 946 947 949 950 950 950 950 950 950 949 948 948 948 947 945 945 945 947 949 951 954 955 957 958 958 958 956 956 950 949 947 947 945 941 937 936 936 936 934 933 933 932 932 932 932 931 931 931 931 931 931 931 932 932 932 932 932 933 934 935 935 935 935 935 935 935 936 937 938 939 940 940 940 942 943 944 960 975 978 978 979 979 979 979 979 977 976 976 976 977 978 978 978 978 978 977 977 977 978 982 982 983 983 982 982 980 977 977 977 977 977 974 972 970 968 966 965 964 964 964 966 966 966 966 966 967 969 972 972 972 972 972 972 972 973 973 973 973 973 974 975 976 977 977 977 977 978 980 984 984 985 990 997 997 998 998 998 998 1000 1003 1003 1003 1004 1004 1006 1007 1007 1007 1005 1005 1005 1005 1005 1003 1003 1003 1005 1010 1013 1016 1016 1018 1018 1015 1014 1013 1012 1012 1012 1012 1013 1013 1013 1013 1012 1012 1012 1013 1015 1015 1015 1014 1014 1014 1015 1016 1016 1016 1016 1016 1015 1014 1012 1012 1012 1015 1017 1019 1019 1019 1020 1020 1021 1022 1022 1022 1022 1023 1023 1023 1023 1023 1023 1024 1025 1025 1025 1025 1025 1025 1025 1025 1025 1027 1029 1029 1029 1029 1028 1028 1028 1029 1031 1041 1052 1069 1117 1223 1484 1977 2018 2172 2230 2269 2301 2302 2307 2314 2315 2316 2317 2317 2320 2326 2330 2332 2332 2332 2328 2327 2327 2327 2335 2335 2335 2334 2333 2333 2333 2336 2340 2343 2346 2348 2348 2348 2348 2347 2347 2346 2340 2335 2335 2335 2336 2341 2351 2353 2353 2353 2350 2345 2325 2325 2325 2335 2343 2343 2343 2343 2343 2341 2336 2329 2329 2329 2337 2337 2337 2332 2320 2300 2255 2235 2230 2222 2209 2188 2144 2140 2084 2084 2084 2178 2178 2178 2124 2113 2112 2104 2077 2036 2005 1999 1999 1999 2025 2065 2140 2217 2217 2229 2250 2250 2280 2349 2382 2382 2419 2425 2427 2449 2449 2454 0
1451 1451 1574 1669 1671 1809 2016 2369 2595 2702 2734 2754 2755 2756 2761 2761 2761 2749 2727 2718 2716 2707 2697 2696 2690 2655 2594 2489 2378 2222 2218 2006 1789 1487 1240 1042 906 850 833 822 822 821 821 821 822 822 822 824 824 824 825 826 826 826 826 827 827 828 828 830 830 831 831 831 832 832 832 832 832 832 832 832 833 833 834 835 836 838 839 840 841 843 846 850 853 855 858 859 860 862 863 863 863 863 860 859 857 851 850 850 850 852 854 854 854 855 854 853 853 853 853 853 855 859 862 863 864 865 865 865 865 864 858 857 856 855 855 855 855 855 854 854 854 855 855 856 856 856 856 857 857 858 858 859 859 860 860 860 860 860 860 861 861 861 861 861 861 862 862 863 863 863 865 865 866 867 868 869 870 873 875 878 879 885 889 904 904 904 904 904 905 905 906 909 911 911 911 913 915 920 922 922 923 923 923 922 921 920 918 916 912 910 908 907 907 907 910 914 915 916 916 915 909 908 907 905 902 900 899 896 896 896 895 895 894 894 894 894 895 895 895 895 895 895 896 896 896 896 897 897 897 898 899 899 900 900 901 901 902 902 903 903 904 906 907 908 909 912 921 932 932 932 932 932 935 936 940 940 944 947 948 948 948 947 946 946 946 945 943 942 942 942 944 947 949 952 952 953 954 954 954 954 951 948 947 945 943 943 940 936 935 933 932 930 930 929 929 929 928 928 927 927 927 927 926 926 927 927 928 928 928 928 928 930 931 932 932 932 933 933 933 934 935 935 936 936 936 937 939 939 939 957 969 972 973 975 975 977 977 977 977 975 973 973 973 974 974 974 973 973 973 973 974 975 978 978 978 978 977 977 975 973 973 973 973 972 971 970 968 964 962 961 961 961 961 961 962 962 963 963 963 963 964 966 966 966 966 966 966 968 968 969 969 969 969 970 971 972 973 973 974 975 978 980 982 982 988 993 994 995 996 996 997 999 999 999 999 999 999 1002 1005 1005 1005 1002 1002 1002 1003 1003 1003 1003 1003 1005 1008 1012 1014 1015 1015 1015 1015 1012 1012 1012 1010 1009 1009 1009 1009 1009 1008 1008 1008 1008 1009 1009 1010 1011 1011 1011 1011 1011 1011 1011 1011 1011 1011 1010 1010 1010 1010 1011 1013 1014 1015 1015 1015 1015 1017 1017 1018 1018 1018 1019 1019 1019 1019 1019 1019 1020 1020 1020 1021 1021 1022 1022 1022 1021 1021 1021 1021 1021 1021 1022 1022 1022 1023 1023 1023 1024 1030 1038 1051 1072 1116 1219 1463 1977 2018 2154 2206 2266 2266 2300 2308 2312 2314 2314 2314 2315 2318 2321 2322 2322 2322 2321 2321 2321 2324 2330 2330 2330 2329 2329 2329 2331 2332 2336 2340 2342 2344 2345 2345 2345 2342 2339 2338 2333 2333 2333 2333 2334 2336 2339 2342 2343 2343 2343 2340 2324 2324 2324 2327 2335 2343 2343 2343 2343 2341 2336 2329 2329 2329 2338 2338 2338 2332 2332 2332 2337 2357 2372 2372 2372 2352 2300 2297 2216 2213 2213 2178 2178 2178 2124 2113 2112 2104 2077 2036 2005 1999 1999 1991 1987 1975 1975 0 0 1942 1985 1991 1991 2027 2040 2042 2116 2200 2222 2261 2261 2371 0
1456 1456 1574 1669 1671 1809 2055 2432 2615 2702 2727 2740 2743 2748 2760 2760 2760 2746 2726 2711 2696 2684 2670 2660 2644 2587 2497 2393 2260 2050 2045 1842 1611 1321 1096 940 866 835 821 821 821 821 821 821 821 821 821 821 821 822 822 823 824 824 824 824 824 825 826 827 827 828 828 829 829 830 830 830 830 830 830 830 831 831 832 832 834 836 836 838 839 842 844 846 848 850 852 855 858 862 863 863 863 863 860 856 854 851 849 849 849 851 852 852 852 853 853 851 848 848 848 848 851 856 858 858 860 860 861 861 861 860 855 855 854 853 853 852 852 851 851 851 851 851 853 853 853 853 853 854 855 855 855 856 856 856 857 857 857 858 858 858 858 858 858 858 859 859 859 859 860 861 862 863 864 864 866 867 867 870 872 872 878 883 889 901 901 901 901 901 902 902 906 909 909 909 910 910 915 919 921 922 922 922 922 921 920 919 918 915 911 908 904 901 901 901 906 911 913 913 913 910 904 904 902 900 898 896 896 894 893 892 892 891 891 891 891 891 891 892 892 892 892 892 892 892 893 893 893 893 894 894 895 896 896 898 899 899 899 899 899 900 900 902 904 904 906 908 913 917 924 924 924 932 932 932 933 933 935 945 946 946 946 944 944 943 943 943 940 938 938 938 941 943 946 947 947 948 948 948 948 948 947 947 945 944 938 938 936 935 932 930 928 927 927 926 925 925 924 924 923 923 923 923 923 923 923 923 924 924 924 924 924 925 927 927 928 928 929 929 930 930 931 932 933 934 934 934 935 936 936 951 968 968 968 968 968 974 976 976 976 973 972 969 969 969 969 969 966 966 966 969 972 973 973 973 973 972 972 972 971 971 970 970 970 970 970 967 964 961 959 958 957 957 957 957 957 958 958 958 958 958 958 960 961 961 961 961 963 963 965 965 965 965 965 965 966 968 969 969 970 971 974 974 975 977 979 980 990 991 992 993 994 994 994 994 994 994 994 997 1002 1002 1002 998 998 998 1000 1000 1001 1001 1002 1005 1007 1010 1014 1015 1015 1015 1011 1011 1010 1010 1008 1007 1006 1005 1005 1004 1003 1003 1003 1004 1005 1006 1008 1009 1009 1009 1008 1007 1007 1007 1007 1007 1007 1006 1006 1006 1007 1008 1010 1011 1011 1012 1012 1012 1012 1014 1015 1015 1015 1015 1015 1015 1015 1015 1016 1016 1017 1017 1018 1018 1018 1018 1018 1017 1017 1017 1017 1017 1017 1017 1018 1018 1018 1018 1018 1022 1022 1025 1036 1049 1068 1120 1246 1525 2018 2045 2136 2203 2205 2252 2297 2308 2310 2310 2310 2309 2308 2306 2306 2306 2307 2310 2311 2315 2315 2317 2317 2318 2319 2320 2329 2331 2332 2335 2337 2338 2340 2344 2344 2344 2337 2336 2331 2330 2330 2330 2332 2334 2335 2335 2336 2336 2336 2336 2333 2322 2312 2312 2312 2325 2331 2331 2331 2326 2324 2324 2324 2328 2329 2338 2338 2338 2332 2332 2332 2337 2357 2372 2372 2372 2352 2344 2344 2337 2333 2307 2300 2285 2271 2218 2113 2112 2105 2077 2036 2005 1999 1999 1991 1987 1975 1975 1975 1941 1942 1985 1991 1965 1965 1965 1965 1965 1967 1997 2037 2037 2079 0
1506 1506 1574 1669 1671 1861 2187 2432 2615 2702 2718 2733 2739 2746 2759 2759 2759 2741 2703 2690 2673 2646 2632 2613 2589 2528 2447 2359 2159 1929 1924 1655 1418 1164 982 891 847 826 819 819 819 819 819 818 818 818 818 818 819 819 820 820 820 821 821 821 821 822 824 824 824 825 825 826 826 826 827 827 828 828 828 828 828 829 829 830 831 833 835 836 838 839 841 842 843 845 846 848 851 858 863 863 863 863 860 855 850 849 848 848 848 848 848 848 848 848 848 848 845 845 845 847 850 854 854 855 856 856 857 857 857 855 851 851 851 851 850 849 849 849 848 848 848 849 849 850 850 850 850 851 852 852 852 852 852 853 853 854 854 855 855 855 856 856 856 856 856 856 857 857 857 858 859 860 861 861 863 864 865 867 869 872 877 883 888 895 899 900 900 901 901 902 904 909 909 909 909 909 914 918 921 922 922 922 921 919 919 919 917 914 911 906 900 896 896 896 903 907 910 910 910 906 902 901 897 896 894 894 893 891 890 889 889 888 888 888 888 888 888 888 888 888 888 888 890 890 890 890 890 890 890 891 891 892 892 894 895 895 895 896 896 896 898 899 901 901 902 903 910 916 918 924 924 929 929 929 929 929 933 943 943 943 943 940 940 940 940 940 940 938 938 938 939 940 943 943 943 942 942 942 941 941 942 942 941 941 937 937 934 934 930 927 925 923 923 923 922 922 921 921 919 919 919 920 920 920 920 920 921 921 921 921 921 922 922 923 923 924 925 925 926 927 927 928 929 929 930 930 930 932 936 949 962 962 962 962 962 967 972 973 973 973 969 965 965 965 965 965 962 962 962 966 968 968 969 969 969 969 969 969 968 968 968 968 968 968 968 963 961 958 957 955 954 954 954 954 954 953 954 954 954 954 954 955 956 956 957 957 957 958 958 960 960 961 961 961 962 962 963 964 964 967 969 969 969 970 974 980 986 986 986 987 989 989 989 987 987 987 989 993 996 996 996 993 993 993 995 995 995 998 1001 1004 1006 1008 1011 1013 1013 1013 1011 1010 1008 1004 1004 1004 1003 1003 1001 1000 999 999 999 1000 1002 1002 1004 1005 1005 1005 1004 1003 1003 1003 1003 1004 1004 1004 1004 1004 1004 1007 1007 1008 1008 1008 1008 1009 1009 1009 1011 1011 1012 1012 1012 1012 1012 1012 1012 1013 1013 1013 1014 1014 1014 1014 1014 1013 1013 1013 1013 1014 1014 1014 1015 1015 1016 1016 1016 1019 1020 1020 1022 1029 1041 1068 1140 1290 1586 2041 2078 2138 2140 2183 2234 2243 2245 2273 2293 2293 2293 2292 2290 2290 2290 2295 2302 2305 2305 2305 2305 2305 2310 2318 2327 2328 2332 2333 2333 2335 2336 2343 2343 2343 2334 2332 2329 2328 2328 2329 2330 2333 2333 2333 2332 2332 2329 2328 2328 2317 2311 2311 2311 2314 2318 2318 2318 2314 2314 2314 2318 2322 2329 2335 2335 2335 2329 2329 2329 2337 2357 2372 2372 2372 2352 2344 2344 2338 2338 2338 2337 2332 2331 2307 2252 2224 2222 2219 2185 2161 2159 2155 2148 2089 1975 1975 1975 1941 1942 1985 1991 1965 1965 1965 1965 1965 1967 1997 2037 2037 2079 0
1525 1525 1614 1727 1728 1930 2211 2432 2615 2692 2705 2725 2734 2734 2734 2723 2718 2701 2687 2671 2648 2624 2606 2573 2529 2446 2337 2180 1974 1728 1726 1458 1227 1037 916 853 824 818 815 815 814 814 815 815 815 816 816 816 816 816 817 817 817 818 818 818 819 819 821 821 822 823 823 823 823 824 825 825 825 825 825 826 826 827 827 828 828 831 834 836 836 836 837 838 839 840 842 844 846 850 856 857 858 858 858 853 850 848 847 847 846 846 846 844 844 844 842 842 844 844 844 845 849 851 851 851 851 851 853 853 853 849 845 845 845 845 845 846 846 846 846 846 846 846 846 847 847 848 848 848 849 849 849 850 850 850 850 851 851 852 852 853 853 853 853 854 854 854 855 855 855 856 857 858 858 858 860 861 863 865 867 871 876 883 886 893 897 900 900 900 900 902 906 908 908 908 908 908 910 915 918 920 920 920 918 918 917 917 915 912 910 906 900 894 894 894 898 904 904 904 904 901 899 897 894 893 892 891 890 888 887 886 885 885 884 884 884 884 885 885 885 885 886 886 886 887 887 887 887 888 888 888 888 888 888 890 891 892 892 892 892 893 895 895 897 899 899 903 910 914 915 922 927 929 929 929 929 929 932 939 939 939 938 936 936 936 938 938 938 937 935 935 935 938 941 941 941 939 938 937 937 938 938 940 940 940 933 933 931 930 925 922 921 920 920 919 919 918 918 917 916 916 916 917 917 917 917 917 918 918 918 918 919 919 919 919 920 920 921 922 923 923 924 924 925 925 926 926 927 927 929 936 956 956 956 955 955 955 960 964 964 964 963 962 962 962 962 962 962 962 962 962 962 960 960 960 963 965 965 965 965 965 965 966 966 966 965 962 958 957 955 953 951 951 950 950 950 950 950 950 950 951 951 952 952 952 952 953 954 954 954 955 955 956 956 957 957 957 959 959 960 961 965 966 966 967 968 973 978 979 980 982 983 985 985 985 985 985 985 987 987 987 987 986 986 986 987 987 989 994 999 1002 1004 1006 1007 1008 1008 1008 1008 1008 1007 1001 999 998 997 997 997 996 995 995 995 996 998 999 1000 1003 1003 1003 1000 999 999 999 999 1000 1000 1000 1000 1000 1002 1003 1004 1004 1004 1004 1004 1004 1005 1005 1006 1007 1007 1008 1008 1008 1008 1008 1009 1010 1010 1010 1010 1010 1010 1010 1010 1010 1010 1010 1010 1011 1011 1012 1012 1012 1013 1013 1015 1015 1015 1013 1013 1013 1020 1033 1063 1150 1334 1626 2068 2087 2088 2128 2172 2203 2212 2213 2222 2239 2258 2268 2270 2271 2276 2286 2290 2293 2294 2295 2296 2297 2300 2315 2324 2328 2328 2328 2330 2331 2334 2340 2340 2340 2332 2331 2324 2324 2324 2326 2326 2328 2328 2328 2328 2324 2324 2324 2322 2315 2311 2309 2309 2309 2315 2315 2315 2309 2309 2309 2313 2317 2317 2317 2324 2326 2326 2326 2326 2327 2336 2351 2351 2351 2341 2341 2341 2338 2338 2343 2338 2337 2336 2333 2320 2293 2293 2285 2285 2285 2285 2285 2287 2287 2287 2274 2256 2225 2151 2109 2070 2015 2006 1965 1965 1965 1967 1997 2037 2037 2079 0
1535 1535 1622 1745 1746 1994 2257 2442 2615 2661 2670 2672 2673 2685 2688 2688 2685 2682 2669 2654 2633 2618 2590 2558 2493 2369 2158 1993 1812 1597 1586 1296 1081 947 860 822 809 809 809 809 809 810 810 811 812 812 813 813 814 814 814 815 815 815 815 816 817 818 818 819 820 820 820 821 821 821 822 823 823 823 823 823 823 824 824 826 828 828 829 830 831 832 832 832 834 837 838 840 844 847 850 850 851 851 851 850 849 847 845 845 845 844 844 843 838 838 838 840 841 841 841 844 846 847 847 847 847 847 848 848 848 846 844 843 843 843 843 843 843 843 844 844 843 844 844 844 845 846 846 846 846 846 846 847 847 848 849 849 849 849 849 849 850 851 851 851 851 851 852 852 853 853 854 855 855 856 857 859 860 862 864 868 874 879 884 888 894 898 898 899 899 902 906 906 906 906 906 906 907 911 914 915 915 915 915 914 912 910 908 907 906 905 899 892 892 892 894 898 898 898 898 898 896 895 892 891 889 886 885 885 883 882 882 881 881 881 881 881 881 881 881 882 883 883 883 883 884 884 884 885 885 885 885 885 886 886 886 887 888 888 888 890 891 892 893 895 897 902 906 908 912 922 928 929 929 929 929 929 931 935 935 935 935 933 933 933 935 937 937 937 933 933 933 936 936 936 936 936 936 936 936 936 936 934 934 934 925 924 924 920 919 916 916 915 915 915 915 915 914 914 913 913 913 913 913 913 914 915 915 915 916 916 916 916 916 916 917 917 918 918 919 919 919 919 920 920 922 923 923 924 924 926 929 948 948 948 945 945 945 951 958 958 958 958 958 955 955 955 957 957 957 957 954 953 953 953 955 958 959 959 960 960 963 966 966 966 962 957 953 951 950 950 948 948 947 947 946 946 946 947 948 948 948 948 948 949 949 949 949 950 951 952 953 953 953 953 954 954 955 956 957 959 960 963 964 964 966 969 978 978 978 979 979 981 983 983 983 983 983 981 981 981 978 977 977 977 977 984 986 990 996 1000 1000 1000 1000 1000 1000 1002 1002 1002 1002 1000 995 993 993 993 993 991 991 991 991 993 994 994 996 998 998 998 996 995 995 995 996 996 996 996 997 997 998 999 999 999 1000 1000 1000 1000 1001 1001 1002 1002 1003 1003 1004 1004 1004 1004 1005 1005 1006 1006 1007 1007 1007 1007 1006 1006 1006 1007 1007 1008 1008 1008 1008 1008 1009 1009 1010 1010 1010 1006 1006 1006 1008 1016 1026 1062 1160 1336 1649 2084 2085 2094 2145 2173 2188 2192 2203 2218 2235 2242 2245 2247 2252 2270 2283 2283 2283 2283 2283 2283 2289 2294 2307 2322 2322 2322 2322 2322 2322 2331 2331 2331 2330 2328 2321 2320 2319 2316 2319 2319 2319 2319 2320 2320 2320 2320 2320 2314 2308 2308 2308 2308 2311 2311 2311 2309 2307 2307 2307 2306 2307 2307 2312 2316 2316 2316 2316 2317 2317 2322 2326 2329 2329 2329 2330 2330 2337 2338 2338 2338 2337 2336 2326 2308 2299 2296 2294 2288 2288 2288 2287 2287 2287 2284 2284 2279 2277 2277 2274 2242 2216 2181 2177 2100 2088 2088 2088 2070 2111 0
1544 1544 1631 1756 1758 2088 2319 2479 2615 2641 2642 2651 2656 2660 2662 2662 2660 2659 2652 2639 2619 2598 2571 2516 2419 2309 2130 1897 1686 1423 1421 1164 983 877 829 807 806 805 805 805 807 807 808 808 809 810 811 811 811 811 812 812 813 813 813 814 814 816 816 817 817 817 818 818 818 819 819 820 820 820 821 821 821 822 822 824 824 826 826 826 826 826 826 827 829 832 836 839 842 845 847 847 847 847 847 845 845 845 844 844 844 844 844 843 837 837 837 837 839 841 841 844 845 845 845 845 845 845 845 846 846 846 844 842 842 841 841 841 840 840 840 840 841 841 842 842 843 843 843 843 843 843 843 843 844 845 846 846 846 846 846 847 847 848 848 849 849 849 849 850 850 850 851 852 852 853 854 856 858 859 860 863 869 874 878 884 889 895 895 896 896 901 906 906 906 901 900 900 900 903 905 908 908 908 908 905 904 903 902 901 901 900 898 892 892 892 892 895 895 895 895 895 895 895 890 887 885 883 882 880 879 878 878 878 878 878 878 878 878 878 878 878 879 880 880 880 881 881 881 881 881 881 881 881 882 883 883 884 884 885 885 886 887 888 890 891 894 899 902 903 903 922 928 928 928 928 927 927 927 929 932 932 932 932 932 933 935 937 937 937 933 933 933 933 933 933 933 935 936 936 936 933 931 929 929 928 922 920 920 918 913 911 911 910 910 910 910 910 909 909 909 910 911 911 911 911 911 911 912 912 913 913 913 913 913 913 913 914 914 915 916 916 916 916 917 917 918 920 922 922 924 926 927 933 938 938 938 938 938 940 949 952 952 952 949 948 948 948 951 951 951 949 948 948 948 949 952 954 956 956 957 958 958 961 961 961 960 956 951 948 946 946 945 945 945 944 943 943 943 945 945 945 945 945 945 945 946 946 946 946 947 948 949 949 949 949 950 950 952 954 954 956 957 959 960 960 961 967 975 975 975 976 977 977 979 980 980 980 979 979 978 975 970 970 970 973 974 975 978 982 990 993 993 993 993 993 996 996 996 995 995 993 992 991 990 990 987 987 987 987 988 989 989 990 991 991 991 990 990 990 990 990 991 991 991 991 992 993 995 995 995 996 996 996 997 997 997 998 998 998 999 1000 1000 1000 1000 1001 1001 1001 1002 1003 1003 1004 1004 1004 1003 1003 1003 1004 1004 1004 1004 1004 1003 1003 1003 1003 1005 1005 1005 1004 1004 1004 1006 1009 1014 1033 1073 1162 1333 1645 1646 2089 2096 2137 2146 2172 2186 2190 2204 2215 2231 2237 2239 2241 2264 2264 2265 2266 2266 2267 2275 2290 2302 2309 2312 2315 2315 2317 2317 2320 2323 2323 2323 2321 2317 2315 2312 2311 2311 2311 2312 2314 2314 2314 2315 2314 2314 2309 2304 2303 2303 2303 2306 2307 2307 2307 2306 2303 2301 2298 2298 2298 2302 2304 2305 2306 2306 2306 2308 2308 2308 2315 2320 2323 2326 2327 2327 2327 2334 2337 2337 2334 2328 2327 2306 2304 2296 2291 2291 2291 2287 2287 2287 2284 2284 2284 2289 2289 2289 2288 2286 2276 2271 2253 2236 2236 2232 2229 2221 0
1552 1552 1633 1789 1791 2183 2401 2531 2597 2638 2639 2649 2656 2656 2656 2646 2642 2638 2636 2621 2600 2571 2523 2432 2304 2169 1998 1772 1511 1253 1251 1050 903 835 812 805 803 801 801 801 803 805 806 806 807 807 807 808 809 809 809 809 810 810 811 811 812 813 814 814 815 815 815 816 816 817 817 817 818 819 819 819 819 820 820 821 822 824 826 826 826 823 823 823 825 829 834 838 840 841 841 841 840 840 840 840 840 841 842 842 843 843 843 841 837 835 835 835 838 841 841 843 844 844 844 844 844 844 844 844 844 844 842 841 840 840 839 839 838 838 838 838 838 839 839 840 840 840 840 840 840 841 841 841 841 842 843 843 843 844 844 844 844 845 845 846 846 847 847 848 848 848 848 849 850 850 851 853 854 856 857 859 860 863 870 877 883 890 892 893 896 900 900 900 899 894 892 892 892 895 900 902 902 902 901 897 896 896 895 894 894 894 894 892 891 891 891 892 892 892 893 894 894 894 889 884 882 879 877 877 876 875 875 875 875 875 875 875 875 875 875 876 876 877 877 877 878 878 878 878 878 878 878 879 879 880 880 882 882 882 883 883 885 886 886 887 891 893 895 896 902 920 928 928 928 926 924 924 924 925 925 927 929 931 931 931 930 930 929 929 929 929 930 931 931 932 932 934 936 936 936 933 929 927 925 925 921 918 917 916 912 908 908 907 907 907 907 907 907 907 907 907 907 907 907 908 909 909 909 910 910 910 910 910 910 910 910 911 911 913 913 913 914 914 914 915 915 916 916 918 920 924 927 931 935 935 935 935 935 940 944 944 944 941 940 940 940 942 946 948 948 948 948 948 948 948 949 952 954 955 955 956 956 956 956 956 952 948 948 945 942 942 942 942 941 941 941 941 941 941 942 942 942 942 942 942 942 942 942 944 944 945 945 945 946 946 946 947 949 950 952 953 953 955 955 955 955 957 965 965 966 968 971 975 978 979 979 979 977 975 974 970 965 965 964 964 964 966 971 975 983 989 989 989 989 989 994 994 994 993 992 991 990 989 987 984 984 984 984 984 984 984 984 984 985 985 985 986 985 985 986 986 986 987 987 987 989 989 990 990 990 992 992 993 993 994 994 994 994 995 995 995 995 996 996 996 996 996 997 998 999 999 999 999 999 999 999 1000 1001 1001 1001 1000 1000 1000 1000 1000 1001 1001 1001 1002 1002 1003 1003 1004 1004 1014 1034 1071 1151 1153 1317 1620 2052 2071 2127 2146 2154 2162 2171 2183 2188 2199 2213 2213 2214 2214 2214 2217 2231 2256 2274 2285 2297 2300 2303 2309 2311 2311 2312 2313 2313 2312 2312 2310 2307 2307 2306 2303 2302 2302 2302 2306 2307 2308 2309 2309 2309 2304 2300 2299 2297 2297 2297 2300 2300 2300 2300 2299 2298 2297 2297 2294 2294 2294 2296 2300 2300 2300 2300 2300 2300 2304 2311 2314 2316 2318 2318 2318 2319 2319 2327 2328 2328 2327 2321 2316 2308 2291 2290 2286 2284 2283 2281 2281 2283 2284 2289 2289 2289 2288 2286 2280 2276 2259 2238 2238 2238 2232 2238 0
1555 1555 1638 1830 1832 2196 2402 2531 2597 2625 2638 2646 2654 2654 2654 2645 2631 2626 2618 2603 2577 2535 2467 2365 2225 2030 1851 1604 1342 1113 1112 942 853 819 805 803 800 800 800 800 801 802 804 804 804 805 805 806 806 807 807 808 808 808 808 809 811 811 811 811 812 813 813 814 814 814 815 815 815 816 816 817 817 817 818 818 819 822 822 822 820 820 820 821 824 828 832 834 834 835 835 834 834 835 836 837 837 837 839 842 842 842 842 841 836 834 834 834 835 837 839 841 841 842 842 842 842 842 842 842 842 839 839 839 839 839 838 837 837 837 837 837 837 837 837 838 838 838 838 838 838 838 839 839 839 839 840 841 841 841 841 842 842 842 844 844 844 845 845 846 846 847 847 847 848 848 849 850 852 853 855 855 858 862 866 870 876 881 884 888 891 891 891 890 887 886 885 885 885 886 890 891 895 895 895 891 888 888 888 889 889 889 889 888 888 888 890 890 890 891 892 894 894 894 886 880 878 875 875 874 873 872 872 872 872 872 872 872 872 872 873 873 873 874 874 875 875 875 875 875 875 875 875 876 876 877 878 879 879 879 880 881 882 883 885 887 888 889 891 894 902 918 928 928 928 926 922 922 922 922 922 922 924 927 928 928 928 925 924 924 924 926 928 929 929 929 931 933 933 933 933 930 926 925 924 924 921 917 916 916 912 907 905 904 904 904 904 904 904 904 904 904 905 905 905 905 905 906 906 907 907 907 907 907 907 907 907 909 909 909 910 911 911 911 912 912 912 913 914 914 916 922 925 930 931 931 932 932 932 939 939 939 938 934 934 934 934 942 944 946 946 947 947 947 947 947 947 950 954 954 954 954 953 953 951 949 946 945 944 943 939 939 938 938 938 938 938 938 938 938 938 939 940 940 940 940 939 939 939 940 941 941 941 942 942 943 944 944 946 948 948 950 951 951 951 952 953 953 955 959 960 962 969 972 973 976 977 977 977 974 971 968 964 963 960 960 960 962 964 968 976 981 981 981 981 981 989 992 992 992 992 989 989 988 986 984 980 980 980 980 979 979 979 979 979 980 980 980 981 981 982 983 984 985 985 985 986 986 986 987 987 987 987 988 989 989 989 990 990 990 990 990 991 992 992 992 992 992 992 992 994 994 995 995 995 995 996 997 997 998 998 998 998 997 997 997 998 998 998 998 998 998 998 998 999 999 1010 1030 1063 1064 1142 1295 1602 2044 2085 2121 2145 2156 2169 2181 2188 2196 2206 2208 2208 2210 2210 2212 2215 2228 2233 2246 2261 2269 2280 2296 2302 2302 2302 2300 2297 2297 2295 2295 2295 2295 2291 2288 2288 2288 2292 2295 2297 2301 2304 2304 2304 2300 2294 2292 2291 2291 2291 2291 2291 2295 2297 2297 2296 2296 2295 2292 2289 2289 2289 2295 2297 2297 2297 2297 2297 2297 2303 2308 2310 2311 2311 2311 2305 2295 2295 2295 2321 2321 2322 2321 2316 2305 2290 2286 2284 2283 2281 2281 2281 2281 2281 2288 2288 2288 2286 2280 2276 2259 2239 2239 2239 2237 2242 0
1558 1558 1640 1843 1843 2197 2406 2531 2594 2609 2626 2640 2653 2653 2653 2643 2621 2617 2602 2588 2549 2488 2421 2303 2136 1948 1687 1442 1205 1016 1015 893 827 803 800 800 799 799 799 799 800 800 801 801 801 803 803 803 803 804 805 805 806 806 806 807 808 808 809 810 810 811 811 811 812 812 813 813 813 813 814 814 814 814 815 816 819 821 821 821 819 819 819 821 824 826 829 829 829 829 829 829 831 832 833 834 834 834 836 840 841 841 841 841 835 833 833 833 834 834 836 837 838 839 839 839 840 840 840 840 840 839 838 838 838 837 836 835 835 835 835 835 835 835 835 835 835 835 835 835 835 835 836 836 836 837 838 838 838 839 840 840 840 840 842 842 843 843 844 844 844 844 845 846 846 846 848 848 850 851 852 854 856 860 863 867 870 873 875 877 881 881 881 879 879 879 880 880 880 878 878 878 883 885 885 885 885 885 885 885 885 885 885 885 885 885 885 886 886 886 886 886 886 886 878 874 872 871 871 870 869 869 869 869 869 869 869 869 869 870 870 871 871 871 872 872 873 873 873 873 873 873 873 874 874 874 875 876 876 877 877 878 879 881 883 886 886 887 888 893 898 910 924 924 924 922 922 920 917 917 917 919 921 923 924 924 924 923 921 921 921 924 926 926 926 926 928 929 930 930 930 927 925 924 924 923 921 916 915 915 910 906 904 902 902 902 902 901 901 901 901 901 902 903 903 904 904 903 904 904 904 904 904 905 905 905 905 905 906 907 907 908 909 909 910 910 910 912 912 914 916 918 924 926 929 929 930 930 934 934 934 929 928 928 928 929 933 939 942 944 946 946 947 946 946 946 946 946 949 949 949 948 948 948 947 945 941 936 936 933 933 933 935 935 935 934 934 934 935 936 936 936 936 936 936 936 936 936 937 937 937 938 938 938 939 941 942 942 943 943 945 946 947 947 948 948 949 949 950 953 954 959 966 967 967 968 973 973 973 973 969 967 963 963 960 959 959 959 961 965 968 973 973 975 976 976 982 991 991 991 990 989 987 986 981 980 979 977 976 976 976 976 975 975 975 975 976 976 976 977 978 979 980 980 982 982 983 983 983 983 983 983 983 983 984 985 986 986 986 986 986 986 987 987 988 988 988 988 988 988 989 990 990 990 991 991 993 993 993 993 994 994 994 994 995 995 995 995 994 994 994 994 994 994 994 994 995 1005 1023 1024 1057 1125 1281 1628 2079 2112 2136 2150 2159 2172 2184 2196 2201 2201 2202 2202 2204 2209 2215 2222 2225 2230 2232 2237 2237 2246 2258 2276 2276 2277 2278 2278 2278 2279 2279 2278 2278 2278 2278 2284 2289 2294 2295 2296 2296 2296 2295 2290 2285 2285 2285 2285 2285 2286 2289 2290 2292 2294 2294 2294 2293 2291 2284 2284 2284 2284 2293 2293 2293 2292 2292 2292 2295 2300 2301 2301 2300 2299 2295 2285 2280 2280 2280 2290 2316 2321 2321 2320 2320 2316 2290 2283 2281 2281 2281 2281 2281 2285 2285 2285 2281 2280 2276 2259 2241 2241 2241 2237 2248 0
1559 1559 1644 1910 1955 2197 2406 2527 2572 2586 2607 2624 2637 2637 2637 2633 2603 2599 2577 2556 2517 2405 2286 2173 2035 1789 1553 1306 1098 950 949 848 810 800 798 798 797 797 797 797 797 798 798 798 799 800 801 801 801 802 802 803 803 804 805 805 806 807 807 807 808 808 808 809 809 810 810 810 810 811 811 812 812 813 813 813 816 817 818 818 818 817 817 817 818 822 822 822 822 822 825 829 830 831 831 831 830 830 830 834 836 836 836 836 833 831 830 830 831 832 832 832 833 833 834 836 836 837 837 837 837 837 837 835 834 833 833 833 833 833 833 833 833 833 833 833 834 834 834 834 834 834 834 834 834 835 836 836 836 836 837 837 838 839 839 840 841 841 842 842 843 843 844 844 844 845 846 847 848 849 849 849 854 860 862 864 865 867 867 868 871 874 875 876 877 878 878 878 875 872 872 872 874 877 880 880 881 882 882 882 882 880 879 878 878 878 878 878 879 881 881 881 881 875 871 869 868 868 868 868 867 867 867 867 867 867 867 867 867 867 868 869 869 870 870 870 871 871 871 871 871 871 871 871 872 873 873 873 875 875 875 876 877 879 880 883 884 886 888 890 897 909 915 917 917 917 917 916 915 915 915 916 918 919 919 920 920 920 920 920 920 923 923 923 923 923 923 925 925 925 925 924 924 923 923 922 920 915 913 910 908 905 903 900 900 899 899 899 899 899 899 899 900 900 900 901 901 901 901 901 901 901 901 901 902 903 903 903 904 904 906 906 906 907 908 908 909 910 911 912 913 916 919 923 923 928 929 930 933 933 933 928 926 926 926 926 931 935 939 943 944 946 946 946 946 944 942 942 942 939 939 939 943 943 943 942 938 934 930 930 930 930 931 931 931 930 930 930 931 932 932 932 933 933 933 933 934 934 934 934 934 935 936 936 937 938 939 940 940 940 940 941 942 942 943 945 945 945 947 948 949 953 958 960 964 966 971 973 973 973 969 966 963 961 960 957 956 956 956 959 962 966 968 968 971 971 975 987 989 990 990 989 987 986 980 979 978 973 973 972 972 972 972 971 971 971 971 971 971 972 974 974 975 976 977 977 977 978 978 979 980 980 980 980 980 981 981 981 982 982 982 982 983 984 984 984 984 984 984 985 985 986 986 987 987 987 988 989 989 990 990 990 990 990 990 990 990 991 991 991 991 991 991 990 989 988 988 988 999 999 1023 1059 1154 1402 1808 2106 2134 2134 2156 2166 2183 2188 2190 2190 2190 2190 2195 2202 2215 2220 2222 2222 2222 2223 2223 2232 2241 2242 2242 2241 2240 2237 2233 2233 2233 2251 2259 2260 2268 2279 2288 2292 2293 2293 2292 2291 2285 2285 2284 2283 2283 2283 2283 2283 2284 2290 2291 2291 2290 2289 2288 2287 2284 2284 2284 2284 2288 2288 2288 2285 2282 2282 2282 2283 2286 2287 2287 2287 2278 2271 2265 2264 2264 2264 2269 2298 2321 2322 2323 2323 2323 2307 2296 2281 2281 2281 2281 2281 2281 2280 2272 2271 2267 2260 2241 2241 2241 2237 2248 0
1588 1588 1672 1910 1959 2183 2401 2523 2542 2566 2579 2595 2619 2619 2619 2616 2576 2572 2547 2501 2426 2264 2105 1948 1776 1611 1385 1150 1000 878 824 824 805 798 796 796 796 796 795 795 795 795 795 795 797 798 798 799 799 800 800 800 801 801 802 803 803 804 804 804 805 805 806 806 807 807 807 807 808 808 808 809 810 810 811 811 812 813 815 816 816 816 816 816 818 820 820 820 820 821 823 824 829 829 829 829 826 826 826 827 829 829 829 827 827 827 830 830 830 830 830 830 830 830 831 831 831 831 831 832 833 833 833 832 831 831 831 831 831 831 831 831 831 831 832 832 832 832 832 832 832 832 832 833 833 833 834 834 834 835 835 835 836 837 838 838 839 840 840 841 841 841 841 842 843 843 843 845 845 845 847 847 853 858 859 861 864 865 866 866 868 871 872 872 872 872 872 871 870 867 866 866 866 871 875 878 878 882 882 882 881 880 877 875 872 871 871 871 874 874 874 874 871 869 867 866 866 866 865 865 865 865 865 866 866 866 866 866 866 866 867 867 867 869 869 869 869 869 869 869 869 870 870 871 871 872 872 872 873 873 874 875 876 876 878 880 882 883 885 890 897 906 913 915 916 916 916 911 911 911 913 914 914 914 916 919 919 919 920 920 920 922 922 922 922 922 922 922 922 922 922 922 922 922 920 919 919 914 911 909 904 901 898 897 897 897 897 897 897 897 897 897 897 898 898 898 898 898 898 899 899 899 899 900 900 900 900 901 902 903 903 905 905 906 906 906 907 908 909 911 912 913 915 916 918 923 927 930 930 930 929 927 926 926 926 926 927 930 936 939 941 943 944 944 944 941 941 939 937 936 936 937 937 939 939 939 937 933 929 929 929 929 929 929 929 927 927 927 928 928 929 930 930 930 930 932 932 932 932 932 932 933 934 935 935 935 936 937 937 938 938 938 938 939 939 940 942 944 944 947 948 951 953 957 961 964 968 971 971 971 966 963 963 961 960 956 952 952 952 956 958 962 963 963 965 965 968 978 984 985 985 986 985 985 979 976 975 971 970 969 968 968 968 968 968 968 968 968 968 969 969 970 971 971 971 971 973 973 974 975 976 976 976 977 977 978 978 978 978 978 978 979 980 980 980 980 981 981 981 982 982 982 983 983 984 984 985 985 985 986 986 986 986 986 986 986 986 986 987 987 988 988 989 989 988 987 987 987 990 991 1003 1026 1078 1213 1496 1859 2112 2132 2137 2163 2170 2170 2170 2170 2170 2174 2185 2200 2210 2218 2218 2218 2214 2214 2214 2225 2225 2225 2224 2217 2210 2209 2200 2198 2193 2193 2193 2207 2230 2256 2285 2289 2289 2289 2288 2284 2277 2277 2277 2283 2283 2283 2275 2275 2275 2280 2281 2285 2286 2286 2286 2285 2282 2282 2282 2282 2282 2282 2281 2275 2275 2275 2280 2283 2285 2285 2283 2279 2270 2265 2264 2263 2264 2264 2268 2291 2310 2321 2323 2323 2323 2307 2296 2281 2281 2281 2281 2281 2281 2279 2272 2271 2267 2262 2248 2248 2248 2244 2248 0
1660 1660 1805 1910 1959 2118 2337 2392 2392 2395 2397 2397 2417 2430 2430 2430 2395 2391 2346 2308 2232 2178 2017 1826 1647 1401 1221 1020 892 839 811 810 799 796 794 793 793 793 793 792 792 792 794 794 795 795 796 797 797 797 798 798 799 799 799 801 801 801 801 802 803 803 804 804 805 805 805 805 806 806 806 807 807 808 808 808 809 810 812 812 812 813 813 814 816 818 819 819 819 819 820 822 822 822 822 822 822 823 823 825 827 827 827 825 825 825 827 827 827 827 827 827 828 828 828 829 828 829 829 830 830 830 829 829 829 829 829 829 829 829 829 829 830 830 830 830 830 831 831 831 831 831 832 832 832 832 833 833 833 833 834 834 835 835 837 837 837 839 839 839 839 839 840 841 841 841 842 843 843 844 844 846 851 854 856 858 861 864 864 864 864 864 864 863 859 859 859 860 863 863 863 863 863 863 867 873 877 879 879 879 877 876 874 870 867 867 867 867 869 869 869 868 866 866 864 863 862 862 862 862 863 863 863 864 865 865 866 866 866 866 866 866 867 868 868 868 868 868 869 869 869 869 869 869 870 870 871 871 871 872 872 874 874 875 875 876 879 879 879 880 883 902 907 910 910 910 908 906 906 906 907 909 910 912 914 916 917 917 917 917 920 921 921 921 921 920 918 917 917 917 917 918 918 918 916 915 915 910 904 899 897 895 895 895 895 895 895 895 895 895 895 895 895 896 896 897 897 897 897 897 897 897 898 898 898 899 899 899 900 901 902 903 904 904 904 905 906 906 907 908 909 909 909 912 915 918 926 929 929 929 927 927 925 925 923 923 925 927 931 935 936 937 939 939 939 939 939 937 936 933 932 932 932 934 935 935 935 932 926 925 925 925 927 927 927 925 925 925 925 926 926 927 927 927 928 929 930 930 930 930 930 931 932 932 933 933 934 935 935 935 936 936 936 936 936 937 938 940 941 942 944 945 947 951 952 962 968 968 968 968 963 961 960 959 959 955 951 951 951 952 954 957 957 957 959 959 960 967 973 976 977 979 979 979 977 971 971 969 967 965 964 964 964 964 964 964 964 964 964 964 965 967 967 967 967 967 969 970 970 970 972 973 973 973 974 974 975 975 975 975 975 976 976 976 976 976 977 977 978 978 979 979 980 980 981 981 981 981 982 982 982 982 982 983 983 983 983 983 983 984 984 985 985 985 984 983 983 983 984 984 987 998 1023 1071 1200 1485 1827 2132 2137 2148 2164 2164 2164 2166 2166 2169 2183 2188 2200 2206 2206 2206 2202 2202 2202 2210 2210 2210 2194 2182 2181 2178 2178 2178 2178 2178 2180 2186 2202 2222 2233 2237 2242 2260 2271 2271 2272 2272 2272 2280 2280 2280 2271 2270 2269 2269 2270 2276 2280 2284 2284 2284 2281 2279 2279 2279 2279 2279 2277 2275 2275 2275 2279 2283 2285 2285 2283 2276 2266 2265 2264 2261 2264 2264 2266 2287 2306 2320 2323 2323 2323 2307 2296 2278 2278 2278 2281 2281 2281 2279 2272 2271 2267 2264 2260 2253 2253 2248 2248 0
1734 1734 1805 1891 1959 1960 2038 2107 2107 2107 2036 2036 2036 2076 2076 2076 2071 2068 2014 1974 1927 1877 1777 1678 1357 1164 1037 896 833 804 797 796 794 792 791 791 790 790 790 790 790 791 792 792 792 794 794 794 795 795 795 796 796 797 798 798 798 799 799 800 800 801 801 802 802 802 803 803 804 804 804 804 805 806 806 807 807 807 808 808 809 809 810 812 813 816 816 817 817 817 818 819 819 819 819 819 822 822 822 825 827 827 827 824 824 824 824 824 825 825 825 825 824 824 824 825 826 826 827 827 826 826 826 826 826 826 826 826 826 827 827 827 828 828 828 828 829 829 830 830 831 831 831 832 832 832 832 832 833 833 834 834 835 835 835 837 837 837 838 838 838 838 838 840 840 840 840 841 841 842 843 844 848 850 851 854 859 863 863 863 863 863 863 860 858 856 856 856 857 857 857 857 857 857 860 861 863 868 873 874 874 874 871 866 863 862 862 862 862 862 862 862 861 861 860 860 859 859 859 861 861 861 863 863 864 864 864 865 865 866 866 866 867 867 867 867 867 867 867 867 868 868 868 869 869 869 869 869 870 870 871 871 873 873 874 875 876 876 876 877 883 896 897 898 899 899 899 900 899 899 899 899 899 901 906 909 909 910 912 915 919 919 919 918 917 916 911 910 909 908 908 908 908 909 910 910 908 906 899 895 894 893 892 892 892 892 893 893 893 893 893 894 895 895 895 895 896 896 896 896 896 896 897 897 897 898 898 898 899 900 901 902 903 903 904 904 904 905 905 906 907 907 908 908 911 915 921 923 923 923 923 922 922 921 922 922 922 925 929 929 930 931 931 935 935 936 936 935 935 932 927 923 923 923 928 930 930 930 924 924 923 923 924 924 923 921 921 921 922 923 923 925 925 926 927 927 928 928 929 929 929 930 930 931 931 931 932 932 932 933 933 934 934 935 935 935 935 935 936 937 938 938 940 948 949 958 965 965 965 965 959 957 957 955 953 953 950 949 949 949 950 950 953 953 954 954 954 957 966 971 972 976 976 976 975 969 969 968 964 962 960 960 960 960 960 960 960 960 960 960 961 962 963 963 963 963 964 966 966 967 968 968 970 970 970 970 972 972 973 973 973 973 973 973 973 973 974 974 975 975 976 976 977 977 977 977 977 978 978 978 978 979 979 979 979 980 980 980 980 980 980 981 981 981 981 981 981 980 980 981 981 984 996 1020 1061 1197 1508 1870 2128 2138 2153 2153 2153 2153 2153 2159 2174 2187 2192 2193 2193 2193 2193 2193 2198 2202 2202 2202 2190 2182 2175 2174 2173 2172 2172 2172 2172 2177 2188 2194 2194 2196 2200 2210 2230 2231 2242 2250 2260 2280 2280 2280 2265 2260 2258 2258 2260 2265 2269 2274 2280 2280 2280 2278 2276 2276 2275 2275 2273 2273 2273 2274 2279 2281 2283 2283 2281 2276 2264 2261 2261 2261 2261 2261 2264 2281 2302 2318 2318 2318 2312 2306 2292 2275 2275 2275 2281 2281 2281 2279 2278 2277 2274 2269 2263 2254 2254 2248 2248 0
