942 942 938 941 941 941 947 949 949 949 949 950 952 956 957 959 962 965 966 970 971 974 975 975 976 976 978 981 982 983 984 985 987 987 987 988 991 994 996 999 1000 1003 1004 1006 1007 1007 1007 1007 1008 1009 1009 1010 1011 1013 1014 1016 1019 1021 1023 1024 1026 1030 1034 1036 1038 1041 1042 1044 1045 1046 1049 1050 1052 1056 1058 1061 1063 1063 1064 1065 1066 1067 1068 1070 1071 1072 1074 1076 1079 1080 1081 1083 1084 1086 1087 1089 1090 1091 1092 1094 1097 1098 1101 1104 1106 1107 1109 1111 1113 1113 1114 1117 1118 1120 1121 1122 1123 1125 1127 1129 1130 1132 1134 1134 1136 1139 1141 1143 1143 1145 1146 1148 1150 1153 1156 1160 1162 1163 1163 1165 1166 1169 1173 1173 1173 1173 1173 1177 1183 1190 1193 1193 1193 1198 1198 1198 1201 1202 1206 1208 1209 1214 1215 1218 1219 1219 1223 1229 1250 1272 1290 1315 1350 1431 1566 1655 1859 2431 2586 2651 2716 2754 2807 2891 2923 2931 2936 2966 2994 3030 3075 3075 3077 3081 3081 3097 3127 3128 3132 3144 3155 3155 3155 3148 3143 3140 3140 3140 3138 3129 3121 3117 3117 3117 3128 3139 3145 3152 3161 3178 3181 3185 3185 3185 3183 3183 3180 3180 3180 3188 3188 3188 3121 3112 3091 3090 3090 3091 3097 3107 3107 3107 3097 3094 3092 3092 3068 3045 2996 2833 2621 2402 2379 2379 2379 2382 2382 2382 2306 2150 2059 2031 2027 2027 2027 2028 2030 2030 2030 2031 2033 2034 2035 2038 2039 2040 2042 2043 2045 2046 2048 2050 2050 2051 2053 2055 2057 2061 2062 2064 2064 2065 2065 2066 2068 2071 2073 2075 2077 2079 2081 2083 2084 2085 2086 2088 2089 2089 2091 2093 2095 2097 2099 2101 2102 2104 2105 2107 2109 2111 2113 2113 2114 2118 2126 2126 2126 2126 2126 2131 2131 2132 2132 2133 2134 2135 2136 2139 2142 2144 2144 2146 2147 2149 2152 2155 2157 2159 2161 2163 2166 2169 2172 2174 2176 2177 2177 2177 2177 2177 2177 2179 2180 2184 2185 2185 2186 2187 2188 2189 2190 2192 2195 2197 2200 2202 2204 2205 2207 2208 2210 2212 2216 2219 2220 2221 2223 2225 2227 2228 2231 2233 2234 2235 2236 2237 2239 2241 2242 2243 2245 2246 2247 2249 2251 2254 2255 2257 2258 2260 2265 2269 2269 2269 2269 2269 2269 2269 2269 2273 2277 2277 2277 2277 2277 2278 2280 2285 2288 2290 2290 2292 2294 2298 2301 2302 2303 2303 2306 2308 2309 2311 2311 2311 2309 2308 2307 2307 2306 2306 2306 2309 2312 2316 2318 2321 2323 2326 2328 2331 2335 2339 2341 2343 2343 2343 2344 2344 2344 2348 2351 2352 2352 2352 2352 2351 2351 2351 2355 2357 2360 2360 2361 2361 2362 2380 2545 2706 2797 2939 2940 2943 2944 2948 2949 2950 2950 2950 2951 2952 2958 2980 2980 2980 2963 2951 2946 2945 2945 2945 2948 2948 2948 2945 2936 2915 2897 2881 2863 2843 2825 2753 2746 2628 2547 2328 2254 2244 2234 2215 2200 2184 2172 2164 2154 2145 2137 2128 2117 2108 2093 2090 2087 2082 2077 2072 2067 2062 2057 2052 2048 2043 2037 2033 2027 2023 2018 2014 2007 2001 1996 1993 1990 1985 1982 1980 1977 1975 1971 1971 1971 1969 1969 1967 1964 1964 1964 1964 1963 1959 1949 1947 1945 1943 1942 1939 1935 1933 1931 1928 1927 1924 1922 1920 1917 1916 1916 1916 1916 1915 1914 1914 1913 1913 1913 1913 1914 1914 1915 1915 1915 1913 1913 1913 1915 1915 1915 1913 1910 1905 1901 1900 1900 1900 1902 1902 1902 1902 1902 1899 1898 1896 1896 1898 1898 1898 1905 1910 1922 1922
938 938 936 938 938 940 945 947 947 947 949 950 952 956 957 958 961 963 964 967 968 972 974 975 975 975 976 979 980 982 983 984 985 986 987 988 990 993 995 997 1000 1001 1002 1004 1004 1006 1006 1007 1007 1008 1008 1008 1010 1011 1013 1015 1017 1019 1020 1022 1025 1029 1032 1034 1037 1038 1040 1042 1044 1046 1048 1049 1051 1056 1060 1060 1061 1063 1064 1065 1066 1067 1068 1069 1069 1070 1072 1075 1078 1079 1080 1081 1084 1085 1086 1088 1090 1091 1092 1094 1096 1097 1099 1102 1104 1105 1107 1109 1110 1112 1113 1115 1117 1119 1120 1120 1122 1123 1125 1128 1130 1131 1132 1134 1136 1138 1140 1141 1143 1144 1145 1148 1149 1153 1156 1159 1162 1162 1163 1164 1166 1168 1171 1171 1171 1171 1171 1174 1182 1187 1188 1189 1192 1192 1195 1198 1200 1201 1202 1202 1204 1205 1206 1208 1210 1212 1214 1218 1222 1229 1235 1244 1256 1259 1268 1306 1362 1422 1536 1731 2350 2610 2662 2692 2716 2780 2845 2880 2885 2940 3007 3071 3075 3077 3077 3086 3105 3108 3114 3144 3153 3153 3153 3144 3136 3136 3136 3134 3134 3129 3121 3115 3115 3115 3127 3139 3143 3145 3149 3168 3175 3181 3182 3183 3182 3181 3180 3180 3180 3185 3185 3185 3121 3112 3091 3088 3088 3091 3097 3102 3102 3102 3098 3094 3092 3092 3070 3055 2992 2832 2595 2397 2384 2382 2382 2382 2382 2382 2306 2150 2059 2031 2027 2027 2027 2029 2031 2032 2033 2033 2034 2035 2037 2038 2040 2041 2042 2044 2045 2046 2048 2049 2050 2051 2052 2055 2057 2061 2062 2064 2064 2065 2065 2066 2068 2071 2073 2075 2077 2079 2081 2083 2084 2086 2087 2089 2090 2091 2092 2094 2095 2097 2099 2101 2103 2105 2107 2108 2109 2111 2113 2113 2114 2118 2125 2125 2125 2125 2125 2131 2131 2132 2132 2133 2134 2135 2137 2139 2142 2143 2144 2145 2147 2149 2151 2154 2157 2159 2161 2162 2163 2167 2172 2174 2175 2175 2176 2178 2178 2178 2180 2181 2182 2184 2185 2185 2187 2188 2189 2189 2190 2192 2194 2197 2200 2202 2204 2205 2206 2208 2210 2212 2214 2216 2219 2221 2223 2224 2226 2227 2230 2231 2232 2234 2235 2237 2238 2241 2242 2243 2245 2246 2248 2249 2251 2254 2255 2257 2258 2260 2264 2268 2269 2269 2269 2268 2268 2268 2269 2271 2275 2275 2275 2275 2275 2278 2284 2287 2289 2290 2290 2292 2295 2298 2301 2302 2303 2305 2306 2308 2310 2311 2311 2311 2309 2308 2307 2307 2306 2306 2306 2309 2312 2316 2319 2321 2323 2327 2329 2333 2335 2339 2341 2343 2343 2343 2344 2344 2344 2349 2353 2354 2354 2354 2354 2351 2351 2351 2355 2360 2361 2361 2362 2362 2363 2380 2545 2706 2801 2938 2940 2941 2948 2948 2948 2947 2947 2947 2947 2952 2958 2980 2980 2980 2963 2951 2946 2945 2945 2945 2953 2953 2953 2947 2946 2927 2906 2881 2863 2843 2812 2728 2618 2611 2498 2283 2254 2244 2234 2215 2200 2184 2172 2164 2154 2145 2137 2128 2117 2108 2103 2098 2091 2084 2077 2072 2067 2062 2057 2053 2048 2043 2036 2029 2025 2020 2017 2014 2007 2001 1996 1993 1989 1984 1981 1974 1971 1970 1968 1968 1967 1967 1967 1967 1964 1964 1964 1962 1958 1956 1949 1947 1945 1944 1942 1939 1935 1933 1931 1928 1926 1923 1921 1919 1917 1916 1916 1916 1915 1915 1914 1913 1913 1913 1913 1914 1914 1914 1914 1914 1914 1913 1913 1913 1915 1915 1915 1913 1910 1907 1903 1900 1900 1900 1902 1902 1902 1899 1898 1896 1895 1895 1891 1891 1891 1895 1906 1910 1917 1917
938 938 936 938 938 938 941 944 945 946 948 950 952 956 957 958 961 962 963 965 966 969 972 974 974 974 975 977 978 979 981 983 984 985 986 988 989 992 994 996 997 998 999 1001 1002 1003 1004 1005 1006 1006 1007 1007 1008 1010 1011 1012 1014 1016 1020 1020 1024 1027 1030 1033 1035 1035 1036 1037 1038 1044 1047 1048 1050 1056 1057 1059 1060 1062 1062 1065 1065 1066 1067 1067 1068 1068 1069 1071 1075 1077 1079 1080 1084 1085 1086 1088 1090 1090 1092 1093 1095 1096 1098 1101 1102 1104 1105 1108 1109 1110 1112 1114 1115 1117 1118 1120 1121 1122 1124 1126 1129 1130 1131 1133 1135 1136 1138 1140 1142 1144 1145 1147 1149 1152 1154 1157 1161 1162 1162 1164 1166 1167 1169 1170 1171 1171 1171 1174 1177 1182 1185 1188 1189 1191 1195 1196 1199 1199 1199 1200 1200 1200 1201 1206 1210 1212 1212 1217 1218 1219 1220 1221 1221 1228 1229 1240 1259 1272 1284 1329 1406 1531 1669 2015 2305 2306 2458 2703 2717 2939 3006 3049 3050 3056 3058 3071 3089 3090 3092 3128 3152 3152 3152 3142 3131 3131 3131 3129 3129 3129 3121 3109 3109 3109 3124 3139 3142 3144 3148 3166 3173 3179 3181 3181 3181 3181 3181 3182 3184 3185 3185 3185 3108 3097 3097 3095 3095 3097 3099 3101 3101 3101 3100 3092 3091 3091 3070 3055 2989 2822 2511 2386 2385 2384 2384 2386 2382 2382 2288 2150 2055 2031 2029 2029 2029 2030 2033 2033 2034 2035 2035 2036 2038 2039 2041 2041 2043 2045 2045 2046 2048 2049 2050 2051 2052 2055 2057 2061 2062 2064 2064 2065 2065 2065 2069 2071 2074 2075 2077 2079 2081 2083 2084 2086 2088 2090 2091 2092 2094 2095 2096 2098 2099 2101 2103 2105 2107 2108 2111 2111 2113 2113 2115 2118 2124 2125 2125 2125 2127 2131 2131 2132 2132 2133 2134 2135 2137 2139 2142 2143 2144 2145 2147 2149 2151 2153 2155 2157 2159 2161 2161 2164 2169 2174 2174 2174 2175 2179 2182 2183 2183 2183 2185 2185 2185 2186 2188 2188 2189 2189 2191 2192 2194 2197 2199 2200 2203 2205 2206 2208 2209 2212 2214 2216 2218 2220 2222 2223 2225 2227 2229 2231 2232 2234 2235 2237 2238 2241 2242 2243 2244 2246 2247 2250 2251 2254 2255 2257 2258 2260 2264 2268 2268 2268 2268 2268 2268 2268 2269 2271 2273 2274 2275 2275 2276 2279 2286 2289 2289 2290 2291 2292 2295 2297 2301 2302 2304 2305 2306 2309 2311 2311 2311 2310 2309 2308 2307 2307 2307 2307 2307 2307 2311 2316 2319 2319 2321 2327 2331 2334 2336 2339 2341 2343 2346 2346 2347 2347 2347 2351 2353 2355 2356 2356 2356 2355 2355 2355 2355 2361 2363 2363 2363 2363 2363 2380 2546 2695 2851 2937 2938 2940 2950 2950 2950 2947 2947 2947 2947 2950 2958 2980 2980 2980 2958 2951 2946 2945 2945 2945 2953 2964 2964 2964 2947 2934 2917 2893 2864 2843 2805 2698 2598 2583 2458 2281 2250 2244 2230 2215 2200 2184 2176 2165 2154 2145 2138 2128 2117 2108 2103 2098 2091 2084 2077 2073 2068 2062 2058 2054 2050 2043 2035 2029 2024 2020 2017 2014 2010 2004 1998 1992 1986 1980 1976 1973 1971 1969 1967 1966 1966 1965 1965 1965 1964 1963 1962 1959 1954 1950 1949 1947 1945 1944 1942 1939 1935 1933 1931 1928 1926 1923 1921 1919 1918 1916 1916 1915 1915 1914 1913 1913 1913 1913 1913 1914 1914 1914 1914 1914 1914 1911 1911 1911 1913 1913 1913 1913 1910 1907 1903 1902 1901 1900 1900 1900 1900 1899 1898 1896 1895 1895 1887 1887 1887 1895 1907 1908 1910 1910
938 938 936 936 936 936 939 941 945 946 948 950 951 954 955 957 960 962 963 963 964 966 968 971 972 973 975 976 977 979 980 982 982 985 985 987 989 991 993 995 996 997 999 1000 1000 1002 1004 1004 1004 1005 1005 1005 1006 1007 1008 1011 1012 1016 1018 1020 1023 1026 1029 1031 1032 1032 1032 1033 1033 1033 1038 1042 1043 1046 1053 1058 1059 1064 1065 1067 1067 1067 1067 1067 1067 1067 1067 1071 1075 1075 1077 1080 1083 1085 1086 1088 1089 1090 1091 1092 1094 1095 1097 1099 1100 1102 1103 1106 1108 1109 1111 1112 1113 1115 1116 1117 1120 1121 1123 1125 1127 1129 1130 1132 1134 1135 1137 1139 1140 1142 1144 1146 1149 1150 1153 1156 1159 1161 1162 1164 1165 1166 1167 1168 1169 1170 1171 1174 1177 1182 1185 1187 1188 1191 1195 1196 1198 1198 1198 1198 1198 1199 1200 1204 1208 1212 1212 1213 1216 1219 1219 1220 1220 1223 1226 1227 1231 1241 1246 1258 1280 1296 1319 1365 1439 1520 1613 2693 2701 2702 2739 2805 2867 2919 2931 2944 2988 3023 3053 3097 3118 3118 3118 3118 3107 3107 3107 3118 3118 3118 3114 3092 3092 3092 3124 3139 3139 3141 3147 3160 3172 3179 3180 3181 3181 3183 3183 3184 3184 3184 3184 3178 3108 3097 3097 3097 3102 3107 3109 3107 3102 3092 3092 3090 3087 3087 3067 3058 2989 2818 2496 2385 2379 2378 2378 2377 2375 2366 2278 2130 2043 2031 2030 2030 2030 2031 2034 2035 2035 2036 2037 2039 2040 2041 2042 2043 2044 2045 2046 2047 2049 2049 2051 2052 2052 2055 2058 2061 2062 2063 2063 2064 2065 2067 2071 2073 2074 2075 2077 2079 2081 2083 2084 2086 2088 2090 2092 2093 2095 2097 2098 2100 2101 2102 2103 2105 2107 2108 2111 2111 2113 2114 2115 2117 2121 2123 2125 2126 2127 2132 2134 2135 2135 2135 2136 2136 2137 2139 2141 2143 2144 2145 2147 2148 2150 2152 2155 2157 2159 2160 2161 2162 2167 2173 2173 2174 2175 2179 2183 2183 2183 2185 2185 2186 2186 2188 2189 2190 2190 2190 2192 2194 2194 2197 2199 2200 2201 2203 2206 2208 2209 2212 2214 2215 2218 2219 2222 2223 2225 2227 2229 2231 2232 2234 2235 2236 2238 2241 2241 2242 2244 2245 2247 2250 2251 2254 2256 2257 2258 2261 2264 2268 2268 2268 2268 2268 2270 2271 2271 2271 2273 2274 2275 2275 2278 2281 2287 2289 2290 2291 2291 2292 2295 2297 2301 2303 2304 2305 2306 2309 2311 2311 2311 2310 2309 2308 2308 2307 2307 2307 2307 2307 2311 2316 2319 2319 2321 2327 2332 2335 2338 2340 2342 2344 2348 2350 2350 2351 2351 2352 2353 2355 2356 2357 2357 2357 2356 2356 2356 2361 2370 2370 2370 2374 2374 2397 2579 2695 2887 2929 2932 2940 2951 2951 2951 2945 2941 2941 2941 2945 2958 2965 2965 2965 2956 2951 2946 2945 2945 2945 2953 2964 2964 2964 2947 2937 2920 2911 2883 2849 2796 2683 2589 2423 2416 2273 2250 2244 2227 2213 2199 2191 2184 2169 2155 2146 2138 2128 2117 2109 2103 2098 2091 2084 2078 2073 2068 2063 2059 2056 2051 2044 2035 2028 2024 2020 2017 2014 2010 2004 1998 1992 1986 1980 1976 1973 1971 1969 1967 1965 1963 1963 1963 1962 1961 1959 1955 1952 1951 1950 1949 1947 1945 1944 1942 1939 1936 1934 1931 1928 1926 1923 1921 1919 1918 1916 1915 1915 1915 1914 1911 1911 1911 1911 1913 1914 1914 1914 1914 1914 1913 1911 1909 1909 1909 1910 1910 1910 1908 1907 1904 1904 1902 1901 1900 1900 1900 1899 1898 1896 1896 1895 1887 1887 1887 1895 1904 1907 1907 1907
938 938 940 940 940 937 937 937 938 944 948 950 951 953 954 957 960 962 963 963 964 964 967 969 971 972 974 975 977 978 980 980 981 983 984 986 987 988 991 993 995 997 998 999 1000 1002 1003 1003 1003 1003 1004 1004 1005 1006 1007 1009 1012 1015 1017 1019 1022 1025 1028 1030 1031 1031 1031 1032 1033 1033 1033 1029 1029 1029 1046 1050 1058 1066 1067 1069 1069 1066 1066 1066 1065 1066 1067 1071 1075 1075 1077 1080 1083 1085 1086 1086 1087 1088 1089 1091 1093 1093 1095 1097 1097 1098 1100 1102 1104 1107 1108 1110 1111 1113 1115 1117 1119 1121 1122 1123 1125 1127 1129 1131 1132 1133 1135 1137 1139 1141 1143 1145 1146 1149 1151 1154 1156 1157 1160 1162 1163 1164 1166 1167 1169 1170 1172 1174 1177 1181 1184 1185 1187 1189 1191 1194 1195 1195 1196 1196 1198 1198 1200 1202 1207 1211 1211 1212 1213 1219 1219 1220 1220 1222 1225 1227 1231 1233 1234 1238 1242 1246 1247 1248 1268 1512 1603 1800 2387 2483 2512 2556 2570 2601 2684 2753 2842 2896 2939 3048 3048 3048 3042 3042 3042 3042 3057 3061 3062 3069 3069 3071 3075 3077 3119 3124 3129 3138 3138 3141 3168 3177 3179 3179 3180 3184 3186 3186 3186 3185 3184 3155 3103 3103 3103 3115 3117 3117 3117 3112 3094 3075 3075 3075 3072 3072 3067 3058 2987 2795 2473 2385 2372 2369 2369 2358 2358 2353 2260 2122 2042 2031 2030 2030 2030 2032 2035 2037 2038 2038 2038 2040 2042 2042 2043 2044 2045 2046 2048 2049 2051 2052 2053 2053 2054 2056 2059 2061 2062 2063 2063 2064 2066 2070 2071 2073 2074 2075 2077 2079 2081 2083 2084 2086 2088 2090 2092 2094 2096 2097 2099 2100 2100 2101 2102 2102 2104 2108 2111 2112 2113 2114 2115 2116 2119 2122 2125 2127 2128 2132 2136 2137 2137 2137 2137 2137 2138 2139 2141 2142 2144 2145 2147 2148 2150 2152 2155 2157 2159 2160 2161 2162 2165 2170 2171 2172 2175 2179 2183 2183 2184 2185 2186 2187 2187 2190 2191 2192 2192 2193 2194 2194 2196 2197 2199 2200 2201 2202 2205 2207 2209 2212 2214 2215 2217 2219 2221 2223 2225 2227 2229 2231 2232 2233 2235 2236 2238 2241 2241 2242 2243 2245 2248 2250 2252 2254 2256 2257 2259 2261 2265 2268 2268 2269 2269 2271 2271 2272 2272 2273 2274 2274 2276 2277 2279 2283 2288 2290 2291 2291 2291 2292 2295 2297 2301 2303 2304 2305 2306 2309 2311 2311 2311 2310 2309 2309 2308 2308 2307 2307 2307 2307 2311 2316 2319 2319 2321 2329 2334 2336 2339 2342 2344 2347 2349 2352 2353 2354 2354 2354 2354 2355 2357 2358 2358 2358 2358 2360 2360 2361 2370 2375 2376 2377 2381 2408 2610 2695 2915 2929 2929 2937 2951 2951 2951 2945 2940 2940 2940 2941 2951 2953 2955 2955 2953 2952 2948 2945 2944 2944 2944 2964 2964 2964 2953 2944 2930 2912 2883 2849 2782 2674 2578 2392 2264 2261 2249 2243 2226 2213 2199 2191 2184 2172 2159 2150 2138 2126 2115 2110 2105 2098 2089 2084 2078 2073 2069 2065 2062 2058 2053 2043 2035 2028 2024 2020 2017 2014 2010 2004 1998 1991 1986 1980 1976 1973 1971 1969 1967 1965 1962 1961 1960 1960 1959 1956 1954 1951 1951 1950 1949 1947 1947 1944 1942 1939 1937 1934 1932 1928 1926 1923 1922 1920 1918 1916 1915 1915 1915 1914 1911 1911 1911 1911 1913 1914 1914 1914 1914 1914 1913 1912 1910 1908 1908 1908 1908 1908 1908 1907 1906 1905 1903 1902 1901 1901 1902 1902 1902 1902 1899 1895 1887 1887 1887 1904 1904 1908 1904 1904
933 933 940 940 940 932 932 932 938 943 947 949 951 952 954 957 959 960 962 962 963 963 966 968 970 971 973 974 976 976 977 978 980 981 982 984 986 987 990 993 994 996 997 999 1000 1002 1003 1003 1003 1003 1003 1003 1004 1005 1007 1009 1011 1014 1016 1017 1021 1024 1027 1028 1030 1031 1031 1032 1032 1032 1032 1028 1028 1028 1030 1032 1045 1067 1077 1077 1077 1075 1065 1064 1059 1059 1059 1066 1072 1075 1077 1080 1083 1086 1086 1086 1086 1087 1089 1089 1090 1091 1091 1093 1094 1096 1097 1100 1103 1104 1106 1108 1110 1112 1115 1117 1118 1120 1120 1122 1124 1126 1128 1130 1131 1133 1134 1136 1138 1140 1142 1144 1146 1148 1150 1152 1155 1156 1158 1160 1162 1163 1166 1167 1168 1170 1172 1174 1177 1179 1182 1184 1185 1185 1189 1191 1192 1194 1194 1196 1197 1198 1199 1201 1204 1209 1209 1211 1212 1218 1219 1220 1220 1222 1225 1227 1229 1233 1233 1234 1237 1240 1242 1248 1267 1288 1311 1358 1418 1476 1556 2007 2269 2406 2467 2472 2531 2544 2560 2647 2713 2746 2802 2870 2950 2954 2962 2963 2963 2963 2983 2985 2986 3001 3045 3072 3082 3091 3111 3131 3153 3177 3178 3178 3180 3183 3184 3184 3184 3183 3181 3148 3102 3102 3102 3115 3117 3117 3117 3111 3090 3073 3059 3059 3059 3058 3058 3058 2986 2787 2443 2385 2367 2347 2358 2358 2358 2347 2251 2108 2041 2031 2031 2031 2032 2032 2035 2037 2038 2038 2038 2040 2042 2043 2044 2044 2045 2048 2049 2051 2052 2054 2055 2055 2056 2058 2059 2061 2062 2063 2063 2064 2067 2070 2071 2073 2075 2076 2078 2079 2081 2083 2084 2086 2088 2090 2092 2094 2096 2097 2099 2101 2101 2101 2103 2103 2104 2108 2111 2113 2113 2114 2116 2116 2119 2122 2125 2129 2130 2133 2136 2138 2138 2138 2138 2138 2138 2139 2139 2141 2144 2145 2147 2148 2150 2152 2155 2157 2159 2159 2160 2162 2165 2170 2171 2172 2174 2174 2179 2183 2185 2186 2187 2188 2189 2191 2192 2192 2193 2193 2195 2196 2196 2198 2199 2200 2200 2201 2203 2205 2207 2210 2213 2215 2217 2219 2221 2223 2225 2227 2229 2231 2232 2233 2235 2236 2238 2241 2241 2242 2243 2245 2248 2250 2252 2254 2256 2257 2259 2262 2265 2268 2269 2269 2269 2271 2271 2272 2272 2273 2274 2275 2278 2279 2280 2284 2289 2290 2291 2291 2293 2293 2296 2299 2302 2304 2305 2305 2306 2309 2311 2311 2311 2311 2309 2309 2309 2309 2308 2308 2308 2309 2312 2316 2321 2322 2326 2333 2336 2337 2340 2342 2344 2347 2351 2352 2355 2355 2355 2355 2355 2355 2357 2358 2358 2360 2360 2361 2361 2363 2370 2375 2382 2383 2384 2431 2616 2764 2929 2929 2937 2937 2951 2951 2951 2939 2935 2935 2935 2941 2950 2950 2950 2952 2952 2952 2952 2952 2944 2944 2944 2963 2963 2963 2953 2948 2945 2927 2900 2849 2760 2649 2534 2288 2263 2253 2248 2240 2226 2213 2199 2191 2184 2172 2161 2150 2138 2122 2114 2109 2103 2097 2089 2082 2078 2075 2072 2069 2064 2060 2053 2043 2035 2028 2024 2020 2017 2012 2006 2002 1998 1991 1986 1981 1978 1975 1972 1969 1967 1965 1962 1960 1959 1958 1958 1955 1953 1951 1951 1951 1950 1948 1947 1944 1942 1939 1937 1935 1932 1929 1927 1925 1923 1921 1919 1917 1915 1915 1915 1914 1911 1911 1911 1911 1913 1914 1914 1915 1915 1915 1914 1912 1911 1908 1908 1908 1908 1908 1908 1908 1907 1906 1906 1906 1904 1904 1905 1905 1905 1905 1903 1895 1887 1887 1887 1904 1904 1909 1904 1904
929 929 940 940 940 930 930 930 934 941 946 948 950 952 953 956 958 960 962 962 962 963 965 968 969 970 971 972 972 974 976 977 977 978 981 981 983 984 987 989 992 994 996 997 999 1000 1001 1002 1002 1002 1002 1003 1003 1005 1006 1008 1011 1013 1015 1017 1018 1021 1023 1026 1028 1030 1031 1031 1031 1031 1026 1019 1015 1011 1011 1011 1042 1061 1077 1077 1077 1072 1060 1060 1059 1059 1059 1063 1072 1076 1077 1084 1087 1087 1087 1087 1087 1087 1089 1089 1089 1090 1090 1091 1093 1094 1096 1098 1101 1102 1105 1106 1109 1111 1113 1115 1117 1119 1119 1121 1123 1126 1127 1129 1130 1132 1134 1136 1138 1139 1141 1143 1145 1147 1149 1151 1153 1156 1156 1159 1160 1162 1165 1166 1168 1170 1172 1174 1177 1179 1181 1183 1184 1185 1186 1189 1191 1192 1194 1194 1196 1198 1199 1201 1203 1206 1208 1211 1211 1215 1219 1220 1220 1222 1225 1227 1228 1229 1230 1232 1236 1240 1242 1248 1255 1258 1266 1281 1294 1304 1312 1332 1371 1440 1527 1878 2113 2284 2327 2413 2413 2414 2440 2457 2574 2683 2694 2695 2695 2741 2767 2785 2819 2902 2958 2981 2984 2999 3034 3066 3101 3105 3121 3149 3176 3181 3182 3182 3182 3181 3174 3123 3102 3102 3102 3115 3117 3117 3117 3108 3088 3068 3057 3051 3051 3047 3043 3043 2980 2767 2403 2343 2343 2343 2345 2348 2348 2345 2238 2093 2036 2031 2031 2031 2032 2032 2035 2037 2038 2038 2038 2040 2042 2043 2045 2045 2047 2049 2050 2052 2054 2056 2057 2057 2057 2058 2060 2062 2062 2062 2063 2064 2067 2070 2072 2074 2075 2076 2078 2080 2081 2083 2084 2086 2088 2090 2092 2094 2096 2097 2099 2101 2101 2101 2103 2104 2104 2108 2111 2113 2114 2114 2115 2116 2119 2122 2125 2129 2130 2133 2136 2138 2138 2138 2138 2138 2138 2139 2139 2141 2144 2146 2147 2149 2150 2152 2155 2157 2159 2159 2160 2162 2165 2170 2171 2171 2172 2172 2177 2183 2186 2187 2191 2192 2193 2193 2194 2194 2194 2195 2196 2198 2198 2199 2199 2200 2200 2201 2203 2205 2207 2209 2211 2214 2216 2218 2219 2222 2225 2227 2228 2230 2231 2232 2234 2236 2239 2241 2241 2242 2244 2246 2248 2250 2252 2255 2256 2258 2259 2262 2265 2268 2269 2269 2269 2271 2271 2272 2273 2274 2274 2275 2279 2280 2283 2285 2289 2291 2292 2294 2295 2295 2297 2300 2302 2304 2305 2305 2306 2309 2312 2312 2312 2311 2310 2310 2310 2310 2310 2311 2311 2311 2315 2319 2322 2323 2331 2339 2339 2340 2341 2342 2344 2347 2351 2352 2355 2355 2355 2355 2355 2355 2357 2359 2360 2360 2361 2361 2362 2364 2367 2375 2383 2384 2410 2495 2631 2781 2932 2936 2937 2937 2951 2951 2951 2939 2935 2935 2935 2937 2946 2946 2946 2952 2952 2952 2952 2952 2948 2948 2948 2949 2951 2951 2949 2948 2945 2927 2900 2849 2759 2647 2452 2288 2263 2252 2248 2238 2224 2203 2193 2186 2180 2172 2161 2150 2137 2122 2114 2109 2103 2096 2088 2082 2078 2075 2072 2069 2064 2060 2053 2043 2035 2029 2024 2019 2016 2012 2006 2000 1996 1991 1986 1981 1978 1975 1972 1969 1967 1965 1961 1959 1958 1957 1956 1955 1953 1952 1951 1951 1950 1948 1947 1944 1942 1939 1937 1935 1932 1929 1927 1926 1925 1922 1920 1918 1917 1917 1915 1915 1914 1913 1913 1913 1913 1915 1915 1915 1915 1915 1914 1912 1911 1908 1908 1908 1908 1908 1908 1908 1908 1909 1909 1909 1908 1908 1907 1905 1905 1905 1903 1900 1900 1900 1905 1905 1905 1911 1904 1904
929 929 936 936 936 929 929 929 933 937 942 946 948 952 953 956 957 959 959 959 960 961 965 967 968 968 969 971 971 973 973 974 975 976 978 979 980 983 986 988 990 993 994 996 997 998 999 1000 1000 1001 1001 1003 1003 1004 1006 1008 1010 1011 1012 1014 1016 1019 1021 1023 1027 1028 1028 1028 1027 1024 1015 1015 1014 994 994 994 1035 1059 1077 1077 1077 1072 1052 1050 1050 1052 1052 1055 1061 1077 1094 1094 1094 1090 1089 1088 1088 1088 1089 1090 1090 1090 1090 1091 1092 1093 1095 1096 1098 1101 1102 1103 1107 1109 1112 1114 1116 1117 1118 1120 1123 1125 1127 1129 1130 1132 1132 1135 1137 1139 1141 1142 1144 1147 1149 1150 1152 1155 1155 1158 1159 1162 1163 1165 1167 1170 1172 1174 1176 1178 1180 1182 1184 1185 1186 1187 1189 1191 1193 1194 1196 1197 1199 1201 1203 1205 1208 1210 1211 1212 1214 1217 1219 1222 1225 1227 1227 1228 1230 1231 1235 1239 1244 1248 1254 1255 1257 1257 1259 1260 1264 1275 1278 1290 1327 1368 1413 1468 1542 1742 2002 2166 2233 2240 2263 2264 2290 2292 2317 2359 2390 2443 2497 2564 2610 2637 2772 2812 2827 2852 2883 2907 2972 3024 3080 3137 3138 3138 3137 3134 3103 3079 3079 3079 3088 3088 3088 3088 3076 3076 3072 3060 3048 3044 3043 3037 3037 3027 2978 2759 2376 2323 2323 2323 2337 2345 2345 2345 2206 2076 2028 2028 2028 2031 2032 2032 2034 2035 2036 2037 2039 2040 2042 2044 2045 2046 2048 2049 2051 2053 2054 2056 2057 2058 2059 2061 2062 2062 2062 2062 2063 2064 2067 2070 2072 2074 2075 2077 2079 2080 2082 2083 2084 2086 2088 2090 2092 2094 2095 2096 2099 2101 2103 2103 2103 2104 2105 2111 2114 2114 2114 2115 2115 2116 2117 2120 2124 2129 2130 2133 2135 2136 2139 2139 2139 2139 2139 2139 2139 2141 2145 2147 2148 2149 2151 2153 2155 2157 2159 2159 2160 2163 2166 2170 2171 2172 2172 2172 2177 2182 2186 2187 2191 2193 2194 2194 2195 2195 2195 2196 2197 2198 2199 2199 2200 2200 2201 2201 2203 2205 2207 2209 2211 2213 2215 2217 2219 2222 2225 2227 2228 2229 2230 2231 2234 2237 2239 2240 2241 2242 2244 2248 2249 2252 2254 2255 2256 2259 2261 2262 2266 2267 2269 2269 2269 2270 2272 2272 2273 2274 2275 2276 2279 2281 2284 2287 2292 2293 2294 2295 2296 2297 2299 2301 2304 2305 2306 2306 2307 2310 2313 2313 2313 2311 2311 2311 2311 2313 2314 2314 2315 2316 2319 2321 2324 2325 2331 2339 2342 2342 2342 2342 2344 2347 2351 2352 2352 2354 2354 2355 2355 2355 2357 2360 2360 2360 2361 2361 2362 2364 2365 2375 2383 2384 2410 2515 2646 2786 2942 2946 2949 2951 2951 2951 2951 2939 2935 2935 2935 2937 2937 2937 2907 2907 2907 2949 2950 2956 2959 2958 2958 2958 2954 2948 2948 2947 2945 2927 2900 2833 2731 2613 2452 2288 2262 2249 2245 2237 2220 2197 2187 2182 2178 2170 2161 2150 2133 2122 2114 2111 2103 2095 2087 2082 2078 2075 2072 2069 2064 2060 2051 2042 2035 2028 2024 2019 2015 2008 2004 1999 1995 1991 1986 1981 1978 1975 1972 1969 1967 1965 1961 1958 1957 1956 1956 1954 1953 1952 1952 1951 1950 1948 1947 1944 1942 1939 1936 1934 1932 1930 1928 1927 1925 1923 1921 1919 1919 1918 1917 1917 1917 1917 1917 1917 1917 1917 1917 1917 1916 1916 1914 1913 1911 1909 1909 1909 1912 1912 1915 1915 1915 1915 1915 1914 1913 1908 1907 1905 1905 1905 1903 1902 1902 1902 1912 1912 1912 1911 1906 1906
929 929 933 933 933 928 928 928 933 937 941 944 946 950 952 953 955 956 956 957 958 960 964 965 967 968 968 969 970 971 972 973 973 974 975 977 979 982 985 987 989 991 993 996 997 997 998 998 999 999 1000 1001 1002 1004 1004 1007 1009 1010 1011 1013 1014 1017 1019 1020 1023 1025 1025 1025 1024 1022 1014 1014 1002 994 967 967 967 1054 1054 1054 1053 1052 1048 1047 1042 1047 1048 1052 1061 1085 1094 1094 1094 1090 1089 1082 1082 1082 1087 1088 1088 1088 1088 1090 1091 1091 1094 1096 1098 1100 1101 1102 1106 1107 1110 1112 1114 1115 1117 1119 1121 1123 1126 1128 1130 1131 1132 1134 1136 1138 1139 1142 1144 1146 1147 1149 1152 1153 1155 1156 1158 1159 1163 1165 1167 1168 1171 1173 1174 1176 1179 1181 1183 1185 1186 1187 1189 1190 1192 1194 1196 1197 1198 1200 1203 1205 1207 1209 1210 1212 1214 1215 1215 1216 1221 1227 1227 1228 1230 1230 1234 1238 1244 1247 1251 1254 1256 1256 1258 1259 1259 1262 1274 1275 1276 1287 1299 1316 1332 1350 1401 1452 1483 1565 1714 2109 2157 2157 2231 2257 2297 2378 2397 2397 2401 2401 2433 2442 2455 2470 2478 2508 2622 2670 2700 2824 2874 2898 2926 2935 2935 2943 2943 2967 3023 3023 3023 3003 3003 3003 3003 3003 3000 3000 3000 2998 2998 2998 2944 2699 2359 2312 2312 2312 2330 2344 2344 2344 2170 2030 2026 2026 2026 2028 2030 2032 2032 2033 2036 2037 2039 2041 2042 2044 2045 2047 2049 2051 2052 2054 2055 2056 2058 2058 2061 2063 2063 2063 2063 2063 2063 2064 2068 2070 2072 2074 2076 2077 2079 2080 2082 2083 2084 2086 2088 2090 2092 2094 2095 2096 2098 2101 2103 2104 2105 2106 2109 2113 2115 2115 2116 2115 2116 2116 2117 2120 2124 2126 2130 2133 2135 2136 2138 2139 2139 2138 2138 2139 2139 2141 2145 2148 2148 2149 2151 2153 2155 2157 2159 2160 2161 2163 2167 2170 2171 2172 2172 2172 2177 2181 2186 2187 2191 2194 2196 2196 2196 2196 2196 2197 2198 2199 2200 2200 2200 2200 2201 2202 2204 2205 2208 2209 2211 2213 2215 2216 2219 2221 2225 2227 2227 2228 2230 2231 2234 2237 2239 2240 2241 2242 2245 2249 2250 2252 2254 2256 2258 2261 2264 2264 2266 2267 2269 2269 2270 2270 2272 2272 2274 2275 2275 2277 2280 2283 2291 2292 2292 2293 2294 2297 2298 2299 2301 2302 2305 2307 2308 2308 2308 2310 2313 2313 2313 2312 2312 2312 2312 2313 2316 2318 2318 2319 2321 2323 2325 2325 2333 2339 2342 2342 2342 2342 2344 2346 2349 2350 2351 2351 2353 2353 2354 2355 2357 2360 2360 2360 2360 2360 2362 2363 2363 2365 2367 2376 2410 2533 2685 2786 2942 2946 2959 2959 2959 2956 2952 2946 2942 2939 2939 2938 2938 2937 2907 2907 2907 2941 2950 2959 2959 2959 2958 2958 2953 2945 2937 2929 2917 2904 2895 2812 2693 2574 2452 2288 2262 2242 2235 2227 2214 2195 2187 2182 2177 2169 2160 2147 2133 2122 2117 2111 2103 2095 2087 2082 2078 2072 2070 2065 2059 2055 2049 2040 2034 2028 2023 2018 2013 2006 2002 1999 1995 1990 1984 1980 1976 1972 1970 1967 1965 1962 1959 1958 1955 1955 1955 1954 1954 1953 1951 1951 1949 1948 1947 1944 1942 1939 1936 1935 1932 1930 1928 1927 1925 1923 1921 1920 1919 1918 1918 1917 1917 1917 1917 1917 1917 1918 1918 1918 1917 1916 1914 1913 1911 1909 1909 1909 1912 1912 1915 1915 1915 1915 1915 1914 1914 1909 1906 1902 1902 1900 1900 1903 1907 1919 1919 1919 1917 1912 1911 1911
931 931 932 932 932 928 928 928 933 937 941 944 946 949 950 951 953 954 954 956 957 959 961 965 966 967 967 968 969 970 971 972 973 973 974 975 978 981 983 986 988 991 992 996 997 997 997 997 998 998 1000 1000 1001 1003 1004 1005 1008 1009 1010 1011 1013 1015 1017 1019 1019 1020 1021 1021 1021 1018 1013 1004 999 998 967 0 967 1023 1047 1051 1051 1047 1031 1027 1023 1027 1027 1035 1056 1087 1094 1094 1094 1090 1084 1083 1083 1084 1087 1088 1088 1088 1088 1089 1091 1091 1094 1096 1097 1099 1100 1102 1104 1106 1107 1109 1112 1114 1115 1118 1119 1122 1124 1126 1128 1130 1132 1133 1135 1137 1139 1141 1143 1145 1146 1148 1149 1151 1154 1155 1156 1158 1160 1163 1166 1167 1169 1171 1173 1174 1177 1180 1182 1183 1184 1186 1188 1189 1191 1193 1194 1196 1198 1200 1202 1203 1206 1208 1210 1212 1213 1215 1215 1216 1221 1226 1227 1228 1230 1230 1234 1238 1244 1247 1249 1250 1255 1256 1256 1258 1259 1261 1272 1273 1273 1273 1275 1285 1287 1293 1307 1323 1343 1382 1431 1461 1462 1502 1565 1635 1736 1866 2011 2191 2292 2303 2374 2381 2389 2389 2389 2389 2427 2429 2481 2499 2503 2510 2511 2525 2537 2543 2563 2578 2654 2748 2758 2793 2813 2851 2851 2867 2878 2878 2896 2896 2896 2894 2824 2567 2342 2311 2311 2311 2325 2325 2325 2313 2155 2030 2021 2021 2021 2025 2029 2030 2031 2033 2035 2036 2039 2041 2043 2045 2046 2048 2049 2051 2053 2054 2055 2057 2058 2058 2061 2063 2063 2063 2063 2063 2063 2064 2068 2070 2074 2075 2076 2077 2079 2080 2082 2083 2083 2084 2087 2089 2092 2094 2095 2096 2098 2100 2103 2104 2106 2108 2110 2114 2115 2116 2116 2116 2116 2117 2117 2120 2123 2126 2130 2133 2134 2136 2138 2139 2139 2139 2139 2140 2140 2142 2145 2148 2148 2149 2151 2154 2156 2158 2160 2160 2161 2164 2168 2170 2172 2172 2172 2175 2177 2181 2184 2187 2190 2194 2196 2196 2197 2197 2197 2198 2199 2200 2200 2200 2200 2200 2202 2203 2205 2206 2209 2210 2211 2213 2215 2216 2218 2220 2225 2227 2227 2227 2230 2230 2233 2237 2239 2240 2242 2244 2247 2249 2251 2252 2254 2256 2259 2262 2265 2265 2266 2267 2269 2270 2270 2270 2272 2272 2275 2276 2277 2281 2283 2288 2293 2293 2293 2293 2294 2297 2300 2302 2302 2305 2306 2308 2309 2310 2310 2311 2314 2314 2314 2314 2314 2314 2314 2314 2318 2318 2319 2321 2322 2323 2325 2325 2333 2339 2342 2342 2342 2342 2344 2346 2347 2348 2350 2350 2352 2353 2353 2355 2357 2359 2359 2360 2360 2359 2359 2362 2363 2364 2367 2376 2410 2533 2694 2789 2942 2946 2960 2964 2964 2964 2957 2949 2942 2939 2939 2939 2938 2938 2907 2907 2907 2941 2950 2957 2959 2959 2958 2958 2954 2945 2937 2929 2917 2904 2854 2763 2663 2556 2435 2288 2253 2242 2234 2218 2212 2195 2186 2181 2175 2168 2160 2145 2132 2124 2119 2111 2103 2095 2087 2082 2078 2072 2066 2057 2053 2049 2044 2034 2028 2024 2020 2015 2009 2004 1999 1995 1992 1988 1984 1980 1976 1972 1969 1965 1963 1961 1958 1957 1955 1955 1954 1954 1954 1953 1951 1950 1949 1948 1946 1944 1941 1939 1936 1935 1933 1931 1929 1927 1926 1923 1921 1921 1920 1918 1918 1918 1917 1917 1917 1917 1917 1918 1918 1918 1918 1916 1915 1913 1913 1911 1911 1911 1911 1911 1915 1915 1915 1915 1915 1914 1914 1910 1906 1902 1902 1901 1901 1903 1908 1919 1922 1922 1922 1916 1913 1913
932 932 932 932 930 930 934 934 935 937 941 944 946 948 949 951 952 952 954 955 957 958 960 962 963 966 967 967 968 969 970 972 973 973 973 973 976 980 981 984 986 989 992 994 995 996 996 996 996 997 998 999 1000 1001 1002 1004 1005 1008 1009 1010 1012 1013 1015 1016 1017 1017 1017 1017 1016 1014 1007 1005 1001 999 998 967 963 963 963 1004 1020 1020 1020 1002 999 999 999 1019 1061 1092 1094 1094 1094 1089 1084 1081 1081 1084 1084 1082 1082 1082 1082 1084 1085 1086 1089 1092 1097 1098 1100 1102 1103 1105 1107 1108 1110 1113 1113 1116 1118 1120 1123 1124 1127 1128 1130 1131 1134 1135 1137 1139 1141 1143 1145 1147 1147 1150 1152 1153 1155 1158 1160 1162 1164 1166 1168 1170 1172 1173 1175 1178 1180 1182 1184 1185 1186 1188 1189 1191 1193 1195 1196 1198 1199 1203 1205 1207 1210 1212 1213 1215 1215 1216 1221 1225 1227 1228 1229 1230 1234 1237 1244 1247 1247 1249 1249 1250 1255 1256 1259 1261 1266 1269 1270 1272 1273 1276 1278 1285 1297 1299 1300 1311 1325 1328 1346 1357 1366 1406 1451 1487 1541 1613 1680 1718 1788 1953 2140 2264 2300 2343 2372 2401 2460 2470 2470 2475 2475 2470 2467 2467 2445 2442 2442 2442 2490 2510 2520 2563 2586 2606 2672 2730 2746 2746 2746 2688 2582 2409 2310 2303 2303 2303 2322 2322 2322 2312 2148 2030 2021 2021 2021 2024 2029 2029 2031 2033 2035 2036 2039 2041 2044 2045 2048 2049 2051 2052 2053 2055 2057 2058 2058 2059 2061 2063 2065 2065 2065 2063 2063 2063 2067 2072 2074 2075 2076 2077 2078 2080 2081 2081 2082 2084 2086 2089 2092 2094 2095 2096 2098 2100 2102 2104 2106 2108 2111 2114 2115 2116 2116 2116 2116 2117 2118 2120 2123 2125 2129 2133 2134 2136 2138 2139 2139 2139 2139 2140 2141 2144 2146 2148 2148 2150 2152 2155 2157 2159 2160 2161 2162 2164 2168 2170 2170 2171 2173 2177 2179 2181 2184 2187 2190 2194 2196 2196 2197 2198 2198 2199 2199 2200 2200 2201 2201 2201 2202 2203 2205 2207 2210 2212 2213 2214 2215 2216 2218 2220 2225 2227 2227 2227 2230 2231 2234 2237 2239 2241 2243 2245 2247 2249 2251 2254 2254 2257 2260 2263 2266 2266 2269 2270 2270 2270 2271 2271 2272 2272 2276 2276 2282 2285 2288 2290 2293 2295 2295 2295 2295 2298 2300 2302 2303 2305 2307 2309 2311 2313 2313 2314 2315 2315 2315 2315 2315 2315 2315 2316 2319 2320 2321 2321 2324 2324 2327 2329 2333 2339 2342 2343 2343 2343 2344 2346 2347 2348 2349 2350 2351 2352 2353 2354 2357 2359 2359 2360 2360 2359 2359 2361 2363 2364 2367 2376 2410 2533 2702 2820 2925 2940 2963 2964 2964 2964 2959 2953 2943 2942 2940 2940 2940 2938 2917 2917 2917 2941 2950 2950 2950 2950 2950 2945 2945 2945 2937 2929 2917 2904 2854 2756 2628 2540 2414 2271 2253 2242 2234 2218 2210 2195 2186 2181 2175 2168 2158 2144 2132 2124 2119 2111 2102 2095 2088 2083 2079 2072 2066 2057 2048 2041 2037 2032 2026 2020 2016 2012 2009 2004 1999 1995 1991 1988 1984 1980 1976 1972 1968 1965 1963 1961 1958 1957 1955 1954 1954 1954 1954 1953 1951 1950 1949 1948 1946 1944 1941 1939 1937 1936 1934 1932 1930 1927 1926 1923 1921 1921 1920 1918 1918 1917 1917 1917 1917 1917 1918 1918 1918 1918 1918 1916 1915 1913 1913 1911 1911 1911 1911 1911 1911 1913 1913 1913 1914 1914 1913 1910 1906 1902 1902 1902 1905 1912 1914 1920 1922 1922 1922 1921 1916 1916
931 931 928 931 931 934 935 936 936 937 941 943 945 948 948 949 951 952 953 954 956 957 960 961 962 964 965 965 966 967 969 970 971 972 972 973 975 976 978 981 984 987 989 991 993 993 993 994 994 995 996 998 999 1000 1001 1002 1004 1006 1008 1010 1010 1011 1013 1015 1015 1016 1016 1016 1015 1014 1013 1005 1005 1005 1005 1005 960 960 960 965 1006 1006 1006 998 997 997 998 1019 1064 1070 1070 1070 1068 1068 1068 1073 1081 1083 1083 1081 1081 1075 1075 1075 1079 1084 1085 1087 1090 1091 1097 1101 1102 1103 1105 1107 1110 1111 1112 1115 1116 1119 1121 1123 1125 1127 1128 1131 1132 1134 1136 1138 1140 1141 1143 1145 1147 1149 1150 1153 1154 1156 1158 1161 1163 1164 1167 1168 1170 1172 1174 1176 1178 1180 1181 1183 1185 1186 1188 1189 1191 1194 1195 1197 1199 1201 1204 1206 1209 1212 1213 1215 1216 1218 1221 1224 1227 1228 1228 1230 1232 1235 1240 1245 1247 1248 1248 1248 1253 1256 1259 1261 1265 1269 1269 1270 1273 1274 1276 1278 1282 1285 1287 1290 1291 1298 1311 1312 1312 1325 1345 1355 1373 1395 1415 1456 1508 1559 1617 1702 1807 1946 2093 2142 2224 2377 2413 2413 2425 2413 2413 2413 2390 2390 2390 2409 2448 2467 2467 2467 2450 2450 2450 2458 2463 2463 2463 2452 2412 2306 2258 2258 2258 2294 2320 2320 2320 2309 2140 2030 2021 2021 2021 2022 2024 2027 2029 2031 2033 2036 2039 2042 2044 2046 2048 2049 2052 2053 2055 2056 2058 2059 2059 2060 2061 2064 2065 2065 2065 2063 2063 2063 2067 2072 2074 2075 2076 2077 2078 2080 2080 2081 2082 2084 2086 2088 2091 2092 2095 2096 2098 2100 2101 2104 2106 2109 2112 2114 2115 2116 2116 2117 2117 2118 2120 2121 2123 2124 2128 2133 2134 2136 2138 2139 2139 2140 2141 2142 2143 2146 2148 2150 2151 2151 2152 2155 2158 2160 2161 2163 2163 2164 2168 2170 2170 2170 2174 2178 2179 2181 2184 2187 2190 2194 2196 2196 2197 2198 2198 2199 2200 2200 2201 2201 2201 2202 2202 2204 2205 2207 2210 2212 2213 2215 2216 2218 2218 2220 2224 2227 2227 2227 2230 2231 2234 2237 2240 2242 2243 2245 2247 2250 2252 2254 2256 2258 2261 2263 2266 2268 2270 2271 2272 2272 2272 2272 2272 2273 2276 2286 2287 2288 2290 2292 2296 2296 2297 2297 2297 2298 2301 2303 2304 2306 2308 2310 2311 2313 2314 2314 2315 2315 2315 2315 2315 2315 2317 2320 2320 2322 2322 2322 2325 2328 2328 2329 2333 2339 2342 2343 2343 2343 2344 2346 2347 2348 2349 2350 2350 2352 2353 2354 2356 2359 2359 2360 2360 2359 2359 2361 2364 2365 2369 2377 2418 2577 2702 2874 2925 2940 2963 2964 2964 2964 2959 2953 2953 2953 2954 2963 2963 2963 2940 2940 2940 2940 2942 2942 2942 2942 2942 2953 2956 2956 2956 2946 2938 2898 2853 2756 2610 2508 2321 2271 2253 2244 2234 2218 2201 2195 2186 2181 2175 2167 2155 2142 2132 2124 2119 2111 2102 2095 2088 2083 2079 2072 2065 2055 2047 2041 2035 2030 2025 2020 2016 2012 2009 2004 1999 1995 1991 1988 1985 1982 1978 1973 1968 1965 1963 1961 1958 1957 1955 1954 1954 1953 1952 1952 1950 1949 1949 1948 1946 1944 1941 1940 1937 1936 1934 1932 1930 1928 1926 1923 1922 1921 1920 1919 1918 1917 1917 1917 1917 1917 1917 1919 1919 1919 1919 1917 1914 1913 1913 1912 1911 1911 1911 1911 1911 1911 1911 1913 1914 1915 1915 1915 1913 1909 1909 1909 1917 1919 1920 1923 1923 1924 1924 1923 1923 1923
930 930 928 930 930 936 937 937 937 937 939 941 944 946 948 949 949 951 953 954 955 956 958 959 960 961 962 963 964 966 966 969 970 971 971 972 973 975 977 979 982 985 987 988 989 990 990 991 992 994 995 996 997 998 999 1000 1002 1004 1007 1008 1010 1011 1012 1012 1013 1015 1015 1015 1014 1013 1009 1005 1005 1005 1006 1006 1006 949 949 949 967 991 994 997 997 997 998 1019 1064 1068 1068 1068 1050 1050 1050 1070 1076 1077 1079 1079 1079 1072 1072 1072 1072 1077 1083 1085 1085 1086 1092 1098 1099 1102 1104 1106 1109 1110 1112 1113 1115 1118 1119 1121 1124 1125 1128 1129 1131 1133 1135 1137 1138 1140 1142 1143 1145 1147 1150 1151 1152 1154 1156 1159 1161 1163 1164 1167 1169 1171 1174 1175 1177 1178 1179 1181 1183 1185 1186 1188 1191 1193 1195 1197 1198 1201 1203 1205 1208 1211 1213 1215 1216 1218 1221 1224 1227 1227 1228 1230 1231 1235 1237 1241 1245 1246 1247 1248 1252 1256 1259 1260 1261 1264 1265 1267 1270 1270 1270 1274 1275 1277 1283 1287 1291 1297 1297 1297 1299 1304 1319 1334 1334 1337 1347 1370 1391 1405 1421 1442 1483 1550 1627 1665 1717 1822 2112 2293 2294 2355 2355 2355 2335 2335 2335 2367 2423 2451 2451 2451 2449 2431 2431 2431 2441 2441 2441 2427 2398 2305 2233 2233 2233 2276 2302 2302 2302 2243 2135 2030 2021 2021 2021 2021 2023 2026 2029 2031 2033 2036 2039 2042 2044 2046 2048 2050 2052 2054 2056 2058 2058 2060 2060 2060 2061 2064 2065 2065 2065 2064 2064 2064 2067 2072 2074 2075 2075 2075 2076 2078 2080 2081 2082 2083 2085 2087 2089 2091 2093 2096 2097 2100 2101 2103 2106 2109 2112 2114 2115 2116 2116 2117 2119 2120 2121 2121 2123 2124 2128 2133 2134 2136 2138 2139 2140 2142 2142 2144 2145 2147 2149 2151 2153 2154 2155 2158 2162 2164 2164 2164 2164 2165 2168 2170 2170 2170 2174 2178 2179 2182 2184 2187 2190 2193 2196 2196 2198 2198 2198 2199 2200 2201 2201 2201 2202 2202 2203 2204 2205 2207 2210 2212 2214 2216 2217 2218 2219 2221 2225 2227 2229 2229 2231 2231 2234 2240 2241 2242 2243 2245 2247 2250 2253 2256 2257 2259 2261 2264 2266 2269 2270 2271 2272 2272 2272 2272 2272 2273 2277 2286 2287 2291 2293 2294 2299 2299 2300 2300 2300 2301 2302 2304 2305 2307 2308 2311 2311 2313 2314 2314 2315 2315 2316 2316 2316 2316 2319 2322 2322 2323 2324 2324 2326 2329 2329 2330 2334 2340 2342 2343 2343 2344 2345 2346 2347 2348 2349 2349 2350 2352 2353 2354 2356 2358 2361 2362 2362 2363 2364 2366 2367 2369 2374 2380 2442 2605 2702 2889 2925 2940 2963 2963 2963 2961 2959 2958 2958 2958 2962 2963 2963 2963 2954 2945 2944 2944 2941 2940 2940 2940 2940 2951 2956 2956 2956 2946 2938 2898 2849 2741 2589 2490 2317 2268 2254 2244 2234 2218 2200 2195 2186 2180 2172 2159 2147 2139 2132 2124 2118 2110 2102 2095 2088 2083 2079 2072 2065 2055 2047 2041 2035 2028 2024 2018 2015 2012 2008 2004 2000 1996 1991 1988 1985 1982 1978 1973 1968 1965 1963 1961 1958 1957 1955 1954 1953 1952 1952 1951 1950 1948 1947 1947 1946 1944 1942 1940 1938 1936 1934 1932 1930 1928 1926 1924 1922 1921 1920 1919 1918 1918 1917 1917 1917 1917 1917 1919 1920 1920 1920 1917 1914 1913 1913 1912 1911 1911 1911 1911 1911 1911 1911 1913 1914 1921 1921 1921 1918 1917 1917 1917 1924 1924 1924 1924 1924 1924 1926 1926 1928 1928
927 927 927 930 930 939 939 939 938 938 938 940 942 944 946 948 949 951 952 954 955 956 957 957 958 959 960 962 963 963 964 966 967 969 970 970 972 973 975 977 979 982 983 984 985 986 989 990 990 991 993 995 997 998 998 999 1000 1002 1005 1006 1009 1009 1010 1011 1012 1013 1014 1014 1014 1013 1009 1006 1006 1006 1006 1006 1006 949 941 941 941 979 999 999 1000 1002 1010 1019 1045 1067 1067 1067 1043 1043 1043 1043 1050 1050 1050 1052 1053 1053 1059 1066 1072 1077 1078 1078 1085 1086 1089 1094 1097 1100 1103 1105 1107 1108 1110 1111 1114 1115 1118 1120 1122 1124 1127 1128 1130 1130 1132 1135 1137 1138 1140 1142 1144 1146 1147 1148 1151 1153 1155 1157 1159 1161 1163 1166 1168 1170 1172 1174 1176 1177 1179 1180 1181 1183 1185 1187 1189 1192 1194 1195 1198 1200 1202 1204 1207 1210 1213 1215 1216 1218 1221 1224 1226 1226 1228 1229 1231 1235 1237 1239 1242 1243 1245 1247 1251 1254 1256 1258 1260 1262 1264 1266 1269 1269 1270 1270 1272 1276 1282 1283 1289 1296 1296 1297 1299 1301 1311 1317 1320 1320 1321 1322 1324 1330 1342 1359 1393 1413 1434 1451 1474 1535 1623 1734 1849 1962 2174 2245 2263 2269 2269 2295 2371 2430 2431 2431 2431 2406 2406 2406 2420 2420 2420 2404 2389 2289 2201 2201 2201 2241 2263 2263 2263 2180 2085 2028 2021 2021 2021 2021 2023 2026 2029 2031 2033 2036 2039 2042 2044 2046 2048 2050 2052 2054 2057 2058 2059 2060 2060 2061 2062 2064 2065 2065 2065 2064 2064 2064 2065 2070 2073 2074 2074 2074 2075 2078 2080 2081 2082 2082 2085 2087 2089 2091 2093 2095 2097 2099 2100 2103 2106 2109 2112 2114 2115 2115 2116 2118 2119 2120 2121 2121 2122 2124 2128 2133 2135 2137 2138 2139 2141 2142 2144 2146 2147 2149 2151 2153 2154 2155 2157 2160 2163 2166 2166 2166 2166 2166 2168 2170 2170 2171 2175 2178 2180 2183 2186 2189 2190 2191 2194 2196 2198 2198 2199 2201 2201 2201 2202 2202 2202 2203 2204 2204 2205 2207 2210 2212 2214 2216 2217 2219 2221 2222 2225 2228 2231 2233 2234 2234 2240 2243 2243 2243 2243 2245 2247 2250 2253 2256 2260 2261 2261 2264 2266 2269 2271 2271 2272 2272 2272 2272 2272 2273 2278 2286 2287 2291 2294 2296 2299 2301 2303 2303 2303 2303 2305 2306 2306 2307 2309 2311 2312 2313 2314 2315 2316 2316 2316 2316 2316 2317 2321 2323 2324 2325 2326 2326 2329 2332 2332 2333 2338 2341 2343 2344 2344 2345 2345 2347 2348 2348 2349 2349 2350 2352 2353 2354 2356 2358 2361 2362 2363 2364 2368 2369 2370 2370 2375 2389 2448 2622 2727 2890 2933 2953 2958 2958 2958 2958 2958 2957 2958 2958 2962 2963 2963 2963 2954 2945 2941 2940 2939 2938 2939 2939 2943 2952 2956 2956 2956 2946 2938 2898 2836 2718 2561 2468 2315 2268 2254 2244 2231 2218 2200 2186 2182 2178 2171 2154 2146 2139 2131 2123 2113 2104 2098 2093 2088 2083 2078 2072 2064 2054 2047 2041 2034 2027 2023 2017 2014 2012 2009 2005 2000 1996 1992 1988 1985 1982 1978 1973 1969 1965 1963 1961 1958 1957 1955 1954 1953 1952 1951 1950 1948 1947 1946 1946 1946 1944 1942 1940 1938 1936 1934 1931 1929 1929 1927 1924 1922 1921 1920 1919 1918 1918 1917 1917 1917 1918 1918 1919 1920 1920 1920 1917 1915 1913 1913 1912 1911 1911 1911 1911 1911 1914 1920 1928 1928 1928 1928 1927 1922 1922 1922 1928 1928 1928 1926 1925 1925 1925 1929 1929 1932 1932
927 927 927 928 930 939 939 939 938 938 938 938 940 944 945 948 948 950 951 953 954 954 956 956 957 957 959 961 961 961 962 963 965 966 968 969 971 972 973 975 977 979 979 980 981 984 986 987 988 989 991 993 995 996 996 998 999 1001 1002 1004 1005 1007 1008 1010 1012 1013 1014 1014 1014 1014 1013 1009 1001 1001 1001 1001 1001 951 949 949 949 964 1000 1038 1041 1041 1049 1049 1049 1050 1050 1050 1043 1043 1043 1043 1050 1050 1050 1034 1034 1034 1040 1064 1072 1077 1077 1077 1085 1086 1088 1092 1097 1099 1101 1103 1105 1107 1108 1110 1112 1113 1115 1117 1120 1123 1124 1127 1128 1129 1131 1133 1135 1136 1139 1140 1141 1143 1145 1147 1150 1153 1155 1155 1157 1159 1163 1164 1167 1170 1172 1174 1176 1177 1178 1179 1180 1182 1183 1185 1188 1190 1192 1194 1196 1199 1201 1202 1206 1209 1211 1213 1214 1217 1220 1222 1224 1225 1226 1228 1231 1235 1236 1238 1239 1241 1244 1247 1250 1252 1254 1255 1258 1261 1263 1264 1267 1269 1269 1270 1271 1275 1279 1283 1286 1288 1292 1295 1296 1299 1307 1311 1313 1314 1314 1317 1318 1318 1322 1326 1347 1347 1356 1360 1360 1388 1434 1490 1541 1597 1675 1769 1927 2164 2204 2287 2315 2362 2404 2404 2404 2389 2389 2389 2399 2399 2399 2383 2349 2224 2169 2169 2169 2194 2206 2206 2206 2129 2070 2027 2021 2021 2021 2021 2023 2026 2030 2034 2035 2037 2039 2042 2044 2046 2048 2050 2052 2054 2057 2058 2059 2060 2060 2061 2063 2064 2065 2065 2065 2065 2065 2065 2065 2068 2072 2073 2073 2074 2075 2078 2079 2080 2081 2082 2085 2087 2089 2091 2093 2094 2096 2098 2100 2103 2106 2109 2112 2114 2115 2115 2117 2118 2119 2120 2120 2121 2121 2124 2129 2133 2135 2137 2140 2141 2142 2143 2144 2147 2148 2150 2151 2154 2155 2156 2158 2162 2164 2166 2166 2167 2168 2169 2169 2171 2171 2173 2175 2178 2181 2185 2188 2190 2191 2191 2194 2196 2198 2198 2199 2201 2201 2202 2202 2202 2204 2204 2204 2205 2205 2207 2210 2213 2215 2216 2218 2220 2221 2225 2226 2231 2234 2237 2237 2237 2242 2244 2244 2244 2245 2245 2247 2249 2253 2256 2260 2261 2261 2263 2266 2269 2271 2271 2272 2272 2272 2272 2273 2276 2283 2285 2286 2291 2296 2296 2300 2301 2303 2303 2303 2303 2305 2307 2308 2309 2309 2311 2312 2313 2314 2316 2316 2317 2317 2318 2318 2318 2321 2324 2325 2326 2326 2328 2331 2332 2332 2335 2338 2341 2343 2344 2345 2345 2345 2347 2348 2349 2349 2350 2350 2352 2353 2354 2356 2358 2361 2362 2363 2364 2368 2369 2370 2375 2381 2390 2450 2626 2780 2922 2946 2953 2953 2953 2956 2956 2956 2957 2958 2958 2962 2962 2962 2962 2954 2945 2941 2936 2936 2936 2937 2938 2944 2952 2954 2954 2954 2931 2895 2862 2810 2676 2541 2437 2299 2268 2254 2238 2227 2210 2192 2179 2172 2169 2162 2154 2146 2138 2130 2120 2110 2103 2098 2093 2088 2082 2078 2072 2063 2054 2048 2041 2034 2027 2021 2017 2013 2011 2009 2005 2001 1996 1993 1988 1985 1982 1978 1974 1970 1966 1963 1960 1958 1957 1955 1954 1953 1951 1950 1948 1947 1946 1946 1945 1945 1944 1942 1940 1938 1936 1934 1931 1929 1929 1928 1925 1923 1921 1920 1919 1918 1918 1917 1917 1917 1918 1918 1918 1919 1919 1919 1917 1915 1914 1914 1913 1912 1912 1912 1914 1919 1926 1932 1938 1938 1938 1937 1931 1928 1928 1928 1929 1929 1929 1929 1929 1929 1929 1930 1933 1933 1933
927 928 928 929 930 939 939 939 937 937 937 937 939 941 945 946 946 947 950 951 952 953 953 953 954 955 957 958 958 958 960 961 962 965 966 967 969 970 972 975 975 975 976 977 979 981 982 985 985 988 990 991 993 995 996 997 999 999 1000 1002 1003 1006 1007 1009 1011 1012 1012 1014 1014 1014 1014 1011 1004 1003 1000 997 987 962 952 952 952 964 1012 1078 1078 1078 1067 1055 1054 1049 1049 1042 1040 1040 1040 1043 1050 1050 1050 1034 1008 1008 1008 1049 1072 1077 1077 1086 1087 1089 1089 1092 1096 1097 1099 1102 1103 1105 1107 1108 1110 1112 1114 1116 1118 1120 1123 1125 1126 1128 1129 1131 1133 1135 1136 1138 1139 1141 1143 1146 1149 1152 1153 1154 1155 1156 1161 1164 1166 1168 1171 1173 1175 1177 1178 1178 1180 1181 1183 1184 1187 1188 1189 1193 1196 1198 1200 1201 1203 1207 1208 1210 1214 1215 1219 1220 1222 1223 1226 1228 1230 1233 1235 1237 1238 1240 1242 1244 1246 1249 1252 1255 1257 1259 1262 1264 1266 1268 1268 1269 1270 1273 1278 1282 1286 1287 1289 1290 1292 1295 1297 1303 1307 1309 1311 1317 1317 1317 1317 1317 1318 1327 1329 1332 1332 1334 1345 1371 1394 1447 1512 1556 1601 1730 1875 2117 2272 2281 2326 2364 2365 2371 2373 2373 2373 2373 2361 2334 2291 2195 2164 2152 2152 2152 2152 2152 2143 2100 2066 2026 2021 2021 2021 2022 2024 2027 2031 2035 2036 2037 2039 2042 2044 2046 2048 2050 2052 2054 2057 2058 2059 2059 2061 2061 2063 2065 2065 2065 2065 2065 2064 2064 2064 2068 2071 2072 2073 2074 2077 2078 2079 2080 2081 2082 2085 2087 2089 2091 2092 2094 2095 2096 2100 2103 2106 2109 2112 2114 2115 2115 2117 2118 2120 2120 2120 2121 2121 2124 2130 2134 2136 2139 2141 2143 2144 2145 2146 2147 2148 2150 2152 2154 2156 2157 2159 2162 2164 2166 2166 2167 2168 2169 2171 2174 2174 2175 2176 2177 2181 2188 2190 2190 2191 2191 2194 2196 2198 2199 2201 2202 2202 2202 2202 2203 2204 2205 2206 2206 2206 2207 2210 2213 2216 2218 2220 2222 2224 2226 2228 2233 2236 2238 2239 2239 2242 2244 2244 2245 2245 2246 2247 2249 2252 2255 2260 2261 2261 2262 2265 2269 2271 2271 2272 2272 2272 2274 2275 2277 2284 2285 2285 2290 2296 2300 2301 2301 2304 2304 2304 2305 2306 2307 2309 2309 2309 2311 2313 2314 2315 2316 2318 2319 2320 2321 2323 2323 2323 2325 2326 2327 2328 2330 2332 2333 2333 2336 2338 2341 2343 2345 2345 2345 2345 2347 2348 2349 2350 2350 2351 2352 2353 2355 2357 2358 2358 2360 2361 2361 2364 2368 2370 2378 2383 2391 2472 2636 2782 2928 2948 2953 2953 2953 2954 2954 2956 2957 2957 2958 2958 2957 2956 2954 2952 2943 2936 2933 2933 2933 2936 2938 2944 2946 2946 2946 2935 2914 2885 2840 2779 2637 2505 2407 2275 2263 2253 2238 2226 2206 2185 2172 2166 2163 2159 2153 2146 2138 2128 2119 2109 2103 2098 2093 2088 2080 2073 2069 2062 2054 2048 2041 2033 2026 2021 2017 2013 2011 2008 2004 2001 1996 1993 1989 1985 1982 1978 1974 1970 1966 1963 1961 1959 1957 1955 1954 1952 1951 1949 1948 1947 1946 1945 1945 1944 1943 1942 1940 1938 1936 1934 1931 1929 1929 1928 1926 1924 1921 1920 1919 1918 1918 1917 1917 1917 1917 1918 1918 1919 1919 1919 1917 1915 1914 1914 1913 1912 1912 1912 1915 1921 1928 1932 1939 1943 1943 1943 1937 1936 1936 1935 1935 1934 1933 1932 1932 1932 1932 1932 1933 1936 1936
928 928 931 932 936 936 936 936 935 935 935 936 939 939 942 943 946 946 947 948 950 950 950 951 952 953 954 955 955 957 957 958 960 962 964 965 967 969 971 973 973 973 974 975 977 979 980 982 985 987 988 989 991 993 995 996 997 997 998 1000 1002 1003 1006 1008 1009 1010 1011 1013 1014 1014 1014 1014 1007 1002 1000 999 987 972 962 962 962 964 1020 1088 1088 1088 1082 1059 1053 1053 1045 1041 1040 1040 1040 1043 1050 1050 1050 1034 1005 1005 1005 1029 1063 1075 1081 1086 1086 1089 1089 1089 1095 1097 1098 1100 1101 1104 1105 1108 1109 1111 1112 1114 1116 1117 1119 1121 1123 1125 1127 1129 1132 1133 1135 1136 1138 1140 1142 1145 1146 1148 1149 1152 1154 1156 1161 1164 1165 1168 1170 1172 1175 1175 1177 1178 1179 1181 1182 1183 1185 1187 1188 1190 1193 1196 1198 1199 1202 1205 1207 1209 1212 1214 1216 1219 1220 1222 1224 1226 1229 1231 1234 1235 1236 1239 1241 1243 1245 1248 1249 1253 1255 1257 1261 1262 1266 1268 1268 1269 1270 1272 1276 1281 1285 1286 1287 1287 1289 1291 1294 1296 1299 1299 1303 1308 1309 1310 1314 1315 1318 1322 1327 1327 1328 1328 1332 1338 1347 1377 1405 1406 1429 1475 1556 1662 1832 1970 2047 2172 2260 2323 2342 2351 2351 2351 2320 2295 2261 2192 2151 2133 2116 2116 2115 2115 2099 2080 2045 2011 2011 2011 2017 2022 2025 2028 2032 2036 2036 2038 2039 2042 2044 2046 2048 2050 2052 2054 2057 2058 2059 2059 2061 2062 2063 2065 2066 2066 2066 2065 2064 2064 2064 2068 2071 2072 2074 2076 2079 2079 2079 2080 2081 2082 2085 2087 2090 2091 2092 2093 2094 2096 2100 2103 2106 2109 2112 2115 2116 2116 2118 2119 2119 2120 2120 2121 2121 2124 2130 2134 2136 2139 2143 2144 2144 2145 2146 2147 2149 2151 2152 2155 2157 2157 2159 2162 2164 2164 2166 2167 2168 2169 2172 2174 2175 2175 2177 2177 2181 2188 2190 2190 2191 2191 2194 2196 2198 2199 2202 2202 2203 2203 2204 2204 2206 2206 2207 2207 2208 2209 2211 2214 2217 2221 2222 2224 2225 2228 2230 2234 2236 2238 2240 2240 2243 2245 2245 2245 2247 2247 2248 2249 2252 2255 2257 2258 2259 2262 2264 2267 2270 2271 2272 2273 2274 2275 2277 2280 2284 2284 2285 2290 2296 2301 2301 2304 2304 2304 2305 2306 2306 2307 2309 2309 2309 2311 2313 2314 2315 2317 2318 2320 2321 2323 2326 2326 2328 2328 2328 2329 2330 2332 2333 2333 2334 2336 2338 2341 2343 2344 2345 2345 2346 2347 2348 2349 2350 2350 2351 2353 2354 2356 2357 2358 2358 2358 2358 2358 2360 2361 2367 2379 2388 2401 2500 2636 2784 2929 2940 2940 2940 2940 2940 2950 2955 2955 2955 2953 2950 2950 2950 2950 2948 2943 2936 2933 2933 2933 2936 2937 2942 2942 2942 2941 2928 2914 2885 2828 2749 2603 2473 2380 2273 2262 2253 2238 2222 2204 2185 2172 2165 2161 2157 2153 2146 2138 2128 2118 2109 2103 2099 2094 2087 2078 2071 2066 2061 2054 2048 2041 2033 2026 2021 2017 2013 2011 2008 2004 2001 1996 1993 1989 1986 1982 1978 1974 1971 1967 1963 1961 1959 1957 1955 1953 1952 1951 1949 1948 1947 1945 1945 1945 1944 1943 1942 1940 1938 1936 1934 1932 1930 1929 1928 1926 1925 1922 1921 1920 1919 1919 1917 1917 1917 1918 1918 1918 1919 1919 1919 1918 1916 1915 1914 1913 1912 1912 1912 1917 1923 1929 1933 1939 1943 1943 1943 1939 1939 1939 1939 1939 1940 1941 1941 1940 1940 1939 1939 1939 1940 1940
932 933 933 933 933 933 933 932 932 932 933 934 935 938 939 942 942 944 946 946 947 947 948 949 949 950 951 952 953 954 954 955 957 960 961 964 965 967 969 970 971 972 972 973 975 977 979 980 983 985 987 988 989 991 993 995 996 997 997 1000 1002 1003 1005 1006 1007 1009 1010 1012 1014 1015 1015 1015 1008 1002 1001 999 987 987 987 987 1000 1082 1084 1088 1088 1088 1082 1059 1050 1042 1030 1021 1021 1021 1040 1043 1050 1050 1050 1034 997 997 997 1023 1056 1075 1087 1087 1087 1088 1088 1088 1092 1095 1097 1099 1100 1103 1103 1105 1107 1110 1111 1113 1113 1115 1116 1118 1120 1123 1125 1128 1129 1132 1133 1135 1136 1138 1141 1143 1145 1145 1145 1151 1154 1156 1161 1163 1164 1166 1168 1169 1172 1174 1177 1178 1179 1180 1182 1183 1184 1185 1188 1190 1192 1193 1195 1198 1200 1203 1206 1209 1211 1213 1215 1217 1219 1221 1223 1225 1227 1230 1232 1233 1236 1238 1239 1241 1245 1246 1249 1250 1252 1254 1258 1262 1263 1265 1266 1268 1270 1271 1275 1280 1282 1284 1284 1285 1287 1289 1292 1292 1294 1297 1302 1305 1306 1308 1309 1313 1314 1319 1324 1325 1326 1326 1327 1331 1338 1345 1346 1352 1365 1391 1422 1463 1547 1641 1749 1832 1891 2039 2092 2145 2212 2266 2266 2266 2231 2167 2134 2119 2096 2094 2085 2073 2058 2053 2022 2011 2011 2011 2016 2022 2025 2028 2033 2036 2037 2038 2039 2042 2044 2046 2048 2050 2051 2054 2057 2058 2059 2059 2061 2062 2063 2065 2066 2066 2066 2065 2064 2064 2064 2068 2071 2073 2075 2079 2079 2079 2079 2080 2082 2084 2086 2087 2090 2091 2092 2093 2094 2096 2100 2103 2106 2108 2112 2116 2117 2118 2119 2119 2120 2121 2121 2121 2121 2127 2131 2134 2137 2139 2143 2144 2144 2145 2146 2147 2149 2151 2153 2156 2158 2158 2159 2162 2164 2164 2166 2167 2169 2170 2172 2174 2174 2174 2176 2176 2181 2188 2189 2190 2190 2191 2194 2195 2199 2200 2202 2204 2205 2205 2205 2205 2206 2207 2208 2209 2210 2211 2213 2216 2218 2222 2224 2226 2227 2230 2232 2235 2238 2240 2241 2241 2243 2245 2245 2247 2247 2248 2248 2250 2252 2255 2257 2258 2259 2262 2264 2267 2270 2271 2274 2275 2276 2278 2280 2281 2284 2284 2287 2290 2296 2301 2303 2305 2306 2306 2306 2306 2307 2307 2309 2309 2309 2311 2313 2314 2315 2317 2318 2320 2322 2323 2326 2326 2328 2328 2328 2331 2333 2333 2333 2334 2335 2336 2339 2341 2343 2344 2345 2345 2346 2347 2348 2350 2350 2351 2351 2354 2355 2356 2357 2358 2358 2358 2358 2358 2360 2361 2367 2382 2392 2413 2594 2659 2790 2943 2943 2943 2940 2940 2940 2956 2956 2956 2955 2951 2946 2946 2946 2946 2946 2943 2936 2936 2936 2936 2936 2936 2936 2936 2935 2929 2923 2914 2885 2827 2730 2582 2471 2372 2268 2260 2252 2238 2222 2203 2183 2172 2165 2161 2156 2152 2146 2138 2128 2118 2109 2104 2100 2094 2087 2078 2070 2063 2059 2054 2048 2041 2032 2026 2021 2017 2013 2011 2007 2004 1999 1996 1993 1989 1986 1983 1980 1976 1972 1967 1964 1961 1959 1957 1955 1953 1952 1950 1949 1947 1945 1945 1944 1944 1944 1943 1942 1940 1939 1937 1935 1933 1931 1930 1928 1926 1925 1924 1923 1921 1920 1919 1918 1918 1918 1918 1918 1918 1919 1919 1919 1918 1917 1915 1914 1913 1913 1913 1915 1918 1923 1930 1932 1940 1943 1943 1944 1944 1944 1945 1945 1945 1945 1945 1943 1943 1942 1942 1942 1942 1950 1950
933 933 933 933 933 933 928 928 928 931 931 932 934 936 938 939 941 941 944 945 946 946 947 947 947 948 949 949 950 952 953 954 956 960 960 962 963 965 967 968 969 969 970 971 972 975 976 979 982 983 984 986 987 990 992 994 994 996 997 999 1001 1003 1004 1006 1007 1008 1010 1012 1014 1016 1016 1016 1010 1009 1006 1002 1002 1002 1010 1032 1069 1082 1082 1082 1082 1073 1063 1059 1022 1011 987 987 987 998 1020 1020 1020 1012 1012 1005 987 987 987 1006 1049 1075 1091 1091 1091 1088 1088 1088 1089 1092 1094 1095 1098 1101 1102 1103 1105 1107 1109 1110 1112 1113 1115 1117 1119 1120 1123 1125 1127 1129 1131 1133 1135 1137 1140 1142 1142 1142 1144 1147 1150 1156 1159 1161 1163 1163 1168 1169 1172 1174 1175 1177 1177 1180 1182 1182 1184 1185 1186 1189 1190 1192 1194 1197 1199 1202 1204 1208 1210 1211 1213 1216 1219 1220 1222 1223 1225 1227 1230 1232 1234 1236 1238 1240 1243 1245 1247 1249 1251 1253 1255 1260 1262 1262 1264 1266 1268 1271 1274 1277 1279 1281 1282 1284 1286 1287 1290 1291 1293 1296 1301 1304 1305 1308 1309 1312 1314 1319 1323 1323 1323 1323 1324 1329 1336 1341 1345 1347 1351 1359 1378 1392 1413 1460 1519 1594 1628 1715 1778 1820 1889 1951 2016 2099 2105 2105 2105 2101 2082 2079 2049 2034 2021 2011 2010 2011 2011 2011 2016 2022 2024 2028 2033 2036 2037 2038 2039 2042 2044 2046 2048 2049 2051 2053 2056 2058 2059 2060 2061 2062 2064 2065 2066 2066 2067 2067 2067 2067 2067 2069 2072 2074 2078 2079 2079 2080 2080 2080 2082 2084 2086 2087 2090 2092 2093 2093 2094 2096 2100 2104 2106 2108 2112 2116 2118 2118 2119 2119 2120 2121 2122 2123 2123 2127 2132 2134 2137 2139 2143 2144 2144 2145 2146 2147 2149 2151 2153 2156 2158 2158 2159 2161 2163 2164 2166 2167 2169 2171 2172 2174 2174 2174 2176 2176 2178 2182 2185 2188 2189 2191 2194 2195 2199 2200 2202 2205 2206 2206 2206 2206 2207 2208 2210 2211 2213 2213 2215 2217 2220 2224 2225 2228 2229 2231 2233 2235 2239 2240 2242 2242 2244 2245 2247 2248 2248 2249 2250 2253 2254 2256 2257 2258 2259 2262 2264 2267 2270 2272 2275 2277 2277 2279 2281 2281 2283 2284 2287 2292 2296 2301 2306 2307 2307 2306 2307 2307 2307 2307 2308 2308 2309 2311 2312 2314 2315 2317 2318 2321 2322 2323 2327 2328 2328 2329 2330 2332 2333 2334 2335 2335 2336 2338 2339 2341 2343 2344 2345 2346 2347 2347 2348 2350 2350 2351 2351 2354 2355 2356 2356 2356 2358 2358 2358 2358 2360 2361 2367 2390 2400 2426 2595 2693 2835 2950 2950 2950 2940 2940 2940 2956 2956 2956 2953 2951 2944 2944 2944 2943 2943 2943 2943 2940 2937 2935 2934 2934 2934 2934 2934 2929 2923 2911 2885 2827 2723 2559 2468 2309 2268 2257 2250 2238 2222 2203 2182 2172 2165 2161 2156 2152 2146 2138 2128 2119 2110 2104 2100 2094 2086 2074 2067 2059 2053 2051 2048 2040 2032 2026 2021 2017 2013 2011 2007 2004 1999 1996 1993 1990 1986 1983 1981 1977 1973 1968 1964 1961 1960 1957 1955 1953 1952 1950 1948 1947 1945 1945 1944 1943 1943 1943 1942 1940 1939 1937 1935 1934 1931 1930 1928 1926 1926 1925 1924 1923 1921 1919 1918 1918 1918 1918 1918 1919 1919 1919 1919 1918 1916 1915 1914 1913 1913 1913 1915 1918 1926 1929 1932 1936 1943 1943 1944 1944 1944 1945 1945 1945 1945 1945 1944 1944 1943 1942 1942 1942 1950 1950
933 933 933 933 931 928 927 927 927 929 930 930 933 934 936 938 939 940 942 944 944 945 946 946 946 948 948 949 950 951 952 953 955 957 960 961 962 964 966 966 967 967 967 967 969 972 973 977 979 981 983 984 986 988 990 991 992 994 996 999 1001 1002 1004 1005 1007 1008 1009 1012 1014 1016 1016 1016 1010 1009 1006 1005 1005 1005 1015 1037 1069 1069 1069 1013 992 992 992 1011 1011 1011 987 987 987 998 998 998 995 967 955 954 954 955 969 1000 1037 1075 1085 1086 1086 1086 1086 1087 1088 1090 1091 1094 1096 1098 1100 1101 1103 1105 1106 1108 1110 1111 1114 1115 1117 1119 1121 1123 1125 1127 1128 1131 1132 1135 1138 1140 1140 1140 1142 1146 1150 1156 1159 1159 1159 1161 1167 1169 1172 1174 1175 1177 1177 1178 1181 1182 1184 1185 1186 1187 1188 1191 1193 1196 1199 1201 1204 1206 1208 1210 1212 1215 1218 1220 1221 1222 1224 1225 1228 1230 1232 1234 1236 1239 1242 1244 1245 1248 1249 1252 1254 1257 1259 1261 1262 1264 1267 1270 1272 1275 1277 1280 1281 1283 1285 1287 1289 1291 1292 1296 1300 1302 1304 1307 1309 1312 1314 1318 1321 1321 1323 1323 1324 1327 1334 1341 1344 1345 1349 1350 1356 1365 1376 1395 1426 1460 1500 1531 1563 1591 1630 1682 1738 1805 1836 1854 1858 1918 2021 2026 2026 2026 2020 2010 2010 2010 2013 2013 2016 2022 2025 2029 2033 2036 2037 2038 2039 2042 2044 2046 2048 2049 2051 2053 2056 2058 2059 2060 2061 2062 2064 2066 2066 2066 2068 2068 2068 2068 2068 2071 2073 2077 2079 2080 2080 2080 2081 2081 2082 2084 2086 2087 2090 2091 2093 2098 2098 2099 2102 2104 2106 2108 2112 2117 2118 2118 2119 2120 2121 2121 2122 2125 2125 2127 2132 2134 2137 2139 2140 2142 2144 2145 2146 2147 2149 2151 2153 2155 2158 2158 2159 2161 2163 2166 2169 2170 2171 2172 2172 2173 2174 2174 2176 2177 2178 2182 2185 2188 2188 2191 2194 2195 2199 2201 2204 2206 2207 2208 2208 2208 2209 2210 2212 2213 2215 2215 2215 2218 2221 2225 2227 2229 2230 2232 2234 2237 2241 2242 2243 2245 2246 2246 2247 2249 2249 2250 2252 2255 2256 2257 2258 2259 2260 2263 2265 2267 2269 2272 2275 2277 2278 2280 2281 2281 2283 2283 2287 2293 2297 2303 2306 2307 2307 2307 2307 2307 2307 2307 2308 2308 2309 2311 2312 2314 2315 2317 2318 2320 2322 2323 2324 2327 2328 2329 2331 2335 2337 2337 2337 2338 2338 2340 2341 2343 2344 2345 2345 2346 2347 2348 2348 2350 2350 2351 2351 2354 2354 2354 2355 2356 2357 2360 2360 2360 2361 2362 2368 2390 2402 2431 2640 2702 2915 2948 2948 2948 2947 2947 2947 2951 2952 2952 2951 2951 2944 2944 2944 2945 2945 2945 2944 2941 2940 2935 2934 2934 2934 2934 2934 2929 2923 2911 2885 2828 2683 2558 2462 2307 2267 2252 2237 2227 2215 2196 2182 2172 2165 2161 2156 2149 2144 2137 2128 2120 2111 2104 2100 2094 2081 2074 2067 2059 2053 2047 2043 2037 2031 2026 2021 2018 2014 2011 2007 2003 1999 1996 1993 1990 1987 1984 1981 1977 1973 1969 1966 1963 1960 1958 1955 1954 1952 1950 1948 1947 1945 1945 1944 1942 1942 1942 1941 1940 1939 1937 1937 1935 1933 1931 1929 1927 1927 1926 1926 1924 1922 1919 1918 1918 1918 1918 1918 1919 1920 1920 1920 1918 1917 1916 1915 1914 1914 1914 1915 1918 1926 1929 1931 1935 1941 1941 1944 1944 1944 1945 1945 1945 1945 1945 1944 1944 1943 1942 1942 1942 1950 1950
932 932 927 927 924 924 924 925 927 927 927 930 931 932 935 937 938 939 941 942 943 944 944 945 946 946 947 948 948 949 950 952 953 955 956 959 962 964 966 966 966 966 966 967 968 972 973 976 977 979 981 982 985 986 988 990 990 992 994 995 999 1001 1004 1005 1006 1008 1009 1012 1014 1015 1015 1015 1010 1009 1006 1005 1005 1005 1015 1037 1042 1042 1042 1005 973 958 958 958 987 987 987 987 987 991 991 991 988 955 954 947 954 955 969 995 1037 1070 1085 1085 1085 1085 1085 1087 1087 1088 1090 1093 1095 1097 1098 1099 1101 1103 1105 1106 1108 1110 1112 1114 1116 1118 1120 1122 1124 1126 1126 1129 1131 1133 1135 1137 1140 1140 1142 1146 1150 1155 1156 1157 1158 1161 1166 1171 1177 1178 1178 1178 1178 1178 1181 1183 1184 1185 1186 1187 1188 1190 1193 1196 1198 1200 1203 1205 1207 1209 1211 1213 1216 1218 1220 1221 1223 1224 1225 1227 1229 1232 1234 1237 1240 1242 1243 1246 1249 1251 1252 1255 1257 1259 1261 1263 1266 1269 1272 1274 1276 1279 1280 1283 1284 1286 1288 1290 1292 1295 1298 1300 1304 1307 1309 1311 1314 1314 1317 1320 1321 1323 1323 1327 1333 1341 1343 1344 1344 1347 1355 1364 1374 1376 1392 1410 1420 1422 1444 1472 1482 1498 1534 1567 1607 1639 1650 1680 2020 2020 2020 2009 2009 2009 2008 2010 2013 2013 2016 2020 2025 2029 2033 2035 2037 2038 2041 2044 2047 2047 2048 2049 2051 2053 2056 2057 2059 2060 2061 2063 2064 2066 2066 2067 2068 2070 2070 2070 2072 2074 2076 2079 2080 2081 2081 2081 2082 2084 2086 2087 2087 2087 2090 2091 2093 2098 2099 2103 2104 2105 2106 2108 2113 2117 2118 2118 2119 2120 2122 2122 2124 2125 2126 2128 2132 2134 2137 2139 2140 2142 2144 2145 2146 2148 2150 2151 2153 2155 2156 2159 2160 2161 2164 2166 2169 2171 2171 2172 2172 2173 2175 2176 2177 2178 2179 2182 2185 2188 2188 2190 2194 2196 2202 2203 2205 2206 2207 2208 2209 2209 2210 2213 2214 2215 2216 2216 2217 2218 2222 2226 2228 2230 2231 2233 2236 2240 2244 2246 2246 2247 2247 2249 2249 2250 2251 2252 2253 2256 2257 2258 2259 2261 2263 2264 2266 2267 2269 2272 2275 2277 2279 2280 2281 2282 2282 2282 2288 2293 2298 2304 2306 2306 2307 2307 2307 2307 2307 2307 2308 2308 2309 2311 2312 2314 2315 2317 2318 2320 2321 2322 2324 2328 2329 2331 2335 2338 2339 2340 2342 2343 2345 2346 2346 2346 2346 2346 2346 2347 2347 2348 2348 2350 2350 2350 2350 2350 2351 2351 2353 2356 2358 2361 2361 2362 2362 2362 2368 2392 2405 2435 2646 2713 2921 2950 2950 2950 2949 2949 2949 2949 2951 2953 2952 2952 2952 2952 2951 2948 2948 2948 2947 2945 2943 2937 2934 2934 2934 2934 2934 2931 2923 2907 2882 2828 2660 2558 2436 2302 2257 2239 2221 2216 2202 2191 2181 2172 2165 2162 2156 2149 2144 2137 2128 2120 2111 2104 2098 2090 2081 2074 2067 2059 2053 2047 2040 2035 2029 2025 2021 2019 2015 2011 2007 2003 1999 1996 1993 1990 1987 1984 1981 1978 1974 1970 1967 1963 1960 1958 1955 1954 1952 1950 1948 1947 1945 1945 1944 1942 1941 1941 1939 1939 1939 1937 1937 1936 1934 1932 1930 1928 1928 1927 1926 1925 1923 1919 1919 1918 1918 1918 1918 1919 1920 1920 1920 1919 1917 1916 1916 1916 1916 1916 1917 1918 1926 1926 1926 1932 1933 1939 1940 1940 1941 1944 1944 1944 1944 1942 1940 1941 1941 1941 1941 1941 1942 1942
931 931 926 926 924 924 924 925 925 926 926 927 928 930 933 934 935 937 939 940 941 942 943 943 944 945 947 947 947 947 947 948 949 950 952 959 961 964 965 965 965 965 965 965 967 971 973 974 976 978 979 982 984 985 985 987 987 989 992 994 998 1001 1003 1004 1005 1007 1009 1011 1014 1014 1014 1014 1010 1009 1008 1006 1008 1008 1016 1037 1037 1037 1000 991 973 958 958 958 1014 1014 1014 1010 1002 999 992 987 974 955 954 947 954 955 969 995 1028 1052 1055 1057 1059 1070 1082 1086 1086 1087 1089 1092 1094 1096 1097 1098 1100 1101 1103 1104 1107 1109 1111 1113 1114 1116 1118 1120 1122 1123 1125 1127 1129 1131 1132 1134 1137 1138 1140 1140 1138 1138 1138 1138 1153 1161 1167 1172 1183 1183 1183 1183 1179 1179 1179 1186 1186 1187 1187 1187 1188 1189 1190 1191 1194 1196 1201 1204 1205 1207 1210 1212 1215 1216 1218 1219 1222 1223 1225 1227 1229 1231 1233 1235 1238 1241 1242 1245 1246 1250 1252 1254 1255 1258 1260 1262 1265 1268 1270 1273 1276 1277 1280 1283 1283 1286 1288 1290 1291 1294 1296 1300 1303 1307 1309 1310 1312 1314 1316 1318 1320 1321 1322 1326 1331 1341 1343 1344 1344 1346 1348 1360 1366 1371 1372 1379 1388 1393 1407 1425 1426 1428 1431 1444 1607 1638 1650 1679 1744 1792 1801 1824 1864 1982 1991 1995 1998 2013 2016 2020 2024 2029 2033 2035 2037 2038 2041 2044 2047 2047 2048 2049 2050 2051 2055 2057 2059 2060 2062 2063 2064 2066 2067 2068 2069 2070 2072 2074 2075 2077 2079 2081 2082 2082 2082 2083 2083 2084 2087 2087 2087 2087 2090 2092 2094 2099 2102 2103 2107 2109 2110 2114 2116 2117 2117 2118 2119 2120 2123 2124 2126 2126 2126 2128 2133 2135 2137 2139 2140 2142 2144 2145 2146 2148 2150 2151 2153 2155 2156 2158 2160 2161 2164 2166 2169 2171 2171 2172 2172 2173 2175 2177 2179 2179 2180 2183 2185 2188 2188 2190 2194 2197 2202 2204 2206 2207 2209 2210 2210 2211 2212 2213 2215 2217 2217 2217 2217 2220 2224 2227 2228 2230 2233 2236 2239 2242 2244 2247 2248 2249 2249 2251 2251 2252 2253 2253 2255 2257 2258 2258 2260 2262 2263 2265 2266 2268 2269 2272 2275 2277 2279 2281 2282 2282 2282 2282 2288 2294 2299 2304 2306 2306 2307 2308 2308 2308 2308 2308 2308 2309 2309 2311 2314 2314 2315 2317 2318 2320 2322 2323 2324 2326 2328 2331 2335 2338 2339 2340 2342 2343 2346 2346 2346 2346 2346 2346 2347 2347 2347 2348 2348 2349 2349 2349 2348 2348 2348 2350 2353 2356 2359 2361 2361 2362 2362 2363 2371 2394 2407 2443 2668 2713 2942 2957 2957 2957 2954 2950 2950 2950 2950 2950 2954 2955 2957 2958 2958 2958 2957 2956 2954 2949 2947 2942 2939 2939 2939 2940 2940 2940 2924 2905 2874 2821 2612 2516 2368 2300 2257 2239 2221 2209 2193 2187 2178 2170 2165 2162 2155 2148 2139 2134 2127 2120 2111 2104 2096 2088 2081 2074 2067 2060 2053 2047 2040 2034 2029 2025 2021 2019 2015 2011 2007 2004 2000 1996 1993 1990 1987 1985 1982 1978 1975 1972 1968 1964 1961 1958 1956 1954 1952 1950 1948 1947 1946 1945 1944 1942 1941 1941 1939 1938 1938 1938 1937 1936 1934 1933 1931 1930 1929 1927 1927 1926 1923 1921 1919 1919 1919 1919 1919 1920 1921 1921 1921 1919 1917 1917 1917 1917 1917 1917 1918 1918 1920 1920 1920 1920 1924 1933 1935 1940 1941 1944 1944 1944 1941 1941 1940 1941 1941 1940 1936 1933 1932 1932
931 931 926 926 924 924 924 924 924 925 926 926 928 930 932 933 934 935 937 939 939 940 941 942 943 944 945 946 946 946 947 947 948 949 951 951 958 962 965 965 965 965 965 965 967 969 971 972 973 974 976 980 982 983 983 985 987 989 992 994 997 1000 1002 1003 1005 1007 1009 1011 1013 1014 1014 1014 1010 1009 1008 1008 1009 1009 1020 1020 1020 991 988 988 981 958 958 958 1014 1022 1022 1022 1005 999 988 985 0 985 974 947 975 975 975 1000 1028 1049 1050 1057 1059 1070 1081 1083 1085 1086 1087 1090 1092 1094 1095 1097 1098 1100 1101 1103 1105 1107 1109 1110 1112 1114 1115 1118 1120 1122 1124 1125 1127 1129 1130 1133 1137 1138 1138 1138 1138 1138 1138 1138 1139 1169 1176 1179 1185 1185 1185 1184 1179 1179 1179 1186 1186 1187 1187 1187 1187 1188 1189 1191 1192 1193 1197 1200 1202 1205 1208 1212 1214 1215 1217 1218 1220 1222 1223 1224 1227 1229 1232 1234 1237 1239 1239 1242 1244 1248 1250 1252 1255 1256 1259 1261 1263 1266 1269 1271 1274 1277 1279 1281 1283 1284 1287 1288 1291 1292 1295 1298 1301 1303 1305 1308 1311 1313 1314 1316 1318 1320 1322 1325 1329 1335 1343 1344 1344 1345 1347 1359 1364 1368 1368 1370 1378 1384 1393 1402 1406 1424 1430 1442 1444 1479 1508 1529 1575 1612 1637 1678 1715 1815 1883 1937 1978 2009 2016 2020 2024 2030 2033 2036 2037 2038 2041 2044 2047 2047 2048 2049 2050 2051 2053 2057 2059 2061 2062 2063 2064 2066 2067 2068 2070 2071 2073 2075 2076 2077 2079 2081 2082 2082 2084 2084 2084 2085 2087 2087 2088 2088 2089 2092 2094 2101 2102 2105 2107 2110 2110 2114 2116 2117 2117 2118 2119 2120 2123 2125 2126 2126 2126 2130 2133 2135 2137 2140 2141 2143 2144 2146 2147 2149 2150 2152 2153 2155 2156 2158 2160 2162 2164 2167 2169 2171 2172 2172 2172 2173 2175 2178 2181 2181 2181 2184 2186 2187 2188 2190 2194 2199 2202 2204 2206 2208 2209 2211 2212 2213 2213 2214 2216 2218 2218 2219 2220 2224 2226 2228 2229 2233 2235 2237 2240 2243 2245 2247 2249 2250 2251 2251 2253 2254 2254 2256 2257 2257 2259 2260 2261 2263 2264 2266 2268 2269 2271 2273 2275 2277 2279 2281 2282 2282 2282 2283 2288 2295 2299 2303 2304 2305 2307 2308 2309 2309 2309 2309 2309 2310 2310 2312 2314 2315 2316 2317 2319 2320 2322 2323 2325 2326 2328 2331 2335 2338 2339 2340 2343 2344 2346 2347 2347 2346 2346 2347 2347 2347 2348 2348 2348 2348 2348 2348 2348 2348 2348 2350 2352 2356 2359 2361 2361 2361 2362 2363 2371 2394 2410 2465 2668 2729 2942 2952 2956 2956 2956 2954 2950 2950 2950 2951 2954 2957 2958 2958 2958 2958 2958 2958 2958 2953 2949 2948 2948 2948 2948 2948 2947 2940 2925 2901 2873 2736 2580 2497 2348 2283 2257 2239 2221 2209 2193 2185 2177 2166 2163 2161 2155 2148 2136 2130 2121 2113 2105 2096 2089 2084 2081 2075 2067 2060 2054 2047 2040 2034 2029 2025 2022 2019 2015 2011 2007 2003 2000 1996 1993 1990 1987 1985 1982 1980 1977 1973 1969 1965 1961 1959 1956 1955 1952 1950 1949 1948 1947 1946 1945 1942 1941 1941 1939 1938 1938 1938 1938 1936 1934 1934 1932 1931 1930 1929 1928 1927 1924 1922 1921 1920 1920 1920 1920 1920 1921 1921 1921 1921 1918 1917 1917 1917 1917 1917 1917 1917 1917 1919 1920 1920 1924 1933 1935 1940 1941 1944 1944 1944 1941 1941 1940 1940 1940 1940 1936 1931 1927 1927
931 931 926 926 926 925 924 924 924 924 924 926 927 930 931 932 933 934 936 938 938 939 940 941 942 943 943 944 944 945 946 946 946 948 950 950 955 960 964 964 964 964 964 964 965 969 971 971 971 972 972 976 981 981 982 984 986 988 990 994 997 1000 1002 1003 1005 1006 1008 1010 1013 1014 1015 1015 1014 1012 1012 1012 1012 1015 1023 1023 1023 991 991 991 999 1008 1010 1019 1022 1025 1025 1025 1011 1002 998 995 0 995 1003 1003 1003 1003 1003 1009 1028 1049 1050 1052 1057 1070 1081 1081 1084 1086 1087 1088 1089 1092 1093 1096 1097 1099 1101 1102 1104 1106 1107 1108 1111 1112 1114 1117 1118 1120 1122 1124 1125 1127 1129 1130 1133 1133 1137 1138 1138 1138 1138 1138 1139 1187 1203 1203 1203 1203 1193 1184 1183 1183 1183 1187 1187 1187 1187 1186 1186 1186 1186 1187 1189 1192 1197 1200 1200 1203 1207 1209 1212 1214 1215 1218 1219 1221 1222 1224 1227 1229 1230 1232 1235 1236 1238 1240 1242 1245 1248 1251 1253 1256 1258 1260 1263 1265 1268 1271 1273 1275 1277 1279 1281 1283 1285 1286 1289 1291 1294 1297 1299 1302 1304 1307 1310 1311 1314 1314 1316 1318 1321 1323 1326 1331 1339 1343 1343 1344 1347 1351 1355 1356 1359 1365 1372 1374 1392 1401 1404 1405 1406 1408 1412 1419 1435 1443 1469 1498 1499 1524 1592 1658 1715 1821 1903 1957 1976 2000 2019 2031 2037 2037 2038 2038 2041 2042 2045 2046 2046 2048 2050 2051 2053 2057 2060 2061 2061 2063 2065 2068 2068 2069 2070 2071 2073 2076 2076 2079 2080 2082 2082 2082 2086 2087 2087 2087 2088 2088 2088 2088 2090 2092 2094 2101 2104 2105 2108 2111 2111 2114 2116 2117 2117 2118 2119 2121 2123 2125 2126 2127 2127 2132 2135 2136 2138 2141 2142 2143 2145 2146 2147 2149 2151 2152 2153 2155 2156 2158 2160 2162 2165 2167 2169 2171 2172 2173 2173 2174 2177 2179 2183 2184 2184 2184 2186 2187 2188 2190 2194 2199 2202 2204 2206 2208 2209 2211 2213 2213 2215 2216 2217 2219 2219 2220 2222 2225 2227 2229 2232 2234 2236 2238 2241 2243 2245 2248 2249 2251 2251 2253 2254 2255 2255 2256 2258 2259 2260 2261 2261 2263 2264 2266 2268 2269 2272 2274 2277 2278 2280 2281 2282 2282 2283 2283 2289 2296 2299 2303 2303 2305 2307 2308 2309 2309 2309 2310 2310 2310 2310 2312 2314 2317 2318 2318 2319 2320 2322 2323 2327 2328 2329 2330 2334 2337 2338 2338 2343 2347 2347 2347 2347 2347 2348 2348 2347 2347 2347 2347 2347 2347 2347 2347 2347 2347 2348 2349 2353 2356 2359 2359 2359 2360 2360 2363 2371 2394 2410 2481 2674 2729 2942 2952 2957 2961 2961 2961 2955 2953 2953 2953 2955 2957 2959 2959 2959 2959 2959 2959 2958 2956 2953 2953 2953 2953 2951 2951 2947 2940 2925 2898 2815 2676 2570 2489 2304 2283 2257 2239 2221 2206 2192 2185 2173 2166 2163 2160 2154 2144 2133 2123 2118 2111 2103 2094 2087 2083 2081 2075 2067 2060 2054 2047 2040 2034 2029 2026 2023 2019 2015 2011 2007 2003 2000 1996 1993 1991 1988 1985 1982 1980 1977 1973 1969 1965 1962 1959 1957 1955 1953 1952 1950 1949 1948 1946 1945 1942 1941 1941 1940 1939 1938 1938 1938 1936 1935 1934 1933 1933 1932 1931 1930 1927 1925 1925 1924 1921 1920 1920 1920 1920 1922 1923 1923 1923 1920 1917 1917 1917 1917 1917 1917 1917 1917 1919 1920 1920 1924 1933 1935 1941 1948 1948 1948 1945 1941 1941 1941 1941 1941 1940 1933 1930 1927 1927
931 931 931 931 931 926 925 925 924 924 924 924 926 928 929 931 932 933 934 935 936 937 937 938 940 941 942 943 943 944 944 944 945 945 945 940 940 940 941 944 951 960 962 963 965 967 967 968 971 972 972 976 977 980 981 983 986 988 990 993 996 999 1001 1001 1003 1006 1008 1010 1011 1014 1016 1024 1024 1024 1024 1024 1024 1024 1021 1021 1013 1004 1004 1004 1024 1050 1050 1050 1038 1035 1031 1025 1024 1011 1011 1008 1008 1037 1037 1022 1022 1022 1022 1032 1049 1049 1050 1059 1065 1074 1078 1080 1083 1083 1084 1086 1087 1090 1092 1094 1096 1098 1099 1101 1103 1104 1106 1108 1110 1111 1114 1115 1117 1119 1121 1123 1124 1126 1128 1129 1131 1133 1137 1139 1140 1140 1143 1143 1153 1189 1248 1248 1248 1218 1194 1184 1184 1184 1186 1186 1186 1185 1181 1181 1181 1181 1184 1186 1186 1190 1196 1199 1199 1201 1207 1207 1209 1211 1215 1216 1218 1220 1221 1224 1226 1228 1229 1231 1232 1235 1237 1239 1241 1243 1247 1249 1252 1255 1257 1259 1261 1264 1266 1268 1271 1273 1276 1277 1280 1282 1283 1285 1287 1289 1292 1296 1298 1300 1303 1305 1307 1309 1311 1312 1315 1316 1318 1321 1324 1329 1334 1339 1340 1341 1344 1351 1353 1353 1355 1364 1371 1374 1377 1382 1389 1390 1392 1395 1397 1401 1404 1413 1427 1427 1434 1436 1489 1561 1596 1706 1718 1816 1853 1929 2003 2031 2037 2038 2038 2038 2041 2042 2045 2046 2046 2048 2050 2051 2053 2057 2060 2061 2061 2063 2068 2069 2069 2069 2070 2072 2076 2078 2078 2080 2081 2082 2083 2084 2088 2089 2089 2089 2089 2089 2089 2089 2091 2092 2095 2101 2104 2108 2110 2111 2111 2114 2114 2117 2118 2119 2119 2122 2123 2125 2126 2128 2130 2132 2135 2137 2139 2142 2143 2145 2146 2147 2148 2149 2151 2152 2153 2155 2156 2158 2161 2163 2165 2168 2169 2171 2173 2174 2175 2177 2180 2182 2184 2186 2186 2187 2187 2187 2189 2192 2196 2200 2202 2204 2207 2209 2210 2212 2213 2215 2217 2218 2220 2220 2222 2223 2224 2226 2229 2230 2232 2234 2236 2238 2241 2243 2245 2248 2249 2252 2252 2253 2254 2255 2256 2256 2258 2259 2260 2261 2262 2263 2264 2266 2268 2270 2273 2275 2277 2279 2280 2281 2283 2283 2284 2288 2292 2297 2299 2302 2303 2305 2307 2308 2309 2310 2310 2310 2310 2310 2311 2312 2316 2318 2320 2321 2322 2322 2322 2324 2327 2329 2330 2330 2332 2334 2336 2337 2343 2346 2346 2346 2346 2347 2347 2348 2348 2348 2347 2347 2347 2347 2347 2347 2347 2347 2348 2349 2353 2356 2359 2359 2359 2359 2359 2363 2368 2392 2410 2543 2697 2850 2948 2952 2960 2967 2967 2967 2967 2963 2962 2958 2958 2958 2959 2959 2960 2960 2960 2960 2960 2959 2956 2956 2953 2953 2952 2951 2943 2937 2925 2892 2795 2674 2569 2417 2304 2282 2257 2239 2221 2202 2190 2178 2170 2166 2162 2157 2150 2140 2132 2123 2118 2111 2103 2094 2086 2080 2079 2075 2064 2058 2054 2047 2040 2034 2031 2027 2023 2019 2015 2011 2007 2004 2000 1997 1994 1991 1988 1985 1982 1980 1977 1973 1969 1966 1963 1960 1958 1956 1955 1953 1951 1949 1948 1947 1945 1943 1943 1941 1940 1939 1939 1939 1939 1938 1937 1936 1935 1934 1934 1933 1932 1931 1930 1927 1925 1922 1920 1920 1920 1920 1922 1923 1923 1923 1920 1918 1918 1918 1918 1918 1918 1918 1918 1919 1924 1927 1939 1943 1946 1947 1948 1949 1949 1949 1947 1946 1945 1945 1944 1939 1932 1929 1927 1927
938 938 937 937 931 926 925 923 922 922 922 923 925 926 928 929 931 931 933 933 934 935 936 937 938 939 940 940 941 941 943 943 943 943 928 916 915 915 915 920 934 951 954 956 957 964 964 964 969 969 972 975 976 977 979 979 985 987 988 991 996 998 1000 1001 1003 1005 1008 1010 1011 1011 1016 1024 1024 1024 1024 1024 1024 1024 1021 1021 1013 1005 1005 1005 1024 1053 1053 1053 1052 1040 1038 1027 1024 1024 1024 1049 1052 1052 1049 1041 1035 1035 1035 1051 1051 1054 1057 1060 1065 1074 1077 1078 1079 1082 1083 1084 1086 1088 1091 1092 1094 1095 1097 1099 1101 1104 1105 1107 1108 1110 1112 1114 1116 1118 1120 1122 1123 1124 1126 1129 1130 1133 1137 1140 1141 1143 1145 1155 1168 1216 1248 1248 1248 1218 1194 1186 1186 1186 1192 1192 1192 1185 1171 1171 1171 1172 1181 1183 1184 1187 1188 1188 1196 1201 1205 1206 1206 1208 1211 1214 1215 1217 1219 1221 1223 1225 1227 1229 1230 1234 1235 1237 1239 1242 1244 1247 1251 1253 1255 1256 1258 1262 1264 1266 1270 1272 1274 1277 1279 1281 1282 1285 1286 1288 1292 1294 1296 1298 1301 1304 1306 1308 1309 1311 1314 1316 1318 1320 1323 1327 1331 1334 1338 1338 1340 1345 1352 1353 1355 1363 1369 1372 1376 1379 1382 1386 1392 1395 1397 1401 1404 1407 1411 1411 1414 1424 1450 1470 1539 1576 1654 1662 1733 1883 1936 2030 2039 2039 2039 2039 2041 2042 2045 2046 2046 2048 2050 2053 2055 2057 2060 2061 2061 2063 2068 2069 2070 2070 2071 2074 2077 2080 2080 2081 2081 2083 2083 2084 2088 2089 2090 2090 2090 2090 2090 2092 2092 2095 2097 2101 2107 2109 2111 2112 2113 2114 2114 2118 2120 2120 2122 2122 2125 2125 2127 2128 2132 2133 2136 2138 2141 2143 2144 2146 2146 2147 2148 2149 2151 2154 2155 2155 2156 2158 2162 2165 2167 2169 2170 2172 2173 2174 2176 2179 2181 2183 2185 2188 2188 2188 2188 2189 2192 2196 2198 2200 2202 2204 2207 2209 2210 2212 2213 2215 2217 2219 2221 2222 2224 2225 2226 2229 2231 2231 2232 2234 2236 2238 2241 2243 2245 2248 2249 2252 2252 2253 2254 2255 2256 2256 2258 2259 2260 2261 2262 2264 2265 2266 2269 2271 2274 2276 2278 2280 2281 2282 2283 2285 2285 2288 2295 2297 2300 2302 2302 2304 2307 2307 2308 2309 2310 2310 2310 2311 2311 2312 2317 2320 2322 2323 2323 2324 2324 2327 2330 2330 2331 2332 2332 2333 2335 2337 2343 2344 2345 2346 2346 2347 2348 2348 2348 2348 2347 2347 2347 2347 2347 2347 2348 2348 2349 2350 2352 2352 2355 2358 2358 2359 2358 2358 2359 2386 2411 2544 2674 2850 2948 2953 2963 2969 2969 2969 2968 2966 2965 2963 2962 2961 2961 2961 2961 2960 2960 2960 2961 2961 2961 2959 2955 2952 2948 2947 2943 2937 2925 2873 2770 2673 2569 2407 2304 2278 2257 2239 2219 2200 2187 2176 2170 2164 2159 2153 2145 2139 2132 2123 2118 2110 2103 2094 2086 2078 2072 2066 2060 2058 2053 2047 2040 2034 2031 2027 2023 2019 2014 2011 2007 2004 2001 1997 1994 1992 1989 1985 1982 1980 1977 1973 1970 1966 1964 1961 1959 1956 1955 1953 1951 1950 1949 1947 1946 1945 1944 1943 1942 1942 1942 1941 1941 1940 1938 1937 1937 1936 1935 1935 1934 1932 1931 1930 1925 1922 1921 1920 1920 1921 1922 1923 1923 1923 1921 1918 1918 1918 1919 1919 1919 1919 1919 1924 1926 1933 1939 1943 1946 1947 1948 1949 1949 1949 1948 1947 1946 1946 1944 1939 1932 1928 1927 1927
938 938 937 937 931 926 925 921 921 921 921 922 923 924 926 928 929 930 931 932 932 933 934 935 936 937 938 939 939 939 940 941 941 938 927 914 914 914 914 918 922 925 932 934 942 954 963 963 963 963 971 973 973 974 974 974 983 986 988 991 994 997 1000 1001 1003 1005 1008 1010 1010 1011 1016 1024 1024 1024 1024 1024 1021 1020 1013 1011 1009 1008 1011 1011 1024 1053 1053 1053 1052 1040 1036 1025 1024 1024 1024 1049 1052 1052 1049 1041 1041 1041 1043 1052 1058 1058 1061 1062 1065 1074 1075 1075 1078 1082 1083 1084 1085 1087 1089 1090 1091 1093 1095 1098 1099 1101 1104 1105 1106 1109 1111 1112 1114 1116 1118 1120 1122 1123 1125 1127 1129 1133 1137 1137 1141 1145 1151 1168 1199 1235 1248 1248 1248 1218 1194 1186 1186 1186 1192 1192 1192 1182 1168 1157 1157 1157 1161 1170 1182 1183 1184 1185 1191 1201 1203 1204 1206 1207 1210 1212 1214 1214 1216 1219 1222 1224 1226 1227 1229 1231 1234 1236 1238 1241 1242 1245 1248 1250 1252 1255 1256 1259 1262 1265 1268 1271 1273 1275 1279 1280 1282 1283 1285 1287 1290 1293 1295 1297 1299 1302 1304 1306 1308 1310 1313 1315 1317 1320 1323 1326 1330 1333 1336 1338 1340 1345 1348 1351 1354 1357 1363 1369 1373 1378 1381 1385 1392 1393 1397 1400 1400 1400 1400 1400 1400 1411 1418 1427 1442 1458 1532 1577 1645 1722 1936 2009 2039 2040 2043 2045 2046 2048 2048 2049 2049 2049 2051 2053 2056 2059 2060 2061 2061 2064 2068 2069 2070 2071 2073 2074 2077 2080 2080 2081 2082 2083 2084 2085 2088 2089 2091 2091 2092 2092 2092 2092 2096 2099 2101 2104 2107 2109 2112 2113 2113 2114 2114 2119 2120 2122 2124 2124 2125 2126 2127 2129 2132 2134 2136 2139 2141 2143 2144 2146 2146 2147 2148 2149 2151 2154 2156 2156 2156 2158 2163 2166 2170 2171 2172 2172 2173 2175 2177 2179 2181 2184 2186 2188 2188 2188 2189 2193 2196 2198 2200 2202 2202 2204 2207 2209 2211 2212 2214 2216 2217 2219 2222 2223 2225 2227 2229 2231 2231 2232 2232 2234 2236 2238 2241 2243 2245 2248 2249 2252 2252 2253 2254 2255 2256 2257 2258 2259 2260 2261 2262 2264 2265 2267 2269 2273 2275 2278 2279 2282 2284 2285 2286 2286 2287 2290 2295 2299 2300 2302 2302 2304 2307 2307 2308 2309 2310 2310 2311 2312 2312 2314 2319 2321 2323 2324 2325 2325 2327 2329 2332 2332 2332 2332 2332 2333 2335 2337 2343 2344 2345 2345 2346 2347 2348 2348 2348 2348 2347 2347 2347 2347 2347 2348 2348 2349 2350 2351 2352 2352 2355 2359 2359 2359 2359 2359 2359 2386 2411 2544 2671 2868 2948 2955 2965 2970 2970 2971 2971 2970 2967 2965 2964 2964 2963 2963 2963 2962 2962 2962 2962 2961 2961 2959 2957 2952 2948 2947 2943 2937 2925 2863 2767 2667 2554 2387 2304 2272 2255 2237 2218 2200 2186 2176 2169 2164 2159 2153 2145 2139 2132 2124 2117 2110 2103 2095 2085 2078 2071 2066 2060 2055 2051 2045 2040 2034 2031 2027 2023 2018 2014 2011 2007 2004 2001 1997 1994 1993 1989 1986 1982 1980 1977 1973 1971 1968 1966 1963 1960 1956 1955 1953 1951 1950 1949 1948 1947 1947 1946 1946 1944 1943 1943 1943 1942 1942 1939 1939 1938 1938 1936 1936 1935 1933 1932 1930 1926 1923 1923 1922 1922 1923 1923 1923 1923 1923 1921 1920 1920 1920 1920 1920 1921 1921 1923 1924 1926 1933 1939 1943 1943 1946 1947 1949 1949 1949 1949 1948 1947 1946 1944 1938 1932 1926 1926 1926
938 938 937 937 931 924 920 920 920 921 921 921 922 923 924 927 928 929 930 931 932 932 933 934 936 936 936 938 938 938 939 939 939 938 924 913 912 912 907 902 884 884 884 892 917 945 949 957 957 957 960 960 960 960 960 968 970 986 987 987 994 996 1000 1002 1004 1004 1008 1008 1010 1011 1014 1015 1015 1016 1016 1015 1013 1011 1008 1008 1003 1007 1008 1011 1025 1053 1061 1061 1061 1040 1036 1025 1018 1018 1018 1049 1049 1049 1045 1042 1042 1042 1058 1062 1071 1071 1071 1073 1074 1074 1074 1075 1078 1081 1081 1082 1083 1084 1087 1088 1090 1091 1094 1095 1097 1100 1102 1104 1106 1107 1108 1110 1112 1115 1116 1119 1121 1122 1124 1126 1127 1133 1137 1137 1139 1145 1151 1168 1219 1243 1243 1243 1227 1201 1184 1184 1184 1186 1190 1190 1190 1178 1145 1145 1145 1156 1161 1164 1172 1181 1182 1183 1188 1200 1201 1201 1203 1205 1207 1209 1211 1212 1214 1217 1219 1221 1223 1225 1226 1229 1232 1234 1236 1239 1240 1243 1245 1247 1250 1252 1255 1258 1262 1265 1267 1269 1272 1274 1277 1279 1281 1282 1283 1286 1289 1292 1294 1296 1299 1300 1302 1304 1306 1309 1311 1314 1317 1320 1322 1326 1329 1333 1335 1337 1339 1343 1347 1350 1352 1356 1360 1364 1368 1374 1381 1382 1385 1393 1397 1399 1399 1399 1400 1400 1400 1407 1408 1412 1421 1433 1449 1472 1556 1655 1854 1965 2035 2039 2043 2045 2046 2048 2050 2050 2050 2051 2052 2054 2056 2059 2061 2061 2063 2064 2068 2069 2071 2072 2073 2074 2077 2080 2080 2081 2083 2084 2085 2086 2088 2089 2091 2091 2092 2093 2095 2097 2101 2104 2104 2105 2107 2109 2112 2113 2113 2115 2116 2119 2120 2122 2125 2126 2126 2127 2129 2129 2132 2135 2137 2139 2142 2144 2145 2146 2147 2147 2148 2149 2151 2155 2157 2158 2159 2160 2163 2169 2171 2172 2173 2174 2174 2176 2178 2179 2182 2184 2186 2188 2189 2190 2192 2195 2197 2201 2202 2205 2206 2206 2208 2210 2211 2214 2214 2216 2217 2219 2222 2224 2225 2228 2230 2231 2231 2232 2232 2234 2236 2238 2240 2243 2245 2247 2249 2252 2252 2253 2254 2255 2256 2257 2258 2259 2260 2261 2263 2264 2266 2267 2270 2273 2275 2279 2281 2284 2285 2286 2287 2287 2289 2293 2297 2299 2300 2302 2302 2304 2307 2307 2308 2309 2310 2310 2311 2312 2314 2316 2319 2321 2323 2324 2325 2326 2329 2331 2334 2334 2334 2334 2334 2334 2335 2337 2343 2344 2345 2345 2346 2348 2349 2349 2349 2349 2349 2349 2348 2348 2349 2349 2349 2350 2351 2352 2352 2353 2355 2361 2361 2361 2361 2361 2361 2386 2417 2550 2671 2872 2953 2965 2971 2973 2973 2973 2972 2972 2967 2966 2965 2965 2965 2965 2965 2964 2963 2963 2963 2963 2963 2960 2957 2952 2951 2950 2948 2947 2915 2857 2750 2643 2537 2376 2304 2268 2253 2235 2217 2200 2185 2176 2169 2164 2159 2153 2145 2139 2132 2124 2117 2109 2103 2095 2085 2078 2071 2066 2060 2055 2049 2043 2038 2034 2030 2026 2022 2018 2014 2011 2008 2004 2001 1997 1994 1993 1989 1986 1982 1980 1977 1975 1972 1969 1967 1963 1960 1956 1955 1953 1951 1950 1949 1949 1948 1948 1947 1946 1944 1944 1944 1944 1944 1942 1941 1940 1938 1938 1938 1936 1935 1935 1933 1930 1927 1925 1924 1924 1924 1924 1924 1924 1924 1923 1923 1922 1922 1922 1922 1922 1922 1922 1924 1924 1926 1933 1933 1933 1937 1937 1938 1946 1947 1948 1948 1948 1947 1946 1941 1935 1929 1926 1926 1926
918 918 916 917 916 916 917 917 919 919 920 920 921 923 924 926 928 928 929 929 931 932 932 933 935 935 936 937 938 938 938 938 936 934 924 912 908 904 898 897 882 882 882 884 911 938 947 948 950 950 948 948 944 944 944 964 967 986 986 986 993 994 1003 1004 1005 1008 1008 1008 1009 1011 1014 1014 1014 1014 1005 1004 1003 1001 1001 1001 1003 1005 1007 1008 1008 1031 1044 1053 1053 1053 1036 1025 1018 1018 1018 1016 1025 1029 1029 1041 1041 1052 1058 1062 1084 1084 1084 1074 1072 1072 1072 1074 1077 1078 1081 1081 1082 1083 1085 1087 1088 1089 1092 1094 1096 1098 1100 1102 1103 1105 1107 1109 1111 1113 1115 1118 1119 1121 1123 1124 1126 1132 1136 1137 1137 1138 1151 1168 1219 1219 1219 1218 1196 1180 1170 1170 1170 1180 1190 1190 1190 1178 1145 1145 1145 1156 1161 1164 1169 1178 1180 1182 1185 1194 1195 1196 1198 1203 1204 1205 1208 1210 1212 1215 1217 1219 1220 1222 1226 1227 1230 1232 1234 1237 1238 1241 1244 1246 1248 1250 1254 1256 1260 1262 1267 1269 1270 1273 1275 1277 1279 1280 1282 1285 1289 1292 1293 1295 1298 1299 1301 1303 1306 1308 1309 1312 1316 1319 1321 1325 1327 1331 1333 1335 1338 1342 1345 1348 1349 1353 1356 1360 1364 1369 1375 1380 1385 1393 1397 1399 1399 1399 1400 1400 1400 1405 1408 1411 1421 1430 1438 1451 1476 1576 1820 1900 2033 2039 2043 2047 2048 2048 2050 2050 2050 2051 2052 2054 2058 2060 2062 2063 2064 2064 2066 2069 2071 2072 2073 2074 2077 2079 2079 2081 2083 2084 2086 2087 2088 2090 2091 2092 2093 2094 2096 2099 2101 2104 2104 2105 2107 2108 2109 2112 2113 2115 2116 2119 2120 2122 2125 2126 2127 2128 2129 2129 2132 2135 2137 2140 2142 2144 2146 2147 2147 2148 2148 2149 2151 2155 2158 2161 2162 2163 2165 2169 2171 2173 2174 2174 2176 2176 2178 2180 2182 2185 2186 2188 2190 2192 2193 2195 2197 2201 2203 2205 2207 2208 2209 2211 2213 2215 2215 2216 2217 2219 2222 2224 2227 2228 2230 2231 2231 2232 2232 2234 2236 2238 2240 2243 2245 2247 2249 2250 2252 2252 2254 2255 2256 2256 2258 2259 2260 2262 2263 2265 2266 2267 2270 2273 2276 2279 2282 2284 2286 2286 2287 2288 2290 2293 2298 2299 2300 2302 2303 2305 2307 2307 2308 2310 2310 2311 2312 2313 2315 2317 2319 2321 2324 2325 2326 2327 2329 2332 2334 2334 2334 2334 2334 2334 2335 2337 2342 2344 2345 2345 2346 2348 2350 2350 2350 2350 2350 2350 2350 2350 2350 2350 2350 2350 2352 2353 2353 2355 2361 2364 2364 2364 2364 2364 2364 2386 2436 2582 2671 2875 2972 2975 2975 2975 2975 2973 2972 2972 2967 2966 2966 2966 2966 2966 2965 2965 2964 2964 2964 2964 2964 2960 2957 2953 2952 2951 2950 2949 2914 2855 2712 2591 2506 2360 2287 2254 2243 2233 2217 2200 2185 2176 2169 2164 2159 2154 2148 2139 2132 2124 2117 2109 2099 2095 2083 2077 2071 2066 2060 2054 2047 2041 2037 2033 2030 2026 2022 2018 2014 2011 2008 2004 2001 1997 1994 1993 1989 1986 1982 1981 1978 1975 1973 1970 1967 1963 1960 1956 1954 1952 1951 1950 1949 1949 1948 1948 1947 1946 1945 1945 1945 1944 1944 1943 1941 1940 1940 1939 1939 1937 1936 1935 1933 1931 1929 1927 1926 1926 1926 1926 1926 1926 1925 1923 1923 1923 1923 1923 1923 1923 1923 1923 1923 1923 1923 1923 1923 1926 1926 1929 1935 1942 1946 1947 1948 1948 1947 1944 1940 1935 1929 1927 1927 1926
915 915 913 913 913 913 915 916 917 917 918 920 921 922 924 925 926 927 928 929 930 931 932 933 934 934 935 937 938 938 938 938 936 934 926 908 889 886 877 867 867 867 867 881 908 933 943 943 943 943 943 941 939 939 937 937 941 944 963 980 993 993 1003 1004 1005 1008 1008 1008 1008 1010 1013 1013 1013 1012 1003 1001 1000 996 996 996 1003 1005 1007 1005 1005 1008 1035 1044 1044 1044 1036 1025 1016 1013 1011 1011 995 995 995 1038 1041 1052 1058 1062 1084 1084 1084 1070 1068 1068 1068 1068 1071 1076 1078 1079 1080 1081 1083 1084 1087 1089 1091 1092 1094 1096 1098 1100 1102 1103 1105 1108 1110 1113 1115 1117 1117 1120 1121 1122 1125 1129 1133 1133 1135 1136 1142 1167 1219 1219 1219 1188 1165 1158 1158 1158 1163 1180 1187 1187 1187 1178 1145 1145 1145 1164 1164 1165 1169 1177 1178 1182 1183 1192 1193 1195 1197 1201 1202 1204 1206 1208 1211 1212 1215 1217 1219 1222 1224 1226 1229 1231 1233 1235 1238 1240 1242 1245 1246 1249 1253 1254 1257 1261 1265 1268 1270 1271 1273 1274 1276 1279 1282 1285 1288 1291 1292 1295 1297 1298 1300 1302 1305 1307 1308 1312 1315 1318 1320 1323 1326 1329 1331 1333 1336 1338 1343 1344 1348 1351 1354 1360 1362 1367 1371 1373 1378 1385 1392 1396 1398 1398 1399 1400 1400 1404 1407 1411 1419 1427 1438 1445 1451 1502 1754 1895 2017 2038 2042 2045 2047 2047 2049 2050 2050 2051 2053 2055 2059 2062 2064 2064 2065 2065 2066 2069 2071 2072 2073 2074 2077 2077 2078 2080 2083 2084 2086 2087 2088 2090 2091 2092 2093 2095 2096 2099 2101 2104 2104 2105 2106 2108 2109 2111 2113 2115 2116 2118 2119 2122 2125 2126 2127 2128 2129 2129 2131 2135 2137 2140 2142 2145 2147 2148 2148 2148 2149 2150 2151 2155 2160 2162 2164 2166 2167 2170 2171 2174 2174 2176 2177 2178 2180 2181 2182 2186 2187 2189 2190 2192 2194 2197 2199 2201 2203 2205 2208 2209 2210 2212 2213 2215 2216 2217 2217 2219 2222 2224 2227 2229 2230 2231 2232 2232 2233 2234 2236 2238 2240 2243 2246 2246 2247 2249 2250 2250 2251 2254 2256 2256 2258 2259 2260 2262 2264 2266 2267 2268 2271 2273 2277 2279 2282 2284 2286 2286 2287 2288 2290 2295 2298 2299 2301 2302 2303 2305 2307 2308 2309 2310 2312 2312 2314 2314 2315 2318 2320 2322 2324 2325 2326 2327 2329 2332 2334 2334 2334 2334 2335 2335 2336 2339 2342 2345 2345 2346 2348 2349 2350 2350 2350 2350 2350 2351 2351 2351 2351 2351 2351 2351 2353 2354 2356 2358 2366 2366 2366 2364 2364 2364 2366 2386 2460 2623 2671 2879 2980 2980 2980 2975 2974 2973 2972 2972 2968 2966 2966 2966 2966 2966 2965 2965 2965 2965 2965 2964 2964 2960 2957 2956 2953 2952 2952 2950 2913 2845 2696 2547 2464 2327 2269 2251 2236 2226 2217 2200 2183 2175 2169 2164 2159 2154 2148 2139 2131 2122 2114 2102 2094 2088 2083 2077 2071 2066 2060 2054 2047 2041 2037 2033 2030 2025 2021 2018 2014 2010 2008 2003 1998 1996 1994 1991 1989 1986 1984 1981 1979 1976 1974 1971 1967 1964 1960 1956 1954 1952 1951 1950 1949 1949 1948 1948 1948 1946 1945 1945 1945 1945 1945 1944 1942 1941 1941 1940 1939 1937 1936 1935 1933 1932 1930 1929 1928 1927 1927 1927 1927 1927 1926 1925 1925 1924 1924 1924 1923 1923 1923 1923 1923 1923 1923 1923 1923 1926 1926 1927 1931 1935 1943 1944 1946 1946 1946 1942 1940 1935 1935 1934 1934 1934
