1184 1184 1183 1183 1181 1175 1170 1170 1170 1176 1177 1177 1177 1177 1178 1178 1178 1181 1183 1183 1183 1182 1182 1181 1182 1182 1182 1182 1183 1183 1184 1185 1187 1188 1190 1191 1192 1192 1192 1194 1197 1198 1198 1200 1202 1202 1204 1204 1204 1207 1208 1210 1213 1213 1215 1217 1219 1221 1223 1224 1225 1226 1226 1227 1228 1230 1232 1233 1234 1236 1236 1238 1239 1240 1241 1244 1245 1246 1247 1248 1249 1251 1253 1253 1254 1255 1257 1259 1262 1264 1267 1270 1271 1272 1274 1276 1278 1280 1281 1283 1285 1287 1289 1292 1294 1296 1297 1299 1301 1302 1303 1306 1308 1310 1312 1314 1315 1316 1318 1319 1321 1324 1326 1328 1330 1333 1335 1338 1340 1341 1344 1345 1348 1351 1353 1355 1358 1360 1362 1364 1366 1368 1370 1372 1373 1375 1377 1379 1381 1382 1385 1387 1388 1391 1394 1395 1396 1398 1401 1403 1404 1406 1409 1411 1414 1417 1420 1423 1426 1429 1432 1436 1440 1444 1448 1451 1455 1458 1461 1464 1467 1470 1472 1474 1476 1478 1479 1481 1484 1485 1486 1488 1491 1492 1494 1496 1499 1503 1505 1508 1511 1514 1516 1520 1523 1526 1530 1533 1536 1539 1541 1543 1545 1548 1550 1552 1554 1556 1558 1561 1563 1566 1568 1571 1577 1582 1588 1593 1599 1604 1608 1616 1623 1631 1638 1647 1655 1661 1663 1667 1673 1679 1683 1686 1688 1690 1692 1695 1698 1700 1702 1706 1709 1714 1719 1719 1721 1723 1729 1736 1740 1755 1774 1804 1854 1941 2028 2045 2058 2068 2069 2069 2073 2082 2089 2094 2094 2094 2094 2096 2096 2096 2096 2096 2096 2096 2101 2104 2108 2114 2121 2124 2124 2124 2121 2121 2121 2122 2122 2122 2121 2121 2121 2123 2129 2137 2140 2142 2142 2142 2140 2134 2134 2134 2138 2140 2140 2140 2139 2139 2139 2139 2139 2139 2139 2138 2137 2137 2137 2138 2139 2142 2144 2144 2144 2143 2141 2141 2141 2142 2149 2157 2162 2164 2165 2165 2164 2162 2156 2141 2132 2128 2127 2127 2128 2128 2128 2128 2123 2120 2113 2089 2072 2062 2056 2039 2019 1993 1972 1952 1939 1920 1888 1862 1860 1825 1786 1747 1706 1672 1617 1556 1509 1480 1465 1445 1424 1410 1407 1400 1386 1383 1381 1380 1378 1375 1372 1369 1367 1365 1361 1360 1359 1356 1353 1350 1348 1346 1344 1342 1340 1340 1339 1338 1337 1335 1333 1330 1328 1326 1324 1321 1319 1317 1315 1313 1310 1307 1305 1302 1301 1298 1296 1293 1289 1284 1267 1240 1235 1229 1217 1206 1195 1195 1194 1194 1192 1191 1190 1190 1190 1190 1190 1193 1196 1200 1206 1208 1210 1213 1218 1226 1237 1239 1242 1243 1243 1242 1240 1240 1238 1237 1236 1235 1235 1235 1238 1244 1253 1262 1277 1317 1389 1505 1737 2178 2266 2290 2290 2290 2290 2287 2285 2280 2268 2264 2262 2260 2244 2239 2214 2190 2159 2114 2090 2083 2076 2074 2071 2061 2055 2053 2050 2045 2038 2035 2034 2032 2029 2022 2017 2012 2007 2003 1995 1985 1973 1966 1964 1959 1952 1946 1939 1931 1929 1923 1913 1905 1899 1892 1886 1880 1875 1871 1866 1862 1858 1856 1851 1847 1842 1837 1829 1821 1814 1808 1804 1799 1793 1787 1780 1772 1765 1759 1753 1750 1745 1741 1735 1730 1724 1719 1714 1711 1708 1705 1699 1695 1690 1684 1680 1676 1673 1669 1665 1661 1657 1652 1648 1645 1641 1636 1632 1628 1624 1620 1614 1609 1605 1602 1600 1598 1594 1590 1585 1582 1578 1575 1574
1184 1184 1183 1183 1181 1175 1169 1169 1169 1172 1174 1175 1175 1175 1175 1177 1177 1181 1181 1181 1181 1180 1180 1180 1180 1180 1180 1180 1180 1180 1181 1183 1186 1187 1188 1190 1190 1191 1192 1192 1195 1196 1197 1199 1200 1202 1202 1203 1203 1206 1207 1209 1210 1212 1213 1215 1217 1219 1220 1221 1222 1224 1225 1226 1226 1228 1230 1232 1233 1234 1236 1236 1238 1239 1241 1243 1244 1245 1246 1247 1247 1249 1251 1252 1253 1254 1257 1259 1262 1264 1266 1268 1269 1270 1272 1274 1276 1279 1280 1282 1283 1286 1288 1290 1292 1295 1296 1298 1299 1300 1302 1305 1306 1309 1311 1313 1313 1315 1316 1318 1321 1323 1325 1327 1329 1331 1334 1336 1338 1340 1342 1344 1347 1350 1352 1354 1357 1359 1361 1363 1364 1367 1368 1370 1372 1373 1376 1377 1379 1381 1383 1385 1387 1390 1392 1394 1395 1397 1399 1401 1403 1405 1407 1410 1412 1416 1419 1423 1425 1429 1431 1435 1438 1443 1447 1452 1455 1458 1462 1465 1468 1470 1472 1475 1477 1479 1480 1483 1485 1486 1488 1490 1492 1494 1495 1498 1501 1503 1506 1508 1511 1514 1517 1520 1523 1526 1531 1533 1536 1539 1541 1543 1545 1548 1549 1551 1553 1555 1558 1561 1563 1565 1568 1571 1575 1581 1587 1593 1599 1604 1608 1614 1621 1629 1634 1641 1647 1655 1661 1665 1670 1676 1681 1685 1687 1688 1692 1695 1696 1699 1702 1707 1712 1716 1721 1724 1726 1729 1732 1740 1757 1774 1807 1853 1937 2014 2028 2045 2054 2055 2056 2058 2064 2072 2078 2080 2080 2080 2080 2080 2082 2082 2082 2082 2081 2081 2081 2089 2095 2101 2106 2107 2107 2107 2105 2105 2105 2112 2112 2112 2104 2104 2104 2109 2119 2129 2134 2134 2134 2131 2130 2129 2129 2129 2132 2133 2133 2133 2133 2133 2133 2133 2134 2134 2134 2129 2129 2129 2129 2132 2133 2133 2133 2134 2134 2134 2134 2134 2135 2136 2143 2153 2155 2155 2155 2153 2153 2152 2147 2139 2132 2128 2128 2128 2132 2132 2132 2131 2129 2126 2113 2112 2112 2112 2116 2121 2121 2121 2113 2108 2097 2086 2065 2065 2038 1999 1970 1931 1885 1845 1793 1721 1664 1633 1609 1575 1538 1513 1492 1467 1436 1423 1414 1401 1396 1388 1378 1369 1367 1366 1362 1361 1359 1356 1353 1350 1349 1345 1343 1341 1341 1340 1339 1339 1339 1337 1333 1331 1329 1327 1324 1321 1320 1318 1316 1314 1310 1307 1305 1302 1301 1298 1296 1292 1284 1268 1243 1223 1216 1212 1194 1181 1181 1181 1186 1190 1190 1190 1189 1188 1187 1187 1187 1190 1195 1200 1206 1209 1211 1214 1218 1226 1231 1234 1242 1242 1242 1240 1238 1236 1235 1232 1230 1230 1230 1230 1234 1243 1248 1252 1262 1296 1354 1444 1642 2106 2241 2271 2277 2277 2277 2276 2276 2263 2251 2244 2244 2242 2235 2228 2214 2190 2171 2136 2092 2084 2080 2076 2075 2068 2059 2054 2051 2046 2042 2039 2036 2032 2029 2022 2017 2012 2007 2001 1992 1985 1973 1966 1964 1957 1952 1946 1939 1933 1929 1922 1913 1905 1899 1892 1886 1879 1875 1871 1866 1862 1858 1856 1851 1847 1842 1837 1829 1821 1814 1808 1804 1797 1792 1787 1781 1774 1766 1759 1754 1750 1746 1741 1734 1730 1724 1719 1715 1711 1708 1705 1701 1697 1691 1686 1680 1677 1673 1669 1665 1661 1657 1652 1649 1645 1641 1637 1632 1628 1624 1619 1614 1610 1607 1604 1602 1600 1595 1591 1586 1583 1580 1577 1577
1178 1178 1179 1179 1179 1175 1169 1168 1168 1168 1172 1173 1173 1173 1173 1175 1175 1179 1179 1179 1179 1179 1179 1179 1178 1178 1177 1177 1177 1178 1180 1182 1185 1186 1187 1189 1189 1189 1190 1191 1194 1196 1196 1197 1199 1199 1201 1201 1203 1205 1206 1207 1209 1210 1211 1212 1215 1216 1218 1220 1221 1222 1224 1225 1225 1227 1229 1231 1233 1233 1235 1236 1237 1238 1240 1241 1242 1243 1244 1245 1246 1248 1249 1251 1251 1254 1256 1258 1261 1263 1265 1266 1268 1270 1271 1274 1276 1277 1278 1280 1282 1285 1286 1289 1292 1293 1295 1297 1298 1299 1301 1304 1306 1308 1310 1312 1313 1314 1316 1318 1320 1322 1325 1326 1328 1330 1332 1334 1337 1338 1340 1343 1346 1348 1351 1353 1355 1358 1360 1362 1363 1365 1367 1368 1369 1372 1374 1376 1378 1379 1382 1384 1387 1390 1392 1393 1395 1397 1399 1401 1403 1405 1407 1410 1412 1414 1418 1421 1425 1428 1431 1435 1438 1443 1447 1452 1455 1459 1463 1466 1468 1470 1473 1475 1477 1479 1482 1484 1486 1488 1490 1492 1494 1496 1499 1501 1503 1504 1506 1509 1512 1516 1519 1522 1524 1527 1531 1534 1537 1539 1541 1543 1545 1548 1549 1551 1553 1555 1558 1561 1563 1565 1568 1570 1575 1580 1586 1591 1597 1603 1607 1614 1620 1625 1631 1637 1645 1651 1657 1662 1668 1675 1681 1685 1685 1687 1690 1691 1695 1699 1702 1709 1714 1719 1725 1733 1737 1746 1757 1768 1775 1803 1858 1935 1997 2014 2028 2035 2042 2045 2045 2045 2048 2057 2064 2064 2065 2065 2065 2069 2072 2072 2072 2072 2068 2068 2068 2073 2081 2087 2087 2087 2087 2087 2088 2091 2096 2102 2102 2102 2097 2095 2095 2095 2108 2120 2123 2123 2123 2120 2120 2120 2121 2124 2124 2124 2124 2124 2123 2123 2123 2124 2124 2124 2124 2119 2119 2119 2120 2122 2122 2123 2123 2123 2124 2124 2124 2124 2124 2128 2135 2141 2143 2143 2143 2141 2141 2140 2135 2127 2122 2122 2122 2128 2132 2132 2132 2131 2129 2126 2113 2112 2112 2112 2116 2121 2121 2122 2124 2123 2123 2124 2124 2123 2108 2094 2085 2078 2041 2020 1980 1933 1881 1838 1803 1770 1727 1685 1645 1620 1588 1555 1531 1500 1481 1460 1436 1418 1404 1394 1391 1383 1370 1364 1359 1352 1352 1347 1342 1341 1341 1341 1340 1340 1340 1338 1334 1332 1329 1327 1324 1324 1321 1318 1316 1314 1310 1307 1305 1302 1301 1297 1291 1280 1263 1241 1215 1209 1198 1184 1170 1162 1161 1161 1161 1164 1167 1178 1178 1179 1181 1181 1181 1184 1191 1196 1206 1209 1212 1215 1218 1226 1231 1234 1240 1240 1240 1235 1234 1232 1232 1230 1228 1227 1227 1227 1231 1240 1246 1247 1255 1281 1331 1422 1614 1981 2226 2250 2270 2270 2270 2270 2270 2256 2242 2235 2230 2224 2219 2217 2213 2190 2171 2151 2120 2094 2089 2086 2076 2068 2061 2057 2052 2046 2042 2039 2036 2032 2028 2022 2017 2012 2006 2001 1992 1985 1975 1968 1962 1957 1951 1943 1939 1932 1923 1917 1910 1905 1899 1891 1884 1878 1875 1871 1866 1862 1858 1855 1850 1845 1841 1835 1829 1821 1815 1811 1804 1797 1791 1786 1781 1774 1769 1762 1756 1750 1746 1741 1735 1730 1725 1721 1717 1712 1708 1705 1702 1697 1692 1687 1682 1678 1674 1670 1666 1661 1658 1652 1649 1645 1641 1638 1633 1628 1624 1619 1614 1612 1609 1607 1604 1602 1598 1593 1589 1586 1584 1581 1579
1173 1173 1173 1173 1173 1172 1169 1167 1167 1167 1170 1171 1171 1172 1172 1172 1173 1175 1176 1176 1176 1176 1176 1176 1175 1175 1174 1174 1174 1176 1179 1182 1184 1185 1186 1188 1188 1189 1189 1190 1192 1194 1195 1196 1196 1198 1200 1201 1201 1203 1205 1206 1208 1209 1210 1211 1214 1215 1216 1218 1219 1221 1222 1222 1224 1226 1228 1229 1231 1232 1233 1234 1236 1237 1239 1239 1241 1242 1243 1243 1245 1247 1248 1250 1251 1253 1255 1258 1259 1262 1264 1265 1267 1268 1271 1273 1275 1276 1278 1279 1281 1283 1285 1287 1290 1293 1293 1296 1297 1299 1300 1303 1304 1307 1309 1311 1313 1313 1315 1317 1319 1321 1323 1324 1326 1328 1331 1334 1336 1337 1340 1342 1345 1347 1349 1352 1355 1357 1358 1359 1363 1364 1366 1367 1368 1370 1373 1374 1376 1378 1381 1383 1386 1389 1391 1392 1394 1396 1398 1401 1403 1405 1407 1409 1412 1414 1417 1421 1424 1429 1431 1435 1438 1443 1447 1452 1456 1460 1464 1468 1469 1473 1475 1477 1480 1482 1483 1486 1487 1489 1491 1493 1495 1498 1500 1503 1506 1507 1508 1511 1514 1518 1521 1524 1526 1530 1534 1537 1539 1541 1542 1544 1546 1548 1549 1551 1553 1555 1558 1561 1563 1565 1568 1570 1574 1578 1585 1590 1596 1602 1607 1614 1619 1624 1629 1636 1642 1649 1655 1661 1667 1674 1680 1683 1685 1686 1689 1691 1695 1699 1703 1711 1718 1724 1732 1739 1743 1758 1778 1799 1829 1866 1938 1983 1997 2014 2018 2024 2029 2032 2033 2033 2036 2042 2043 2044 2045 2047 2051 2055 2057 2061 2061 2061 2060 2060 2060 2063 2069 2072 2072 2072 2072 2072 2074 2080 2084 2089 2089 2089 2087 2087 2087 2087 2100 2109 2111 2111 2111 2109 2109 2109 2109 2114 2114 2114 2115 2115 2114 2113 2113 2113 2113 2112 2112 2110 2110 2110 2110 2111 2112 2112 2113 2115 2115 2115 2115 2114 2114 2114 2114 2119 2122 2128 2131 2131 2131 2130 2125 2118 2118 2118 2121 2128 2129 2129 2131 2129 2129 2126 2113 2112 2112 2112 2116 2121 2121 2122 2124 2123 2123 2124 2124 2123 2118 2107 2098 2095 2094 2091 2083 2068 2047 2008 1974 1935 1906 1880 1836 1797 1778 1766 1740 1691 1655 1615 1575 1545 1509 1483 1468 1451 1422 1405 1391 1371 1357 1348 1344 1341 1341 1341 1341 1340 1340 1338 1335 1333 1331 1329 1325 1324 1322 1319 1316 1314 1310 1307 1303 1300 1296 1293 1279 1258 1236 1216 1204 1196 1177 1163 1154 1150 1150 1150 1150 1151 1153 1155 1160 1160 1161 1161 1167 1176 1180 1187 1202 1208 1212 1216 1221 1227 1231 1234 1237 1237 1237 1231 1231 1230 1230 1229 1227 1226 1226 1226 1231 1237 1243 1243 1250 1271 1317 1408 1591 1910 2206 2225 2261 2261 2261 2259 2255 2241 2231 2222 2221 2216 2209 2208 2205 2190 2171 2151 2122 2118 2109 2090 2076 2068 2061 2057 2052 2046 2042 2039 2036 2032 2027 2022 2017 2012 2006 2000 1992 1985 1976 1968 1961 1955 1951 1943 1936 1931 1921 1911 1908 1902 1896 1889 1884 1878 1875 1872 1867 1862 1857 1852 1848 1843 1839 1833 1827 1821 1815 1811 1804 1797 1790 1785 1781 1774 1769 1763 1756 1750 1746 1741 1736 1731 1726 1722 1718 1714 1709 1706 1702 1697 1693 1688 1683 1679 1675 1670 1666 1662 1658 1652 1649 1645 1641 1638 1633 1628 1624 1619 1615 1612 1610 1608 1604 1602 1599 1596 1591 1589 1587 1583 1582
1171 1171 1170 1170 1168 1168 1166 1165 1165 1165 1167 1169 1169 1169 1169 1169 1170 1171 1173 1173 1173 1173 1173 1173 1172 1171 1171 1171 1174 1175 1177 1181 1182 1184 1185 1186 1187 1187 1188 1190 1192 1194 1194 1196 1196 1197 1198 1199 1200 1202 1204 1205 1207 1207 1209 1210 1212 1214 1214 1216 1217 1218 1219 1221 1222 1224 1226 1228 1230 1231 1232 1234 1234 1237 1237 1239 1239 1241 1242 1243 1245 1246 1247 1249 1250 1253 1255 1257 1258 1260 1262 1264 1266 1268 1269 1272 1274 1275 1277 1278 1280 1282 1284 1287 1289 1292 1293 1295 1297 1299 1300 1303 1304 1306 1309 1310 1312 1313 1315 1317 1319 1321 1322 1323 1325 1327 1330 1333 1335 1337 1339 1341 1343 1346 1348 1351 1353 1356 1357 1359 1361 1363 1364 1366 1367 1369 1371 1373 1376 1378 1380 1383 1386 1388 1391 1392 1394 1396 1398 1401 1402 1405 1407 1410 1413 1414 1417 1421 1424 1429 1432 1435 1439 1443 1449 1454 1458 1462 1466 1469 1472 1475 1477 1479 1482 1484 1486 1488 1489 1491 1492 1495 1497 1499 1502 1505 1507 1508 1510 1512 1516 1519 1523 1526 1529 1532 1535 1538 1540 1541 1542 1545 1546 1548 1549 1551 1553 1555 1558 1561 1563 1565 1568 1570 1574 1578 1584 1589 1596 1602 1607 1613 1619 1624 1628 1634 1642 1649 1655 1661 1667 1673 1678 1682 1684 1686 1689 1691 1695 1699 1704 1712 1721 1729 1738 1743 1755 1773 1803 1837 1892 1951 1963 1983 1997 2000 2008 2009 2011 2013 2021 2023 2027 2027 2029 2030 2030 2035 2039 2041 2043 2046 2053 2053 2053 2053 2053 2053 2059 2060 2060 2060 2060 2060 2063 2068 2070 2072 2079 2079 2079 2079 2079 2083 2093 2100 2100 2100 2099 2097 2097 2097 2099 2102 2105 2106 2106 2106 2105 2103 2101 2101 2101 2103 2103 2103 2101 2101 2101 2102 2103 2103 2104 2105 2105 2105 2104 2103 2103 2103 2106 2110 2112 2116 2122 2122 2122 2121 2115 2114 2114 2114 2120 2128 2128 2128 2122 2118 2115 2106 2106 2106 2108 2112 2112 2114 2116 2117 2119 2122 2123 2124 2124 2123 2118 2109 2106 2104 2101 2098 2092 2089 2088 2085 2081 2076 2073 2055 2002 1985 1972 1957 1929 1914 1893 1839 1793 1754 1696 1660 1645 1619 1566 1513 1469 1425 1386 1358 1345 1342 1342 1342 1342 1341 1341 1338 1335 1333 1332 1331 1329 1325 1322 1319 1317 1313 1309 1303 1300 1295 1292 1281 1255 1229 1208 1207 1193 1176 1161 1151 1148 1143 1141 1141 1138 1137 1134 1134 1134 1136 1138 1139 1147 1158 1170 1176 1188 1205 1212 1216 1223 1229 1230 1234 1235 1235 1235 1230 1228 1228 1228 1227 1226 1225 1225 1225 1228 1233 1235 1236 1243 1259 1286 1365 1519 1811 2171 2201 2240 2240 2240 2235 2229 2220 2206 2206 2204 2199 2199 2186 2178 2170 2162 2151 2122 2118 2109 2090 2076 2066 2061 2057 2052 2046 2040 2037 2034 2030 2026 2022 2017 2012 2006 2000 1991 1985 1976 1968 1961 1954 1949 1943 1936 1931 1921 1910 1903 1900 1895 1889 1884 1878 1875 1873 1868 1862 1857 1852 1848 1842 1837 1831 1824 1819 1815 1811 1804 1797 1790 1784 1779 1774 1769 1763 1756 1751 1746 1741 1736 1732 1728 1723 1720 1715 1711 1706 1702 1697 1694 1689 1684 1679 1675 1671 1667 1663 1658 1653 1648 1644 1641 1638 1633 1629 1624 1619 1615 1612 1610 1608 1605 1602 1600 1596 1593 1591 1588 1585 1582
1167 1167 1167 1167 1166 1166 1165 1165 1165 1165 1165 1167 1167 1167 1167 1167 1168 1169 1170 1170 1170 1170 1170 1170 1169 1169 1169 1169 1171 1173 1176 1179 1180 1183 1185 1186 1186 1187 1188 1190 1192 1194 1194 1195 1196 1196 1197 1197 1199 1201 1202 1204 1205 1206 1207 1209 1211 1212 1214 1214 1216 1217 1218 1219 1221 1222 1225 1226 1228 1230 1231 1233 1233 1236 1237 1237 1239 1241 1241 1243 1245 1246 1247 1248 1249 1252 1254 1256 1258 1260 1262 1263 1266 1268 1269 1272 1273 1275 1276 1278 1279 1282 1284 1286 1289 1291 1293 1295 1296 1298 1300 1302 1304 1306 1308 1309 1311 1313 1315 1317 1319 1320 1322 1323 1325 1327 1330 1332 1334 1336 1338 1340 1343 1345 1347 1350 1352 1355 1356 1358 1360 1362 1364 1365 1366 1368 1370 1372 1375 1378 1380 1383 1386 1388 1389 1390 1392 1396 1398 1400 1403 1405 1407 1410 1413 1414 1417 1421 1424 1429 1432 1437 1440 1444 1449 1455 1460 1464 1467 1471 1474 1477 1479 1481 1485 1487 1489 1490 1492 1494 1495 1498 1500 1502 1506 1506 1508 1511 1514 1517 1519 1523 1528 1531 1534 1536 1537 1539 1540 1542 1543 1545 1547 1549 1550 1552 1554 1557 1559 1561 1564 1566 1569 1572 1574 1578 1584 1589 1596 1602 1607 1612 1617 1622 1628 1634 1642 1649 1655 1660 1666 1672 1676 1680 1683 1686 1689 1694 1697 1699 1707 1717 1726 1738 1753 1773 1791 1809 1851 1898 1933 1951 1963 1980 1982 1983 1983 1989 1999 2005 2009 2013 2016 2017 2019 2019 2020 2021 2026 2027 2028 2032 2036 2044 2044 2045 2045 2045 2047 2049 2049 2049 2049 2049 2051 2055 2055 2055 2053 2053 2053 2068 2073 2078 2083 2088 2090 2090 2090 2089 2089 2089 2090 2094 2094 2094 2093 2093 2093 2092 2090 2090 2090 2093 2093 2093 2088 2088 2088 2092 2094 2094 2095 2095 2095 2096 2096 2096 2096 2097 2100 2104 2106 2109 2116 2116 2116 2113 2105 2105 2105 2109 2119 2124 2124 2124 2118 2110 2103 2103 2103 2104 2108 2109 2109 2109 2110 2110 2112 2113 2113 2115 2118 2118 2118 2109 2106 2104 2101 2098 2092 2089 2088 2085 2081 2080 2079 2076 2076 2075 2070 2064 2058 2054 2051 2011 1963 1914 1882 1873 1857 1812 1756 1684 1604 1500 1427 1387 1360 1348 1346 1343 1342 1342 1342 1340 1336 1336 1336 1336 1336 1330 1326 1319 1317 1313 1309 1303 1298 1292 1279 1256 1224 1197 1196 1181 1170 1161 1150 1142 1134 1130 1124 1122 1119 1119 1119 1119 1119 1120 1122 1124 1128 1136 1150 1160 1169 1186 1204 1216 1223 1229 1230 1234 1234 1234 1234 1230 1227 1227 1227 1226 1225 1225 1225 1225 1228 1228 1229 1230 1240 1253 1284 1345 1482 1755 2141 2194 2213 2213 2213 2213 2209 2203 2192 2181 2179 2169 2165 2163 2153 2143 2136 2129 2122 2118 2109 2090 2076 2066 2061 2052 2048 2042 2039 2036 2032 2028 2025 2020 2016 2010 2005 1999 1991 1983 1976 1969 1961 1954 1949 1943 1936 1931 1918 1909 1903 1898 1893 1889 1885 1881 1878 1873 1868 1863 1857 1852 1847 1841 1836 1829 1822 1819 1814 1810 1804 1797 1790 1783 1777 1773 1768 1763 1757 1751 1746 1741 1738 1733 1730 1726 1721 1716 1712 1707 1703 1699 1694 1689 1685 1680 1676 1672 1667 1663 1658 1653 1648 1644 1641 1637 1633 1629 1624 1619 1615 1612 1610 1608 1605 1602 1600 1597 1594 1591 1588 1585 1582
1155 1155 1165 1166 1166 1166 1165 1164 1163 1163 1163 1165 1165 1165 1166 1166 1166 1167 1168 1168 1168 1168 1167 1167 1167 1167 1167 1168 1169 1171 1173 1177 1179 1182 1183 1185 1185 1186 1187 1190 1192 1194 1194 1195 1195 1196 1196 1196 1198 1200 1201 1203 1204 1205 1206 1208 1210 1211 1212 1213 1214 1216 1216 1219 1221 1222 1224 1225 1227 1229 1230 1232 1233 1234 1236 1237 1238 1240 1241 1242 1243 1245 1246 1248 1249 1251 1253 1255 1257 1260 1261 1263 1265 1267 1269 1271 1273 1274 1276 1278 1279 1282 1284 1286 1288 1291 1292 1294 1296 1298 1300 1302 1304 1305 1308 1309 1311 1312 1314 1316 1319 1320 1322 1323 1325 1327 1329 1332 1334 1336 1338 1340 1343 1344 1347 1349 1351 1353 1356 1358 1359 1361 1363 1364 1365 1367 1369 1372 1374 1377 1380 1382 1384 1386 1388 1390 1392 1395 1398 1400 1403 1405 1407 1410 1413 1415 1418 1422 1426 1430 1433 1437 1442 1446 1451 1456 1461 1465 1470 1472 1476 1478 1481 1484 1487 1490 1491 1493 1495 1498 1500 1501 1503 1504 1506 1508 1512 1514 1516 1518 1521 1526 1531 1536 1538 1538 1540 1541 1541 1543 1543 1545 1547 1550 1552 1555 1558 1559 1561 1563 1565 1567 1569 1572 1575 1578 1584 1589 1597 1602 1607 1612 1617 1622 1628 1634 1643 1650 1656 1660 1666 1670 1674 1678 1682 1686 1689 1696 1701 1707 1712 1720 1732 1747 1769 1781 1809 1853 1902 1920 1933 1951 1963 1964 1968 1968 1973 1979 1987 1991 1997 1999 2004 2008 2008 2008 2009 2009 2011 2014 2018 2023 2025 2026 2032 2033 2034 2034 2037 2037 2037 2036 2036 2036 2040 2041 2041 2041 2041 2041 2041 2051 2062 2071 2077 2080 2080 2080 2080 2080 2080 2081 2083 2083 2083 2082 2081 2080 2080 2079 2079 2079 2079 2081 2081 2081 2079 2079 2079 2085 2085 2085 2084 2083 2083 2083 2088 2091 2092 2093 2095 2098 2101 2105 2110 2110 2110 2106 2101 2101 2101 2106 2113 2118 2118 2118 2113 2104 2100 2100 2100 2103 2105 2108 2108 2108 2105 2103 2102 2102 2102 2100 2100 2100 2106 2106 2106 2104 2101 2098 2092 2089 2088 2085 2081 2080 2079 2076 2076 2075 2070 2066 2064 2060 2057 2055 2055 2054 2050 2032 1993 1966 1924 1759 1604 1500 1427 1387 1361 1348 1346 1345 1344 1344 1343 1343 1344 1346 1346 1346 1346 1343 1343 1337 1320 1313 1307 1300 1288 1279 1259 1230 1195 1186 1176 1167 1158 1151 1138 1129 1120 1113 1110 1109 1108 1108 1108 1109 1109 1109 1112 1115 1119 1124 1133 1141 1148 1167 1190 1210 1223 1229 1230 1231 1233 1233 1233 1230 1227 1226 1225 1225 1225 1225 1225 1225 1225 1226 1227 1227 1240 1253 1273 1319 1427 1674 2078 2165 2185 2191 2191 2191 2191 2191 2180 2171 2162 2152 2145 2134 2124 2118 2113 2107 2101 2092 2087 2085 2073 2066 2061 2052 2045 2041 2039 2035 2030 2027 2022 2018 2014 2006 2002 1997 1990 1981 1976 1969 1961 1954 1949 1944 1936 1930 1918 1906 1903 1898 1893 1889 1885 1881 1878 1873 1868 1863 1857 1852 1847 1841 1834 1827 1821 1817 1812 1809 1804 1797 1790 1783 1777 1773 1768 1763 1759 1753 1747 1744 1740 1735 1731 1727 1722 1718 1713 1709 1705 1700 1694 1689 1686 1681 1677 1672 1667 1663 1658 1653 1648 1644 1641 1637 1633 1629 1624 1620 1615 1612 1610 1608 1605 1603 1600 1597 1594 1591 1588 1585 1582
1155 1155 1164 1165 1166 1165 1164 1163 1162 1162 1162 1164 1164 1164 1164 1164 1164 1166 1166 1166 1166 1166 1165 1165 1165 1165 1166 1166 1167 1168 1171 1174 1178 1180 1182 1183 1183 1185 1186 1190 1192 1192 1192 1193 1193 1193 1195 1196 1197 1197 1198 1200 1201 1203 1205 1208 1209 1210 1210 1212 1213 1214 1216 1217 1219 1221 1222 1224 1226 1228 1230 1231 1233 1234 1236 1237 1238 1239 1240 1241 1243 1244 1246 1247 1249 1251 1253 1254 1257 1259 1260 1262 1265 1267 1269 1270 1272 1274 1276 1278 1279 1281 1283 1286 1288 1290 1292 1294 1296 1298 1300 1302 1304 1305 1308 1309 1310 1312 1314 1316 1318 1320 1322 1323 1325 1327 1329 1332 1334 1336 1338 1340 1343 1344 1347 1349 1351 1353 1355 1357 1359 1361 1362 1364 1365 1367 1369 1372 1374 1376 1379 1382 1384 1386 1388 1390 1392 1395 1398 1400 1403 1405 1409 1410 1413 1416 1419 1423 1427 1430 1436 1439 1443 1447 1453 1458 1463 1466 1470 1474 1477 1480 1483 1486 1489 1491 1495 1497 1498 1501 1503 1505 1506 1508 1509 1513 1517 1518 1519 1519 1523 1528 1533 1537 1541 1541 1541 1542 1545 1545 1546 1548 1550 1552 1555 1557 1560 1560 1562 1564 1566 1567 1570 1573 1577 1579 1587 1595 1601 1605 1608 1612 1617 1622 1628 1635 1644 1651 1656 1661 1666 1670 1673 1677 1680 1684 1689 1697 1706 1713 1719 1727 1736 1754 1774 1796 1841 1898 1908 1920 1933 1937 1941 1942 1945 1953 1960 1968 1974 1979 1982 1985 1992 1993 1993 1997 1997 1999 2002 2005 2010 2015 2018 2018 2019 2020 2021 2024 2027 2027 2027 2028 2028 2029 2032 2032 2032 2030 2030 2030 2034 2044 2054 2060 2062 2063 2064 2066 2067 2068 2069 2070 2071 2071 2071 2067 2064 2064 2064 2065 2066 2067 2071 2074 2074 2074 2067 2067 2067 2074 2076 2076 2076 2071 2071 2071 2077 2083 2087 2089 2091 2094 2098 2100 2106 2106 2106 2101 2098 2098 2098 2100 2101 2104 2107 2107 2107 2101 2098 2098 2098 2100 2105 2105 2105 2102 2097 2096 2095 2092 2091 2089 2089 2089 2091 2096 2096 2096 2093 2089 2086 2083 2082 2080 2078 2078 2078 2076 2076 2075 2070 2066 2064 2060 2057 2055 2055 2057 2057 2055 2044 2015 1924 1759 1604 1500 1427 1387 1361 1348 1346 1345 1345 1345 1347 1347 1347 1349 1357 1369 1377 1383 1383 1383 1358 1325 1301 1300 1263 1241 1234 1199 1191 1176 1162 1157 1150 1138 1127 1116 1109 1106 1105 1105 1104 1103 1103 1103 1103 1104 1104 1106 1110 1115 1123 1130 1134 1146 1168 1196 1219 1226 1228 1228 1231 1231 1231 1229 1227 1224 1224 1224 1224 1224 1224 1224 1224 1223 1223 1223 1233 1243 1264 1306 1401 1609 1920 2134 2151 2157 2163 2164 2164 2163 2163 2157 2151 2145 2135 2126 2117 2111 2099 2092 2089 2088 2081 2079 2073 2060 2057 2051 2044 2041 2036 2032 2028 2024 2020 2014 2008 2003 1998 1993 1990 1981 1973 1968 1961 1954 1949 1944 1936 1930 1915 1905 1902 1896 1893 1888 1885 1881 1878 1873 1868 1863 1857 1852 1847 1840 1833 1827 1821 1817 1812 1809 1803 1797 1790 1783 1777 1773 1768 1764 1759 1754 1750 1745 1741 1736 1731 1727 1722 1718 1713 1709 1705 1700 1695 1691 1686 1681 1677 1672 1666 1660 1655 1651 1648 1644 1640 1637 1633 1629 1625 1620 1616 1612 1610 1607 1605 1603 1600 1597 1594 1591 1588 1585 1582
1151 1151 1163 1164 1164 1164 1163 1163 1162 1162 1162 1162 1162 1161 1161 1161 1162 1162 1164 1164 1164 1163 1163 1163 1163 1164 1164 1164 1165 1168 1169 1173 1177 1178 1180 1180 1181 1183 1185 1189 1189 1189 1190 1190 1190 1191 1193 1194 1196 1196 1197 1198 1200 1203 1205 1207 1207 1209 1210 1211 1213 1214 1216 1217 1219 1220 1222 1224 1225 1228 1229 1231 1232 1234 1235 1236 1238 1239 1240 1241 1243 1244 1246 1247 1249 1251 1253 1254 1257 1259 1260 1262 1265 1266 1269 1270 1272 1274 1275 1277 1279 1281 1283 1286 1287 1290 1291 1293 1295 1298 1299 1302 1304 1305 1307 1309 1310 1312 1314 1316 1318 1320 1322 1323 1325 1327 1329 1332 1334 1336 1338 1340 1343 1344 1347 1349 1351 1353 1354 1357 1359 1360 1361 1363 1365 1367 1369 1372 1374 1376 1379 1382 1384 1386 1388 1390 1392 1395 1398 1400 1403 1406 1409 1411 1414 1418 1421 1425 1428 1432 1437 1441 1445 1450 1456 1460 1464 1469 1472 1475 1478 1482 1485 1487 1490 1494 1498 1500 1501 1503 1507 1509 1512 1513 1515 1518 1522 1523 1523 1523 1526 1529 1533 1539 1542 1542 1543 1544 1547 1549 1551 1551 1553 1556 1557 1559 1560 1561 1563 1565 1567 1568 1571 1573 1578 1587 1594 1600 1605 1607 1611 1616 1623 1627 1630 1638 1645 1651 1657 1662 1667 1670 1673 1677 1680 1684 1690 1698 1707 1717 1723 1730 1746 1774 1801 1837 1890 1898 1908 1920 1923 1928 1930 1932 1936 1939 1946 1954 1959 1965 1970 1973 1974 1976 1978 1984 1988 1990 1994 1997 2004 2008 2008 2008 2009 2009 2009 2012 2013 2015 2019 2020 2022 2026 2028 2028 2028 2025 2024 2024 2024 2032 2041 2043 2044 2046 2046 2048 2051 2051 2051 2047 2047 2047 2055 2055 2055 2055 2055 2055 2055 2055 2060 2066 2066 2066 2059 2059 2059 2062 2065 2065 2065 2062 2062 2062 2063 2070 2076 2079 2084 2090 2094 2095 2096 2096 2096 2091 2091 2091 2091 2090 2091 2092 2092 2093 2093 2093 2093 2091 2091 2091 2091 2091 2091 2089 2089 2088 2086 2085 2083 2083 2083 2083 2083 2083 2083 2083 2082 2080 2078 2078 2078 2076 2073 2071 2069 2068 2068 2068 2067 2066 2064 2060 2057 2055 2055 2057 2057 2055 2049 2015 1924 1759 1584 1476 1409 1376 1360 1348 1346 1345 1345 1345 1347 1347 1347 1350 1361 1377 1403 1429 1429 1429 1380 1325 1301 1281 1254 1201 1189 1184 1179 1162 1152 1147 1137 1126 1115 1109 1105 1103 1103 1101 1097 1096 1096 1096 1096 1098 1098 1100 1102 1107 1114 1120 1125 1132 1150 1177 1200 1221 1227 1228 1228 1228 1228 1227 1226 1224 1223 1223 1223 1223 1223 1222 1222 1222 1222 1222 1225 1235 1258 1293 1385 1591 1898 2120 2143 2143 2143 2140 2138 2138 2138 2138 2138 2138 2128 2118 2112 2100 2089 2085 2079 2079 2074 2073 2072 2060 2057 2047 2044 2039 2034 2030 2026 2021 2016 2011 2007 2002 1997 1992 1989 1981 1973 1969 1961 1957 1950 1944 1936 1929 1911 1904 1901 1896 1890 1887 1884 1880 1877 1872 1865 1861 1857 1852 1845 1840 1833 1827 1821 1817 1812 1809 1803 1797 1790 1783 1777 1773 1770 1766 1762 1757 1752 1748 1742 1736 1732 1727 1723 1718 1714 1709 1705 1700 1695 1691 1686 1681 1677 1672 1664 1659 1654 1651 1648 1644 1640 1637 1633 1629 1625 1620 1617 1613 1610 1607 1605 1603 1600 1597 1594 1591 1588 1585 1582
1142 1142 1160 1161 1161 1161 1160 1160 1160 1159 1159 1159 1158 1157 1157 1157 1158 1158 1159 1160 1160 1161 1161 1161 1161 1161 1161 1162 1163 1166 1169 1172 1175 1176 1177 1179 1179 1181 1185 1186 1186 1187 1187 1187 1188 1190 1191 1193 1194 1196 1197 1198 1200 1202 1205 1206 1206 1208 1208 1210 1212 1213 1215 1216 1218 1219 1220 1222 1225 1227 1229 1230 1231 1233 1235 1236 1238 1239 1240 1241 1243 1244 1246 1247 1249 1251 1253 1254 1257 1259 1260 1262 1264 1266 1268 1270 1272 1273 1275 1277 1279 1281 1283 1285 1287 1290 1291 1293 1295 1297 1299 1302 1304 1305 1307 1308 1310 1312 1313 1316 1318 1320 1322 1323 1326 1328 1330 1332 1334 1336 1338 1341 1343 1344 1347 1349 1351 1353 1354 1356 1358 1360 1361 1363 1365 1367 1369 1372 1374 1376 1379 1382 1384 1386 1388 1390 1392 1395 1398 1401 1404 1407 1409 1413 1417 1420 1423 1427 1429 1433 1438 1443 1447 1452 1456 1461 1465 1469 1472 1476 1481 1482 1485 1490 1496 1501 1504 1505 1506 1506 1507 1511 1513 1516 1519 1522 1525 1529 1531 1534 1534 1536 1538 1540 1543 1544 1546 1548 1550 1552 1553 1554 1555 1558 1560 1560 1561 1563 1566 1568 1570 1570 1572 1576 1581 1588 1596 1602 1608 1611 1616 1620 1624 1630 1633 1640 1645 1651 1657 1663 1667 1671 1673 1677 1680 1684 1690 1698 1708 1717 1728 1744 1769 1806 1851 1877 1890 1898 1908 1912 1915 1920 1924 1926 1929 1937 1943 1947 1951 1957 1961 1964 1965 1968 1971 1977 1981 1983 1988 1991 1993 1998 1998 1998 2000 2000 2000 2006 2009 2011 2011 2012 2015 2019 2022 2022 2022 2018 2016 2016 2016 2020 2026 2032 2033 2033 2033 2033 2033 2033 2032 2028 2028 2028 2031 2044 2048 2050 2050 2050 2048 2048 2048 2055 2055 2055 2052 2049 2049 2049 2054 2055 2055 2055 2054 2054 2054 2056 2060 2068 2072 2079 2083 2083 2083 2082 2080 2080 2080 2080 2080 2080 2078 2077 2077 2077 2082 2082 2082 2082 2079 2078 2078 2078 2078 2079 2080 2080 2080 2079 2079 2078 2078 2078 2077 2076 2075 2075 2075 2076 2076 2076 2076 2076 2070 2065 2061 2059 2059 2059 2062 2062 2062 2058 2052 2052 2052 2054 2054 2054 2049 2015 1891 1697 1542 1448 1395 1374 1358 1346 1345 1345 1345 1345 1347 1347 1347 1350 1361 1377 1403 1429 1429 1429 1380 1325 1277 1224 1203 1193 1183 1173 1159 1145 1137 1132 1124 1115 1110 1105 1102 1099 1099 1096 1092 1090 1090 1090 1090 1091 1092 1092 1095 1099 1104 1109 1114 1125 1137 1156 1186 1216 1225 1228 1228 1228 1227 1227 1225 1222 1221 1221 1220 1220 1220 1220 1220 1220 1220 1221 1223 1229 1248 1280 1368 1558 1844 2096 2142 2142 2142 2140 2134 2132 2130 2130 2129 2126 2108 2088 2086 2085 2083 2083 2078 2071 2065 2065 2063 2060 2057 2046 2042 2035 2032 2030 2026 2019 2014 2009 2005 2002 1996 1992 1987 1981 1973 1966 1961 1957 1950 1944 1930 1920 1908 1904 1901 1896 1890 1887 1884 1880 1877 1871 1865 1861 1855 1851 1845 1839 1833 1827 1823 1819 1814 1810 1803 1796 1789 1783 1778 1775 1772 1768 1764 1759 1755 1749 1745 1737 1734 1728 1723 1719 1714 1709 1705 1700 1695 1691 1686 1681 1676 1671 1664 1659 1654 1651 1648 1645 1640 1637 1633 1629 1625 1620 1617 1614 1611 1608 1605 1603 1600 1597 1594 1591 1588 1583 1580
1144 1144 1151 1151 1151 1151 1151 1153 1154 1154 1154 1154 1154 1154 1154 1154 1154 1155 1155 1155 1156 1156 1157 1158 1158 1158 1159 1159 1161 1164 1166 1170 1172 1173 1174 1176 1178 1180 1182 1183 1184 1184 1184 1185 1187 1188 1190 1192 1193 1195 1196 1197 1200 1202 1204 1205 1206 1207 1208 1210 1211 1213 1214 1215 1218 1218 1220 1222 1224 1227 1228 1230 1231 1233 1234 1236 1237 1239 1240 1241 1242 1244 1246 1247 1249 1251 1253 1254 1257 1258 1260 1262 1263 1265 1268 1270 1272 1273 1275 1277 1279 1281 1283 1285 1287 1290 1291 1293 1295 1297 1299 1302 1304 1305 1307 1308 1310 1312 1313 1316 1318 1320 1322 1324 1326 1328 1330 1332 1334 1336 1338 1341 1342 1345 1346 1349 1351 1353 1354 1356 1358 1360 1361 1363 1365 1367 1370 1372 1374 1377 1380 1382 1384 1387 1389 1392 1393 1395 1399 1401 1404 1408 1411 1414 1418 1421 1425 1427 1430 1433 1439 1445 1449 1453 1456 1462 1465 1470 1475 1481 1485 1485 1489 1495 1498 1502 1505 1510 1513 1515 1517 1518 1520 1521 1524 1528 1536 1539 1541 1541 1543 1545 1549 1550 1552 1554 1556 1556 1556 1557 1557 1558 1559 1560 1562 1562 1563 1565 1568 1571 1572 1572 1575 1581 1587 1591 1598 1604 1608 1612 1617 1622 1628 1632 1636 1641 1648 1654 1660 1664 1670 1674 1676 1682 1686 1689 1695 1700 1711 1725 1737 1757 1795 1853 1858 1877 1890 1897 1901 1907 1910 1913 1918 1922 1925 1934 1939 1941 1947 1952 1953 1954 1960 1964 1970 1974 1976 1976 1976 1978 1979 1983 1984 1986 1988 1988 1992 2001 2006 2006 2006 2007 2007 2007 2012 2012 2012 2012 2009 2008 2008 2008 2011 2017 2020 2020 2020 2018 2018 2016 2014 2011 2011 2011 2015 2026 2040 2043 2043 2043 2039 2037 2037 2037 2041 2041 2041 2039 2039 2039 2041 2047 2050 2050 2050 2049 2049 2048 2048 2048 2050 2056 2062 2062 2062 2064 2064 2064 2064 2064 2062 2060 2060 2060 2061 2066 2071 2072 2072 2072 2070 2069 2069 2069 2069 2072 2072 2074 2074 2074 2072 2072 2071 2071 2070 2070 2070 2071 2071 2071 2074 2074 2074 2074 2068 2059 2055 2050 2050 2050 2056 2058 2058 2058 2050 2050 2050 2050 2050 2050 2049 2012 1859 1652 1505 1424 1385 1366 1354 1346 1345 1343 1343 1343 1343 1344 1345 1350 1357 1377 1403 1429 1429 1429 1380 1325 1266 1219 1200 1179 1166 1151 1136 1130 1127 1121 1115 1108 1105 1102 1097 1095 1093 1091 1088 1086 1085 1085 1085 1086 1088 1088 1090 1093 1097 1099 1100 1111 1122 1135 1163 1201 1223 1227 1227 1227 1225 1225 1223 1219 1219 1219 1219 1218 1218 1218 1217 1217 1217 1221 1222 1228 1240 1262 1346 1513 1748 2068 2132 2134 2134 2134 2131 2129 2120 2118 2117 2109 2092 2078 2078 2078 2077 2077 2077 2064 2055 2053 2051 2050 2048 2044 2037 2031 2030 2028 2024 2017 2012 2009 2005 1997 1992 1987 1984 1980 1973 1966 1961 1957 1950 1944 1924 1915 1908 1904 1901 1896 1890 1887 1884 1880 1877 1871 1865 1861 1855 1851 1845 1839 1833 1828 1824 1820 1814 1810 1802 1795 1788 1783 1780 1776 1773 1768 1764 1759 1755 1749 1745 1740 1735 1730 1724 1719 1714 1709 1705 1701 1695 1691 1686 1681 1676 1671 1664 1659 1654 1652 1649 1645 1642 1638 1634 1629 1624 1620 1617 1615 1613 1608 1606 1603 1600 1596 1592 1590 1586 1582 1579
1142 1142 1142 1142 1142 1142 1142 1145 1148 1149 1149 1150 1150 1150 1149 1149 1149 1151 1151 1151 1152 1153 1154 1154 1154 1154 1156 1157 1159 1162 1163 1167 1169 1171 1173 1175 1176 1179 1179 1180 1181 1183 1183 1184 1186 1186 1188 1190 1191 1195 1195 1197 1199 1202 1204 1205 1206 1207 1208 1209 1210 1212 1213 1215 1217 1218 1220 1222 1224 1226 1228 1229 1231 1233 1234 1235 1237 1239 1240 1241 1243 1244 1246 1247 1249 1251 1253 1254 1257 1258 1260 1261 1263 1265 1268 1270 1272 1273 1275 1277 1279 1281 1283 1285 1287 1290 1292 1294 1296 1298 1300 1302 1304 1306 1307 1308 1310 1312 1313 1316 1319 1320 1322 1324 1326 1328 1330 1332 1334 1337 1338 1341 1342 1345 1347 1349 1351 1353 1354 1357 1358 1360 1361 1363 1365 1368 1370 1372 1376 1378 1381 1382 1386 1388 1391 1392 1394 1396 1399 1402 1405 1408 1411 1415 1418 1421 1425 1428 1431 1436 1444 1449 1452 1455 1460 1464 1470 1476 1480 1482 1486 1488 1493 1498 1502 1508 1514 1522 1524 1525 1527 1530 1533 1533 1536 1539 1543 1544 1546 1547 1554 1562 1562 1562 1561 1561 1560 1560 1560 1561 1561 1565 1567 1568 1569 1570 1571 1572 1574 1574 1575 1579 1585 1589 1592 1598 1604 1608 1610 1613 1621 1628 1632 1636 1640 1645 1652 1658 1663 1669 1674 1678 1681 1689 1694 1698 1702 1712 1723 1741 1760 1793 1839 1853 1858 1877 1883 1889 1896 1898 1899 1900 1903 1909 1919 1927 1932 1936 1943 1944 1945 1948 1952 1958 1961 1964 1964 1964 1962 1962 1962 1967 1976 1977 1978 1978 1981 1988 1992 1992 1992 1989 1989 1989 1997 2000 2000 2000 1997 1996 1996 1996 1998 2001 2003 2003 2003 2002 2002 2001 2000 2000 2001 2001 2001 2008 2015 2022 2027 2027 2027 2027 2027 2027 2027 2028 2028 2028 2028 2028 2028 2038 2044 2046 2046 2046 2046 2043 2041 2041 2041 2041 2044 2047 2048 2050 2051 2051 2051 2050 2049 2048 2048 2048 2053 2058 2061 2062 2062 2062 2059 2058 2058 2058 2061 2061 2066 2067 2067 2067 2063 2063 2062 2061 2061 2061 2061 2063 2065 2065 2066 2068 2068 2068 2060 2051 2045 2040 2040 2040 2046 2054 2054 2054 2048 2047 2047 2047 2047 2047 2042 1972 1823 1640 1496 1420 1385 1366 1354 1346 1345 1343 1342 1341 1341 1341 1344 1346 1346 1352 1356 1366 1366 1366 1297 1258 1222 1190 1164 1149 1138 1132 1122 1121 1118 1113 1104 1100 1097 1095 1093 1091 1089 1087 1085 1084 1083 1083 1083 1083 1085 1086 1087 1088 1089 1091 1094 1103 1115 1133 1151 1177 1218 1224 1224 1224 1218 1218 1218 1216 1216 1216 1216 1216 1216 1216 1214 1214 1214 1218 1221 1226 1237 1261 1325 1468 1713 2043 2119 2134 2134 2134 2125 2112 2098 2096 2095 2091 2080 2071 2071 2071 2071 2071 2068 2057 2049 2048 2046 2045 2043 2040 2035 2030 2028 2025 2020 2016 2011 2008 2004 1995 1989 1983 1978 1978 1974 1966 1959 1955 1942 1935 1922 1914 1908 1907 1902 1897 1893 1888 1884 1880 1877 1872 1865 1861 1855 1851 1846 1839 1833 1828 1824 1820 1814 1810 1802 1795 1788 1784 1780 1777 1773 1768 1764 1759 1755 1749 1745 1740 1735 1730 1726 1721 1715 1710 1705 1701 1697 1691 1686 1681 1676 1671 1666 1660 1657 1653 1650 1646 1643 1639 1634 1629 1624 1620 1617 1616 1614 1609 1605 1602 1599 1595 1592 1588 1585 1582 1578
1138 1138 1138 1138 1137 1137 1137 1138 1145 1145 1146 1147 1147 1147 1147 1146 1146 1146 1148 1149 1149 1150 1150 1151 1151 1152 1152 1154 1157 1160 1162 1164 1168 1170 1172 1174 1175 1177 1177 1178 1179 1181 1182 1184 1185 1186 1187 1189 1191 1194 1195 1197 1199 1202 1204 1205 1206 1207 1208 1209 1210 1212 1213 1215 1217 1218 1220 1222 1224 1226 1228 1229 1231 1233 1234 1235 1237 1239 1240 1241 1243 1244 1246 1248 1249 1251 1253 1254 1256 1258 1260 1261 1263 1265 1268 1270 1272 1274 1275 1278 1279 1281 1284 1285 1288 1290 1292 1294 1296 1298 1300 1302 1304 1306 1308 1308 1310 1312 1314 1317 1319 1321 1323 1325 1327 1329 1331 1333 1335 1337 1339 1341 1343 1345 1347 1349 1351 1353 1354 1357 1358 1360 1362 1364 1366 1369 1371 1373 1376 1379 1382 1384 1386 1390 1392 1394 1396 1398 1401 1404 1406 1409 1412 1415 1418 1424 1427 1430 1436 1445 1449 1452 1456 1460 1466 1469 1475 1477 1481 1486 1488 1495 1502 1508 1513 1519 1523 1525 1525 1527 1528 1531 1535 1543 1561 1561 1561 1560 1560 1560 1566 1571 1571 1571 1570 1570 1569 1569 1569 1569 1569 1571 1576 1579 1579 1579 1579 1579 1581 1582 1586 1591 1595 1597 1599 1604 1611 1614 1615 1616 1621 1629 1634 1640 1644 1650 1656 1662 1669 1673 1675 1679 1685 1694 1699 1705 1715 1725 1740 1767 1799 1826 1839 1853 1858 1864 1874 1878 1878 1879 1882 1882 1887 1895 1904 1909 1912 1916 1923 1927 1930 1934 1944 1944 1946 1946 1946 1946 1946 1946 1949 1957 1961 1963 1964 1966 1969 1973 1973 1973 1972 1972 1972 1974 1978 1986 1986 1986 1983 1983 1983 1983 1984 1989 1989 1989 1989 1989 1989 1990 1990 1992 1992 1992 1993 1995 2001 2006 2008 2009 2009 2009 2013 2017 2017 2017 2018 2018 2018 2019 2020 2021 2030 2036 2037 2038 2038 2037 2034 2030 2030 2030 2032 2036 2039 2040 2040 2040 2039 2038 2038 2038 2038 2039 2045 2050 2050 2050 2047 2047 2047 2047 2047 2049 2053 2054 2059 2059 2059 2055 2053 2052 2052 2051 2051 2051 2054 2054 2055 2056 2056 2059 2059 2059 2050 2042 2037 2031 2031 2031 2035 2050 2050 2050 2047 2044 2044 2042 2042 2041 2029 1959 1823 1640 1496 1418 1384 1366 1354 1350 1346 1343 1342 1341 1340 1340 1341 1339 1338 1337 1327 1311 1299 1278 1239 1205 1174 1154 1141 1128 1122 1117 1115 1111 1110 1103 1096 1092 1090 1090 1087 1086 1084 1082 1082 1081 1081 1080 1080 1080 1082 1083 1084 1085 1085 1086 1092 1098 1106 1123 1140 1164 1196 1224 1224 1224 1218 1217 1215 1215 1215 1215 1215 1214 1214 1214 1214 1214 1214 1214 1218 1224 1232 1253 1310 1446 1685 2030 2115 2134 2134 2134 2118 2100 2088 2081 2081 2078 2074 2064 2058 2057 2055 2054 2054 2053 2049 2047 2044 2044 2042 2038 2032 2028 2024 2022 2020 2015 2009 2008 2004 1993 1985 1980 1978 1977 1974 1966 1958 1951 1941 1932 1922 1914 1912 1909 1904 1898 1893 1889 1885 1880 1876 1872 1868 1862 1857 1852 1846 1839 1833 1829 1825 1820 1814 1808 1801 1795 1788 1784 1782 1778 1773 1769 1764 1758 1753 1749 1744 1740 1735 1730 1726 1721 1718 1713 1709 1704 1699 1694 1687 1680 1676 1671 1667 1663 1659 1656 1652 1649 1645 1640 1635 1629 1624 1620 1617 1616 1614 1609 1605 1602 1598 1595 1592 1588 1585 1582 1578
1137 1137 1132 1132 1132 1132 1137 1138 1145 1145 1145 1145 1145 1144 1143 1143 1143 1144 1145 1145 1147 1148 1148 1148 1149 1149 1150 1153 1156 1159 1162 1164 1166 1169 1171 1172 1174 1175 1177 1177 1179 1180 1182 1183 1183 1186 1186 1189 1191 1193 1195 1196 1199 1202 1204 1206 1206 1207 1208 1209 1210 1212 1213 1215 1217 1219 1220 1222 1224 1226 1228 1229 1231 1233 1234 1236 1237 1239 1240 1242 1243 1245 1246 1248 1249 1251 1253 1254 1256 1258 1260 1261 1263 1265 1268 1270 1272 1274 1276 1278 1280 1282 1284 1286 1288 1290 1292 1295 1297 1298 1301 1303 1305 1307 1308 1309 1311 1313 1315 1317 1319 1321 1323 1325 1327 1329 1331 1334 1335 1337 1339 1341 1343 1345 1347 1349 1351 1353 1355 1357 1360 1361 1363 1366 1368 1370 1373 1375 1378 1381 1383 1386 1387 1390 1392 1394 1397 1400 1403 1405 1408 1412 1415 1419 1422 1426 1430 1434 1442 1447 1451 1455 1460 1465 1469 1475 1478 1482 1484 1490 1500 1507 1512 1518 1525 1527 1528 1528 1529 1529 1535 1543 1554 1557 1579 1597 1598 1598 1597 1596 1596 1596 1597 1597 1597 1595 1592 1591 1590 1586 1581 1581 1581 1586 1586 1586 1586 1586 1586 1590 1596 1602 1604 1607 1608 1612 1620 1620 1621 1622 1626 1634 1643 1649 1654 1657 1662 1668 1673 1674 1677 1681 1688 1698 1714 1715 1722 1737 1771 1801 1806 1826 1839 1846 1847 1847 1854 1860 1860 1861 1864 1869 1876 1887 1894 1896 1900 1905 1905 1905 1906 1907 1910 1914 1916 1918 1918 1930 1934 1938 1942 1946 1950 1951 1951 1952 1953 1957 1957 1957 1957 1957 1957 1957 1960 1967 1970 1970 1970 1970 1970 1971 1973 1973 1974 1976 1976 1977 1977 1979 1980 1982 1982 1982 1982 1984 1984 1990 1994 1995 1995 1995 1997 2002 2003 2005 2005 2007 2007 2007 2007 2008 2010 2019 2020 2023 2024 2024 2024 2019 2018 2018 2018 2023 2027 2028 2028 2028 2027 2026 2026 2026 2029 2031 2032 2032 2032 2030 2030 2030 2033 2035 2036 2038 2040 2046 2049 2049 2049 2043 2041 2041 2040 2040 2041 2042 2045 2046 2046 2048 2048 2047 2047 2047 2036 2030 2027 2025 2020 2020 2020 2035 2045 2045 2045 2042 2034 2032 2029 2023 2019 1957 1823 1640 1496 1418 1385 1371 1358 1352 1350 1348 1343 1341 1340 1337 1337 1336 1334 1326 1305 1273 1262 1231 1197 1168 1148 1136 1124 1118 1110 1107 1104 1103 1102 1097 1092 1087 1086 1085 1084 1083 1080 1079 1079 1079 1078 1078 1078 1078 1078 1079 1081 1082 1082 1083 1088 1095 1099 1109 1126 1148 1175 1212 1216 1216 1216 1216 1215 1214 1214 1214 1214 1213 1213 1213 1212 1211 1211 1211 1217 1224 1228 1242 1291 1410 1634 1918 2115 2120 2120 2120 2105 2086 2078 2077 2075 2071 2062 2054 2051 2050 2049 2049 2049 2049 2047 2045 2044 2043 2041 2037 2029 2025 2021 2020 2015 2010 2008 2008 2002 1992 1985 1980 1977 1977 1974 1966 1958 1948 1940 1931 1922 1913 1913 1912 1904 1898 1893 1889 1885 1880 1875 1871 1868 1863 1858 1853 1846 1839 1833 1829 1825 1820 1814 1808 1801 1795 1789 1785 1782 1779 1773 1769 1764 1758 1753 1749 1744 1740 1734 1730 1726 1722 1718 1714 1712 1707 1701 1694 1687 1680 1675 1671 1667 1665 1661 1658 1654 1650 1645 1640 1635 1629 1624 1620 1618 1617 1614 1609 1605 1602 1598 1595 1592 1588 1585 1582 1578
1135 1135 1131 1131 1131 1131 1135 1137 1142 1142 1142 1142 1142 1141 1141 1141 1141 1142 1143 1144 1145 1145 1147 1148 1148 1149 1150 1153 1156 1159 1162 1164 1166 1168 1169 1172 1173 1174 1176 1176 1178 1179 1180 1181 1183 1185 1186 1189 1191 1193 1195 1196 1199 1202 1204 1206 1206 1207 1208 1209 1211 1212 1214 1215 1217 1219 1220 1222 1224 1226 1228 1230 1231 1233 1235 1236 1237 1239 1240 1242 1243 1245 1247 1248 1249 1251 1253 1254 1256 1258 1260 1261 1263 1265 1268 1270 1272 1274 1277 1278 1280 1283 1285 1287 1289 1291 1293 1295 1297 1299 1301 1303 1305 1307 1308 1310 1312 1313 1315 1317 1320 1322 1324 1326 1328 1329 1332 1335 1336 1338 1340 1342 1343 1345 1347 1350 1351 1354 1357 1358 1361 1362 1364 1366 1370 1373 1375 1376 1380 1382 1385 1386 1389 1390 1393 1397 1398 1402 1405 1408 1411 1414 1417 1420 1422 1427 1431 1438 1443 1448 1452 1458 1461 1466 1472 1479 1487 1495 1496 1501 1504 1509 1513 1525 1534 1542 1545 1545 1549 1554 1563 1577 1596 1602 1604 1617 1642 1651 1652 1654 1655 1656 1656 1656 1645 1626 1619 1616 1615 1612 1604 1600 1600 1600 1602 1602 1602 1602 1602 1602 1609 1613 1619 1622 1623 1626 1627 1628 1628 1633 1640 1649 1653 1654 1657 1659 1663 1668 1674 1677 1678 1682 1695 1710 1722 1726 1739 1773 1786 1801 1806 1826 1832 1835 1837 1838 1841 1846 1847 1849 1853 1858 1863 1871 1883 1885 1887 1888 1889 1889 1889 1889 1889 1892 1895 1895 1898 1907 1920 1927 1931 1933 1937 1937 1937 1937 1937 1938 1942 1942 1942 1942 1942 1946 1949 1949 1950 1950 1950 1950 1950 1955 1959 1959 1959 1959 1953 1953 1953 1964 1970 1970 1970 1966 1966 1966 1968 1974 1977 1980 1980 1981 1981 1985 1989 1990 1992 1993 1993 1994 1995 1995 1995 1995 1996 2004 2014 2014 2014 2009 2006 2006 2006 2011 2014 2014 2014 2016 2016 2016 2016 2016 2018 2020 2020 2020 2016 2014 2014 2014 2017 2022 2025 2026 2028 2034 2037 2037 2037 2031 2030 2030 2030 2031 2032 2034 2038 2041 2041 2041 2039 2039 2036 2030 2025 2020 2019 2017 2000 2000 2000 2011 2023 2032 2032 2032 2029 2021 2017 2010 1994 1957 1845 1662 1506 1418 1389 1375 1364 1355 1350 1350 1345 1342 1341 1335 1335 1333 1331 1309 1281 1267 1215 1192 1170 1144 1126 1117 1110 1108 1104 1099 1097 1097 1096 1093 1087 1084 1083 1083 1082 1081 1078 1076 1076 1076 1076 1075 1075 1075 1075 1075 1075 1077 1080 1080 1084 1089 1093 1101 1118 1138 1167 1195 1216 1216 1216 1216 1214 1213 1213 1213 1213 1213 1213 1212 1212 1210 1210 1210 1217 1224 1225 1235 1277 1391 1606 1914 2108 2108 2108 2106 2079 2073 2071 2070 2069 2064 2050 2046 2045 2042 2042 2041 2041 2040 2038 2037 2035 2034 2033 2030 2024 2017 2010 2008 2007 2007 2007 2004 1999 1991 1984 1980 1977 1977 1973 1963 1958 1948 1939 1927 1919 1914 1913 1912 1904 1898 1893 1889 1885 1880 1875 1871 1868 1863 1858 1853 1847 1841 1836 1831 1826 1820 1814 1808 1801 1795 1789 1786 1782 1779 1774 1769 1763 1758 1753 1748 1744 1740 1734 1729 1726 1722 1719 1714 1713 1707 1701 1694 1687 1680 1675 1671 1667 1665 1661 1658 1654 1650 1645 1640 1635 1630 1624 1620 1619 1617 1613 1608 1605 1600 1598 1595 1592 1588 1585 1583 1580
1135 1135 1129 1129 1129 1129 1133 1134 1139 1139 1139 1139 1138 1138 1138 1138 1139 1141 1141 1143 1143 1145 1146 1147 1148 1149 1150 1153 1155 1158 1161 1162 1165 1166 1169 1170 1172 1174 1175 1176 1178 1179 1180 1181 1182 1185 1186 1188 1191 1193 1194 1196 1198 1201 1204 1206 1206 1207 1208 1209 1211 1213 1214 1216 1217 1219 1221 1222 1224 1226 1228 1230 1232 1233 1235 1236 1238 1239 1240 1242 1244 1245 1247 1248 1250 1251 1253 1255 1257 1258 1260 1262 1264 1265 1268 1270 1272 1275 1277 1279 1281 1283 1285 1287 1289 1291 1294 1296 1297 1299 1302 1303 1305 1307 1309 1311 1312 1314 1316 1318 1320 1322 1324 1326 1328 1330 1333 1336 1337 1339 1341 1343 1344 1346 1349 1351 1353 1355 1357 1360 1363 1364 1366 1368 1371 1373 1376 1379 1382 1385 1388 1389 1392 1393 1397 1400 1402 1405 1409 1413 1416 1419 1420 1422 1424 1430 1436 1443 1448 1452 1455 1458 1462 1466 1474 1482 1492 1504 1509 1515 1521 1528 1536 1546 1553 1566 1572 1579 1592 1602 1613 1626 1649 1680 1685 1685 1685 1684 1683 1677 1675 1672 1667 1664 1658 1650 1644 1641 1638 1637 1634 1631 1629 1628 1626 1626 1626 1623 1620 1620 1620 1627 1630 1632 1633 1634 1634 1635 1639 1643 1648 1651 1653 1655 1657 1661 1665 1670 1675 1682 1691 1699 1709 1722 1733 1745 1764 1773 1786 1801 1806 1808 1816 1820 1823 1824 1825 1836 1840 1843 1847 1851 1854 1856 1857 1857 1858 1864 1876 1876 1876 1876 1876 1881 1883 1884 1885 1890 1903 1913 1916 1919 1923 1923 1923 1921 1921 1920 1920 1920 1920 1923 1924 1931 1931 1931 1929 1929 1929 1931 1935 1942 1946 1952 1952 1952 1942 1942 1942 1948 1954 1955 1955 1956 1956 1957 1958 1962 1964 1967 1967 1968 1969 1975 1979 1979 1979 1976 1976 1976 1979 1979 1979 1982 1982 1984 1994 1997 1997 1997 1993 1993 1993 1996 2000 2001 2003 2004 2004 2004 2005 2006 2006 2008 2008 2008 2004 2002 2002 2002 2004 2006 2009 2009 2013 2019 2020 2020 2020 2020 2020 2019 2020 2020 2020 2023 2029 2034 2034 2034 2031 2031 2028 2020 2014 2009 2005 1993 1959 1928 1914 1914 1914 1996 2020 2020 2020 2014 2010 2001 1989 1957 1882 1730 1544 1426 1390 1377 1367 1357 1351 1351 1348 1344 1341 1335 1332 1331 1301 1283 1272 1224 1187 1169 1151 1130 1114 1108 1108 1107 1103 1099 1094 1093 1092 1089 1083 1082 1081 1080 1079 1077 1075 1074 1073 1073 1073 1073 1073 1071 1071 1071 1071 1074 1075 1076 1077 1084 1093 1101 1114 1132 1156 1172 1206 1212 1213 1213 1213 1211 1211 1211 1211 1211 1210 1210 1209 1210 1210 1210 1217 1220 1222 1225 1268 1354 1593 1912 2101 2101 2101 2088 2065 2062 2062 2061 2058 2054 2045 2039 2038 2037 2035 2034 2032 2032 2030 2029 2026 2022 2021 2020 2017 2012 2004 2003 2003 2002 2002 2000 1995 1987 1983 1979 1977 1975 1973 1963 1958 1951 1939 1921 1919 1915 1913 1908 1904 1897 1891 1888 1883 1879 1873 1870 1866 1863 1858 1853 1848 1843 1838 1832 1826 1820 1815 1808 1802 1795 1790 1786 1782 1779 1774 1769 1763 1757 1752 1748 1744 1739 1734 1729 1726 1723 1720 1716 1713 1707 1701 1694 1687 1680 1675 1670 1667 1665 1661 1658 1654 1650 1646 1640 1635 1630 1624 1621 1619 1617 1613 1608 1603 1600 1597 1594 1591 1589 1586 1583 1581
1134 1134 1129 1129 1129 1129 1132 1132 1133 1135 1136 1136 1136 1136 1137 1138 1139 1140 1141 1142 1142 1144 1146 1146 1148 1151 1154 1155 1156 1158 1159 1161 1163 1165 1166 1169 1171 1173 1174 1176 1177 1178 1180 1181 1182 1184 1186 1188 1190 1192 1194 1196 1198 1200 1203 1204 1206 1207 1208 1209 1211 1213 1214 1216 1218 1219 1221 1222 1224 1226 1228 1230 1232 1233 1235 1237 1238 1239 1241 1243 1244 1245 1247 1248 1250 1252 1253 1255 1257 1259 1261 1263 1264 1265 1268 1270 1273 1276 1277 1280 1281 1284 1286 1288 1290 1292 1294 1296 1298 1299 1302 1304 1305 1307 1309 1311 1314 1315 1317 1319 1321 1323 1325 1327 1329 1332 1334 1336 1338 1340 1342 1343 1346 1349 1351 1353 1355 1358 1360 1361 1364 1366 1367 1369 1371 1374 1377 1382 1385 1386 1390 1393 1395 1396 1398 1402 1406 1410 1414 1417 1424 1431 1433 1434 1434 1436 1440 1448 1456 1463 1464 1464 1466 1472 1484 1499 1511 1526 1534 1541 1553 1565 1577 1590 1599 1610 1629 1647 1657 1667 1686 1693 1693 1693 1693 1692 1692 1687 1683 1677 1675 1672 1667 1664 1661 1656 1648 1644 1642 1641 1639 1638 1637 1636 1634 1632 1631 1630 1629 1629 1629 1631 1632 1636 1639 1644 1645 1645 1645 1648 1651 1654 1657 1660 1663 1666 1668 1672 1675 1683 1691 1699 1709 1722 1733 1745 1764 1773 1786 1789 1793 1794 1799 1804 1805 1806 1811 1820 1828 1830 1833 1834 1837 1838 1839 1840 1846 1854 1867 1867 1867 1867 1867 1869 1875 1878 1881 1885 1889 1895 1901 1904 1908 1909 1909 1909 1906 1905 1905 1905 1907 1908 1909 1911 1914 1915 1916 1916 1919 1920 1921 1927 1934 1940 1940 1940 1934 1934 1934 1936 1944 1946 1947 1947 1948 1948 1951 1954 1955 1956 1957 1957 1959 1963 1969 1969 1969 1966 1965 1965 1965 1966 1968 1968 1969 1970 1980 1983 1983 1983 1982 1982 1982 1985 1989 1989 1989 1991 1991 1989 1991 1991 1991 1994 1994 1994 1993 1992 1992 1992 1992 1992 1992 1993 2001 2005 2005 2006 2007 2007 2006 2006 2006 2006 2006 2013 2016 2020 2021 2021 2021 2018 2012 2010 2003 1984 1964 1877 1799 1735 1679 1679 1679 1715 1811 1965 1984 1996 1984 1984 1980 1956 1925 1830 1651 1485 1410 1388 1372 1361 1354 1351 1350 1348 1342 1332 1331 1313 1271 1259 1245 1192 1170 1154 1137 1119 1108 1105 1105 1102 1099 1094 1092 1090 1090 1085 1080 1078 1077 1077 1076 1073 1072 1072 1071 1071 1070 1070 1069 1069 1069 1069 1070 1072 1073 1073 1074 1080 1092 1098 1109 1127 1143 1160 1194 1209 1212 1212 1212 1209 1209 1209 1209 1209 1208 1208 1207 1207 1207 1209 1214 1214 1218 1224 1259 1337 1522 1849 2089 2089 2089 2077 2045 2045 2045 2045 2045 2042 2037 2034 2029 2029 2027 2026 2025 2025 2023 2023 2019 2015 2014 2011 2008 2004 1998 1998 1997 1996 1995 1992 1988 1982 1980 1977 1970 1962 1961 1958 1954 1948 1937 1921 1915 1915 1912 1905 1899 1894 1888 1884 1882 1876 1871 1868 1864 1862 1858 1853 1848 1843 1838 1832 1826 1820 1815 1810 1803 1796 1792 1788 1784 1780 1774 1769 1763 1757 1752 1747 1744 1739 1734 1729 1726 1724 1722 1717 1713 1706 1700 1694 1687 1680 1675 1670 1667 1664 1661 1657 1654 1650 1645 1640 1635 1630 1626 1622 1619 1617 1612 1607 1602 1599 1596 1594 1591 1589 1586 1584 1581
1133 1133 1128 1128 1128 1128 1128 1131 1132 1134 1135 1135 1135 1135 1135 1136 1138 1139 1140 1140 1141 1141 1144 1145 1148 1151 1154 1155 1156 1157 1159 1161 1163 1164 1166 1168 1171 1173 1174 1176 1177 1178 1179 1180 1182 1184 1186 1188 1190 1192 1194 1195 1198 1199 1202 1204 1206 1207 1208 1209 1211 1213 1214 1216 1218 1219 1221 1222 1224 1226 1228 1230 1232 1234 1235 1237 1238 1240 1241 1243 1245 1246 1247 1248 1250 1252 1254 1256 1258 1260 1261 1263 1265 1267 1269 1272 1274 1276 1278 1280 1283 1285 1286 1289 1291 1293 1295 1296 1298 1300 1302 1304 1306 1308 1310 1313 1314 1316 1318 1320 1322 1324 1326 1328 1330 1333 1335 1338 1339 1341 1343 1345 1347 1350 1354 1355 1356 1359 1362 1365 1366 1367 1368 1369 1372 1376 1379 1384 1389 1392 1393 1396 1399 1401 1402 1407 1414 1421 1426 1428 1434 1436 1438 1438 1439 1440 1446 1453 1459 1467 1467 1478 1489 1498 1515 1526 1538 1560 1570 1575 1582 1602 1636 1653 1668 1685 1692 1695 1695 1699 1695 1695 1694 1693 1693 1692 1692 1687 1683 1677 1675 1672 1667 1664 1661 1658 1653 1644 1642 1641 1639 1638 1637 1636 1634 1632 1632 1632 1630 1630 1630 1631 1634 1638 1642 1644 1645 1645 1646 1648 1652 1657 1659 1663 1666 1668 1671 1672 1675 1683 1691 1699 1709 1722 1733 1745 1764 1771 1774 1774 1775 1775 1776 1783 1791 1798 1803 1806 1810 1813 1815 1815 1815 1823 1826 1831 1835 1836 1842 1856 1856 1858 1859 1860 1863 1868 1876 1879 1881 1883 1886 1890 1896 1898 1898 1898 1892 1892 1892 1893 1897 1901 1901 1901 1902 1905 1906 1909 1911 1911 1912 1913 1919 1923 1923 1923 1923 1923 1923 1928 1934 1935 1935 1935 1936 1937 1941 1941 1941 1944 1944 1947 1949 1953 1958 1958 1958 1955 1951 1951 1951 1953 1954 1956 1956 1956 1960 1968 1973 1973 1973 1973 1973 1973 1977 1977 1977 1975 1972 1972 1972 1974 1974 1974 1974 1977 1977 1977 1977 1978 1978 1977 1977 1978 1981 1990 1993 1994 1994 1994 1993 1993 1992 1992 1992 1999 2002 2006 2007 2007 2007 2006 1998 1994 1981 1949 1832 1703 1604 1523 1486 1486 1486 1519 1587 1665 1904 1962 1971 1971 1971 1948 1932 1861 1720 1565 1452 1405 1380 1365 1356 1352 1351 1349 1341 1331 1325 1279 1253 1238 1205 1168 1154 1139 1126 1115 1107 1104 1101 1097 1093 1090 1087 1085 1084 1082 1076 1074 1074 1073 1072 1070 1069 1068 1068 1067 1067 1067 1067 1067 1067 1067 1068 1069 1072 1073 1073 1077 1090 1098 1109 1125 1135 1145 1177 1208 1212 1212 1212 1207 1207 1206 1206 1207 1206 1206 1207 1207 1207 1209 1212 1214 1215 1224 1259 1333 1494 1777 2053 2068 2068 2068 2045 2033 2033 2032 2032 2032 2029 2025 2022 2021 2020 2019 2018 2018 2016 2016 2015 2012 2007 2005 2002 1996 1990 1988 1986 1982 1981 1978 1976 1974 1970 1967 1962 1954 1953 1952 1952 1948 1937 1921 1913 1911 1910 1899 1895 1891 1886 1882 1878 1873 1868 1865 1864 1860 1857 1853 1848 1843 1838 1832 1826 1820 1815 1810 1805 1800 1795 1790 1784 1780 1774 1769 1762 1756 1751 1746 1742 1738 1734 1729 1726 1724 1722 1717 1712 1705 1699 1693 1687 1680 1675 1670 1666 1663 1659 1656 1653 1649 1645 1640 1635 1631 1626 1622 1619 1617 1612 1605 1601 1599 1595 1594 1591 1589 1587 1585 1583
1133 1133 1128 1128 1128 1128 1128 1131 1132 1133 1133 1133 1133 1133 1133 1133 1135 1136 1136 1137 1138 1140 1143 1145 1148 1151 1154 1155 1156 1157 1159 1161 1163 1164 1166 1168 1170 1172 1174 1175 1177 1178 1179 1180 1182 1184 1186 1188 1190 1192 1194 1195 1197 1199 1201 1203 1205 1207 1208 1209 1211 1213 1214 1216 1218 1220 1221 1223 1224 1226 1228 1230 1232 1234 1235 1237 1239 1240 1242 1243 1245 1246 1248 1249 1251 1253 1255 1258 1259 1261 1263 1264 1266 1268 1270 1272 1274 1277 1279 1281 1283 1285 1287 1290 1292 1294 1295 1297 1299 1301 1303 1305 1307 1309 1311 1313 1315 1317 1319 1321 1323 1324 1327 1328 1332 1334 1336 1338 1340 1342 1345 1347 1350 1353 1355 1356 1358 1359 1363 1368 1372 1373 1374 1374 1377 1380 1385 1392 1396 1401 1402 1403 1404 1409 1410 1416 1424 1432 1435 1436 1436 1440 1442 1444 1448 1458 1466 1474 1480 1481 1484 1501 1526 1550 1567 1582 1599 1627 1638 1643 1659 1693 1701 1701 1701 1699 1699 1698 1695 1699 1695 1695 1694 1693 1693 1692 1692 1687 1681 1674 1668 1661 1661 1660 1659 1658 1653 1644 1642 1641 1639 1638 1637 1636 1634 1632 1632 1632 1630 1630 1630 1632 1635 1639 1642 1644 1645 1645 1647 1650 1655 1657 1660 1663 1666 1668 1671 1672 1675 1683 1690 1698 1706 1714 1726 1738 1747 1754 1757 1757 1758 1760 1767 1777 1785 1790 1791 1793 1797 1799 1801 1803 1804 1810 1815 1818 1821 1824 1828 1832 1841 1845 1846 1847 1854 1859 1859 1860 1862 1866 1868 1869 1874 1878 1882 1882 1882 1881 1881 1881 1887 1890 1891 1892 1894 1894 1896 1900 1903 1903 1903 1905 1906 1908 1910 1912 1913 1913 1918 1920 1922 1923 1924 1926 1926 1929 1929 1929 1928 1928 1928 1935 1942 1943 1943 1943 1940 1940 1940 1940 1941 1942 1943 1943 1943 1943 1943 1947 1957 1960 1961 1961 1961 1962 1964 1964 1964 1958 1957 1955 1955 1955 1955 1955 1956 1958 1962 1964 1964 1964 1964 1964 1964 1964 1967 1975 1979 1979 1979 1979 1979 1978 1978 1979 1982 1987 1990 1990 1990 1990 1978 1975 1974 1967 1947 1825 1679 1567 1484 1428 1416 1416 1416 1431 1448 1502 1612 1865 1955 1955 1955 1947 1933 1896 1806 1651 1521 1444 1399 1371 1357 1356 1352 1348 1340 1331 1277 1255 1244 1209 1162 1149 1136 1125 1117 1110 1104 1101 1097 1093 1090 1086 1082 1081 1080 1078 1073 1071 1070 1069 1068 1067 1066 1066 1065 1065 1064 1064 1064 1064 1064 1065 1066 1069 1070 1072 1072 1077 1086 1094 1104 1118 1124 1134 1161 1202 1206 1206 1206 1206 1203 1203 1203 1203 1206 1206 1206 1206 1206 1209 1212 1214 1215 1224 1259 1326 1461 1708 2021 2045 2045 2045 2042 2031 2024 2020 2019 2019 2018 2016 2013 2013 2012 2012 2011 2009 2009 2007 2006 2006 2002 1998 1994 1988 1985 1983 1980 1978 1975 1973 1971 1971 1969 1964 1956 1951 1948 1946 1945 1940 1932 1922 1913 1909 1908 1898 1893 1890 1883 1879 1875 1871 1867 1865 1863 1860 1857 1852 1848 1843 1839 1832 1826 1820 1815 1810 1805 1800 1795 1790 1784 1780 1772 1768 1762 1756 1750 1746 1741 1737 1733 1729 1726 1724 1722 1717 1710 1704 1697 1692 1686 1680 1675 1670 1666 1663 1659 1656 1652 1648 1645 1640 1635 1631 1626 1622 1619 1615 1610 1605 1601 1598 1595 1594 1591 1590 1588 1587 1584
1128 1128 1128 1128 1128 1128 1128 1129 1130 1132 1132 1132 1132 1132 1131 1131 1131 1132 1133 1136 1137 1140 1143 1145 1148 1151 1153 1155 1156 1157 1159 1160 1163 1164 1167 1168 1170 1172 1173 1175 1176 1177 1179 1179 1181 1184 1186 1188 1190 1191 1193 1195 1196 1199 1201 1203 1204 1206 1208 1209 1210 1213 1215 1217 1218 1220 1221 1223 1224 1226 1228 1230 1232 1234 1235 1237 1239 1240 1242 1243 1245 1246 1248 1250 1252 1254 1256 1259 1261 1262 1264 1266 1267 1269 1271 1274 1276 1278 1280 1282 1284 1287 1289 1291 1293 1294 1296 1298 1300 1302 1304 1306 1308 1310 1311 1314 1316 1318 1320 1322 1324 1326 1327 1330 1333 1335 1337 1339 1342 1344 1347 1349 1353 1355 1355 1356 1358 1360 1364 1368 1372 1374 1375 1377 1380 1387 1391 1395 1399 1401 1403 1404 1409 1415 1421 1423 1424 1432 1441 1444 1445 1450 1456 1460 1470 1482 1490 1498 1506 1522 1544 1564 1596 1622 1639 1665 1678 1687 1691 1696 1696 1696 1701 1701 1701 1699 1699 1698 1695 1699 1695 1695 1689 1688 1688 1687 1687 1685 1676 1669 1662 1654 1654 1654 1654 1653 1653 1643 1637 1637 1637 1636 1636 1635 1632 1632 1631 1631 1630 1630 1630 1632 1635 1639 1642 1644 1644 1645 1647 1650 1655 1657 1660 1663 1666 1668 1671 1672 1676 1681 1689 1695 1703 1713 1721 1727 1735 1740 1744 1745 1745 1750 1758 1771 1779 1779 1779 1781 1781 1781 1783 1787 1791 1794 1798 1805 1810 1813 1815 1815 1816 1817 1817 1817 1823 1832 1837 1846 1850 1852 1855 1857 1857 1860 1866 1868 1868 1869 1869 1869 1873 1877 1879 1881 1882 1882 1887 1892 1896 1896 1896 1893 1893 1893 1893 1897 1903 1907 1908 1909 1913 1914 1914 1914 1917 1919 1919 1919 1917 1917 1917 1922 1929 1929 1929 1927 1925 1925 1925 1926 1931 1931 1931 1930 1923 1923 1923 1927 1940 1949 1949 1950 1950 1951 1951 1951 1947 1945 1942 1942 1939 1939 1939 1941 1942 1946 1950 1953 1956 1956 1956 1953 1953 1953 1955 1961 1965 1965 1965 1964 1964 1964 1966 1967 1970 1974 1976 1976 1976 1973 1968 1961 1955 1944 1860 1708 1556 1473 1428 1394 1383 1383 1383 1390 1407 1442 1500 1605 1863 1947 1947 1947 1937 1911 1877 1765 1597 1495 1432 1390 1367 1357 1352 1344 1320 1274 1259 1249 1226 1168 1142 1131 1124 1116 1108 1104 1100 1096 1093 1090 1085 1080 1077 1075 1073 1073 1070 1068 1067 1066 1065 1064 1064 1063 1062 1062 1062 1062 1061 1061 1061 1062 1064 1067 1069 1070 1072 1077 1084 1090 1101 1112 1118 1127 1149 1183 1200 1203 1203 1203 1201 1201 1201 1202 1203 1206 1206 1206 1206 1209 1212 1215 1220 1230 1260 1320 1444 1685 2003 2027 2042 2042 2042 2025 2014 2008 2008 2007 2007 2004 2004 2004 2004 2004 2003 2003 2001 2001 2001 2000 1999 1998 1992 1983 1980 1979 1977 1973 1971 1969 1969 1966 1965 1961 1952 1947 1946 1943 1941 1938 1927 1922 1912 1908 1900 1897 1892 1888 1881 1877 1873 1870 1866 1864 1862 1859 1855 1851 1847 1843 1839 1832 1826 1820 1815 1810 1805 1800 1795 1790 1783 1776 1770 1766 1762 1756 1750 1746 1740 1736 1731 1727 1725 1724 1719 1714 1709 1703 1696 1690 1684 1679 1674 1670 1666 1663 1659 1656 1651 1648 1642 1639 1635 1631 1626 1622 1619 1615 1610 1605 1601 1598 1595 1594 1592 1591 1589 1587 1584
1123 1123 1127 1127 1127 1128 1129 1129 1130 1131 1132 1132 1132 1132 1131 1131 1131 1132 1133 1136 1137 1140 1143 1145 1148 1151 1153 1155 1156 1157 1159 1161 1163 1164 1167 1169 1170 1172 1173 1174 1176 1176 1178 1179 1181 1184 1186 1188 1190 1191 1193 1194 1196 1198 1201 1202 1204 1206 1207 1209 1210 1213 1215 1217 1218 1220 1221 1223 1225 1227 1229 1231 1232 1234 1236 1237 1239 1240 1242 1244 1246 1247 1249 1252 1253 1255 1257 1259 1261 1263 1265 1266 1268 1269 1272 1274 1276 1279 1281 1283 1285 1288 1290 1292 1293 1295 1297 1299 1301 1303 1305 1307 1310 1311 1313 1315 1317 1320 1321 1323 1325 1327 1330 1332 1334 1336 1339 1341 1345 1351 1352 1354 1355 1355 1355 1356 1359 1362 1365 1368 1373 1375 1377 1380 1384 1390 1394 1396 1399 1404 1405 1407 1411 1422 1423 1424 1426 1433 1448 1454 1457 1470 1489 1508 1513 1524 1549 1574 1595 1608 1631 1657 1665 1673 1684 1687 1690 1691 1691 1696 1696 1696 1701 1701 1701 1698 1691 1691 1691 1689 1685 1684 1683 1678 1670 1668 1666 1666 1666 1663 1659 1654 1648 1642 1638 1637 1633 1629 1629 1629 1631 1631 1631 1627 1627 1627 1629 1629 1629 1629 1630 1632 1635 1639 1641 1641 1643 1644 1647 1650 1655 1657 1660 1663 1665 1666 1668 1672 1675 1681 1687 1691 1698 1704 1712 1719 1725 1730 1735 1738 1741 1744 1750 1756 1770 1772 1773 1773 1773 1773 1773 1775 1779 1783 1787 1791 1798 1801 1803 1803 1803 1804 1805 1806 1812 1821 1831 1838 1841 1842 1843 1843 1843 1845 1850 1857 1857 1857 1857 1857 1857 1857 1863 1866 1867 1869 1873 1880 1884 1885 1885 1885 1884 1884 1884 1885 1892 1897 1899 1901 1901 1902 1903 1905 1909 1909 1909 1908 1905 1905 1905 1906 1915 1915 1915 1915 1915 1915 1915 1918 1922 1922 1922 1918 1908 1908 1908 1914 1924 1932 1935 1935 1937 1937 1937 1937 1937 1934 1931 1930 1927 1927 1927 1930 1932 1937 1940 1944 1948 1948 1948 1945 1945 1945 1945 1950 1953 1953 1953 1951 1951 1951 1951 1954 1955 1956 1957 1957 1958 1958 1958 1949 1932 1882 1762 1612 1479 1415 1392 1374 1371 1371 1371 1377 1387 1407 1436 1504 1689 1942 1942 1942 1938 1911 1885 1853 1743 1565 1468 1403 1368 1357 1352 1329 1274 1256 1245 1228 1178 1146 1132 1123 1113 1106 1100 1095 1091 1089 1088 1085 1081 1077 1073 1071 1070 1068 1067 1065 1065 1063 1062 1061 1061 1060 1059 1058 1058 1058 1058 1058 1059 1060 1062 1065 1067 1069 1072 1077 1084 1088 1099 1110 1118 1127 1144 1175 1194 1199 1200 1200 1200 1200 1200 1200 1201 1204 1206 1206 1206 1209 1211 1215 1222 1234 1260 1319 1437 1674 1982 2006 2042 2042 2042 2021 2006 2001 2001 2001 1998 1995 1995 1995 1996 1996 1996 1995 1995 1994 1994 1993 1993 1992 1985 1976 1972 1970 1967 1966 1965 1964 1963 1961 1958 1957 1947 1942 1941 1939 1936 1930 1924 1922 1911 1908 1898 1896 1891 1886 1880 1876 1872 1870 1866 1864 1862 1857 1853 1849 1847 1843 1837 1832 1826 1819 1815 1809 1805 1800 1793 1786 1780 1774 1770 1766 1761 1756 1750 1746 1740 1736 1731 1726 1723 1721 1718 1713 1708 1702 1695 1689 1683 1678 1674 1670 1666 1663 1660 1656 1651 1647 1642 1639 1634 1630 1626 1622 1619 1615 1609 1605 1601 1598 1596 1595 1594 1592 1590 1587 1584
1120 1120 1127 1127 1127 1129 1129 1129 1130 1130 1131 1132 1132 1132 1131 1131 1131 1132 1133 1136 1137 1140 1143 1145 1148 1151 1153 1155 1156 1157 1159 1161 1163 1165 1167 1169 1170 1172 1173 1174 1176 1176 1178 1179 1181 1184 1186 1188 1189 1190 1193 1194 1196 1198 1201 1202 1204 1205 1207 1209 1210 1213 1215 1217 1219 1221 1222 1224 1226 1228 1229 1231 1233 1234 1236 1238 1240 1241 1243 1244 1246 1248 1250 1252 1254 1256 1258 1259 1261 1264 1265 1267 1269 1271 1273 1275 1277 1279 1282 1284 1286 1288 1291 1293 1295 1296 1298 1301 1302 1304 1307 1309 1310 1313 1315 1317 1319 1321 1323 1324 1326 1329 1332 1335 1336 1338 1342 1345 1348 1351 1353 1355 1356 1356 1356 1356 1360 1363 1367 1373 1378 1381 1383 1385 1387 1393 1398 1403 1404 1407 1416 1423 1426 1431 1444 1454 1454 1454 1456 1486 1528 1532 1551 1576 1591 1618 1632 1648 1651 1653 1653 1658 1668 1681 1684 1687 1690 1691 1691 1696 1696 1696 1691 1687 1680 1660 1660 1660 1663 1663 1663 1657 1654 1647 1638 1629 1629 1629 1630 1630 1630 1630 1623 1622 1621 1613 1612 1612 1612 1618 1618 1622 1623 1622 1620 1623 1626 1626 1627 1628 1629 1631 1633 1634 1638 1639 1641 1643 1646 1649 1653 1657 1659 1660 1660 1661 1665 1671 1675 1680 1684 1687 1692 1695 1702 1711 1718 1721 1724 1730 1734 1738 1742 1746 1753 1760 1763 1764 1764 1765 1765 1765 1768 1771 1773 1777 1783 1788 1791 1793 1793 1793 1793 1796 1804 1813 1823 1831 1831 1831 1831 1831 1831 1831 1834 1841 1845 1845 1845 1845 1845 1845 1845 1848 1849 1851 1859 1864 1868 1871 1874 1874 1874 1873 1873 1873 1880 1884 1884 1884 1886 1886 1886 1893 1898 1898 1898 1896 1893 1893 1893 1897 1902 1904 1905 1905 1905 1905 1905 1910 1914 1914 1914 1908 1900 1900 1900 1901 1909 1918 1919 1920 1922 1924 1927 1927 1927 1926 1925 1924 1923 1922 1922 1922 1926 1930 1934 1938 1942 1942 1942 1941 1936 1936 1936 1936 1939 1942 1942 1942 1940 1940 1938 1940 1941 1944 1945 1945 1945 1943 1939 1925 1908 1856 1703 1547 1443 1401 1378 1361 1360 1360 1360 1368 1375 1383 1402 1458 1576 1832 1938 1938 1938 1914 1889 1853 1811 1738 1522 1419 1371 1351 1323 1295 1272 1243 1228 1202 1160 1133 1118 1111 1106 1100 1094 1090 1085 1083 1082 1080 1078 1074 1070 1068 1066 1065 1064 1063 1063 1060 1060 1058 1058 1057 1057 1056 1056 1056 1056 1056 1057 1058 1060 1063 1066 1067 1070 1077 1082 1088 1098 1110 1118 1127 1143 1169 1190 1199 1200 1200 1200 1198 1198 1198 1199 1201 1205 1206 1206 1209 1211 1215 1222 1235 1260 1314 1433 1650 1964 1995 2024 2024 2024 2008 1999 1996 1996 1995 1992 1987 1987 1987 1988 1989 1989 1989 1989 1986 1983 1982 1981 1981 1975 1969 1964 1959 1959 1958 1958 1958 1957 1955 1951 1946 1944 1938 1933 1928 1928 1922 1918 1917 1911 1907 1896 1892 1891 1884 1880 1875 1872 1868 1865 1863 1860 1856 1852 1849 1846 1843 1837 1832 1826 1819 1814 1809 1803 1797 1791 1784 1778 1774 1769 1765 1761 1756 1751 1746 1740 1735 1731 1726 1722 1718 1716 1712 1706 1700 1694 1688 1683 1678 1674 1670 1666 1663 1660 1656 1651 1647 1642 1639 1634 1630 1626 1623 1619 1614 1609 1605 1602 1599 1597 1596 1594 1592 1590 1587 1585
1120 1120 1127 1127 1127 1130 1129 1129 1130 1130 1131 1132 1133 1134 1134 1134 1134 1135 1137 1139 1141 1141 1143 1145 1148 1152 1154 1156 1156 1158 1160 1162 1163 1166 1168 1170 1171 1172 1173 1174 1176 1176 1178 1179 1181 1183 1185 1187 1187 1189 1189 1192 1196 1198 1199 1202 1204 1205 1207 1210 1212 1213 1215 1217 1219 1221 1223 1225 1227 1228 1230 1231 1233 1235 1237 1239 1240 1242 1244 1245 1247 1248 1251 1253 1255 1256 1259 1260 1263 1265 1267 1269 1271 1273 1275 1277 1279 1282 1284 1285 1287 1290 1291 1294 1296 1298 1300 1302 1304 1305 1308 1309 1312 1314 1317 1319 1320 1321 1323 1325 1331 1333 1335 1336 1338 1341 1343 1345 1349 1354 1357 1357 1358 1359 1363 1365 1366 1372 1378 1379 1381 1386 1390 1396 1402 1406 1410 1413 1415 1417 1430 1443 1450 1462 1482 1503 1503 1504 1507 1543 1591 1593 1596 1601 1610 1639 1651 1651 1653 1653 1653 1658 1668 1681 1684 1686 1689 1690 1689 1687 1687 1673 1663 1657 1648 1633 1627 1621 1621 1621 1623 1623 1623 1623 1621 1621 1614 1614 1614 1613 1613 1608 1608 1607 1606 1606 1606 1606 1610 1614 1614 1616 1616 1614 1610 1618 1618 1619 1625 1626 1627 1627 1629 1629 1629 1632 1635 1639 1642 1646 1649 1652 1656 1656 1657 1660 1663 1670 1675 1678 1680 1683 1686 1691 1695 1700 1706 1711 1716 1721 1727 1732 1736 1739 1743 1747 1751 1755 1757 1757 1757 1756 1756 1756 1758 1763 1769 1772 1777 1777 1778 1779 1779 1785 1793 1803 1811 1817 1817 1817 1816 1816 1816 1818 1823 1826 1828 1828 1829 1829 1829 1828 1828 1828 1833 1836 1841 1845 1849 1856 1859 1862 1862 1862 1862 1862 1864 1865 1865 1865 1865 1865 1870 1878 1884 1884 1884 1883 1883 1883 1883 1887 1890 1892 1894 1896 1896 1896 1896 1897 1901 1901 1901 1898 1891 1889 1889 1889 1896 1901 1902 1903 1908 1912 1914 1915 1917 1919 1920 1920 1920 1918 1918 1918 1919 1921 1923 1925 1925 1930 1930 1930 1927 1925 1925 1925 1928 1932 1933 1933 1933 1930 1921 1919 1919 1919 1926 1927 1927 1926 1922 1911 1897 1793 1645 1505 1419 1387 1370 1361 1359 1358 1358 1358 1361 1367 1388 1422 1494 1695 1922 1922 1922 1914 1889 1860 1818 1742 1687 1468 1382 1338 1302 1279 1260 1225 1193 1165 1136 1119 1109 1107 1104 1097 1091 1086 1083 1080 1078 1077 1075 1073 1069 1065 1063 1063 1062 1061 1061 1059 1058 1056 1055 1055 1054 1054 1054 1054 1054 1054 1055 1056 1058 1061 1064 1066 1070 1075 1078 1086 1097 1109 1118 1124 1140 1168 1190 1199 1199 1199 1199 1197 1197 1197 1197 1200 1204 1206 1206 1208 1208 1212 1222 1240 1261 1311 1432 1650 1957 1987 2007 2007 2007 1994 1991 1991 1988 1988 1988 1982 1980 1980 1980 1980 1980 1980 1980 1978 1972 1968 1967 1966 1964 1960 1957 1954 1953 1953 1952 1952 1951 1946 1943 1941 1940 1935 1931 1925 1925 1920 1918 1913 1909 1901 1893 1890 1890 1884 1879 1874 1870 1867 1863 1860 1858 1855 1852 1848 1844 1840 1835 1829 1825 1819 1814 1808 1802 1797 1791 1784 1777 1772 1769 1765 1761 1755 1751 1746 1740 1735 1731 1726 1721 1718 1715 1711 1704 1698 1693 1688 1683 1678 1673 1669 1666 1663 1660 1656 1652 1647 1644 1639 1634 1629 1626 1623 1619 1614 1609 1605 1602 1599 1598 1596 1594 1592 1590 1588 1585
1120 1120 1127 1127 1127 1130 1129 1129 1130 1130 1132 1133 1134 1134 1135 1135 1136 1137 1138 1139 1141 1143 1144 1145 1149 1152 1154 1156 1157 1159 1160 1162 1164 1167 1169 1170 1171 1172 1174 1176 1177 1177 1178 1179 1180 1182 1184 1184 1186 1188 1189 1191 1194 1196 1199 1200 1203 1205 1207 1210 1212 1213 1215 1218 1219 1221 1223 1225 1227 1229 1230 1232 1233 1235 1237 1239 1241 1243 1244 1246 1247 1249 1251 1253 1255 1258 1260 1262 1264 1266 1268 1270 1272 1274 1277 1279 1281 1283 1286 1287 1290 1291 1293 1295 1297 1299 1301 1304 1305 1307 1309 1311 1313 1316 1317 1319 1321 1323 1326 1330 1333 1335 1336 1338 1340 1342 1344 1347 1352 1354 1358 1360 1362 1367 1373 1377 1381 1383 1383 1384 1387 1391 1398 1404 1409 1413 1418 1421 1422 1432 1447 1459 1472 1491 1510 1528 1553 1555 1565 1581 1594 1596 1602 1610 1611 1639 1651 1651 1653 1653 1653 1658 1668 1681 1683 1684 1684 1684 1683 1674 1649 1636 1630 1621 1613 1613 1611 1609 1607 1606 1606 1605 1605 1602 1597 1596 1594 1594 1594 1598 1602 1603 1604 1604 1604 1601 1601 1601 1608 1610 1610 1610 1608 1607 1603 1603 1603 1612 1612 1617 1617 1617 1622 1625 1626 1628 1632 1635 1638 1643 1646 1648 1650 1652 1654 1657 1663 1668 1671 1673 1675 1679 1683 1687 1692 1695 1703 1708 1713 1715 1720 1727 1731 1733 1736 1739 1741 1743 1745 1749 1749 1749 1749 1749 1749 1754 1760 1764 1766 1766 1767 1767 1767 1773 1783 1791 1796 1801 1804 1804 1804 1804 1804 1809 1815 1819 1820 1820 1820 1817 1813 1808 1808 1808 1809 1809 1810 1824 1834 1839 1844 1847 1849 1850 1850 1850 1849 1848 1845 1845 1845 1851 1856 1864 1871 1873 1874 1875 1874 1875 1875 1875 1878 1879 1880 1886 1886 1886 1886 1886 1888 1888 1888 1886 1875 1875 1875 1877 1882 1885 1887 1891 1896 1901 1902 1903 1906 1910 1911 1911 1911 1908 1907 1907 1908 1908 1910 1914 1914 1917 1917 1917 1916 1916 1916 1917 1921 1925 1925 1925 1925 1919 1910 1907 1907 1907 1909 1911 1911 1911 1911 1900 1881 1764 1618 1486 1411 1387 1370 1361 1359 1357 1357 1357 1360 1365 1375 1404 1451 1560 1852 1911 1911 1911 1889 1860 1818 1748 1687 1469 1382 1319 1287 1257 1218 1181 1156 1133 1118 1108 1105 1104 1103 1094 1088 1085 1080 1076 1074 1073 1071 1068 1065 1063 1062 1060 1059 1058 1057 1056 1055 1054 1053 1052 1052 1052 1052 1052 1052 1052 1053 1054 1056 1059 1062 1066 1070 1073 1078 1086 1097 1108 1118 1124 1136 1157 1187 1197 1197 1197 1197 1196 1196 1197 1197 1199 1204 1205 1206 1208 1208 1212 1219 1241 1268 1311 1432 1650 1950 1977 1997 1997 1997 1985 1985 1985 1983 1983 1982 1978 1974 1973 1972 1972 1972 1969 1969 1966 1961 1957 1957 1956 1954 1952 1950 1948 1948 1947 1946 1946 1945 1941 1938 1937 1936 1932 1928 1923 1922 1920 1917 1911 1904 1897 1892 1890 1889 1884 1878 1873 1870 1866 1862 1860 1857 1855 1852 1848 1843 1837 1833 1826 1822 1817 1812 1806 1802 1797 1791 1784 1777 1772 1768 1763 1760 1755 1751 1746 1741 1735 1729 1724 1720 1717 1714 1709 1703 1697 1692 1688 1683 1678 1673 1668 1665 1661 1660 1657 1653 1650 1645 1639 1634 1629 1626 1623 1619 1614 1609 1605 1602 1600 1598 1596 1594 1592 1591 1589 1585
1126 1126 1127 1127 1127 1130 1130 1130 1131 1132 1133 1134 1135 1135 1135 1135 1136 1137 1138 1140 1141 1143 1145 1147 1149 1152 1154 1156 1157 1160 1162 1164 1165 1167 1169 1170 1171 1173 1174 1176 1177 1177 1178 1179 1180 1181 1182 1183 1185 1187 1188 1190 1193 1195 1197 1200 1203 1205 1207 1210 1212 1214 1216 1218 1220 1221 1223 1225 1227 1229 1232 1233 1235 1236 1238 1239 1242 1243 1245 1247 1249 1250 1252 1253 1256 1258 1262 1264 1266 1268 1270 1271 1274 1276 1277 1280 1282 1285 1287 1289 1291 1293 1295 1297 1299 1301 1304 1305 1307 1308 1310 1311 1315 1318 1319 1322 1323 1326 1328 1333 1335 1336 1337 1342 1343 1345 1349 1350 1352 1355 1359 1361 1364 1369 1380 1389 1389 1389 1387 1387 1387 1396 1410 1411 1411 1414 1427 1438 1444 1468 1475 1525 1545 1548 1568 1576 1577 1582 1582 1593 1601 1603 1606 1618 1621 1639 1642 1642 1646 1646 1646 1646 1651 1653 1653 1654 1654 1653 1651 1649 1631 1618 1608 1599 1592 1592 1592 1603 1603 1603 1601 1598 1597 1595 1595 1595 1594 1594 1594 1594 1597 1598 1598 1598 1598 1598 1598 1598 1598 1599 1600 1601 1601 1601 1601 1601 1601 1601 1606 1606 1607 1610 1613 1617 1622 1625 1627 1630 1634 1638 1643 1647 1649 1650 1652 1655 1659 1662 1665 1667 1670 1673 1678 1682 1686 1692 1700 1705 1709 1712 1714 1718 1726 1727 1730 1734 1736 1737 1737 1738 1741 1742 1743 1743 1744 1748 1755 1756 1756 1756 1756 1756 1756 1763 1770 1776 1781 1785 1790 1791 1793 1793 1793 1797 1802 1808 1809 1809 1809 1804 1798 1793 1793 1793 1793 1794 1798 1808 1817 1825 1832 1835 1836 1837 1838 1838 1838 1836 1835 1835 1835 1837 1842 1852 1858 1860 1861 1865 1865 1865 1863 1863 1863 1863 1866 1869 1874 1875 1875 1875 1879 1879 1879 1870 1865 1865 1865 1869 1872 1873 1877 1880 1884 1887 1890 1891 1893 1896 1898 1898 1898 1894 1894 1894 1896 1899 1899 1900 1902 1902 1904 1904 1904 1904 1905 1907 1910 1915 1915 1915 1911 1907 1902 1899 1899 1899 1901 1901 1901 1901 1897 1885 1843 1747 1617 1486 1411 1387 1370 1364 1360 1355 1355 1355 1357 1358 1366 1382 1420 1508 1728 1905 1905 1905 1882 1860 1818 1748 1687 1469 1382 1299 1251 1207 1171 1150 1129 1119 1110 1103 1102 1101 1099 1091 1085 1081 1076 1071 1069 1068 1066 1063 1062 1061 1058 1056 1056 1055 1054 1053 1052 1051 1050 1050 1050 1050 1050 1050 1051 1051 1052 1054 1055 1059 1062 1066 1070 1072 1078 1086 1093 1104 1110 1117 1126 1141 1175 1192 1192 1192 1188 1188 1188 1193 1196 1198 1200 1205 1206 1208 1208 1212 1219 1241 1269 1311 1432 1659 1950 1977 1987 1987 1987 1975 1975 1975 1975 1975 1975 1971 1968 1966 1965 1964 1962 1960 1958 1956 1954 1950 1950 1949 1946 1945 1944 1942 1941 1941 1941 1939 1938 1937 1934 1933 1932 1925 1923 1921 1920 1919 1915 1910 1900 1889 1888 1887 1886 1883 1877 1872 1870 1865 1860 1858 1856 1854 1851 1847 1842 1837 1832 1825 1819 1814 1810 1805 1801 1797 1791 1784 1777 1772 1768 1763 1760 1755 1751 1746 1741 1735 1729 1724 1720 1717 1714 1708 1702 1697 1692 1688 1683 1678 1673 1668 1664 1661 1660 1658 1655 1650 1645 1639 1634 1629 1626 1623 1620 1614 1609 1605 1602 1600 1598 1596 1594 1592 1591 1589 1586
1128 1128 1128 1128 1128 1129 1129 1131 1132 1134 1135 1135 1135 1135 1135 1135 1136 1138 1138 1140 1142 1143 1145 1147 1149 1152 1154 1156 1158 1160 1163 1164 1166 1168 1169 1170 1171 1173 1174 1176 1177 1177 1178 1179 1180 1181 1182 1183 1185 1187 1188 1190 1193 1195 1197 1200 1203 1205 1207 1210 1212 1214 1216 1218 1220 1221 1224 1225 1228 1229 1232 1233 1235 1238 1240 1243 1244 1245 1246 1247 1250 1252 1254 1256 1258 1260 1263 1264 1266 1268 1270 1273 1275 1276 1279 1281 1283 1285 1287 1290 1292 1295 1298 1299 1301 1304 1306 1307 1307 1308 1310 1312 1315 1318 1320 1322 1324 1327 1330 1334 1337 1340 1343 1344 1346 1350 1352 1356 1359 1363 1365 1367 1369 1373 1381 1390 1396 1396 1396 1396 1396 1404 1428 1429 1436 1440 1478 1492 1525 1529 1546 1577 1602 1602 1602 1602 1602 1610 1610 1612 1612 1612 1611 1611 1611 1634 1634 1634 1634 1631 1631 1631 1630 1630 1630 1625 1621 1617 1617 1615 1608 1601 1597 1595 1592 1592 1592 1596 1596 1598 1598 1598 1594 1593 1593 1593 1593 1593 1594 1594 1597 1597 1597 1595 1595 1595 1595 1598 1598 1598 1598 1598 1599 1598 1598 1599 1599 1599 1603 1604 1604 1604 1604 1611 1621 1621 1623 1625 1629 1634 1639 1643 1645 1647 1649 1651 1654 1657 1658 1660 1665 1667 1672 1676 1681 1686 1694 1700 1704 1705 1708 1713 1718 1719 1722 1727 1730 1731 1731 1731 1733 1734 1734 1736 1738 1742 1746 1746 1746 1745 1745 1745 1749 1754 1758 1763 1766 1767 1769 1769 1780 1782 1784 1786 1787 1794 1794 1794 1794 1789 1784 1784 1784 1785 1787 1787 1790 1791 1803 1813 1813 1813 1815 1824 1825 1825 1825 1825 1825 1825 1827 1829 1832 1843 1846 1847 1850 1852 1852 1852 1846 1846 1846 1850 1854 1856 1858 1860 1861 1864 1865 1865 1865 1858 1858 1858 1859 1861 1863 1866 1870 1871 1875 1878 1878 1878 1880 1881 1882 1883 1883 1884 1884 1884 1886 1887 1887 1888 1888 1891 1892 1894 1894 1895 1895 1895 1899 1901 1901 1901 1897 1893 1892 1892 1892 1891 1891 1891 1891 1888 1881 1868 1826 1747 1617 1486 1411 1387 1371 1364 1360 1355 1353 1353 1353 1354 1359 1366 1388 1459 1639 1847 1871 1871 1871 1839 1798 1748 1668 1469 1345 1258 1203 1169 1149 1134 1120 1111 1102 1100 1097 1094 1094 1085 1079 1075 1071 1066 1065 1064 1062 1060 1058 1056 1054 1053 1053 1051 1050 1050 1049 1049 1048 1048 1047 1047 1048 1048 1049 1050 1052 1053 1055 1058 1062 1066 1069 1072 1078 1086 1092 1096 1105 1115 1122 1132 1160 1192 1192 1192 1186 1183 1183 1183 1192 1192 1194 1201 1204 1206 1211 1213 1219 1245 1270 1311 1432 1659 1948 1974 1976 1976 1976 1964 1963 1963 1963 1963 1963 1962 1959 1958 1956 1955 1952 1950 1949 1948 1948 1947 1945 1940 1939 1936 1935 1935 1935 1933 1932 1931 1930 1930 1929 1927 1925 1921 1920 1919 1918 1915 1915 1908 1895 1889 1885 1885 1883 1877 1873 1869 1867 1863 1860 1856 1854 1853 1850 1846 1842 1836 1830 1824 1818 1811 1806 1803 1801 1797 1791 1784 1778 1773 1768 1763 1760 1755 1751 1747 1741 1735 1729 1724 1720 1717 1713 1707 1701 1697 1692 1688 1684 1679 1673 1668 1664 1661 1661 1659 1655 1650 1645 1639 1634 1630 1627 1623 1621 1616 1610 1606 1603 1601 1598 1596 1594 1593 1592 1589 1587
1128 1128 1127 1127 1127 1127 1130 1132 1134 1134 1135 1135 1135 1135 1135 1136 1136 1138 1138 1140 1142 1144 1145 1147 1149 1152 1154 1156 1158 1161 1163 1164 1166 1168 1169 1170 1171 1173 1175 1176 1177 1177 1179 1179 1181 1181 1182 1183 1185 1187 1188 1190 1193 1195 1197 1201 1203 1205 1208 1211 1213 1215 1216 1219 1220 1222 1224 1226 1228 1229 1232 1234 1235 1238 1242 1243 1244 1247 1247 1249 1250 1253 1255 1258 1260 1262 1263 1265 1266 1268 1271 1273 1275 1278 1280 1282 1284 1286 1288 1291 1294 1297 1300 1302 1303 1305 1307 1309 1309 1310 1311 1313 1316 1320 1321 1323 1325 1327 1331 1335 1339 1343 1344 1344 1347 1359 1364 1367 1368 1374 1374 1379 1379 1380 1386 1394 1404 1409 1413 1418 1419 1426 1461 1488 1523 1524 1526 1542 1556 1569 1610 1624 1625 1626 1626 1626 1621 1612 1612 1612 1612 1612 1610 1610 1610 1614 1614 1614 1611 1610 1610 1610 1605 1603 1603 1603 1605 1605 1605 1604 1601 1601 1596 1593 1592 1592 1592 1596 1596 1596 1595 1593 1593 1593 1593 1593 1593 1593 1592 1592 1592 1592 1592 1592 1593 1593 1594 1595 1595 1596 1597 1597 1597 1597 1596 1596 1596 1597 1600 1600 1600 1600 1600 1602 1614 1620 1622 1622 1624 1629 1633 1636 1640 1643 1644 1646 1649 1651 1652 1655 1658 1662 1667 1669 1675 1680 1686 1692 1695 1695 1699 1705 1710 1711 1715 1719 1720 1722 1722 1722 1723 1724 1725 1725 1729 1734 1735 1735 1735 1735 1735 1735 1738 1740 1744 1751 1756 1758 1758 1760 1764 1771 1776 1776 1777 1778 1777 1777 1776 1775 1775 1775 1775 1780 1780 1780 1780 1780 1780 1784 1792 1800 1805 1807 1809 1813 1814 1814 1814 1818 1820 1823 1823 1823 1829 1834 1839 1839 1839 1832 1832 1832 1832 1837 1843 1846 1848 1849 1850 1851 1851 1851 1851 1849 1849 1849 1849 1853 1855 1857 1861 1865 1870 1870 1870 1870 1866 1866 1866 1873 1874 1874 1875 1876 1877 1877 1877 1876 1876 1876 1879 1883 1883 1883 1881 1881 1881 1881 1881 1881 1880 1880 1880 1885 1885 1885 1881 1880 1878 1876 1869 1854 1826 1747 1617 1495 1419 1390 1374 1366 1362 1355 1352 1352 1352 1354 1358 1365 1378 1421 1518 1796 1857 1857 1857 1830 1795 1727 1563 1394 1280 1215 1178 1151 1133 1117 1106 1098 1092 1091 1089 1088 1082 1076 1072 1069 1065 1061 1060 1060 1057 1056 1053 1052 1050 1050 1049 1049 1047 1047 1046 1046 1046 1046 1046 1046 1046 1046 1048 1049 1050 1053 1054 1058 1062 1066 1068 1072 1078 1086 1091 1095 1103 1114 1120 1131 1139 1179 1183 1183 1183 1182 1182 1182 1184 1188 1189 1192 1202 1206 1212 1217 1225 1245 1270 1311 1432 1659 1940 1974 1974 1974 1954 1953 1953 1953 1954 1954 1954 1953 1950 1949 1947 1945 1942 1942 1941 1941 1941 1939 1937 1931 1929 1928 1928 1927 1926 1925 1923 1923 1923 1923 1923 1922 1918 1915 1912 1911 1909 1907 1906 1904 1895 1886 1883 1880 1877 1873 1869 1867 1862 1860 1857 1855 1852 1851 1848 1845 1840 1834 1829 1821 1814 1808 1804 1802 1800 1797 1791 1784 1779 1774 1770 1765 1762 1757 1752 1747 1741 1736 1731 1726 1719 1717 1710 1704 1701 1697 1692 1689 1685 1681 1674 1668 1664 1662 1661 1659 1655 1650 1645 1639 1634 1630 1627 1623 1621 1616 1611 1608 1605 1602 1600 1598 1595 1594 1592 1591 1589
1130 1130 1127 1127 1127 1127 1130 1132 1134 1134 1135 1135 1135 1135 1135 1136 1137 1138 1138 1140 1142 1144 1146 1147 1149 1152 1155 1157 1159 1161 1163 1164 1166 1168 1169 1170 1172 1173 1175 1177 1177 1179 1180 1181 1183 1184 1184 1185 1187 1188 1189 1191 1194 1196 1199 1201 1204 1206 1208 1211 1213 1215 1217 1219 1221 1223 1225 1226 1228 1230 1232 1234 1236 1239 1242 1243 1245 1248 1249 1250 1251 1253 1255 1258 1261 1262 1263 1266 1268 1269 1272 1274 1275 1278 1281 1283 1286 1288 1290 1294 1297 1300 1301 1303 1305 1308 1310 1311 1312 1312 1314 1318 1323 1325 1327 1328 1332 1336 1338 1342 1346 1349 1349 1350 1354 1361 1366 1374 1376 1377 1384 1388 1393 1398 1410 1419 1426 1431 1458 1459 1462 1477 1499 1519 1566 1588 1593 1610 1616 1618 1621 1624 1625 1626 1626 1626 1621 1612 1612 1612 1612 1612 1609 1609 1609 1609 1609 1604 1600 1598 1598 1597 1597 1598 1599 1602 1604 1604 1604 1602 1600 1598 1595 1593 1592 1592 1592 1593 1593 1593 1592 1590 1590 1590 1590 1593 1593 1593 1590 1589 1589 1587 1587 1587 1588 1592 1593 1594 1594 1595 1595 1595 1595 1593 1592 1592 1592 1596 1596 1596 1591 1591 1591 1591 1604 1614 1620 1621 1621 1624 1627 1631 1635 1638 1639 1641 1644 1646 1648 1650 1653 1657 1660 1664 1668 1673 1678 1681 1683 1685 1687 1692 1698 1702 1703 1705 1705 1707 1711 1714 1717 1717 1718 1718 1719 1723 1723 1724 1725 1725 1726 1727 1728 1730 1735 1741 1747 1752 1753 1754 1755 1759 1764 1765 1765 1764 1764 1763 1763 1763 1763 1764 1766 1769 1770 1770 1771 1771 1771 1777 1785 1792 1795 1795 1796 1800 1801 1803 1806 1808 1809 1813 1813 1814 1815 1821 1827 1827 1827 1819 1819 1819 1822 1828 1833 1836 1839 1840 1842 1842 1842 1841 1841 1840 1840 1840 1841 1844 1846 1851 1855 1859 1860 1860 1860 1858 1858 1858 1858 1859 1864 1866 1868 1868 1868 1868 1867 1864 1864 1864 1865 1871 1871 1871 1870 1864 1864 1864 1865 1867 1869 1870 1871 1873 1873 1873 1873 1871 1868 1865 1858 1844 1826 1748 1634 1500 1423 1390 1379 1368 1362 1355 1352 1352 1352 1354 1358 1363 1373 1402 1472 1645 1830 1830 1830 1777 1733 1594 1439 1319 1236 1189 1159 1136 1116 1096 1089 1084 1080 1080 1077 1070 1067 1065 1063 1060 1058 1055 1055 1055 1053 1051 1050 1048 1046 1046 1045 1045 1043 1043 1043 1042 1043 1043 1043 1043 1044 1044 1046 1048 1049 1051 1053 1057 1062 1066 1068 1072 1078 1086 1089 1094 1100 1112 1119 1129 1139 1164 1183 1183 1183 1182 1182 1182 1182 1186 1188 1191 1196 1206 1212 1217 1225 1245 1270 1311 1431 1657 1923 1961 1961 1961 1943 1943 1943 1944 1944 1944 1944 1943 1942 1940 1938 1935 1933 1932 1931 1931 1931 1930 1928 1924 1921 1921 1921 1921 1921 1919 1917 1917 1917 1917 1917 1916 1912 1908 1908 1906 1905 1902 1898 1896 1892 1886 1883 1877 1874 1871 1866 1862 1860 1857 1855 1853 1851 1849 1846 1843 1837 1833 1827 1819 1814 1808 1803 1802 1800 1796 1790 1784 1779 1774 1770 1767 1763 1757 1752 1747 1741 1736 1731 1726 1719 1714 1708 1704 1701 1697 1693 1691 1686 1681 1675 1671 1667 1664 1662 1659 1655 1650 1644 1639 1635 1631 1627 1623 1621 1616 1613 1611 1608 1605 1602 1599 1597 1596 1595 1594 1593
1131 1131 1127 1127 1127 1127 1130 1132 1134 1134 1134 1135 1135 1135 1135 1136 1137 1139 1140 1140 1143 1144 1146 1148 1149 1152 1155 1157 1159 1161 1163 1165 1166 1168 1169 1170 1172 1173 1175 1177 1178 1180 1182 1183 1186 1186 1187 1189 1190 1191 1192 1195 1197 1199 1201 1202 1204 1206 1209 1211 1213 1215 1218 1220 1223 1225 1227 1228 1230 1231 1233 1235 1237 1239 1243 1244 1246 1248 1249 1251 1252 1253 1256 1258 1261 1263 1264 1266 1268 1271 1273 1276 1279 1281 1284 1287 1288 1290 1293 1296 1298 1301 1303 1305 1307 1309 1310 1312 1313 1316 1320 1320 1324 1327 1330 1333 1336 1338 1344 1353 1353 1353 1354 1354 1359 1366 1379 1381 1398 1402 1410 1414 1423 1445 1479 1517 1519 1519 1517 1522 1517 1517 1522 1581 1614 1615 1616 1618 1621 1621 1621 1624 1625 1626 1626 1626 1621 1606 1593 1591 1590 1589 1589 1590 1590 1594 1599 1599 1599 1598 1596 1595 1595 1595 1597 1602 1602 1602 1602 1602 1596 1594 1594 1593 1592 1592 1592 1592 1592 1591 1590 1586 1585 1585 1585 1586 1589 1589 1589 1588 1585 1584 1584 1584 1584 1586 1587 1589 1591 1592 1592 1592 1591 1589 1589 1589 1591 1592 1592 1592 1590 1590 1590 1590 1602 1607 1616 1616 1616 1620 1621 1626 1630 1633 1634 1636 1638 1639 1642 1646 1648 1652 1654 1658 1663 1666 1669 1672 1672 1674 1674 1680 1684 1689 1692 1692 1693 1697 1701 1706 1710 1710 1711 1711 1711 1714 1717 1718 1719 1719 1720 1721 1722 1725 1728 1732 1737 1741 1742 1743 1743 1746 1751 1751 1751 1751 1751 1751 1752 1752 1753 1755 1758 1759 1761 1761 1762 1762 1765 1771 1777 1783 1785 1785 1785 1785 1788 1790 1793 1794 1796 1799 1803 1805 1806 1809 1814 1814 1814 1807 1807 1807 1812 1821 1827 1828 1829 1832 1833 1833 1833 1831 1830 1830 1830 1832 1834 1837 1840 1846 1849 1849 1849 1849 1849 1849 1849 1849 1850 1850 1853 1857 1861 1861 1861 1861 1859 1855 1855 1855 1856 1862 1862 1862 1858 1855 1855 1855 1856 1858 1861 1864 1864 1865 1865 1865 1864 1861 1859 1856 1852 1842 1818 1775 1664 1528 1440 1399 1381 1369 1362 1355 1355 1355 1356 1357 1358 1361 1371 1385 1429 1532 1731 1731 1731 1715 1572 1453 1338 1253 1199 1166 1142 1119 1097 1087 1083 1076 1074 1072 1067 1061 1058 1058 1056 1055 1053 1052 1051 1049 1048 1046 1045 1045 1044 1043 1043 1042 1040 1040 1040 1040 1040 1040 1040 1040 1041 1043 1044 1046 1047 1050 1053 1057 1061 1065 1068 1071 1075 1082 1087 1091 1097 1107 1119 1120 1136 1150 1173 1179 1179 1179 1179 1179 1181 1183 1186 1191 1196 1204 1212 1217 1225 1237 1260 1301 1402 1619 1910 1952 1952 1952 1935 1935 1935 1935 1935 1935 1935 1935 1933 1931 1930 1929 1927 1923 1922 1922 1922 1922 1919 1916 1916 1916 1915 1915 1915 1913 1913 1912 1912 1912 1911 1908 1908 1904 1902 1901 1901 1900 1898 1895 1890 1886 1882 1876 1869 1866 1863 1859 1858 1855 1854 1852 1850 1848 1844 1841 1836 1831 1824 1818 1812 1808 1803 1801 1798 1793 1788 1784 1779 1774 1770 1767 1763 1757 1752 1746 1741 1736 1731 1726 1719 1713 1708 1704 1701 1697 1694 1691 1687 1682 1677 1673 1668 1666 1662 1659 1654 1649 1644 1639 1636 1631 1626 1622 1619 1617 1614 1611 1609 1607 1604 1602 1600 1598 1597 1596 1594
1126 1126 1126 1126 1127 1127 1128 1131 1131 1133 1134 1134 1134 1135 1135 1137 1137 1139 1140 1142 1144 1146 1146 1148 1150 1152 1155 1158 1160 1161 1163 1165 1166 1168 1169 1170 1172 1174 1176 1178 1180 1181 1183 1185 1188 1188 1190 1191 1193 1194 1196 1197 1199 1202 1203 1204 1206 1208 1210 1213 1215 1217 1218 1222 1223 1226 1228 1230 1232 1232 1235 1237 1239 1242 1246 1248 1248 1249 1251 1252 1254 1255 1257 1258 1262 1263 1265 1266 1268 1271 1275 1278 1279 1281 1284 1289 1291 1293 1296 1298 1300 1302 1304 1306 1309 1314 1315 1319 1322 1322 1323 1324 1326 1327 1331 1335 1336 1341 1353 1357 1357 1358 1358 1361 1367 1374 1387 1401 1403 1457 1478 1490 1508 1529 1543 1548 1553 1562 1564 1564 1564 1565 1566 1587 1614 1621 1621 1621 1621 1621 1619 1619 1619 1610 1603 1594 1588 1584 1584 1584 1585 1588 1588 1589 1590 1592 1596 1597 1597 1597 1596 1594 1594 1594 1596 1598 1601 1601 1601 1599 1595 1593 1593 1593 1592 1592 1592 1590 1589 1587 1584 1582 1580 1580 1580 1581 1582 1582 1582 1580 1580 1580 1581 1582 1582 1582 1584 1585 1586 1586 1586 1585 1585 1584 1583 1583 1583 1584 1586 1586 1586 1586 1586 1586 1592 1603 1611 1612 1612 1613 1614 1619 1625 1629 1629 1630 1632 1633 1635 1639 1644 1647 1649 1653 1655 1658 1660 1663 1664 1664 1664 1665 1668 1674 1679 1682 1685 1690 1693 1698 1701 1701 1701 1702 1702 1705 1710 1712 1713 1714 1714 1715 1717 1720 1722 1725 1729 1729 1730 1730 1731 1733 1738 1738 1738 1738 1738 1738 1738 1741 1743 1744 1747 1749 1750 1750 1753 1756 1759 1763 1767 1771 1771 1771 1773 1773 1773 1775 1778 1782 1784 1790 1793 1795 1797 1797 1797 1796 1794 1794 1794 1795 1802 1812 1817 1817 1818 1822 1822 1822 1820 1818 1818 1818 1821 1826 1829 1829 1831 1836 1839 1840 1840 1840 1840 1840 1840 1840 1839 1839 1839 1842 1848 1850 1850 1850 1848 1845 1845 1845 1848 1850 1850 1850 1847 1847 1847 1847 1849 1850 1854 1854 1855 1859 1859 1859 1854 1852 1850 1849 1845 1838 1818 1778 1702 1567 1457 1405 1382 1370 1364 1362 1360 1359 1358 1358 1359 1361 1366 1382 1401 1455 1621 1644 1644 1644 1498 1357 1270 1198 1162 1145 1124 1100 1090 1084 1076 1070 1068 1064 1061 1057 1055 1054 1052 1051 1049 1049 1048 1045 1044 1043 1042 1041 1041 1040 1040 1039 1037 1037 1037 1037 1038 1038 1038 1038 1039 1041 1043 1044 1046 1049 1052 1055 1059 1063 1067 1071 1073 1076 1083 1087 1093 1102 1111 1118 1130 1146 1163 1172 1172 1175 1176 1178 1178 1181 1184 1188 1195 1202 1209 1215 1220 1232 1253 1291 1384 1589 1898 1935 1935 1935 1930 1929 1928 1928 1928 1927 1927 1927 1925 1925 1924 1922 1921 1917 1915 1914 1913 1913 1912 1908 1908 1908 1908 1908 1908 1906 1906 1906 1906 1905 1904 1903 1901 1898 1896 1896 1895 1894 1894 1893 1890 1886 1881 1872 1868 1862 1860 1858 1854 1853 1852 1850 1847 1845 1843 1839 1834 1828 1822 1817 1812 1807 1803 1800 1797 1792 1787 1782 1778 1774 1770 1767 1763 1757 1752 1746 1740 1736 1731 1725 1719 1713 1708 1705 1702 1699 1695 1691 1687 1682 1678 1673 1669 1666 1663 1659 1654 1648 1644 1640 1637 1631 1625 1620 1618 1616 1614 1611 1610 1607 1605 1602 1601 1598 1597 1596 1594
1126 1126 1126 1126 1127 1127 1127 1131 1131 1133 1134 1134 1134 1135 1136 1137 1138 1139 1141 1142 1145 1146 1147 1149 1150 1153 1155 1159 1161 1162 1163 1165 1166 1168 1169 1172 1174 1175 1179 1181 1182 1183 1185 1187 1189 1191 1193 1194 1195 1196 1197 1200 1201 1203 1206 1206 1206 1208 1211 1215 1216 1219 1220 1222 1225 1227 1229 1231 1233 1234 1237 1239 1242 1245 1248 1250 1253 1255 1255 1256 1257 1258 1262 1262 1264 1266 1269 1271 1271 1273 1275 1278 1281 1282 1286 1293 1293 1297 1301 1303 1304 1306 1308 1309 1310 1314 1321 1327 1327 1327 1327 1327 1327 1335 1341 1348 1356 1359 1364 1368 1377 1383 1389 1397 1404 1414 1420 1426 1439 1463 1483 1538 1545 1555 1562 1576 1588 1592 1594 1596 1600 1605 1611 1613 1614 1621 1621 1621 1614 1614 1612 1612 1608 1598 1587 1584 1582 1582 1582 1583 1585 1587 1588 1588 1590 1592 1594 1596 1596 1596 1596 1594 1594 1594 1595 1596 1599 1599 1599 1596 1594 1593 1592 1592 1588 1588 1587 1586 1586 1585 1582 1579 1577 1574 1574 1574 1576 1576 1576 1575 1575 1575 1575 1577 1578 1579 1580 1581 1581 1581 1581 1581 1581 1581 1580 1580 1580 1581 1581 1582 1582 1582 1584 1584 1590 1600 1605 1606 1609 1610 1610 1614 1621 1623 1625 1626 1627 1628 1628 1634 1638 1641 1643 1647 1648 1650 1653 1655 1655 1656 1656 1658 1660 1663 1669 1671 1676 1680 1685 1690 1690 1690 1691 1691 1691 1693 1698 1704 1705 1707 1707 1708 1710 1713 1714 1716 1717 1717 1717 1717 1719 1722 1724 1725 1725 1728 1729 1729 1730 1731 1734 1735 1736 1739 1740 1740 1741 1744 1750 1755 1756 1757 1760 1760 1761 1762 1762 1763 1765 1769 1773 1778 1782 1784 1787 1787 1787 1784 1784 1784 1784 1788 1794 1801 1801 1803 1803 1803 1808 1808 1808 1808 1808 1811 1817 1819 1819 1820 1820 1823 1826 1827 1828 1828 1828 1829 1829 1829 1827 1822 1822 1822 1829 1836 1836 1836 1832 1832 1832 1836 1838 1838 1838 1836 1836 1836 1838 1840 1840 1841 1841 1843 1845 1849 1849 1849 1845 1841 1840 1840 1838 1831 1818 1779 1708 1593 1480 1410 1388 1374 1368 1363 1361 1360 1360 1359 1359 1360 1363 1379 1400 1423 1479 1521 1521 1521 1371 1273 1200 1158 1144 1124 1101 1089 1085 1079 1073 1066 1064 1061 1056 1054 1050 1050 1049 1048 1047 1046 1044 1042 1040 1040 1039 1038 1038 1037 1037 1036 1035 1035 1035 1035 1035 1036 1036 1037 1038 1040 1042 1043 1046 1048 1051 1054 1057 1061 1066 1069 1072 1076 1082 1086 1091 1097 1104 1113 1126 1139 1151 1166 1170 1171 1171 1172 1172 1174 1179 1185 1192 1201 1209 1213 1218 1227 1248 1280 1363 1564 1879 1919 1921 1923 1924 1924 1923 1923 1922 1921 1920 1920 1920 1918 1917 1914 1914 1911 1908 1905 1904 1901 1899 1899 1899 1899 1901 1901 1901 1899 1899 1898 1899 1898 1897 1897 1895 1892 1889 1886 1886 1886 1886 1886 1886 1881 1877 1872 1866 1862 1859 1856 1854 1853 1850 1847 1845 1843 1842 1838 1832 1826 1821 1817 1812 1807 1803 1800 1795 1792 1787 1781 1777 1773 1770 1766 1762 1757 1752 1746 1740 1735 1731 1725 1718 1712 1708 1706 1703 1699 1695 1690 1687 1683 1678 1675 1670 1667 1663 1659 1654 1648 1643 1640 1637 1631 1625 1620 1618 1616 1614 1612 1610 1608 1605 1603 1601 1600 1597 1596 1594
